# This PCD file was generated using the MATLAB® pcwrite function
# from Computer Vision Toolbox®.
# .PCD v.7 - Point Cloud Data file format
VERSION .7
FIELDS x y z intensity
SIZE 8 8 8 8
TYPE F F F F
COUNT 1 1 1 1
WIDTH 636
HEIGHT 1
VIEWPOINT 0 0 0 1 0 0 0
POINTS 636
DATA ascii
-12.359177589416504 -1.603487610816956 -0.432124018669128 0.000000000000000
-7.062019824981689 -1.257957816123962 1.288697242736816 0.000000000000000
-12.367418289184570 -1.561021089553833 -0.144515976309776 0.000000000000000
-16.499237060546875 -4.594240665435791 0.098016440868378 0.000000000000000
-7.530716419219971 -0.945024311542511 -0.698556780815125 0.000000000000000
-12.371426582336426 -1.561497092247009 0.143297642469406 0.000000000000000
-7.962074279785156 -1.392807483673096 -0.651247680187225 0.000000000000000
-7.703588962554932 -1.346855163574219 0.134689524769783 0.000000000000000
-6.991887569427490 -0.876356601715088 -0.404099911451340 0.000000000000000
-13.736768722534180 -1.735479593276978 -0.480612576007843 0.000000000000000
-7.958245754241943 -1.363824725151062 -0.231918454170227 0.003921568859369
-13.730331420898438 -1.686317086219788 -0.160627141594887 0.000000000000000
-7.320013046264648 -1.252996921539307 -0.931786417961121 0.003921568859369
-7.953582286834717 -1.362990498542786 -0.046294189989567 0.000000000000000
-7.502351760864258 -0.915189802646637 -0.695581436157227 0.000000000000000
-7.577776908874512 -0.924435257911682 0.087636053562164 0.000000000000000
-7.970817565917969 -1.366062879562378 -0.651577115058899 0.000000000000000
-7.696424961090088 -1.318276643753052 0.134478211402893 0.000000000000000
-12.550938606262207 -1.540345311164856 -0.730887293815613 0.000000000000000
-7.962584495544434 -1.364602327346802 -0.417859584093094 0.000000000000000
-8.442357063293457 -1.447839617729187 0.690550923347473 0.000000000000000
-13.722908973693848 -1.685436367988586 -0.479917645454407 0.000000000000000
-9.417415618896484 -1.583955526351929 -0.275046616792679 0.000000000000000
-13.700396537780762 -1.634454250335693 -0.160208985209465 0.000000000000000
-7.379107952117920 -1.237132906913757 -0.938867747783661 0.000000000000000
-9.330539703369141 -1.569141745567322 -0.054564323276281 0.000000000000000
-7.477824687957764 -0.886040449142456 -0.692978441715240 0.000000000000000
-13.704414367675781 -1.634899377822876 0.158616483211517 0.000000000000000
-7.669440746307373 -1.286409378051758 0.133920416235924 0.000000000000000
-12.508667945861816 -1.491175889968872 -0.728095531463623 0.000000000000000
-9.349492073059082 -1.572422981262207 -0.491520494222641 0.000000000000000
-13.748556137084961 -1.640285253524780 -0.480624020099640 0.000000000000000
-9.296417236328125 -1.532024145126343 -0.271310657262802 0.000000000000000
-13.773277282714844 -1.597264885902405 -0.161015018820763 0.000000000000000
-7.379258155822754 -1.212358474731445 -0.938365221023560 0.000000000000000
-7.366008281707764 -0.848179757595062 -0.682184457778931 0.000000000000000
-7.492695331573486 -1.605441093444824 0.175953283905983 0.000000000000000
-13.737571716308594 -1.593051910400391 0.158933326601982 0.000000000000000
-7.677611827850342 -1.261983275413513 0.133986547589302 0.000000000000000
-12.446118354797363 -1.442158699035645 -0.724137842655182 0.000000000000000
-9.311316490173340 -1.534536957740784 -0.489216029644012 0.000000000000000
-8.349780082702637 -1.374020457267761 0.682094991207123 0.003921568859369
-13.916711807250977 -1.614074110984802 -0.486374735832214 0.000000000000000
-7.360157489776611 -1.181867599487305 -0.935335099697113 0.000000000000000
-9.684122085571289 -1.083678960800171 -0.899987936019897 0.000000000000000
-7.529817581176758 -1.585046887397766 0.176690191030502 0.000000000000000
-7.587053775787354 -0.846156954765320 0.087626703083515 0.000000000000000
-7.701924800872803 -1.237447261810303 0.134329527616501 0.000000000000000
-12.455291748046875 -1.397376656532288 -0.724376380443573 0.000000000000000
-17.762517929077148 -3.770943880081177 1.050192117691040 0.000000000000000
-9.352362632751465 -1.506578326225281 -0.491108953952789 0.000000000000000
-8.217043876647949 -1.321353673934937 0.670717954635620 0.003921568859369
-12.568026542663574 -1.410105109214783 -0.438595771789551 0.000000000000000
-9.364340782165527 -1.478895306587219 -0.273107439279556 0.003921568859369
-7.362316131591797 -1.159068107604980 -0.935368299484253 0.000000000000000
-9.666167259216309 -1.051395297050476 -0.898165345191956 0.000000000000000
-14.311141967773438 -1.562333941459656 0.165410935878754 0.000000000000000
-9.353224754333496 -1.477179646492004 -0.764737427234650 0.000000000000000
-7.688462734222412 -1.211051940917969 0.134018123149872 0.000000000000000
-12.497796058654785 -1.362924575805664 -0.726754605770111 0.000000000000000
-9.355533599853516 -1.477514863014221 -0.491148382425308 0.000000000000000
-7.983430385589600 -1.258121967315674 0.651185870170593 0.000000000000000
-12.519221305847168 -1.365248322486877 -0.436821490526199 0.000000000000000
-9.342047691345215 -1.440635681152344 -0.272293388843536 0.003921568859369
-14.288885116577148 -1.507331132888794 -0.167014047503471 0.003921568859369
-7.370438575744629 -1.133074760437012 -0.935877084732056 0.000000000000000
-9.681838989257812 -1.017610192298889 -0.899286329746246 0.000000000000000
-14.332684516906738 -1.511949300765991 0.165588974952698 0.000000000000000
-9.370394706726074 -1.445119380950928 -0.765719532966614 0.000000000000000
-5.371068954467773 -1.358013987541199 0.158594399690628 0.000000000000000
-7.724465370178223 -1.188184618949890 0.134568974375725 0.000000000000000
-9.352996826171875 -1.442371010780334 -0.490732818841934 0.000000000000000
-16.125223159790039 -3.307488918304443 2.007348537445068 0.003921568859369
-7.366505622863770 -1.106512904167175 -0.934869050979614 0.000000000000000
-7.399401664733887 -0.749186217784882 -0.684459686279297 0.000000000000000
-15.364401817321777 -1.567791819572449 0.177455157041550 0.000000000000000
-9.371444702148438 -1.412169814109802 -0.765397489070892 0.000000000000000
-7.720661640167236 -1.160377740859985 0.134427160024643 0.000000000000000
-9.357976913452148 -1.410083055496216 -0.490736782550812 0.000000000000000
-9.347929954528809 -1.375530481338501 -0.272184401750565 0.000000000000000
-15.345850944519043 -1.512184381484985 -0.179416716098785 0.003921568859369
-7.354627609252930 -1.078823208808899 -0.932849705219269 0.000000000000000
-9.351718902587891 -1.376068115234375 -0.054576352238655 0.000000000000000
-5.404544830322266 -0.525432407855988 -0.496810853481293 0.000000000000000
-15.373764991760254 -1.514914274215698 0.177495062351227 0.000000000000000
-9.396035194396973 -1.382753133773804 -0.767031371593475 0.000000000000000
-7.724668025970459 -1.133789539337158 0.134423911571503 0.000000000000000
-7.774881839752197 -1.141244053840637 0.315852403640747 0.000000000000000
-9.378648757934570 -1.380130767822266 -0.491580188274384 0.000000000000000
-7.238491058349609 -1.760457754135132 -0.128135249018669 0.000000000000000
-10.919539451599121 -1.570972681045532 -0.318477392196655 0.000000000000000
-7.334790229797363 -1.050088524818420 -0.929819226264954 0.000000000000000
-7.157932281494141 -1.740545034408569 0.042332753539085 0.000000000000000
-10.888347625732422 -1.566408753395081 -0.063782110810280 0.000000000000000
-9.767300605773926 -0.924486339092255 -0.906371951103210 0.000000000000000
-7.539326667785645 -0.711072564125061 0.086891598999500 0.000000000000000
-7.416347980499268 -1.061901569366455 -0.603064358234406 0.000000000000000
-7.696918010711670 -1.102586507797241 0.133866444230080 0.000000000000000
-10.936925888061523 -1.573530077934265 -0.574064135551453 0.000000000000000
-7.209318161010742 -1.728283166885376 -0.127505838871002 0.000000000000000
-10.944484710693359 -1.537913203239441 -0.319066196680069 0.000000000000000
-15.244276046752930 -1.398109912872314 -0.178109198808670 0.000000000000000
-7.155894756317139 -1.715257883071899 0.042284045368433 0.000000000000000
-9.778246879577637 -0.893174827098846 -0.907120347023010 0.000000000000000
-18.613756179809570 -1.709378600120544 0.214797660708427 0.003921568859369
-7.692615509033203 -1.076282978057861 0.133724853396416 0.000000000000000
-9.939109802246094 -0.907999694347382 -0.575491487979889 0.000000000000000
-11.009317398071289 -1.547146797180176 -0.577636361122131 0.000000000000000
-9.953785896301270 -0.909329652786255 -0.345747768878937 0.003921568859369
-7.184195518493652 -1.696020364761353 -0.126946851611137 0.000000000000000
-15.330153465270996 -2.106253623962402 -0.448356479406357 0.000000000000000
-7.235651016235352 -0.986171603202820 -0.916173934936523 0.000000000000000
-7.142392158508301 -1.685977935791016 0.042166892439127 0.000000000000000
-11.061212539672852 -1.515460371971130 -0.064765967428684 0.000000000000000
-9.741638183593750 -0.855881690979004 -0.903400838375092 0.000000000000000
-9.910513877868652 -0.870775520801544 0.114215105772018 0.000000000000000
-7.959793090820312 -1.480489015579224 -0.558918654918671 0.000000000000000
-7.720097541809082 -1.053084373474121 0.134137317538261 0.000000000000000
-12.344131469726562 -1.693064093589783 -0.648159265518188 0.000000000000000
-7.178397178649902 -1.668545603752136 -0.126739293336868 0.000000000000000
-12.333889007568359 -1.648130893707275 -0.359755307435989 0.000000000000000
-7.246917247772217 -0.962337613105774 -0.917188107967377 0.000000000000000
-7.132664680480957 -1.657730102539062 0.042072530835867 0.000000000000000
-12.311155319213867 -1.645031213760376 -0.072238177061081 0.000000000000000
-7.371583938598633 -0.619667589664459 -0.680750668048859 0.000000000000000
-19.215057373046875 -1.630474805831909 0.221592143177986 0.003921568859369
-7.949220657348633 -1.450160861015320 -0.557803988456726 0.000000000000000
-9.963404655456543 -1.328580141067505 -0.812359511852264 0.000000000000000
-7.711839199066162 -1.024895787239075 0.133926302194595 0.000000000000000
-7.955955982208252 -1.451383113861084 -0.371908873319626 0.003921568859369
-12.330174446105957 -1.647664427757263 -0.647115051746368 0.000000000000000
-7.926978588104248 -1.445999979972839 -0.185109898447990 0.003921568859369
-7.161093235015869 -1.637185931205750 -0.126321002840996 0.000000000000000
-12.308135986328125 -1.599143505096436 -0.358825415372849 0.000000000000000
-7.285806655883789 -0.940799534320831 -0.921741664409637 0.000000000000000
-7.942706584930420 -1.419269204139709 -0.556969046592712 0.000000000000000
-9.976116180419922 -1.293477535247803 -0.813015878200531 0.000000000000000
-7.707615852355957 -0.995971798896790 0.133784428238869 0.000000000000000
-12.359898567199707 -1.605963945388794 -0.648379623889923 0.000000000000000
-19.642366409301758 -2.560167312622070 3.590745449066162 0.003921568859369
-7.150890827178955 -1.610214591026306 -0.126042917370796 0.000000000000000
-12.356999397277832 -1.564241886138916 -0.360116153955460 0.000000000000000
-7.300695896148682 -0.918492138385773 -0.923261284828186 0.000000000000000
-12.365989685058594 -1.565356135368347 -0.072509959340096 0.000000000000000
-7.947371482849121 -1.393272638320923 -0.556972324848175 0.000000000000000
-10.015942573547363 -1.265284299850464 -0.815953671932220 0.000000000000000
-7.324429988861084 -1.649847030639648 0.215583965182304 0.000000000000000
-7.718812942504883 -0.971770882606506 0.133919984102249 0.000000000000000
-12.507800102233887 -1.583537936210632 -0.655940234661102 0.000000000000000
-12.603822708129883 -0.978403329849243 -0.438547730445862 0.000000000000000
-13.691605567932129 -1.686532855033875 -0.399283200502396 0.000000000000000
-7.307798385620117 -0.893860101699829 -0.923769891262054 0.000000000000000
-13.724961280822754 -1.690637350082397 -0.080626457929611 0.000000000000000
-7.604354381561279 -0.560420334339142 0.087472304701805 0.000000000000000
-7.948258399963379 -1.365206956863403 -0.556696236133575 0.000000000000000
-9.953044891357422 -1.222330689430237 -0.810415804386139 0.000000000000000
-7.690409660339355 -0.941247761249542 0.133362680673599 0.000000000000000
-7.978602409362793 -1.370468139648438 -0.372292518615723 0.000000000000000
-12.616319656372070 -1.553035974502563 -0.661402225494385 0.000000000000000
-7.953517436981201 -1.366076350212097 -0.185400947928429 0.000000000000000
-13.657716751098633 -1.634310007095337 -0.398119747638702 0.000000000000000
-7.318754673004150 -0.869664907455444 -0.924784123897552 0.000000000000000
-13.710926055908203 -1.640691637992859 -0.080513104796410 0.000000000000000
-7.464253902435303 -1.254501700401306 -0.804063558578491 0.000000000000000
-7.439124107360840 -0.522408485412598 -0.686347007751465 0.000000000000000
-7.574351310729980 -0.531965970993042 0.087101399898529 0.000000000000000
-9.341473579406738 -1.574643731117249 -0.655378103256226 0.000000000000000
-9.981000900268555 -1.190814375877380 -0.812375843524933 0.000000000000000
-7.705563068389893 -0.916203618049622 0.133567377924919 0.000000000000000
-9.365846633911133 -1.578773379325867 -0.437807202339172 0.000000000000000
-27.876216888427734 -4.734727859497070 7.545540332794189 0.003921568859369
-9.377353668212891 -1.580708622932434 -0.219089627265930 0.000000000000000
-7.177581310272217 -1.538899421691895 -0.126294478774071 0.000000000000000
-13.792874336242676 -1.602321624755859 -0.402029424905777 0.000000000000000
-9.316774368286133 -1.537526369094849 -0.000261322129518 0.003921568859369
-14.314679145812988 -0.962872207164764 -0.166885286569595 0.003921568859369
-7.320230484008789 -0.844475388526917 -0.924816429615021 0.000000000000000
-7.198106288909912 -1.543344736099243 0.042252793908119 0.000000000000000
-13.750812530517578 -1.597359657287598 -0.080778956413269 0.000000000000000
-7.455305099487305 -1.226837038993835 -0.802810668945312 0.000000000000000
-7.451306343078613 -0.497609645128250 -0.687495648860931 0.000000000000000
-12.806290626525879 -0.860573828220367 0.147361829876900 0.000000000000000
-9.999421119689941 -1.158179283142090 -0.813720285892487 0.000000000000000
-7.675424098968506 -0.885945081710815 0.132979825139046 0.000000000000000
-12.557899475097656 -1.457743048667908 -0.657887518405914 0.000000000000000
-6.847736835479736 -1.125198006629944 0.839506626129150 0.000000000000000
-12.544067382812500 -0.842858374118805 -0.436220854520798 0.000000000000000
-14.251278877258301 -1.605959653854370 -0.415363371372223 0.000000000000000
-19.123699188232422 -1.222236514091492 -0.223647817969322 0.003921568859369
-7.319192886352539 -0.818833410739899 -0.924313604831696 0.000000000000000
-7.215186119079590 -1.521084070205688 0.042317807674408 0.000000000000000
-7.475244045257568 -1.203734278678894 -0.804529488086700 0.000000000000000
-7.349665641784668 -0.465315639972687 -0.677817285060883 0.000000000000000
-7.604310512542725 -0.481605529785156 0.087388567626476 0.000000000000000
-9.358605384826660 -1.511404991149902 -0.655981063842773 0.000000000000000
-10.019248962402344 -1.125430345535278 -0.815028250217438 0.000000000000000
-7.622852325439453 -1.608297109603882 0.223765015602112 0.000000000000000
-7.694367408752441 -0.861316323280334 0.133253812789917 0.000000000000000
-9.335697174072266 -1.507635831832886 -0.435984522104263 0.003921568859369
-12.491471290588379 -1.406149148941040 -0.654114246368408 0.000000000000000
-6.757585048675537 -1.086290359497070 0.827817022800446 0.000000000000000
-12.582840919494629 -0.801738262176514 -0.437487065792084 0.003921568859369
-9.351133346557617 -1.510131001472473 -0.218291327357292 0.003921568859369
-14.328337669372559 -1.564434766769409 -0.417473524808884 0.000000000000000
-19.223665237426758 -1.161658048629761 -0.224786266684532 0.003921568859369
-7.294400691986084 -0.790603280067444 -0.920777142047882 0.000000000000000
-7.475475788116455 -1.177367448806763 -0.804103732109070 0.000000000000000
-7.387025356292725 -0.442194581031799 -0.681171178817749 0.000000000000000
-7.581994056701660 -0.453964591026306 0.087109871208668 0.000000000000000
-9.367767333984375 -1.479719161987305 -0.656264543533325 0.000000000000000
-10.613574028015137 -1.155779242515564 -0.863608062267303 0.000000000000000
-7.693354129791260 -0.834377348423004 0.133181542158127 0.000000000000000
-12.464385032653809 -0.750835537910461 -0.721968114376068 0.000000000000000
-7.860654354095459 -1.238762736320496 0.457366883754730 0.003921568859369
-9.348797798156738 -1.476661324501038 -0.436361759901047 0.000000000000000
-12.709259986877441 -0.765691041946411 -0.441837131977081 0.000000000000000
-9.344503402709961 -1.475948810577393 -0.218014478683472 0.003921568859369
-12.604236602783203 -1.330594658851624 -0.366619020700455 0.000000000000000
-7.289227008819580 -0.764659166336060 -0.919768691062927 0.000000000000000
-7.479542732238770 -1.151629447937012 -0.804106831550598 0.000000000000000
-7.412381649017334 -0.418136566877365 -0.683407902717590 0.000000000000000
-9.364994049072266 -1.446141958236694 -0.655709326267242 0.000000000000000
-7.720084190368652 -0.810422420501709 0.133594065904617 0.000000000000000
-12.522747039794922 -0.710882961750031 -0.725236535072327 0.000000000000000
-7.813643932342529 -1.203668475151062 0.454347312450409 0.003921568859369
-9.349948883056641 -1.443765521049500 -0.436178982257843 0.000000000000000
-12.815623283386230 -0.727630615234375 -0.445486366748810 0.000000000000000
-9.357503890991211 -1.444919228553772 -0.218205541372299 0.003921568859369
-7.479391574859619 -1.126564383506775 -0.803680777549744 0.000000000000000
-7.648364543914795 -0.406561672687531 -0.705379366874695 0.000000000000000
-9.365795135498047 -1.414820790290833 -0.655433416366577 0.000000000000000
-7.492300510406494 -0.761479854583740 -0.606389939785004 0.000000000000000
-7.706818580627441 -0.783521592617035 0.133314207196236 0.000000000000000
-12.544973373413086 -0.670772790908813 -0.726406574249268 0.000000000000000
-9.350738525390625 -1.412493586540222 -0.435996025800705 0.003921568859369
-16.015350341796875 -0.858007967472076 -0.557773590087891 0.003921568859369
-9.350387573242188 -1.412413835525513 -0.217928484082222 0.003921568859369
-7.564985275268555 -1.488666653633118 0.044214792549610 0.003921568859369
-7.475413322448730 -1.099640488624573 -0.802826046943665 0.000000000000000
-7.876461505889893 -0.391668826341629 -0.726606488227844 0.000000000000000
-9.362786293029785 -1.381307125091553 -0.654878199100494 0.000000000000000
-7.717468261718750 -0.757773578166962 0.133449733257294 0.000000000000000
-12.555217742919922 -0.627747654914856 -0.726877450942993 0.000000000000000
-7.821662425994873 -1.151166915893555 0.454341024160385 0.003921568859369
-9.375373840332031 -1.383159875869751 -0.436933249235153 0.000000000000000
-10.949166297912598 -1.618021845817566 -0.255649507045746 0.000000000000000
-10.894393920898438 -1.571332693099976 -0.000495621003211 0.003921568859369
-18.495262145996094 -1.766581416130066 -0.109002254903316 0.000000000000000
-7.467402935028076 -1.072183012962341 -0.801542341709137 0.000000000000000
-8.048847198486328 -0.372570514678955 -0.742620587348938 0.000000000000000
-18.007377624511719 -0.840110480785370 0.207017108798027 0.003921568859369
-10.935119628906250 -1.577356815338135 -0.765869200229645 0.000000000000000
-7.724050045013428 -0.731576383113861 0.133516013622284 0.000000000000000
-10.957754135131836 -1.580623745918274 -0.511416018009186 0.000000000000000
-10.938920974731445 -1.577849745750427 -0.255279630422592 0.000000000000000
-15.916264533996582 -0.686647832393646 -0.185592740774155 0.000000000000000
-18.676563262939453 -1.718595385551453 -0.110057093203068 0.000000000000000
-7.467164993286133 -1.045914411544800 -0.801116466522217 0.000000000000000
-7.966544151306152 -0.341203689575195 -0.734803974628448 0.000000000000000
-15.808429718017578 -0.681923210620880 0.181675970554352 0.000000000000000
-10.430946350097656 -1.467110276222229 -0.729809641838074 0.000000000000000
-7.714612960815430 -0.703867971897125 0.133305311203003 0.000000000000000
-10.998811721801758 -1.547788262367249 -0.513100564479828 0.000000000000000
-10.976037979125977 -1.544521212577820 -0.256032884120941 0.000000000000000
-11.016045570373535 -1.511339545249939 -0.000519757741131 0.003921568859369
-7.561819076538086 -0.297471433877945 -0.087006330490112 0.000000000000000
-7.470772743225098 -1.020207881927490 -0.801119506359100 0.000000000000000
-7.434442996978760 -0.292442530393600 -0.684910535812378 0.000000000000000
-15.734781265258789 -0.624070167541504 0.180796727538109 0.000000000000000
-5.044858455657959 -0.684024512767792 -0.348483145236969 0.000000000000000
-11.032416343688965 -0.972637951374054 -0.896234631538391 0.000000000000000
-7.705074310302734 -0.676236212253571 0.133094638586044 0.000000000000000
-7.937550544738770 -1.477982759475708 -0.510952293872833 0.000000000000000
-12.369599342346191 -1.698953390121460 -0.577505230903625 0.000000000000000
-7.947142124176025 -1.479769825935364 -0.325230479240417 0.003921568859369
-15.251390457153320 -2.098222732543945 -0.356933683156967 0.000000000000000
-11.667394638061523 -1.560468196868896 -0.000613081967458 0.003921568859369
-7.590793132781982 -0.272456407546997 -0.087339073419571 0.000000000000000
-7.470349311828613 -0.993953227996826 -0.800693571567535 0.000000000000000
-7.463280200958252 -0.267867714166641 -0.687519729137421 0.000000000000000
-7.626792907714844 -0.273751318454742 0.087504722177982 0.000000000000000
-11.039718627929688 -0.934822022914886 -0.896564841270447 0.003921568859369
-7.727313995361328 -0.651402473449707 0.133437931537628 0.000000000000000
-7.954438209533691 -1.452808260917664 -0.511724710464478 0.000000000000000
-12.331899642944336 -1.650245070457458 -0.575456917285919 0.000000000000000
-7.940472126007080 -1.450199484825134 -0.324743866920471 0.003921568859369
-12.333964347839355 -1.650490045547485 -0.287864953279495 0.000000000000000
-11.958316802978516 -1.557630062103271 -0.000657167751342 0.003921568859369
-7.603692531585693 -0.246717110276222 -0.087483197450638 0.000000000000000
-7.450117588043213 -0.965124070644379 -0.798123002052307 0.000000000000000
-7.651254177093506 -0.248348310589790 -0.705023407936096 0.000000000000000
-7.627705097198486 -0.247491031885147 0.087502039968967 0.000000000000000
-10.473441123962402 -1.362529754638672 -0.731779396533966 0.000000000000000
-7.713599681854248 -0.623481392860413 0.133158043026924 0.000000000000000
-7.947681903839111 -1.423257946968079 -0.510959088802338 0.000000000000000
-15.832939147949219 -0.518147349357605 -0.917845070362091 0.000000000000000
-12.349472999572754 -1.609114408493042 -0.576021909713745 0.000000000000000
-7.949421405792236 -1.423550605773926 -0.324910610914230 0.003921568859369
-12.351547241210938 -1.609353542327881 -0.288150757551193 0.000000000000000
-7.624500751495361 -0.221128702163696 -0.087721630930901 0.000000000000000
-7.457388877868652 -0.939982354640961 -0.798554956912994 0.000000000000000
-7.528669357299805 -0.218365073204041 -0.693482816219330 0.000000000000000
-7.620529174804688 -0.220993861556053 0.087407425045967 0.000000000000000
-7.711744785308838 -0.596604943275452 0.133085921406746 0.000000000000000
-7.960463047027588 -1.397270679473877 -0.511475205421448 0.000000000000000
-15.854610443115234 -0.463832288980484 -0.919016361236572 0.000000000000000
-12.469953536987305 -1.581064343452454 -0.581440389156342 0.000000000000000
-11.059420585632324 -0.859477400779724 -0.576494455337524 0.000000000000000
-7.958279132843018 -1.396858930587769 -0.325077354907990 0.003921568859369
-7.041859626770020 -0.886762261390686 -0.162730783224106 0.000000000000000
-7.974822044372559 -1.371710658073425 -0.139587476849556 0.000000000000000
-12.566430091857910 -0.934092938899994 -0.364599257707596 0.000000000000000
-7.679686546325684 -0.196325227618217 -0.088413059711456 0.000000000000000
-19.113059997558594 -1.424978971481323 -0.112604215741158 0.000000000000000
-7.447267055511475 -0.912828862667084 -0.797300994396210 0.000000000000000
-7.428334712982178 -0.189852774143219 -0.684204220771790 0.000000000000000
-7.607742309570312 -0.194438576698303 0.087238438427448 0.000000000000000
-7.728217124938965 -0.571236670017242 0.133330330252647 0.000000000000000
-12.699892997741699 -1.565976381301880 -0.592129528522491 0.000000000000000
-12.542624473571777 -0.932338476181030 -0.654628574848175 0.000000000000000
-9.308142662048340 -1.604164004325867 -0.380984276533127 0.000000000000000
-13.765763282775879 -1.698488116264343 -0.321342438459396 0.000000000000000
-9.335452079772949 -1.577368855476379 -0.163790613412857 0.000000000000000
-13.592402458190918 -1.631487131118774 -0.000942264043260 0.000000000000000
-7.696291446685791 -0.171560361981392 -0.088604196906090 0.000000000000000
-9.317024230957031 -1.574193000793457 0.054035827517509 0.000000000000000
-16.277015686035156 -1.158385634422302 -0.095643416047096 0.000000000000000
-7.438411235809326 -0.887034714221954 -0.796016871929169 0.000000000000000
-7.444851875305176 -0.165919780731201 -0.685696125030518 0.000000000000000
-7.608347415924072 -0.169549852609634 0.087235994637012 0.000000000000000
-7.722093105316162 -0.545374751091003 0.133189201354980 0.000000000000000
-9.313952445983887 -1.573746681213379 -0.599192023277283 0.000000000000000
-12.541664123535156 -0.890795111656189 -0.654422998428345 0.000000000000000
-9.293715476989746 -1.570261955261230 -0.380171179771423 0.000000000000000
-12.564375877380371 -0.850864410400391 -0.364374071359634 0.003921568859369
-7.692822456359863 -0.146300688385963 -0.088559485971928 0.000000000000000
-7.449213027954102 -0.863632678985596 -0.796877562999725 0.000000000000000
-7.437399864196777 -0.141416847705841 -0.684953749179840 0.000000000000000
-7.620867729187012 -0.144891396164894 0.087371453642845 0.000000000000000
-7.982031345367432 -0.537824809551239 -0.644919753074646 0.000000000000000
-7.715881824493408 -0.519559741020203 0.133048102259636 0.000000000000000
-12.583019256591797 -1.467456817626953 -0.586164951324463 0.000000000000000
-12.556507110595703 -0.850357294082642 -0.655057132244110 0.000000000000000
-18.859724044799805 -0.362412065267563 -0.657000839710236 0.003921568859369
-13.840273857116699 -1.615308046340942 -0.322850495576859 0.000000000000000
-12.607172966003418 -0.809945762157440 -0.365548074245453 0.000000000000000
-13.738323211669922 -1.555043697357178 -0.000971790810581 0.000000000000000
-7.733280181884766 -0.120439432561398 -0.089033760130405 0.000000000000000
-7.412672519683838 -0.833474516868591 -0.792590975761414 0.000000000000000
-7.413957118988037 -0.115433692932129 -0.682721972465515 0.000000000000000
-7.617329597473145 -0.118583843111992 0.087322942912579 0.000000000000000
-9.355969429016113 -1.516176819801331 -0.601250529289246 0.000000000000000
-12.547443389892578 -0.806104719638824 -0.654431879520416 0.000000000000000
-9.347579002380371 -1.514775514602661 -0.381975740194321 0.000000000000000
-18.173383712768555 -0.286031603813171 -0.632892251014709 0.003921568859369
-9.339365005493164 -1.480315804481506 -0.163590952754021 0.003921568859369
-15.215914726257324 -0.926076412200928 -0.441920518875122 0.000000000000000
-7.729657173156738 -0.093755356967449 -0.088989153504372 0.000000000000000
-9.320901870727539 -1.477329730987549 0.053956348448992 0.000000000000000
-7.403679847717285 -0.806643187999725 -0.791306912899017 0.000000000000000
-7.394406795501709 -0.089666962623596 -0.680862545967102 0.000000000000000
-7.609701633453369 -0.092255137860775 0.087228491902351 0.000000000000000
-7.695375919342041 -0.464930981397629 0.132627233862877 0.000000000000000
-9.353322982788086 -1.482605576515198 -0.600741565227509 0.000000000000000
-12.550183296203613 -0.762661993503571 -0.654436409473419 0.000000000000000
-9.344919204711914 -1.481232166290283 -0.381652832031250 0.003921568859369
-7.709953784942627 -0.065624810755253 -0.088755972683430 0.000000000000000
-7.352012157440186 -0.417322695255280 -0.924386084079742 0.000000000000000
-9.318351745605469 -1.442293763160706 0.053906932473183 0.000000000000000
-7.390771389007568 -0.778186023235321 -0.789594054222107 0.003921568859369
-7.386722564697266 -0.062869593501091 -0.680120289325714 0.000000000000000
-7.605990886688232 -0.064703583717346 0.087179891765118 0.000000000000000
-7.457965373992920 -0.423395693302155 -0.601564526557922 0.000000000000000
-7.701024532318115 -0.437327772378922 0.132693573832512 0.000000000000000
-9.358696937561035 -1.448687672615051 -0.600745618343353 0.000000000000000
-12.540933609008789 -0.716341674327850 -0.653811395168304 0.000000000000000
-9.358185768127441 -1.448581814765930 -0.381983608007431 0.003921568859369
-14.290112495422363 -1.515268683433533 -0.333071470260620 0.003921568859369
-7.718131065368652 -0.040440857410431 -0.088852725923061 0.000000000000000
-7.365243911743164 -0.393925964832306 -0.925905585289001 0.000000000000000
-9.330995559692383 -1.412936925888062 0.053948726505041 0.003921568859369
-7.474508762359619 -0.039186567068100 -0.688315033912659 0.000000000000000
-7.602167129516602 -0.039799895137548 0.087131567299366 0.000000000000000
-7.463311672210693 -0.399218291044235 -0.601893126964569 0.000000000000000
-7.746363162994385 -0.414513945579529 0.133452385663986 0.000000000000000
-9.371344566345215 -1.419194459915161 -0.601262032985687 0.000000000000000
-13.919036865234375 -0.073887243866920 -0.805783331394196 0.000000000000000
-12.559196472167969 -0.675957024097443 -0.654655277729034 0.000000000000000
-5.033100605010986 -0.754651427268982 -0.202927038073540 0.003921568859369
-9.346453666687012 -1.382326364517212 -0.163461655378342 0.000000000000000
-7.650231838226318 -0.013730846345425 -0.088053278625011 0.000000000000000
-7.350724697113037 -0.367768317461014 -0.923885524272919 0.000000000000000
-7.372159957885742 -0.726187348365784 -0.787025868892670 0.003921568859369
-7.470620155334473 -0.013447765260935 -0.687945127487183 0.000000000000000
-7.642259120941162 -0.013699132949114 0.087588615715504 0.000000000000000
-7.400956630706787 -0.370286911725998 -0.596678972244263 0.000000000000000
-7.711816787719727 -0.386005699634552 0.132826685905457 0.000000000000000
-10.939585685729980 -1.620723962783813 -0.702791512012482 0.000000000000000
-12.601375579833984 -0.634501159191132 -0.656759083271027 0.000000000000000
-10.921236038208008 -1.617948889732361 -0.446198493242264 0.000000000000000
-15.302826881408691 -1.518903017044067 -0.356675207614899 0.003921568859369
-7.702234745025635 0.011371898464859 -0.088668935000896 0.000000000000000
-7.355869293212891 -0.343918681144714 -0.924393594264984 0.000000000000000
-10.891880035400391 -1.576936364173889 0.062838621437550 0.000000000000000
-7.370571136474609 -0.701693952083588 -0.786599457263947 0.003921568859369
-7.478591442108154 0.010996953584254 -0.688692212104797 0.000000000000000
-7.630266189575195 0.011286008171737 0.087448403239250 0.000000000000000
-8.186639785766602 -0.383337736129761 -0.660913109779358 0.000000000000000
-7.737027168273926 -0.361908942461014 0.133239418268204 0.000000000000000
-10.972551345825195 -1.588820815086365 -0.704590380191803 0.000000000000000
-9.578620910644531 0.014000007882714 -0.552339494228363 0.000000000000000
-15.859244346618652 -0.747657477855682 -0.828071177005768 0.000000000000000
-10.966090202331543 -1.587846159934998 -0.447836488485336 0.000000000000000
-15.249442100524902 0.022076720371842 -0.530288517475128 0.000000000000000
-18.535375595092773 -1.712112903594971 -0.001690451987088 0.003921568859369
-7.578153610229492 0.038594521582127 -0.087209038436413 0.000000000000000
-7.361047267913818 -0.317505478858948 -0.924902021884918 0.000000000000000
-10.941149711608887 -1.543587446212769 0.063083663582802 0.000000000000000
-7.353296756744385 -0.673210978507996 -0.784457564353943 0.003921568859369
-7.450624942779541 0.037889450788498 -0.686088025569916 0.000000000000000
-7.626176834106445 0.038855262100697 0.087399855256081 0.000000000000000
-8.184010505676270 -0.353531181812286 -0.660589993000031 0.000000000000000
-7.722322463989258 -0.333225280046463 0.132959723472595 0.000000000000000
-7.425576686859131 -1.042782783508301 -0.474108248949051 0.000000000000000
-9.223117828369141 0.046924374997616 -0.531590759754181 0.000000000000000
-13.314208030700684 -1.881749749183655 -0.544562637805939 0.000000000000000
-8.829291343688965 0.044941335916519 -0.305114597082138 0.000000000000000
-15.261302947998047 -1.407939553260803 -0.355469673871994 0.000000000000000
-15.238694190979004 -2.104712963104248 -0.267891913652420 0.000000000000000
-7.334309101104736 -0.292309761047363 -0.921364843845367 0.000000000000000
-15.268531799316406 -2.108821868896484 0.087838537991047 0.000000000000000
-7.584508419036865 -0.302351087331772 -0.043668698519468 0.000000000000000
-7.351529598236084 -0.648808181285858 -0.784031212329865 0.003921568859369
-7.494267940521240 0.062624067068100 -0.690186560153961 0.000000000000000
-7.981984615325928 -0.318503677845001 -0.643964111804962 0.000000000000000
-7.627479553222656 -0.304073184728622 0.131296038627625 0.000000000000000
-7.472486972808838 -1.024542570114136 -0.476931273937225 0.000000000000000
-15.860092163085938 -0.637475788593292 -0.827872335910797 0.000000000000000
-12.326779365539551 -1.699724674224854 -0.503558695316315 0.000000000000000
-12.333618164062500 -1.652796149253845 -0.216180294752121 0.000000000000000
-15.805512428283691 -0.574844539165497 -0.458683609962463 0.003921568859369
-7.355206966400146 -0.265266656875610 -0.923895895481110 0.000000000000000
-12.335319519042969 -1.652992844581604 0.070994250476360 0.000000000000000
-7.434240818023682 0.090274341404438 -0.684603393077850 0.000000000000000
-7.689701080322266 0.093474105000496 0.088130019605160 0.000000000000000
-7.497101783752441 -0.270433783531189 -0.604188621044159 0.000000000000000
-7.720518589019775 -0.278546243906021 0.132885023951530 0.000000000000000
-7.057054996490479 -0.939552426338196 -0.449757784605026 0.000000000000000
-8.970999717712402 0.109108403325081 -0.516907095909119 0.000000000000000
-15.774605751037598 -0.573748588562012 -0.823259711265564 0.000000000000000
-9.004628181457520 0.109539225697517 -0.311289817094803 0.003921568859369
-18.605648040771484 -0.677060008049011 3.373923301696777 0.003921568859369
-8.975535392761230 0.140211492776871 -0.103760704398155 0.000000000000000
-7.338706493377686 -0.239416867494583 -0.921903610229492 0.000000000000000
-12.295877456665039 -1.604526877403259 0.070696935057640 0.000000000000000
-7.692948341369629 -0.251072585582733 -0.044346742331982 0.000000000000000
-7.432361602783203 0.115871295332909 -0.684632897377014 0.000000000000000
-7.631823062896729 0.119079656898975 0.087456710636616 0.000000000000000
-7.898917675018311 -0.257956624031067 -0.637151956558228 0.000000000000000
-7.719928264617920 -0.251949638128281 0.132853597402573 0.000000000000000
-12.383017539978027 -1.572430968284607 -0.216936692595482 0.000000000000000
-8.982993125915527 0.171343952417374 -0.103857852518559 0.000000000000000
-7.363297462463379 -0.214855432510376 -0.924940168857574 0.000000000000000
-12.356953620910645 -1.569060802459717 0.071009665727615 0.000000000000000
-7.745757579803467 -0.226110145449638 -0.044659450650215 0.000000000000000
-7.611368179321289 0.144982978701591 0.087224684655666 0.000000000000000
-7.832028388977051 -0.228724613785744 -0.631611466407776 0.000000000000000
-7.740752696990967 -0.225944608449936 0.133197024464607 0.000000000000000
-11.797411918640137 -1.497491359710693 -0.756444513797760 0.003921568859369
-8.629147529602051 0.164504140615463 -0.497122764587402 0.000000000000000
-11.067362785339355 -0.862225055694580 -0.513067841529846 0.003921568859369
-13.762160301208496 -1.749099493026733 -0.562113165855408 0.000000000000000
-8.251486778259277 -0.240956962108612 1.486322164535522 0.000000000000000
-13.725300788879395 -1.700856328010559 -0.240659087896347 0.000000000000000
-11.975448608398438 -0.896085977554321 -0.000804918527137 0.003921568859369
-8.978412628173828 0.199156850576401 -0.103813119232655 0.000000000000000
-7.734436035156250 -0.201774790883064 -0.044590182602406 0.000000000000000
-7.626872062683105 0.168934136629105 0.087406337261200 0.000000000000000
-7.489975929260254 -0.195349022746086 -0.603572070598602 0.000000000000000
-7.737427711486816 -0.201837047934532 0.133125513792038 0.000000000000000
-12.431858062744141 -1.539392590522766 -0.797216117382050 0.000000000000000
-12.580066680908203 -0.941801726818085 -0.583836555480957 0.000000000000000
-17.292209625244141 -0.454798549413681 3.133697271347046 0.003921568859369
-19.076370239257812 -1.362358570098877 -0.001864255638793 0.003921568859369
-8.989620208740234 0.232004508376122 -0.103957571089268 0.000000000000000
-7.340793132781982 -0.164874330163002 -0.921910822391510 0.000000000000000
-13.713486671447754 -1.648698687553406 0.078687384724617 0.000000000000000
-7.546241760253906 0.194364815950394 -0.695439338684082 0.000000000000000
-7.650195121765137 0.197140648961067 0.087679512798786 0.000000000000000
-7.482672691345215 -0.168084084987640 -0.602922558784485 0.000000000000000
-7.730122089385986 -0.173665031790733 0.132984459400177 0.000000000000000
-12.441381454467773 -1.494667768478394 -0.797477483749390 0.000000000000000
-12.563509941101074 -0.894626259803772 -0.582907617092133 0.000000000000000
-13.809460639953613 -1.660397887229919 -0.563594102859497 0.000000000000000
-13.792736053466797 -1.609861731529236 -0.241655245423317 0.000000000000000
-8.988758087158203 0.263029545545578 -0.103960290551186 0.000000000000000
-7.345294475555420 -0.139678701758385 -0.922418892383575 0.000000000000000
-13.802584648132324 -1.610984802246094 0.079158291220665 0.000000000000000
-8.011284828186035 0.234104573726654 -0.739012956619263 0.000000000000000
-7.629473209381104 0.222899883985519 0.087447538971901 0.000000000000000
-5.653668403625488 -0.106909245252609 -0.453259050846100 0.000000000000000
-7.718687534332275 -0.146802082657814 0.132774323225021 0.000000000000000
-12.454454421997070 -1.452515363693237 -0.797995030879974 0.000000000000000
-12.558586120605469 -0.850574135780334 -0.582538664340973 0.000000000000000
-18.879812240600586 -0.362823367118835 -0.986260354518890 0.003921568859369
-13.080855369567871 -1.526162981987000 -0.533369958400726 0.000000000000000
-8.896007537841797 0.260272353887558 -0.307688325643539 0.003921568859369
-19.230611801147461 -0.306112885475159 -0.558778047561646 0.000000000000000
-8.991837501525879 0.292631864547729 -0.104010052978992 0.000000000000000
-7.341751575469971 -0.115591436624527 -0.921915471553802 0.000000000000000
-7.768131732940674 -0.122342795133591 -0.044788688421249 0.003921568859369
-7.532808303833008 0.244645312428474 -0.694326460361481 0.000000000000000
-7.672667503356934 0.249308109283447 0.087950617074966 0.000000000000000
-12.190038681030273 -0.785155832767487 -0.847971141338348 0.003921568859369
-7.806529521942139 -0.123013347387314 -0.629339039325714 0.000000000000000
-7.727132320404053 -0.121668905019760 0.132910341024399 0.000000000000000
-12.565327644348145 -0.809517741203308 -0.582729637622833 0.000000000000000
-18.817010879516602 -0.299523651599884 -0.982906937599182 0.003921568859369
-12.070162773132324 -0.777128994464874 1.471838831901550 0.000000000000000
-15.332936286926270 -0.989353835582733 -0.356499135494232 0.003921568859369
-7.591109275817871 -0.459950447082520 -0.000164460099768 0.000000000000000
-9.006752014160156 0.324243366718292 -0.104201525449753 0.000000000000000
-7.357982635498047 -0.090516857802868 -0.923940598964691 0.003921568859369
-7.744516372680664 -0.095280364155769 -0.044648025184870 0.000000000000000
-7.575691699981689 0.272174626588821 -0.698425233364105 0.000000000000000
-7.679748058319092 0.276024729013443 0.088040195405483 0.000000000000000
-12.236517906188965 -0.745649337768555 -0.851051211357117 0.000000000000000
-7.499962329864502 -0.092266872525215 -0.604233980178833 0.000000000000000
-7.719513416290283 -0.094950273633003 0.132769435644150 0.000000000000000
-12.464058876037598 -1.368398070335388 -0.798004269599915 0.003921568859369
-12.584030151367188 -0.766988158226013 -0.583480894565582 0.000000000000000
-17.663625717163086 -0.219717755913734 -0.922234833240509 0.003921568859369
-11.037222862243652 -1.210375189781189 -0.448899060487747 0.000000000000000
-17.693004608154297 -0.158632978796959 -0.513753473758698 0.000000000000000
-8.997573852539062 0.355009227991104 -0.104109793901443 0.000000000000000
-7.748803615570068 -0.068635731935501 -0.044674381613731 0.000000000000000
-7.594594001770020 0.299056857824326 -0.700289487838745 0.000000000000000
-7.630780696868896 0.300566136837006 0.087486766278744 0.000000000000000
-7.532134056091309 -0.066728174686432 -0.606845021247864 0.000000000000000
-7.715801715850830 -0.068320669233799 0.132697761058807 0.000000000000000
-12.586633682250977 -0.723409891128540 -0.583485305309296 0.000000000000000
-16.118167877197266 -0.085674293339252 -0.467669069766998 0.000000000000000
-9.004207611083984 0.387961477041245 -0.104206979274750 0.000000000000000
-7.314801692962646 -0.038350202143192 -0.918382883071899 0.003921568859369
-7.757005691528320 -0.040648505091667 -0.044724721461535 0.000000000000000
-7.609364986419678 0.327212333679199 -0.701781511306763 0.000000000000000
-7.649610519409180 0.329030781984329 0.087714053690434 0.000000000000000
-7.560236454010010 -0.039642088115215 -0.609130024909973 0.000000000000000
-7.720002174377441 -0.040432970970869 0.132764354348183 0.000000000000000
-12.605161666870117 -0.678509891033173 -0.584236860275269 0.000000000000000
-9.018855094909668 0.418229490518570 -0.104398287832737 0.000000000000000
-7.342666149139404 -0.014487626031041 -0.921924889087677 0.000000000000000
-7.761100769042969 -0.015270647592843 -0.044750932604074 0.000000000000000
-7.401366710662842 -0.371675163507462 -0.787520706653595 0.000000000000000
-7.620174884796143 0.352666109800339 -0.702900826931000 0.000000000000000
-7.656470298767090 0.354433000087738 0.087803781032562 0.000000000000000
-12.510663032531738 -0.632143795490265 -0.869798898696899 0.000000000000000
-7.496541976928711 -0.014775997027755 -0.603915154933929 0.000000000000000
-7.728095531463623 -0.015186144970357 0.132900401949883 0.000000000000000
-15.636101722717285 -0.791457355022430 -0.725965380668640 0.000000000000000
-15.120489120483398 -0.030532265082002 -0.788505434989929 0.000000000000000
-8.993295669555664 0.449702888727188 -0.104117825627327 0.000000000000000
-7.330768108367920 0.012037040665746 -0.920410335063934 0.003921568859369
-18.615070343017578 -1.784816741943359 0.106347732245922 0.000000000000000
-7.769106388092041 0.012818993069232 -0.044801250100136 0.000000000000000
-7.450351238250732 -0.347169548273087 -0.792671263217926 0.000000000000000
-7.590991020202637 0.378818064928055 -0.700296223163605 0.000000000000000
-7.643139839172363 0.381518393754959 0.087663680315018 0.000000000000000
-12.524854660034180 -0.587218821048737 -0.870642244815826 0.000000000000000
-7.652028083801270 0.012579193338752 -0.616634607315063 0.000000000000000
-7.724102497100830 0.012763205915689 0.132828652858734 0.000000000000000
-15.754643440246582 -0.739985167980194 -0.731386125087738 0.000000000000000
-13.251082420349121 0.021536542102695 -0.690247118473053 0.000000000000000
-15.158641815185547 0.071915522217751 -0.439607709646225 0.003921568859369
-9.007817268371582 0.478491455316544 -0.104308977723122 0.000000000000000
-7.342599868774414 0.034804515540600 -0.921929419040680 0.000000000000000
-7.544829845428467 -0.693674266338348 0.043314054608345 0.000000000000000
-7.645033359527588 0.036318738013506 -0.044063471257687 0.000000000000000
-7.439487934112549 -0.323554545640945 -0.791386544704437 0.000000000000000
-7.601696491241455 0.402984917163849 -0.701415479183197 0.000000000000000
-7.649893283843994 0.405637174844742 0.087753541767597 0.000000000000000
-7.998169898986816 -0.348199903964996 -0.552988231182098 0.000000000000000
-7.735672473907471 0.036695823073387 -0.623484432697296 0.000000000000000
-7.724026203155518 0.036709472537041 0.132826462388039 0.000000000000000
-9.934221267700195 -0.916592776775360 -0.633410155773163 0.003921568859369
-15.092390060424805 0.071569696068764 -0.787045061588287 0.000000000000000
-9.008478164672852 0.511371016502380 -0.104388721287251 0.000000000000000
-7.340902328491211 0.061353255063295 -0.921958982944489 0.000000000000000
-7.403341770172119 -0.295200407505035 -0.787556469440460 0.000000000000000
-7.598647594451904 0.430480748414993 -0.701444506645203 0.000000000000000
-7.658815860748291 0.433994203805923 0.087862119078636 0.000000000000000
-7.930096626281738 -0.316501200199127 -0.548266887664795 0.000000000000000
-8.878107070922852 0.074299529194832 -0.717102527618408 0.000000000000000
-7.722322940826416 0.064653821289539 0.132795915007591 0.000000000000000
-15.790575027465820 -0.634685873985291 -0.366887181997299 0.003921568859369
-7.606600284576416 -0.277109771966934 -0.000212499289773 0.000000000000000
-9.030592918395996 0.543923020362854 -0.104674488306046 0.000000000000000
-7.388432502746582 -0.269115477800369 -0.785842895507812 0.003921568859369
-7.601075649261475 0.456896662712097 -0.701819062232971 0.000000000000000
-7.653263568878174 0.460134953260422 0.087814092636108 0.000000000000000
-7.584243774414062 -0.276332706212997 -0.523940682411194 0.000000000000000
-7.478565692901611 0.088299326598644 -0.602647602558136 0.000000000000000
-7.726051330566406 0.091308973729610 0.132862761616707 0.000000000000000
-8.479073524475098 0.510350763797760 -0.293576002120972 0.003921568859369
-15.760725975036621 -0.578727602958679 -0.366143047809601 0.000000000000000
-7.591531753540039 -0.250368475914001 -0.000212511862628 0.000000000000000
-7.603411674499512 0.483334779739380 -0.702193558216095 0.000000000000000
-7.667579650878906 0.487526446580887 0.087995648384094 0.000000000000000
-7.952057838439941 -0.262494534254074 -0.549670279026031 0.000000000000000
-7.406463146209717 0.112952321767807 -0.596780180931091 0.000000000000000
-7.725687980651855 0.117929376661777 0.132860451936722 0.000000000000000
-4.409390926361084 -0.143688336014748 1.155647516250610 0.000000000000000
-7.052478790283203 0.107665412127972 1.267619609832764 0.000000000000000
-15.734675407409668 -0.523119330406189 -0.365492552518845 0.003921568859369
-7.612313747406006 -0.226126223802567 -0.000217948690988 0.000000000000000
-7.589848518371582 0.507409214973450 -0.701078236103058 0.000000000000000
-7.645969867706299 0.511269450187683 0.087764106690884 0.000000000000000
-8.012713432312012 -0.238258615136147 -0.553867340087891 0.000000000000000
-7.729256153106689 0.143292382359505 0.132927432656288 0.000000000000000
-11.348617553710938 0.211175218224525 2.050416946411133 0.000000000000000
-15.744321823120117 -0.471509516239166 -0.365684777498245 0.000000000000000
-7.709060668945312 -0.201132953166962 -0.000235418905504 0.000000000000000
-19.021564483642578 -1.428216934204102 0.108378984034061 0.000000000000000
-7.524379730224609 0.530323624610901 -0.695121526718140 0.000000000000000
-7.683943271636963 0.541771650314331 0.088221058249474 0.000000000000000
-7.750273227691650 -0.202275201678276 -0.535413563251495 0.000000000000000
-7.736678123474121 0.171434015035629 0.133063361048698 0.000000000000000
-12.533911705017090 -0.938405394554138 -0.508956611156464 0.003921568859369
-15.761936187744141 -0.414589434862137 -0.366064846515656 0.000000000000000
-7.701720237731934 -0.174385964870453 -0.000236649299040 0.000000000000000
-7.502626895904541 0.554751157760620 -0.693261384963989 0.000000000000000
-7.670042037963867 0.567346394062042 0.088081263005733 0.000000000000000
-7.954381465911865 -0.180250659584999 -0.549677968025208 0.000000000000000
-7.728039264678955 0.197884187102318 0.132922753691673 0.000000000000000
-12.537112236022949 -0.894995689392090 -0.508960962295532 0.000000000000000
-7.495745182037354 -0.169662490487099 -0.172351881861687 0.000000000000000
