# This PCD file was generated using the MATLAB® pcwrite function
# from Computer Vision Toolbox®.
# .PCD v.7 - Point Cloud Data file format
VERSION .7
FIELDS x y z intensity
SIZE 8 8 8 8
TYPE F F F F
COUNT 1 1 1 1
WIDTH 651
HEIGHT 1
VIEWPOINT 0 0 0 1 0 0 0
POINTS 651
DATA ascii
-6.022753238677979 3.831187725067139 -0.885244131088257 0.000000000000000
-6.199522018432617 3.541409015655518 -0.748846530914307 0.000000000000000
-5.654924392700195 3.244153738021851 -0.984466612339020 0.000000000000000
-6.052271366119385 3.879993200302124 -0.891830444335938 0.000000000000000
-6.193948745727539 3.566318750381470 -0.749705493450165 0.000000000000000
-6.579740047454834 4.261823654174805 -0.974940299987793 0.000000000000000
-6.178681373596191 3.584035634994507 -0.749274194240570 0.000000000000000
-6.165504932403564 3.605824232101440 -0.749272823333740 0.000000000000000
-6.180016994476318 3.643139839172363 -0.752712190151215 0.000000000000000
-6.167902469635010 3.662862300872803 -0.752710878849030 0.000000000000000
-6.171967983245850 3.694073438644409 -0.754859983921051 0.000000000000000
-5.895545482635498 3.947981595993042 -0.880163311958313 0.000000000000000
-6.152295112609863 3.710581541061401 -0.753998279571533 0.000000000000000
-3.304707765579224 2.143311977386475 0.684275209903717 0.000000000000000
-5.891471862792969 3.974582910537720 -0.881681621074677 0.000000000000000
-6.139306545257568 3.731243371963501 -0.753996729850769 0.000000000000000
-9.352044105529785 5.153455257415771 0.302562296390533 0.000000000000000
-8.693819046020508 4.781733989715576 -0.398257970809937 0.000000000000000
-6.159799575805664 3.773200988769531 -0.758296191692352 0.000000000000000
-6.149940013885498 3.796033143997192 -0.758724689483643 0.000000000000000
-6.366027355194092 3.964770317077637 -0.001021927688271 0.000000000000000
-6.146674633026123 3.823158502578735 -0.760013341903687 0.000000000000000
-6.710093498229980 4.650969028472900 0.137989714741707 0.000000000000000
-7.256435871124268 4.577433586120605 -0.001448511378840 0.003921568859369
-5.905145645141602 4.106717109680176 -0.893301188945770 0.000000000000000
-9.634412765502930 5.490003585815430 0.060787815600634 0.000000000000000
-6.135715484619141 3.848110914230347 -0.760843336582184 0.000000000000000
-5.874735832214355 4.114850997924805 -0.890765309333801 0.000000000000000
-6.142199516296387 3.881812810897827 -0.763422071933746 0.000000000000000
-5.937125682830811 4.190873622894287 -0.902924776077271 0.000000000000000
-6.121977806091309 3.898066997528076 -0.762560188770294 0.000000000000000
-9.707562446594238 6.267102718353271 3.043080091476440 0.000000000000000
-3.958619594573975 2.230958700180054 -0.075701236724854 0.000000000000000
-5.891278743743896 4.186228752136230 -0.897855281829834 0.000000000000000
-6.132190704345703 3.933032989501953 -0.765568971633911 0.000000000000000
-5.914093017578125 4.235403060913086 -0.903933584690094 0.000000000000000
-6.134248256683350 3.965743064880371 -0.767717421054840 0.000000000000000
-6.568458557128906 4.722203254699707 0.644504368305206 0.000000000000000
-5.915145397186279 4.267146110534668 -0.906464874744415 0.000000000000000
-6.136840820312500 3.997492074966431 -0.769865870475769 0.000000000000000
-6.139283657073975 4.029304981231689 -0.772014319896698 0.000000000000000
-6.138298034667969 4.058934211730957 -0.773732662200928 0.000000000000000
-6.124804973602295 4.078529834747314 -0.773730814456940 0.000000000000000
-4.833807468414307 2.886332273483276 0.031411577016115 0.000000000000000
-6.152959823608398 4.128646373748779 -0.779319584369659 0.000000000000000
-6.161301136016846 4.165308475494385 -0.782327950000763 0.000000000000000
-6.600574016571045 4.473136425018311 2.085943460464478 0.000000000000000
-6.166210174560547 4.199783325195312 -0.784906208515167 0.000000000000000
-6.147280693054199 4.220475673675537 -0.784874498844147 0.000000000000000
-10.249737739562988 8.020946502685547 -0.077800922095776 0.000000000000000
-3.568704366683960 2.697785854339600 0.784529387950897 0.000000000000000
-21.870052337646484 17.946689605712891 5.117757797241211 0.003921568859369
-3.915217876434326 2.810565233230591 -0.722343087196350 0.000000000000000
-13.751995086669922 10.820191383361816 4.638335227966309 0.003921568859369
-3.083171129226685 2.180298805236816 -0.062293905764818 0.000000000000000
-5.523338317871094 4.993875980377197 -0.043145332485437 0.000000000000000
-2.711509943008423 2.610702514648438 0.042765792459249 0.000000000000000
-12.373405456542969 11.588669776916504 3.058507919311523 0.003921568859369
-1.884248852729797 1.640799641609192 0.192508012056351 0.000000000000000
-10.966827392578125 9.558188438415527 3.851831436157227 0.000000000000000
-1.602392911911011 1.152771234512329 -0.030229965224862 0.003921568859369
-6.563345909118652 5.850755214691162 2.313621044158936 0.000000000000000
-12.372437477111816 12.425726890563965 3.166086196899414 0.003921568859369
-3.135517597198486 2.772756814956665 0.495767414569855 0.000000000000000
-3.643903255462646 2.989150285720825 0.026749400421977 0.000000000000000
-5.805853843688965 6.093201637268066 -0.049120064824820 0.000000000000000
-2.573967933654785 2.133358240127563 -0.054839786142111 0.000000000000000
-7.006085872650146 6.304248332977295 0.268508791923523 0.000000000000000
-5.996267795562744 5.406468391418457 -0.323838055133820 0.000000000000000
-7.964489459991455 8.156083106994629 -0.002089125802740 0.003921568859369
-3.212932825088501 3.229795694351196 0.000392281915992 0.000000000000000
-5.676487922668457 7.269669532775879 0.104875452816486 0.000000000000000
-5.221909523010254 5.540196895599365 0.434899896383286 0.000000000000000
-4.196834564208984 4.472361564636230 -0.000154604786076 0.000000000000000
-2.221676111221313 2.279448032379150 0.817707419395447 0.000000000000000
-4.570039749145508 4.692777633666992 0.186447143554688 0.000000000000000
-4.590689659118652 4.748068332672119 0.037285245954990 0.000000000000000
-4.730322360992432 6.722965240478516 -0.283919125795364 0.000000000000000
-4.628005027770996 5.968309879302979 -0.043743606656790 0.000000000000000
-6.350090980529785 8.284557342529297 2.764832973480225 0.000000000000000
-9.624823570251465 12.879210472106934 4.274577617645264 0.003921568859369
-8.211622238159180 12.060424804687500 0.841187953948975 0.000000000000000
-1.675168395042419 2.625592470169067 0.123994961380959 0.000000000000000
-4.522367000579834 6.882089614868164 2.179707527160645 0.000000000000000
-5.068656444549561 8.948000907897949 1.857939481735229 0.000000000000000
-4.556251525878906 8.145397186279297 0.160631865262985 0.000000000000000
-4.689854621887207 8.612814903259277 1.772031903266907 0.000000000000000
-4.277578830718994 8.099224090576172 1.654560327529907 0.000000000000000
-2.160600185394287 3.167934656143188 0.109445214271545 0.000000000000000
-4.507865428924561 8.558215141296387 2.569826126098633 0.000000000000000
-1.982398033142090 4.171079635620117 0.079923294484615 0.000000000000000
-3.360831260681152 7.498096466064453 1.485612988471985 0.000000000000000
-3.519555568695068 7.943723678588867 1.571609139442444 0.000000000000000
-10.173176765441895 28.275569915771484 -0.353998303413391 0.003921568859369
-12.659949302673340 27.175674438476562 1.736445307731628 0.003921568859369
-2.372289896011353 5.849738597869873 1.140271663665771 0.000000000000000
-11.936626434326172 27.366817474365234 0.688199341297150 0.003921568859369
-2.739114999771118 6.897400856018066 1.342372179031372 0.000000000000000
-11.317397117614746 27.750020980834961 0.691027462482452 0.003921568859369
-3.283456087112427 9.115107536315918 0.167731121182442 0.000000000000000
-4.624379158020020 13.180413246154785 2.535693645477295 0.000000000000000
-3.036947488784790 8.589866638183594 0.739131808280945 0.000000000000000
-2.307688474655151 7.631347179412842 -0.276812046766281 0.000000000000000
-1.188025951385498 3.869015455245972 -0.045865997672081 0.000000000000000
-3.802076339721680 11.691269874572754 0.498048186302185 0.000000000000000
-7.127281188964844 19.032539367675781 2.485966205596924 0.003921568859369
-3.868488788604736 12.059808731079102 0.513131201267242 0.000000000000000
-5.154281616210938 14.265326499938965 1.854303121566772 0.000000000000000
-1.728997707366943 6.541601657867432 0.078614212572575 0.000000000000000
-2.949235916137695 9.812088012695312 0.177686557173729 0.000000000000000
-2.421454191207886 10.053091049194336 -0.360167294740677 0.000000000000000
-2.904512882232666 12.406923294067383 -0.444450587034225 0.000000000000000
-3.016097784042358 7.569632530212402 0.235345721244812 0.000000000000000
-4.060864925384521 12.233693122863770 0.746943175792694 0.000000000000000
-1.349763154983521 5.977786540985107 -0.212441682815552 0.000000000000000
-1.887048721313477 7.336952209472656 -0.043672546744347 0.000000000000000
-2.661183834075928 10.783169746398926 -0.064759083092213 0.000000000000000
-4.651856422424316 15.994445800781250 0.966199994087219 0.000000000000000
-2.709310531616211 11.156183242797852 0.933928787708282 0.000000000000000
-2.071213006973267 8.651838302612305 0.154662847518921 0.000000000000000
-1.111151814460754 4.327770233154297 0.362572252750397 0.000000000000000
-3.961462736129761 11.786790847778320 0.071148723363876 0.000000000000000
-3.731372594833374 16.398880004882812 0.291720032691956 0.003921568859369
-3.358961582183838 14.693195343017578 0.611728847026825 0.000000000000000
-2.013482332229614 8.677923202514648 -0.051609687507153 0.000000000000000
-2.869375467300415 10.203734397888184 2.829007148742676 0.000000000000000
-0.779581606388092 2.982117414474487 -0.016825923696160 0.000000000000000
-2.917805910110474 10.687325477600098 -0.000465698074549 0.003921568859369
-2.341969966888428 8.586164474487305 1.087951421737671 0.000000000000000
-4.839269638061523 18.937740325927734 0.452255636453629 0.000000000000000
-2.308253765106201 8.723205566406250 2.407953739166260 0.000000000000000
-0.904440760612488 3.932073116302490 0.163883373141289 0.000000000000000
-1.802750229835510 8.905018806457520 0.739449441432953 0.000000000000000
-1.859362959861755 7.340523242950439 0.175554901361465 0.000000000000000
-2.051063537597656 10.440787315368652 1.934825301170349 0.000000000000000
-0.953384160995483 4.515552043914795 0.080729864537716 0.000000000000000
-2.744380712509155 9.345173835754395 0.056105937808752 0.000000000000000
-1.741325020790100 7.293413162231445 0.173914089798927 0.000000000000000
-2.822410821914673 16.274778366088867 0.286915421485901 0.003921568859369
-2.188671588897705 10.026293754577637 0.237932592630386 0.000000000000000
-1.256957769393921 7.253812789916992 1.338390827178955 0.000000000000000
-2.116707324981689 9.849096298217773 0.233593314886093 0.000000000000000
-0.791947901248932 3.302775144577026 0.196831330657005 0.000000000000000
-1.898362517356873 12.281726837158203 1.012491822242737 0.000000000000000
-2.493000268936157 17.278232574462891 0.709472477436066 0.003921568859369
-1.115966081619263 4.106326580047607 -0.171315491199493 0.000000000000000
-0.787511885166168 4.874485969543457 -0.257063925266266 0.000000000000000
-0.905373215675354 3.431351900100708 -0.060615707188845 0.000000000000000
-1.464704513549805 5.943836688995361 0.177592977881432 0.000000000000000
-1.540481090545654 6.284688949584961 -0.261994957923889 0.000000000000000
-3.329041242599487 15.344873428344727 0.455214679241180 0.000000000000000
-1.553248524665833 13.581443786621094 2.489287853240967 0.000000000000000
-4.362755298614502 28.104051589965820 1.652783513069153 0.003921568859369
-1.214269280433655 11.501364707946777 -0.067224413156509 0.000000000000000
-1.805868029594421 8.624259948730469 0.255684465169907 0.000000000000000
-1.095158696174622 6.688234806060791 0.393862187862396 0.000000000000000
-2.128923654556274 14.261627197265625 0.334534734487534 0.000000000000000
-0.987453520298004 4.477975845336914 0.133254840970039 0.000000000000000
-1.548081636428833 10.098454475402832 2.732057809829712 0.000000000000000
-1.759356141090393 11.918787002563477 0.279652237892151 0.000000000000000
-0.778104066848755 4.708452701568604 0.277371704578400 0.000000000000000
-1.496655702590942 7.443600177764893 -0.131864264607430 0.000000000000000
-2.561047792434692 18.287014007568359 0.428239732980728 0.000000000000000
-0.886978924274445 9.024313926696777 -0.474367737770081 0.000000000000000
-2.902768850326538 22.643653869628906 6.110785961151123 0.003921568859369
-3.075398683547974 17.850708007812500 0.104110702872276 0.000000000000000
-1.329970717430115 10.736380577087402 1.326389312744141 0.000000000000000
-0.683878898620605 5.275432586669922 0.651846110820770 0.000000000000000
-1.141542434692383 20.902940750122070 3.814669370651245 0.003921568859369
-0.890350282192230 16.923963546752930 3.088263750076294 0.003921568859369
-0.123607970774174 9.496227264404297 -0.774909853935242 0.000000000000000
-0.456488490104675 7.297744274139404 0.897395491600037 0.000000000000000
-0.945479512214661 9.027450561523438 -0.369105428457260 0.000000000000000
-0.533047556877136 4.649613380432129 -0.080832853913307 0.000000000000000
-1.122449398040771 14.379068374633789 -0.251853197813034 0.000000000000000
-0.573035776615143 21.926813125610352 2.692103862762451 0.003921568859369
-1.340257287025452 18.449016571044922 -0.323345333337784 0.003921568859369
0.536315679550171 12.535687446594238 2.288973569869995 0.000000000000000
-0.578633368015289 12.038955688476562 0.070060655474663 0.000000000000000
0.513230144977570 8.610379219055176 1.574643969535828 0.000000000000000
0.669830918312073 13.983964920043945 3.753030300140381 0.000000000000000
0.078580550849438 2.768240928649902 0.341539114713669 0.000000000000000
0.799262881278992 7.245213985443115 0.128102764487267 0.000000000000000
2.056842327117920 16.713533401489258 3.073184013366699 0.003921568859369
1.417244672775269 16.805942535400391 0.982901811599731 0.000000000000000
1.131636619567871 8.849723815917969 1.629950523376465 0.000000000000000
2.843903064727783 20.518512725830078 3.779810428619385 0.003921568859369
1.276431679725647 12.382917404174805 3.339135646820068 0.000000000000000
1.217420220375061 7.695505619049072 0.318819552659988 0.000000000000000
0.567180097103119 3.607827663421631 -0.106075927615166 0.000000000000000
0.405286431312561 3.480389595031738 0.205605432391167 0.000000000000000
0.872062265872955 6.334901332855225 0.149803772568703 0.000000000000000
1.092959761619568 7.105279445648193 0.168315455317497 0.000000000000000
1.159929990768433 7.180520534515381 1.954177498817444 0.000000000000000
1.188232660293579 7.050624370574951 0.000622930994723 0.000000000000000
2.500849008560181 9.093807220458984 -0.109390988945961 0.000000000000000
1.526070833206177 6.957795619964600 0.291822791099548 0.000000000000000
2.189695835113525 9.793308258056641 1.834511876106262 0.000000000000000
1.113331437110901 8.259274482727051 0.243510410189629 0.000000000000000
2.629138469696045 10.816268920898438 2.034706592559814 0.000000000000000
1.749202728271484 6.817442893981934 1.288560032844543 0.000000000000000
1.121664881706238 5.304085254669189 0.317639172077179 0.000000000000000
1.731839418411255 6.397634029388428 0.271819651126862 0.000000000000000
2.330175638198853 10.221470832824707 0.612474083900452 0.000000000000000
2.721209049224854 9.726977348327637 0.413314014673233 0.000000000000000
2.364269018173218 10.052847862243652 1.271486282348633 0.000000000000000
1.857326269149780 9.908386230468750 0.294489800930023 0.000000000000000
2.315570116043091 9.563865661621094 0.000648482819088 0.003921568859369
1.781896829605103 7.451148986816406 2.059830427169800 0.000000000000000
2.736910581588745 7.545632362365723 -0.093056157231331 0.000000000000000
1.143482327461243 3.299045085906982 0.041740223765373 0.000000000000000
2.997347116470337 9.546268463134766 1.830285191535950 0.000000000000000
3.015865087509155 9.373151779174805 -0.056665495038033 0.000000000000000
1.883520126342773 8.603718757629395 0.257523864507675 0.000000000000000
2.360732555389404 6.151599407196045 0.077885925769806 0.000000000000000
3.265020608901978 9.780611038208008 0.844990432262421 0.000000000000000
3.035614728927612 12.784283638000488 -0.229156836867332 0.000000000000000
2.306632518768311 9.525776863098145 0.057715803384781 0.000000000000000
1.769516587257385 5.065940856933594 -0.282135337591171 0.000000000000000
5.137706756591797 13.663742065429688 -0.424938023090363 0.000000000000000
3.072903633117676 11.224970817565918 -0.202932149171829 0.000000000000000
2.991486787796021 9.190372467041016 0.226260110735893 0.000000000000000
3.361257076263428 12.078536987304688 -0.218631684780121 0.000000000000000
4.872066974639893 14.620761871337891 0.000755827524699 0.000000000000000
6.313884735107422 16.218875885009766 0.711322009563446 0.003921568859369
2.230126619338989 8.119876861572266 -0.343423694372177 0.000000000000000
5.990918159484863 17.329988479614258 2.255879878997803 0.003921568859369
4.028685092926025 11.595526695251465 0.000720274285413 0.000000000000000
3.252681970596313 8.125473022460938 0.358634322881699 0.000000000000000
4.984967708587646 14.133777618408203 0.000760963011999 0.000000000000000
0.918859064579010 2.121885061264038 0.027963230386376 0.000000000000000
1.338166713714600 3.270798206329346 0.062916755676270 0.000000000000000
4.736192703247070 11.076589584350586 2.203482627868652 0.000000000000000
0.795307636260986 2.690045356750488 0.082978226244450 0.000000000000000
1.328701972961426 4.318338394165039 -0.184527531266212 0.000000000000000
4.429886817932129 11.566262245178223 -0.288153171539307 0.000000000000000
2.786146402359009 7.281808853149414 2.098171949386597 0.000000000000000
4.049753189086914 9.063814163208008 0.814129650592804 0.000000000000000
2.781755685806274 8.073892593383789 -0.148897781968117 0.000000000000000
6.211967468261719 14.736230850219727 0.000867304159328 0.003921568859369
2.162519931793213 5.996781349182129 -0.111146740615368 0.000000000000000
3.042172193527222 8.092614173889160 -0.150750428438187 0.000000000000000
4.196833610534668 10.847252845764160 0.340002983808517 0.000000000000000
4.790588378906250 12.228619575500488 -0.229017436504364 0.000000000000000
3.193918943405151 7.110214710235596 0.456477046012878 0.000000000000000
2.915552139282227 7.298769474029541 0.230212152004242 0.000000000000000
5.009563446044922 10.861615180969238 1.473455429077148 0.000000000000000
2.049137592315674 5.134635925292969 0.162325635552406 0.000000000000000
2.920592308044434 6.343253612518311 0.409255355596542 0.000000000000000
1.220663666725159 3.100263118743896 -0.214872986078262 0.000000000000000
3.414879083633423 6.481571197509766 1.343105435371399 0.000000000000000
2.737476587295532 6.658302307128906 0.211007580161095 0.000000000000000
5.207581996917725 9.107284545898438 -0.305583238601685 0.000000000000000
2.114436864852905 4.798597812652588 0.154030203819275 0.000000000000000
4.818717479705811 7.504994392395020 -0.312050461769104 0.000000000000000
5.770441055297852 8.826449394226074 -0.368789941072464 0.000000000000000
3.782665729522705 7.041006088256836 0.986364245414734 0.000000000000000
14.560463905334473 23.707878112792969 5.081247329711914 0.003921568859369
1.180249691009521 2.505423069000244 -0.048408441245556 0.000000000000000
6.140874385833740 9.901036262512207 2.131732225418091 0.000000000000000
1.233453035354614 2.590603113174438 -0.050149798393250 0.000000000000000
5.931504726409912 8.232674598693848 -0.117759995162487 0.000000000000000
3.764496803283691 5.838887691497803 1.274180412292480 0.000000000000000
7.010272502899170 10.465200424194336 -0.366795629262924 0.000000000000000
5.535731792449951 8.152895927429199 0.808211386203766 0.000000000000000
6.808389186859131 9.935136795043945 2.203491210937500 0.000000000000000
16.745466232299805 21.457653045654297 -0.315739125013351 0.003921568859369
16.742938995361328 21.454515457153320 0.318886041641235 0.003921568859369
6.912054538726807 9.862617492675781 2.203502416610718 0.000000000000000
5.951996326446533 7.468100547790527 -0.334093481302261 0.000000000000000
4.500395774841309 6.270393848419189 1.414827466011047 0.000000000000000
1.166042923927307 1.676507234573364 0.036743618547916 0.000000000000000
5.133969783782959 6.402201175689697 -0.287248700857162 0.000000000000000
1.133848190307617 1.620745897293091 0.035624533891678 0.000000000000000
2.499614238739014 4.247472286224365 -0.086072757840157 0.000000000000000
3.441377878189087 5.215936660766602 1.683919072151184 0.000000000000000
5.548569202423096 9.026523590087891 -0.432275295257568 0.000000000000000
5.608924865722656 7.400318145751953 1.700418353080750 0.000000000000000
16.747920989990234 21.471017837524414 -0.156988948583603 0.003921568859369
3.192054748535156 4.065937042236328 0.425604194402695 0.000000000000000
6.363227367401123 7.973616600036621 1.867648482322693 0.000000000000000
4.643396377563477 7.112035274505615 0.248675733804703 0.000000000000000
11.450312614440918 12.754403114318848 -0.598779022693634 0.003921568859369
4.470365047454834 5.423959255218506 0.577313899993896 0.000000000000000
5.734528064727783 7.561340332031250 0.555321991443634 0.000000000000000
2.582015037536621 3.817343235015869 -0.188575223088264 0.000000000000000
16.768653869628906 21.500108718872070 0.636655092239380 0.003921568859369
16.784036636352539 21.519882202148438 1.592767596244812 0.003921568859369
16.831041336059570 21.580167770385742 3.365958452224731 0.003921568859369
17.139629364013672 21.501476287841797 3.381475448608398 0.003921568859369
17.155572891235352 21.223594665527344 3.356131792068481 0.003921568859369
6.720232009887695 9.173512458801270 -0.198350116610527 0.000000000000000
17.174278259277344 20.797636032104492 3.317140817642212 0.003921568859369
5.177866458892822 6.269121646881104 2.188137292861938 0.000000000000000
17.153057098388672 20.479280471801758 3.285457611083984 0.003921568859369
10.031826972961426 10.876297950744629 2.705072879791260 0.000000000000000
17.139822006225586 20.319072723388672 3.269372224807739 0.003921568859369
17.125669479370117 20.159221649169922 3.253286600112915 0.003921568859369
17.126132965087891 20.017784118652344 3.240126609802246 0.003921568859369
17.133583068847656 19.885618209838867 3.228429555892944 0.003921568859369
17.160182952880859 19.771696090698242 3.219547510147095 0.003921568859369
17.088903427124023 19.551895141601562 6.967592716217041 0.003921568859369
17.141357421875000 19.344152450561523 3.178603410720825 0.003921568859369
12.305807113647461 12.516630172729492 3.207369327545166 0.003921568859369
2.898110866546631 2.963456869125366 -0.121168196201324 0.000000000000000
10.827395439147949 10.865716934204102 1.255854249000549 0.000000000000000
4.328655719757080 4.372309684753418 1.128384470939636 0.000000000000000
3.526115179061890 3.545481920242310 -0.146032840013504 0.000000000000000
2.890980958938599 3.523535490036011 0.027087725698948 0.000000000000000
7.811822414398193 7.689720153808594 -0.319279521703720 0.000000000000000
7.525820732116699 8.890857696533203 0.340574860572815 0.000000000000000
9.979250907897949 9.536150932312012 -0.401844382286072 0.000000000000000
13.243386268615723 12.466584205627441 1.488286495208740 0.000000000000000
8.134788513183594 8.350041389465332 3.132374763488770 0.000000000000000
6.267033100128174 5.759158134460449 1.558213710784912 0.000000000000000
4.144294261932373 4.156230926513672 1.581323981285095 0.000000000000000
5.803317070007324 5.967019557952881 -0.145274221897125 0.000000000000000
5.482676506042480 5.074781894683838 0.437219411134720 0.000000000000000
5.258316993713379 4.256548881530762 1.238784432411194 0.000000000000000
3.420822620391846 3.046887397766113 0.107535436749458 0.000000000000000
5.448327064514160 4.834939956665039 1.959168791770935 0.000000000000000
12.981734275817871 10.095454216003418 3.004115819931030 0.003921568859369
7.233315944671631 5.596352100372314 1.672945857048035 0.000000000000000
13.062191009521484 11.074307441711426 2.106661081314087 0.003921568859369
6.436212539672852 4.843678474426270 1.474171280860901 0.000000000000000
11.790304183959961 8.717179298400879 1.199612617492676 0.000000000000000
5.050311565399170 3.944624423980713 0.000362248101737 0.000000000000000
9.632964134216309 6.720372200012207 0.480076968669891 0.000000000000000
7.246994972229004 5.529131412506104 1.122620820999146 0.000000000000000
8.498311996459961 6.290989875793457 2.839154243469238 0.000000000000000
10.913716316223145 7.220983028411865 2.390423774719238 0.000000000000000
8.344779014587402 5.483366489410400 0.817325830459595 0.000000000000000
12.195755004882812 8.569689750671387 0.869847655296326 0.000000000000000
7.902935981750488 4.731071949005127 0.753780543804169 0.000000000000000
9.387362480163574 6.260345458984375 3.028567075729370 0.000000000000000
8.890878677368164 4.666808128356934 -0.938729465007782 0.000000000000000
2.940069198608398 2.154680490493774 0.106789246201515 0.000000000000000
11.963576316833496 7.042325019836426 -0.728054523468018 0.000000000000000
8.831282615661621 4.600218296051025 -0.930923759937286 0.000000000000000
8.813468933105469 4.547966003417969 -0.927206218242645 0.000000000000000
8.829289436340332 4.517100334167480 -0.927205562591553 0.000000000000000
6.211016178131104 4.435437202453613 -0.311361908912659 0.000000000000000
8.820128440856934 4.473588943481445 -0.924603164196014 0.000000000000000
11.733641624450684 7.471051692962646 0.811607897281647 0.000000000000000
8.843512535095215 4.444540977478027 -0.925049364566803 0.000000000000000
8.832471847534180 4.404263019561768 -0.922447085380554 0.000000000000000
5.231477737426758 2.587032318115234 -0.067905716598034 0.000000000000000
8.827882766723633 4.359687805175781 -0.920216262340546 0.000000000000000
8.716311454772949 4.270646095275879 -0.907206594944000 0.000000000000000
4.042700290679932 2.237342596054077 0.845375239849091 0.000000000000000
8.789254188537598 4.266387939453125 -0.913153111934662 0.000000000000000
8.746649742126465 4.208037376403809 -0.907205522060394 0.000000000000000
9.486206054687500 4.563151836395264 -0.613630354404449 0.000000000000000
8.761283874511719 4.177422523498535 -0.907205045223236 0.000000000000000
5.800577163696289 3.901786565780640 0.204092890024185 0.000000000000000
9.502075195312500 4.529953002929688 -0.613629817962646 0.000000000000000
8.775812149047852 4.146756172180176 -0.907204508781433 0.000000000000000
9.517828941345215 4.496698856353760 -0.613629281520844 0.000000000000000
8.760653495788574 4.104077339172363 -0.904230415821075 0.000000000000000
9.615890502929688 4.503952503204346 -0.618975579738617 0.000000000000000
8.803835868835449 4.086803913116455 -0.907203555107117 0.000000000000000
9.624306678771973 4.466939449310303 -0.618510067462921 0.000000000000000
8.818046569824219 4.055994033813477 -0.907203018665314 0.000000000000000
9.636210441589355 4.431598186492920 -0.618277072906494 0.000000000000000
8.832151412963867 4.025126457214355 -0.907202541828156 0.000000000000000
9.680700302124023 4.411098480224609 -0.620136260986328 0.000000000000000
8.850417137145996 3.994272947311401 -0.907278001308441 0.000000000000000
9.001455307006836 4.604706287384033 -0.826108872890472 0.000000000000000
9.634776115417480 4.347754001617432 -0.616031825542450 0.000000000000000
8.827249526977539 3.948614120483398 -0.903560519218445 0.000000000000000
8.981113433837891 4.556767940521240 -0.822854518890381 0.000000000000000
9.729355812072754 4.351563930511475 -0.621146321296692 0.000000000000000
8.878087997436523 3.932294368743896 -0.907277286052704 0.000000000000000
8.976379394531250 4.513038158416748 -0.820901691913605 0.000000000000000
9.697763442993164 4.294826984405518 -0.618123471736908 0.000000000000000
8.891078948974609 3.902790784835815 -0.907276928424835 0.000000000000000
8.962743759155273 4.468990325927734 -0.818298161029816 0.000000000000000
9.741209030151367 4.275428295135498 -0.619983017444611 0.000000000000000
6.000226020812988 2.993958950042725 1.224907279014587 0.000000000000000
8.905322074890137 3.870132207870483 -0.907276511192322 0.000000000000000
8.954033851623535 4.423717975616455 -0.816020011901855 0.000000000000000
9.317233085632324 4.048890113830566 -0.592083632946014 0.000000000000000
5.175379276275635 2.882878541946411 0.728940069675446 0.000000000000000
8.867548942565918 3.816961765289307 -0.902072191238403 0.000000000000000
8.973001480102539 4.394144058227539 -0.816344976425171 0.000000000000000
10.101737022399902 4.347444534301758 -0.640906453132629 0.000000000000000
8.884486198425293 3.787497758865356 -0.902443528175354 0.000000000000000
8.952411651611328 4.345359325408936 -0.813090622425079 0.000000000000000
10.194010734558105 4.344954013824463 -0.645788311958313 0.000000000000000
8.697665214538574 4.221907138824463 0.790436089038849 0.000000000000000
8.871963500976562 3.745584487915039 -0.899841129779816 0.000000000000000
8.945964813232422 4.303677558898926 -0.811137795448303 0.000000000000000
10.245911598205566 4.324808597564697 -0.648112773895264 0.000000000000000
8.888011932373047 3.717633485794067 -0.900212585926056 0.000000000000000
8.945791244506836 4.267086029052734 -0.809835851192474 0.000000000000000
10.204926490783691 4.267676830291748 -0.644625067710876 0.000000000000000
8.827325820922852 3.656104803085327 -0.892777979373932 0.000000000000000
8.953419685363770 4.232390880584717 -0.809184730052948 0.000000000000000
10.120126724243164 4.190784931182861 -0.638347387313843 0.000000000000000
8.836348533630371 3.623712539672852 -0.892405867576599 0.000000000000000
8.968138694763184 4.201064586639404 -0.809184312820435 0.000000000000000
10.164257049560547 4.167492389678955 -0.640206933021545 0.000000000000000
8.844626426696777 3.592848300933838 -0.892033874988556 0.000000000000000
8.960321426391602 4.161193847656250 -0.807231605052948 0.000000000000000
10.163221359252930 4.127714157104492 -0.639276564121246 0.000000000000000
8.858304023742676 3.558937549591064 -0.891738235950470 0.000000000000000
8.983396530151367 4.130002498626709 -0.807633101940155 0.000000000000000
9.997249603271484 4.016085624694824 -0.627734780311584 0.000000000000000
8.873757362365723 3.530987024307251 -0.892109692096710 0.000000000000000
8.957130432128906 4.081992149353027 -0.804053306579590 0.000000000000000
9.787865638732910 3.894376039505005 -0.613783836364746 0.000000000000000
8.856381416320801 3.488291501998901 -0.889135658740997 0.000000000000000
8.949521064758301 4.040832996368408 -0.802100598812103 0.000000000000000
9.667628288269043 3.807514667510986 -0.605413138866425 0.000000000000000
8.887058258056641 3.464554309844971 -0.890994071960449 0.000000000000000
9.067256927490234 4.600306987762451 -0.711362659931183 0.000000000000000
8.967209815979004 4.011166572570801 -0.802425742149353 0.000000000000000
9.621323585510254 3.750529766082764 -0.601692676544189 0.000000000000000
8.910247802734375 3.437776565551758 -0.892109036445618 0.000000000000000
8.984803199768066 3.981422662734985 -0.802750885486603 0.000000000000000
9.667892456054688 3.729815721511841 -0.603785037994385 0.000000000000000
8.918472290039062 3.405205726623535 -0.891737103462219 0.000000000000000
9.002297401428223 3.951608419418335 -0.803076088428497 0.000000000000000
9.759202957153320 3.725905179977417 -0.608667552471161 0.000000000000000
8.907947540283203 3.365582704544067 -0.889506459236145 0.000000000000000
8.964842796325684 3.897891044616699 -0.798520028591156 0.000000000000000
9.630184173583984 3.638198137283325 -0.599831938743591 0.000000000000000
8.979336738586426 3.356734752655029 -0.895453989505768 0.000000000000000
8.974731445312500 3.864969968795776 -0.798194289207458 0.000000000000000
9.642825126647949 3.604532480239868 -0.599831700325012 0.000000000000000
9.110544204711914 3.369515180587769 -0.907349169254303 0.000000000000000
8.980833053588867 3.830465555191040 -0.797543287277222 0.000000000000000
9.696550369262695 3.586047410964966 -0.602389037609100 0.000000000000000
9.256322860717773 3.388501405715942 -0.920731306076050 0.000000000000000
8.993486404418945 3.800631999969482 -0.797543048858643 0.000000000000000
9.734641075134277 3.563442468643188 -0.604016423225403 0.000000000000000
9.132691383361816 3.308960437774658 -0.907348752021790 0.000000000000000
9.002362251281738 3.769222021102905 -0.797217369079590 0.000000000000000
9.806479454040527 3.552861928939819 -0.607736349105835 0.000000000000000
6.959963798522949 2.914898395538330 -0.395738899707794 0.000000000000000
9.144187927246094 3.277028799057007 -0.907348513603210 0.000000000000000
9.000731468200684 3.731640338897705 -0.795915484428406 0.000000000000000
9.875216484069824 3.538767814636230 -0.611223757266998 0.000000000000000
12.992287635803223 5.384968757629395 2.565894126892090 0.000000000000000
9.362572669982910 3.316911220550537 -0.927501857280731 0.000000000000000
9.014284133911133 3.698718786239624 -0.795667290687561 0.000000000000000
9.948244094848633 3.524305820465088 -0.614794790744781 0.000000000000000
22.448656082153320 9.208489418029785 4.424828052520752 0.003921568859369
9.023447990417480 3.665712833404541 -0.795341670513153 0.000000000000000
10.126316070556641 3.547612667083740 -0.625026226043701 0.000000000000000
9.036822319030762 3.632602214813232 -0.795341551303864 0.000000000000000
10.229816436767578 3.541804075241089 -0.630606830120087 0.000000000000000
9.033371925354004 3.598283529281616 -0.794039726257324 0.000000000000000
10.361780166625977 3.551048517227173 -0.638047814369202 0.000000000000000
3.838169336318970 1.529848456382751 0.754113376140594 0.000000000000000
9.035372734069824 3.560749053955078 -0.793063282966614 0.000000000000000
10.404984474182129 3.523270368576050 -0.639907956123352 0.000000000000000
9.872837066650391 3.302853584289551 -0.972111701965332 0.000000000000000
9.040934562683105 3.524700164794922 -0.792412400245667 0.000000000000000
10.516293525695801 3.518023967742920 -0.645953714847565 0.000000000000000
11.435428619384766 4.457788467407227 2.238615274429321 0.000000000000000
9.909634590148926 3.280563116073608 -0.974713981151581 0.000000000000000
9.051963806152344 3.496263980865479 -0.792412281036377 0.000000000000000
9.990300178527832 3.264734029769897 -0.981405377388000 0.000000000000000
9.069045066833496 3.462888479232788 -0.792737543582916 0.000000000000000
9.098523139953613 3.441417217254639 -0.794364690780640 0.000000000000000
9.265625953674316 4.032530784606934 -0.470816433429718 0.000000000000000
9.340396881103516 4.579863548278809 -0.666870892047882 0.000000000000000
9.342756271362305 4.538609981536865 -0.665847539901733 0.000000000000000
9.250118255615234 3.388395071029663 -0.804452836513519 0.000000000000000
9.360458374023438 3.388442039489746 -0.812668442726135 0.000000000000000
9.454805374145508 3.385310411453247 -0.819828450679779 0.000000000000000
27.508644104003906 9.849519729614258 2.385281085968018 0.003921568859369
9.541726112365723 3.378899812698364 -0.826337635517120 0.000000000000000
21.830051422119141 7.393314361572266 4.202253818511963 0.003921568859369
5.890985488891602 1.656989812850952 0.071243435144424 0.000000000000000
10.059903144836426 3.367947101593018 -0.866043508052826 0.000000000000000
10.158647537231445 3.361624479293823 -0.873529016971588 0.000000000000000
10.256888389587402 3.356434106826782 -0.881014525890350 0.000000000000000
10.899518966674805 3.566726446151733 -0.601026177406311 0.000000000000000
10.356373786926270 3.347013711929321 -0.888500094413757 0.000000000000000
13.479963302612305 4.356507778167725 2.582911491394043 0.000000000000000
10.488939285278320 3.351478815078735 -0.898914754390717 0.000000000000000
10.584683418273926 3.340125560760498 -0.905837357044220 0.000000000000000
8.212255477905273 3.007001161575317 -0.941670477390289 0.000000000000000
10.744710922241211 3.349458694458008 -0.918531119823456 0.000000000000000
10.881485939025879 3.352572202682495 -0.929272115230560 0.000000000000000
10.992283821105957 3.344770908355713 -0.937734782695770 0.000000000000000
27.514959335327148 9.866678237915039 1.701889157295227 0.003921568859369
11.115196228027344 3.337735652923584 -0.947173833847046 0.000000000000000
11.298777580261230 3.349947214126587 -0.961820662021637 0.000000000000000
22.138643264770508 6.565030097961426 4.209270477294922 0.003921568859369
11.551914215087891 2.776682853698730 -0.414840400218964 0.000000000000000
11.490405082702637 3.319726467132568 -0.976142048835754 0.003921568859369
2.847852945327759 0.974700450897217 0.805403769016266 0.000000000000000
17.294292449951172 4.931818485260010 3.278016090393066 0.003921568859369
5.506372928619385 1.549714684486389 -0.299628525972366 0.000000000000000
10.314651489257812 3.415884971618652 -0.759594619274139 0.000000000000000
8.387207984924316 2.329566240310669 1.586263179779053 0.000000000000000
10.409937858581543 3.407199144363403 -0.765733778476715 0.000000000000000
10.551317214965820 3.411459922790527 -0.775030076503754 0.000000000000000
9.397980690002441 3.553718328475952 -0.643572926521301 0.000000000000000
10.696186065673828 3.417172908782959 -0.784797728061676 0.000000000000000
9.473878860473633 3.544722795486450 -0.647923052310944 0.000000000000000
8.951650619506836 2.354636907577515 -0.053905677050352 0.000000000000000
10.809591293334961 3.416064739227295 -0.792332947254181 0.000000000000000
9.563564300537109 3.544119119644165 -0.653296649456024 0.000000000000000
10.954751968383789 3.419992685317993 -0.802100658416748 0.000000000000000
9.677059173583984 3.547875165939331 -0.660205483436584 0.000000000000000
11.077197074890137 3.415882587432861 -0.810194015502930 0.000000000000000
15.859083175659180 3.239432334899902 -0.565196514129639 0.003921568859369
9.774196624755859 3.502511501312256 -0.665067672729492 0.003921568859369
8.133617401123047 1.484008073806763 -0.096303984522820 0.000000000000000
13.252024650573730 2.804649353027344 2.467081069946289 0.000000000000000
7.324658393859863 1.495725631713867 0.609049797058105 0.000000000000000
17.105459213256836 3.372337341308594 1.421862363815308 0.000000000000000
9.352689743041992 2.287348270416260 1.180426716804504 0.000000000000000
5.562686443328857 1.587180972099304 -0.369905650615692 0.000000000000000
8.168034553527832 1.433036923408508 -0.048397887498140 0.000000000000000
8.948981285095215 1.506126999855042 0.739122211933136 0.000000000000000
8.301827430725098 0.954397976398468 -0.097390756011009 0.000000000000000
5.987412929534912 0.985326170921326 0.246278613805771 0.000000000000000
15.056010246276855 2.374202013015747 2.775442123413086 0.000000000000000
8.134325981140137 1.252467870712280 0.334315448999405 0.000000000000000
7.532936096191406 1.538876652717590 -0.357640743255615 0.000000000000000
10.608031272888184 2.129987478256226 1.326068162918091 0.000000000000000
7.686729907989502 1.156000137329102 1.413856506347656 0.000000000000000
8.833938598632812 1.741189599037170 2.407738685607910 0.000000000000000
8.287216186523438 1.603268146514893 -0.000300757645164 0.003921568859369
11.946064949035645 1.587211966514587 2.192829370498657 0.000000000000000
13.494718551635742 2.322826147079468 -0.000538355030585 0.000000000000000
9.752749443054199 1.122826576232910 -0.057359028607607 0.000000000000000
12.358668327331543 1.379868388175964 0.216181665658951 0.000000000000000
3.400885343551636 0.546263337135315 0.917029201984406 0.000000000000000
10.348603248596191 1.669272661209106 -0.243866950273514 0.000000000000000
5.555267333984375 0.874689996242523 0.130074009299278 0.000000000000000
7.714473724365234 1.519942402839661 -0.319737613201141 0.000000000000000
16.705730438232422 2.398290634155273 0.980617880821228 0.000000000000000
6.399737834930420 0.267415285110474 0.073882304131985 0.000000000000000
12.306511878967285 2.296552896499634 -0.509604513645172 0.000000000000000
12.025256156921387 1.005955100059509 2.194875955581665 0.000000000000000
5.615922927856445 0.705450415611267 0.130756363272667 0.000000000000000
4.943330287933350 0.360470265150070 0.898665487766266 0.000000000000000
7.420158386230469 1.223117947578430 -0.131243661046028 0.000000000000000
6.366599559783936 0.420310646295547 0.258512824773788 0.000000000000000
11.928632736206055 1.375547766685486 1.470614314079285 0.000000000000000
8.558144569396973 0.565551638603210 1.558605551719666 0.000000000000000
11.564145088195801 1.292613267898560 3.110425949096680 0.000000000000000
7.784821510314941 0.081572927534580 0.089892528951168 0.000000000000000
19.732978820800781 2.141599655151367 2.433087825775146 0.003921568859369
15.521572113037109 0.866790413856506 -0.091033838689327 0.000000000000000
10.417208671569824 0.581202149391174 0.423214435577393 0.000000000000000
12.877943038940430 0.718856930732727 2.345405578613281 0.000000000000000
7.821251392364502 -0.028182908892632 -0.272594928741455 0.000000000000000
4.466518878936768 0.185400798916817 0.180536732077599 0.000000000000000
9.803997993469238 0.341757476329803 0.397838622331619 0.000000000000000
18.270191192626953 0.637712717056274 3.326669931411743 0.003921568859369
10.671925544738770 0.336773753166199 0.433133602142334 0.000000000000000
11.837094306945801 -0.203497156500816 -0.413072198629379 0.000000000000000
19.297441482543945 1.415727615356445 1.124085664749146 0.000000000000000
6.090995311737061 0.723024427890778 0.035041030496359 0.000000000000000
2.434102058410645 0.168257877230644 0.295623242855072 0.000000000000000
12.222854614257812 0.255936264991760 0.994862437248230 0.000000000000000
14.075490951538086 0.294802963733673 2.560591220855713 0.000000000000000
6.966212272644043 -0.216429486870766 -0.081270784139633 0.000000000000000
6.486720085144043 0.748521625995636 0.037325028330088 0.000000000000000
9.452431678771973 0.166548073291779 -0.055361419916153 0.000000000000000
7.825775623321533 0.057524979114532 1.420009374618530 0.000000000000000
12.424400329589844 0.046046469360590 0.215442672371864 0.000000000000000
16.702075958251953 0.003738467581570 -0.097919918596745 0.000000000000000
5.137259483337402 0.484462082386017 0.148725822567940 0.000000000000000
8.693550109863281 -0.026749756187201 0.706257462501526 0.000000000000000
9.330307960510254 0.393352121114731 0.541189849376678 0.000000000000000
19.150976181030273 -0.125879824161530 3.484322309494019 0.003921568859369
12.065022468566895 0.464880079030991 0.700351357460022 0.000000000000000
7.750489234924316 -0.105990521609783 1.406379699707031 0.000000000000000
4.393651962280273 -0.074302501976490 -0.025757439434528 0.000000000000000
16.945905685424805 -0.288451492786407 0.688030838966370 0.003921568859369
9.265702247619629 -0.191271364688873 0.753092586994171 0.000000000000000
12.037508964538574 0.214316755533218 0.278343856334686 0.000000000000000
9.441757202148438 0.136775672435760 0.546911418437958 0.000000000000000
13.620694160461426 -0.039545673877001 1.666659593582153 0.000000000000000
6.155773639678955 -0.617725908756256 -0.215278431773186 0.000000000000000
6.148244380950928 -0.337982863187790 0.248718008399010 0.000000000000000
6.263295173645020 0.242783188819885 0.180718183517456 0.000000000000000
8.567155838012695 -0.501702666282654 1.556924700737000 0.000000000000000
8.897391319274902 -0.149461135268211 -0.000729784078430 0.003921568859369
14.906627655029297 0.423902034759521 -0.260741084814072 0.000000000000000
9.576137542724609 -0.860245466232300 -0.279433488845825 0.000000000000000
2.433194637298584 -0.215624809265137 -0.014346611686051 0.000000000000000
8.551633834838867 -0.767798483371735 1.556843161582947 0.000000000000000
14.056796073913574 0.010667238384485 -0.245752200484276 0.000000000000000
10.342741966247559 -0.028093338012695 0.058960683643818 0.000000000000000
5.350032806396484 -0.032958280295134 -0.093219950795174 0.000000000000000
12.833311080932617 -0.079558037221432 0.371180474758148 0.000000000000000
7.903084754943848 -0.820050239562988 0.137188822031021 0.000000000000000
7.727347850799561 -0.074589431285858 0.222912833094597 0.000000000000000
9.490704536437988 -1.019054412841797 0.165008783340454 0.000000000000000
7.635067939758301 -0.524700582027435 0.176178142428398 0.000000000000000
7.995392799377441 -0.602627158164978 2.134940862655640 0.000000000000000
2.494094133377075 -0.211672246456146 -0.000442023272626 0.000000000000000
10.962139129638672 -1.484666705131531 0.898186087608337 0.000000000000000
6.997233390808105 -0.625853300094604 0.161612510681152 0.000000000000000
7.485014438629150 -0.669781684875488 -0.348665803670883 0.000000000000000
11.654298782348633 -1.700727939605713 -0.342512130737305 0.000000000000000
4.318325042724609 -0.429718255996704 1.149618744850159 0.000000000000000
18.961671829223633 -3.041029691696167 0.332532465457916 0.003921568859369
9.282230377197266 -0.570303738117218 -0.377795070409775 0.000000000000000
11.741167068481445 -1.919614791870117 0.481409698724747 0.000000000000000
4.007637500762939 -0.481167137622833 0.231488808989525 0.000000000000000
8.454105377197266 -1.022095084190369 1.038350820541382 0.000000000000000
10.479601860046387 -0.753989756107330 -0.427064001560211 0.000000000000000
7.325634002685547 -0.550169587135315 -0.128190681338310 0.000000000000000
5.147259235382080 -0.673122167587280 -0.000692338333465 0.000000000000000
25.130245208740234 -4.383187770843506 6.817931652069092 0.003921568859369
22.113142013549805 -5.220404624938965 4.130428791046143 0.003921568859369
9.690728187561035 -2.314721107482910 1.804604530334473 0.000000000000000
10.938208580017090 -2.133178949356079 0.644182860851288 0.000000000000000
8.910513877868652 -2.256701707839966 1.664051890373230 0.000000000000000
8.282841682434082 -1.702040314674377 1.029873013496399 0.000000000000000
10.167638778686523 -2.650673389434814 0.851694524288177 0.000000000000000
24.211524963378906 -5.171073913574219 3.029934644699097 0.003921568859369
23.820917129516602 -5.174245357513428 2.983172655105591 0.003921568859369
9.163951873779297 -2.491335153579712 0.163514882326126 0.000000000000000
8.775551795959473 -2.447284936904907 0.367608547210693 0.000000000000000
7.755100727081299 -1.760199546813965 2.113974809646606 0.000000000000000
16.619144439697266 -3.847760438919067 -0.002173986984417 0.003921568859369
25.230884552001953 -5.849393844604492 6.919801712036133 0.003921568859369
11.759877204895020 -3.328112840652466 2.215330600738525 0.000000000000000
11.433918952941895 -3.321338176727295 0.965300559997559 0.000000000000000
12.117833137512207 -2.890320777893066 3.319469451904297 0.000000000000000
14.101070404052734 -2.699137687683105 -0.251394987106323 0.000000000000000
3.346841096878052 -0.799135088920593 0.195980295538902 0.000000000000000
12.575880050659180 -3.752334594726562 0.226238653063774 0.000000000000000
9.521787643432617 -2.409669399261475 0.566944420337677 0.000000000000000
5.625029087066650 -1.731289625167847 -0.034860789775848 0.000000000000000
10.703163146972656 -2.275796651840210 0.315080732107162 0.000000000000000
7.651240348815918 -2.015046834945679 -0.183886498212814 0.000000000000000
6.711595058441162 -1.791564702987671 0.399802505970001 0.000000000000000
5.328576087951660 -1.698634743690491 0.224374189972878 0.000000000000000
13.466094970703125 -3.612183570861816 1.702373266220093 0.000000000000000
7.827507495880127 -1.717376470565796 -0.140018239617348 0.000000000000000
5.173354625701904 -1.395134806632996 -0.000959777913522 0.000000000000000
15.740615844726562 -5.175176143646240 3.006758213043213 0.003921568859369
7.224298954010010 -2.009156942367554 0.911246299743652 0.000000000000000
15.811116218566895 -5.262525081634521 3.023967981338501 0.003921568859369
4.636563777923584 -1.334281444549561 0.109725788235664 0.000000000000000
25.230939865112305 -8.705542564392090 4.850965976715088 0.003921568859369
7.761755943298340 -2.690108537673950 1.484505772590637 0.000000000000000
4.524557113647461 -1.575537919998169 0.860688745975494 0.000000000000000
7.822373390197754 -1.972622513771057 0.231462880969048 0.000000000000000
