# This PCD file was generated using the MATLAB® pcwrite function
# from Computer Vision Toolbox®.
# .PCD v.7 - Point Cloud Data file format
VERSION .7
FIELDS x y z intensity
SIZE 8 8 8 8
TYPE F F F F
COUNT 1 1 1 1
WIDTH 651
HEIGHT 1
VIEWPOINT 0 0 0 1 0 0 0
POINTS 651
DATA ascii
5.460195064544678 25.017383575439453 -0.282707303762436 0.003921568859369
4.129458427429199 24.661457061767578 4.585455894470215 0.003921568859369
5.554077148437500 24.654716491699219 -0.279246985912323 0.003921568859369
0.678099036216736 6.996990680694580 0.873750209808350 0.000000000000000
4.386847972869873 24.613836288452148 -0.712667584419250 0.003921568859369
6.589879512786865 28.550952911376953 -0.324715107679367 0.003921568859369
4.815025806427002 26.845947265625000 4.999814510345459 0.003921568859369
4.615314483642578 25.315164566040039 -0.733648478984833 0.003921568859369
3.526049852371216 26.566600799560547 3.314171314239502 0.003921568859369
3.628021717071533 27.316303253173828 -0.622754514217377 0.003921568859369
4.618536472320557 24.886869430541992 -0.721774995326996 0.003921568859369
5.915592670440674 24.969034194946289 -0.284471124410629 0.003921568859369
4.924170494079590 26.428314208984375 2.216006278991699 0.003921568859369
4.554729461669922 24.527994155883789 4.574218273162842 0.003921568859369
4.708517551422119 24.885375976562500 -0.722338199615479 0.003921568859369
6.094223022460938 25.312007904052734 -0.288766682147980 0.003921568859369
4.762051582336426 25.149991989135742 -0.132697790861130 0.003921568859369
4.503895759582520 23.828119277954102 4.446722507476807 0.003921568859369
4.980547428131104 25.348285675048828 -0.737039387226105 0.003921568859369
4.987370491027832 25.377695083618164 -0.134315788745880 0.003921568859369
2.496196508407593 13.306969642639160 2.487526655197144 0.000000000000000
1.072915315628052 8.316688537597656 1.041344404220581 0.000000000000000
5.347112655639648 26.120672225952148 4.888174533843994 0.003921568859369
5.111510276794434 24.633792877197266 -0.718200147151947 0.003921568859369
5.317903518676758 25.577400207519531 -0.136045724153519 0.003921568859369
4.406437397003174 27.883724212646484 -0.638956785202026 0.003921568859369
5.120645523071289 24.308389663696289 -0.709276497364044 0.003921568859369
5.136415004730225 24.376390457153320 -0.129763588309288 0.003921568859369
5.239915370941162 24.439365386962891 -0.130312696099281 0.003921568859369
5.558333873748779 25.402496337890625 -0.742736041545868 0.003921568859369
1.360094070434570 9.073378562927246 1.139134526252747 0.000000000000000
0.931995034217834 6.482074260711670 0.814606904983521 0.000000000000000
1.139068841934204 5.949766635894775 1.119012475013733 0.000000000000000
5.539882183074951 24.526668548583984 -0.718963563442230 0.003921568859369
4.385234355926514 25.028375625610352 3.141750812530518 0.003921568859369
5.761837959289551 25.036918640136719 -0.734743177890778 0.003921568859369
6.613450050354004 28.582185745239258 -0.154379338026047 0.003921568859369
4.473937988281250 24.971412658691406 3.136740922927856 0.003921568859369
0.283708989620209 2.207865238189697 0.188298404216766 0.000000000000000
4.415190696716309 24.683469772338867 -0.568808734416962 0.003921568859369
6.043114185333252 25.847684860229492 -0.139659523963928 0.003921568859369
4.581620216369629 25.108509063720703 3.155746459960938 0.003921568859369
6.619716644287109 27.773742675781250 -0.150448754429817 0.003921568859369
5.940215587615967 25.001203536987305 4.711016178131104 0.003921568859369
4.700753211975098 25.251588821411133 -0.582905113697052 0.003921568859369
5.887616157531738 24.466739654541016 -0.720066368579865 0.003921568859369
4.779349327087402 25.187110900878906 3.169739484786987 0.003921568859369
5.687472820281982 23.655248641967773 2.004800796508789 0.003921568859369
4.647634983062744 24.548725128173828 -0.567104637622833 0.003921568859369
5.543170928955078 22.739200592041016 -0.669835388660431 0.003921568859369
2.365828514099121 12.835043907165527 3.519407272338867 0.000000000000000
4.921773910522461 25.012380599975586 3.151909589767456 0.003921568859369
5.227999687194824 26.035364151000977 3.283021688461304 0.003921568859369
4.936346530914307 24.669216156005859 -0.571404397487640 0.003921568859369
5.002365112304688 24.557117462158203 -0.569325149059296 0.003921568859369
5.658812999725342 27.096162796020508 3.421833753585815 0.003921568859369
1.010283827781677 5.761853694915771 1.585629224777222 0.000000000000000
0.452689230442047 3.156191349029541 0.191710188984871 0.000000000000000
5.819348335266113 26.073724746704102 3.301825284957886 0.003921568859369
4.930196762084961 27.964538574218750 0.182325810194016 0.003921568859369
7.133772850036621 25.568532943725586 4.865379333496094 0.003921568859369
5.532501220703125 24.469020843505859 -0.571156144142151 0.003921568859369
5.516077995300293 23.987537384033203 3.042714357376099 0.003921568859369
1.869301199913025 8.773684501647949 2.424347162246704 0.000000000000000
6.046014785766602 24.690847396850586 3.142152786254883 0.003921568859369
4.988961696624756 25.303974151611328 0.165198370814323 0.003921568859369
2.809112310409546 11.788218498229980 3.270421504974365 0.000000000000000
6.108638286590576 24.227798461914062 3.088614940643311 0.003921568859369
5.389357089996338 20.837970733642578 1.267839074134827 0.003921568859369
6.833686351776123 26.190464019775391 3.344215393066406 0.003921568859369
8.758474349975586 27.198734283447266 5.235391139984131 0.003921568859369
8.828428268432617 27.092584609985352 5.220900058746338 0.003921568859369
8.944697380065918 27.140707015991211 5.235890388488770 0.003921568859369
7.403426647186279 25.797811508178711 7.222130775451660 0.003921568859369
8.368819236755371 24.584281921386719 4.759664058685303 0.003921568859369
7.415384769439697 25.509195327758789 3.282248258590698 0.003921568859369
8.346510887145996 26.869516372680664 7.569324016571045 0.003921568859369
3.666933774948120 10.183125495910645 1.992183804512024 0.000000000000000
8.628926277160645 26.485815048217773 3.440205812454224 0.003921568859369
5.559408664703369 13.547621726989746 2.689891338348389 0.000000000000000
4.019220829010010 9.832484245300293 1.955567002296448 0.000000000000000
1.728715419769287 4.608658313751221 1.341134190559387 0.000000000000000
11.727447509765625 25.051839828491211 5.065775871276855 0.003921568859369
5.776255607604980 14.029787063598633 4.091217041015625 0.000000000000000
11.011619567871094 23.130117416381836 4.692814350128174 0.003921568859369
5.802329063415527 13.955619812011719 4.075620651245117 0.000000000000000
11.034114837646484 22.759988784790039 4.633735179901123 0.003921568859369
12.190542221069336 24.689882278442383 5.042930126190186 0.003921568859369
12.477072715759277 24.369928359985352 2.247622966766357 0.003921568859369
12.152975082397461 23.360500335693359 4.822337627410889 0.003921568859369
12.987850189208984 23.920688629150391 4.984162330627441 0.003921568859369
13.305356025695801 23.901418685913086 5.009013652801514 0.003921568859369
13.405950546264648 23.894191741943359 5.016823291778564 0.003921568859369
11.675967216491699 23.230369567871094 3.207468748092651 0.003921568859369
4.740432262420654 9.631228446960449 2.900566816329956 0.000000000000000
4.478042602539062 8.958079338073730 2.707826852798462 0.000000000000000
3.259300947189331 5.846345901489258 0.555430769920349 0.000000000000000
13.537357330322266 23.342576980590820 4.940144538879395 0.003921568859369
13.622694015502930 25.702072143554688 3.587141990661621 0.003921568859369
12.889484405517578 21.720178604125977 2.072753906250000 0.003921568859369
8.457770347595215 16.075262069702148 4.893257617950439 0.003921568859369
14.087432861328125 23.525653839111328 2.249591112136841 0.003921568859369
3.857677698135376 7.446050643920898 2.271596670150757 0.000000000000000
12.594996452331543 21.059339523315430 4.494024276733398 0.003921568859369
12.633564949035645 20.957561492919922 4.481742382049561 0.003921568859369
12.739670753479004 20.966352462768555 4.493148326873779 0.003921568859369
14.492812156677246 23.632463455200195 2.274084806442261 0.003921568859369
12.831473350524902 20.951240539550781 4.499528884887695 0.003921568859369
3.519831180572510 5.709324359893799 1.240555644035339 0.000000000000000
14.781910896301270 22.644752502441406 2.217541933059692 0.003921568859369
2.538834095001221 4.094087123870850 0.896006882190704 0.000000000000000
14.042754173278809 23.820322036743164 0.649020850658417 0.003921568859369
6.261691570281982 10.768578529357910 3.362717151641846 0.000000000000000
6.834913253784180 11.636727333068848 3.641260862350464 0.000000000000000
5.133496761322021 7.850382804870605 -0.053581856191158 0.000000000000000
3.076070785522461 5.344646930694580 1.676671862602234 0.000000000000000
13.910217285156250 22.864635467529297 1.566907525062561 0.003921568859369
14.159358978271484 22.715976715087891 1.566499352455139 0.003921568859369
14.669992446899414 23.346776962280273 0.646319031715393 0.003921568859369
6.298820972442627 10.157888412475586 3.226647615432739 0.000000000000000
12.080383300781250 17.329677581787109 3.869410276412964 0.003921568859369
4.288257598876953 5.839180469512939 0.599413454532623 0.000000000000000
4.147374153137207 5.610717296600342 0.577588677406311 0.000000000000000
2.841936349868774 3.903005123138428 0.897017300128937 0.000000000000000
7.852126121520996 11.497912406921387 3.754200220108032 0.000000000000000
3.735647678375244 4.962903976440430 1.149508953094482 0.000000000000000
1.956353187561035 2.668485164642334 0.278153866529465 0.000000000000000
13.421967506408691 17.114837646484375 3.982482910156250 0.003921568859369
5.167190551757812 7.916295528411865 0.278527259826660 0.000000000000000
1.523407220840454 2.437183141708374 0.018090179190040 0.000000000000000
10.160897254943848 12.263245582580566 2.919656991958618 0.003921568859369
3.571275234222412 4.777614593505859 0.743221759796143 0.000000000000000
1.930982947349548 2.622355461120605 0.195219472050667 0.000000000000000
6.793606758117676 8.799660682678223 1.375857949256897 0.000000000000000
5.494827747344971 7.103633880615234 1.113606691360474 0.000000000000000
11.031115531921387 13.987435340881348 1.042812347412109 0.000000000000000
6.249940395355225 7.239844322204590 1.760287880897522 0.000000000000000
7.573048591613770 9.583054542541504 3.295860290527344 0.000000000000000
7.771227359771729 9.683952331542969 0.728146255016327 0.000000000000000
9.710418701171875 12.061797142028809 1.911313891410828 0.000000000000000
4.806796550750732 5.833704471588135 0.938414156436920 0.000000000000000
2.323456048965454 2.534405469894409 0.062004473060369 0.000000000000000
4.145983219146729 4.800673961639404 0.149763301014900 0.000000000000000
8.152703285217285 8.214875221252441 0.203140795230865 0.000000000000000
2.328951597213745 2.537376642227173 0.082220539450645 0.000000000000000
8.670942306518555 8.901727676391602 3.348869562149048 0.000000000000000
16.121419906616211 14.725914001464844 3.993293285369873 0.003921568859369
5.276660919189453 5.347888946533203 0.176582977175713 0.000000000000000
8.158172607421875 6.745809078216553 -0.621914565563202 0.000000000000000
8.780159950256348 7.049335479736328 -0.661392867565155 0.000000000000000
15.784070968627930 13.921826362609863 3.849674463272095 0.003921568859369
4.055792331695557 4.391407012939453 0.176086708903313 0.000000000000000
9.940386772155762 8.671746253967285 2.417086124420166 0.000000000000000
2.759407758712769 2.216217279434204 -0.337087035179138 0.000000000000000
12.990796089172363 11.153788566589355 3.133371829986572 0.003921568859369
3.266660213470459 2.822096824645996 0.800081193447113 0.000000000000000
6.092856884002686 4.670032978057861 -0.451874434947968 0.000000000000000
13.904788017272949 11.595358848571777 3.312504529953003 0.003921568859369
5.304140567779541 3.955648422241211 0.077518656849861 0.000000000000000
8.088196754455566 7.272126674652100 2.932451963424683 0.000000000000000
21.274761199951172 18.737581253051758 1.652594566345215 0.003921568859369
7.634196281433105 6.038156509399414 -0.514129877090454 0.000000000000000
5.325664043426514 4.644052982330322 1.909928321838379 0.000000000000000
5.598481655120850 4.806454658508301 1.993731617927551 0.000000000000000
5.535355567932129 4.719490051269531 1.965777754783630 0.000000000000000
6.056110858917236 5.017631053924561 -0.554743111133575 0.000000000000000
4.659114837646484 3.786320209503174 -0.000133332476253 0.000000000000000
5.607105255126953 3.985386371612549 0.282284229993820 0.000000000000000
4.617028236389160 3.999427080154419 -0.395069777965546 0.000000000000000
4.640422344207764 3.559137582778931 -0.636339306831360 0.000000000000000
6.175294876098633 5.216644763946533 -0.521905839443207 0.000000000000000
2.914576292037964 2.215996026992798 -0.259459555149078 0.000000000000000
10.888207435607910 7.242170810699463 1.070638298988342 0.000000000000000
7.072137832641602 5.082148075103760 2.346468448638916 0.000000000000000
7.060951709747314 4.355393886566162 -0.681401133537292 0.000000000000000
10.833081245422363 8.226695060729980 -0.875155806541443 0.000000000000000
5.730965137481689 3.349180698394775 0.271834909915924 0.000000000000000
5.457331180572510 3.479827880859375 -0.000330303097144 0.000000000000000
6.167923450469971 3.773690462112427 0.168723836541176 0.000000000000000
9.245412826538086 4.914622783660889 1.914904952049255 0.000000000000000
5.594781398773193 2.910132408142090 0.110349513590336 0.000000000000000
4.376844882965088 2.743515491485596 0.030048146843910 0.000000000000000
13.971115112304688 6.920008659362793 2.846657752990723 0.000000000000000
7.498127460479736 4.157595157623291 2.304118871688843 0.000000000000000
9.278158187866211 5.098278522491455 2.843352556228638 0.000000000000000
9.174603462219238 5.000374794006348 -0.000547373725567 0.003921568859369
6.266125679016113 3.031685113906860 1.273880958557129 0.000000000000000
5.566679477691650 3.376625061035156 0.190028280019760 0.000000000000000
5.970099449157715 2.510308027267456 -0.379203438758850 0.000000000000000
9.447364807128906 3.926138401031494 -0.120134495198727 0.000000000000000
6.874480724334717 3.686782836914062 2.097099542617798 0.000000000000000
4.292864322662354 2.007848024368286 0.083020336925983 0.000000000000000
7.441764354705811 3.007087707519531 -0.281808763742447 0.000000000000000
4.307148933410645 1.978681087493896 0.194057434797287 0.000000000000000
8.980299949645996 4.654633045196533 2.717043399810791 0.000000000000000
3.498206853866577 1.575430750846863 0.067210353910923 0.000000000000000
6.248000144958496 2.779178380966187 -0.199813917279243 0.000000000000000
3.430835247039795 1.530101656913757 0.065817147493362 0.000000000000000
2.616490125656128 1.315867900848389 -0.068603605031967 0.000000000000000
13.039443016052246 5.630133152008057 -0.414573252201080 0.000000000000000
2.866864681243896 1.415670633316040 0.394816994667053 0.000000000000000
8.969981193542480 4.371323585510254 1.227078199386597 0.000000000000000
7.141548633575439 2.998956918716431 -0.226294249296188 0.000000000000000
8.340358734130859 2.965736150741577 -0.103710226714611 0.000000000000000
6.942549705505371 3.172941446304321 0.938249766826630 0.000000000000000
8.872539520263672 3.979103565216064 -0.226693972945213 0.000000000000000
4.048471450805664 1.344634413719177 -0.049853373318911 0.000000000000000
7.430472850799561 2.818980455398560 1.450556516647339 0.000000000000000
8.748891830444336 3.214011192321777 1.700909137725830 0.000000000000000
3.682820796966553 1.325926899909973 -0.022866053506732 0.000000000000000
4.845919609069824 1.743522524833679 0.210113883018494 0.000000000000000
8.595355987548828 3.573334693908691 1.143903970718384 0.000000000000000
10.958689689636230 4.505664825439453 -0.275714725255966 0.000000000000000
2.776614665985107 1.280037283897400 -0.124564290046692 0.000000000000000
5.575355052947998 2.201813459396362 -0.139485791325569 0.000000000000000
7.345407962799072 2.871244192123413 0.459298312664032 0.000000000000000
6.912956237792969 2.319754838943481 1.329481959342957 0.000000000000000
6.615120887756348 2.192870140075684 1.270648956298828 0.000000000000000
12.197005271911621 4.000734806060791 2.340404748916626 0.000000000000000
8.547224998474121 2.315827369689941 0.103093430399895 0.000000000000000
8.291481018066406 3.143020153045654 2.375958919525146 0.000000000000000
7.761693000793457 2.484534978866577 1.485891699790955 0.000000000000000
11.898256301879883 3.719568490982056 0.217596605420113 0.000000000000000
8.144626617431641 2.115446329116821 -0.293853759765625 0.000000000000000
7.701194286346436 2.374872922897339 0.657306373119354 0.000000000000000
6.633133411407471 2.778528690338135 -0.292459934949875 0.000000000000000
7.824893951416016 1.971583724021912 -0.093600623309612 0.000000000000000
8.194048881530762 3.399818420410156 -0.567749440670013 0.000000000000000
4.469180107116699 1.359830260276794 -0.244209453463554 0.000000000000000
16.624341964721680 5.902940750122070 2.165377855300903 0.003921568859369
7.579441547393799 2.250695705413818 -0.229609638452530 0.000000000000000
4.003729343414307 1.626471638679504 0.025125278159976 0.000000000000000
8.345705032348633 2.478527784347534 -0.455508977174759 0.000000000000000
4.588190078735352 1.274765372276306 0.193707063794136 0.000000000000000
10.840843200683594 3.015861034393311 2.050154924392700 0.000000000000000
8.991691589355469 2.911292552947998 0.219944059848785 0.000000000000000
20.778629302978516 5.627111911773682 3.923845529556274 0.003921568859369
12.636717796325684 4.041732311248779 0.772460043430328 0.000000000000000
10.100143432617188 2.694124698638916 0.425777643918991 0.000000000000000
10.248825073242188 2.733894109725952 1.932471871376038 0.000000000000000
4.689069747924805 1.733444094657898 -0.202701643109322 0.000000000000000
19.865268707275391 6.055510044097900 0.001265345723368 0.003921568859369
13.069054603576660 3.931989908218384 0.000793959421571 0.000000000000000
8.727107048034668 1.719149589538574 -0.309355080127716 0.000000000000000
9.699786186218262 1.876136064529419 -0.114150933921337 0.000000000000000
10.198913574218750 3.538433074951172 0.063189014792442 0.000000000000000
6.513175964355469 1.882606506347656 0.000339309510309 0.000000000000000
11.390992164611816 2.702644586563110 2.131628751754761 0.000000000000000
9.020092010498047 2.105830430984497 0.161882251501083 0.000000000000000
8.452512741088867 2.413243532180786 2.350556373596191 0.000000000000000
6.518375873565674 1.496565699577332 -0.038387164473534 0.000000000000000
9.496076583862305 2.182484388351440 1.773472070693970 0.000000000000000
4.079139709472656 1.347790479660034 -0.174072429537773 0.000000000000000
5.132443904876709 1.158706068992615 0.955941259860992 0.000000000000000
11.560256958007812 2.572965860366821 -0.343331724405289 0.000000000000000
16.106002807617188 3.525203227996826 -0.477297633886337 0.000000000000000
3.958456754684448 1.065067052841187 0.499909549951553 0.000000000000000
10.482334136962891 2.757432460784912 0.252481371164322 0.000000000000000
3.896454095840454 0.624817550182343 0.045869216322899 0.000000000000000
6.580048084259033 1.389724016189575 0.117431014776230 0.000000000000000
9.273246765136719 1.961154222488403 0.385806292295456 0.000000000000000
5.560072422027588 1.173268675804138 -0.295768707990646 0.000000000000000
7.814428329467773 2.436219930648804 0.048031046986580 0.000000000000000
6.342163562774658 1.975472211837769 0.192938908934593 0.000000000000000
15.190409660339355 3.161273479461670 0.271864682435989 0.000000000000000
6.922619819641113 1.412199258804321 0.123409323394299 0.000000000000000
8.864570617675781 2.264932394027710 1.120526194572449 0.000000000000000
13.977642059326172 2.857749462127686 1.163637995719910 0.000000000000000
4.868792057037354 1.495777964591980 -0.205979883670807 0.000000000000000
14.594875335693359 2.984411716461182 2.712121248245239 0.000000000000000
20.546043395996094 4.129252910614014 3.817727565765381 0.003921568859369
8.977744102478027 1.317919731140137 -0.104376927018166 0.000000000000000
17.693601608276367 5.258343219757080 -0.749120354652405 0.003921568859369
3.142754793167114 0.914814829826355 -0.056466247886419 0.000000000000000
6.192111015319824 1.173124790191650 -0.035913031548262 0.000000000000000
19.912296295166016 4.728714942932129 0.002043567365035 0.003921568859369
6.944915771484375 1.266460180282593 -0.203932181000710 0.000000000000000
10.172103881835938 1.821024060249329 0.420789301395416 0.000000000000000
12.724061965942383 2.925853013992310 1.600662708282471 0.000000000000000
11.765542984008789 1.978699445724487 0.209166392683983 0.000000000000000
10.888492584228516 1.251141071319580 0.128684535622597 0.000000000000000
4.544725418090820 0.744208574295044 0.832749903202057 0.000000000000000
12.649727821350098 1.409658074378967 0.149564892053604 0.000000000000000
3.825979232788086 0.998748004436493 0.114230372011662 0.000000000000000
24.774507522583008 3.997176408767700 4.571878433227539 0.003921568859369
7.123001098632812 0.769370794296265 0.083875812590122 0.000000000000000
13.314846992492676 2.102308988571167 1.099006175994873 0.000000000000000
8.173099517822266 1.257379531860352 -0.238405168056488 0.000000000000000
9.789181709289551 2.501013994216919 0.294072896242142 0.000000000000000
5.990985393524170 1.220368027687073 0.354393392801285 0.000000000000000
8.143896102905273 2.078831195831299 -0.339853078126907 0.000000000000000
14.309148788452148 2.206436157226562 2.634471654891968 0.000000000000000
10.940935134887695 1.646313786506653 -0.319292068481445 0.000000000000000
12.800024986267090 1.293487906455994 -0.445923984050751 0.000000000000000
4.278880596160889 0.853819906711578 -0.100175246596336 0.000000000000000
15.147851943969727 1.478195905685425 -0.527745008468628 0.003921568859369
7.828614711761475 1.122179031372070 -0.044703975319862 0.000000000000000
10.597300529479980 2.051900386810303 0.627672851085663 0.000000000000000
7.153691768646240 1.025003194808960 0.293681472539902 0.000000000000000
9.939320564270020 2.394572734832764 0.297605961561203 0.000000000000000
6.166780948638916 0.861145853996277 1.128629088401794 0.000000000000000
11.399219512939453 1.553689956665039 -0.065012969076633 0.000000000000000
8.259339332580566 1.124294042587280 0.145887553691864 0.000000000000000
11.898041725158691 2.171916246414185 0.002024688292295 0.000000000000000
6.295291423797607 0.832093060016632 0.110931612551212 0.000000000000000
4.862862110137939 1.110865473747253 -0.315855443477631 0.000000000000000
16.493160247802734 2.958862781524658 4.479468822479248 0.003921568859369
9.381616592407227 1.212049365043640 1.717102408409119 0.000000000000000
9.483090400695801 0.723967194557190 -0.108397983014584 0.000000000000000
17.493814468383789 3.009205102920532 0.003153885947540 0.003921568859369
14.957760810852051 3.328955411911011 0.447023689746857 0.000000000000000
10.194883346557617 1.750078797340393 -0.237807214260101 0.000000000000000
28.704574584960938 3.415508031845093 -0.834147989749908 0.003921568859369
28.673210144042969 3.305427312850952 -0.832855939865112 0.003921568859369
10.873146057128906 2.337670564651489 0.323969006538391 0.000000000000000
7.902745246887207 1.298320531845093 -0.183908104896545 0.000000000000000
28.632917404174805 3.199709177017212 -0.831333994865417 0.003921568859369
11.172524452209473 1.245484948158264 0.915581166744232 0.000000000000000
8.205922126770020 1.704984664916992 -0.144148722290993 0.000000000000000
28.634878158569336 3.109043836593628 -0.831085085868835 0.003921568859369
11.172417640686035 1.210111260414124 0.915261864662170 0.000000000000000
28.633628845214844 3.007987499237061 -0.830718636512756 0.003921568859369
7.499255657196045 0.417701572179794 -0.085514500737190 0.000000000000000
16.166191101074219 1.696152329444885 -0.091096132993698 0.000000000000000
6.838711261749268 1.052064538002014 0.401063442230225 0.000000000000000
12.456760406494141 1.306267976760864 2.276700019836426 0.000000000000000
4.109042644500732 0.819050669670105 -0.071767404675484 0.000000000000000
28.635997772216797 2.907396793365479 -0.830467820167542 0.003921568859369
7.448741436004639 0.388975143432617 -0.084915667772293 0.000000000000000
24.068611145019531 1.262175917625427 0.284947752952576 0.003921568859369
15.065316200256348 1.527477979660034 0.617701470851898 0.000000000000000
28.718574523925781 2.804632425308228 -0.832525670528412 0.003921568859369
10.186760902404785 0.493798017501831 -0.116206623613834 0.000000000000000
28.703363418579102 2.712276697158813 -0.831814825534821 0.003921568859369
9.117391586303711 0.413224250078201 0.107351951301098 0.000000000000000
5.482571601867676 0.514502584934235 0.223113358020782 0.000000000000000
28.831415176391602 2.611781835556030 -0.833749830722809 0.003921568859369
9.482234954833984 0.822619676589966 0.774036884307861 0.000000000000000
3.985945224761963 0.523149609565735 0.092732697725296 0.000000000000000
8.848932266235352 1.170968651771545 0.518079221248627 0.000000000000000
11.762577056884766 0.980763614177704 2.143588066101074 0.000000000000000
6.241502285003662 1.089722752571106 -0.108422435820103 0.000000000000000
9.113816261291504 1.143473386764526 0.001882915385067 0.003921568859369
14.690976142883301 0.408285886049271 0.173940256237984 0.000000000000000
9.992015838623047 0.764069318771362 0.407972544431686 0.000000000000000
9.918129920959473 0.240745514631271 -0.112489596009254 0.000000000000000
16.755352020263672 2.883088111877441 0.496634811162949 0.003921568859369
14.947688102722168 1.093031644821167 1.222002863883972 0.000000000000000
7.127371311187744 0.843917250633240 0.415817439556122 0.000000000000000
14.674943923950195 1.745145678520203 1.810356497764587 0.000000000000000
13.290004730224609 0.927570343017578 2.420962095260620 0.000000000000000
15.449266433715820 1.024209022521973 -0.445168852806091 0.000000000000000
12.275022506713867 0.215041548013687 -0.139266252517700 0.000000000000000
10.847024917602539 1.249792695045471 0.634654581546783 0.000000000000000
8.376305580139160 0.553764164447784 0.341303318738937 0.000000000000000
11.517912864685059 0.762937724590302 0.939938545227051 0.000000000000000
13.958658218383789 2.250549554824829 0.412687182426453 0.000000000000000
14.718464851379395 0.921786963939667 0.259802490472794 0.000000000000000
6.379949569702148 0.375418871641159 -0.182905241847038 0.000000000000000
6.839638710021973 1.051720976829529 -0.118443168699741 0.000000000000000
18.428371429443359 1.936534523963928 1.079835534095764 0.000000000000000
6.836411476135254 1.025848388671875 0.041108109056950 0.000000000000000
11.089213371276855 0.579772233963013 0.452437758445740 0.000000000000000
15.468790054321289 0.809992671012878 1.263212084770203 0.000000000000000
9.924800872802734 0.965938985347748 0.002498821122572 0.003921568859369
6.033857822418213 0.584651112556458 -0.138042107224464 0.000000000000000
16.832529067993164 2.357825040817261 -0.291071474552155 0.003921568859369
9.160199165344238 0.382347136735916 -0.262326627969742 0.000000000000000
15.969682693481445 0.613045215606689 0.282215893268585 0.000000000000000
11.186370849609375 0.428815186023712 0.456185817718506 0.000000000000000
6.930654525756836 0.242003098130226 0.121513597667217 0.000000000000000
7.692841053009033 0.268883526325226 0.312634885311127 0.000000000000000
12.868323326110840 0.403955161571503 -0.369016736745834 0.000000000000000
10.019752502441406 0.801984250545502 0.002569096861407 0.003921568859369
9.251284599304199 0.289974331855774 -0.050927791744471 0.000000000000000
7.324024677276611 0.584911704063416 0.425479382276535 0.000000000000000
9.567261695861816 0.300050348043442 0.389592051506042 0.000000000000000
4.591115951538086 0.364765197038651 0.557643294334412 0.000000000000000
13.119853973388672 1.650304436683655 0.079789415001869 0.000000000000000
6.027667522430420 0.753483653068542 -0.243261918425560 0.000000000000000
16.012285232543945 1.175734758377075 0.376320660114288 0.000000000000000
8.241017341613770 -0.196791291236877 0.097376219928265 0.000000000000000
8.722942352294922 1.065280556678772 0.255760699510574 0.000000000000000
18.432939529418945 2.195223331451416 0.112386986613274 0.000000000000000
9.164501190185547 0.193592324852943 0.161191761493683 0.000000000000000
17.229480743408203 1.990767598152161 0.507263481616974 0.003921568859369
4.063994407653809 0.071372330188751 0.163513764739037 0.000000000000000
13.086297988891602 0.231632724404335 1.066306471824646 0.000000000000000
29.445318222045898 0.522877275943756 5.365506172180176 0.003921568859369
6.511139869689941 0.407465010881424 0.001546088140458 0.000000000000000
7.104654312133789 0.077335365116596 -0.202865079045296 0.000000000000000
9.706733703613281 0.577351629734039 0.002524030860513 0.003921568859369
9.147594451904297 0.990483522415161 -0.582838773727417 0.000000000000000
10.619988441467285 0.116019956767559 0.864089608192444 0.000000000000000
14.483603477478027 0.864358723163605 3.872805595397949 0.000000000000000
7.507928848266602 0.784388244152069 -0.128309294581413 0.000000000000000
13.971685409545898 0.103856012225151 0.247020483016968 0.000000000000000
8.606840133666992 0.064028657972813 0.349941372871399 0.000000000000000
9.885099411010742 0.073652684688568 0.803391158580780 0.000000000000000
3.599946737289429 0.026913899928331 0.642234683036804 0.000000000000000
10.447129249572754 1.056224942207336 -0.178832963109016 0.000000000000000
14.365926742553711 0.753332972526550 0.837550342082977 0.000000000000000
17.667064666748047 0.067681729793549 3.212327003479004 0.003921568859369
8.455914497375488 -0.405206978321075 -0.094896338880062 0.000000000000000
9.412467002868652 0.428465187549591 0.002818885724992 0.003921568859369
12.043916702270508 -0.077419556677341 0.491266965866089 0.000000000000000
9.065922737121582 -0.058227028697729 -0.467986106872559 0.000000000000000
22.774160385131836 -0.146518990397453 4.145532131195068 0.003921568859369
9.395306587219238 0.360915720462799 0.002831458579749 0.003921568859369
11.262713432312012 0.433355480432510 0.655114352703094 0.000000000000000
4.735392093658447 0.164362564682961 0.001187267247587 0.000000000000000
14.090738296508789 -0.191114395856857 0.249240398406982 0.000000000000000
11.128159523010254 -0.150375694036484 0.905449748039246 0.000000000000000
3.994824647903442 0.138272285461426 -0.090173937380314 0.000000000000000
8.746187210083008 0.701665043830872 0.255471140146255 0.000000000000000
7.674762248992920 -0.128442063927650 0.311715990304947 0.000000000000000
9.558973312377930 0.302601367235184 -0.217720255255699 0.000000000000000
13.933644294738770 -0.283452153205872 -0.398529112339020 0.000000000000000
11.725584983825684 0.331042379140854 0.003689393401146 0.003921568859369
17.138437271118164 -0.349065482616425 -0.093298800289631 0.000000000000000
10.167719841003418 0.781263947486877 0.297392159700394 0.000000000000000
10.483473777770996 0.296160012483597 1.280924677848816 0.000000000000000
5.076565265655518 0.369612604379654 0.030360514298081 0.000000000000000
3.022943973541260 -0.069920219480991 0.120470486581326 0.000000000000000
9.728101730346680 0.713162660598755 -0.391191929578781 0.000000000000000
5.825524806976318 -0.136908963322639 1.049182891845703 0.000000000000000
8.056283950805664 -0.637405693531036 -0.090507142245770 0.000000000000000
13.683639526367188 0.910139381885529 0.083469882607460 0.000000000000000
8.271211624145508 0.147830158472061 2.197267055511475 0.000000000000000
12.006924629211426 0.755435764789581 -0.204249501228333 0.000000000000000
17.273946762084961 0.248246148228645 0.406298369169235 0.000000000000000
6.305378437042236 0.394349694252014 0.183082997798920 0.000000000000000
10.333784103393555 -0.352337986230850 0.421287357807159 0.000000000000000
13.345054626464844 -0.455574303865433 2.422953605651855 0.000000000000000
10.376646041870117 0.616125762462616 -0.176322311162949 0.000000000000000
9.755365371704102 0.106282204389572 0.566198229789734 0.000000000000000
7.151717662811279 -0.267239987850189 0.579173207283020 0.000000000000000
11.924436569213867 -0.487822115421295 0.486951053142548 0.000000000000000
14.940239906311035 0.113322034478188 -0.339967608451843 0.000000000000000
11.303166389465332 0.595022082328796 -0.192061722278595 0.000000000000000
6.836150169372559 0.334648907184601 0.041385576128960 0.000000000000000
22.907657623291016 -1.099935293197632 4.174130439758301 0.003921568859369
3.259811878204346 0.146477192640305 0.093010969460011 0.000000000000000
12.984296798706055 -0.079177759587765 0.004794805310667 0.000000000000000
8.414052009582520 -0.050808101892471 0.196553930640221 0.000000000000000
1.624044537544250 0.066041462123394 -0.098148673772812 0.003921568859369
21.726951599121094 -0.132940456271172 1.268386363983154 0.003921568859369
7.491043090820312 -0.407033622264862 0.304529935121536 0.000000000000000
9.725844383239746 -0.059063673019409 -0.220711529254913 0.000000000000000
13.805083274841309 -0.325802296400070 0.804039061069489 0.000000000000000
6.368469715118408 0.135743737220764 -0.107153885066509 0.000000000000000
14.145586967468262 -0.383018285036087 0.005962808150798 0.000000000000000
19.849096298217773 -1.506693840026855 -0.106145590543747 0.000000000000000
10.722224235534668 -0.809861540794373 0.190454468131065 0.000000000000000
12.099548339843750 -0.326606959104538 1.478655219078064 0.000000000000000
12.111374855041504 -0.915658175945282 0.988429844379425 0.000000000000000
3.089020252227783 0.055755522102118 0.087693676352501 0.000000000000000
15.719047546386719 -1.240645647048950 0.280423045158386 0.000000000000000
19.197185516357422 -1.516152143478394 3.501330614089966 0.003921568859369
7.943748474121094 -0.650160610675812 -0.042498610913754 0.000000000000000
5.547227859497070 -0.451173037290573 0.097428008913994 0.000000000000000
18.036716461181641 -0.607679605484009 2.211212396621704 0.003921568859369
9.526605606079102 -0.781305193901062 0.775982916355133 0.000000000000000
9.742949485778809 -0.363365441560745 1.188519835472107 0.000000000000000
7.708683967590332 -0.686874389648438 -0.219116508960724 0.000000000000000
11.120132446289062 -0.995138525962830 0.197890758514404 0.000000000000000
8.869491577148438 0.036591216921806 -0.149610579013824 0.000000000000000
10.149921417236328 -0.449331253767014 0.238192200660706 0.000000000000000
7.594682216644287 0.005289549473673 0.046384952962399 0.000000000000000
13.438591003417969 -1.298374772071838 1.099823832511902 0.000000000000000
13.817892074584961 -1.379007101058960 0.567758262157440 0.000000000000000
4.906575679779053 -0.482303500175476 0.882129430770874 0.000000000000000
14.924181938171387 -0.818920135498047 0.006469513289630 0.000000000000000
14.809015274047852 -1.535596847534180 1.213790297508240 0.000000000000000
13.886443138122559 -1.488237380981445 -0.074346594512463 0.000000000000000
11.453321456909180 -0.111150763928890 0.334993302822113 0.000000000000000
3.593429565429688 -0.387943714857101 0.287884056568146 0.000000000000000
7.143510818481445 -0.436104565858841 1.893204927444458 0.000000000000000
3.389155149459839 -0.376900881528854 -0.018167141824961 0.000000000000000
6.111535549163818 -0.393537193536758 0.352999776601791 0.000000000000000
7.371478080749512 -0.145612552762032 0.045266255736351 0.000000000000000
9.899085998535156 -1.158393979072571 0.176737844944000 0.000000000000000
14.296999931335449 -2.387136936187744 -0.494871377944946 0.000000000000000
4.871672630310059 -0.111794084310532 0.029470454901457 0.000000000000000
10.356327056884766 -0.743032813072205 1.265901207923889 0.000000000000000
7.360264778137207 -0.907768309116364 -0.039092015475035 0.000000000000000
4.126637458801270 -0.122235044836998 -0.068652592599392 0.000000000000000
14.587218284606934 -1.152535557746887 0.007074598688632 0.000000000000000
7.976330757141113 -0.653219580650330 0.463100403547287 0.000000000000000
14.752815246582031 -0.545280456542969 -0.248787805438042 0.000000000000000
8.712432861328125 -0.381517469882965 0.053863294422626 0.000000000000000
9.528506278991699 -1.511119484901428 1.742109894752502 0.000000000000000
7.103371143341064 -1.500145435333252 -0.079346708953381 0.000000000000000
8.688963890075684 -0.558461725711823 0.054133515805006 0.000000000000000
21.353462219238281 -3.488257646560669 3.935551404953003 0.003921568859369
10.781289100646973 -1.257991194725037 0.005680712405592 0.003921568859369
2.409086942672729 -0.164405927062035 -0.039355866611004 0.000000000000000
18.226133346557617 -3.104239940643311 3.359700202941895 0.003921568859369
13.372276306152344 -1.094605803489685 -0.225017935037613 0.000000000000000
13.316546440124512 -1.089767932891846 0.392271935939789 0.000000000000000
6.954304695129395 -0.613221824169159 -0.276096582412720 0.000000000000000
8.253927230834961 -1.159325838088989 2.205255270004272 0.000000000000000
22.006214141845703 -4.301587581634521 4.079743385314941 0.003921568859369
6.709365844726562 -1.101964473724365 1.790557742118835 0.000000000000000
5.932505607604980 -0.723031997680664 0.037003580480814 0.000000000000000
15.336847305297852 -1.897095322608948 0.455041408538818 0.000000000000000
25.140724182128906 -5.628742218017578 6.884909629821777 0.003921568859369
13.395050048828125 -3.175930976867676 3.659238338470459 0.000000000000000
27.977445602416992 -9.855936050415039 0.366991490125656 0.003921568859369
22.487754821777344 -6.777915477752686 4.274051666259766 0.003921568859369
8.702111244201660 -2.210709333419800 0.211636260151863 0.003921568859369
5.291509628295898 -1.421923875808716 1.432114481925964 0.000000000000000
5.922467708587646 -1.618410944938660 1.609680652618408 0.000000000000000
5.404422283172607 -1.772258639335632 -0.028212571516633 0.000000000000000
19.588588714599609 -6.720160007476807 1.695100903511047 0.003921568859369
17.393375396728516 -7.131278991699219 -0.201415255665779 0.003921568859369
19.532138824462891 -6.928581237792969 1.696477890014648 0.003921568859369
25.011068344116211 -7.540043354034424 6.980579376220703 0.003921568859369
19.612794876098633 -7.034120082855225 1.705708146095276 0.003921568859369
6.141945838928223 -1.564582228660583 -0.103494979441166 0.000000000000000
18.816568374633789 -6.890030384063721 1.639955759048462 0.000000000000000
18.755052566528320 -6.941154956817627 1.636684775352478 0.000000000000000
7.361532688140869 -3.180323600769043 -0.084963798522949 0.000000000000000
10.330368995666504 -3.953368186950684 1.996701121330261 0.000000000000000
9.369245529174805 -3.653699874877930 0.181080073118210 0.000000000000000
9.684494018554688 -3.817580699920654 -0.050848238170147 0.000000000000000
28.128772735595703 -9.666109085083008 3.658661603927612 0.003921568859369
19.433444976806641 -7.732041835784912 1.712918400764465 0.003921568859369
28.149126052856445 -9.783235549926758 1.752583146095276 0.003921568859369
18.449552536010742 -7.411145210266113 1.627672314643860 0.000000000000000
15.921780586242676 -6.385375499725342 3.113843441009521 0.003921568859369
27.940483093261719 -9.819501876831055 0.711743175983429 0.003921568859369
19.021162033081055 -7.719719886779785 1.681022167205811 0.003921568859369
15.804723739624023 -6.401533126831055 3.095107793807983 0.003921568859369
5.930788516998291 -1.745250821113586 -0.100416995584965 0.000000000000000
19.622423171997070 -6.953851699829102 0.498885840177536 0.003921568859369
17.413129806518555 -7.131525039672852 0.776749551296234 0.003921568859369
26.954380035400391 -11.078365325927734 5.311319351196289 0.003921568859369
28.187128067016602 -10.127326011657715 0.719932973384857 0.003921568859369
20.084306716918945 -7.197292804718018 1.251784205436707 0.003921568859369
18.540115356445312 -7.672823429107666 1.642868518829346 0.000000000000000
19.726114273071289 -7.137542724609375 0.502797067165375 0.003921568859369
17.339664459228516 -7.234832763671875 0.775613963603973 0.003921568859369
20.459131240844727 -8.549656867980957 1.817042112350464 0.003921568859369
27.068817138671875 -11.335225105285645 5.348868846893311 0.003921568859369
19.565217971801758 -6.097099304199219 0.609302699565887 0.003921568859369
17.321651458740234 -7.297837734222412 0.775963008403778 0.003921568859369
27.267997741699219 -11.530746459960938 5.396492004394531 0.003921568859369
17.325441360473633 -7.370274543762207 0.777311444282532 0.003921568859369
26.690738677978516 -11.610199928283691 5.305094718933105 0.003921568859369
27.116338729858398 -10.366408348083496 7.762181758880615 0.003921568859369
20.023494720458984 -6.620762348175049 0.628153324127197 0.003921568859369
21.409500122070312 -9.562795639038086 4.267748832702637 0.003921568859369
10.068698883056641 -4.494420528411865 0.199496775865555 0.000000000000000
27.121736526489258 -10.695054054260254 3.586914539337158 0.003921568859369
21.375976562500000 -9.636836051940918 4.267767429351807 0.003921568859369
16.020164489746094 -6.350011348724365 4.588826179504395 0.003921568859369
17.072860717773438 -7.750927448272705 3.406389236450195 0.003921568859369
19.627138137817383 -6.791609287261963 0.618626296520233 0.003921568859369
19.938301086425781 -8.002654075622559 2.637527227401733 0.003921568859369
15.979986190795898 -6.398008346557617 4.583647251129150 0.003921568859369
3.586134672164917 -1.403885960578918 0.002708024112508 0.000000000000000
13.511946678161621 -5.613848686218262 1.789371013641357 0.003921568859369
24.194877624511719 -10.114005088806152 7.008016586303711 0.003921568859369
20.348289489746094 -8.573697090148926 0.531767308712006 0.003921568859369
19.708349227905273 -7.197174549102783 0.625968992710114 0.003921568859369
13.480486869812012 -5.650992870330811 1.787193179130554 0.003921568859369
23.899143218994141 -10.082751274108887 6.930452346801758 0.003921568859369
8.126361846923828 -3.875384092330933 -0.042882155627012 0.000000000000000
20.084232330322266 -8.542836189270020 2.680084705352783 0.003921568859369
13.106379508972168 -6.309429168701172 1.187625288963318 0.003921568859369
13.296154022216797 -6.459089756011963 0.609753012657166 0.000000000000000
23.018739700317383 -9.898035049438477 3.080329418182373 0.003921568859369
24.004489898681641 -10.423438072204590 6.992886066436768 0.003921568859369
17.104188919067383 -7.473669052124023 1.095316529273987 0.000000000000000
15.722236633300781 -6.861733913421631 4.567020893096924 0.003921568859369
20.874767303466797 -9.227232933044434 0.549963653087616 0.003921568859369
20.860656738281250 -9.307575225830078 0.550469875335693 0.003921568859369
19.895664215087891 -7.738770008087158 0.637195050716400 0.003921568859369
20.824394226074219 -9.378001213073730 0.550391972064972 0.003921568859369
18.060930252075195 -8.121344566345215 1.162852048873901 0.003921568859369
19.536842346191406 -7.754099845886230 0.627352833747864 0.003921568859369
17.012678146362305 -7.715699195861816 1.096327662467957 0.003921568859369
17.777124404907227 -9.131322860717773 1.637787818908691 0.000000000000000
23.864479064941406 -10.858422279357910 7.006511211395264 0.003921568859369
17.772897720336914 -7.114546775817871 0.570828139781952 0.003921568859369
23.575941085815430 -10.820058822631836 6.931696414947510 0.003921568859369
8.701258659362793 -4.039905071258545 0.009506683796644 0.003921568859369
17.917913436889648 -7.386018753051758 0.578776836395264 0.003921568859369
13.533649444580078 -6.338244438171387 1.827954530715942 0.000000000000000
3.829161882400513 -1.524676203727722 0.026166165247560 0.000000000000000
20.043872833251953 -8.354144096374512 0.649344563484192 0.003921568859369
22.619651794433594 -10.853183746337891 1.477392673492432 0.003921568859369
19.569217681884766 -9.374757766723633 5.789621353149414 0.003921568859369
5.599419593811035 -2.680752038955688 0.005732642021030 0.000000000000000
22.523860931396484 -11.095552444458008 6.707662582397461 0.003921568859369
11.038685798645020 -4.785612583160400 0.080992966890335 0.000000000000000
11.250063896179199 -5.683731555938721 3.342425346374512 0.000000000000000
12.605911254882812 -6.433796405792236 3.759330034255981 0.000000000000000
21.528778076171875 -11.159151077270508 6.476968288421631 0.003921568859369
6.883665561676025 -3.112082242965698 -0.120886176824570 0.000000000000000
9.098803520202637 -4.146445274353027 0.067420348525047 0.000000000000000
13.579174995422363 -7.911182403564453 0.650236904621124 0.000000000000000
17.567842483520508 -9.548989295959473 5.331398010253906 0.003921568859369
16.268283843994141 -8.047895431518555 -0.293289452791214 0.003921568859369
24.943691253662109 -15.589357376098633 -0.816748261451721 0.003921568859369
25.275800704956055 -16.273244857788086 -0.833133876323700 0.003921568859369
20.558872222900391 -11.932011604309082 6.347529411315918 0.003921568859369
13.205001831054688 -8.563328742980957 0.651865482330322 0.000000000000000
10.495853424072266 -6.420531272888184 3.260591506958008 0.000000000000000
10.422203063964844 -6.421620845794678 3.243954658508301 0.000000000000000
16.404846191406250 -10.346970558166504 2.381071329116821 0.003921568859369
3.805278778076172 -2.631540298461914 0.081922061741352 0.000000000000000
6.977185249328613 -5.041378498077393 0.156635120511055 0.000000000000000
2.585115909576416 -1.795365571975708 0.123074628412724 0.000000000000000
17.322435379028320 -13.072058677673340 1.783221364021301 0.003921568859369
16.036939620971680 -12.167325973510742 1.652947068214417 0.003921568859369
15.826245307922363 -12.088502883911133 0.369434386491776 0.003921568859369
11.278119087219238 -9.579721450805664 -0.066033743321896 0.003921568859369
14.575210571289062 -12.618566513061523 1.583354473114014 0.000000000000000
14.824201583862305 -13.570407867431641 3.656651496887207 0.003921568859369
19.939796447753906 -16.618917465209961 -0.563797354698181 0.003921568859369
8.545032501220703 -8.568074226379395 0.154104158282280 0.000000000000000
21.666442871093750 -18.206119537353516 -0.614966928958893 0.003921568859369
14.669389724731445 -13.706067085266113 3.653003692626953 0.003921568859369
20.924301147460938 -17.818466186523438 -0.597173333168030 0.003921568859369
16.637950897216797 -15.689069747924805 4.166391372680664 0.003921568859369
11.702837944030762 -9.576210975646973 0.454391032457352 0.000000000000000
13.442712783813477 -12.612767219543457 4.912793159484863 0.003921568859369
8.745441436767578 -8.742033958435059 -0.266401737928391 0.003921568859369
7.130114078521729 -8.987364768981934 0.146749913692474 0.000000000000000
7.291802406311035 -9.678922653198242 0.155196323990822 0.000000000000000
5.481191158294678 -6.901271820068359 0.162100419402122 0.000000000000000
2.838630676269531 -3.161127090454102 0.098716124892235 0.000000000000000
5.167302131652832 -6.960215568542480 0.357119560241699 0.000000000000000
9.247912406921387 -11.907387733459473 1.849870443344116 0.000000000000000
5.471241950988770 -9.474409103393555 -0.361813902854919 0.003921568859369
7.212038516998291 -13.096324920654297 -0.840107321739197 0.003921568859369
4.619036197662354 -8.434417724609375 -0.870243430137634 0.003921568859369
4.867982864379883 -9.170922279357910 -0.343381464481354 0.000000000000000
4.432883739471436 -8.428972244262695 -0.862334072589874 0.003921568859369
4.247216701507568 -8.473332405090332 -0.530743181705475 0.000000000000000
5.290932655334473 -9.573726654052734 -0.298387736082077 0.003921568859369
5.973227500915527 -12.684761047363281 -0.788595199584961 0.000000000000000
4.751066207885742 -9.460285186767578 -0.288975208997726 0.003921568859369
3.817708492279053 -8.862984657287598 -0.875611841678619 0.003921568859369
4.113663196563721 -9.622791290283203 -0.587783634662628 0.003921568859369
3.687469959259033 -8.618712425231934 -0.526035368442535 0.000000000000000
3.670401811599731 -8.661706924438477 0.120104931294918 0.003921568859369
3.681979656219482 -7.913268566131592 -0.238163620233536 0.003921568859369
6.553677558898926 -14.323882102966309 0.023667784407735 0.003921568859369
