# This PCD file was generated using the MATLAB® pcwrite function
# from Computer Vision Toolbox®.
# .PCD v.7 - Point Cloud Data file format
VERSION .7
FIELDS x y z intensity
SIZE 8 8 8 8
TYPE F F F F
COUNT 1 1 1 1
WIDTH 646
HEIGHT 1
VIEWPOINT 0 0 0 1 0 0 0
POINTS 646
DATA ascii
8.847720146179199 3.998916149139404 -0.907337129116058 0.000000000000000
9.864842414855957 4.457934379577637 -0.630984544754028 0.000000000000000
8.860240936279297 3.971055507659912 -0.907336950302124 0.000000000000000
9.962632179260254 4.464392185211182 -0.636332809925079 0.000000000000000
8.994197845458984 3.993324756622314 -0.919604837894440 0.000000000000000
9.153458595275879 4.612274169921875 -0.837561011314392 0.000000000000000
9.981804847717285 4.431161880493164 -0.636565029621124 0.000000000000000
4.806480407714844 2.727979898452759 0.680181622505188 0.000000000000000
8.889111518859863 3.905901432037354 -0.907336473464966 0.000000000000000
9.121148109436035 4.552144527435303 -0.833004534244537 0.000000000000000
8.974379539489746 3.909689188003540 -0.914771437644958 0.000000000000000
9.106812477111816 4.509290695190430 -0.830400705337524 0.000000000000000
9.994186401367188 4.353309154510498 -0.635401785373688 0.003921568859369
3.766345024108887 1.628521561622620 -0.047764908522367 0.000000000000000
8.940423965454102 3.857802629470825 -0.909938275814056 0.000000000000000
9.101017951965332 4.466898441314697 -0.828447818756104 0.000000000000000
8.928859710693359 3.814023494720459 -0.907335758209229 0.000000000000000
9.117328643798828 4.433464050292969 -0.828447520732880 0.000000000000000
8.942119598388672 3.782783508300781 -0.907335519790649 0.000000000000000
9.118381500244141 4.394647121429443 -0.827145516872406 0.000000000000000
9.458760261535645 4.001014232635498 -0.598659455776215 0.000000000000000
8.955268859863281 3.751501321792603 -0.907335281372070 0.000000000000000
9.122868537902832 4.357596397399902 -0.826168894767761 0.000000000000000
10.139460563659668 4.246840000152588 -0.640749156475067 0.000000000000000
8.967658996582031 3.721741437911987 -0.907335042953491 0.000000000000000
9.115645408630371 4.317051887512207 -0.824216067790985 0.000000000000000
8.980597496032715 3.690366506576538 -0.907334804534912 0.000000000000000
9.119830131530762 4.280081748962402 -0.823239445686340 0.000000000000000
8.975610733032227 3.649887084960938 -0.905475735664368 0.000000000000000
9.099292755126953 4.229794979095459 -0.819984734058380 0.000000000000000
7.601500034332275 3.997784852981567 2.304686069488525 0.000000000000000
9.009974479675293 3.629118919372559 -0.907391548156738 0.000000000000000
9.080785751342773 4.184530735015869 -0.816786527633667 0.000000000000000
8.997940063476562 3.584151506423950 -0.904788911342621 0.000000000000000
9.093160629272461 4.147942066192627 -0.816460847854614 0.000000000000000
9.049910545349121 3.571909666061401 -0.908878266811371 0.000000000000000
9.077082633972168 4.106193065643311 -0.813857138156891 0.000000000000000
9.040061950683594 3.531580448150635 -0.906647503376007 0.000000000000000
9.047695159912109 4.054904937744141 -0.809951543807983 0.000000000000000
9.045514106750488 3.495519161224365 -0.905903756618500 0.000000000000000
9.080719947814941 4.029759407043457 -0.811578631401062 0.000000000000000
10.146098136901855 3.920408010482788 -0.633829832077026 0.003921568859369
12.479598045349121 6.283651351928711 0.814298570156097 0.000000000000000
25.426258087158203 9.722628593444824 -0.316849321126938 0.003921568859369
9.053337097167969 3.464054107666016 -0.905531883239746 0.000000000000000
25.441200256347656 9.728343963623047 0.317356944084167 0.003921568859369
9.075782775878906 3.991578102111816 -0.809951186180115 0.000000000000000
9.062247276306152 3.429405212402344 -0.905160009860992 0.000000000000000
9.064762115478516 3.947118997573853 -0.807672917842865 0.000000000000000
25.493516921997070 9.544821739196777 -0.316848456859589 0.003921568859369
9.058650016784668 3.393723249435425 -0.903672754764557 0.000000000000000
9.077800750732422 3.917009830474854 -0.807672739028931 0.000000000000000
9.092848777770996 3.370349884033203 -0.905903160572052 0.000000000000000
9.062085151672363 3.872745752334595 -0.805069088935852 0.000000000000000
9.776029586791992 3.623331308364868 -0.607551574707031 0.000000000000000
9.119518280029297 3.344036102294922 -0.907390177249908 0.000000000000000
9.057189941406250 3.833293199539185 -0.803441643714905 0.000000000000000
9.589891433715820 3.516350746154785 -0.595226466655731 0.000000000000000
9.464872360229492 4.005669593811035 -0.538945376873016 0.000000000000000
9.131135940551758 3.312149047851562 -0.907389998435974 0.000000000000000
9.110967636108398 3.818557739257812 -0.807021319866180 0.000000000000000
9.658423423767090 3.503227472305298 -0.598714470863342 0.000000000000000
9.224543571472168 3.311400651931763 -0.915568649768829 0.000000000000000
9.094119071960449 3.776075363159180 -0.804417669773102 0.000000000000000
9.737646102905273 3.495416641235352 -0.602900147438049 0.000000000000000
9.300578117370605 3.300514221191406 -0.921575069427490 0.000000000000000
9.126468658447266 3.750396966934204 -0.805776536464691 0.000000000000000
10.115555763244629 3.589590072631836 -0.625283896923065 0.000000000000000
9.545633316040039 3.348081827163696 -0.944624841213226 0.000000000000000
9.121685981750488 3.709401130676270 -0.804149270057678 0.000000000000000
10.188938140869141 3.573614120483398 -0.629004597663879 0.000000000000000
9.526581764221191 3.305950403213501 -0.941650629043579 0.000000000000000
9.141333580017090 3.682092189788818 -0.804800033569336 0.000000000000000
10.355415344238281 3.593441963195801 -0.638539075851440 0.000000000000000
9.132546424865723 3.639692068099976 -0.802847206592560 0.000000000000000
10.530949592590332 3.611120223999023 -0.648538649082184 0.000000000000000
9.130358695983887 3.601927995681763 -0.801545321941376 0.000000000000000
10.543489456176758 3.574324846267700 -0.648538589477539 0.000000000000000
9.153393745422363 3.575968503952026 -0.802521646022797 0.000000000000000
10.426551818847656 3.496181488037109 -0.640631794929504 0.000000000000000
10.585207939147949 4.135066032409668 -0.595733046531677 0.000000000000000
9.180696487426758 3.549725770950317 -0.803823351860046 0.000000000000000
10.491762161254883 3.477327823638916 -0.643887400627136 0.000000000000000
25.463926315307617 9.740569114685059 -0.158398956060410 0.003921568859369
10.040807723999023 3.289062023162842 -0.986634433269501 0.000000000000000
9.174412727355957 3.510523080825806 -0.802196025848389 0.000000000000000
10.579735755920410 3.465521335601807 -0.648538351058960 0.000000000000000
3.702314615249634 1.629454255104065 0.235861673951149 0.000000000000000
10.056016921997070 3.255200862884521 -0.987006127834320 0.000000000000000
9.186611175537109 3.478458881378174 -0.802195966243744 0.000000000000000
10.682951927185059 3.458055257797241 -0.654119491577148 0.000000000000000
14.304788589477539 5.415498256683350 2.789609670639038 0.000000000000000
10.010415077209473 3.201872825622559 -0.981429457664490 0.000000000000000
9.213630676269531 3.451949119567871 -0.803497672080994 0.000000000000000
10.801456451416016 3.454779624938965 -0.660630762577057 0.000000000000000
9.224431037902832 3.422970056533813 -0.803497612476349 0.000000000000000
9.317058563232422 4.536281585693359 -0.664334654808044 0.003921568859369
10.915057182312012 3.453321933746338 -0.666909515857697 0.000000000000000
9.277490615844727 3.405847072601318 -0.807077467441559 0.000000000000000
11.068071365356445 3.459252119064331 -0.675513863563538 0.000000000000000
9.297538757324219 3.374844312667847 -0.807461082935333 0.000000000000000
7.121544837951660 3.404436588287354 -0.321587562561035 0.000000000000000
14.694268226623535 6.161822319030762 4.269478797912598 0.003921568859369
9.340450286865234 3.349884271621704 -0.810064733028412 0.000000000000000
9.350928306579590 3.320525407791138 -0.810064733028412 0.000000000000000
6.567340373992920 2.332070112228394 1.270648956298828 0.000000000000000
9.558063507080078 3.356551885604858 -0.826988577842712 0.000000000000000
8.808963775634766 3.058990240097046 -0.761246085166931 0.000000000000000
11.682619094848633 4.708230495452881 3.375000476837158 0.000000000000000
4.124444007873535 1.399257659912109 0.076022684574127 0.000000000000000
9.949786186218262 3.375561475753784 1.915659427642822 0.000000000000000
18.608650207519531 6.244435310363770 3.578767538070679 0.003921568859369
10.111171722412109 3.314611911773682 -0.868647158145905 0.000000000000000
25.583312988281250 9.794914245605469 3.363594055175781 0.003921568859369
25.436090469360352 9.738547325134277 -0.633781015872955 0.003921568859369
10.316107749938965 3.341955661773682 -0.885245501995087 0.000000000000000
10.365099906921387 3.319891214370728 -0.888500094413757 0.000000000000000
10.506530761718750 3.323451757431030 -0.899301052093506 0.000000000000000
10.613196372985840 3.316508531570435 -0.907437682151794 0.000000000000000
10.727558135986328 3.311213493347168 -0.916225254535675 0.000000000000000
10.826758384704590 3.300513029098511 -0.923711061477661 0.000000000000000
15.756480216979980 5.658736705780029 4.484748840332031 0.003921568859369
10.975638389587402 3.304105997085571 -0.935427784919739 0.000000000000000
11.534460067749023 3.472394466400146 2.195412158966064 0.000000000000000
11.105567932128906 3.301018238067627 -0.945517301559448 0.000000000000000
11.266210556030273 3.306040763854980 -0.958210468292236 0.000000000000000
5.730986595153809 1.681098937988281 0.487156659364700 0.000000000000000
11.361926078796387 3.291118383407593 -0.965370774269104 0.000000000000000
11.595661163330078 3.315037727355957 -0.984247744083405 0.000000000000000
15.152934074401855 4.218220710754395 2.866963386535645 0.000000000000000
25.463964462280273 9.752756118774414 0.158375620841980 0.003921568859369
10.370438575744629 3.400207281112671 -0.762917220592499 0.000000000000000
10.420285224914551 3.376956701278687 -0.765488982200623 0.000000000000000
10.595403671264648 3.392958164215088 -0.777487754821777 0.000000000000000
10.687658309936523 3.379419088363647 -0.783347785472870 0.000000000000000
9.484754562377930 3.516616582870483 -0.647878706455231 0.000000000000000
10.752120971679688 3.360668897628784 -0.787254393100739 0.000000000000000
9.545074462890625 3.503069877624512 -0.651204824447632 0.000000000000000
10.923907279968262 3.372626066207886 -0.798974156379700 0.000000000000000
11.080640792846680 3.378760337829590 -0.809577703475952 0.000000000000000
11.226087570190430 3.380386590957642 -0.819344222545624 0.000000000000000
4.516143798828125 1.121325731277466 0.379053860902786 0.000000000000000
8.651500701904297 1.675355672836304 -0.102607570588589 0.000000000000000
11.318134307861328 3.365111827850342 -0.825204253196716 0.000000000000000
10.810013771057129 2.647124290466309 2.027460813522339 0.000000000000000
7.682610988616943 2.254204273223877 2.142908096313477 0.000000000000000
10.662107467651367 1.797462105751038 -0.125914528965950 0.000000000000000
7.973600864410400 1.747388601303101 1.485716938972473 0.000000000000000
10.695231437683105 3.423592329025269 -0.719065785408020 0.003921568859369
6.276930809020996 1.328050255775452 -0.522851943969727 0.000000000000000
10.798451423645020 3.415204286575317 -0.725206375122070 0.003921568859369
17.056652069091797 3.613611459732056 1.422030568122864 0.000000000000000
10.954481124877930 3.424731016159058 -0.734928846359253 0.000000000000000
11.069337844848633 3.418357849121094 -0.741836965084076 0.000000000000000
10.150964736938477 2.599284887313843 1.284806728363037 0.000000000000000
11.982189178466797 2.935589313507080 1.512936711311340 0.000000000000000
11.727605819702148 2.699380636215210 0.279365926980972 0.000000000000000
3.969389677047729 0.709679543972015 0.327528655529022 0.000000000000000
13.277519226074219 2.190664052963257 1.096845746040344 0.000000000000000
6.981736660003662 1.125581622123718 0.287164360284805 0.000000000000000
7.756022930145264 1.616757631301880 2.117943048477173 0.000000000000000
7.929541587829590 1.168490171432495 0.652632117271423 0.000000000000000
4.799069881439209 1.174504876136780 -0.086146764457226 0.000000000000000
11.270928382873535 2.187616348266602 3.071407794952393 0.000000000000000
8.214336395263672 1.062749743461609 0.674049437046051 0.000000000000000
3.091804027557373 0.529754102230072 0.181141734123230 0.000000000000000
10.419866561889648 1.757043361663818 1.294424057006836 0.000000000000000
8.674549102783203 1.434169411659241 1.076536655426025 0.000000000000000
7.119735240936279 0.744937717914581 0.582278788089752 0.000000000000000
11.214987754821777 2.259203672409058 -0.199626252055168 0.000000000000000
25.335277557373047 2.393203735351562 -0.740384042263031 0.003921568859369
10.692726135253906 1.537366390228271 -0.000384588522138 0.003921568859369
6.835184097290039 0.643852651119232 -0.358743369579315 0.000000000000000
6.183041572570801 0.259357035160065 -0.359176635742188 0.000000000000000
3.064492940902710 0.116852484643459 -0.035695098340511 0.000000000000000
15.930117607116699 0.611486375331879 0.184822276234627 0.000000000000000
10.671928405761719 1.420727610588074 1.318240880966187 0.000000000000000
12.774731636047363 1.028338313102722 2.331380367279053 0.000000000000000
12.341298103332520 0.344418644905090 0.143001779913902 0.000000000000000
11.603260040283203 2.000009536743164 0.067887321114540 0.000000000000000
5.816242218017578 0.981517434120178 0.033796567469835 0.000000000000000
6.118616104125977 0.086383268237114 -0.213090851902962 0.000000000000000
6.354543209075928 1.003595232963562 -0.261352419853210 0.000000000000000
4.662988662719727 0.034196268767118 -0.054302245378494 0.000000000000000
13.847001075744629 0.002990187378600 -0.482961565256119 0.000000000000000
3.954086542129517 0.566886484622955 -0.069545902311802 0.000000000000000
7.554884910583496 -0.023286262527108 0.087165229022503 0.000000000000000
11.717403411865234 0.535242557525635 0.203718468546867 0.000000000000000
15.559340476989746 2.130460739135742 0.455628991127014 0.000000000000000
7.376854896545410 0.619732916355133 0.428886204957962 0.000000000000000
7.336341381072998 0.208213061094284 -0.042889993637800 0.000000000000000
9.037121772766113 0.698089122772217 0.525606930255890 0.000000000000000
8.687121391296387 0.246690571308136 0.706459462642670 0.000000000000000
6.215960025787354 0.457712322473526 0.761041879653931 0.000000000000000
11.163311004638672 1.331813812255859 0.325821787118912 0.000000000000000
13.661047935485840 0.910625398159027 -0.000497821252793 0.000000000000000
15.620685577392578 0.278192102909088 -0.091152191162109 0.000000000000000
6.236536026000977 0.699146330356598 0.035814527422190 0.000000000000000
6.983438014984131 0.416784584522247 -0.000467611709610 0.000000000000000
5.483675479888916 0.041200757026672 -0.032111644744873 0.000000000000000
6.355008125305176 -0.327503681182861 0.073197491466999 0.000000000000000
8.296418190002441 -0.024091500788927 0.673854112625122 0.000000000000000
3.155821084976196 0.132615938782692 0.181449353694916 0.000000000000000
4.684392452239990 0.181296542286873 -0.000433573324699 0.000000000000000
10.446007728576660 0.298565298318863 0.605981171131134 0.000000000000000
5.150279045104980 0.129759043455124 -0.000441780866822 0.000000000000000
11.472207069396973 -0.268978744745255 2.085151672363281 0.000000000000000
19.646518707275391 0.425395339727402 -0.914255082607269 0.000000000000000
19.611927032470703 0.356300234794617 -0.912580370903015 0.000000000000000
19.613050460815430 0.287980675697327 -0.912581384181976 0.000000000000000
19.601951599121094 0.219523116946220 -0.912023842334747 0.000000000000000
19.582565307617188 0.157906368374825 -0.911093831062317 0.000000000000000
10.393557548522949 -0.422481000423431 -0.543638408184052 0.000000000000000
19.583026885986328 0.082868851721287 -0.911094903945923 0.000000000000000
19.591190338134766 0.014657752588391 -0.911468327045441 0.000000000000000
13.225230216979980 -0.681045651435852 -0.384883493185043 0.000000000000000
19.599111557006836 -0.053609259426594 -0.911841750144958 0.000000000000000
19.630769729614258 -0.122081026434898 -0.913332343101501 0.000000000000000
9.335323333740234 -0.512639105319977 0.759361624717712 0.000000000000000
4.132214546203613 -0.039703745394945 -0.000480965740280 0.000000000000000
19.670177459716797 -0.190852016210556 -0.915195226669312 0.000000000000000
19.697357177734375 -0.259741336107254 -0.916499674320221 0.000000000000000
8.201494216918945 -0.133434668183327 0.474788367748260 0.000000000000000
10.106920242309570 -0.199602961540222 -0.000657744647469 0.003921568859369
3.897617816925049 -0.076360113918781 0.223886325955391 0.000000000000000
6.695006847381592 -0.457577913999557 0.543572485446930 0.000000000000000
18.622049331665039 -1.278483748435974 3.394246339797974 0.003921568859369
6.325580120086670 -0.147606074810028 1.682778716087341 0.000000000000000
9.343512535095215 -0.737758934497833 -0.054864734411240 0.000000000000000
8.360097885131836 -0.282571345567703 -0.000623835134320 0.003921568859369
13.739154815673828 0.203980937600136 0.078875534236431 0.000000000000000
16.307401657104492 -1.350374937057495 0.664029419422150 0.003921568859369
4.865823745727539 -0.672883808612823 0.056109093129635 0.000000000000000
8.960971832275391 -0.396520435810089 0.519124984741211 0.000000000000000
4.663408279418945 -0.010125341825187 -0.296540200710297 0.000000000000000
11.473379135131836 -1.146071672439575 0.936943292617798 0.000000000000000
8.937001228332520 -0.891705751419067 1.628741264343262 0.000000000000000
15.771354675292969 -0.919651269912720 0.916649758815765 0.000000000000000
8.015512466430664 -0.102319069206715 -0.139736026525497 0.000000000000000
3.691803216934204 -0.288256496191025 0.212206244468689 0.000000000000000
14.673912048339844 -1.209181308746338 3.931135654449463 0.000000000000000
7.210383415222168 -0.290842920541763 -0.125759631395340 0.000000000000000
10.865941047668457 -0.970326781272888 -0.000754305627197 0.003921568859369
4.903839111328125 -0.693088054656982 0.399696409702301 0.000000000000000
6.917074203491211 -0.688607990741730 0.159947246313095 0.000000000000000
9.388307571411133 -0.671664237976074 -0.164135739207268 0.000000000000000
12.535418510437012 -1.602441668510437 -0.000875898462255 0.000000000000000
16.708553314208984 -3.941932201385498 0.198225453495979 0.003921568859369
10.757701873779297 -2.060448884963989 1.986565232276917 0.000000000000000
12.433987617492676 -1.280097246170044 -0.507826387882233 0.000000000000000
6.748150825500488 -1.456770181655884 -0.359609127044678 0.000000000000000
26.300191879272461 -4.384863376617432 7.127542018890381 0.003921568859369
9.611747741699219 -1.664821028709412 0.224779054522514 0.000000000000000
22.882801055908203 -5.221636295318604 4.267681121826172 0.003921568859369
22.546302795410156 -5.227323055267334 4.208138942718506 0.003921568859369
7.940613269805908 -2.272893905639648 0.094660870730877 0.000000000000000
9.856555938720703 -2.313564777374268 0.409272819757462 0.000000000000000
8.347060203552246 -1.989611983299255 -0.050399336963892 0.000000000000000
24.906963348388672 -5.233511447906494 3.116011142730713 0.003921568859369
8.326536178588867 -2.167177438735962 1.556753873825073 0.000000000000000
6.861963748931885 -1.805893301963806 0.121958002448082 0.000000000000000
26.481618881225586 -5.845200538635254 7.248575687408447 0.003921568859369
6.727586746215820 -1.523339748382568 0.838608920574188 0.000000000000000
12.057415008544922 -2.786890268325806 3.297387361526489 0.000000000000000
8.274817466735840 -1.517387628555298 -0.146563231945038 0.000000000000000
17.771757125854492 -6.052991390228271 0.216595977544785 0.003921568859369
6.414266109466553 -1.173376679420471 -0.263780981302261 0.000000000000000
3.271088361740112 -0.947984755039215 0.135404378175735 0.000000000000000
7.583529949188232 -2.279972791671753 1.431212425231934 0.000000000000000
7.122313022613525 -2.578212738037109 0.086585149168968 0.000000000000000
4.439667224884033 -0.918504595756531 0.025215514004230 0.000000000000000
8.591929435729980 -2.682043313980103 1.628481626510620 0.000000000000000
16.154180526733398 -5.247180461883545 3.083974838256836 0.003921568859369
16.013139724731445 -5.261245727539062 3.059582233428955 0.003921568859369
10.549516677856445 -3.500630140304565 0.900865375995636 0.000000000000000
7.801268100738525 -2.582417011260986 1.485009074211121 0.000000000000000
8.695468902587891 -2.912987709045410 0.157972171902657 0.000000000000000
8.490627288818359 -2.424300670623779 0.509330093860626 0.000000000000000
3.085110664367676 -0.721365332603455 0.089469127357006 0.000000000000000
7.215308189392090 -2.084094524383545 1.993086576461792 0.000000000000000
1.234772562980652 -0.339192628860474 -0.028847126290202 0.003921568859369
9.216416358947754 -2.702588558197021 0.554419815540314 0.000000000000000
1.145377397537231 -0.317182302474976 -0.026703972369432 0.003921568859369
19.962472915649414 -6.029907703399658 1.209161043167114 0.003921568859369
5.973349571228027 -2.155487298965454 0.512098848819733 0.000000000000000
11.688277244567871 -3.083206653594971 0.348784118890762 0.000000000000000
8.485041618347168 -2.232972145080566 -0.355535417795181 0.000000000000000
11.177219390869141 -3.659309148788452 0.270991832017899 0.000000000000000
12.200595855712891 -3.996668577194214 0.742445409297943 0.000000000000000
9.509484291076660 -2.712790966033936 0.284735351800919 0.000000000000000
1.108876228332520 -0.300772041082382 -0.019427472725511 0.003921568859369
1.176863431930542 -0.324754834175110 -0.020686451345682 0.003921568859369
1.175722479820251 -0.328595697879791 -0.020686505362391 0.003921568859369
8.011423110961914 -2.400901556015015 -0.145600914955139 0.000000000000000
14.831217765808105 -5.325071811676025 4.202083110809326 0.003921568859369
6.718288421630859 -2.061625003814697 -0.122241318225861 0.000000000000000
13.085884094238281 -4.038171291351318 0.395384013652802 0.000000000000000
16.792358398437500 -6.159958362579346 -0.415669143199921 0.000000000000000
7.718358993530273 -2.486590623855591 0.232890918850899 0.000000000000000
4.715485572814941 -2.066807985305786 -0.415096402168274 0.000000000000000
25.759889602661133 -13.444282531738281 0.335828244686127 0.003921568859369
25.967466354370117 -13.668302536010742 0.339170157909393 0.003921568859369
3.949924468994141 -1.823501944541931 -0.349978268146515 0.000000000000000
8.143035888671875 -2.876226902008057 0.248230263590813 0.000000000000000
25.317958831787109 -13.543229103088379 -0.335016608238220 0.003921568859369
25.698589324951172 -13.747530937194824 0.336798489093781 0.003921568859369
10.750502586364746 -5.069719314575195 2.152120113372803 0.000000000000000
25.872049331665039 -13.956797599792480 0.339722573757172 0.003921568859369
25.229812622070312 -13.722890853881836 -0.335111349821091 0.003921568859369
25.798595428466797 -14.033314704895020 0.339396923780441 0.003921568859369
25.556604385375977 -14.132925033569336 0.337492227554321 0.003921568859369
25.109161376953125 -13.999119758605957 -0.335440158843994 0.003921568859369
25.063629150390625 -14.088352203369141 -0.335487484931946 0.003921568859369
25.509574890136719 -14.339879035949707 0.338187366724014 0.003921568859369
25.125556945800781 -14.238725662231445 -0.336982607841492 0.003921568859369
25.734037399291992 -14.584731101989746 0.341854274272919 0.003921568859369
25.280450820922852 -14.443426132202148 0.336468458175659 0.003921568859369
25.364919662475586 -14.609321594238281 -0.341560840606689 0.003921568859369
25.635057449340820 -14.765439033508301 0.341899484395981 0.003921568859369
25.275753021240234 -14.675332069396973 -0.341047674417496 0.003921568859369
25.948862075805664 -13.534915924072266 -0.851193189620972 0.003921568859369
25.022293090820312 -14.758966445922852 -0.338949680328369 0.003921568859369
26.327653884887695 -13.964802742004395 -0.866692006587982 0.003921568859369
26.176582336425781 -14.001472473144531 -0.863314092159271 0.003921568859369
25.542470932006836 -15.307847023010254 -0.347451090812683 0.003921568859369
25.768712997436523 -15.443916320800781 0.347186356782913 0.003921568859369
25.269222259521484 -15.257439613342285 -0.344415754079819 0.003921568859369
24.342220306396484 -14.695734024047852 0.328523725271225 0.003921568859369
24.529697418212891 -14.926218032836914 -0.335028380155563 0.003921568859369
25.554010391235352 -13.891417503356934 -0.170224830508232 0.003921568859369
10.995250701904297 -6.660406112670898 0.147705540060997 0.000000000000000
24.739723205566406 -15.172879219055176 -0.338625192642212 0.003921568859369
24.218595504760742 -14.852114677429199 0.328244239091873 0.003921568859369
24.618631362915039 -15.216664314270020 -0.337691545486450 0.003921568859369
24.163204193115234 -14.934143066406250 0.328197389841080 0.003921568859369
25.840036392211914 -14.399381637573242 -0.860288321971893 0.003921568859369
10.721407890319824 -6.647020339965820 -0.147038832306862 0.000000000000000
10.691370964050293 -6.679828643798828 -0.146945610642433 0.003921568859369
10.836892127990723 -6.771518230438232 0.146822705864906 0.000000000000000
24.432010650634766 -13.948642730712891 -0.818116188049316 0.003921568859369
24.545280456542969 -15.648206710815430 -0.339654922485352 0.003921568859369
25.614967346191406 -14.626501083374023 -0.172637552022934 0.003921568859369
24.428178787231445 -14.059530258178711 -0.819631278514862 0.003921568859369
23.871986389160156 -15.334662437438965 -0.331061422824860 0.003921568859369
25.407892227172852 -14.625476837158203 -0.171585649251938 0.003921568859369
10.671268463134766 -6.823005676269531 0.145522311329842 0.003921568859369
9.637453079223633 -6.156411647796631 -0.397756129503250 0.000000000000000
10.490107536315918 -5.348259449005127 3.132757186889648 0.000000000000000
25.834735870361328 -14.989338874816895 -0.174793124198914 0.003921568859369
10.444939613342285 -5.368441104888916 3.123438835144043 0.000000000000000
10.376653671264648 -6.783590793609619 0.142363488674164 0.000000000000000
9.003954887390137 -5.272123813629150 1.886695265769958 0.000000000000000
26.107757568359375 -13.723064422607422 -0.686048567295074 0.003921568859369
23.886571884155273 -15.815616607666016 -0.334241420030594 0.003921568859369
25.890274047851562 -13.723665237426758 0.678294122219086 0.003921568859369
23.380285263061523 -15.479077339172363 0.323920488357544 0.003921568859369
26.236215591430664 -13.907697677612305 -0.690708816051483 0.003921568859369
24.143602371215820 -16.107799530029297 -0.338632196187973 0.003921568859369
25.780635833740234 -15.442081451416016 -0.175871208310127 0.003921568859369
10.618162155151367 -7.048857688903809 0.146401926875114 0.000000000000000
10.949417114257812 -7.270718097686768 -0.762005090713501 0.000000000000000
10.949484825134277 -5.823869228363037 1.511593461036682 0.000000000000000
9.840438842773438 -5.859329223632812 2.072484970092773 0.000000000000000
10.440096855163574 -6.976777553558350 -0.146341487765312 0.003921568859369
10.204654693603516 -6.818013191223145 0.140923991799355 0.000000000000000
9.204872131347656 -5.516277313232422 0.432946026325226 0.000000000000000
24.670406341552734 -14.997443199157715 -0.168972358107567 0.003921568859369
25.844831466674805 -14.035768508911133 0.680800795555115 0.003921568859369
10.782047271728516 -7.261767387390137 -0.753628194332123 0.000000000000000
10.753747940063477 -5.810235500335693 1.489662766456604 0.003921568859369
11.123156547546387 -6.730441570281982 1.053735017776489 0.000000000000000
24.479003906250000 -15.003579139709473 -0.168037310242653 0.003921568859369
10.844317436218262 -7.361812591552734 -0.759911239147186 0.000000000000000
24.480113983154297 -15.115972518920898 -0.168388560414314 0.003921568859369
8.785039901733398 -5.994071006774902 -0.615871071815491 0.000000000000000
9.340234756469727 -5.731410503387451 0.442218661308289 0.003921568859369
25.804658889770508 -14.365123748779297 0.683679163455963 0.003921568859369
10.632306098937988 -6.583341121673584 0.215841248631477 0.000000000000000
8.777610778808594 -5.424721240997314 1.865891575813293 0.003921568859369
10.417078971862793 -7.229201793670654 0.145658418536186 0.000000000000000
10.195177078247070 -6.361859321594238 0.485330522060394 0.000000000000000
11.744487762451172 -7.337636470794678 2.509341478347778 0.000000000000000
25.239055633544922 -15.953299522399902 -0.868338227272034 0.003921568859369
10.796908378601074 -6.790507793426514 -0.074738286435604 0.003921568859369
10.602973937988281 -6.667468070983887 0.216189235448837 0.003921568859369
9.836783409118652 -5.533158302307129 3.001289367675781 0.000000000000000
9.430672645568848 -5.923711299896240 2.015096902847290 0.000000000000000
24.132024765014648 -17.081550598144531 -0.344942480325699 0.003921568859369
9.133538246154785 -6.421654224395752 -0.388118684291840 0.000000000000000
10.199623107910156 -6.510517120361328 0.488582164049149 0.000000000000000
10.176834106445312 -6.545737743377686 0.488582015037537 0.000000000000000
10.797053337097168 -6.948554515838623 1.040393829345703 0.000000000000000
9.905303955078125 -5.708411216735840 3.039587497711182 0.000000000000000
10.052324295043945 -7.230090618133545 -0.717562556266785 0.000000000000000
10.076062202453613 -7.247333049774170 -0.431718021631241 0.003921568859369
7.984859466552734 -5.159381389617920 1.717400670051575 0.000000000000000
8.986063957214355 -6.503133773803711 -0.385603636503220 0.003921568859369
7.537637710571289 -5.485312461853027 0.106662146747112 0.003921568859369
9.932836532592773 -7.251371383666992 -0.712676048278809 0.000000000000000
10.608035087585449 -6.265704154968262 1.501354575157166 0.000000000000000
10.550356864929199 -6.992461204528809 -0.074156299233437 0.000000000000000
9.143381118774414 -6.051193237304688 0.442378342151642 0.000000000000000
10.445340156555176 -6.212852001190186 1.480886220932007 0.000000000000000
24.514757156372070 -14.660785675048828 -0.664346635341644 0.003921568859369
10.040925025939941 -6.017352104187012 3.113081455230713 0.000000000000000
10.835186004638672 -7.297509670257568 -0.378908336162567 0.000000000000000
10.178892135620117 -7.597033023834229 -0.148026019334793 0.000000000000000
8.195290565490723 -6.102141380310059 0.117060393095016 0.000000000000000
8.026551246643066 -5.388578891754150 0.166374236345291 0.003921568859369
25.379392623901367 -15.433211326599121 -0.690908074378967 0.003921568859369
23.477619171142578 -16.009731292724609 -0.826286375522614 0.003921568859369
25.523803710937500 -13.979267120361328 0.166999503970146 0.003921568859369
10.279360771179199 -6.971816062927246 -0.072776697576046 0.000000000000000
3.945575714111328 -2.634561300277710 0.080613985657692 0.000000000000000
9.382282257080078 -6.357511997222900 -0.590740561485291 0.003921568859369
23.335037231445312 -16.019559860229492 -0.823024511337280 0.003921568859369
24.011980056762695 -14.817060470581055 0.653008878231049 0.003921568859369
9.293200492858887 -6.339036464691162 -0.586341440677643 0.000000000000000
23.269598007202148 -16.100055694580078 -0.822791755199432 0.003921568859369
7.418934822082520 -5.636191368103027 -0.108511753380299 0.000000000000000
8.312351226806641 -6.324030399322510 -0.968722164630890 0.003921568859369
9.520159721374512 -7.253921508789062 0.137392818927765 0.000000000000000
9.256781578063965 -6.363577842712402 -0.585503518581390 0.000000000000000
10.364521026611328 -6.413210391998291 1.485271334648132 0.003921568859369
7.421625614166260 -5.677637100219727 -0.108793437480927 0.000000000000000
25.551267623901367 -14.340791702270508 0.168127208948135 0.003921568859369
7.683063507080078 -5.308282375335693 0.160590112209320 0.003921568859369
10.198900222778320 -7.832082748413086 -0.745255768299103 0.000000000000000
9.060473442077637 -5.641499996185303 2.835661888122559 0.003921568859369
10.517171859741211 -7.341777801513672 -0.371920257806778 0.000000000000000
9.636026382446289 -7.443531036376953 -0.705464303493500 0.000000000000000
9.216134071350098 -6.424604892730713 0.453276067972183 0.003921568859369
9.734596252441406 -7.520492553710938 -0.427807420492172 0.000000000000000
8.775145530700684 -5.499933242797852 2.750780105590820 0.000000000000000
7.611822605133057 -5.332968235015869 0.159823626279831 0.003921568859369
8.897462844848633 -6.916422367095947 -0.652641594409943 0.000000000000000
10.782613754272461 -7.643890857696533 -0.689410865306854 0.000000000000000
8.367913246154785 -5.915639877319336 1.852257013320923 0.000000000000000
11.118228912353516 -7.151440143585205 0.763790488243103 0.003921568859369
8.675707817077637 -6.181299209594727 -0.554920494556427 0.000000000000000
9.922625541687012 -7.129961013793945 -0.071586184203625 0.003921568859369
7.750604629516602 -6.145218372344971 0.113252170383930 0.003921568859369
10.315556526184082 -7.469841957092285 0.514445662498474 0.000000000000000
23.660181045532227 -15.522802352905273 -0.658110260963440 0.003921568859369
23.783048629760742 -15.728547096252441 0.659878134727478 0.003921568859369
8.699830055236816 -6.336575031280518 -0.872902572154999 0.000000000000000
8.523370742797852 -6.206518650054932 0.853008568286896 0.000000000000000
9.003937721252441 -6.608798027038574 0.450672566890717 0.000000000000000
21.577556610107422 -15.944138526916504 2.181921243667603 0.003921568859369
23.642501831054688 -15.873146057128906 1.651841998100281 0.003921568859369
7.524540424346924 -5.550706386566162 0.376650303602219 0.003921568859369
24.367038726806641 -14.794847488403320 0.163546904921532 0.003921568859369
7.934936046600342 -5.896095275878906 0.398450225591660 0.000000000000000
23.612651824951172 -15.960684776306152 -0.662864506244659 0.003921568859369
10.263304710388184 -6.952488422393799 -0.001058277208358 0.000000000000000
10.772013664245605 -7.300573348999023 -0.905124187469482 0.003921568859369
10.167430877685547 -6.187545299530029 0.342811733484268 0.003921568859369
9.276238441467285 -6.277090549468994 2.977473974227905 0.003921568859369
23.527593612670898 -16.028680801391602 -0.662119269371033 0.003921568859369
8.100279808044434 -6.107260704040527 -0.293747484683990 0.000000000000000
23.555065155029297 -16.164682388305664 0.661081850528717 0.003921568859369
8.560586929321289 -7.139213562011719 -0.645429432392120 0.000000000000000
8.953327178955078 -6.098474979400635 2.878099441528320 0.003921568859369
10.209562301635742 -7.772061824798584 -0.372039258480072 0.003921568859369
8.264152526855469 -6.935343265533447 -0.125656336545944 0.000000000000000
10.276587486267090 -7.060569286346436 0.287028163671494 0.000000000000000
10.195529937744141 -7.004287719726562 -0.859900712966919 0.000000000000000
9.017489433288574 -6.854976654052734 -0.918814122676849 0.000000000000000
9.209207534790039 -7.738846302032471 -0.696856021881104 0.000000000000000
10.727799415588379 -7.373836994171143 -0.603381097316742 0.000000000000000
8.675004959106445 -6.641628265380859 -0.569167673587799 0.000000000000000
9.432869911193848 -6.525575637817383 1.396570801734924 0.003921568859369
9.070187568664551 -6.947964668273926 2.066737890243530 0.000000000000000
8.941567420959473 -6.895283699035645 -0.327184677124023 0.003921568859369
8.563878059387207 -7.292504310607910 -0.131027668714523 0.000000000000000
9.291205406188965 -6.471919059753418 -0.524403870105743 0.003921568859369
7.740209102630615 -5.418931484222412 0.216881290078163 0.003921568859369
10.554369926452637 -7.416763305664062 -0.897030532360077 0.000000000000000
8.255600929260254 -7.128977775573730 -0.127057403326035 0.000000000000000
10.507643699645996 -7.441076755523682 -0.895355641841888 0.000000000000000
10.406484603881836 -6.632864475250244 0.355477064847946 0.000000000000000
7.712465286254883 -6.024051189422607 0.168390497565269 0.003921568859369
8.609013557434082 -7.438169479370117 -0.658925831317902 0.000000000000000
21.295438766479492 -16.782752990722656 2.205015420913696 0.003921568859369
9.065506935119629 -6.409311771392822 2.950558423995972 0.000000000000000
8.986938476562500 -7.823694705963135 -0.138827711343765 0.000000000000000
7.700768470764160 -6.058045387268066 0.168599486351013 0.000000000000000
8.645916938781738 -7.523238182067871 -0.663812458515167 0.000000000000000
9.546692848205566 -6.803512573242188 0.676632046699524 0.003921568859369
9.514106750488281 -6.104725360870361 -0.457918286323547 0.003921568859369
10.541284561157227 -6.820601463317871 -0.218661144375801 0.000000000000000
8.925035476684570 -7.821252346038818 -0.138267144560814 0.000000000000000
8.919059753417969 -7.815950393676758 0.136090204119682 0.000000000000000
8.501260757446289 -6.742328643798828 0.437655866146088 0.000000000000000
8.714888572692871 -6.247474670410156 -0.496464073657990 0.000000000000000
10.514002799987793 -7.553258895874023 1.577859044075012 0.000000000000000
8.675019264221191 -7.599497795104980 -0.400978296995163 0.000000000000000
7.874988555908203 -6.239301204681396 1.815670728683472 0.000000000000000
10.472064018249512 -6.827114105224609 0.071074739098549 0.003921568859369
8.142985343933105 -7.177877902984619 0.124438606202602 0.000000000000000
9.410525321960449 -8.310068130493164 -0.727571845054626 0.000000000000000
9.660677909851074 -6.984965324401855 -0.552344441413879 0.000000000000000
7.412637233734131 -5.380585193634033 0.210191503167152 0.000000000000000
9.095242500305176 -7.323239803314209 0.201342552900314 0.000000000000000
8.111721992492676 -7.248514175415039 -0.126730144023895 0.000000000000000
8.612781524658203 -7.702238559722900 0.132562428712845 0.000000000000000
9.521625518798828 -6.293387889862061 -0.726814389228821 0.000000000000000
9.051824569702148 -8.099806785583496 -0.703836441040039 0.000000000000000
7.617001533508301 -5.569612503051758 2.504413843154907 0.003921568859369
7.690351963043213 -6.915282249450684 0.118496932089329 0.000000000000000
9.473114013671875 -6.308374881744385 -0.724766790866852 0.000000000000000
24.061185836791992 -16.258712768554688 0.166586101055145 0.003921568859369
4.031166553497314 -2.660949468612671 0.137099072337151 0.000000000000000
7.087254524230957 -6.453247547149658 0.109675660729408 0.000000000000000
8.821760177612305 -7.301431179046631 -0.928909361362457 0.000000000000000
8.852276802062988 -8.086043357849121 -0.694529712200165 0.000000000000000
7.975548267364502 -7.274994373321533 -0.375127196311951 0.003921568859369
8.893019676208496 -6.658660888671875 -0.257469147443771 0.000000000000000
10.250820159912109 -6.987185001373291 -0.216005504131317 0.003921568859369
7.126143932342529 -6.534811973571777 0.110650584101677 0.000000000000000
9.298097610473633 -6.330646514892578 -0.716065526008606 0.000000000000000
8.113357543945312 -6.111588478088379 -0.235288500785828 0.000000000000000
8.650712966918945 -8.008132934570312 -0.137333840131760 0.000000000000000
7.547896385192871 -6.973916530609131 0.117706649005413 0.000000000000000
9.726330757141113 -6.672883510589600 -0.751134037971497 0.003921568859369
9.011596679687500 -6.844488143920898 3.007488965988159 0.003921568859369
9.693866729736328 -7.369171142578125 -0.282352626323700 0.000000000000000
7.139657020568848 -6.637334346771240 0.111579172313213 0.000000000000000
8.512896537780762 -7.191122531890869 -0.903837978839874 0.000000000000000
10.504015922546387 -7.323357582092285 -0.223001137375832 0.003921568859369
8.645350456237793 -8.118659019470215 -0.138174355030060 0.000000000000000
7.858725547790527 -7.370318412780762 -0.999222874641418 0.000000000000000
10.433197021484375 -8.055938720703125 -0.611020922660828 0.000000000000000
8.536112785339355 -7.264665126800537 -0.584042608737946 0.000000000000000
8.941875457763672 -6.222556591033936 -0.441134959459305 0.003921568859369
7.932890415191650 -6.104497432708740 2.657612323760986 0.000000000000000
10.590566635131836 -7.436476707458496 -0.225379645824432 0.000000000000000
8.603936195373535 -8.133082389831543 -0.137940704822540 0.000000000000000
8.914672851562500 -6.247179985046387 -0.440809130668640 0.003921568859369
7.906415939331055 -7.465086936950684 -0.377921521663666 0.000000000000000
8.658986091613770 -8.243196487426758 -0.139295101165771 0.000000000000000
7.236063957214355 -6.228685855865479 -0.055964235216379 0.003921568859369
8.811801910400391 -8.390573501586914 -0.705000519752502 0.000000000000000
8.898468017578125 -7.682032585144043 -0.612742304801941 0.003921568859369
21.507350921630859 -16.934720993041992 3.348831176757812 0.003921568859369
10.050262451171875 -7.105345726013184 -0.498827397823334 0.003921568859369
7.838225364685059 -7.503900051116943 -0.126403689384460 0.000000000000000
7.608877182006836 -5.399622917175293 0.052750136703253 0.003921568859369
9.783319473266602 -6.965649604797363 -0.764957070350647 0.003921568859369
8.667874336242676 -8.309615135192871 -0.695692420005798 0.000000000000000
8.225435256958008 -7.143762111663818 0.439444214105606 0.000000000000000
8.877593040466309 -7.717937946319580 -0.613161206245422 0.003921568859369
8.088686943054199 -7.023362636566162 1.936899185180664 0.003921568859369
8.855789184570312 -8.551622390747070 -0.713377416133881 0.000000000000000
8.865541458129883 -7.761742115020752 -0.614208579063416 0.000000000000000
7.839244842529297 -7.557488441467285 -0.378480136394501 0.003921568859369
9.185960769653320 -8.045830726623535 2.210203409194946 0.000000000000000
9.839923858642578 -7.110090732574463 -0.211389377713203 0.000000000000000
10.617504119873047 -7.678387165069580 -0.835093975067139 0.000000000000000
7.799728393554688 -6.864835262298584 0.418945938348770 0.000000000000000
10.023710250854492 -7.244410991668701 -0.501272261142731 0.000000000000000
9.703415870666504 -7.061821937561035 -0.764445364475250 0.000000000000000
9.280421257019043 -8.244636535644531 1.005578398704529 0.003921568859369
8.232007026672363 -7.346676826477051 -0.064643599092960 0.003921568859369
8.208165168762207 -7.325098037719727 -0.892117381095886 0.000000000000000
7.371045112609863 -6.567345142364502 0.169851124286652 0.003921568859369
8.803227424621582 -7.863737106323242 0.476372569799423 0.000000000000000
8.025550842285156 -7.159796237945557 -0.560162186622620 0.000000000000000
7.510946750640869 -7.434249877929688 -0.979883551597595 0.000000000000000
6.925413131713867 -6.207351207733154 0.159888982772827 0.003921568859369
9.479496955871582 -8.535547256469727 -0.665115237236023 0.000000000000000
8.474282264709473 -7.619231700897217 0.922296404838562 0.000000000000000
8.555046081542969 -8.546281814575195 0.138781741261482 0.000000000000000
8.670383453369141 -8.663087844848633 -0.710120379924774 0.000000000000000
9.406958580017090 -8.531984329223633 -0.662182390689850 0.000000000000000
8.845659255981445 -8.016545295715332 0.966539263725281 0.000000000000000
8.943697929382324 -8.939866065979004 -0.439827233552933 0.000000000000000
9.385396003723145 -7.026015281677246 0.066564388573170 0.000000000000000
8.513957977294922 -8.564267158508301 0.138596221804619 0.000000000000000
8.371687889099121 -8.419187545776367 -0.687781035900116 0.000000000000000
8.954419136047363 -9.013442039489746 -0.441923201084137 0.000000000000000
7.392955303192139 -7.473100185394287 0.120445653796196 0.000000000000000
8.672389030456543 -7.220873832702637 -0.783970952033997 0.000000000000000
7.768079757690430 -5.842311859130859 0.279232293367386 0.003921568859369
8.198326110839844 -7.526795864105225 -0.579853594303131 0.000000000000000
8.906037330627441 -7.418044567108154 3.080981969833374 0.000000000000000
7.573913574218750 -7.709920883178711 -0.125890120863914 0.003921568859369
8.530551910400391 -8.698853492736816 0.139849945902824 0.000000000000000
7.840586662292480 -7.241636753082275 -0.865417659282684 0.000000000000000
7.116367340087891 -6.562710762023926 0.389986962080002 0.000000000000000
9.034609794616699 -9.219930648803711 -0.449049592018127 0.000000000000000
8.560267448425293 -7.174336433410645 -0.258868724107742 0.000000000000000
7.347553730010986 -5.599578380584717 -0.160605087876320 0.003921568859369
8.229227066040039 -8.446161270141602 -0.683126568794250 0.000000000000000
8.593037605285645 -8.002800941467285 0.473932862281799 0.000000000000000
8.417037010192871 -7.836654186248779 -0.599335730075836 0.000000000000000
7.839244365692139 -8.040184974670410 -0.390358269214630 0.000000000000000
8.687097549438477 -7.333760261535645 -0.263528496026993 0.000000000000000
8.687191963195801 -6.684863090515137 -0.190755099058151 0.000000000000000
7.351504802703857 -7.585264682769775 0.121049612760544 0.000000000000000
8.196937561035156 -8.471541404724121 -0.682893693447113 0.000000000000000
8.562154769897461 -8.029589653015137 0.473770290613174 0.000000000000000
9.191565513610840 -8.627947807312012 -0.657363593578339 0.000000000000000
8.876780509948730 -6.832724094390869 -0.453686207532883 0.003921568859369
7.520271778106689 -7.816638469696045 -0.126356676220894 0.000000000000000
8.593109130859375 -7.356473922729492 -0.785924971103668 0.000000000000000
9.005446434020996 -6.983115196228027 -0.725539207458496 0.000000000000000
9.184473991394043 -8.681675910949707 -0.659039318561554 0.000000000000000
7.358662605285645 -7.699689865112305 0.122071243822575 0.000000000000000
8.564373016357422 -7.383394718170166 -0.785645663738251 0.000000000000000
8.162220001220703 -8.553931236267090 -0.684987604618073 0.000000000000000
8.227938652038574 -7.089375019073486 0.626427590847015 0.003921568859369
9.013199806213379 -8.577433586120605 -0.648774325847626 0.000000000000000
7.816265106201172 -7.423536777496338 0.872198760509491 0.000000000000000
7.102395057678223 -7.479404449462891 0.118171989917755 0.000000000000000
8.694308280944824 -7.549926757812500 -0.800162434577942 0.000000000000000
8.154119491577148 -8.605313301086426 -0.686848998069763 0.000000000000000
8.193042755126953 -7.108763694763184 -0.502241551876068 0.000000000000000
8.381325721740723 -8.024140357971191 -0.604781866073608 0.000000000000000
8.822953224182129 -8.452861785888672 0.989637613296509 0.000000000000000
7.427128791809082 -7.882020473480225 -0.126169294118881 0.000000000000000
6.752552032470703 -7.154791355133057 0.112647980451584 0.000000000000000
8.608177185058594 -7.526891708374023 -0.794579029083252 0.000000000000000
7.647319316864014 -7.362812995910645 -0.860858559608459 0.000000000000000
7.679152965545654 -7.441308975219727 -0.309711515903473 0.000000000000000
7.588284492492676 -8.107481002807617 -0.129346624016762 0.000000000000000
7.657147884368896 -6.092511653900146 0.055357478559017 0.003921568859369
8.412795066833496 -6.703343391418457 0.309331178665161 0.003921568859369
8.618896484375000 -8.366421699523926 0.207122206687927 0.003921568859369
8.152404785156250 -8.719899177551270 -0.691504120826721 0.000000000000000
8.332396507263184 -8.084385871887207 -0.604992687702179 0.003921568859369
7.476251125335693 -8.042010307312012 -0.127898499369621 0.000000000000000
8.429167747497559 -9.083784103393555 -0.718031466007233 0.000000000000000
8.381130218505859 -7.425277233123779 -0.518448233604431 0.000000000000000
8.301288604736328 -8.110191345214844 -0.604782998561859 0.000000000000000
6.952866077423096 -6.773446083068848 1.753260254859924 0.000000000000000
7.941770553588867 -8.608082771301270 -0.136445671319962 0.000000000000000
8.428538322448730 -9.143799781799316 -0.720590949058533 0.000000000000000
7.565888881683350 -7.430280208587646 0.427566975355148 0.000000000000000
8.738660812377930 -7.798467159271240 -0.542476773262024 0.000000000000000
8.274347305297852 -8.137276649475098 -0.604782879352570 0.000000000000000
6.167149066925049 -6.034432888031006 1.556710720062256 0.000000000000000
7.939187049865723 -7.860217094421387 -0.323691755533218 0.000000000000000
6.923099040985107 -6.838772296905518 0.167412921786308 0.000000000000000
7.586522102355957 -7.505689620971680 0.430332779884338 0.000000000000000
8.246407508850098 -7.407400608062744 -0.513232529163361 0.000000000000000
