# This PCD file was generated using the MATLAB® pcwrite function
# from Computer Vision Toolbox®.
# .PCD v.7 - Point Cloud Data file format
VERSION .7
FIELDS x y z intensity
SIZE 8 8 8 8
TYPE F F F F
COUNT 1 1 1 1
WIDTH 651
HEIGHT 1
VIEWPOINT 0 0 0 1 0 0 0
POINTS 651
DATA ascii
-7.783356189727783 3.226400613784790 -0.758930861949921 0.000000000000000
-7.734946727752686 3.238045215606689 -0.755248188972473 0.000000000000000
-7.612528324127197 2.768187761306763 0.141122102737427 0.000000000000000
-7.738761425018311 3.269156455993652 -0.756757795810699 0.000000000000000
-6.755059719085693 1.792214274406433 0.043618053197861 0.000000000000000
-7.698164463043213 3.282310962677002 -0.753815710544586 0.000000000000000
-6.021925926208496 2.213313341140747 0.254734009504318 0.000000000000000
-3.416261196136475 1.036870718002319 -0.150759100914001 0.000000000000000
-13.133296966552734 4.244854450225830 3.634652376174927 0.000000000000000
-7.685759067535400 3.309778690338135 -0.754216015338898 0.000000000000000
-6.599780559539795 2.487855672836304 -0.194026425480843 0.000000000000000
-7.666899681091309 3.332374334335327 -0.753500401973724 0.000000000000000
-16.541284561157227 4.682256698608398 0.105889514088631 0.000000000000000
-7.680603504180908 3.369711160659790 -0.756125032901764 0.000000000000000
-15.406855583190918 6.947117328643799 -0.188807919621468 0.003921568859369
-8.946357727050781 2.996076107025146 -0.983962833881378 0.000000000000000
-7.665176391601562 3.393895387649536 -0.755780577659607 0.000000000000000
-8.841975212097168 2.993571996688843 -0.973306894302368 0.000000000000000
-7.635215759277344 3.411322116851807 -0.753951489925385 0.000000000000000
-8.763968467712402 2.999646186828613 -0.965642452239990 0.000000000000000
-7.626870632171631 3.438698053359985 -0.754349350929260 0.000000000000000
-7.418788909912109 2.525728940963745 0.180740997195244 0.000000000000000
-2.921526670455933 0.947507977485657 -0.300140827894211 0.000000000000000
-7.622029781341553 3.467753648757935 -0.755118489265442 0.000000000000000
-8.601191520690918 3.006110906600952 -0.949455678462982 0.000000000000000
-7.628472805023193 3.500666856765747 -0.756999850273132 0.000000000000000
-7.396847724914551 3.003253698348999 -0.980463385581970 0.000000000000000
-8.496712684631348 3.002547740936279 -0.938799023628235 0.000000000000000
-7.601233005523682 3.520719051361084 -0.755543172359467 0.000000000000000
-7.302859306335449 2.991160869598389 -0.968887388706207 0.000000000000000
-8.460589408874512 3.020182132720947 -0.935833573341370 0.000000000000000
-7.611026763916016 3.555424690246582 -0.757796049118042 0.000000000000000
-7.263206958770752 3.003167152404785 -0.964877426624298 0.000000000000000
-7.032337188720703 2.904968738555908 -0.038968618959188 0.000000000000000
-8.379188537597656 3.022369861602783 -0.927739381790161 0.000000000000000
-7.598573207855225 3.581026554107666 -0.757822930812836 0.000000000000000
-5.712958335876465 2.338920831680298 0.487180292606354 0.000000000000000
-7.201709747314453 3.005466699600220 -0.957841098308563 0.000000000000000
-8.305316925048828 3.026831388473511 -0.920499801635742 0.000000000000000
-7.561021804809570 3.594262123107910 -0.755251049995422 0.000000000000000
-4.791629314422607 1.455953836441040 -0.300682693719864 0.000000000000000
-5.691850662231445 2.352915763854980 1.081176042556763 0.000000000000000
-7.164816856384277 3.020057439804077 -0.954842150211334 0.000000000000000
-8.186078071594238 3.015204191207886 -0.908559620380402 0.000000000000000
-7.575985431671143 3.635603189468384 -0.758621931076050 0.000000000000000
-3.248296976089478 0.972375869750977 -0.124508090317249 0.000000000000000
-7.165124416351318 3.048930644989014 -0.956380009651184 0.000000000000000
-8.142097473144531 3.029985189437866 -0.904739379882812 0.000000000000000
-7.531210422515869 3.645028591156006 -0.755307316780090 0.000000000000000
-8.057331085205078 3.028652667999268 -0.896215736865997 0.000000000000000
-7.543320178985596 3.682953357696533 -0.757933199405670 0.000000000000000
-9.249801635742188 4.586595058441162 -0.113772876560688 0.000000000000000
-7.943055152893066 3.015138864517212 -0.884271323680878 0.000000000000000
-7.551706314086914 3.719197273254395 -0.760188043117523 0.000000000000000
-7.906607151031494 3.031655073165894 -0.881305158138275 0.000000000000000
-7.535140514373779 3.742784738540649 -0.759843826293945 0.000000000000000
-7.847985267639160 3.039081811904907 -0.875773251056671 0.000000000000000
-7.529100418090820 3.771809339523315 -0.760613501071930 0.000000000000000
-7.823652744293213 3.056922912597656 -0.874086797237396 0.000000000000000
-7.527803897857666 3.800146579742432 -0.761751890182495 0.000000000000000
-7.783925056457520 3.478957414627075 0.680056571960449 0.000000000000000
-10.158738136291504 3.488679170608521 -0.178095117211342 0.000000000000000
-7.731935024261475 3.050208091735840 -0.864705920219421 0.000000000000000
-7.539152622222900 3.838482618331909 -0.764378547668457 0.000000000000000
-7.668704509735107 3.057606458663940 -0.858748137950897 0.000000000000000
-7.527876853942871 3.868255138397217 -0.764779806137085 0.000000000000000
-6.759237289428711 2.682718038558960 -0.159656792879105 0.000000000000000
-7.580900669097900 3.051288366317749 -0.849793851375580 0.000000000000000
-7.496787548065186 3.884161472320557 -0.762950181961060 0.000000000000000
-7.518888950347900 3.055199861526489 -0.843832612037659 0.000000000000000
-7.500695705413818 3.918863534927368 -0.764834344387054 0.000000000000000
-5.828966140747070 3.014367580413818 0.076742418110371 0.000000000000000
-9.126276969909668 3.734259366989136 1.184940934181213 0.000000000000000
-7.465329170227051 3.059312105178833 -0.838723838329315 0.000000000000000
-7.537298202514648 3.968276977539062 -0.770058810710907 0.000000000000000
-7.395241260528564 3.060865879058838 -0.832336843013763 0.000000000000000
-7.508400917053223 3.987831592559814 -0.768974423408508 0.000000000000000
-8.730416297912598 4.661139965057373 0.115871973335743 0.000000000000000
-7.365728378295898 3.079088926315308 -0.830225050449371 0.000000000000000
-7.493737697601318 4.014368057250977 -0.769003272056580 0.000000000000000
-12.438907623291016 6.054029941558838 -0.074835956096649 0.000000000000000
-7.486632347106934 4.043479442596436 -0.769773542881012 0.000000000000000
-7.355522155761719 3.132195234298706 -0.831557631492615 0.000000000000000
-7.549510002136230 4.110451698303223 -0.777972042560577 0.000000000000000
-8.165283203125000 3.038583993911743 0.250761330127716 0.000000000000000
-7.351260662078857 3.161414146423340 -0.832439780235291 0.000000000000000
-7.558631896972656 4.150916576385498 -0.780601561069489 0.000000000000000
-7.598346233367920 3.272917032241821 0.471721321344376 0.000000000000000
-7.715813159942627 3.327057361602783 2.191377878189087 0.000000000000000
-7.351620197296143 3.189802646636963 -0.833747148513794 0.000000000000000
-7.575927257537842 4.192915916442871 -0.783971488475800 0.000000000000000
-15.244402885437012 6.804028034210205 0.005111986305565 0.003921568859369
-7.329579353332520 3.209603548049927 -0.832489430904388 0.000000000000000
-6.630722522735596 2.895101785659790 1.878486037254333 0.000000000000000
-7.335845947265625 3.243774890899658 -0.834655046463013 0.000000000000000
-7.347281455993652 3.275995969772339 -0.837244689464569 0.000000000000000
-7.227144718170166 3.675940513610840 -0.999268710613251 0.000000000000000
-7.346039772033691 3.306992053985596 -0.838555037975311 0.000000000000000
-7.308687686920166 3.321074247360229 -0.835587441921234 0.000000000000000
-5.795798778533936 2.948268890380859 0.515057504177094 0.000000000000000
-7.319777011871338 3.353434562683105 -0.838177382946014 0.000000000000000
-2.796103715896606 1.374870061874390 -0.014031989499927 0.000000000000000
-7.285549163818359 3.369415044784546 -0.836066544055939 0.000000000000000
-12.740324974060059 6.753996849060059 0.251568347215652 0.000000000000000
-11.109160423278809 5.873857975006104 2.253642082214355 0.000000000000000
-7.309550285339355 3.411244630813599 -0.840370714664459 0.000000000000000
-7.085031509399414 3.755561351776123 -0.988801121711731 0.000000000000000
-7.315473079681396 3.444562196731567 -0.842535793781281 0.000000000000000
-7.234353542327881 3.408057451248169 2.084423065185547 0.000000000000000
-7.302196025848389 3.471641778945923 -0.842564284801483 0.000000000000000
-10.201865196228027 4.347847461700439 -0.185104161500931 0.000000000000000
-7.291255950927734 3.493758440017700 -0.842587649822235 0.000000000000000
-12.992780685424805 8.027435302734375 -0.172325715422630 0.000000000000000
-7.281959533691406 3.521301031112671 -0.843042731285095 0.000000000000000
-7.287373542785645 3.554773330688477 -0.845208168029785 0.000000000000000
-10.192705154418945 4.470699787139893 0.067583940923214 0.000000000000000
-7.274923324584961 3.579294443130493 -0.845234215259552 0.000000000000000
-4.668623924255371 2.547762393951416 -0.645687699317932 0.000000000000000
-7.277793884277344 3.608596563339233 -0.846969485282898 0.000000000000000
-9.694899559020996 5.452465057373047 1.990623593330383 0.000000000000000
-5.413199424743652 3.003962278366089 -0.756766557693481 0.000000000000000
-7.249766349792480 3.628204345703125 -0.845286309719086 0.000000000000000
-7.276464462280273 3.671645879745483 -0.850018620491028 0.000000000000000
-5.673405647277832 2.834980964660645 0.753851413726807 0.000000000000000
-7.267123699188232 3.697984933853149 -0.850472867488861 0.000000000000000
-7.266543865203857 3.732948541641235 -0.852642893791199 0.000000000000000
-2.503804445266724 1.354723215103149 -0.522982120513916 0.000000000000000
-4.512609481811523 2.562503337860107 -0.630125582218170 0.000000000000000
-7.239453315734863 3.749891281127930 -0.850957155227661 0.000000000000000
-7.240314960479736 3.781827688217163 -0.852695524692535 0.000000000000000
-7.383516788482666 3.890872478485107 0.003214870812371 0.003921568859369
-8.624643325805664 5.152798652648926 0.805460333824158 0.000000000000000
-7.250376701354980 3.879364490509033 -0.858764648437500 0.000000000000000
-7.923477649688721 4.289188861846924 -0.943549752235413 0.000000000000000
-13.930791854858398 6.794463157653809 0.448921173810959 0.000000000000000
-6.217881679534912 3.758464813232422 -0.894818007946014 0.000000000000000
-7.884206295013428 4.302273750305176 -0.940582394599915 0.000000000000000
-11.575114250183105 7.991291522979736 -0.159131571650505 0.000000000000000
-4.845954895019531 2.322701692581177 0.033018320798874 0.000000000000000
-9.488124847412109 4.706797599792480 -0.177252352237701 0.000000000000000
-7.250754833221436 4.008318901062012 -0.865720510482788 0.000000000000000
-5.573549270629883 3.098509788513184 -0.955155611038208 0.000000000000000
-7.129049301147461 4.503952980041504 -0.236762508749962 0.000000000000000
-15.184585571289062 7.809707641601562 0.102250680327415 0.000000000000000
-9.733007431030273 5.002111434936523 0.065918587148190 0.000000000000000
-7.429212570190430 4.247285366058350 -0.895801305770874 0.000000000000000
-7.363099098205566 4.241788864135742 -0.889406561851501 0.000000000000000
-9.627814292907715 5.637194633483887 0.003033700166270 0.003921568859369
-7.331203937530518 4.256362438201904 -0.887293100357056 0.000000000000000
-4.859344482421875 2.474118471145630 0.155304029583931 0.000000000000000
-4.159130096435547 2.620035409927368 0.194309517741203 0.000000000000000
-2.123238801956177 1.265953779220581 -0.063381850719452 0.000000000000000
-2.591609716415405 1.581790089607239 -0.013956322334707 0.000000000000000
-7.306843280792236 4.273653030395508 -0.886034548282623 0.000000000000000
-7.272659778594971 4.256400108337402 2.203865289688110 0.000000000000000
-2.476623773574829 1.516183733940125 -0.013198728673160 0.000000000000000
-7.243604660034180 4.270496368408203 -0.880068480968475 0.000000000000000
-7.255757331848145 4.311560630798340 -0.883521437644958 0.000000000000000
-7.916451454162598 5.451083183288574 1.717751383781433 0.000000000000000
-1.744988083839417 0.968880057334900 -0.039082862436771 0.003921568859369
-5.825109004974365 3.248347282409668 -0.260242104530334 0.000000000000000
-4.993009090423584 3.526257276535034 -0.032157279551029 0.000000000000000
-5.209308147430420 3.688143253326416 1.130085468292236 0.000000000000000
-7.108523845672607 5.133113384246826 -0.247394055128098 0.000000000000000
-10.780506134033203 8.051544189453125 2.419635295867920 0.000000000000000
-6.780406951904297 5.598059177398682 -0.299010634422302 0.000000000000000
-15.308566093444824 10.629122734069824 4.943499565124512 0.003921568859369
-2.647956848144531 1.553001642227173 0.085963964462280 0.000000000000000
-7.931736946105957 6.138029098510742 1.796139240264893 0.000000000000000
-6.347895145416260 4.911446571350098 1.431066989898682 0.000000000000000
-6.620928287506104 4.916130542755127 0.001997373998165 0.003921568859369
-4.192036151885986 3.715383529663086 -0.187925368547440 0.000000000000000
-10.604660034179688 8.883165359497070 2.490632295608521 0.000000000000000
-13.449072837829590 10.463374137878418 0.001262215198949 0.003921568859369
-3.389670133590698 2.274892807006836 0.115578427910805 0.000000000000000
-4.181454181671143 3.600963115692139 0.094999201595783 0.000000000000000
-6.882387161254883 6.551289558410645 0.763068437576294 0.000000000000000
-5.779927730560303 5.245067119598389 0.001288544153795 0.000000000000000
-3.570549964904785 3.075590372085571 0.028254568576813 0.000000000000000
-4.661865234375000 4.527469635009766 0.148839682340622 0.000000000000000
-5.287157535552979 4.714696884155273 0.202867180109024 0.000000000000000
-4.196063995361328 3.750630378723145 0.160690054297447 0.000000000000000
-3.732912302017212 4.331009864807129 0.098282359540462 0.000000000000000
-7.745263576507568 9.022011756896973 3.148702383041382 0.000000000000000
-6.722629070281982 8.936629295349121 -0.001023904653266 0.003921568859369
-4.971396923065186 6.688390731811523 2.200750350952148 0.000000000000000
-9.630617141723633 13.322543144226074 4.370341777801514 0.003921568859369
-6.749027729034424 10.683743476867676 2.282255649566650 0.000000000000000
-10.002696037292480 15.391778945922852 4.885830879211426 0.003921568859369
-2.087673664093018 3.342359781265259 -0.021623162552714 0.000000000000000
-9.234863281250000 17.352115631103516 3.562065124511719 0.003921568859369
-4.447742938995361 9.773191452026367 -0.126530334353447 0.000000000000000
-6.199346065521240 12.698347091674805 2.557979106903076 0.000000000000000
-2.722512006759644 6.231976032257080 0.077446825802326 0.000000000000000
-6.393812656402588 13.471893310546875 2.700361490249634 0.000000000000000
-4.677530288696289 8.688512802124023 2.618711709976196 0.000000000000000
-3.420464038848877 7.282725334167480 -0.047540243715048 0.000000000000000
-4.178678035736084 8.992856025695801 1.791720628738403 0.000000000000000
-3.952398061752319 8.563643455505371 1.703641295433044 0.000000000000000
-4.068604469299316 6.962142467498779 -0.139894261956215 0.000000000000000
-4.929656028747559 11.110330581665039 2.199816226959229 0.000000000000000
-3.329585790634155 8.580796241760254 -0.108379580080509 0.000000000000000
-4.986393451690674 9.964195251464844 0.642045259475708 0.000000000000000
-4.000736713409424 7.922842502593994 2.354964733123779 0.000000000000000
-5.535095691680908 12.648987770080566 2.500490188598633 0.000000000000000
-5.538780689239502 12.775551795959473 2.521941184997559 0.000000000000000
-8.302712440490723 20.775777816772461 4.059463500976562 0.003921568859369
-4.319470882415771 9.502174377441406 0.239158034324646 0.000000000000000
-3.171997785568237 6.937296390533447 0.926643788814545 0.000000000000000
-2.476830720901489 6.134064674377441 0.533889412879944 0.000000000000000
-4.923916816711426 11.103747367858887 3.232532501220703 0.000000000000000
-3.505357980728149 9.070677757263184 1.759301424026489 0.000000000000000
-3.915264129638672 8.912341117858887 -0.001855839975178 0.003921568859369
-4.527099609375000 9.097915649414062 0.291738063097000 0.000000000000000
-2.442773818969727 6.309120655059814 0.116051211953163 0.000000000000000
-4.986361026763916 11.810964584350586 -0.003081318922341 0.000000000000000
-4.645999908447266 11.556361198425293 1.518492341041565 0.000000000000000
-3.707835435867310 9.423135757446289 -0.002119338605553 0.003921568859369
-6.699120998382568 15.551803588867188 -0.298713535070419 0.003921568859369
-5.511150836944580 17.726264953613281 3.369078636169434 0.003921568859369
-4.906011581420898 15.913971900939941 0.671220064163208 0.003921568859369
-1.784901261329651 4.589196681976318 0.596939802169800 0.000000000000000
-2.876503705978394 6.924322128295898 -0.130801901221275 0.000000000000000
-3.727706670761108 10.727705955505371 3.025507450103760 0.000000000000000
-2.804002285003662 9.467036247253418 1.789185643196106 0.000000000000000
-3.105459690093994 10.675467491149902 -0.067214131355286 0.000000000000000
-6.132084369659424 15.720396995544434 -0.297877758741379 0.003921568859369
-6.585580825805664 23.667367935180664 4.462285518646240 0.003921568859369
-2.131478548049927 9.249683380126953 -0.112550340592861 0.000000000000000
-2.164742231369019 9.404660224914551 -0.900008082389832 0.000000000000000
-2.137217760086060 9.277183532714844 0.107919745147228 0.000000000000000
-2.171573638916016 9.437553405761719 -0.564410030841827 0.000000000000000
-2.045768499374390 7.223805427551270 0.607791364192963 0.000000000000000
-3.350326776504517 8.755880355834961 0.052345290780067 0.000000000000000
-2.244710922241211 5.837936878204346 0.035321943461895 0.000000000000000
-2.726468086242676 10.274085998535156 0.428544104099274 0.000000000000000
-5.860704898834229 22.863796234130859 4.287381649017334 0.003921568859369
-1.548195481300354 4.654612541198730 0.282480776309967 0.000000000000000
-4.411637783050537 17.328737258911133 0.721352040767670 0.003921568859369
-2.996953964233398 11.918228149414062 0.495715051889420 0.000000000000000
-1.847735404968262 7.190553188323975 -0.216360464692116 0.000000000000000
-2.610164165496826 10.446345329284668 0.873038291931152 0.000000000000000
-3.101618766784668 10.396528244018555 1.323842525482178 0.000000000000000
-3.133997917175293 8.943776130676270 0.052903141826391 0.000000000000000
-2.134505033493042 9.293552398681641 -0.278842270374298 0.000000000000000
-2.155442714691162 9.391213417053223 -0.786109149456024 0.000000000000000
-5.137570858001709 15.704633712768555 0.474920719861984 0.003921568859369
-1.702595114707947 4.920408248901367 -0.090370416641235 0.000000000000000
-2.160627126693726 9.580820083618164 -0.515389084815979 0.000000000000000
-3.293194770812988 10.127387046813965 0.306085675954819 0.000000000000000
-2.841675758361816 10.625049591064453 1.342808008193970 0.000000000000000
-1.633850336074829 7.609186172485352 0.631069958209991 0.000000000000000
-1.140995383262634 5.253242969512939 -0.031750615686178 0.000000000000000
-1.778986334800720 8.845640182495117 1.637288808822632 0.000000000000000
-2.428294658660889 10.010307312011719 -0.002476036548615 0.003921568859369
-2.143838167190552 9.352009773254395 -0.002262104768306 0.003921568859369
-1.608481168746948 8.970893859863281 1.654397845268250 0.000000000000000
-1.386428356170654 6.009482860565186 0.752245187759399 0.000000000000000
-2.331681013107300 8.615963935852051 -0.156876355409622 0.000000000000000
-1.300586223602295 5.696378231048584 0.337572067975998 0.000000000000000
-0.756563544273376 3.993553161621094 -0.211865812540054 0.000000000000000
-1.634027957916260 7.352888584136963 0.919428288936615 0.000000000000000
-1.793737173080444 8.282620429992676 2.260306596755981 0.000000000000000
-1.520135402679443 9.250570297241211 1.702450513839722 0.000000000000000
-3.801672935485840 15.083103179931641 0.447472691535950 0.000000000000000
-1.656726598739624 7.881536960601807 -0.375376939773560 0.000000000000000
-1.416146755218506 8.991211891174316 1.653026461601257 0.000000000000000
-0.822730839252472 3.872477054595947 0.228687852621078 0.000000000000000
-2.346039533615112 9.973670005798340 -0.418371379375458 0.000000000000000
-0.921783983707428 4.665145874023438 -0.331079065799713 0.000000000000000
-1.204031348228455 7.320603370666504 1.980082988739014 0.000000000000000
-1.226035952568054 11.385848999023438 2.081900358200073 0.000000000000000
-2.765142679214478 15.144811630249023 -0.272198349237442 0.000000000000000
-0.881664752960205 6.178884983062744 0.143798202276230 0.000000000000000
-0.402047872543335 3.682830810546875 0.064269423484802 0.000000000000000
-0.744712948799133 8.578212738037109 1.565743923187256 0.000000000000000
-0.816991090774536 11.274899482727051 2.056206703186035 0.000000000000000
-0.886342883110046 7.832544803619385 2.106202840805054 0.000000000000000
-0.208664253354073 3.235148429870605 0.056435246020555 0.000000000000000
-0.347608178853989 14.437768936157227 2.628438949584961 0.000000000000000
-0.178708642721176 9.454901695251465 0.162777215242386 0.000000000000000
-0.119313955307007 6.654394626617432 0.541915059089661 0.000000000000000
-0.056256376206875 7.857528209686279 0.318533122539520 0.000000000000000
0.039447590708733 10.377349853515625 0.178718283772469 0.000000000000000
1.260526180267334 19.132307052612305 0.217738986015320 0.003921568859369
0.045585483312607 7.529073238372803 0.129947796463966 0.000000000000000
0.147974401712418 8.287337303161621 1.509945392608643 0.000000000000000
-0.272037923336029 12.330904006958008 0.715123116970062 0.000000000000000
0.236060559749603 8.252761840820312 0.672565162181854 0.000000000000000
-0.085532702505589 7.236026763916016 0.420123517513275 0.000000000000000
0.342978984117508 8.586030960083008 1.565920352935791 0.000000000000000
0.279671907424927 6.973224163055420 0.568938970565796 0.000000000000000
0.609676361083984 10.707363128662109 0.873673498630524 0.000000000000000
0.080231010913849 6.833606719970703 0.396955698728561 0.000000000000000
0.379168957471848 6.110415458679199 1.116803884506226 0.000000000000000
0.186024397611618 8.412150382995605 0.194196581840515 0.000000000000000
1.407597899436951 17.024505615234375 0.293834924697876 0.003921568859369
0.337482810020447 11.335649490356445 0.658098280429840 0.000000000000000
1.630804777145386 12.246215820312500 0.141161859035492 0.000000000000000
0.522025585174561 5.815500736236572 0.101252339780331 0.000000000000000
0.077566623687744 10.098072052001953 0.056721538305283 0.000000000000000
0.103820085525513 5.974996089935303 -0.244356960058212 0.000000000000000
1.446625232696533 11.221666336059570 0.195467859506607 0.000000000000000
0.834166944026947 10.591440200805664 0.617254972457886 0.000000000000000
1.999440312385559 14.461408615112305 -0.088152937591076 0.000000000000000
0.846496820449829 6.595701217651367 0.543120443820953 0.000000000000000
2.334651470184326 16.370012283325195 -0.485478967428207 0.000000000000000
1.128364682197571 12.001212120056152 1.478999853134155 0.000000000000000
0.047030091285706 3.053067922592163 -0.124588869512081 0.000000000000000
0.285532593727112 6.957978248596191 -0.447720468044281 0.000000000000000
2.677393436431885 13.242942810058594 -0.160589545965195 0.000000000000000
1.032511234283447 10.393709182739258 0.241306528449059 0.000000000000000
0.489195704460144 9.884962081909180 -0.636521816253662 0.000000000000000
0.805284202098846 8.086559295654297 0.997917890548706 0.000000000000000
0.821408152580261 7.980761528015137 0.985267221927643 0.000000000000000
0.818654835224152 7.264038085937500 0.425427168607712 0.000000000000000
1.214569449424744 10.339914321899414 2.791346073150635 0.000000000000000
1.064187765121460 8.469327926635742 2.289678335189819 0.000000000000000
0.440831720829010 2.244055509567261 0.027014413848519 0.000000000000000
2.631006717681885 13.721913337707520 0.241463512182236 0.000000000000000
0.373629391193390 3.266831874847412 -0.076979994773865 0.000000000000000
1.479979634284973 7.835911750793457 1.456601381301880 0.000000000000000
0.377417743206024 3.145774126052856 -0.000092055473942 0.000000000000000
1.555242300033569 8.061496734619141 1.499588012695312 0.000000000000000
1.194329142570496 11.830011367797852 -0.209913134574890 0.000000000000000
3.464874029159546 16.961402893066406 3.156827688217163 0.003921568859369
1.380305528640747 6.855510234832764 1.278184533119202 0.000000000000000
3.062036037445068 11.281666755676270 0.134386003017426 0.000000000000000
3.421979904174805 15.171531677246094 -0.456211566925049 0.000000000000000
0.303525596857071 2.278867959976196 0.134983241558075 0.000000000000000
2.105284214019775 7.674009323120117 0.091782473027706 0.000000000000000
0.291083842515945 2.167470693588257 0.128495365381241 0.000000000000000
2.291114330291748 12.947484970092773 3.525947570800781 0.000000000000000
2.467750787734985 10.733993530273438 -0.323135793209076 0.000000000000000
0.518411517143250 3.328231096267700 -0.078950993716717 0.000000000000000
1.641862273216248 9.086167335510254 0.213899761438370 0.000000000000000
0.358581215143204 2.226574420928955 0.053050592541695 0.000000000000000
1.887577414512634 7.483744621276855 -0.226381912827492 0.000000000000000
0.677813410758972 4.686237335205078 -0.083302110433578 0.000000000000000
2.061369419097900 12.682839393615723 0.372552573680878 0.000000000000000
3.762183189392090 17.450675964355469 2.191707611083984 0.003921568859369
1.812385559082031 8.655577659606934 -0.207478374242783 0.000000000000000
2.006605863571167 7.512511253356934 -0.046363338828087 0.000000000000000
1.827102661132812 6.612308502197266 -0.201323866844177 0.000000000000000
2.126553058624268 9.301327705383301 0.221253708004951 0.000000000000000
2.056950330734253 8.867753982543945 1.119464993476868 0.000000000000000
2.272072792053223 12.135332107543945 -0.217682629823685 0.000000000000000
2.155463218688965 7.544240474700928 -0.046804480254650 0.000000000000000
1.296307563781738 6.756894588470459 0.039429116994143 0.000000000000000
1.648235321044922 5.621970176696777 -0.034763071686029 0.000000000000000
2.712262868881226 10.734457969665527 0.256830275058746 0.000000000000000
3.232818603515625 10.330656051635742 -0.317306131124496 0.000000000000000
3.762518405914307 11.823351860046387 -0.363654643297195 0.000000000000000
0.592442154884338 3.082435131072998 -0.055219132453203 0.000000000000000
1.887278199195862 7.177073001861572 0.432924956083298 0.000000000000000
2.539031505584717 7.801809787750244 1.500729203224182 0.000000000000000
1.722181200981140 6.319097042083740 0.382368743419647 0.000000000000000
3.139799356460571 9.361329078674316 0.171685665845871 0.000000000000000
3.778869390487671 13.109854698181152 -0.001840775716119 0.000000000000000
1.766823172569275 7.556476593017578 -0.499704390764236 0.000000000000000
3.929035425186157 11.389125823974609 2.201044559478760 0.000000000000000
2.149277925491333 6.208821296691895 0.268439620733261 0.000000000000000
2.106974840164185 7.168756484985352 0.920179545879364 0.000000000000000
1.754147768020630 5.804046630859375 -0.000474061875138 0.000000000000000
3.652375936508179 9.528436660766602 1.865800142288208 0.000000000000000
2.492965936660767 7.573521137237549 0.982009828090668 0.000000000000000
2.402245759963989 6.223511219024658 0.272651106119156 0.000000000000000
4.307090282440186 14.872640609741211 -0.272096127271652 0.000000000000000
3.074218988418579 7.806359291076660 0.687054216861725 0.000000000000000
3.371573448181152 8.208465576171875 1.623670101165771 0.000000000000000
2.022493839263916 5.435447692871094 0.715752959251404 0.000000000000000
4.873501777648926 12.001702308654785 1.593718767166138 0.000000000000000
5.223176479339600 12.847576141357422 3.724031925201416 0.000000000000000
0.879803180694580 2.272172212600708 0.303223639726639 0.000000000000000
1.609007358551025 3.985255002975464 1.160409569740295 0.000000000000000
7.948379039764404 16.013776779174805 3.265438556671143 0.003921568859369
1.495205283164978 4.016463756561279 -0.075402677059174 0.000000000000000
3.537325620651245 6.158440113067627 -0.249683350324631 0.000000000000000
12.781176567077637 21.369066238403320 -0.291473060846329 0.003921568859369
12.779129981994629 21.365661621093750 0.289230942726135 0.003921568859369
4.673398017883301 8.706089973449707 1.808398365974426 0.000000000000000
5.362206459045410 10.655221939086914 0.696578204631805 0.000000000000000
6.004650115966797 11.715942382812500 1.620680570602417 0.000000000000000
2.413320541381836 5.382396697998047 -0.241691678762436 0.000000000000000
3.663851976394653 6.368242263793945 1.346621513366699 0.000000000000000
3.322179794311523 6.384685039520264 0.888107001781464 0.000000000000000
12.765177726745605 21.512899398803711 4.567773818969727 0.003921568859369
12.784791946411133 21.375862121582031 -0.145386278629303 0.003921568859369
13.034379005432129 21.275691986083984 -0.727304577827454 0.003921568859369
3.445647954940796 6.391180038452148 -0.000003941640898 0.000000000000000
8.577465057373047 13.206282615661621 1.288791656494141 0.000000000000000
3.153705120086670 5.407548427581787 0.366739153862000 0.000000000000000
5.519973278045654 9.372816085815430 2.924643516540527 0.000000000000000
12.982967376708984 21.360036849975586 3.073506593704224 0.003921568859369
8.147526741027832 14.806450843811035 -0.295596718788147 0.003921568859369
5.643064022064209 10.208992004394531 -0.476613283157349 0.000000000000000
13.039834022521973 20.335596084594727 6.482862949371338 0.003921568859369
4.108612537384033 7.172620296478271 0.241562142968178 0.000000000000000
7.355579376220703 11.425256729125977 1.673006415367126 0.000000000000000
13.441716194152832 18.721441268920898 4.209393978118896 0.003921568859369
1.136216402053833 1.854194641113281 -0.051451675593853 0.000000000000000
3.066215276718140 5.299488544464111 0.179196283221245 0.000000000000000
4.935835838317871 6.633710861206055 1.514585494995117 0.000000000000000
13.103209495544434 19.218994140625000 2.860484838485718 0.003921568859369
5.896469593048096 7.848241329193115 0.804524064064026 0.000000000000000
6.351691722869873 9.364470481872559 3.041630983352661 0.000000000000000
1.635254979133606 2.739074230194092 -0.056262470781803 0.000000000000000
3.850816726684570 5.045996189117432 0.260199397802353 0.000000000000000
4.869668483734131 7.044615268707275 2.304519176483154 0.000000000000000
7.813300609588623 10.080482482910156 1.044381260871887 0.000000000000000
2.817164897918701 3.659324884414673 -0.244093328714371 0.000000000000000
15.192031860351562 19.376083374023438 4.496383666992188 0.003921568859369
7.931475162506104 10.082175254821777 2.346131324768066 0.000000000000000
2.759781837463379 3.796806097030640 1.267179489135742 0.000000000000000
8.004448890686035 9.745772361755371 0.515342295169830 0.000000000000000
9.033131599426270 11.808994293212891 1.829974412918091 0.000000000000000
3.388299465179443 4.051799774169922 0.970027267932892 0.000000000000000
5.755649566650391 6.785745143890381 1.629381179809570 0.000000000000000
2.927850723266602 3.822887420654297 0.282556802034378 0.000000000000000
8.340665817260742 10.672636985778809 1.667646646499634 0.000000000000000
5.891092777252197 7.449780464172363 0.555105209350586 0.000000000000000
4.999542713165283 6.287607192993164 2.161652803421021 0.000000000000000
4.153638362884521 4.611373901367188 0.509666144847870 0.000000000000000
3.215325593948364 3.556973695755005 0.394456207752228 0.000000000000000
7.992375373840332 8.573991775512695 -0.342230379581451 0.000000000000000
6.116542816162109 6.575381278991699 0.736180663108826 0.000000000000000
6.251135826110840 7.151507377624512 2.554020881652832 0.000000000000000
8.964303970336914 10.158960342407227 1.667649030685425 0.000000000000000
6.469625949859619 6.571465969085693 0.755708336830139 0.000000000000000
4.238467216491699 4.734113216400146 0.784350097179413 0.000000000000000
5.295472621917725 4.750463962554932 -0.249742597341537 0.000000000000000
13.112968444824219 12.812131881713867 3.349158048629761 0.003921568859369
6.481822967529297 6.223918437957764 1.644449591636658 0.000000000000000
6.567741394042969 7.564088344573975 -0.409358173608780 0.000000000000000
6.627725601196289 6.823275566101074 1.171890735626221 0.000000000000000
3.335038661956787 3.432621002197266 1.290990591049194 0.000000000000000
16.040290832519531 14.296024322509766 3.923138380050659 0.003921568859369
1.742714643478394 1.736953973770142 -0.174108520150185 0.000000000000000
10.552167892456055 9.226943016052246 2.561378240585327 0.000000000000000
4.957555294036865 4.320310115814209 1.204640507698059 0.000000000000000
8.445668220520020 8.035793304443359 3.131703853607178 0.000000000000000
10.313460350036621 8.522439002990723 2.445148229598999 0.000000000000000
5.845913410186768 4.605293273925781 0.130402952432632 0.000000000000000
7.075288295745850 6.105678081512451 2.511576890945435 0.000000000000000
4.806420326232910 3.628458976745605 -0.035150472074747 0.000000000000000
9.873510360717773 8.095213890075684 3.427793741226196 0.000000000000000
5.165485382080078 4.528821468353271 -0.441819638013840 0.000000000000000
3.867088794708252 3.397469043731689 -0.210700333118439 0.000000000000000
4.439664363861084 3.138909578323364 0.222587987780571 0.000000000000000
7.684290885925293 5.956770420074463 2.611998796463013 0.000000000000000
6.092759132385254 4.267473697662354 1.361049890518188 0.000000000000000
6.309127330780029 4.861708641052246 0.465343117713928 0.000000000000000
10.061486244201660 6.225574970245361 -0.138020426034927 0.000000000000000
7.378907203674316 5.085960388183594 0.366037935018539 0.000000000000000
5.304731369018555 4.000234603881836 0.818474113941193 0.000000000000000
8.665379524230957 6.427070140838623 1.327397584915161 0.000000000000000
6.629855632781982 4.402607917785645 0.651565551757812 0.000000000000000
4.051465988159180 2.678060770034790 0.889670491218567 0.000000000000000
3.033906698226929 1.916608691215515 0.294540941715240 0.000000000000000
8.031141281127930 4.372585773468018 -0.533717691898346 0.000000000000000
4.857234477996826 2.966901779174805 0.232683196663857 0.000000000000000
5.896388530731201 3.542305946350098 1.257734298706055 0.000000000000000
8.048466682434082 4.680275440216064 1.701132655143738 0.000000000000000
4.897412300109863 2.779845714569092 0.230077952146530 0.000000000000000
9.599197387695312 5.438726902008057 -0.579047083854675 0.000000000000000
6.382072925567627 4.463017940521240 -0.136199355125427 0.000000000000000
9.260336875915527 4.623787879943848 -0.967735290527344 0.000000000000000
9.235544204711914 4.575200557708740 -0.963645637035370 0.000000000000000
9.183510780334473 4.509566783905029 -0.956581950187683 0.000000000000000
9.156206130981445 4.456539154052734 -0.952120542526245 0.000000000000000
9.194012641906738 4.433242797851562 -0.954351186752319 0.000000000000000
2.772532939910889 1.515180468559265 0.579004168510437 0.000000000000000
9.204299926757812 4.402565956115723 -0.953979432582855 0.000000000000000
5.884660720825195 3.180842638015747 1.222578167915344 0.000000000000000
9.173566818237305 4.346602439880371 -0.949146270751953 0.000000000000000
9.144659042358398 4.295806884765625 -0.944684982299805 0.000000000000000
9.159600257873535 4.263793945312500 -0.944684982299805 0.000000000000000
9.174425125122070 4.231737136840820 -0.944684922695160 0.000000000000000
9.692091941833496 4.470038890838623 -0.622554183006287 0.000000000000000
9.158181190490723 4.181568622589111 -0.940966784954071 0.000000000000000
9.807423591613770 4.477567195892334 -0.628600299358368 0.000000000000000
9.209018707275391 4.165919303894043 -0.944684565067291 0.000000000000000
9.961285591125488 4.505720138549805 -0.637437522411346 0.000000000000000
9.966019630432129 4.465978145599365 -0.636739850044250 0.000000000000000
9.178913116455078 4.077205181121826 -0.938736081123352 0.000000000000000
10.039179801940918 4.458760261535645 -0.640460789203644 0.000000000000000
9.222967147827148 4.056298255920410 -0.941710352897644 0.000000000000000
10.102983474731445 4.442760467529297 -0.643483996391296 0.000000000000000
2.107925653457642 1.321569442749023 -0.043629720807076 0.000000000000000
9.229063034057617 4.022469520568848 -0.940966784954071 0.000000000000000
10.088368415832520 4.396441936492920 -0.641623497009277 0.000000000000000
9.228417396545410 3.983877420425415 -0.939479649066925 0.000000000000000
9.429305076599121 4.629922389984131 -0.858559131622314 0.000000000000000
10.323676109313965 4.455996990203857 -0.655577003955841 0.000000000000000
9.190988540649414 3.929697036743164 -0.934274673461914 0.000000000000000
9.380866050720215 4.565562725067139 -0.852700889110565 0.000000000000000
10.335495948791504 4.418313980102539 -0.655344307422638 0.000000000000000
9.182641983032227 3.888234615325928 -0.932044088840485 0.000000000000000
9.335687637329102 4.503327846527100 -0.847168087959290 0.000000000000000
10.258907318115234 4.343282222747803 -0.649530470371246 0.000000000000000
5.852041721343994 2.800176382064819 -0.037777341902256 0.000000000000000
9.203502655029297 3.859187126159668 -0.932787597179413 0.000000000000000
9.347750663757324 4.468949794769287 -0.846842646598816 0.000000000000000
9.297858238220215 3.860544204711914 -0.940966725349426 0.000000000000000
9.330860137939453 4.420897483825684 -0.843913495540619 0.000000000000000
9.256009101867676 3.805336475372314 -0.935389995574951 0.000000000000000
9.328183174133301 4.379796981811523 -0.842286109924316 0.000000000000000
9.731239318847656 4.000424861907959 -0.613483965396881 0.000000000000000
8.997077941894531 3.660555601119995 -0.907506525516510 0.000000000000000
9.329892158508301 4.338833808898926 -0.840658545494080 0.000000000000000
23.466115951538086 9.450877189636230 -0.294616162776947 0.003921568859369
9.230838775634766 3.719909667968750 -0.929813086986542 0.000000000000000
9.326124191284180 4.299499034881592 -0.839031219482422 0.000000000000000
10.336970329284668 4.165225982666016 -0.649529993534088 0.003921568859369
9.240711212158203 3.684546470642090 -0.929441273212433 0.000000000000000
9.316428184509277 4.253674983978271 -0.836753010749817 0.000000000000000
9.245467185974121 3.650931596755981 -0.928697764873505 0.000000000000000
9.355910301208496 4.234225749969482 -0.839031219482422 0.000000000000000
9.169118881225586 3.583835840225220 -0.919775128364563 0.000000000000000
8.501056671142578 3.811995029449463 -0.761246562004089 0.000000000000000
9.203863143920898 3.560391187667847 -0.922005712985992 0.000000000000000
9.319649696350098 4.139635562896729 -0.833172917366028 0.000000000000000
9.205075263977051 3.523940086364746 -0.920890390872955 0.000000000000000
9.293896675109863 4.089396476745605 -0.829592823982239 0.000000000000000
9.208651542663574 3.492154836654663 -0.920146822929382 0.000000000000000
9.277460098266602 4.047409057617188 -0.826989233493805 0.000000000000000
9.217057228088379 3.458557367324829 -0.919775068759918 0.000000000000000
9.302514076232910 4.019705772399902 -0.827965617179871 0.000000000000000
9.217870712280273 3.422177553176880 -0.918659746646881 0.000000000000000
9.320153236389160 3.988746643066406 -0.828290998935699 0.000000000000000
10.384233474731445 3.854767560958862 -0.645576417446136 0.000000000000000
9.227201461791992 3.385354518890381 -0.918287932872772 0.000000000000000
9.328057289123535 3.949791193008423 -0.827640116214752 0.000000000000000
10.361465454101562 3.801091909408569 -0.643250882625580 0.003921568859369
9.265173912048340 3.362593412399292 -0.920890390872955 0.000000000000000
9.334433555603027 3.914090871810913 -0.826989173889160 0.000000000000000
10.389688491821289 3.770310163497925 -0.644181132316589 0.000000000000000
9.280251502990723 3.333516120910645 -0.920890152454376 0.000000000000000
9.343874931335449 3.881735801696777 -0.826337933540344 0.000000000000000
10.033962249755859 3.604120492935181 -0.621157646179199 0.000000000000000
23.478855133056641 9.750980377197266 2.075768709182739 0.003921568859369
23.549182891845703 9.780183792114258 4.649956703186035 0.003921568859369
23.377611160278320 9.613379478454590 -0.735759615898132 0.003921568859369
9.303092002868652 3.305081129074097 -0.922005414962769 0.000000000000000
9.335247039794922 3.839981794357300 -0.824385225772858 0.000000000000000
5.724238872528076 3.039596796035767 0.188739404082298 0.000000000000000
9.914777755737305 3.522286176681519 -0.613018214702606 0.000000000000000
9.449849128723145 3.320078134536743 -0.935389399528503 0.000000000000000
9.367055892944336 3.814873695373535 -0.826012492179871 0.000000000000000
9.938314437866211 3.491611480712891 -0.613715887069702 0.000000000000000
9.555438995361328 3.319715261459351 -0.944683849811554 0.000000000000000
9.358128547668457 3.773193836212158 -0.824059724807739 0.000000000000000
10.090015411376953 3.505347490310669 -0.622320413589478 0.000000000000000
9.566968917846680 3.286321401596069 -0.944683849811554 0.000000000000000
9.363838195800781 3.737531900405884 -0.823408842086792 0.000000000000000
10.166397094726562 3.492131233215332 -0.626273870468140 0.000000000000000
9.578381538391113 3.252892494201660 -0.944683849811554 0.000000000000000
9.361994743347168 3.698951482772827 -0.822106957435608 0.000000000000000
10.537750244140625 3.578546762466431 -0.648366749286652 0.000000000000000
9.717485427856445 3.264198780059814 -0.957324206829071 0.000000000000000
9.363069534301758 3.663516283035278 -0.821130573749542 0.000000000000000
10.500346183776855 3.527046442031860 -0.645343542098999 0.000000000000000
9.360929489135742 3.625035762786865 -0.819828748703003 0.000000000000000
10.800632476806641 3.585944652557373 -0.663017809391022 0.000000000000000
9.362357139587402 3.588045835494995 -0.818852305412292 0.000000000000000
10.661310195922852 3.498425960540771 -0.653715550899506 0.000000000000000
5.883024692535400 1.931138515472412 -0.216376751661301 0.000000000000000
9.356186866760254 3.548259496688843 -0.817225098609924 0.000000000000000
10.715242385864258 3.474715232849121 -0.656273663043976 0.000000000000000
9.383443832397461 3.521168947219849 -0.818526864051819 0.000000000000000
10.780545234680176 3.454334974288940 -0.659529447555542 0.000000000000000
9.399415969848633 3.489762067794800 -0.818852305412292 0.000000000000000
10.872488021850586 3.441963434219360 -0.664413154125214 0.000000000000000
9.393640518188477 3.448742866516113 -0.816899418830872 0.000000000000000
10.995709419250488 3.437418460845947 -0.670924365520477 0.000000000000000
9.409367561340332 3.417294979095459 -0.817224860191345 0.000000000000000
11.099211692810059 3.427293300628662 -0.676505684852600 0.000000000000000
9.428743362426758 3.387122154235840 -0.817875683307648 0.000000000000000
9.421724319458008 3.347517490386963 -0.816248476505280 0.000000000000000
9.596349716186523 4.507521152496338 -0.679484963417053 0.003921568859369
9.523622512817383 3.346330165863037 -0.824059426784515 0.000000000000000
9.561607360839844 3.322222232818604 -0.826337635517120 0.000000000000000
23.480266571044922 9.467582702636719 -0.589115798473358 0.003921568859369
9.738463401794434 3.347517490386963 -0.840657830238342 0.000000000000000
9.806708335876465 3.332747697830200 -0.845539629459381 0.000000000000000
9.863634109497070 3.313728570938110 -0.849445164203644 0.000000000000000
2.871902704238892 0.953128516674042 0.247022569179535 0.000000000000000
10.502359390258789 3.283864259719849 -0.897938072681427 0.000000000000000
10.643267631530762 3.287213563919067 -0.909003674983978 0.000000000000000
10.327885627746582 2.606532812118530 0.123954474925995 0.000000000000000
10.753820419311523 3.280309677124023 -0.917465627193451 0.000000000000000
10.879719734191895 3.277279853820801 -0.927229344844818 0.000000000000000
10.959874153137207 3.259761571884155 -0.933087527751923 0.000000000000000
11.128015518188477 3.267572402954102 -0.946431279182434 0.000000000000000
11.265712738037109 3.265361070632935 -0.957171380519867 0.000000000000000
11.510845184326172 3.292946577072144 -0.977024316787720 0.000000000000000
11.602269172668457 3.277537822723389 -0.983858942985535 0.000000000000000
11.732686042785645 3.270231008529663 -0.993948101997375 0.000000000000000
8.001231193542480 3.000984191894531 -0.347802817821503 0.000000000000000
10.606768608093262 3.357868671417236 -0.777365446090698 0.000000000000000
10.690779685974121 3.343505620956421 -0.782666981220245 0.000000000000000
10.835813522338867 3.347450256347656 -0.792432904243469 0.000000000000000
10.954286575317383 3.342270135879517 -0.800245583057404 0.000000000000000
9.719120979309082 3.492144346237183 -0.661320447921753 0.000000000000000
6.631359100341797 1.673329591751099 0.278274774551392 0.000000000000000
6.156658649444580 1.877242922782898 0.789225697517395 0.000000000000000
10.078144073486328 2.544272899627686 0.847818195819855 0.000000000000000
11.076677322387695 3.337450027465820 -0.808337330818176 0.000000000000000
9.772624015808105 3.472942352294922 -0.664134621620178 0.000000000000000
11.260354995727539 3.350040197372437 -0.820893466472626 0.000000000000000
11.439250946044922 3.364247798919678 -0.833170592784882 0.000000000000000
11.489240646362305 3.335469007492065 -0.835960865020752 0.000000000000000
6.493574619293213 1.884013533592224 0.393252164125443 0.000000000000000
17.875852584838867 3.343948125839233 -0.634750604629517 0.003921568859369
11.701678276062012 3.305446624755859 -0.849353671073914 0.003921568859369
10.308569908142090 2.911465167999268 2.866680383682251 0.000000000000000
6.233771800994873 1.389364123344421 -0.185481771826744 0.000000000000000
4.204594612121582 0.723246991634369 -0.247673362493515 0.000000000000000
5.128880500793457 0.864376127719879 -0.060394849628210 0.000000000000000
9.452491760253906 2.527574062347412 2.618213891983032 0.000000000000000
17.600368499755859 3.738567590713501 3.278147697448730 0.003921568859369
9.552003860473633 1.475131273269653 -0.562088012695312 0.000000000000000
10.027276039123535 2.053910970687866 0.834474444389343 0.000000000000000
12.083194732666016 3.096964836120605 3.338767051696777 0.000000000000000
11.125495910644531 3.399608135223389 -0.744720637798309 0.003921568859369
11.539986610412598 2.242841005325317 2.140947580337524 0.000000000000000
10.140818595886230 2.411853075027466 1.277678966522217 0.000000000000000
9.806299209594727 1.798511266708374 -0.057839829474688 0.000000000000000
8.997633934020996 1.649923324584961 0.745298743247986 0.000000000000000
9.789243698120117 2.256117820739746 0.000000555674205 0.003921568859369
12.499073028564453 2.111359357833862 0.220948606729507 0.000000000000000
11.724766731262207 1.356919288635254 -0.411534279584885 0.000000000000000
2.460368156433105 0.396061658859253 0.100789159536362 0.000000000000000
2.327589750289917 0.365846574306488 0.095252923667431 0.000000000000000
2.710174083709717 0.701283752918243 -0.113330952823162 0.000000000000000
9.003813743591309 2.207961797714233 -0.376786172389984 0.000000000000000
17.047243118286133 2.399337291717529 3.134653329849243 0.003921568859369
8.308916091918945 1.522605895996094 1.034426927566528 0.000000000000000
7.251169681549072 1.303476572036743 0.901832580566406 0.000000000000000
10.730129241943359 1.815267801284790 0.000000716608611 0.003921568859369
7.157040596008301 1.159608840942383 0.420925825834274 0.000000000000000
8.806167602539062 1.872111916542053 -0.365876913070679 0.000000000000000
19.381313323974609 3.007958173751831 0.455868512392044 0.000000000000000
7.046729087829590 0.742238342761993 0.123282782733440 0.000000000000000
4.095097064971924 0.632773578166962 0.505999624729156 0.000000000000000
2.896651268005371 0.292616516351700 -0.151149287819862 0.000000000000000
11.235634803771973 1.142961025238037 2.054132699966431 0.000000000000000
8.473237991333008 1.677319645881653 -0.150300174951553 0.000000000000000
4.236988067626953 0.400363922119141 0.172270759940147 0.000000000000000
13.274855613708496 2.582864284515381 -0.549871742725372 0.000000000000000
10.786476135253906 1.518335938453674 0.632785797119141 0.000000000000000
