# This PCD file was generated using the MATLAB® pcwrite function
# from Computer Vision Toolbox®.
# .PCD v.7 - Point Cloud Data file format
VERSION .7
FIELDS x y z intensity
SIZE 8 8 8 8
TYPE F F F F
COUNT 1 1 1 1
WIDTH 651
HEIGHT 1
VIEWPOINT 0 0 0 1 0 0 0
POINTS 651
DATA ascii
-8.219480514526367 3.807966470718384 -0.713363051414490 0.000000000000000
-7.851786136627197 4.131196022033691 -0.799931824207306 0.000000000000000
-8.217576026916504 3.839510202407837 -0.714340269565582 0.000000000000000
-7.868731975555420 4.174898147583008 -0.803271293640137 0.000000000000000
-8.222041130065918 3.875963687896729 -0.715965986251831 0.000000000000000
-9.391484260559082 4.446574687957764 1.857048153877258 0.000000000000000
-7.923788070678711 4.239999294281006 -0.810685694217682 0.000000000000000
-8.233505249023438 3.916012763977051 -0.718239963054657 0.000000000000000
-7.895028114318848 4.258922576904297 -0.809209883213043 0.000000000000000
-7.194786071777344 3.435229539871216 -0.625236511230469 0.000000000000000
-6.445542812347412 3.063654899597168 0.286416172981262 0.000000000000000
-8.227358818054199 3.982221364974976 -0.720195472240448 0.000000000000000
-8.213408470153809 4.009970664978027 -0.720201015472412 0.000000000000000
-8.234886169433594 4.055767059326172 -0.723447501659393 0.000000000000000
-8.234862327575684 4.090831279754639 -0.724749505519867 0.000000000000000
-8.252392768859863 4.135115146636963 -0.727671980857849 0.000000000000000
-9.017083168029785 4.531549930572510 0.407905995845795 0.000000000000000
-8.256302833557129 4.170789718627930 -0.729297876358032 0.000000000000000
-5.755624771118164 2.532068014144897 1.624441623687744 0.000000000000000
-8.236977577209473 4.198605060577393 -0.729306459426880 0.000000000000000
-3.888230323791504 1.923298239707947 -0.114844307303429 0.000000000000000
-21.337837219238281 11.384387016296387 4.378576755523682 0.003921568859369
-7.808947563171387 3.675176620483398 -0.897835195064545 0.000000000000000
-7.800287246704102 3.701924085617065 -0.898267030715942 0.000000000000000
-2.131331443786621 0.916432917118073 0.052250232547522 0.000000000000000
-7.783101558685303 3.727751016616821 -0.897845566272736 0.000000000000000
-4.952469825744629 2.365015745162964 0.127134263515472 0.000000000000000
-7.590996265411377 4.191358566284180 -0.239664077758789 0.000000000000000
-6.217793941497803 2.724212884902954 -0.108900800347328 0.000000000000000
-8.315584182739258 4.206548690795898 -0.972609102725983 0.000000000000000
-6.800429344177246 3.444472551345825 0.005671005696058 0.000000000000000
-8.420490264892578 4.297659873962402 -0.987133860588074 0.000000000000000
-8.493245124816895 4.372761249542236 -0.997815489768982 0.000000000000000
-4.350391387939453 2.190483093261719 0.004721802659333 0.000000000000000
-8.442871093750000 4.382691860198975 -0.993551373481750 0.000000000000000
-7.669717788696289 3.968754291534424 0.201603889465332 0.000000000000000
-5.445600032806396 2.777178764343262 -0.131734341382980 0.000000000000000
-7.287720203399658 3.792568206787109 0.191685289144516 0.000000000000000
-6.468034267425537 3.350493669509888 1.895956397056580 0.000000000000000
-5.756168365478516 2.990453720092773 -0.968136250972748 0.000000000000000
-11.477441787719727 5.511238098144531 -0.210670471191406 0.000000000000000
-7.724838256835938 4.131693840026855 0.006028076633811 0.003921568859369
-7.844620704650879 4.338130474090576 -0.935524582862854 0.000000000000000
-7.633898258209229 4.218384742736816 2.283599138259888 0.000000000000000
-7.877081394195557 4.905135631561279 -0.046596463769674 0.000000000000000
-7.739086151123047 4.314262390136719 -0.924427509307861 0.000000000000000
-7.656709671020508 4.297803878784180 -0.915891766548157 0.000000000000000
-7.664928436279297 4.338967800140381 -0.918887495994568 0.000000000000000
-10.599085807800293 7.558207035064697 0.156276255846024 0.000000000000000
-13.267745018005371 6.961463928222656 0.437666624784470 0.000000000000000
-6.902835369110107 3.708077430725098 0.049949169158936 0.000000000000000
-6.041749954223633 4.014669895172119 0.128306448459625 0.000000000000000
-8.886829376220703 5.989494323730469 1.922130584716797 0.000000000000000
-9.270726203918457 6.305897712707520 2.013396978378296 0.000000000000000
-6.702846527099609 4.542047023773193 0.143360495567322 0.000000000000000
-8.738298416137695 4.850047588348389 0.290923148393631 0.000000000000000
-8.044566154479980 4.489637851715088 -0.150852680206299 0.000000000000000
-6.019693374633789 4.181106090545654 -0.201995670795441 0.000000000000000
-5.029210090637207 3.541522741317749 0.490562111139297 0.000000000000000
-2.909292697906494 1.970137715339661 0.607557415962219 0.000000000000000
-4.139007568359375 2.945046901702881 -0.137326896190643 0.000000000000000
-7.647628784179688 5.603268146514893 -0.047945536673069 0.000000000000000
-9.003200531005859 6.028726577758789 0.006514167878777 0.003921568859369
-4.074414253234863 2.941001415252686 0.201307028532028 0.000000000000000
-6.416656017303467 4.809539318084717 -0.039959795773029 0.000000000000000
-8.479105949401855 5.292614459991455 0.291168153285980 0.000000000000000
-14.031881332397461 11.379865646362305 3.267938137054443 0.003921568859369
-6.558969974517822 4.281142234802246 0.049926482141018 0.000000000000000
-10.600444793701172 9.908184051513672 -0.159770265221596 0.000000000000000
-8.179087638854980 6.230335235595703 2.710333108901978 0.000000000000000
-8.405638694763184 5.828821659088135 0.064586602151394 0.000000000000000
-7.198187351226807 5.577078342437744 2.395230054855347 0.000000000000000
-8.642052650451660 6.985395908355713 2.935163736343384 0.000000000000000
-5.306374549865723 4.331038951873779 1.791968345642090 0.000000000000000
-4.459164142608643 3.683843851089478 0.004754891153425 0.000000000000000
-4.060711383819580 3.458579540252686 0.004600570537150 0.000000000000000
-6.451194763183594 5.618390560150146 0.200558498501778 0.000000000000000
-7.818469047546387 7.200496196746826 0.006044692359865 0.003921568859369
-10.894472122192383 10.339110374450684 0.007225327193737 0.000000000000000
-2.500633955001831 2.279708385467529 0.003999116830528 0.000000000000000
-4.481217384338379 4.950177192687988 0.270771473646164 0.000000000000000
-7.153054237365723 7.403217315673828 2.723326444625854 0.000000000000000
-12.992436408996582 15.933915138244629 5.481160163879395 0.003921568859369
-6.085875511169434 7.481560230255127 2.553968667984009 0.000000000000000
-6.536399841308594 8.109457015991211 0.005284070968628 0.003921568859369
-4.526469230651855 5.006733417510986 0.196892887353897 0.000000000000000
-6.499183177947998 7.452921867370605 -0.164925351738930 0.000000000000000
-7.284749984741211 9.334765434265137 -0.813382267951965 0.000000000000000
-4.743348598480225 6.440544605255127 2.115464687347412 0.000000000000000
-5.758311748504639 9.109597206115723 1.949981212615967 0.000000000000000
-7.843682289123535 13.258818626403809 2.795819044113159 0.000000000000000
-3.295711040496826 6.838198661804199 -0.258299708366394 0.000000000000000
-3.215555429458618 5.275278091430664 0.357780307531357 0.000000000000000
-8.533391952514648 16.526966094970703 3.380711317062378 0.003921568859369
-4.252273082733154 9.205758094787598 -0.112904608249664 0.000000000000000
-4.197390556335449 9.081296920776367 0.119711421430111 0.000000000000000
-5.009187698364258 9.706411361694336 -0.058597296476364 0.000000000000000
-4.692718505859375 9.237988471984863 -0.055451437830925 0.000000000000000
-5.534265995025635 11.459937095642090 -0.068917952477932 0.000000000000000
-3.687607288360596 7.497723579406738 0.679249584674835 0.000000000000000
-2.818779706954956 5.211562633514404 0.343540847301483 0.000000000000000
-4.276829242706299 9.274324417114258 -0.054856296628714 0.000000000000000
-4.284263610839844 9.291363716125488 0.181302472949028 0.000000000000000
-3.390346527099609 6.397248268127441 0.882174372673035 0.000000000000000
-8.849875450134277 17.613458633422852 2.415700912475586 0.003921568859369
-3.800246477127075 8.602105140686035 1.705026745796204 0.000000000000000
-2.706611871719360 6.116321563720703 1.209591627120972 0.000000000000000
-2.969791173934937 6.816470623016357 1.346003532409668 0.000000000000000
-4.688328266143799 8.681275367736816 -0.166502624750137 0.000000000000000
-3.181736469268799 7.484347820281982 0.661757588386536 0.000000000000000
-3.360404253005981 7.931861877441406 1.561382889747620 0.000000000000000
-5.136703491210938 12.512804985046387 2.458045005798340 0.000000000000000
-5.427113533020020 10.291131019592285 -0.197262153029442 0.000000000000000
-3.713757514953613 7.854862689971924 0.003779926104471 0.003921568859369
-1.597427368164062 2.773803949356079 -0.196491062641144 0.000000000000000
-4.277406692504883 9.282215118408203 0.240047752857208 0.000000000000000
-2.715085029602051 6.594893932342529 0.580161869525909 0.000000000000000
-3.177810907363892 6.853877067565918 0.922007203102112 0.000000000000000
-2.159919500350952 5.257722854614258 0.461830824613571 0.000000000000000
-2.566583156585693 7.421700954437256 -0.268803983926773 0.000000000000000
-1.983269333839417 4.840873718261719 -0.267481267452240 0.000000000000000
-3.031778812408447 6.648859024047852 0.891735255718231 0.000000000000000
-4.743921279907227 12.397424697875977 2.412718772888184 0.000000000000000
-4.971279144287109 10.087512016296387 -0.190706908702850 0.000000000000000
-3.748966932296753 7.573123455047607 -0.142323419451714 0.000000000000000
-2.923180103302002 6.642997264862061 -0.163698583841324 0.000000000000000
-5.241877555847168 14.359441757202148 2.780244350433350 0.000000000000000
-4.676833629608154 11.133350372314453 0.004039025865495 0.000000000000000
-5.997817039489746 17.283107757568359 0.747510910034180 0.003921568859369
-1.191002130508423 3.005397319793701 0.581150174140930 0.000000000000000
-4.191765308380127 14.364556312561035 0.177567481994629 0.000000000000000
-3.253971815109253 9.240611076354980 1.779329061508179 0.000000000000000
-0.943105638027191 1.989911556243896 0.002776127308607 0.000000000000000
-2.841655492782593 8.100418090820312 1.558205485343933 0.000000000000000
-6.206012248992920 16.027845382690430 0.004570337943733 0.003921568859369
-6.333152770996094 16.541849136352539 1.032513737678528 0.000000000000000
-1.162105321884155 3.269510030746460 -0.017058599740267 0.000000000000000
-6.181110858917236 17.041122436523438 1.056809067726135 0.000000000000000
-0.927704632282257 1.921057462692261 0.014701504260302 0.000000000000000
-4.143140792846680 11.788199424743652 0.728220343589783 0.000000000000000
-2.557004213333130 10.313434600830078 -0.366343617439270 0.000000000000000
-2.443311691284180 8.227935791015625 0.700053930282593 0.000000000000000
-2.466463565826416 8.433341979980469 1.596771478652954 0.000000000000000
-4.308667659759521 13.019635200500488 0.799449443817139 0.000000000000000
-3.383247852325439 12.499337196350098 -0.672866582870483 0.000000000000000
-1.521383523941040 5.336098670959473 1.006615877151489 0.000000000000000
-2.195811986923218 5.684269905090332 -0.102272994816303 0.000000000000000
-5.211213588714600 17.333177566528320 0.004132357425988 0.003921568859369
-5.018970012664795 17.121778488159180 4.772555351257324 0.003921568859369
-3.675000429153442 10.644388198852539 0.329742163419724 0.000000000000000
-0.738860011100769 1.806199908256531 -0.030569240450859 0.003921568859369
-3.243260383605957 9.806106567382812 -0.176041066646576 0.000000000000000
-2.246057033538818 9.940390586853027 1.854894161224365 0.000000000000000
-2.867010593414307 8.714276313781738 0.268782407045364 0.000000000000000
-2.777988910675049 10.450862884521484 -0.247434198856354 0.000000000000000
-3.308039665222168 10.660089492797852 -0.190597921609879 0.000000000000000
-3.109070777893066 10.115555763244629 0.064571477472782 0.000000000000000
-2.334405899047852 12.027749061584473 2.231630086898804 0.000000000000000
-3.474562644958496 11.831439971923828 -0.210984438657761 0.000000000000000
-1.889887213706970 6.166654586791992 0.040142312645912 0.000000000000000
-1.176734447479248 3.616938591003418 -0.238059967756271 0.000000000000000
-2.540849685668945 10.606897354125977 1.337898254394531 0.000000000000000
-1.413214325904846 5.676542758941650 -0.268094152212143 0.000000000000000
-1.896051168441772 6.456677913665771 -0.269548535346985 0.000000000000000
-1.734563350677490 7.252566814422607 -0.169869855046272 0.000000000000000
-1.880900263786316 7.314674377441406 -0.128295198082924 0.000000000000000
-2.626658678054810 10.484359741210938 -0.435681432485580 0.000000000000000
-0.752031028270721 8.894919395446777 -0.101245008409023 0.000000000000000
-0.581541299819946 2.741861343383789 0.163997977972031 0.000000000000000
-1.663187265396118 15.817713737487793 2.900101423263550 0.003921568859369
-0.682088971138000 7.902319908142090 -0.228058278560638 0.000000000000000
-0.868600785732269 6.777584075927734 0.002477367874235 0.000000000000000
-1.051541924476624 18.052871704101562 1.478409051895142 0.000000000000000
-0.449395179748535 7.047133922576904 0.289717286825180 0.000000000000000
-0.527971804141998 10.641221046447754 0.871730387210846 0.000000000000000
-0.651105761528015 6.468807220458984 0.380263537168503 0.000000000000000
-0.676154315471649 20.722885131835938 3.782378673553467 0.003921568859369
-1.241690635681152 17.092432022094727 0.002769303973764 0.003921568859369
-0.240436434745789 6.257624626159668 0.257242769002914 0.000000000000000
-0.846535265445709 11.562314033508301 0.002534317784011 0.003921568859369
-0.781965970993042 10.508769989013672 2.823619842529297 0.000000000000000
-0.458519697189331 5.478611469268799 0.002287441398948 0.000000000000000
-0.204699516296387 12.641323089599609 1.034428238868713 0.000000000000000
-0.149739339947701 7.395422935485840 -0.040775675326586 0.000000000000000
-0.103597894310951 6.430103302001953 0.264164686203003 0.000000000000000
-0.097561240196228 7.462584972381592 0.611455738544464 0.000000000000000
-0.469379246234894 9.101184844970703 1.120604634284973 0.000000000000000
-0.359546422958374 2.798586845397949 -0.046868305653334 0.000000000000000
0.762920200824738 13.151650428771973 0.155618041753769 0.000000000000000
-0.469741582870483 11.311455726623535 3.034714221954346 0.000000000000000
-1.025051355361938 11.845545768737793 0.348249614238739 0.000000000000000
-0.538324594497681 5.324309825897217 -0.215291813015938 0.000000000000000
-0.281155139207840 7.384212493896484 0.174108669161797 0.000000000000000
-0.242952138185501 5.377457618713379 0.315431356430054 0.000000000000000
0.844587028026581 11.958215713500977 -0.137602284550667 0.000000000000000
-0.165763705968857 1.612621307373047 0.096012696623802 0.003921568859369
0.081604659557343 6.661658287048340 0.546299815177917 0.000000000000000
0.543645381927490 8.306327819824219 -0.288995325565338 0.000000000000000
0.144431352615356 8.537923812866211 1.559807896614075 0.000000000000000
-0.158290430903435 1.480935215950012 0.088333062827587 0.003921568859369
-0.645125210285187 8.884831428527832 0.054043784737587 0.000000000000000
-0.147719219326973 1.409121274948120 0.084083363413811 0.003921568859369
-0.177069127559662 8.441143989562988 0.493820130825043 0.000000000000000
-0.227473691105843 18.841770172119141 2.316070079803467 0.003921568859369
-0.432054102420807 6.810232639312744 0.200607120990753 0.000000000000000
-0.541179895401001 10.091140747070312 0.296258449554443 0.000000000000000
0.489598214626312 9.645827293395996 0.170805633068085 0.000000000000000
0.050036147236824 11.686270713806152 1.437369108200073 0.000000000000000
0.867455124855042 15.463538169860840 2.827570915222168 0.000000000000000
0.590560615062714 9.228207588195801 0.757753849029541 0.000000000000000
0.452500730752945 7.098534584045410 0.126299396157265 0.000000000000000
0.304685771465302 13.134057998657227 0.767524898052216 0.000000000000000
0.782907962799072 10.202376365661621 -0.296132087707520 0.000000000000000
-0.189052417874336 11.062726974487305 0.324205070734024 0.000000000000000
1.827825665473938 13.428523063659668 -0.156142026185989 0.000000000000000
0.492954581975937 13.217963218688965 3.547964572906494 0.000000000000000
0.190845698118210 6.333674430847168 0.149585396051407 0.000000000000000
0.244890958070755 3.760243415832520 0.067884765565395 0.000000000000000
0.361093372106552 4.458587169647217 -0.128648698329926 0.000000000000000
0.525808215141296 10.740584373474121 0.252465844154358 0.000000000000000
0.335087954998016 7.208265304565430 0.422692000865936 0.000000000000000
0.683351516723633 11.906681060791016 3.200029611587524 0.000000000000000
2.485187530517578 20.961275100708008 3.853335857391357 0.003921568859369
0.513800978660583 4.989926815032959 0.089664645493031 0.000000000000000
0.506708145141602 8.025005340576172 0.470775336027145 0.000000000000000
0.505065560340881 7.663532733917236 0.180871129035950 0.000000000000000
0.341439068317413 7.670073509216309 0.225614532828331 0.000000000000000
0.831460833549500 8.418916702270508 0.495368927717209 0.000000000000000
0.693752884864807 9.531334877014160 -0.165072426199913 0.000000000000000
2.116623878479004 12.088953018188477 -0.356109797954559 0.000000000000000
1.589472651481628 8.578935623168945 -0.252905428409576 0.000000000000000
1.702816605567932 7.273805618286133 0.088935807347298 0.000000000000000
1.998105406761169 21.313379287719727 0.625390112400055 0.003921568859369
1.063217401504517 7.946145534515381 0.469685465097427 0.000000000000000
1.805443525314331 9.661131858825684 0.403060495853424 0.000000000000000
2.702073574066162 13.644821166992188 2.542215585708618 0.000000000000000
0.884515225887299 9.084722518920898 0.267824769020081 0.000000000000000
2.411679267883301 11.812913894653320 2.204263925552368 0.000000000000000
0.964243471622467 6.473981857299805 0.001712769269943 0.000000000000000
1.252824306488037 6.292180061340332 -0.035779643803835 0.000000000000000
2.163603067398071 10.476688385009766 0.188775971531868 0.000000000000000
0.990684330463409 8.917741775512695 -0.155068323016167 0.000000000000000
0.850865662097931 7.574820041656494 0.224025875329971 0.000000000000000
1.599310159683228 9.461029052734375 1.182362794876099 0.000000000000000
1.119116067886353 6.814578533172607 -0.159472957253456 0.000000000000000
1.615912914276123 7.340823650360107 0.617380499839783 0.000000000000000
1.507871389389038 8.613918304443359 1.078030824661255 0.000000000000000
2.636029243469238 14.598316192626953 -0.344021916389465 0.000000000000000
0.981408894062042 7.366075038909912 0.045028045773506 0.000000000000000
0.677907466888428 3.167628765106201 0.597157359123230 0.000000000000000
2.059712648391724 14.261022567749023 -0.250050187110901 0.000000000000000
1.413817524909973 6.002656936645508 1.130875587463379 0.000000000000000
2.004033565521240 8.205918312072754 0.149465411901474 0.000000000000000
3.749535560607910 18.389490127563477 0.438839465379715 0.000000000000000
1.797118186950684 7.195533752441406 -0.215125709772110 0.000000000000000
1.640085816383362 6.602525234222412 1.247085928916931 0.000000000000000
1.700616359710693 8.340853691101074 1.049677968025208 0.000000000000000
1.082033514976501 7.007620811462402 0.208561331033707 0.000000000000000
2.601147890090942 9.938395500183105 0.181319326162338 0.000000000000000
1.945486783981323 9.303289413452148 1.171536564826965 0.000000000000000
2.378316402435303 11.086051940917969 1.396735191345215 0.000000000000000
2.076535701751709 7.703817367553711 -0.418228030204773 0.000000000000000
2.857230663299561 16.085390090942383 -0.283851981163025 0.003921568859369
1.157843828201294 4.353545665740967 0.080720596015453 0.000000000000000
3.234258651733398 13.980813980102539 1.766675472259521 0.000000000000000
2.021848678588867 7.221964359283447 0.616288900375366 0.000000000000000
1.491285681724548 6.203280448913574 0.150595188140869 0.000000000000000
0.266248315572739 1.779371380805969 -0.072512090206146 0.003921568859369
4.788856029510498 15.575148582458496 2.978096961975098 0.003921568859369
2.881838560104370 11.274153709411621 0.001469937269576 0.003921568859369
0.274125665426254 1.785874962806702 -0.072838924825191 0.003921568859369
1.987972021102905 9.491079330444336 -0.394437700510025 0.000000000000000
0.956586182117462 3.848579883575439 0.234086498618126 0.000000000000000
2.207555294036865 8.263243675231934 -0.198215663433075 0.000000000000000
1.851028680801392 5.801746368408203 0.501347422599792 0.000000000000000
5.667662143707275 17.109756469726562 3.293686151504517 0.003921568859369
3.003484010696411 10.519789695739746 0.256645321846008 0.000000000000000
1.419674038887024 6.268157005310059 -0.261303037405014 0.000000000000000
1.131870865821838 4.127058982849121 0.001465901033953 0.000000000000000
2.490147113800049 10.054401397705078 0.303664505481720 0.000000000000000
1.660644292831421 6.561912059783936 -0.117133088409901 0.000000000000000
1.947341084480286 7.628971099853516 0.047381404787302 0.000000000000000
5.520914554595947 14.928795814514160 2.909791707992554 0.003921568859369
3.241724252700806 11.770971298217773 0.072514265775681 0.000000000000000
3.052864074707031 7.940759181976318 1.558907270431519 0.000000000000000
3.705672264099121 9.034231185913086 1.788438439369202 0.000000000000000
2.573882579803467 7.910799026489258 0.244285136461258 0.000000000000000
6.626887798309326 14.931484222412109 2.986414432525635 0.003921568859369
10.972514152526855 21.141412734985352 -0.277207821607590 0.003921568859369
7.133020401000977 15.335235595703125 3.091821908950806 0.003921568859369
3.878798246383667 7.336634635925293 -0.290249198675156 0.000000000000000
5.876527786254883 13.517148971557617 3.959962844848633 0.000000000000000
4.871769905090332 9.900377273559570 2.020024538040161 0.000000000000000
10.709398269653320 21.359613418579102 -0.695830047130585 0.003921568859369
10.892525672912598 21.358652114868164 1.961245059967041 0.003921568859369
2.697831392288208 5.917722225189209 0.382113248109818 0.000000000000000
2.733460664749146 5.993664741516113 -0.307409882545471 0.000000000000000
2.524515867233276 6.270377635955811 0.198927447199821 0.000000000000000
1.465836048126221 3.202798843383789 0.208408430218697 0.000000000000000
4.346977233886719 7.856092453002930 1.645475864410400 0.000000000000000
10.731468200683594 21.411478042602539 2.946119546890259 0.003921568859369
4.099750041961670 7.181396484375000 1.516332387924194 0.000000000000000
6.004607677459717 10.294691085815430 0.977281749248505 0.000000000000000
3.164376258850098 6.829844951629639 0.221138551831245 0.000000000000000
2.582994699478149 5.454571723937988 0.177745968103409 0.000000000000000
5.177537918090820 8.035270690917969 1.751531720161438 0.000000000000000
2.341595411300659 3.635068893432617 0.178796604275703 0.000000000000000
5.950365543365479 11.142355918884277 0.369515329599380 0.000000000000000
5.784878730773926 8.435895919799805 1.873390197753906 0.000000000000000
5.982732295989990 8.652943611145020 1.926468729972839 0.000000000000000
2.227940797805786 4.021939277648926 0.135882154107094 0.000000000000000
5.170627117156982 7.385238170623779 0.740248143672943 0.000000000000000
4.819707870483398 7.657418727874756 2.435832738876343 0.000000000000000
3.103995084762573 4.934249877929688 1.573536276817322 0.000000000000000
3.523947954177856 5.453030109405518 0.152816742658615 0.000000000000000
3.051418304443359 5.238508701324463 0.178359329700470 0.000000000000000
5.142782688140869 7.790989398956299 2.512354373931885 0.000000000000000
5.152105331420898 7.520681381225586 1.124884486198425 0.000000000000000
3.176445960998535 4.188219070434570 0.433382481336594 0.000000000000000
5.571373939514160 8.898600578308105 0.307385444641113 0.000000000000000
2.394051074981689 3.885293483734131 -0.186490461230278 0.000000000000000
2.451188325881958 3.937340497970581 -0.189491614699364 0.000000000000000
9.556176185607910 12.239286422729492 2.838754892349243 0.000000000000000
4.883086681365967 6.819364547729492 1.035135865211487 0.000000000000000
8.179643630981445 12.334519386291504 -0.603849887847900 0.000000000000000
9.173736572265625 11.029514312744141 2.623505830764771 0.000000000000000
1.809428930282593 2.653467416763306 -0.131410300731659 0.000000000000000
15.708187103271484 18.032119750976562 4.367266178131104 0.003921568859369
1.829636812210083 2.318713665008545 0.802096843719482 0.000000000000000
6.487217426300049 6.558435440063477 -0.323100775480270 0.000000000000000
8.374603271484375 9.191686630249023 2.274793624877930 0.000000000000000
8.675330162048340 9.449706077575684 2.346520662307739 0.000000000000000
7.516289234161377 9.849585533142090 0.361999213695526 0.000000000000000
5.067865848541260 5.428220272064209 0.609794676303864 0.000000000000000
3.917371034622192 3.736286878585815 -0.189826190471649 0.000000000000000
9.149220466613770 9.548148155212402 2.418197631835938 0.000000000000000
4.948129653930664 5.565850257873535 0.436362832784653 0.000000000000000
11.675696372985840 13.052051544189453 2.154843091964722 0.003921568859369
7.983145236968994 7.883385181427002 2.052303075790405 0.000000000000000
3.780823469161987 4.088940620422363 0.130920618772507 0.000000000000000
7.496921062469482 7.886445999145508 2.925018548965454 0.000000000000000
3.451624631881714 3.295765399932861 0.393059521913528 0.000000000000000
6.315195560455322 6.470494270324707 1.114790916442871 0.000000000000000
2.609202384948730 2.433491230010986 -0.020345650613308 0.000000000000000
2.165094614028931 2.214872598648071 -0.218189060688019 0.000000000000000
9.873136520385742 9.016149520874023 2.443903446197510 0.000000000000000
9.125499725341797 7.287536144256592 -0.408831268548965 0.000000000000000
13.694972991943359 10.841229438781738 -0.611210286617279 0.003921568859369
3.907349109649658 3.398117780685425 0.212799906730652 0.000000000000000
3.247279167175293 3.056858777999878 0.000510149751790 0.000000000000000
7.068957328796387 5.986623287200928 0.759275197982788 0.000000000000000
9.686825752258301 8.973480224609375 3.545994281768799 0.000000000000000
6.604373931884766 5.473839759826660 -0.450844675302505 0.000000000000000
9.977180480957031 8.078081130981445 2.346277475357056 0.000000000000000
6.085375308990479 4.431139945983887 -0.087706133723259 0.000000000000000
3.972842454910278 3.913216114044189 -0.358759224414825 0.000000000000000
8.371666908264160 7.437744617462158 -0.522787272930145 0.000000000000000
4.148002624511719 3.625178813934326 0.129285842180252 0.000000000000000
6.246895313262939 4.859446525573730 0.324004411697388 0.000000000000000
7.561202526092529 6.352232456207275 1.215987205505371 0.000000000000000
2.198430776596069 1.652385592460632 0.113593809306622 0.000000000000000
2.159169912338257 1.795591235160828 0.348491668701172 0.000000000000000
5.595580577850342 4.542075157165527 0.888477206230164 0.000000000000000
5.830013275146484 4.665730953216553 0.174662962555885 0.000000000000000
7.947862148284912 5.737047672271729 1.792437314987183 0.000000000000000
7.178080081939697 6.293245315551758 -0.389736592769623 0.000000000000000
4.657955169677734 3.949431896209717 0.178669959306717 0.000000000000000
5.145051002502441 4.298469066619873 -0.117150649428368 0.000000000000000
5.965930461883545 4.408218383789062 1.994172811508179 0.000000000000000
6.201983928680420 4.097412586212158 0.304052829742432 0.000000000000000
4.495409488677979 2.974354982376099 -0.378127962350845 0.000000000000000
6.518154621124268 4.706172466278076 -0.516125977039337 0.000000000000000
9.556445121765137 4.577432155609131 -0.990745484828949 0.000000000000000
9.521184921264648 4.521773815155029 -0.985540032386780 0.000000000000000
9.512936592102051 4.474975585937500 -0.982575833797455 0.000000000000000
9.499616622924805 4.428244590759277 -0.979601740837097 0.000000000000000
9.489698410034180 4.383332252502441 -0.976999402046204 0.000000000000000
9.508564949035645 4.351781845092773 -0.977371990680695 0.000000000000000
21.271654129028320 9.637450218200684 -0.272242397069931 0.003921568859369
9.491045951843262 4.303726673126221 -0.974025964736938 0.000000000000000
21.278955459594727 9.640743255615234 0.271908283233643 0.003921568859369
9.542346000671387 4.286825656890869 -0.977745115756989 0.000000000000000
9.502660751342773 4.229176998138428 -0.972167968750000 0.000000000000000
9.517363548278809 4.195931434631348 -0.972168624401093 0.000000000000000
9.553858757019043 4.172181606292725 -0.974400460720062 0.000000000000000
4.015511989593506 1.996945977210999 -0.235579431056976 0.000000000000000
9.509863853454590 4.113486766815186 -0.968451499938965 0.000000000000000
10.304946899414062 4.456867218017578 -0.654636025428772 0.000000000000000
9.568104743957520 4.099013328552246 -0.972914397716522 0.000000000000000
10.302083969116211 4.412968635559082 -0.653473675251007 0.000000000000000
9.512679100036621 4.036018371582031 -0.965849757194519 0.000000000000000
10.354195594787598 4.392503261566162 -0.655800640583038 0.000000000000000
9.450787544250488 3.968924522399902 -0.957678496837616 0.000000000000000
10.370652198791504 4.354827404022217 -0.655571162700653 0.000000000000000
9.516075134277344 3.957265377044678 -0.962884485721588 0.000000000000000
10.382102966308594 4.317031860351562 -0.655338943004608 0.000000000000000
9.349353790283203 3.849748849868774 -0.944665372371674 0.000000000000000
9.686283111572266 4.554177761077881 -0.874488472938538 0.000000000000000
10.338022232055664 4.256422996520996 -0.651617705821991 0.000000000000000
9.483781814575195 3.868282794952393 -0.956936061382294 0.000000000000000
9.654349327087402 4.500119209289551 -0.870257318019867 0.000000000000000
10.329894065856934 4.213041305541992 -0.650222539901733 0.000000000000000
9.375339508056641 3.785958290100098 -0.944666206836700 0.000000000000000
9.637417793273926 4.451332092285156 -0.867328286170959 0.000000000000000
5.573056697845459 3.271377325057983 -0.414624154567719 0.000000000000000
10.400083541870117 4.199339389801025 -0.653712093830109 0.000000000000000
9.388498306274414 3.753172159194946 -0.944666624069214 0.000000000000000
9.652897834777832 4.417626857757568 -0.867328763008118 0.000000000000000
10.155087471008301 4.059305191040039 -0.637429952621460 0.000000000000000
9.401541709899902 3.720345258712769 -0.944666981697083 0.000000000000000
9.646470069885254 4.374002933502197 -0.865376114845276 0.000000000000000
10.102349281311035 3.997376441955566 -0.633243441581726 0.000000000000000
21.350965499877930 9.675799369812012 1.914200067520142 0.003921568859369
9.414472579956055 3.687468290328979 -0.944667398929596 0.000000000000000
9.621669769287109 4.322311878204346 -0.861796021461487 0.000000000000000
10.350520133972168 4.053719043731689 -0.647898256778717 0.000000000000000
9.501565933227539 3.683311700820923 -0.952104389667511 0.000000000000000
9.636700630187988 4.288663864135742 -0.861796438694000 0.000000000000000
10.383227348327637 4.024738311767578 -0.649061679840088 0.000000000000000
9.439986228942871 3.621584892272949 -0.944668233394623 0.000000000000000
9.655260086059570 4.256572723388672 -0.862122356891632 0.000000000000000
9.586628913879395 3.639421224594116 -0.958054423332214 0.000000000000000
9.633516311645508 4.206870555877686 -0.858867704868317 0.000000000000000
9.502325057983398 3.569522380828857 -0.948387265205383 0.000000000000000
9.622524261474609 4.162116050720215 -0.856589674949646 0.000000000000000
9.515249252319336 3.536646604537964 -0.948022782802582 0.000000000000000
9.619152069091797 4.120810985565186 -0.854644834995270 0.000000000000000
10.315324783325195 3.833867311477661 -0.641156077384949 0.000000000000000
25.185844421386719 9.258202552795410 -0.312551110982895 0.003921568859369
9.523797988891602 3.502016544342041 -0.947651147842407 0.000000000000000
9.611456871032715 4.077850341796875 -0.852692127227783 0.000000000000000
10.294914245605469 3.785418510437012 -0.639063000679016 0.000000000000000
11.097139358520508 5.362022399902344 3.303565740585327 0.000000000000000
9.535965919494629 3.468731641769409 -0.947651326656342 0.000000000000000
9.629308700561523 4.045798778533936 -0.853017807006836 0.000000000000000
7.623308181762695 4.121031284332275 -0.555639147758484 0.000000000000000
10.323077201843262 3.754897832870483 -0.639993548393250 0.000000000000000
9.544265747070312 3.434065341949463 -0.947279751300812 0.000000000000000
9.636007308959961 4.009089946746826 -0.852367103099823 0.000000000000000
9.809170722961426 4.081080913543701 1.937907338142395 0.000000000000000
9.537434577941895 3.394036293029785 -0.945420980453491 0.000000000000000
9.598334312438965 3.954159021377563 -0.847810447216034 0.000000000000000
10.038043022155762 4.135193824768066 1.980236768722534 0.000000000000000
9.549222946166992 3.360708713531494 -0.945421159267426 0.000000000000000
9.578852653503418 3.907070159912109 -0.844881355762482 0.000000000000000
9.602273941040039 3.341727972030640 -0.949511110782623 0.000000000000000
9.636795997619629 3.891495943069458 -0.848787367343903 0.000000000000000
12.730522155761719 5.140142440795898 2.503974676132202 0.000000000000000
9.598817825317383 3.302988767623901 -0.948024153709412 0.000000000000000
9.594789505004883 3.835625410079956 -0.843905389308929 0.000000000000000
9.610287666320801 3.269447088241577 -0.948024332523346 0.000000000000000
9.608119010925293 3.802094697952271 -0.843905568122864 0.000000000000000
21.370702743530273 9.687212944030762 1.366660356521606 0.003921568859369
21.284557342529297 9.648184776306152 -0.543963491916656 0.003921568859369
9.772645950317383 3.286625146865845 -0.962896704673767 0.000000000000000
9.628757476806641 3.771424770355225 -0.844556689262390 0.000000000000000
9.973033905029297 3.315266370773315 -0.981487035751343 0.000000000000000
9.608406066894531 3.724812746047974 -0.841627597808838 0.000000000000000
10.469365119934082 3.480176687240601 -0.642786264419556 0.000000000000000
9.984546661376953 3.280414342880249 -0.981487214565277 0.000000000000000
9.632517814636230 3.695513010025024 -0.842604279518127 0.000000000000000
10.557329177856445 3.468508243560791 -0.647438108921051 0.000000000000000
9.999682426452637 3.249097108840942 -0.981489419937134 0.000000000000000
9.641502380371094 3.662466526031494 -0.841959655284882 0.000000000000000
10.656601905822754 3.462543249130249 -0.652552425861359 0.000000000000000
9.654860496520996 3.627106428146362 -0.841959655284882 0.000000000000000
10.760474205017090 3.452745199203491 -0.658133745193481 0.000000000000000
9.655626296997070 3.590897560119629 -0.840983271598816 0.000000000000000
10.867022514343262 3.447225570678711 -0.663947641849518 0.000000000000000
25.201608657836914 9.267393112182617 -0.156061515212059 0.003921568859369
9.664981842041016 3.554105758666992 -0.840657830238342 0.000000000000000
11.001528739929199 3.445561408996582 -0.671389460563660 0.000000000000000
9.677328109741211 3.520349264144897 -0.840657830238342 0.000000000000000
11.120305061340332 3.440185546875000 -0.677901029586792 0.000000000000000
9.689559936523438 3.486545085906982 -0.840657830238342 0.000000000000000
7.907700061798096 2.845387697219849 0.686065256595612 0.000000000000000
9.689799308776855 3.450383663177490 -0.839681446552277 0.000000000000000
5.728470325469971 2.695614337921143 -0.405746668577194 0.000000000000000
9.683576583862305 3.408230066299438 -0.838054120540619 0.000000000000000
7.904916286468506 2.326544046401978 -0.769205152988434 0.000000000000000
9.706120491027832 3.380029678344727 -0.839030504226685 0.000000000000000
9.737293243408203 3.350921154022217 -0.840657830238342 0.000000000000000
9.880208015441895 3.949804067611694 -0.495649546384811 0.000000000000000
21.300395965576172 9.657806396484375 0.135929048061371 0.003921568859369
9.983641624450684 3.321506977081299 -0.858560323715210 0.000000000000000
9.996054649353027 4.450531482696533 -0.700980305671692 0.000000000000000
9.995174407958984 3.286656379699707 -0.858560085296631 0.000000000000000
10.110133171081543 4.459142208099365 -0.707886815071106 0.000000000000000
10.098724365234375 3.277827024459839 -0.866370320320129 0.000000000000000
6.252298831939697 2.728196859359741 0.198366299271584 0.000000000000000
10.249411582946777 3.291220188140869 -0.878411054611206 0.000000000000000
2.775964021682739 0.868974566459656 0.529442846775055 0.000000000000000
7.709155082702637 1.979622840881348 -0.463268756866455 0.000000000000000
10.671787261962891 3.263321399688721 -0.910627782344818 0.000000000000000
9.250503540039062 2.828524827957153 1.762830138206482 0.000000000000000
10.809622764587402 3.262232303619385 -0.921366751194000 0.000000000000000
10.943203926086426 3.260941267013550 -0.931780338287354 0.000000000000000
11.034835815429688 3.246380567550659 -0.938614130020142 0.000000000000000
11.218379974365234 3.257909297943115 -0.953258335590363 0.000000000000000
11.318865776062012 3.243013620376587 -0.960408747196198 0.000000000000000
9.978808403015137 3.947195291519165 -0.687168359756470 0.003921568859369
11.567384719848633 3.272842168807983 -0.980583250522614 0.000000000000000
11.612728118896484 3.244161367416382 -0.983511388301849 0.000000000000000
11.789240837097168 3.249220848083496 -0.997503221035004 0.000000000000000
11.322254180908203 2.951086282730103 -0.340223461389542 0.000000000000000
10.998587608337402 3.322088479995728 -0.802745640277863 0.000000000000000
11.136295318603516 3.321372032165527 -0.811951220035553 0.000000000000000
11.244560241699219 3.309674739837646 -0.818637967109680 0.000000000000000
11.424626350402832 3.319497108459473 -0.830910801887512 0.000000000000000
10.056911468505859 3.462000608444214 -0.680770576000214 0.000000000000000
11.574214935302734 3.319291353225708 -0.840952038764954 0.000000000000000
10.182287216186523 3.465557575225830 -0.688442468643188 0.000000000000000
11.878687858581543 2.787373781204224 2.222065448760986 0.000000000000000
4.792940616607666 1.354975223541260 0.115454368293285 0.000000000000000
11.673453330993652 3.305979490280151 -0.847367107868195 0.000000000000000
10.273157119750977 3.458604335784912 -0.693812668323517 0.000000000000000
10.444222450256348 3.475783586502075 -0.704553484916687 0.000000000000000
11.927033424377441 3.288208723068237 -0.864102244377136 0.003921568859369
15.340319633483887 4.230378627777100 -0.740473091602325 0.000000000000000
10.491007804870605 3.410305738449097 -0.706086754798889 0.003921568859369
9.624208450317383 2.725432634353638 0.058012045919895 0.000000000000000
12.534901618957520 2.899083614349365 3.442372560501099 0.000000000000000
8.153521537780762 1.440397262573242 0.674301862716675 0.000000000000000
10.149991035461426 2.235108137130737 1.273787498474121 0.000000000000000
6.964800357818604 1.157509207725525 -0.204996153712273 0.000000000000000
4.958883285522461 1.073549389839172 0.117471367120743 0.000000000000000
19.252071380615234 4.032477855682373 -0.456974893808365 0.000000000000000
8.670840263366699 1.750110268592834 1.083132743835449 0.000000000000000
16.348024368286133 3.014229059219360 -0.386008024215698 0.000000000000000
8.412832260131836 1.097287297248840 0.690578818321228 0.000000000000000
7.965288639068604 1.784083008766174 -0.142134070396423 0.000000000000000
8.611163139343262 1.063817143440247 -0.251841962337494 0.000000000000000
10.854758262634277 1.806991577148438 0.000046404980822 0.003921568859369
9.757009506225586 1.586561203002930 2.640995264053345 0.000000000000000
12.829142570495605 1.359480619430542 -0.074650362133980 0.000000000000000
5.895442485809326 0.623116374015808 0.240169212222099 0.000000000000000
9.752814292907715 1.000212311744690 1.782225131988525 0.000000000000000
10.381630897521973 1.540307044982910 0.609566688537598 0.000000000000000
9.862391471862793 1.463072299957275 1.220656752586365 0.000000000000000
17.366308212280273 1.719049334526062 1.422628045082092 0.000000000000000
11.180858612060547 2.101613998413086 0.066020011901855 0.000000000000000
12.677669525146484 1.122766017913818 0.221802964806557 0.000000000000000
7.498600959777832 0.636838853359222 1.366702675819397 0.000000000000000
9.045446395874023 1.214683175086975 -0.211717128753662 0.000000000000000
9.420612335205078 1.233544349670410 0.551618635654449 0.000000000000000
6.686689853668213 0.171210691332817 -0.077649280428886 0.000000000000000
11.101506233215332 0.827250421047211 0.906485557556152 0.000000000000000
5.479877948760986 0.637229979038239 0.672987818717957 0.000000000000000
9.061715126037598 0.549513101577759 -0.263222634792328 0.000000000000000
22.984371185302734 2.526807069778442 1.345383882522583 0.003921568859369
6.297733783721924 0.031025489792228 -0.073078729212284 0.000000000000000
12.288443565368652 1.262735128402710 0.717593967914581 0.000000000000000
8.563116073608398 0.369920521974564 0.347766757011414 0.000000000000000
11.922883033752441 0.476090550422668 0.207837551832199 0.000000000000000
8.680106163024902 0.346273779869080 0.352496027946472 0.000000000000000
7.881583690643311 1.061490774154663 -0.138312846422195 0.000000000000000
6.967787265777588 0.254693388938904 0.282546132802963 0.000000000000000
7.912275791168213 0.206721410155296 -0.045854825526476 0.000000000000000
7.539382457733154 0.196942567825317 0.130858510732651 0.000000000000000
7.513090133666992 0.168836444616318 -0.043555285781622 0.000000000000000
13.448052406311035 1.528603911399841 0.078688181936741 0.000000000000000
13.789670944213867 0.841864526271820 -0.320276737213135 0.000000000000000
14.230358123779297 0.122242279350758 -0.082147337496281 0.000000000000000
9.825468063354492 0.053609561175108 0.170872837305069 0.000000000000000
9.739265441894531 1.004761457443237 -0.624972820281982 0.000000000000000
4.117910861968994 0.206275030970573 -0.000328524620272 0.000000000000000
9.690943717956543 0.015826378017664 0.787974357604980 0.000000000000000
7.969328403472900 0.762756586074829 -0.139150500297546 0.000000000000000
11.211989402770996 0.525752484798431 2.997252941131592 0.000000000000000
10.026844978332520 0.434978514909744 -0.465630710124969 0.000000000000000
10.470425605773926 0.454296410083771 -0.242878884077072 0.000000000000000
6.267574787139893 0.557453453540802 0.181794181466103 0.000000000000000
15.679781913757324 0.631904363632202 0.912037968635559 0.000000000000000
6.991697788238525 -0.058936249464750 0.567464470863342 0.000000000000000
7.897363662719727 -0.533383369445801 0.091567143797874 0.000000000000000
6.742274284362793 0.130392059683800 1.794994592666626 0.000000000000000
14.272658348083496 -0.515792250633240 -0.413968026638031 0.000000000000000
9.893328666687012 -0.356968492269516 0.401607424020767 0.000000000000000
8.103880882263184 0.045650742948055 -0.000071796297561 0.003921568859369
2.714561939239502 0.145892679691315 -0.171877562999725 0.000000000000000
6.903993129730225 0.014935112558305 -0.000159329327289 0.000000000000000
19.649618148803711 0.932702839374542 -0.798899292945862 0.003921568859369
13.288498878479004 -0.665315389633179 2.418221473693848 0.000000000000000
9.199944496154785 -0.941661596298218 -0.107058636844158 0.000000000000000
17.754611968994141 -0.085184454917908 1.031867504119873 0.000000000000000
6.340915679931641 -0.669600129127502 0.073462069034576 0.000000000000000
11.739467620849609 0.349947124719620 0.068184770643711 0.000000000000000
8.453099250793457 -0.159168124198914 0.195551365613937 0.000000000000000
15.044239997863770 -1.018474340438843 1.227496266365051 0.000000000000000
7.700944423675537 -0.922603309154510 -0.089813351631165 0.000000000000000
7.853783607482910 -1.051786661148071 0.091617651283741 0.000000000000000
7.704436302185059 0.071499601006508 0.044382773339748 0.000000000000000
11.201170921325684 -0.441178232431412 -0.259521543979645 0.000000000000000
14.733494758605957 -1.353336811065674 1.204373240470886 0.000000000000000
12.960218429565430 -1.189857959747314 2.364436149597168 0.000000000000000
6.151368141174316 -0.885637760162354 -0.359066992998123 0.000000000000000
7.249747276306152 -0.334846824407578 0.419379085302353 0.000000000000000
8.289075851440430 -0.818294703960419 -0.048142153769732 0.000000000000000
6.260779380798340 -0.029688471928239 -0.108595713973045 0.000000000000000
8.528434753417969 -0.871932148933411 1.553315043449402 0.000000000000000
8.913701057434082 -0.506933987140656 -0.413379281759262 0.000000000000000
5.908012390136719 -0.643619179725647 -0.171664208173752 0.000000000000000
12.613666534423828 -2.006157875061035 0.148460000753403 0.000000000000000
17.847105026245117 -1.956575155258179 3.264650583267212 0.003921568859369
7.660859107971191 -0.487155020236969 0.935846507549286 0.000000000000000
11.899088859558105 -1.004026889801025 0.692607760429382 0.000000000000000
7.528808593750000 -0.292697310447693 0.043309759348631 0.000000000000000
7.375416278839111 -0.671506404876709 0.427761614322662 0.000000000000000
17.860980987548828 -2.516113758087158 3.279099225997925 0.003921568859369
10.258259773254395 -0.471075117588043 -0.178089708089828 0.000000000000000
7.645045757293701 -1.099140405654907 0.312206476926804 0.000000000000000
14.599453926086426 -1.591026186943054 3.920156478881836 0.000000000000000
5.893967151641846 -0.371559768915176 -0.102359481155872 0.000000000000000
5.600479125976562 -0.980488657951355 -0.033014290034771 0.000000000000000
29.021144866943359 -5.228415489196777 2.404530525207520 0.003921568859369
5.035516738891602 -0.683903574943542 1.344421982765198 0.000000000000000
7.995189666748047 -1.175966620445251 0.466904729604721 0.000000000000000
28.862222671508789 -4.373208045959473 3.578897237777710 0.003921568859369
14.854783058166504 -1.563567638397217 0.433543860912323 0.000000000000000
2.084149599075317 -0.213375836610794 -0.130951523780823 0.000000000000000
9.292683601379395 -1.008093237876892 0.270256429910660 0.000000000000000
2.067518949508667 -0.218693360686302 -0.129929751157761 0.000000000000000
7.738770484924316 -1.247708559036255 -0.000092429865617 0.000000000000000
27.650497436523438 -4.485141277313232 7.491339206695557 0.003921568859369
12.488019943237305 -2.239945888519287 0.000466408673674 0.000000000000000
24.110895156860352 -4.336431503295898 1.424644470214844 0.003921568859369
29.082397460937500 -5.233135700225830 3.622472524642944 0.003921568859369
5.740980625152588 -0.759119749069214 -0.100254759192467 0.000000000000000
28.989011764526367 -5.320635318756104 1.715001225471497 0.003921568859369
22.761417388916016 -5.332683563232422 4.252079963684082 0.003921568859369
6.874805450439453 -0.935107648372650 -0.280125111341476 0.000000000000000
28.960573196411133 -5.419786453247070 -0.681570410728455 0.003921568859369
10.007940292358398 -2.044500350952148 1.246170520782471 0.000000000000000
28.162916183471680 -5.876486778259277 7.693455219268799 0.003921568859369
12.090073585510254 -1.950017690658569 0.354848474264145 0.000000000000000
14.678568840026855 -3.917177438735962 1.235211849212646 0.000000000000000
24.248207092285156 -5.321345329284668 3.041331291198730 0.003921568859369
12.521574020385742 -3.900271177291870 1.065037250518799 0.000000000000000
1.881514430046082 -0.383163392543793 -0.033122349530458 0.003921568859369
6.779006004333496 -2.125902652740479 0.286128669977188 0.000000000000000
6.041269779205322 -1.913605928421021 0.254769563674927 0.000000000000000
16.018499374389648 -5.300590515136719 3.063840389251709 0.003921568859369
15.868433952331543 -5.315042018890381 3.038711786270142 0.003921568859369
2.198384284973145 -0.746541559696198 -0.013951250351965 0.000000000000000
8.094241142272949 -2.420571327209473 0.194731280207634 0.000000000000000
12.059475898742676 -4.307738304138184 -0.073581367731094 0.000000000000000
10.839567184448242 -3.911379337310791 0.934618473052979 0.000000000000000
11.266202926635742 -3.505156278610229 1.439292311668396 0.000000000000000
13.219352722167969 -4.162755966186523 1.692556619644165 0.000000000000000
18.131540298461914 -6.001523017883301 5.097859859466553 0.003921568859369
12.091086387634277 -3.394031763076782 0.363516956567764 0.000000000000000
