# This PCD file was generated using the MATLAB® pcwrite function
# from Computer Vision Toolbox®.
# .PCD v.7 - Point Cloud Data file format
VERSION .7
FIELDS x y z intensity
SIZE 8 8 8 8
TYPE F F F F
COUNT 1 1 1 1
WIDTH 639
HEIGHT 1
VIEWPOINT 0 0 0 1 0 0 0
POINTS 639
DATA ascii
8.496820449829102 1.363235950469971 -0.300209373235703 0.000000000000000
7.792650699615479 1.956843733787537 -0.373651742935181 0.000000000000000
18.662130355834961 4.624011039733887 -0.895299673080444 0.000000000000000
5.006614685058594 0.964936375617981 0.088461346924305 0.000000000000000
11.648825645446777 2.250085353851318 0.966557085514069 0.000000000000000
13.503462791442871 2.608956098556519 2.503560304641724 0.000000000000000
11.561020851135254 3.342231512069702 -0.770456671714783 0.003921568859369
12.056183815002441 2.241842269897461 0.999094188213348 0.000000000000000
11.660895347595215 3.327152013778687 -0.776342511177063 0.003921568859369
12.654031753540039 2.951920986175537 3.476037263870239 0.000000000000000
11.810745239257812 3.325512647628784 -0.785555601119995 0.000000000000000
11.449787139892578 1.964190959930420 0.946391165256500 0.000000000000000
4.006567955017090 1.079551339149475 0.120023705065250 0.000000000000000
13.724533081054688 2.160193920135498 -0.727368235588074 0.000000000000000
15.405138015747070 3.202177047729492 1.928338646888733 0.000000000000000
21.291206359863281 3.277364730834961 3.922383308410645 0.003921568859369
6.454394340515137 1.291897296905518 -0.706709504127502 0.000000000000000
12.601107597351074 2.526984930038452 3.436608314514160 0.000000000000000
6.250929832458496 0.937360167503357 1.147681593894958 0.000000000000000
13.794670104980469 2.023762702941895 1.135650157928467 0.000000000000000
16.801195144653320 2.465659618377686 3.090980529785156 0.003921568859369
13.740671157836914 2.706046104431152 -0.325858145952225 0.000000000000000
7.412460803985596 1.059491395950317 0.608942151069641 0.000000000000000
18.735145568847656 2.616495609283447 0.769014060497284 0.003921568859369
11.108885765075684 0.884201347827911 0.129039406776428 0.000000000000000
9.798120498657227 2.176535129547119 0.057661663740873 0.000000000000000
9.915006637573242 2.202560663223267 -0.413117945194244 0.000000000000000
9.629122734069824 1.138073325157166 0.168276026844978 0.000000000000000
11.954861640930176 2.398249864578247 0.070112146437168 0.000000000000000
8.968832969665527 0.903489589691162 0.365617752075195 0.000000000000000
8.347385406494141 1.194328188896179 -0.391834169626236 0.000000000000000
8.342487335205078 1.134456634521484 -0.195635899901390 0.000000000000000
15.078557014465332 0.465160578489304 -0.175925165414810 0.000000000000000
7.864835262298584 0.407837390899658 -0.228611797094345 0.000000000000000
18.300222396850586 2.756196022033691 0.536651790142059 0.003921568859369
11.933269500732422 1.753053188323975 0.349369078874588 0.000000000000000
19.101371765136719 2.673146009445190 -0.337031215429306 0.003921568859369
12.829238891601562 1.160313487052917 3.441640853881836 0.000000000000000
16.338834762573242 1.363276481628418 -0.000910371309146 0.003921568859369
6.443096637725830 0.221609681844711 -0.336201339960098 0.000000000000000
2.031916141510010 0.069103799760342 0.162516102194786 0.003921568859369
12.272331237792969 1.584718346595764 0.358231306076050 0.000000000000000
10.854486465454102 0.866783618927002 2.906412601470947 0.000000000000000
15.428236961364746 1.073741674423218 0.897510111331940 0.000000000000000
3.068814754486084 0.148368433117867 -0.141531065106392 0.000000000000000
9.188057899475098 0.447763949632645 1.124064087867737 0.000000000000000
16.444898605346680 1.547788858413696 0.478370666503906 0.003921568859369
5.110271930694580 -0.052779987454414 -0.147813364863396 0.000000000000000
12.484885215759277 -0.218959063291550 0.216444417834282 0.000000000000000
10.202548027038574 0.317808657884598 0.591199219226837 0.000000000000000
6.210640907287598 -0.108399406075478 0.250812470912933 0.000000000000000
3.285038232803345 -0.079488776624203 0.131763115525246 0.000000000000000
11.578731536865234 0.280291616916656 1.415888309478760 0.000000000000000
3.725801944732666 0.232490167021751 -0.236720129847527 0.000000000000000
20.899953842163086 0.295201271772385 -0.972748935222626 0.003921568859369
11.360506057739258 0.160506218671799 3.031621456146240 0.000000000000000
13.552392959594727 -1.179057002067566 -0.158576890826225 0.000000000000000
20.860897064208984 0.221975252032280 -0.970881044864655 0.003921568859369
7.485869407653809 0.079648979008198 1.993434548377991 0.000000000000000
20.861572265625000 0.145678430795670 -0.970876157283783 0.003921568859369
10.901101112365723 0.569048047065735 -0.190457701683044 0.000000000000000
20.850929260253906 0.072995632886887 -0.970255494117737 0.003921568859369
2.286059141159058 -0.108711354434490 -0.065429963171482 0.000000000000000
20.827079772949219 0.004011227749288 -0.969132542610168 0.003921568859369
20.810972213745117 -0.072086304426193 -0.968381643295288 0.003921568859369
7.283344745635986 -0.024859564378858 0.887638509273529 0.000000000000000
6.475057125091553 -0.021985840052366 1.721162915229797 0.000000000000000
6.618335247039795 0.276749074459076 -0.421883016824722 0.000000000000000
20.814615249633789 -0.140960276126862 -0.968563020229340 0.003921568859369
12.178378105163574 -0.082078613340855 1.488435626029968 0.000000000000000
6.015046119689941 -0.354096233844757 -0.035184696316719 0.000000000000000
5.315555095672607 0.202614456415176 0.152910828590393 0.000000000000000
8.216501235961914 -0.484838455915451 0.332748025655746 0.000000000000000
20.837928771972656 -0.217317774891853 -0.969675600528717 0.003921568859369
20.845136642456055 -0.282733798027039 -0.970043599605560 0.003921568859369
11.166407585144043 0.351649940013885 -0.194924384355545 0.000000000000000
4.462116241455078 -0.292010188102722 -0.129069104790688 0.000000000000000
10.328600883483887 -1.187148094177246 -0.121089920401573 0.000000000000000
20.887905120849609 -0.359710425138474 -0.972087740898132 0.003921568859369
4.950607776641846 -0.324325680732727 0.400567322969437 0.000000000000000
7.762121677398682 -0.159805789589882 0.946606814861298 0.000000000000000
6.808945178985596 -0.163629680871964 0.829664468765259 0.000000000000000
6.423240184783936 0.136044383049011 -0.111786574125290 0.000000000000000
21.062831878662109 -0.579225242137909 -0.980457127094269 0.003921568859369
9.748931884765625 -0.302766919136047 -0.000659741053823 0.003921568859369
21.156415939331055 -0.659233510494232 -0.984923541545868 0.003921568859369
12.894454002380371 -0.445903509855270 0.298250168561935 0.000000000000000
4.955103874206543 0.069669008255005 0.142351046204567 0.000000000000000
20.437141418457031 0.217515781521797 0.117062911391258 0.003921568859369
13.972718238830566 -0.531790554523468 0.323141276836395 0.000000000000000
10.622100830078125 0.040994852781296 0.306739956140518 0.000000000000000
7.674594879150391 -0.717223942279816 0.311248958110809 0.000000000000000
10.046468734741211 0.003880775067955 0.057304896414280 0.000000000000000
10.041965484619141 -0.484531253576279 0.581591486930847 0.000000000000000
14.218979835510254 -1.433235049247742 1.161305665969849 0.000000000000000
11.302247047424316 -0.624445378780365 0.655247211456299 0.000000000000000
11.618769645690918 -1.372310996055603 0.949909090995789 0.000000000000000
7.372550010681152 -0.945533871650696 -0.387029945850372 0.000000000000000
9.833705902099609 -0.335748672485352 0.283827275037766 0.000000000000000
4.957479476928711 -0.667937397956848 0.085837490856647 0.000000000000000
4.297668933868408 -0.383115589618683 -0.198651149868965 0.000000000000000
10.905388832092285 -1.019006252288818 0.633607268333435 0.000000000000000
28.669244766235352 -5.648683071136475 -0.341069668531418 0.003921568859369
28.437776565551758 -5.602912425994873 0.335195392370224 0.003921568859369
13.263366699218750 -1.424571394920349 0.308102458715439 0.000000000000000
3.866808652877808 -0.249856337904930 -0.067010231316090 0.000000000000000
9.279167175292969 -1.059750676155090 0.539764404296875 0.000000000000000
17.754995346069336 -2.033948898315430 4.771457195281982 0.003921568859369
8.688517570495605 -1.022369146347046 0.505381464958191 0.000000000000000
12.942969322204590 -2.169116020202637 2.381178379058838 0.000000000000000
27.080327987670898 -4.645808696746826 4.996253967285156 0.003921568859369
8.510142326354980 -1.912153720855713 -0.101431965827942 0.000000000000000
6.337789535522461 -1.169072628021240 -0.186249509453773 0.000000000000000
11.931262016296387 -1.658671379089355 1.470320820808411 0.000000000000000
7.766682147979736 -1.488360524177551 -0.228909507393837 0.000000000000000
14.616491317749023 -2.080893039703369 -0.001036846661009 0.000000000000000
28.933719635009766 -5.684224605560303 -0.858024120330811 0.003921568859369
28.623691558837891 -5.623105049133301 -0.170872107148170 0.003921568859369
7.809810638427734 -1.134780645370483 2.096826553344727 0.000000000000000
15.740162849426270 -2.356149673461914 0.367769569158554 0.000000000000000
26.736894607543945 -5.450130939483643 -0.159804955124855 0.003921568859369
12.054805755615234 -1.500779986381531 0.350546538829803 0.000000000000000
23.338071823120117 -5.345108509063721 4.351464271545410 0.003921568859369
10.699956893920898 -2.480855941772461 1.989494562149048 0.000000000000000
9.177253723144531 -1.694106101989746 -0.000744877033867 0.003921568859369
27.051473617553711 -5.111806869506836 3.370115518569946 0.003921568859369
27.926670074462891 -5.484618186950684 1.651678681373596 0.003921568859369
7.596939563751221 -1.894399642944336 0.633062124252319 0.000000000000000
13.502333641052246 -3.380711317062378 2.524607658386230 0.000000000000000
3.611964464187622 -0.543552994728088 0.020394230261445 0.000000000000000
7.085014343261719 -1.791516065597534 1.319579124450684 0.000000000000000
28.158702850341797 -5.931889533996582 7.689138889312744 0.003921568859369
12.784824371337891 -2.178883552551270 0.073880285024643 0.000000000000000
5.987230777740479 -1.013424158096313 -0.245045691728592 0.000000000000000
9.067148208618164 -2.029219388961792 1.131138920783997 0.000000000000000
11.832614898681641 -3.264384269714355 2.224011898040771 0.000000000000000
11.987819671630859 -3.352313041687012 2.255577564239502 0.000000000000000
28.533582687377930 -5.592938899993896 0.166574448347092 0.003921568859369
16.906446456909180 -5.111299514770508 3.205191612243652 0.003921568859369
11.612790107727051 -3.595741987228394 2.201735734939575 0.000000000000000
4.655404567718506 -1.459866642951965 0.083296291530132 0.000000000000000
4.257804870605469 -1.158275127410889 -0.000543516129255 0.000000000000000
8.389230728149414 -2.303811550140381 1.058025121688843 0.000000000000000
16.145109176635742 -5.312092781066895 3.084025859832764 0.003921568859369
15.089124679565430 -5.021313667297363 1.291008949279785 0.000000000000000
16.029438018798828 -5.335678100585938 3.065383911132812 0.003921568859369
2.539096593856812 -0.841178715229034 0.044946722686291 0.000000000000000
6.547243118286133 -1.986316323280334 0.829454839229584 0.000000000000000
9.241633415222168 -3.352147102355957 0.795258939266205 0.000000000000000
4.153250694274902 -1.697703123092651 0.178847640752792 0.000000000000000
4.985534191131592 -2.045455694198608 0.432554960250854 0.000000000000000
15.041600227355957 -5.405308246612549 4.258956432342529 0.003921568859369
9.632323265075684 -2.969843149185181 -0.175423771142960 0.000000000000000
6.046265602111816 -2.341373920440674 0.784565150737762 0.000000000000000
6.628927707672119 -2.648654699325562 0.864977240562439 0.000000000000000
12.513478279113770 -5.085095882415771 -0.001083669369109 0.000000000000000
8.812227249145508 -3.215474843978882 0.269490122795105 0.000000000000000
26.975019454956055 -13.255104064941406 -0.873807668685913 0.003921568859369
24.907678604125977 -14.928810119628906 -0.338326573371887 0.003921568859369
4.363338470458984 -1.777810811996460 0.026134504005313 0.000000000000000
24.780179977416992 -14.969682693481445 -0.337283372879028 0.003921568859369
4.408713340759277 -1.814419269561768 0.026459751650691 0.000000000000000
22.047800064086914 -13.519730567932129 -0.301276743412018 0.003921568859369
26.209602355957031 -14.373522758483887 2.431228160858154 0.003921568859369
25.657341003417969 -14.185900688171387 2.384399414062500 0.003921568859369
21.894870758056641 -13.742378234863281 -0.301090836524963 0.003921568859369
4.182147026062012 -1.801280617713928 0.128992721438408 0.000000000000000
21.725307464599609 -13.741040229797363 0.297093391418457 0.003921568859369
22.778587341308594 -14.521836280822754 0.312304288148880 0.003921568859369
24.988941192626953 -14.272386550903320 5.228950023651123 0.003921568859369
23.508117675781250 -15.220670700073242 -0.326176077127457 0.003921568859369
22.609588623046875 -14.636164665222168 0.311406821012497 0.003921568859369
10.467299461364746 -5.379437923431396 3.127619028091431 0.000000000000000
24.630304336547852 -14.295152664184570 5.174464702606201 0.003921568859369
10.421072959899902 -5.401240348815918 3.119344711303711 0.000000000000000
24.729537963867188 -14.468391418457031 5.206045150756836 0.003921568859369
10.471441268920898 -5.471491813659668 3.140053987503052 0.000000000000000
24.346185684204102 -14.351500511169434 5.135042667388916 0.003921568859369
22.317804336547852 -14.774097442626953 0.309501796960831 0.003921568859369
24.552753448486328 -14.589287757873535 5.189578533172607 0.003921568859369
24.574062347412109 -14.719274520874023 -0.832400143146515 0.003921568859369
21.016733169555664 -14.014384269714355 -0.294112145900726 0.003921568859369
22.309288024902344 -14.880493164062500 0.310121983289719 0.003921568859369
13.735146522521973 -7.316281318664551 4.144148349761963 0.003921568859369
24.424116134643555 -14.627885818481445 5.173096179962158 0.003921568859369
24.472139358520508 -14.769738197326660 5.193096160888672 0.003921568859369
21.075487136840820 -14.263487815856934 -0.296315729618073 0.003921568859369
20.596044540405273 -13.937181472778320 0.287380158901215 0.003921568859369
22.054100036621094 -13.515309333801270 -0.751383721828461 0.003921568859369
20.939792633056641 -14.277791976928711 -0.295087277889252 0.003921568859369
26.119632720947266 -14.315397262573242 1.727374315261841 0.003921568859369
21.823348999023438 -13.477959632873535 -0.745078206062317 0.003921568859369
20.827291488647461 -14.307229995727539 -0.294185400009155 0.003921568859369
25.919879913330078 -14.322686195373535 3.622738838195801 0.003921568859369
24.730718612670898 -15.281371116638184 5.282101631164551 0.003921568859369
21.467704772949219 -13.360708236694336 -0.734463572502136 0.003921568859369
25.604360580444336 -14.264596939086914 1.699753522872925 0.003921568859369
25.197563171386719 -14.036612510681152 3.528213739395142 0.003921568859369
23.720458984375000 -16.549880981445312 -0.336780250072479 0.003921568859369
19.731298446655273 -13.753520965576172 0.277957260608673 0.003921568859369
23.994699478149414 -15.173307418823242 5.158050060272217 0.003921568859369
23.578271865844727 -16.695766448974609 -0.336371421813965 0.003921568859369
22.403184890747070 -14.272765159606934 -0.155104771256447 0.003921568859369
21.952043533325195 -15.538693428039551 0.311046212911606 0.003921568859369
25.755264282226562 -14.703376770019531 3.628171682357788 0.003921568859369
24.014495849609375 -15.303262710571289 5.173849582672119 0.003921568859369
22.154916763305664 -14.222560882568359 -0.153710916638374 0.003921568859369
19.543926239013672 -13.927955627441406 0.277397394180298 0.003921568859369
5.749364852905273 -3.259159088134766 1.744681954383850 0.000000000000000
22.277791976928711 -14.300788879394531 4.808722019195557 0.003921568859369
21.890760421752930 -14.154776573181152 -0.757212698459625 0.003921568859369
20.600278854370117 -14.788251876831055 -0.295164883136749 0.003921568859369
21.091394424438477 -13.635162353515625 -0.146621987223625 0.003921568859369
22.190645217895508 -14.348489761352539 4.800128936767578 0.003921568859369
19.345081329345703 -13.984726905822754 -0.277804821729660 0.003921568859369
21.073783874511719 -13.728042602539062 -0.146816596388817 0.003921568859369
19.442201614379883 -14.055214881896973 0.277333348989487 0.003921568859369
11.604656219482422 -6.748057365417480 3.570696353912354 0.000000000000000
22.166759490966797 -14.442726135253906 4.805884361267090 0.003921568859369
19.644649505615234 -14.307027816772461 -0.282825231552124 0.003921568859369
25.673084259033203 -15.128366470336914 3.645787715911865 0.003921568859369
22.677873611450195 -14.890218734741211 4.928573131561279 0.003921568859369
24.818294525146484 -14.623348236083984 -0.669604122638702 0.003921568859369
21.713033676147461 -14.359913825988770 -0.756091117858887 0.003921568859369
20.787233352661133 -15.251305580139160 -0.300095319747925 0.003921568859369
22.034357070922852 -14.572326660156250 4.797933578491211 0.003921568859369
25.012485504150391 -14.852875709533691 -0.676214635372162 0.003921568859369
21.573087692260742 -14.375138282775879 -0.752930164337158 0.003921568859369
21.982664108276367 -16.251447677612305 -0.318215072154999 0.003921568859369
3.270790338516235 -2.114082813262939 -0.310871243476868 0.000000000000000
24.415790557861328 -16.278156280517578 5.331683635711670 0.003921568859369
18.880836486816406 -14.048077583312988 0.271965533494949 0.003921568859369
21.828248977661133 -14.766600608825684 -0.153828069567680 0.003921568859369
19.224493026733398 -14.409698486328125 0.277701526880264 0.003921568859369
21.751964569091797 -14.936841011047363 -0.766371548175812 0.003921568859369
18.726276397705078 -14.239041328430176 -0.273722976446152 0.003921568859369
18.929649353027344 -14.394509315490723 0.274894952774048 0.003921568859369
19.034456253051758 -14.579806327819824 -0.278974741697311 0.003921568859369
18.755727767944336 -14.364882469177246 0.273096024990082 0.003921568859369
18.923414230346680 -14.599162101745605 -0.278073787689209 0.003921568859369
18.857131958007812 -14.547583580017090 0.275344222784042 0.003921568859369
21.678195953369141 -15.108031272888184 4.799487113952637 0.003921568859369
21.584558486938477 -15.155690193176270 -0.765971541404724 0.003921568859369
22.773487091064453 -15.994283676147461 2.263059616088867 0.003921568859369
21.307044982910156 -14.958551406860352 4.728481292724609 0.003921568859369
18.528789520263672 -14.499992370605469 -0.273709028959274 0.003921568859369
19.876953125000000 -15.561470031738281 0.291984826326370 0.003921568859369
22.730512619018555 -16.082523345947266 2.264379024505615 0.003921568859369
22.258481979370117 -15.746228218078613 4.953045368194580 0.003921568859369
23.401935577392578 -14.903334617614746 -0.644745528697968 0.003921568859369
18.762121200561523 -14.778879165649414 -0.277842819690704 0.003921568859369
22.501354217529297 -14.426035881042480 0.618393242359161 0.003921568859369
24.148370742797852 -17.204750061035156 2.411795139312744 0.003921568859369
22.180101394653320 -15.795101165771484 4.946604251861572 0.003921568859369
23.637353897094727 -15.158378601074219 -0.652554988861084 0.003921568859369
19.614791870117188 -14.068279266357422 -0.700836658477783 0.003921568859369
21.589527130126953 -17.148281097412109 -0.320789247751236 0.003921568859369
21.847597122192383 -15.677874565124512 4.884925842285156 0.003921568859369
19.564073562622070 -14.131520271301270 -0.700669407844543 0.003921568859369
19.497629165649414 -14.083098411560059 -0.140329003334045 0.003921568859369
19.614673614501953 -15.678871154785156 0.290376037359238 0.003921568859369
21.864597320556641 -15.802152633666992 4.899922847747803 0.003921568859369
20.185657501220703 -14.690588951110840 -0.724871218204498 0.003921568859369
21.074975967407227 -15.341541290283203 -0.152065008878708 0.003921568859369
22.247831344604492 -16.199645996093750 2.237681388854980 0.003921568859369
21.456850051879883 -15.619939804077148 4.820308685302734 0.003921568859369
21.907354354858398 -14.370843887329102 -0.608717560768127 0.003921568859369
19.185062408447266 -15.548394203186035 -0.287265360355377 0.003921568859369
19.021408081054688 -13.934597015380859 -0.137546658515930 0.003921568859369
22.893548965454102 -16.788658142089844 2.308634281158447 0.003921568859369
19.003946304321289 -15.510765075683594 -0.285338580608368 0.003921568859369
21.903182983398438 -17.891954421997070 0.327329456806183 0.003921568859369
22.367494583129883 -16.521028518676758 2.261145830154419 0.003921568859369
22.111425399780273 -16.330211639404297 4.993239402770996 0.003921568859369
20.840900421142578 -13.980724334716797 0.580387473106384 0.003921568859369
19.196640014648438 -15.786340713500977 0.287464499473572 0.003921568859369
23.496393203735352 -15.771795272827148 3.461188554763794 0.003921568859369
22.023061752319336 -16.389484405517578 4.986802101135254 0.003921568859369
21.669477462768555 -14.540061950683594 -0.606243610382080 0.003921568859369
21.307491302490234 -17.651979446411133 -0.321875959634781 0.003921568859369
22.451473236083984 -15.175425529479980 0.626974165439606 0.003921568859369
23.109012603759766 -15.621623992919922 3.411493539810181 0.003921568859369
22.292306900024414 -16.705936431884766 5.060712814331055 0.003921568859369
21.634368896484375 -14.620434761047363 -0.606599807739258 0.003921568859369
18.387006759643555 -15.327176094055176 -0.278395116329193 0.003921568859369
17.958112716674805 -14.967171669006348 0.270321667194366 0.003921568859369
22.520357131958008 -17.001354217529297 2.294717550277710 0.003921568859369
21.632696151733398 -14.729338645935059 -0.607979714870453 0.003921568859369
23.735500335693359 -18.054681777954102 -0.866217851638794 0.003921568859369
19.937284469604492 -16.746185302734375 -0.302834063768387 0.003921568859369
17.951580047607422 -15.068072319030762 0.271035492420197 0.003921568859369
22.226493835449219 -16.900264739990234 2.270656585693359 0.003921568859369
21.846870422363281 -16.609378814697266 4.985421180725098 0.003921568859369
20.995225906372070 -14.400159835815430 -0.591382801532745 0.003921568859369
23.443399429321289 -16.214494705200195 3.486607551574707 0.003921568859369
22.085441589355469 -16.920354843139648 2.262540817260742 0.003921568859369
21.810783386230469 -16.708110809326172 4.991179466247559 0.003921568859369
20.429962158203125 -14.225528717041016 0.575822234153748 0.003921568859369
20.855495452880859 -17.777835845947266 0.317248553037643 0.003921568859369
22.710260391235352 -15.822064399719238 3.385249137878418 0.003921568859369
17.858753204345703 -13.863469123840332 -0.656157374382019 0.003921568859369
17.650884628295898 -15.136824607849121 0.268941640853882 0.003921568859369
18.380777359008789 -14.364089965820312 -0.677096784114838 0.003921568859369
19.262592315673828 -13.598011970520020 0.545265913009644 0.003921568859369
20.631460189819336 -17.823148727416992 0.315653771162033 0.003921568859369
22.562744140625000 -15.941655158996582 3.378947973251343 0.003921568859369
21.937456130981445 -17.160377502441406 5.060106277465820 0.003921568859369
20.276336669921875 -14.318401336669922 -0.576507806777954 0.003921568859369
20.579408645629883 -16.205484390258789 -0.760502994060516 0.003921568859369
20.516929626464844 -17.844547271728516 0.314717531204224 0.003921568859369
22.602373123168945 -16.084526062011719 3.392525434494019 0.003921568859369
21.889314651489258 -17.242511749267578 2.265787839889526 0.003921568859369
21.663440704345703 -17.062866210937500 5.009107589721680 0.003921568859369
17.967542648315430 -14.248031616210938 -0.665496826171875 0.003921568859369
17.502403259277344 -15.324830055236816 0.269015759229660 0.003921568859369
23.519376754760742 -16.877956390380859 -0.672577142715454 0.003921568859369
20.008295059204102 -15.991648674011230 -0.743586719036102 0.003921568859369
20.597902297973633 -18.182126998901367 0.318062990903854 0.003921568859369
21.575927734375000 -17.251678466796875 2.246303081512451 0.003921568859369
20.651552200317383 -16.507585525512695 4.801808834075928 0.003921568859369
18.912147521972656 -13.654014587402344 -0.541614890098572 0.003921568859369
17.939094543457031 -14.430139541625977 -0.668142378330231 0.003921568859369
20.379194259643555 -18.114923477172852 -0.317055612802505 0.003921568859369
21.689060211181641 -17.466978073120117 2.264545917510986 0.003921568859369
20.688592910766602 -16.655916213989258 4.824067592620850 0.003921568859369
20.105161666870117 -17.983139038085938 -0.313639789819717 0.003921568859369
19.358070373535156 -15.679751396179199 -0.145152404904366 0.003921568859369
23.228538513183594 -18.834478378295898 2.432481527328491 0.003921568859369
20.447053909301758 -16.566278457641602 4.779602527618408 0.003921568859369
18.980932235717773 -15.493339538574219 -0.711176216602325 0.003921568859369
20.736932754516602 -13.802801132202148 0.142797335982323 0.003921568859369
21.155113220214844 -17.279630661010742 -0.159124284982681 0.003921568859369
20.441061019897461 -16.691652297973633 4.793253898620605 0.003921568859369
20.506679534912109 -16.854537963867188 -0.770636916160583 0.003921568859369
18.240154266357422 -14.980107307434082 -0.137506544589996 0.003921568859369
21.965845108032227 -18.060379028320312 2.312764883041382 0.003921568859369
20.864648818969727 -17.149093627929688 4.905909538269043 0.003921568859369
19.515548706054688 -14.500032424926758 -0.564553081989288 0.003921568859369
20.337116241455078 -16.833471298217773 -0.766428589820862 0.003921568859369
17.274328231811523 -15.763444900512695 -0.271826922893524 0.003921568859369
16.741401672363281 -15.273447036743164 0.262124031782150 0.003921568859369
21.825275421142578 -16.344659805297852 3.334656715393066 0.003921568859369
22.898303985595703 -18.965679168701172 2.418550014495850 0.003921568859369
22.422437667846680 -18.568620681762695 5.289763927459717 0.003921568859369
17.339542388916016 -15.934610366821289 -0.273719280958176 0.003921568859369
20.751287460327148 -14.116929054260254 0.143934682011604 0.003921568859369
20.732896804809570 -15.635561943054199 0.600844919681549 0.003921568859369
20.406972885131836 -18.773780822753906 0.321156144142151 0.003921568859369
23.121471405029297 -17.447565078735352 1.679989218711853 0.003921568859369
21.739620208740234 -16.398710250854492 3.330288887023926 0.003921568859369
21.527656555175781 -17.951099395751953 2.279610157012939 0.003921568859369
18.094915390014648 -15.185034751892090 -0.137573182582855 0.003921568859369
21.107376098632812 -19.565383911132812 0.333427488803864 0.003921568859369
21.663595199584961 -16.465766906738281 3.327871322631836 0.003921568859369
21.406902313232422 -17.983106613159180 2.273772478103638 0.003921568859369
20.918340682983398 -17.569564819335938 4.962645530700684 0.003921568859369
20.467796325683594 -19.095685958862305 -0.325396507978439 0.003921568859369
17.855571746826172 -15.083849906921387 -0.136115208268166 0.003921568859369
18.940597534179688 -14.483800888061523 0.551499903202057 0.003921568859369
19.963373184204102 -18.622016906738281 0.316209852695465 0.003921568859369
20.104627609252930 -16.995889663696289 4.781864166259766 0.003921568859369
20.040588378906250 -18.825881958007812 -0.319606125354767 0.003921568859369
17.003217697143555 -15.954570770263672 0.269827067852020 0.003921568859369
20.188619613647461 -17.188415527343750 4.816320419311523 0.003921568859369
20.318696975708008 -19.217899322509766 -0.325094670057297 0.003921568859369
19.855255126953125 -18.776569366455078 0.316464930772781 0.003921568859369
19.583786010742188 -16.910264968872070 -0.751026332378387 0.003921568859369
20.259668350219727 -19.302841186523438 -0.325259834527969 0.003921568859369
20.984373092651367 -19.997585296630859 0.335820764303207 0.003921568859369
19.466112136840820 -13.740439414978027 0.689068794250488 0.003921568859369
20.524894714355469 -16.048465728759766 -0.605011463165283 0.003921568859369
20.827598571777344 -18.105920791625977 -0.801166355609894 0.003921568859369
20.193170547485352 -19.360431671142578 -0.325148791074753 0.003921568859369
19.491140365600586 -13.849971771240234 0.691525757312775 0.003921568859369
21.785575866699219 -17.150323867797852 1.607718110084534 0.003921568859369
21.134820938110352 -16.634500503540039 3.288890838623047 0.003921568859369
17.314302444458008 -15.031867027282715 1.863082289695740 0.003921568859369
10.812871932983398 -9.344410896301270 2.587141990661621 0.000000000000000
17.801855087280273 -17.178428649902344 -0.287483543157578 0.003921568859369
20.930940628051758 -20.219926834106445 0.337212443351746 0.003921568859369
20.961982727050781 -16.622232437133789 3.271363496780396 0.003921568859369
21.407707214355469 -18.750644683837891 2.314499139785767 0.003921568859369
22.549070358276367 -19.889829635620117 -0.873041749000549 0.003921568859369
20.280494689941406 -19.718229293823242 -0.328738123178482 0.003921568859369
20.573484420776367 -14.841233253479004 0.145540729165077 0.003921568859369
20.795162200927734 -20.221658706665039 0.336113810539246 0.003921568859369
17.932907104492188 -14.303038597106934 -0.532434642314911 0.003921568859369
17.621837615966797 -17.236560821533203 -0.286425560712814 0.003921568859369
20.844104766845703 -20.411579132080078 0.338091790676117 0.003921568859369
20.636400222778320 -18.319665908813477 5.012949943542480 0.003921568859369
17.777175903320312 -14.279569625854492 -0.529253065586090 0.003921568859369
20.943590164184570 -16.961269378662109 3.295791864395142 0.003921568859369
20.449449539184570 -18.280595779418945 4.982835292816162 0.003921568859369
20.229709625244141 -18.218236923217773 -0.790245473384857 0.003921568859369
21.056180953979492 -17.181043624877930 3.323596000671387 0.003921568859369
17.206163406372070 -15.477023124694824 1.880739808082581 0.003921568859369
20.353147506713867 -18.328523635864258 4.975681304931641 0.003921568859369
18.877714157104492 -14.014022827148438 0.134860098361969 0.003921568859369
19.200027465820312 -14.254813194274902 0.691743910312653 0.003921568859369
20.420730590820312 -16.772277832031250 3.231487512588501 0.003921568859369
17.178758621215820 -15.665596961975098 -0.674552917480469 0.003921568859369
20.455850601196289 -20.596431732177734 -0.337288975715637 0.003921568859369
22.167869567871094 -16.593666076660156 0.159096613526344 0.003921568859369
20.109109878540039 -18.356594085693359 4.946302890777588 0.003921568859369
20.369657516479492 -16.850355148315430 -0.613800704479218 0.003921568859369
20.835931777954102 -19.166492462158203 -0.821834266185760 0.003921568859369
17.283781051635742 -15.878301620483398 -0.136540979146957 0.003921568859369
15.940790176391602 -14.634042739868164 3.927490711212158 0.003921568859369
17.371620178222656 -16.071725845336914 -0.137662589550018 0.003921568859369
16.364311218261719 -16.687484741210938 0.270619124174118 0.003921568859369
22.013988494873047 -18.485443115234375 1.667425155639648 0.003921568859369
22.036537170410156 -18.503993988037109 3.520117044448853 0.003921568859369
15.889607429504395 -14.689143180847168 3.927506208419800 0.003921568859369
20.756170272827148 -19.357065200805664 -0.823836028575897 0.003921568859369
17.291244506835938 -16.104398727416992 -0.137474507093430 0.003921568859369
20.918411254882812 -17.679927825927734 3.349455356597900 0.003921568859369
16.371618270874023 -15.240595817565918 1.817294597625732 0.003921568859369
20.098314285278320 -18.737857818603516 4.991500377655029 0.003921568859369
20.776140213012695 -19.504980087280273 -0.827190101146698 0.003921568859369
17.319145202636719 -16.238128662109375 -0.138108372688293 0.003921568859369
17.683475494384766 -15.029284477233887 0.536724388599396 0.003921568859369
19.384401321411133 -16.485780715942383 1.475087165832520 0.003921568859369
15.779105186462402 -14.782331466674805 1.756446123123169 0.003921568859369
22.059299468994141 -18.774953842163086 7.733581542968750 0.003921568859369
19.921651840209961 -18.695852279663086 4.962820053100586 0.003921568859369
17.078634262084961 -16.123348236083984 -0.681393861770630 0.003921568859369
15.721632003784180 -14.831354141235352 1.755811214447021 0.003921568859369
19.844865798950195 -18.753955841064453 4.959969997406006 0.003921568859369
19.836359024047852 -18.878843307495117 -0.159230038523674 0.003921568859369
16.195411682128906 -16.970710754394531 0.271612465381622 0.003921568859369
16.977165222167969 -16.252353668212891 -0.681824564933777 0.003921568859369
19.692623138427734 -18.872509002685547 -0.158582895994186 0.003921568859369
21.890554428100586 -19.028942108154297 7.743998527526855 0.003921568859369
19.634157180786133 -18.814590454101562 4.939920425415039 0.003921568859369
17.792842864990234 -15.446728706359863 -0.546822726726532 0.003921568859369
16.877317428588867 -16.269254684448242 -0.680062294006348 0.003921568859369
17.478010177612305 -16.852804183959961 -0.141172781586647 0.003921568859369
15.499693870544434 -14.929867744445801 1.748372673988342 0.003921568859369
19.511911392211914 -18.827697753906250 4.925589561462402 0.003921568859369
17.690805435180664 -15.465985298156738 -0.545316278934479 0.003921568859369
20.597530364990234 -20.030467987060547 -0.166991770267487 0.003921568859369
3.040114641189575 -2.843983650207520 -0.332732439041138 0.000000000000000
19.507452011108398 -18.961902618408203 4.942113876342773 0.003921568859369
17.678861618041992 -15.570042610168457 -0.546694040298462 0.003921568859369
17.896806716918945 -17.502683639526367 -0.726325631141663 0.003921568859369
20.804502487182617 -20.367733001708984 -0.169199958443642 0.003921568859369
21.730413436889648 -19.291753768920898 7.758556365966797 0.003921568859369
20.466081619262695 -18.164552688598633 -0.635268807411194 0.003921568859369
20.651651382446289 -20.351657867431641 -0.168483316898346 0.003921568859369
21.336240768432617 -19.068126678466797 1.659865021705627 0.003921568859369
19.504188537597656 -19.211898803710938 4.973722457885742 0.003921568859369
18.274040222167969 -14.888104438781738 0.135354429483414 0.003921568859369
20.443939208984375 -20.293842315673828 -0.167370200157166 0.003921568859369
16.498748779296875 -14.825812339782715 2.710552930831909 0.003921568859369
20.466016769409180 -20.458238601684570 -0.168114677071571 0.003921568859369
15.000710487365723 -14.958220481872559 1.721109747886658 0.003921568859369
20.082733154296875 -18.201271057128906 -0.629160046577454 0.003921568859369
18.151210784912109 -14.999028205871582 0.135249853134155 0.003921568859369
15.844535827636719 -15.918040275573730 1.825286984443665 0.003921568859369
21.273069381713867 -17.712846755981445 0.159173682332039 0.003921568859369
18.501728057861328 -15.499316215515137 0.698291540145874 0.003921568859369
16.766555786132812 -15.595812797546387 1.326889038085938 0.003921568859369
15.948029518127441 -16.351215362548828 1.856206655502319 0.003921568859369
17.078689575195312 -15.889161109924316 -0.541221559047699 0.003921568859369
17.718797683715820 -15.049866676330566 0.672501862049103 0.003921568859369
15.730712890625000 -16.239494323730469 1.837343931198120 0.003921568859369
17.133586883544922 -16.052545547485352 -0.544739246368408 0.003921568859369
17.349927902221680 -16.364906311035156 0.551903843879700 0.003921568859369
17.423475265502930 -14.896638870239258 0.663095235824585 0.003921568859369
15.468666076660156 -14.575395584106445 2.596532344818115 0.003921568859369
6.404794692993164 -6.568792819976807 1.654510378837585 0.000000000000000
21.168775558471680 -20.136468887329102 0.676827132701874 0.003921568859369
15.647103309631348 -14.848479270935059 2.635548353195190 0.003921568859369
20.365640640258789 -19.367811203002930 -0.652341604232788 0.003921568859369
20.952171325683594 -20.061779022216797 0.672008275985718 0.003921568859369
15.997817993164062 -15.285855293273926 1.282069087028503 0.003921568859369
15.931575775146484 -16.785583496093750 1.881013870239258 0.003921568859369
20.163106918334961 -19.301563262939453 -0.647855937480927 0.003921568859369
21.408504486083984 -20.659801483154297 0.689345419406891 0.003921568859369
20.971328735351562 -20.234256744384766 3.565253734588623 0.003921568859369
20.249471664428711 -19.534343719482422 -0.653041958808899 0.003921568859369
21.327684402465820 -20.725528717041016 0.689088821411133 0.003921568859369
20.449876785278320 -19.867279052734375 -0.661764681339264 0.003921568859369
21.266599655151367 -20.810586929321289 0.689483761787415 0.003921568859369
17.450443267822266 -15.460000038146973 0.674585819244385 0.003921568859369
17.901882171630859 -17.496576309204102 -0.580816566944122 0.003921568859369
20.950429916381836 -20.635568618774414 0.681406497955322 0.003921568859369
16.837793350219727 -16.557268142700195 1.368894219398499 0.003921568859369
15.035994529724121 -14.770230293273926 2.575178623199463 0.003921568859369
6.037446498870850 -6.448832035064697 1.592842340469360 0.000000000000000
17.474618911743164 -17.189340591430664 -0.568706452846527 0.003921568859369
16.911077499389648 -16.740854263305664 0.550819575786591 0.003921568859369
16.500167846679688 -16.330442428588867 1.345651745796204 0.003921568859369
14.944779396057129 -14.777476310729980 2.567880868911743 0.003921568859369
8.548268318176270 -8.392299652099609 3.182747602462769 0.000000000000000
17.620325088500977 -15.933721542358398 0.687374353408813 0.003921568859369
5.454308986663818 -5.888105392456055 0.322332262992859 0.000000000000000
15.029905319213867 -14.966712951660156 2.591244459152222 0.003921568859369
2.604510068893433 -2.473006963729858 0.934001207351685 0.000000000000000
19.958103179931641 -18.192522048950195 0.155451402068138 0.003921568859369
3.121919393539429 -3.324900150299072 -0.026735104620457 0.000000000000000
16.649732589721680 -16.712448120117188 0.545960307121277 0.003921568859369
17.349599838256836 -15.797222137451172 0.678898572921753 0.003921568859369
16.232892990112305 -16.404512405395508 0.534061968326569 0.003921568859369
17.519779205322266 -16.292284011840820 0.137606963515282 0.003921568859369
16.387628555297852 -16.795265197753906 0.543129384517670 0.003921568859369
15.784470558166504 -16.171335220336914 1.309632778167725 0.003921568859369
15.368725776672363 -15.740997314453125 2.688329219818115 0.003921568859369
15.319395065307617 -17.430139541625977 1.886371135711670 0.003921568859369
9.043259620666504 -9.264584541320801 3.441586256027222 0.000000000000000
16.935802459716797 -15.955291748046875 0.133827418088913 0.003921568859369
16.466377258300781 -17.102233886718750 0.549588978290558 0.003921568859369
14.442936897277832 -16.527978897094727 1.783835887908936 0.003921568859369
10.086010932922363 -12.696302413940430 -0.563434898853302 0.003921568859369
16.199853897094727 -16.952827453613281 0.542811930179596 0.003921568859369
15.574326515197754 -16.291587829589844 2.754686117172241 0.003921568859369
19.991416931152344 -19.137639999389648 0.159508824348450 0.003921568859369
17.027559280395508 -16.279481887817383 0.681820392608643 0.003921568859369
14.360181808471680 -16.677858352661133 1.788755059242249 0.003921568859369
17.042339324951172 -16.407949447631836 0.684748530387878 0.003921568859369
14.775774002075195 -17.287315368652344 1.848677277565002 0.003921568859369
16.501834869384766 -15.994415283203125 0.665096998214722 0.003921568859369
14.902577400207520 -17.561084747314453 1.872461795806885 0.003921568859369
16.665267944335938 -16.267425537109375 0.674077391624451 0.003921568859369
15.471748352050781 -16.642690658569336 2.777671575546265 0.003921568859369
20.775333404541016 -20.452096939086914 0.168127119541168 0.003921568859369
4.177914619445801 -4.862229824066162 -0.516265094280243 0.000000000000000
7.985962390899658 -9.525873184204102 -0.072240546345711 0.000000000000000
2.136680841445923 -2.671546459197998 -0.194743290543556 0.000000000000000
15.681815147399902 -17.103921890258789 1.345104098320007 0.003921568859369
2.879642486572266 -3.318628787994385 -0.226052254438400 0.000000000000000
14.750721931457520 -17.748485565185547 1.876056075096130 0.003921568859369
16.482175827026367 -16.411117553710938 0.673143446445465 0.003921568859369
15.590552330017090 -17.111129760742188 1.341863870620728 0.003921568859369
15.691306114196777 -15.731341361999512 0.642897963523865 0.003921568859369
15.772847175598145 -17.441255569458008 1.363286614418030 0.003921568859369
14.637101173400879 -17.856750488281250 1.877068638801575 0.003921568859369
15.234389305114746 -16.958374023437500 2.786488533020020 0.003921568859369
15.735291481018066 -17.645675659179688 1.370769262313843 0.003921568859369
15.051568984985352 -16.871068954467773 2.763590812683105 0.003921568859369
3.981849670410156 -5.303481101989746 -0.229155540466309 0.000000000000000
16.437576293945312 -16.835775375366211 0.681135416030884 0.003921568859369
4.247759819030762 -5.713454246520996 -0.410136938095093 0.000000000000000
16.359315872192383 -16.872346878051758 0.680339455604553 0.003921568859369
16.220460891723633 -16.839235305786133 0.676864802837372 0.003921568859369
5.522130012512207 -6.860902309417725 0.710840225219727 0.000000000000000
10.506405830383301 -13.225449562072754 3.062591552734375 0.003921568859369
16.329120635986328 -17.077985763549805 0.684102833271027 0.003921568859369
12.692821502685547 -16.255800247192383 3.743647813796997 0.003921568859369
14.828963279724121 -17.454956054687500 2.799757003784180 0.003921568859369
14.432545661926270 -17.098218917846680 2.734924554824829 0.003921568859369
4.733267307281494 -5.482605934143066 1.913461089134216 0.000000000000000
14.284079551696777 -17.040983200073242 2.717876911163330 0.003921568859369
4.068223476409912 -5.219166755676270 1.188871741294861 0.000000000000000
1.504822969436646 -1.827263474464417 -0.119995579123497 0.000000000000000
8.545400619506836 -11.354258537292480 2.573943614959717 0.000000000000000
1.425192356109619 -1.732119202613831 -0.113509617745876 0.000000000000000
5.174843311309814 -6.843122005462646 1.546995878219604 0.000000000000000
4.589807987213135 -6.761762142181396 0.093635238707066 0.000000000000000
1.409730672836304 -1.723629236221313 -0.112671203911304 0.000000000000000
4.673233509063721 -5.606807708740234 1.929021716117859 0.000000000000000
14.550017356872559 -17.991790771484375 2.829144954681396 0.003921568859369
4.055026531219482 -5.475897789001465 -0.039735019207001 0.000000000000000
4.469100952148438 -6.730394840240479 0.092578411102295 0.000000000000000
14.758428573608398 -18.515792846679688 2.895499467849731 0.003921568859369
4.575975894927979 -5.605282783508301 1.912472724914551 0.000000000000000
3.368736982345581 -5.050750732421875 -0.070325247943401 0.000000000000000
4.375891208648682 -6.633311748504639 0.091039970517159 0.000000000000000
4.543797016143799 -6.205403327941895 0.309093415737152 0.000000000000000
4.607397556304932 -5.683785915374756 1.934222221374512 0.000000000000000
4.775525093078613 -6.581713676452637 0.139807641506195 0.000000000000000
4.503450393676758 -6.929593086242676 0.094713792204857 0.000000000000000
4.760944843292236 -6.600255966186523 0.139844462275505 0.000000000000000
2.901389122009277 -4.374073982238770 -0.301394760608673 0.000000000000000
8.827704429626465 -12.433280944824219 1.237142086029053 0.000000000000000
4.662613391876221 -7.239936828613281 -0.796454370021820 0.000000000000000
4.669092655181885 -5.880489826202393 0.430897980928421 0.000000000000000
8.232507705688477 -11.666948318481445 -0.743875801563263 0.000000000000000
4.322892189025879 -6.801506519317627 -0.093352235853672 0.003921568859369
4.290817737579346 -6.802325248718262 -0.093160450458527 0.000000000000000
4.616283416748047 -7.338535785675049 -0.802005648612976 0.000000000000000
4.685092926025391 -6.691153049468994 0.140431940555573 0.003921568859369
5.678461551666260 -8.159792900085449 0.400887012481689 0.000000000000000
4.249651432037354 -6.785159587860107 -0.092737548053265 0.000000000000000
4.643322467803955 -7.438549995422363 -0.811286568641663 0.000000000000000
4.342603206634521 -6.939272880554199 0.093857772648335 0.000000000000000
4.203357219696045 -6.761637210845947 -0.092221796512604 0.000000000000000
4.576444625854492 -7.385795593261719 -0.803849279880524 0.000000000000000
4.320405960083008 -6.957266807556152 0.093911297619343 0.000000000000000
4.292878150939941 -6.201735973358154 0.303070873022079 0.000000000000000
4.194013595581055 -6.799792766571045 -0.092539332807064 0.003921568859369
4.629889488220215 -7.534754753112793 -0.818330824375153 0.000000000000000
4.003963947296143 -5.811679363250732 1.270022034645081 0.000000000000000
4.193401336669922 -6.855903148651123 -0.093087941408157 0.000000000000000
4.523476123809814 -7.417217731475830 -0.803834795951843 0.000000000000000
4.184642791748047 -5.525024414062500 0.838727533817291 0.000000000000000
3.678217887878418 -5.361850738525391 1.168832063674927 0.000000000000000
4.593922615051270 -7.597512722015381 -0.821659564971924 0.000000000000000
4.276184558868408 -6.367131710052490 1.382002115249634 0.000000000000000
4.525750160217285 -6.805706977844238 0.140618830919266 0.000000000000000
6.999290466308594 -10.735898971557617 -0.074252247810364 0.000000000000000
4.135179996490479 -6.966414928436279 0.092885851860046 0.000000000000000
4.459690093994141 -6.746659278869629 0.139047160744667 0.000000000000000
2.788599491119385 -3.348726511001587 -0.273622363805771 0.000000000000000
4.383955001831055 -7.463762283325195 -0.800861656665802 0.000000000000000
4.747026920318604 -6.524434566497803 0.184884265065193 0.000000000000000
4.429703235626221 -6.751470088958740 0.138843804597855 0.000000000000000
4.719382286071777 -6.485232830047607 -0.185095146298409 0.000000000000000
4.115755081176758 -7.046332359313965 -0.094517558813095 0.000000000000000
2.331960439682007 -2.805965423583984 0.102285012602806 0.000000000000000
4.401858329772949 -6.759541034698486 0.138710483908653 0.000000000000000
4.283881187438965 -5.908654212951660 0.418835610151291 0.000000000000000
3.865783691406250 -5.903847694396973 1.270024657249451 0.000000000000000
4.105978012084961 -7.083864688873291 -0.094834938645363 0.000000000000000
4.375649452209473 -7.568880558013916 -0.809020042419434 0.000000000000000
3.176692724227905 -5.413778781890869 -0.216972067952156 0.000000000000000
3.713118314743042 -5.702267646789551 1.224095702171326 0.000000000000000
3.949077844619751 -6.855288982391357 -0.091636866331100 0.000000000000000
4.354374408721924 -7.589778900146484 -0.809756040573120 0.000000000000000
4.696594715118408 -6.593560218811035 0.185557052493095 0.000000000000000
4.432590961456299 -6.909993171691895 0.141245961189270 0.000000000000000
4.435003757476807 -7.735679626464844 -0.515032827854156 0.000000000000000
4.333121776580811 -6.748867511749268 0.322666019201279 0.000000000000000
3.863764762878418 -5.988527774810791 1.282955169677734 0.000000000000000
4.239871978759766 -7.443663120269775 -0.792661368846893 0.000000000000000
4.700591087341309 -6.648982048034668 0.186683163046837 0.000000000000000
4.408441543579102 -6.924851417541504 0.141252860426903 0.000000000000000
4.576344966888428 -7.198567867279053 0.688810586929321 0.000000000000000
4.130368232727051 -5.813281536102295 -0.164459109306335 0.000000000000000
4.306697845458984 -6.814867019653320 -0.046888943761587 0.000000000000000
4.364333152770996 -6.909602165222168 0.140629380941391 0.000000000000000
4.371914863586426 -7.752007484436035 -0.514088690280914 0.000000000000000
4.153584957122803 -5.892695426940918 1.906302809715271 0.000000000000000
3.942221641540527 -7.018466472625732 -0.093235462903976 0.000000000000000
4.287013053894043 -6.836137294769287 -0.046928130090237 0.000000000000000
4.862110137939453 -7.790115833282471 -0.743144929409027 0.000000000000000
4.293725967407227 -7.671708583831787 -0.507810890674591 0.000000000000000
4.173190116882324 -7.447667121887207 -0.295783162117004 0.000000000000000
4.059727668762207 -5.797544956207275 1.871102213859558 0.000000000000000
