# This PCD file was generated using the MATLAB® pcwrite function
# from Computer Vision Toolbox®.
# .PCD v.7 - Point Cloud Data file format
VERSION .7
FIELDS x y z intensity
SIZE 8 8 8 8
TYPE F F F F
COUNT 1 1 1 1
WIDTH 642
HEIGHT 1
VIEWPOINT 0 0 0 1 0 0 0
POINTS 642
DATA ascii
1.374691009521484 -7.202153205871582 -0.682523012161255 0.000000000000000
1.668621301651001 -6.870838642120361 -0.574847519397736 0.000000000000000
2.298540353775024 -7.911308288574219 -0.382594287395477 0.000000000000000
1.620944261550903 -6.647279262542725 1.237699389457703 0.003921568859369
2.064665317535400 -7.117109775543213 0.426988571882248 0.000000000000000
1.725912094116211 -7.252492904663086 0.300475925207138 0.003921568859369
2.268630743026733 -7.898507118225098 -0.381664812564850 0.000000000000000
1.358814954757690 -7.248520851135254 -0.257734388113022 0.000000000000000
1.658916711807251 -6.932857990264893 1.290060877799988 0.000000000000000
1.254797220230103 -6.745344638824463 -0.638634324073792 0.000000000000000
1.326117515563965 -7.205062866210938 0.083454772830009 0.000000000000000
1.775658607482910 -7.622317314147949 -0.636721611022949 0.000000000000000
1.430323362350464 -8.071208000183105 -0.096513792872429 0.003921568859369
2.100176095962524 -7.471247673034668 -0.831614673137665 0.000000000000000
1.731929302215576 -7.549855709075928 -0.630210995674133 0.000000000000000
1.335644960403442 -7.446112155914307 -0.440046310424805 0.000000000000000
2.074702978134155 -7.485852241516113 -0.832473933696747 0.000000000000000
1.364833831787109 -7.832369804382324 -0.740557491779327 0.000000000000000
1.597814798355103 -7.018405914306641 0.123485632240772 0.000000000000000
1.282078027725220 -7.272433280944824 -0.429574549198151 0.000000000000000
2.160730123519897 -6.549792289733887 -0.120645187795162 0.000000000000000
2.020091056823730 -7.376461505889893 -0.819619357585907 0.000000000000000
1.945095300674438 -7.071560382843018 0.168063953518867 0.000000000000000
1.726571321487427 -7.811028957366943 -0.651055932044983 0.000000000000000
1.284611701965332 -7.469803810119629 -0.440981149673462 0.000000000000000
1.882692933082581 -6.900643348693848 -0.001429369207472 0.000000000000000
1.225213885307312 -7.200513362884521 -0.086144946515560 0.000000000000000
1.907627463340759 -7.003726482391357 0.166246742010117 0.000000000000000
2.026023149490356 -7.492691993713379 -0.540533781051636 0.000000000000000
2.168381690979004 -6.643021583557129 0.200144365429878 0.000000000000000
1.601867198944092 -7.279356479644775 0.127886354923248 0.000000000000000
1.247504711151123 -7.358835697174072 -0.434286028146744 0.000000000000000
1.881311178207397 -6.894878864288330 -0.166504353284836 0.000000000000000
1.692175149917603 -7.886873722076416 -0.235040545463562 0.000000000000000
1.715626955032349 -8.011961936950684 -0.048886474221945 0.000000000000000
1.346986770629883 -8.254014968872070 -0.779302716255188 0.003921568859369
2.020660400390625 -7.574602127075195 -0.364217758178711 0.000000000000000
1.671208620071411 -7.935499191284180 -0.236324846744537 0.000000000000000
1.249839305877686 -7.758309841156006 0.089603245258331 0.000000000000000
2.210261583328247 -6.959788322448730 0.209320530295372 0.003921568859369
1.494414567947388 -7.106115341186523 -0.211617499589920 0.000000000000000
1.810047268867493 -6.905504703521729 -0.001434464822523 0.003921568859369
1.921916842460632 -7.388818740844727 -0.818392634391785 0.003921568859369
1.155360937118530 -7.234202861785889 0.083435699343681 0.000000000000000
2.182808637619019 -6.950987339019775 0.208853796124458 0.003921568859369
1.889051318168640 -7.363718032836914 -0.814966201782227 0.003921568859369
1.647934079170227 -5.131977558135986 -0.342871010303497 0.000000000000000
1.503189206123352 -7.300472736358643 -0.390020877122879 0.000000000000000
1.439119815826416 -7.082322120666504 -0.043245732784271 0.000000000000000
1.490649342536926 -7.379715919494629 -0.394004046916962 0.000000000000000
1.802257776260376 -7.097438812255859 0.891612052917480 0.000000000000000
1.129797101020813 -7.442980289459229 -0.263397812843323 0.000000000000000
1.655690789222717 -6.443389892578125 1.767870426177979 0.000000000000000
1.920855522155762 -7.759920597076416 0.183416530489922 0.003921568859369
1.378304719924927 -5.295180320739746 -0.253936380147934 0.000000000000000
1.089227795600891 -7.335150718688965 -0.259485214948654 0.000000000000000
1.572261810302734 -6.176949501037598 1.693341135978699 0.000000000000000
1.694842338562012 -6.841291904449463 0.406232655048370 0.000000000000000
1.723452329635620 -7.092733860015869 -0.001451532705687 0.003921568859369
1.788803219795227 -7.528094768524170 -0.829976439476013 0.000000000000000
1.811356186866760 -7.636194705963135 0.180066898465157 0.000000000000000
1.792078852653503 -7.543916225433350 -0.360508501529694 0.000000000000000
1.378712296485901 -7.341609954833984 -0.391078293323517 0.000000000000000
2.115679502487183 -7.403969764709473 0.221039950847626 0.000000000000000
1.389115095138550 -7.586830139160156 0.311291188001633 0.000000000000000
1.329014182090759 -4.403862953186035 -0.080618403851986 0.000000000000000
1.359056234359741 -7.558161258697510 -0.223988220095634 0.000000000000000
1.785840749740601 -7.784498214721680 -0.856980621814728 0.000000000000000
0.976958334445953 -7.492190837860107 -0.440125882625580 0.000000000000000
1.994142174720764 -7.027535438537598 -0.296801775693893 0.000000000000000
1.684362173080444 -7.282617092132568 -0.174357280135155 0.000000000000000
1.635984301567078 -7.146517276763916 0.168029472231865 0.000000000000000
0.955106019973755 -7.487127780914307 0.086007229983807 0.000000000000000
1.652377963066101 -7.228843212127686 -0.516877233982086 0.000000000000000
1.316364645957947 -7.417801380157471 0.129341840744019 0.000000000000000
1.317988157272339 -7.428487777709961 -0.395118176937103 0.000000000000000
1.856684684753418 -6.660102367401123 -0.121190175414085 0.000000000000000
0.664400935173035 -2.292746782302856 -0.001274210168049 0.000000000000000
1.962035894393921 -7.088261127471924 0.040940646082163 0.000000000000000
1.917119026184082 -8.722112655639648 -0.622982621192932 0.000000000000000
1.286336541175842 -7.392748832702637 -0.393024682998657 0.000000000000000
1.393450379371643 -6.143783569335938 1.674646258354187 0.000000000000000
0.852498769760132 -7.219508171081543 -0.085945092141628 0.000000000000000
1.645433187484741 -7.610257148742676 -0.835612654685974 0.000000000000000
1.310354828834534 -7.950393676757812 -0.656731843948364 0.003921568859369
1.538922667503357 -7.043233394622803 0.878384232521057 0.000000000000000
1.525575399398804 -7.108543395996094 -0.001517478609458 0.003921568859369
1.566770672798157 -7.332843303680420 0.913953840732574 0.000000000000000
1.148674011230469 -6.954510688781738 0.571272313594818 0.003921568859369
1.856374979019165 -7.083675861358643 -0.128407180309296 0.003921568859369
0.819174528121948 -7.435060024261475 -0.088428802788258 0.000000000000000
1.905469655990601 -7.296027660369873 0.216443046927452 0.000000000000000
0.710346817970276 -6.089591979980469 -0.357320189476013 0.003921568859369
1.303285360336304 -6.019067764282227 1.637377977371216 0.000000000000000
1.770683765411377 -6.816108703613281 -0.123509570956230 0.000000000000000
1.497709989547729 -7.233498096466064 0.169410333037376 0.000000000000000
1.162148594856262 -7.439166545867920 -0.613749444484711 0.000000000000000
0.689532637596130 -6.083229064941406 -0.356856077909470 0.000000000000000
1.196369409561157 -7.709945201873779 1.415436267852783 0.000000000000000
1.587017536163330 -7.898437023162842 -0.562125921249390 0.000000000000000
1.139104366302490 -7.466158866882324 -0.615705490112305 0.000000000000000
1.898622512817383 -7.498518943786621 0.222131609916687 0.000000000000000
1.950951337814331 -7.731683254241943 -0.509350419044495 0.003921568859369
0.665050625801086 -6.041034221649170 -0.354296982288361 0.000000000000000
0.773579359054565 -7.506702899932861 -0.264456927776337 0.003921568859369
1.196503996849060 -8.165910720825195 -0.240963280200958 0.000000000000000
1.438295364379883 -7.190265655517578 0.893967390060425 0.000000000000000
0.787600040435791 -8.078829765319824 -0.284454405307770 0.000000000000000
1.258706927299500 -6.132779121398926 1.665320277214050 0.000000000000000
0.706259906291962 -7.287707805633545 -0.683422565460205 0.000000000000000
1.609298229217529 -6.417212963104248 -0.422309011220932 0.000000000000000
0.796215295791626 -8.629806518554688 -0.505379438400269 0.000000000000000
1.447635769844055 -7.564141750335693 -0.827055573463440 0.003921568859369
0.681070685386658 -7.293342113494873 -0.683796405792236 0.000000000000000
0.729121685028076 -8.049934387207031 -0.471394389867783 0.000000000000000
1.841060519218445 -7.614256381988525 -0.318718761205673 0.000000000000000
1.096122741699219 -7.789336681365967 1.427621603012085 0.000000000000000
0.715199708938599 -8.288373947143555 -0.098314553499222 0.003921568859369
0.943716287612915 -6.646170139312744 1.217462539672852 0.000000000000000
1.357478141784668 -7.167830944061279 -0.170423120260239 0.000000000000000
0.642588496208191 -7.427501201629639 0.084957130253315 0.003921568859369
1.500633955001831 -8.220783233642578 -0.583412289619446 0.000000000000000
1.759655237197876 -7.463603496551514 -0.489955574274063 0.003921568859369
0.942411303520203 -6.807181835174561 0.557220160961151 0.000000000000000
0.611576557159424 -7.333062171936035 0.083843521773815 0.003921568859369
1.078055143356323 -8.369305610656738 0.341072499752045 0.000000000000000
1.300913810729980 -7.270368099212646 0.169434890151024 0.000000000000000
0.895070731639862 -6.813731670379639 0.117919266223907 0.000000000000000
0.613867223262787 -7.896750926971436 -0.462146103382111 0.000000000000000
1.359476804733276 -7.854023456573486 -0.001629461999983 0.000000000000000
0.908890306949615 -7.211162567138672 -0.043721143156290 0.003921568859369
1.265218734741211 -7.202849388122559 0.167761802673340 0.000000000000000
0.676948308944702 -4.773570537567139 0.082223907113075 0.000000000000000
0.561879515647888 -7.367532253265381 -0.431185483932495 0.000000000000000
1.182373285293579 -6.788666248321533 -0.740114152431488 0.000000000000000
1.672425508499146 -7.566994667053223 0.222641170024872 0.000000000000000
0.963112413883209 -8.064719200134277 0.139693304896355 0.000000000000000
1.030189514160156 -8.795565605163574 0.358138501644135 0.000000000000000
1.672627449035645 -7.567814350128174 -0.315523266792297 0.000000000000000
0.921240270137787 -7.911882400512695 0.136977672576904 0.000000000000000
1.747716903686523 -8.112814903259277 -0.530675590038300 0.000000000000000
0.536251664161682 -3.551095962524414 0.143835157155991 0.000000000000000
1.628482580184937 -7.478559494018555 -0.311612725257874 0.000000000000000
0.516088783740997 -8.174035072326660 -0.096934020519257 0.000000000000000
0.845128715038300 -7.326087951660156 -0.937531709671021 0.000000000000000
0.520076155662537 -3.500345468521118 0.141720533370972 0.000000000000000
0.863451659679413 -7.542281150817871 -0.398350924253464 0.003921568859369
0.883001089096069 -8.125610351562500 -0.238943219184875 0.000000000000000
0.891108036041260 -8.225922584533691 0.334555417299271 0.000000000000000
0.834832310676575 -7.532633781433105 -0.397724300622940 0.000000000000000
0.778684735298157 -6.842504978179932 0.558833658695221 0.003921568859369
1.140806198120117 -7.026270866394043 1.897105455398560 0.000000000000000
0.805533826351166 -7.173648834228516 1.310638189315796 0.000000000000000
1.140261411666870 -7.413022994995117 -0.523952841758728 0.003921568859369
1.095330715179443 -7.051529407501221 1.902276992797852 0.000000000000000
0.782327473163605 -7.892681121826172 -0.231953501701355 0.000000000000000
0.755669295787811 -7.516859054565430 -0.045448914170265 0.000000000000000
0.750004291534424 -7.436351299285889 -0.610251843929291 0.000000000000000
0.814563214778900 -8.347983360290527 0.339264124631882 0.000000000000000
1.065639495849609 -7.012336730957031 1.890889286994934 0.000000000000000
1.517670869827271 -7.783668518066406 -0.139348074793816 0.003921568859369
1.099279880523682 -7.524137973785400 0.928480446338654 0.000000000000000
1.562063694000244 -8.050421714782715 -0.334124952554703 0.000000000000000
0.731610000133514 -7.905428409576416 -0.648513078689575 0.003921568859369
0.705443322658539 -7.495523929595947 0.129302158951759 0.000000000000000
0.756437420845032 -8.296163558959961 0.336829900741577 0.003921568859369
1.073741316795349 -7.487703323364258 0.923455357551575 0.000000000000000
1.537847638130188 -8.047152519226074 -0.333959639072418 0.000000000000000
1.484473586082458 -7.884218215942383 0.044622547924519 0.000000000000000
0.705631256103516 -7.911034107208252 -0.648840546607971 0.000000000000000
1.354697823524475 -7.240583896636963 0.040848143398762 0.000000000000000
1.514492034912109 -8.267144203186035 -0.538025498390198 0.000000000000000
1.418403148651123 -7.829736709594727 0.044250395148993 0.000000000000000
2.286966800689697 -13.542440414428711 0.396519988775253 0.000000000000000
1.420463204383850 -7.843108177185059 -0.324996650218964 0.000000000000000
0.234157517552376 -7.887310504913330 -0.093682721257210 0.003921568859369
0.584661364555359 -7.177907943725586 0.123662896454334 0.000000000000000
0.233668625354767 -7.243547439575195 -0.423668354749680 0.000000000000000
0.210099950432777 -7.575326442718506 0.086355946958065 0.000000000000000
0.813968062400818 -6.124827384948730 -0.431952923536301 0.000000000000000
0.595953166484833 -7.904922008514404 -0.647870600223541 0.000000000000000
0.597771584987640 -7.944306373596191 -0.418642908334732 0.000000000000000
0.584293425083160 -8.344694137573242 -0.244949445128441 0.003921568859369
0.967865169048309 -8.060278892517090 0.469566643238068 0.000000000000000
0.573199629783630 -8.085793495178223 0.327877998352051 0.003921568859369
0.510506331920624 -6.616709709167480 -0.348841369152069 0.000000000000000
0.877799093723297 -7.360422134399414 -0.797725141048431 0.003921568859369
0.526865422725677 -7.624844074249268 0.131376013159752 0.000000000000000
0.948853552341461 -8.166234016418457 0.475604325532913 0.000000000000000
1.243862509727478 -7.548134326934814 -0.489894568920135 0.003921568859369
0.108360983431339 -7.250370502471924 -0.086241014301777 0.003921568859369
1.207384228706360 -7.484520435333252 -0.485543161630630 0.000000000000000
0.821394741535187 -7.288872718811035 0.896155178546906 0.000000000000000
0.107711330056190 -7.290400505065918 -0.256449550390244 0.003921568859369
0.817986071109772 -7.572640895843506 -0.355621546506882 0.000000000000000
0.786476969718933 -7.488679885864258 -0.526921570301056 0.000000000000000
0.820087015628815 -7.939634323120117 -0.187092781066895 0.000000000000000
0.682617247104645 -6.324380397796631 -0.445239782333374 0.000000000000000
0.799091637134552 -8.398509025573730 -0.197902068495750 0.000000000000000
0.490907520055771 -4.035625457763672 -0.001695721759461 0.000000000000000
0.702442467212677 -7.346896171569824 0.169361889362335 0.000000000000000
0.720493674278259 -8.048335075378418 -0.377601951360703 0.000000000000000
0.298450380563736 -8.228273391723633 0.669705986976624 0.000000000000000
0.705432474613190 -8.304163932800293 -0.195573166012764 0.000000000000000
0.993716001510620 -7.416829109191895 0.041395436972380 0.000000000000000
0.654067933559418 -7.887277603149414 0.458002567291260 0.003921568859369
0.675535321235657 -8.291323661804199 2.222784280776978 0.000000000000000
0.961909353733063 -7.359731674194336 0.041049595922232 0.000000000000000
0.606390953063965 -7.484534740447998 0.172416642308235 0.000000000000000
0.653130829334259 -8.420749664306641 -0.591617584228516 0.003921568859369
0.627598166465759 -7.910614967346191 0.970520794391632 0.003921568859369
0.216543078422546 -7.602687358856201 0.130714431405067 0.000000000000000
0.520101428031921 -6.143025398254395 0.753240823745728 0.000000000000000
-0.176089286804199 -7.472067356109619 -0.700571537017822 0.003921568859369
-0.166269689798355 -7.292517185211182 -0.427334189414978 0.000000000000000
0.539889454841614 -7.755700111389160 0.178626120090485 0.000000000000000
0.783274710178375 -6.206701278686523 -0.401203930377960 0.000000000000000
-0.182023793458939 -6.739608287811279 -0.395198315382004 0.003921568859369
0.481874763965607 -7.597710609436035 -0.178872302174568 0.000000000000000
-0.334401458501816 -8.347784996032715 -0.783339381217957 0.000000000000000
-0.243815779685974 -7.026864528656006 0.079881288111210 0.003921568859369
0.854761242866516 -7.876434803009033 0.227785736322403 0.000000000000000
-0.283163636922836 -7.213527202606201 -0.677282154560089 0.000000000000000
-0.249145060777664 -6.742768287658691 -0.395811438560486 0.000000000000000
-0.349399358034134 -8.129646301269531 -0.286859303712845 0.000000000000000
0.783069014549255 -7.664706230163574 -0.494603544473648 0.000000000000000
-0.424642056226730 -8.377087593078613 -0.100075460970402 0.000000000000000
0.817349672317505 -8.548118591308594 0.047590542584658 0.000000000000000
0.759537577629089 -7.694349765777588 -0.496397912502289 0.003921568859369
0.640802621841431 -6.266017913818359 -0.404435545206070 0.003921568859369
0.022009283304214 -6.434190273284912 1.171734333038330 0.003921568859369
0.689086556434631 -7.423043251037598 0.214320197701454 0.000000000000000
-0.042106986045837 -7.557511806488037 0.129853844642639 0.000000000000000
0.631995916366577 -6.482545375823975 -0.418269604444504 0.000000000000000
-0.470952123403549 -8.231312751770020 -0.483391612768173 0.000000000000000
-0.452462941408157 -7.687261104583740 -0.722687363624573 0.000000000000000
-0.399628430604935 -7.099135875701904 -0.417244046926498 0.000000000000000
0.694738984107971 -8.000164031982422 -0.328635841608047 0.000000000000000
-0.169722318649292 -9.216204643249512 0.750803589820862 0.000000000000000
0.558865189552307 -6.382479667663574 -0.262392073869705 0.000000000000000
-0.512966275215149 -7.493774414062500 -0.089851252734661 0.000000000000000
-0.503605246543884 -7.161031723022461 -0.085957035422325 0.000000000000000
-0.501240015029907 -7.138388633728027 -0.672080039978027 0.000000000000000
-0.556779384613037 -7.674264907836914 0.087634414434433 0.000000000000000
-0.196128845214844 -7.478271961212158 -0.613691210746765 0.003921568859369
-0.186932682991028 -7.319176673889160 0.596375584602356 0.003921568859369
0.556281924247742 -8.002863883972168 -0.328479140996933 0.003921568859369
-0.497664272785187 -6.686459064483643 0.076080389320850 0.000000000000000
0.462412595748901 -6.686499118804932 -0.430980950593948 0.003921568859369
-0.612366616725922 -7.269144058227539 -0.087512463331223 0.003921568859369
0.107174679636955 -7.004612922668457 -0.165279328823090 0.000000000000000
-0.799100816249847 -8.584199905395508 0.098241753876209 0.000000000000000
-0.599385321140289 -6.742930889129639 0.076863326132298 0.000000000000000
-0.678230822086334 -7.373841762542725 -0.435098707675934 0.000000000000000
-0.618750095367432 -6.897917270660400 -0.245025679469109 0.000000000000000
-0.708561778068542 -7.406386852264404 -0.699396431446075 0.000000000000000
-0.726873040199280 -7.548808097839355 -0.445581883192062 0.000000000000000
-0.759734451770782 -7.604932785034180 -0.449076592922211 0.000000000000000
-0.755746543407440 -7.376055717468262 -0.697164475917816 0.000000000000000
-0.648372709751129 -6.583280563354492 0.075107410550117 0.000000000000000
-0.010594055056572 -6.879542827606201 0.843042612075806 0.000000000000000
-0.785328090190887 -7.400135517120361 -0.699770092964172 0.000000000000000
-0.103775694966316 -8.590529441833496 0.197654724121094 0.000000000000000
-0.646014988422394 -6.397892475128174 0.072983078658581 0.000000000000000
-0.601909995079041 -9.445035934448242 -0.499487698078156 0.000000000000000
-0.567541778087616 -8.718060493469238 -0.053324595093727 0.000000000000000
-0.131654545664787 -8.541322708129883 0.196541845798492 0.000000000000000
-1.020244240760803 -8.862998008728027 -0.523854792118073 0.000000000000000
-0.423994898796082 -7.174950122833252 -0.379940986633301 0.000000000000000
-0.404547274112701 -6.711628913879395 0.115458868443966 0.000000000000000
-0.945096433162689 -7.938825607299805 -0.095828622579575 0.003921568859369
0.223887056112289 -9.787670135498047 0.054376039654016 0.000000000000000
-1.154253005981445 -9.152321815490723 -0.110445782542229 0.000000000000000
-0.894897103309631 -7.290205478668213 -0.088364183902740 0.000000000000000
-0.894362092018127 -7.124250888824463 -0.086438059806824 0.000000000000000
-0.979691624641418 -7.656161308288574 -0.726340830326080 0.000000000000000
-0.201369911432266 -6.931362152099609 -0.164032831788063 0.003921568859369
-1.255461096763611 -8.974055290222168 -0.108567267656326 0.000000000000000
-0.260956853628159 -7.447171688079834 -0.806539356708527 0.000000000000000
-0.803256392478943 -6.275890827178955 0.071736715734005 0.000000000000000
-0.527619838714600 -6.593316078186035 0.113510623574257 0.000000000000000
-0.850528955459595 -9.336179733276367 0.764768540859222 0.000000000000000
-0.642253994941711 -7.346224308013916 -0.944413959980011 0.000000000000000
-0.497285693883896 -6.150679588317871 -0.038338016718626 0.000000000000000
-1.036952018737793 -7.509409904479980 -0.713686645030975 0.003921568859369
-1.006014823913574 -7.328676700592041 -0.262111693620682 0.003921568859369
-0.201063334941864 -6.250796318054199 1.676887154579163 0.000000000000000
-1.050957322120667 -7.450406551361084 -0.708476126194000 0.000000000000000
-0.676348567008972 -7.226015090942383 -0.929755330085754 0.000000000000000
-0.795405387878418 -8.156065940856934 0.140989288687706 0.000000000000000
-1.110568881034851 -7.634623527526855 -0.454117089509964 0.000000000000000
-0.659494876861572 -7.094233989715576 0.581443905830383 0.000000000000000
-1.199474215507507 -7.964725971221924 -0.096775107085705 0.000000000000000
-0.788866519927979 -7.875671863555908 -0.048680312931538 0.000000000000000
-1.170492053031921 -7.805328369140625 -0.743090331554413 0.000000000000000
-0.638084650039673 -6.731055736541748 -0.556644797325134 0.003921568859369
-0.863421678543091 -8.441639900207520 0.146054655313492 0.000000000000000
-1.142828583717346 -7.653163433074951 -0.455515027046204 0.000000000000000
-1.113593578338623 -7.492357254028320 -0.268412798643112 0.000000000000000
-1.230977416038513 -7.987410068511963 -0.097104087471962 0.000000000000000
-0.653995990753174 -6.680668354034424 -0.552734494209290 0.000000000000000
-0.873640537261963 -6.058308601379395 -0.361160546541214 0.000000000000000
-0.320062369108200 -6.378866195678711 -0.450183272361755 0.000000000000000
-0.789425373077393 -7.485987663269043 0.305439293384552 0.000000000000000
-0.802851319313049 -7.393103122711182 -0.953008651733398 0.000000000000000
-1.176273941993713 -7.403126239776611 -0.706243455410004 0.003921568859369
-0.297248691320419 -5.890105247497559 1.582711577415466 0.003921568859369
-0.727152347564697 -6.860701084136963 1.261068940162659 0.000000000000000
-0.086479783058167 -7.203698635101318 0.039340563118458 0.000000000000000
-1.189759969711304 -9.889896392822266 0.813038766384125 0.000000000000000
-0.773356020450592 -6.869121551513672 1.263797283172607 0.003921568859369
-1.221509456634521 -7.254859447479248 -0.088785693049431 0.000000000000000
-0.604048311710358 -8.309066772460938 1.022949576377869 0.000000000000000
-0.790775239467621 -6.830668449401855 1.257343888282776 0.000000000000000
-0.859420835971832 -7.113255977630615 -0.590351939201355 0.000000000000000
-1.340700387954712 -7.703183650970459 -0.460781455039978 0.000000000000000
-0.633891582489014 -8.313918113708496 1.023923516273499 0.000000000000000
-0.391878426074982 -6.047127723693848 1.627073168754578 0.003921568859369
-0.898574531078339 -7.363508701324463 1.356295704841614 0.000000000000000
-0.588590085506439 -7.636992931365967 -0.830275058746338 0.000000000000000
-0.849601686000824 -6.892938137054443 0.567326188087463 0.000000000000000
-0.422724962234497 -6.133167743682861 1.650874614715576 0.000000000000000
-0.188506484031677 -6.831451892852783 -0.441284120082855 0.003921568859369
-0.870346724987030 -6.861308574676514 0.565051198005676 0.000000000000000
-1.044124126434326 -7.922057628631592 1.460983872413635 0.000000000000000
-0.573410928249359 -7.058134078979492 -0.499510347843170 0.000000000000000
-0.376259982585907 -9.279335975646973 -0.598891139030457 0.000000000000000
-1.419939279556274 -7.686356067657471 -0.460780620574951 0.000000000000000
-0.502461314201355 -6.452719211578369 0.375871002674103 0.003921568859369
-1.011315584182739 -7.572568893432617 0.310167431831360 0.003921568859369
-1.034973621368408 -7.714161872863770 -0.412538439035416 0.003921568859369
-0.827128231525421 -9.223114013671875 1.137403368949890 0.000000000000000
-1.054740667343140 -7.832549095153809 1.445209145545959 0.000000000000000
-0.199794054031372 -3.756565332412720 -0.002197623020038 0.000000000000000
-1.302546262741089 -7.029124259948730 -0.086387149989605 0.000000000000000
-0.678702890872955 -7.723285198211670 -0.365024060010910 0.000000000000000
-0.310972929000854 -7.909096240997314 -0.325708359479904 0.000000000000000
-1.487791299819946 -7.737735748291016 -0.094988651573658 0.000000000000000
-0.443412542343140 -9.306555747985840 -0.600941538810730 0.003921568859369
-0.712062418460846 -7.771530151367188 -0.367449373006821 0.000000000000000
-0.870269596576691 -6.307513713836670 0.109348513185978 0.003921568859369
-0.348737359046936 -7.648357391357422 -0.494332790374756 0.000000000000000
-1.472695827484131 -7.535454750061035 -0.452857762575150 0.000000000000000
-0.705782711505890 -7.486025333404541 0.924080669879913 0.000000000000000
-1.368206739425659 -9.101785659790039 0.751936972141266 0.000000000000000
-1.566229820251465 -7.818255424499512 -0.096116058528423 0.003921568859369
-0.888703882694244 -6.283877372741699 0.109001822769642 0.000000000000000
-1.485409498214722 -7.471044540405273 -0.449362516403198 0.000000000000000
-0.618569374084473 -6.465262889862061 -0.002500627888367 0.000000000000000
-0.589690685272217 -6.251208782196045 -0.983872771263123 0.003921568859369
-1.509789705276489 -7.469429969787598 -0.449595212936401 0.000000000000000
-1.225607872009277 -7.994256019592285 1.479627847671509 0.000000000000000
-1.617517113685608 -7.825460433959961 -0.096489273011684 0.000000000000000
-0.967463374137878 -8.856317520141602 1.094878196716309 0.003921568859369
-1.179064273834229 -7.471475124359131 -0.224196135997772 0.000000000000000
-0.560917139053345 -8.847643852233887 -0.572396874427795 0.000000000000000
-1.056156873703003 -6.832849979400635 -0.367360562086105 0.000000000000000
-0.553628921508789 -8.463420867919922 -0.547792017459869 0.000000000000000
-1.290757656097412 -7.910367488861084 -0.425266742706299 0.000000000000000
-1.329110622406006 -7.958816051483154 -0.049986161291599 0.003921568859369
-0.480771988630295 -7.431744098663330 -0.481410533189774 0.000000000000000
-0.916510701179504 -7.879975795745850 -0.373938441276550 0.000000000000000
-1.170611739158630 -7.029980182647705 -0.915878951549530 0.000000000000000
-0.890461325645447 -7.516388893127441 -0.821841716766357 0.000000000000000
-1.240127682685852 -7.371877193450928 -0.616886556148529 0.000000000000000
-0.995445847511292 -6.168654918670654 0.107274979352951 0.000000000000000
-0.506367087364197 -7.413099765777588 -0.480385094881058 0.000000000000000
-1.182560443878174 -7.088797092437744 -0.381835728883743 0.000000000000000
-0.565990686416626 -7.990673065185547 -0.330104738473892 0.000000000000000
-1.110948324203491 -6.736792087554932 1.250757217407227 0.000000000000000
-1.088749170303345 -6.510996341705322 -0.196156099438667 0.000000000000000
-0.660962224006653 -5.753416538238525 1.558640837669373 0.003921568859369
-1.011036276817322 -7.768727779388428 -0.002793411957100 0.003921568859369
-0.944244027137756 -7.360152721405029 0.170797824859619 0.000000000000000
-0.710335373878479 -5.929391860961914 1.607278227806091 0.000000000000000
-0.967915773391724 -7.335972785949707 0.170335337519646 0.000000000000000
-1.346889495849609 -7.368502140045166 -0.397988557815552 0.000000000000000
-0.964341640472412 -7.314673900604248 0.907867848873138 0.000000000000000
-0.708481907844543 -5.784794807434082 1.568989992141724 0.000000000000000
-1.301430940628052 -5.705934524536133 -0.071420550346375 0.003921568859369
-1.006309270858765 -7.406539916992188 0.172094926238060 0.000000000000000
-0.662148356437683 -7.617960453033447 -0.315406620502472 0.003921568859369
-1.306544423103333 -5.654747486114502 -0.070855781435966 0.000000000000000
-1.318709611892700 -5.622291088104248 -0.070526048541069 0.000000000000000
-1.423676490783691 -7.361876487731934 -0.046638380736113 0.000000000000000
-0.854108214378357 -6.264850616455078 -0.688037455081940 0.003921568859369
-1.307775259017944 -8.818620681762695 1.096831440925598 0.000000000000000
-0.720243573188782 -7.671151638031006 -0.317855477333069 0.000000000000000
-0.851469278335571 -6.250238418579102 1.698344349861145 0.003921568859369
-1.486206412315369 -7.530984401702881 -0.047842588275671 0.000000000000000
-1.540808558464050 -7.765864849090576 -0.420784205198288 0.000000000000000
-1.310785055160522 -8.680009841918945 1.080124974250793 0.000000000000000
-1.132360935211182 -7.553788661956787 0.175843775272369 0.003921568859369
-1.359381675720215 -5.634219169616699 0.065594822168350 0.003921568859369
-0.743505120277405 -7.477965354919434 -0.310324877500534 0.003921568859369
-0.806291341781616 -5.790211677551270 1.575069069862366 0.000000000000000
-1.131593346595764 -7.397685050964355 -0.813829600811005 0.000000000000000
-1.380021691322327 -5.628230571746826 0.065595716238022 0.000000000000000
-0.765086412429810 -7.255088329315186 0.039714295417070 0.003921568859369
-2.446821212768555 -11.142608642578125 -0.070000939071178 0.000000000000000
-1.051224946975708 -6.847050666809082 -0.327609628438950 0.000000000000000
-1.435650706291199 -8.684744834899902 1.083537697792053 0.003921568859369
-1.221014142036438 -5.923975944519043 1.110816240310669 0.000000000000000
-1.705085277557373 -7.740077495574951 0.136480346322060 0.000000000000000
-1.221308231353760 -5.838667392730713 1.095759868621826 0.000000000000000
-1.780349731445312 -7.920083522796631 -0.050492934882641 0.000000000000000
-1.350573778152466 -7.814969539642334 0.976888239383698 0.000000000000000
-1.738725423812866 -7.758937358856201 0.651238799095154 0.000000000000000
-1.461483359336853 -5.478116512298584 0.064218141138554 0.003921568859369
-1.256068587303162 -5.801241874694824 1.090742468833923 0.003921568859369
-0.958537459373474 -7.487504959106445 -0.135331988334656 0.003921568859369
-1.420145750045776 -7.873721599578857 -0.002948204753920 0.003921568859369
-1.239012837409973 -7.026953697204590 0.164371907711029 0.000000000000000
-1.273277282714844 -5.788561820983887 1.089309215545654 0.000000000000000
-1.442518949508667 -7.844343662261963 -0.002944372827187 0.003921568859369
-1.560113191604614 -5.656559944152832 -0.071864485740662 0.000000000000000
-1.882075548171997 -7.968515396118164 0.670741081237793 0.003921568859369
-1.328052043914795 -5.830251216888428 -0.037820439785719 0.000000000000000
-1.007746100425720 -7.461039066314697 0.217374056577682 0.000000000000000
-1.879906654357910 -7.851140022277832 0.139120444655418 0.000000000000000
-1.941385269165039 -8.076353073120117 0.680491805076599 0.000000000000000
-1.306395292282104 -5.751114368438721 1.084291934967041 0.003921568859369
-1.321447849273682 -7.079327106475830 -0.002985533792526 0.000000000000000
-1.612200021743774 -5.700986385345459 -0.072690814733505 0.003921568859369
-1.127182960510254 -8.031208038330078 0.044263608753681 0.000000000000000
-1.924206733703613 -7.928792476654053 0.140510365366936 0.000000000000000
-1.294792890548706 -8.812740325927734 -0.159449920058250 0.000000000000000
-1.329905033111572 -5.702984333038330 0.100585281848907 0.000000000000000
-0.855029642581940 -6.202667236328125 0.033761207014322 0.003921568859369
-0.775375306606293 -3.673451423645020 -0.314331561326981 0.000000000000000
-1.206593036651611 -8.142119407653809 -0.533464431762695 0.000000000000000
-1.938865423202515 -7.765215873718262 0.655986189842224 0.000000000000000
-1.588686943054199 -5.434647083282471 0.064103588461876 0.000000000000000
-1.622468709945679 -6.401158809661865 0.113621801137924 0.000000000000000
-1.517047882080078 -6.044511795043945 0.511704027652740 0.000000000000000
-1.416441917419434 -6.934389114379883 1.909190535545349 0.000000000000000
-2.550244331359863 -7.977874755859375 -0.495870381593704 0.000000000000000
-1.321210622787476 -6.444546699523926 1.775703191757202 0.000000000000000
-1.705890893936157 -9.908077239990234 -0.650860548019409 0.000000000000000
-1.745728969573975 -6.564518928527832 0.116953074932098 0.003921568859369
-1.494909048080444 -6.939294815063477 -0.336499124765396 0.000000000000000
-1.753201484680176 -6.507795333862305 0.116053201258183 0.000000000000000
-1.542045116424561 -7.022418022155762 1.940239191055298 0.000000000000000
-1.414620399475098 -8.015613555908203 -0.146078288555145 0.003921568859369
-1.417038440704346 -5.359994411468506 0.095326729118824 0.000000000000000
-1.812900543212891 -6.618318080902100 0.279755353927612 0.000000000000000
-1.386808633804321 -7.748719215393066 0.042980365455151 0.003921568859369
-1.554209470748901 -5.606645107269287 -0.174543067812920 0.000000000000000
-1.067923784255981 -6.073155403137207 0.033162713050842 0.000000000000000
-1.106087684631348 -6.144008159637451 0.180274069309235 0.003921568859369
-2.429661512374878 -9.775292396545410 2.714129924774170 0.000000000000000
-2.279952287673950 -6.563837528228760 -0.085023529827595 0.000000000000000
-1.139098644256592 -6.189825057983398 0.181781232357025 0.000000000000000
-1.927963733673096 -6.596139430999756 0.280285030603409 0.003921568859369
-1.651986837387085 -5.703167438507080 -0.037907555699348 0.000000000000000
-1.255882978439331 -5.385122776031494 0.127387762069702 0.000000000000000
-2.535247325897217 -8.318017959594727 -0.463400751352310 0.000000000000000
-1.401595354080200 -5.898240089416504 1.640029549598694 0.003921568859369
-1.627143621444702 -5.565433025360107 -0.174069881439209 0.000000000000000
-1.662830591201782 -5.669911861419678 -0.037739865481853 0.000000000000000
-2.425798654556274 -9.377692222595215 1.194805026054382 0.000000000000000
-1.447831392288208 -5.981465339660645 1.664865732192993 0.000000000000000
-2.184853076934814 -7.198089599609375 1.383764863014221 0.000000000000000
-1.632194042205811 -5.517191410064697 -0.172782987356186 0.000000000000000
-1.038619756698608 -4.500722885131836 -0.330623030662537 0.000000000000000
-1.646047115325928 -5.557248592376709 -0.311053693294525 0.000000000000000
-1.502242326736450 -6.090403079986572 1.696945428848267 0.000000000000000
-2.244415044784546 -7.215477943420410 0.620786726474762 0.000000000000000
-1.367295742034912 -5.491694927215576 -0.002897798782215 0.003921568859369
-3.397811889648438 -10.402493476867676 -0.067649297416210 0.000000000000000
-1.686851739883423 -5.555689811706543 -0.311680376529694 0.000000000000000
-1.813794851303101 -5.850206375122070 -0.039039731025696 0.000000000000000
-1.557289123535156 -7.322667598724365 -0.486924439668655 0.000000000000000
-2.131400585174561 -7.947038650512695 2.221586942672729 0.000000000000000
-1.963047742843628 -7.298528194427490 0.174502059817314 0.003921568859369
-3.491554021835327 -10.435423851013184 0.190117537975311 0.000000000000000
-1.874876022338867 -5.891217708587646 0.509005069732666 0.000000000000000
-1.571788072586060 -5.948418617248535 1.665908932685852 0.003921568859369
-1.478205561637878 -5.594168186187744 -0.003032381180674 0.000000000000000
-1.281464099884033 -4.232670307159424 -0.577106177806854 0.000000000000000
-1.826861023902893 -5.711682319641113 -0.038419898599386 0.000000000000000
-2.280626773834229 -6.942254066467285 0.600847601890564 0.000000000000000
-2.676350831985474 -8.015522003173828 1.554292678833008 0.000000000000000
-4.896683216094971 -13.886181831359863 -0.090265654027462 0.000000000000000
-3.005136489868164 -7.647721767425537 0.093620374798775 0.000000000000000
-1.891687035560608 -6.826776504516602 0.414006143808365 0.000000000000000
-1.333641767501831 -5.919858932495117 0.032576061785221 0.000000000000000
-4.133100986480713 -11.590001106262207 0.501437246799469 0.000000000000000
-2.404252052307129 -7.049195289611816 0.612552821636200 0.000000000000000
-1.551133513450623 -5.553884029388428 -0.003023748286068 0.003921568859369
-2.124133110046387 -7.207545280456543 0.173552617430687 0.000000000000000
-1.569780588150024 -5.545201301574707 -0.275321930646896 0.000000000000000
-4.596612930297852 -12.543838500976562 2.449820280075073 0.000000000000000
-1.903272032737732 -6.470009326934814 0.394524633884430 0.003921568859369
-3.665764808654785 -10.045020103454590 0.877404272556305 0.000000000000000
-1.636662602424622 -5.679643154144287 -0.142525002360344 0.003921568859369
-1.704400897026062 -6.899120807647705 -0.128525316715240 0.000000000000000
-2.215723276138306 -7.311695575714111 0.176518261432648 0.000000000000000
-2.110277175903320 -7.002782821655273 0.427708953619003 0.000000000000000
-1.638131618499756 -5.619129180908203 -0.279611200094223 0.000000000000000
-5.225254535675049 -16.130661010742188 2.088287591934204 0.003921568859369
-8.816112518310547 -22.923231124877930 4.491092681884766 0.003921568859369
-1.652602434158325 -5.661566257476807 -0.142242580652237 0.000000000000000
-2.927870273590088 -9.297538757324219 0.569258868694305 0.000000000000000
-3.235727071762085 -8.774034500122070 0.381652772426605 0.000000000000000
-3.106769561767578 -11.334973335266113 -0.210318401455879 0.000000000000000
-1.683929085731506 -5.565172195434570 -0.277926445007324 0.000000000000000
-1.706132769584656 -6.563137531280518 0.196393758058548 0.003921568859369
-4.493188858032227 -13.378496170043945 -0.665745437145233 0.000000000000000
-2.102956295013428 -5.770735263824463 -0.330240011215210 0.000000000000000
-1.708614706993103 -6.506472110748291 0.194761499762535 0.003921568859369
-1.437066435813904 -5.550821304321289 0.030627924948931 0.000000000000000
-3.102161407470703 -8.043832778930664 -0.460877269506454 0.000000000000000
-1.894031405448914 -5.911070823669434 -0.003185637760907 0.000000000000000
-5.006808757781982 -10.929594993591309 -0.711023986339569 0.000000000000000
-3.254220008850098 -7.245141506195068 -0.097203359007835 0.000000000000000
-1.366011381149292 -4.430715560913086 -0.333625763654709 0.000000000000000
-3.700336456298828 -9.283106803894043 0.821084618568420 0.000000000000000
-1.568642139434814 -5.692797660827637 -0.107671879231930 0.000000000000000
-1.790104269981384 -5.452558517456055 0.336645305156708 0.000000000000000
-1.559263944625854 -5.532516956329346 0.030752699822187 0.000000000000000
-2.322102069854736 -6.709256649017334 0.164204820990562 0.000000000000000
-2.177999973297119 -7.388947963714600 0.223271265625954 0.000000000000000
-2.160824298858643 -6.294043064117432 -0.317783147096634 0.000000000000000
-1.766668200492859 -4.600206375122070 -0.266970366239548 0.000000000000000
-2.212719917297363 -7.406827449798584 0.224084630608559 0.000000000000000
-2.239849090576172 -7.406073093414307 0.224318757653236 0.000000000000000
-3.755138874053955 -8.896023750305176 -0.515618085861206 0.000000000000000
-2.534690856933594 -6.095207214355469 -0.042217228561640 0.000000000000000
-2.282831192016602 -7.296277046203613 0.221649721264839 0.000000000000000
-6.399526596069336 -14.331094741821289 2.879108190536499 0.003921568859369
-2.030223846435547 -4.925199031829834 -0.288474321365356 0.000000000000000
-2.044900417327881 -6.476959705352783 0.196984738111496 0.000000000000000
-3.691155195236206 -10.924149513244629 0.334358096122742 0.000000000000000
-5.339309215545654 -11.737448692321777 2.369346141815186 0.000000000000000
-4.572922229766846 -11.334036827087402 3.300561666488647 0.000000000000000
-3.071475982666016 -7.758999347686768 -0.003541924990714 0.003921568859369
-1.881299495697021 -4.369370937347412 0.082111313939095 0.000000000000000
-4.036725997924805 -11.375739097595215 -0.784103453159332 0.000000000000000
-6.472057819366455 -13.489649772644043 0.259107470512390 0.000000000000000
-2.067143440246582 -5.286159992218018 1.547648310661316 0.000000000000000
-5.258867263793945 -12.218953132629395 -0.004145618062466 0.000000000000000
-3.807221174240112 -8.955094337463379 1.205610275268555 0.000000000000000
-6.187596321105957 -12.288645744323730 0.238286525011063 0.000000000000000
-3.191963672637939 -5.846416950225830 -0.082584045827389 0.000000000000000
-3.399863719940186 -7.847132205963135 -0.937973916530609 0.000000000000000
-3.763573408126831 -6.804849147796631 0.088786780834198 0.000000000000000
-5.080660343170166 -10.104904174804688 0.930456757545471 0.000000000000000
-4.075129985809326 -8.145950317382812 0.372958451509476 0.000000000000000
-4.425954341888428 -8.799609184265137 -0.527113258838654 0.000000000000000
-3.216284990310669 -6.331154823303223 -0.045490924268961 0.000000000000000
-7.554654121398926 -14.154405593872070 2.946516990661621 0.003921568859369
-4.635190963745117 -9.755531311035156 2.924893856048584 0.000000000000000
-3.537399768829346 -6.743111610412598 1.410682439804077 0.000000000000000
-2.521275281906128 -6.280230045318604 0.196807429194450 0.000000000000000
-4.690476417541504 -8.646658897399902 0.402922660112381 0.000000000000000
-5.892022132873535 -13.523283004760742 0.428265005350113 0.000000000000000
-4.046842098236084 -7.468542575836182 1.571912527084351 0.000000000000000
-4.896982192993164 -9.940110206604004 0.256973087787628 0.000000000000000
-4.156536579132080 -7.595621109008789 0.715258657932281 0.000000000000000
-4.917031764984131 -8.824426651000977 0.413817793130875 0.000000000000000
-4.848581790924072 -8.709091186523438 1.840805888175964 0.000000000000000
-1.756822824478149 -3.868122577667236 -0.309566974639893 0.000000000000000
-1.940292835235596 -4.760728836059570 0.149790942668915 0.000000000000000
-2.868562698364258 -5.959096431732178 0.825227141380310 0.000000000000000
-2.294569015502930 -4.838839054107666 0.670852720737457 0.000000000000000
-2.358945131301880 -4.425311565399170 0.938077867031097 0.000000000000000
-9.162564277648926 -15.380646705627441 3.287811279296875 0.003921568859369
-5.138324260711670 -7.885579109191895 -0.115176297724247 0.000000000000000
-8.689770698547363 -14.503224372863770 -0.103737942874432 0.000000000000000
-2.645554065704346 -5.315926074981689 0.350563585758209 0.000000000000000
-4.102180957794189 -8.871369361877441 0.284319549798965 0.000000000000000
-2.963440179824829 -6.526881217956543 0.038732819259167 0.000000000000000
-4.851878643035889 -9.151995658874512 1.285845994949341 0.000000000000000
-2.059121847152710 -4.680350303649902 0.027048772200942 0.000000000000000
-2.159113407135010 -4.840430259704590 0.028120275586843 0.000000000000000
-4.109752178192139 -7.714750289916992 0.513853728771210 0.000000000000000
-5.599606037139893 -9.162321090698242 1.983450412750244 0.000000000000000
-10.342597961425781 -16.395708084106445 3.559525966644287 0.003921568859369
-2.776892900466919 -5.257229328155518 0.138337850570679 0.000000000000000
-5.595987796783447 -10.065713882446289 0.675404012203217 0.000000000000000
-6.313744068145752 -11.102625846862793 0.748528301715851 0.000000000000000
-9.484569549560547 -14.622623443603516 0.712299942970276 0.003921568859369
-5.840453147888184 -9.179770469665527 0.897904694080353 0.000000000000000
-3.076321840286255 -6.258685111999512 -0.293470472097397 0.000000000000000
-1.117616891860962 -2.610689401626587 -0.124270275235176 0.000000000000000
-7.521676063537598 -10.318139076232910 0.146769389510155 0.000000000000000
-10.106060028076172 -15.215437889099121 0.746437430381775 0.003921568859369
-4.227998733520508 -8.190200805664062 0.050412598997355 0.000000000000000
-3.575163364410400 -6.954666614532471 -0.142894655466080 0.000000000000000
-5.898756027221680 -9.939723968505859 -0.004188080318272 0.003921568859369
-6.184663772583008 -8.436388969421387 0.120084501802921 0.000000000000000
-4.878735542297363 -9.287983894348145 0.305479615926743 0.000000000000000
-2.016930341720581 -4.165696620941162 -0.197862043976784 0.000000000000000
-2.815025806427002 -5.003897666931152 1.577337384223938 0.000000000000000
-4.658837318420410 -8.828886032104492 -0.416864216327667 0.000000000000000
-7.373597145080566 -10.904718399047852 2.428008794784546 0.000000000000000
-3.824232339859009 -7.227491378784180 -0.537524521350861 0.000000000000000
-2.538953065872192 -4.940906047821045 0.029607299715281 0.000000000000000
-3.374816417694092 -5.113116741180420 0.106523126363754 0.000000000000000
-8.860566139221191 -12.725000381469727 2.855415105819702 0.000000000000000
-3.987963438034058 -5.922138690948486 -0.387112408876419 0.000000000000000
-5.286212921142578 -7.711186885833740 0.774028658866882 0.000000000000000
-5.267610549926758 -7.628979206085205 -0.499109297990799 0.000000000000000
-2.088911294937134 -4.029521942138672 0.133082002401352 0.000000000000000
-9.281862258911133 -14.452929496765137 1.005487680435181 0.000000000000000
-5.562620162963867 -7.974182605743408 0.399650484323502 0.000000000000000
-5.060927391052246 -7.293136596679688 0.735683798789978 0.000000000000000
-3.302616357803345 -6.067577838897705 -0.291407585144043 0.000000000000000
-7.390784263610840 -11.511229515075684 -0.972847700119019 0.000000000000000
-11.508560180664062 -15.924638748168945 0.803151369094849 0.003921568859369
-4.688604354858398 -6.686751365661621 0.336475014686584 0.000000000000000
-6.752148628234863 -11.669584274291992 -0.560176610946655 0.000000000000000
-6.211462497711182 -9.614367485046387 0.266208797693253 0.000000000000000
-5.154411315917969 -8.971215248107910 0.301614999771118 0.000000000000000
-4.583399772644043 -7.216576576232910 1.067095518112183 0.000000000000000
-6.514360904693604 -8.880916595458984 -0.069139100611210 0.000000000000000
-6.271243572235107 -10.471083641052246 0.355656594038010 0.000000000000000
-3.544974803924561 -4.982059955596924 0.106466740369797 0.000000000000000
-6.695061683654785 -9.047400474548340 0.930352985858917 0.000000000000000
-2.427960634231567 -3.922770977020264 1.279248714447021 0.000000000000000
-3.561475276947021 -4.969229221343994 0.106471069157124 0.000000000000000
-6.790248394012451 -10.087773323059082 1.510844111442566 0.000000000000000
-9.065892219543457 -11.938035964965820 0.614221334457397 0.000000000000000
-4.596115589141846 -6.250361919403076 0.645266294479370 0.000000000000000
-5.240445137023926 -7.019585132598877 0.360954046249390 0.000000000000000
-3.669142246246338 -6.098215103149414 0.208247363567352 0.000000000000000
-1.187348127365112 -2.071639776229858 0.145850509405136 0.000000000000000
-6.283193111419678 -8.159834861755371 0.179278537631035 0.000000000000000
-1.145088434219360 -1.998676776885986 0.140977025032043 0.000000000000000
-5.652758598327637 -8.106642723083496 0.582315862178802 0.000000000000000
-4.783191204071045 -6.926176071166992 2.300712108612061 0.000000000000000
-2.475201606750488 -3.742660522460938 -0.003516834927723 0.000000000000000
-8.022811889648438 -11.007580757141113 0.800021767616272 0.000000000000000
-8.895998954772949 -10.925063133239746 0.245228245854378 0.000000000000000
-8.660149574279785 -11.686576843261719 0.853907048702240 0.000000000000000
-8.213097572326660 -11.105904579162598 3.748488426208496 0.000000000000000
-6.287416458129883 -8.534123420715332 0.624524354934692 0.000000000000000
-3.611570119857788 -4.165218830108643 -0.203517243266106 0.000000000000000
-8.487921714782715 -11.377002716064453 3.850955963134766 0.000000000000000
-4.441386222839355 -6.712839126586914 -0.147576928138733 0.000000000000000
-4.140735626220703 -5.638422966003418 -0.778245389461517 0.000000000000000
