# This PCD file was generated using the MATLAB® pcwrite function
# from Computer Vision Toolbox®.
# .PCD v.7 - Point Cloud Data file format
VERSION .7
FIELDS x y z intensity
SIZE 8 8 8 8
TYPE F F F F
COUNT 1 1 1 1
WIDTH 649
HEIGHT 1
VIEWPOINT 0 0 0 1 0 0 0
POINTS 649
DATA ascii
-7.646086692810059 1.704205155372620 2.019742012023926 0.000000000000000
-9.298410415649414 3.074415445327759 -0.884542405605316 0.000000000000000
-10.822364807128906 3.031086206436157 -0.890971004962921 0.000000000000000
-21.760599136352539 3.970858573913574 -0.886862754821777 0.003921568859369
-9.370418548583984 3.134426116943359 -0.892714560031891 0.000000000000000
-12.579829216003418 2.942186832427979 0.295592933893204 0.000000000000000
-10.685437202453613 3.030851840972900 -0.880226194858551 0.000000000000000
-21.742673873901367 4.044965267181396 -0.886687934398651 0.003921568859369
-9.487789154052734 3.209164619445801 -0.905347526073456 0.000000000000000
-10.587398529052734 3.039223432540894 -0.872736036777496 0.000000000000000
-21.772314071655273 4.124311923980713 -0.888467788696289 0.003921568859369
-5.766540050506592 1.326849222183228 -0.128651365637779 0.000000000000000
-9.198132514953613 3.144438266754150 -0.877836167812347 0.000000000000000
-12.772492408752441 3.080565452575684 0.300725638866425 0.000000000000000
-10.450168609619141 3.039079904556274 -0.861991286277771 0.000000000000000
-5.498385906219482 1.554194808006287 0.096560895442963 0.000000000000000
-21.737440109252930 4.199099063873291 -0.887640953063965 0.003921568859369
-9.464582443237305 3.274747848510742 -0.905336558818817 0.000000000000000
-10.336496353149414 3.043176412582397 -0.853199362754822 0.000000000000000
-8.771439552307129 2.122334957122803 1.073002934455872 0.000000000000000
-4.091784477233887 1.146803855895996 0.324552416801453 0.000000000000000
-21.773597717285156 4.284038066864014 -0.889745771884918 0.003921568859369
-9.453093528747559 3.306676387786865 -0.905331254005432 0.000000000000000
-10.203868865966797 3.040655851364136 -0.842780649662018 0.000000000000000
-21.785928726196289 4.364497661590576 -0.890873610973358 0.003921568859369
-2.492218017578125 0.677404999732971 -0.011268893256783 0.000000000000000
-9.228861808776855 3.259027004241943 -0.884139716625214 0.000000000000000
-10.140432357788086 3.056863784790039 -0.838219583034515 0.000000000000000
-21.786991119384766 4.438923358917236 -0.891513526439667 0.003921568859369
-2.318041324615479 0.631295979022980 -0.010223942808807 0.000000000000000
-9.429779052734375 3.370420217514038 -0.905320644378662 0.000000000000000
-9.954248428344727 3.037751436233521 -0.823245108127594 0.000000000000000
-10.423159599304199 2.649761199951172 1.285568475723267 0.000000000000000
-21.797948837280273 4.523376941680908 -0.892640650272369 0.003921568859369
-2.334988594055176 0.644020617008209 -0.010338792577386 0.000000000000000
-9.120075225830078 3.289151906967163 -0.875580489635468 0.000000000000000
-9.879548072814941 3.049124717712402 -0.817708015441895 0.000000000000000
-11.645040512084961 2.424754858016968 -0.470240503549576 0.000000000000000
-3.584156751632690 1.236352443695068 -0.038767211139202 0.000000000000000
-5.336325645446777 1.897834062576294 -0.499829858541489 0.000000000000000
-9.783985137939453 3.056790590286255 -0.810888111591339 0.000000000000000
-14.480112075805664 3.084274530410767 0.424130856990814 0.000000000000000
-21.878641128540039 4.694981575012207 -0.897483408451080 0.003921568859369
-9.712615966796875 3.070058822631836 -0.805676639080048 0.000000000000000
-7.649720191955566 2.032828569412231 0.002018724568188 0.000000000000000
-6.143787860870361 1.927382588386536 -0.033683322370052 0.000000000000000
-9.610987663269043 3.072861194610596 -0.797862231731415 0.000000000000000
-7.772151947021484 2.465270757675171 0.139324575662613 0.000000000000000
-6.837462902069092 1.492491722106934 0.040903210639954 0.000000000000000
-9.573733329772949 3.096474170684814 -0.795579433441162 0.000000000000000
-9.547758102416992 3.123697757720947 -0.794272780418396 0.000000000000000
-12.857360839843750 2.915350198745728 -0.823827087879181 0.000000000000000
-9.541668891906738 3.154004812240601 -0.794593632221222 0.000000000000000
-10.461146354675293 3.467669963836670 1.958701729774475 0.000000000000000
-9.523064613342285 3.183619976043701 -0.793937742710114 0.000000000000000
-9.485546112060547 3.206567764282227 -0.791655063629150 0.000000000000000
-9.268866539001465 3.671424865722656 -0.901948094367981 0.000000000000000
-9.484437942504883 3.245779275894165 -0.792625606060028 0.000000000000000
-6.845999717712402 2.312254190444946 0.568380892276764 0.000000000000000
-7.896582126617432 2.683740377426147 1.470062136650085 0.000000000000000
-9.260965347290039 3.701086282730103 -0.902315258979797 0.000000000000000
-9.470438957214355 3.273256540298462 -0.792295753955841 0.000000000000000
-9.470201492309570 3.309289693832397 -0.793266713619232 0.000000000000000
-4.581546783447266 1.543342709541321 -0.236194759607315 0.000000000000000
-8.994229316711426 3.171682596206665 -0.752916038036346 0.000000000000000
-9.452913284301758 3.377318143844604 -0.794255197048187 0.000000000000000
-10.369185447692871 3.204605340957642 -0.736768424510956 0.000000000000000
-9.422388076782227 3.402278184890747 -0.792623639106750 0.000000000000000
-10.316157341003418 3.226268053054810 -0.733694612979889 0.003921568859369
-9.440295219421387 3.445350646972656 -0.795221686363220 0.000000000000000
-10.228959083557129 3.236464023590088 -0.728110432624817 0.000000000000000
-9.420761108398438 3.474390983581543 -0.794566214084625 0.000000000000000
-8.396884918212891 2.238147974014282 0.050827618688345 0.000000000000000
-5.924497604370117 1.854574441909790 -0.635852277278900 0.000000000000000
-10.240334510803223 3.278602123260498 -0.729779005050659 0.003921568859369
-9.404852867126465 3.504771232604980 -0.794236063957214 0.000000000000000
-10.963974952697754 2.948111772537231 0.324014782905579 0.000000000000000
-9.858078956604004 4.266306877136230 -0.974773347377777 0.000000000000000
-5.333732604980469 2.246066570281982 0.066253788769245 0.000000000000000
-10.175837516784668 3.295587539672852 -0.725868582725525 0.003921568859369
-9.422285079956055 3.548094272613525 -0.796834111213684 0.000000000000000
-8.262748718261719 3.096578836441040 1.559770822525024 0.000000000000000
-9.095299720764160 2.969076156616211 -0.997765958309174 0.000000000000000
-9.861280441284180 4.307824611663818 -0.976626574993134 0.000000000000000
-10.118903160095215 3.314716100692749 -0.722516059875488 0.000000000000000
-9.417261123657227 3.582828998565674 -0.797479987144470 0.000000000000000
-9.059057235717773 2.989225864410400 -0.994763493537903 0.000000000000000
-10.077645301818848 3.336939573287964 -0.720279693603516 0.000000000000000
-9.379387855529785 3.602741718292236 -0.795198023319244 0.000000000000000
-9.063075065612793 3.026503562927246 -0.996471881866455 0.000000000000000
-10.042716026306152 3.364934444427490 -0.718600690364838 0.000000000000000
-9.373519897460938 3.638963699340820 -0.795843720436096 0.000000000000000
-9.121822357177734 4.086214542388916 -0.905257463455200 0.000000000000000
-10.004540443420410 3.389703273773193 -0.716643035411835 0.000000000000000
-9.379233360290527 3.678095340728760 -0.797465622425079 0.000000000000000
-5.566166877746582 2.132652044296265 0.465843737125397 0.000000000000000
-8.341339111328125 3.290095329284668 -0.048337053507566 0.000000000000000
-9.970070838928223 3.415577888488770 -0.714964330196381 0.000000000000000
-9.370025634765625 3.711272716522217 -0.797786235809326 0.000000000000000
-7.965858459472656 2.706975936889648 2.180305957794189 0.000000000000000
-9.201862335205078 4.197131156921387 -0.916397273540497 0.000000000000000
-9.962447166442871 3.448965311050415 -0.715238451957703 0.000000000000000
-9.383457183837891 3.751983880996704 -0.800059020519257 0.000000000000000
-2.777165412902832 1.179961323738098 -0.254555404186249 0.000000000000000
-9.915152549743652 3.471821308135986 -0.713023304939270 0.000000000000000
-9.379852294921875 3.789798974990845 -0.801381289958954 0.000000000000000
-9.170761108398438 4.260885238647461 -0.916789174079895 0.000000000000000
-9.899223327636719 3.504010200500488 -0.712739586830139 0.000000000000000
-9.399629592895508 3.835419893264771 -0.804304778575897 0.000000000000000
-8.893815040588379 3.621915340423584 1.703296780586243 0.000000000000000
-9.177337646484375 4.302258014678955 -0.919014394283295 0.000000000000000
-9.879443168640137 3.534748554229736 -0.712177038192749 0.000000000000000
-9.378845214843750 3.864052772521973 -0.803649485111237 0.000000000000000
-6.916607379913330 2.105642080307007 0.042384415864944 0.000000000000000
-9.863303184509277 3.566786766052246 -0.711893320083618 0.000000000000000
-9.379949569702148 3.902030467987061 -0.804946243762970 0.000000000000000
-9.850792884826660 3.600159645080566 -0.711888551712036 0.000000000000000
-9.369930267333984 3.935301065444946 -0.805267095565796 0.000000000000000
-8.133377075195312 3.398571968078613 1.559788584709167 0.000000000000000
-9.841893196105957 3.634911537170410 -0.712162792682648 0.000000000000000
-9.356135368347168 3.966952562332153 -0.805262565612793 0.000000000000000
-9.829142570495605 3.668214082717896 -0.712158083915710 0.000000000000000
-9.360459327697754 4.006617069244385 -0.806884646415710 0.000000000000000
-5.757997512817383 2.436708450317383 -0.172004863619804 0.000000000000000
-6.733276367187500 2.502511262893677 -0.480933517217636 0.000000000000000
-9.364619255065918 4.046359062194824 -0.808506727218628 0.000000000000000
-10.772155761718750 4.115247726440430 0.002187318168581 0.003921568859369
-9.821865081787109 3.741973876953125 -0.713543176651001 0.000000000000000
-9.383151054382324 4.092725753784180 -0.811430037021637 0.000000000000000
-9.805033683776855 3.773732185363770 -0.713259518146515 0.000000000000000
-9.408727645874023 4.142573833465576 -0.815003991127014 0.000000000000000
-9.803576469421387 3.809698581695557 -0.714091777801514 0.000000000000000
-9.405808448791504 4.177757263183594 -0.815975606441498 0.000000000000000
-9.812407493591309 3.851848602294922 -0.715760529041290 0.000000000000000
-9.430964469909668 4.227955341339111 -0.819549441337585 0.000000000000000
-9.797419548034668 3.886544227600098 -0.716059386730194 0.000000000000000
-10.879504203796387 4.945445537567139 2.133170127868652 0.000000000000000
-9.809607505798340 3.930370569229126 -0.718007206916809 0.000000000000000
-3.736526489257812 1.638240098953247 -0.020201489329338 0.000000000000000
-9.803191184997559 3.966646432876587 -0.718560576438904 0.000000000000000
-4.474873542785645 1.508798360824585 -0.179281681776047 0.000000000000000
-10.169532775878906 4.698093414306641 1.996831417083740 0.000000000000000
-9.822381973266602 4.013765335083008 -0.721066117286682 0.000000000000000
-9.845029830932617 4.062631130218506 -0.723850667476654 0.000000000000000
-9.867451667785645 4.111702919006348 -0.726635098457336 0.003921568859369
-9.842055320739746 4.140345573425293 -0.725793898105621 0.003921568859369
-4.810703277587891 1.958828091621399 -0.112642578780651 0.000000000000000
-9.853128433227539 4.184862136840820 -0.727741658687592 0.000000000000000
-16.734407424926758 8.247406005859375 3.356779575347900 0.003921568859369
-8.362154006958008 4.154161453247070 1.657428741455078 0.000000000000000
-5.051935195922852 2.185357332229614 0.001990433782339 0.000000000000000
-5.019299983978271 1.896298408508301 0.031597010791302 0.000000000000000
-11.667734146118164 4.604674816131592 0.359536737203598 0.000000000000000
-9.477980613708496 4.369808197021484 0.594976305961609 0.000000000000000
-6.248222827911377 3.254052639007568 0.556682169437408 0.000000000000000
-5.604792118072510 2.975458145141602 1.113446950912476 0.000000000000000
-9.403443336486816 4.026233196258545 0.292241513729095 0.000000000000000
-8.394742012023926 4.138913631439209 0.214119672775269 0.000000000000000
-8.898644447326660 5.061271190643311 1.824632883071899 0.000000000000000
-9.671030998229980 4.380047321319580 -0.178716123104095 0.000000000000000
-10.501875877380371 4.767587661743164 0.330453783273697 0.000000000000000
-8.680041313171387 3.953444242477417 0.272315055131912 0.000000000000000
-7.374056816101074 4.859901905059814 0.102350696921349 0.000000000000000
-10.155487060546875 6.078814029693604 2.116747856140137 0.000000000000000
-10.653679847717285 5.105662345886230 -0.199586749076843 0.000000000000000
-5.363317012786865 2.501325607299805 0.166876003146172 0.000000000000000
-4.803607463836670 2.897452592849731 -0.279773801565170 0.000000000000000
-9.009164810180664 5.673131465911865 0.426605552434921 0.000000000000000
-3.531439304351807 1.926435232162476 0.001907470403239 0.000000000000000
-7.523935317993164 4.782246589660645 1.585655212402344 0.000000000000000
-6.201171875000000 3.534326314926147 1.851065874099731 0.000000000000000
-6.720319747924805 4.313616275787354 1.416285991668701 0.000000000000000
-4.221659660339355 2.152616739273071 0.028057804331183 0.000000000000000
-3.599307775497437 2.044162988662720 0.092738859355450 0.000000000000000
-3.396516323089600 1.790475368499756 -0.061040770262480 0.000000000000000
-6.151974201202393 4.180655956268311 1.317939639091492 0.000000000000000
-3.428340196609497 1.823380827903748 -0.061805475503206 0.000000000000000
-14.109951019287109 10.198658943176270 3.137322425842285 0.003921568859369
-7.744053363800049 4.488213062286377 -0.150067716836929 0.000000000000000
-13.332315444946289 9.917483329772949 2.993748188018799 0.003921568859369
-6.650004386901855 5.431436061859131 -0.095434352755547 0.000000000000000
-4.000783443450928 2.897064208984375 0.387918055057526 0.000000000000000
-11.112455368041992 9.359227180480957 -0.831874728202820 0.000000000000000
-7.067017555236816 5.427286624908447 0.154070809483528 0.000000000000000
-5.570864200592041 3.854147672653198 0.807329356670380 0.000000000000000
-8.509301185607910 5.519685268402100 -0.171132028102875 0.000000000000000
-2.815701961517334 2.098059177398682 0.059540599584579 0.000000000000000
-1.977702736854553 1.274712085723877 0.264482915401459 0.000000000000000
-2.908521413803101 2.206202745437622 -0.018221642822027 0.000000000000000
-5.951982498168945 4.773878574371338 0.304755181074142 0.000000000000000
-11.079335212707520 9.534524917602539 -0.417224407196045 0.003921568859369
-2.792729854583740 2.068677902221680 0.077974937856197 0.000000000000000
-5.546298027038574 4.499561309814453 1.863410472869873 0.000000000000000
-5.832576274871826 5.270424365997314 0.136011675000191 0.000000000000000
-6.825867176055908 5.164761066436768 -0.143853157758713 0.000000000000000
-7.770495414733887 5.951945781707764 0.281156748533249 0.000000000000000
-5.154792785644531 4.053050994873047 0.038887031376362 0.000000000000000
-11.207033157348633 10.064287185668945 3.989264726638794 0.000000000000000
-3.196531772613525 3.115905046463013 0.784524619579315 0.000000000000000
-10.352519989013672 10.096591949462891 3.830791950225830 0.000000000000000
-4.015317916870117 4.716599464416504 -0.068435013294220 0.000000000000000
-11.787510871887207 11.931332588195801 4.451066970825195 0.003921568859369
-4.645968914031982 4.753981590270996 -0.262485921382904 0.000000000000000
-4.375184059143066 5.604156494140625 1.272476553916931 0.000000000000000
-9.863923072814941 13.427288055419922 3.015672922134399 0.003921568859369
-4.272567272186279 5.674884796142578 1.272423028945923 0.000000000000000
-4.104211330413818 5.602581501007080 -0.196513712406158 0.000000000000000
-8.757906913757324 12.610561370849609 2.778126716613770 0.000000000000000
-6.017346858978271 8.693096160888672 1.906791210174561 0.000000000000000
-4.920830249786377 7.913508892059326 0.108983188867569 0.000000000000000
-4.951950550079346 7.316667556762695 -0.251743346452713 0.000000000000000
-10.815692901611328 16.896783828735352 3.638536691665649 0.003921568859369
-1.688796639442444 1.923758983612061 0.071893393993378 0.000000000000000
-2.043610572814941 2.947739839553833 0.142723008990288 0.000000000000000
-2.571352958679199 3.450198173522949 0.244791284203529 0.000000000000000
-3.662715196609497 5.668803215026855 0.543216586112976 0.000000000000000
-6.373286724090576 9.227942466735840 0.259983032941818 0.000000000000000
-6.321381568908691 10.196307182312012 2.168675184249878 0.000000000000000
-3.618703842163086 5.772025585174561 -0.037280999124050 0.000000000000000
-3.562102317810059 6.483291149139404 -0.083242423832417 0.000000000000000
-3.544891357421875 5.145345211029053 1.643577098846436 0.000000000000000
-2.909278392791748 4.194265842437744 0.001576482551172 0.000000000000000
-8.888741493225098 13.514412879943848 4.304694652557373 0.003921568859369
-3.843789339065552 6.407236099243164 1.344087719917297 0.000000000000000
-4.404383182525635 8.479365348815918 -0.108394615352154 0.000000000000000
-2.460176944732666 4.036625385284424 0.378721952438354 0.000000000000000
-2.312413930892944 3.771167278289795 0.788573622703552 0.000000000000000
-4.412667274475098 6.908908843994141 -0.186489894986153 0.000000000000000
-2.320472717285156 4.419619560241699 -0.169476389884949 0.000000000000000
-5.872500896453857 8.488069534301758 -0.176337197422981 0.000000000000000
-6.668770790100098 10.875608444213867 0.001859233365394 0.000000000000000
-3.980723619461060 6.601815700531006 0.178537130355835 0.000000000000000
-3.139445781707764 5.307544708251953 0.001526588574052 0.000000000000000
-3.002883195877075 5.755237579345703 0.523903191089630 0.000000000000000
-4.786588191986084 9.508259773254395 1.925979733467102 0.000000000000000
-1.333919763565063 1.865513205528259 -0.036674715578556 0.000000000000000
-4.746586322784424 9.509981155395508 1.923109531402588 0.000000000000000
-1.978917002677917 3.780171632766724 0.762695908546448 0.000000000000000
-7.341445446014404 13.813259124755859 1.910868763923645 0.000000000000000
-7.067298889160156 13.517189025878906 4.064232349395752 0.000000000000000
-2.484066963195801 4.531336307525635 0.624436974525452 0.000000000000000
-1.194647550582886 2.077425956726074 0.618364870548248 0.000000000000000
-2.838028192520142 6.482571601867676 -0.365254670381546 0.000000000000000
-2.998077869415283 5.467227935791016 -0.392295688390732 0.000000000000000
-3.068805694580078 7.280556678771973 1.428547739982605 0.000000000000000
-4.194362163543701 8.925315856933594 0.001551161753014 0.003921568859369
-2.383728742599487 5.070655822753906 0.679491162300110 0.000000000000000
-6.435167789459229 12.935820579528809 -0.248986378312111 0.000000000000000
-4.483470916748047 10.325151443481445 1.374336838722229 0.000000000000000
-2.985078573226929 6.862829208374023 -0.516733288764954 0.000000000000000
-1.421072602272034 3.112478256225586 0.412239551544189 0.000000000000000
-3.253308057785034 6.958761215209961 -0.131286382675171 0.000000000000000
-3.367057085037231 9.688354492187500 1.860485434532166 0.000000000000000
-3.895417213439941 8.743688583374023 -0.385402739048004 0.000000000000000
-1.320703387260437 3.498567581176758 0.986847460269928 0.000000000000000
-1.341469168663025 3.605535030364990 1.015838146209717 0.000000000000000
-3.686161279678345 13.488093376159668 0.569254457950592 0.000000000000000
-2.324928998947144 8.491871833801270 0.154228493571281 0.000000000000000
-2.824127912521362 8.661875724792480 2.428037166595459 0.000000000000000
-2.794863700866699 8.674374580383301 1.113773226737976 0.000000000000000
-3.488934278488159 11.118922233581543 0.271355867385864 0.000000000000000
-3.697792053222656 15.032951354980469 0.630516707897186 0.000000000000000
-1.710422992706299 6.640130043029785 0.278923213481903 0.000000000000000
-2.788455009460449 9.636809349060059 1.227314829826355 0.000000000000000
-3.322602033615112 11.770308494567871 0.001354445237666 0.000000000000000
-1.159979104995728 4.561992645263672 0.082669787108898 0.000000000000000
-2.375644207000732 13.646511077880859 -0.159528702497482 0.000000000000000
-1.500704765319824 8.216920852661133 0.098181396722794 0.000000000000000
-0.863989889621735 2.609911680221558 0.158367931842804 0.000000000000000
-4.954285621643066 18.388753890991211 1.107997298240662 0.000000000000000
-2.051843881607056 7.322394847869873 0.929417192935944 0.000000000000000
-1.762481927871704 6.377389907836914 1.762245178222656 0.000000000000000
-3.912983655929565 18.932102203369141 3.520009279251099 0.003921568859369
-2.040981292724609 7.605019569396973 0.457308888435364 0.000000000000000
-1.749044179916382 8.108942031860352 0.675626873970032 0.000000000000000
-0.793902218341827 3.309903621673584 0.059955153614283 0.000000000000000
-2.882510423660278 14.509065628051758 0.602743327617645 0.000000000000000
-1.415973424911499 6.645428657531738 1.233869671821594 0.000000000000000
-4.577816963195801 24.064926147460938 4.462164878845215 0.003921568859369
-1.565242528915405 7.737704753875732 0.643073439598083 0.000000000000000
-1.530261278152466 5.993226051330566 0.755796372890472 0.000000000000000
-1.325909852981567 6.564578056335449 0.545358538627625 0.000000000000000
-3.830136775970459 20.803928375244141 3.852858066558838 0.003921568859369
-1.657760858535767 8.811676025390625 1.630620598793030 0.000000000000000
-4.117721557617188 18.606546401977539 5.098072528839111 0.003921568859369
-3.914098262786865 14.394602775573730 0.434196323156357 0.000000000000000
-4.161603450775146 15.569520950317383 0.469125956296921 0.003921568859369
-0.581966996192932 2.858123779296875 -0.015658410266042 0.000000000000000
-0.923324167728424 5.234527111053467 -0.276001632213593 0.000000000000000
-1.222664833068848 5.421034336090088 0.679252982139587 0.000000000000000
-1.107225298881531 6.514733314514160 0.538523912429810 0.000000000000000
-0.547569394111633 2.685244083404541 -0.014638617634773 0.000000000000000
-2.537415027618408 16.889833450317383 1.393691062927246 0.000000000000000
-1.039072751998901 4.647691726684570 0.581743717193604 0.000000000000000
-1.234827518463135 7.789087295532227 0.643019378185272 0.000000000000000
-1.612420439720154 8.223060607910156 0.195458590984344 0.000000000000000
-1.993824720382690 15.384992599487305 0.271717846393585 0.000000000000000
-1.324002027511597 9.746337890625000 0.802468061447144 0.000000000000000
-1.671151995658875 9.095870971679688 0.001178236445412 0.003921568859369
-1.734331250190735 13.564042091369629 2.490888357162476 0.000000000000000
-1.953366398811340 8.718086242675781 0.052896555513144 0.000000000000000
-0.956326842308044 7.813159465789795 0.321121722459793 0.000000000000000
-1.895989060401917 17.104814529418945 3.135953664779663 0.003921568859369
-1.867988705635071 8.598771095275879 -0.560633897781372 0.000000000000000
-0.820864915847778 14.503775596618652 0.170297339558601 0.000000000000000
-1.172898769378662 10.680490493774414 0.877013623714447 0.000000000000000
-0.894140243530273 8.079622268676758 0.331653982400894 0.000000000000000
-3.462604761123657 17.650688171386719 -0.312233656644821 0.003921568859369
-2.096739292144775 22.148542404174805 4.055016517639160 0.003921568859369
-2.429805040359497 12.367846488952637 0.367111742496490 0.000000000000000
-2.196795701980591 11.320202827453613 -0.199631109833717 0.000000000000000
-1.144304037094116 12.235255241394043 1.003246545791626 0.000000000000000
-0.333302974700928 6.228743553161621 0.073639102280140 0.000000000000000
-1.794607639312744 12.958847999572754 0.761856555938721 0.000000000000000
-2.007498025894165 10.695681571960449 -0.188328340649605 0.000000000000000
-1.024583935737610 5.108444213867188 -0.330995619297028 0.000000000000000
-0.979967474937439 7.094501972198486 0.167289465665817 0.000000000000000
-0.284921050071716 9.049188613891602 -0.314921677112579 0.000000000000000
-1.372124552726746 11.533024787902832 1.425072431564331 0.000000000000000
-0.620434403419495 4.527062892913818 0.106961682438850 0.000000000000000
-0.173260509967804 3.617326021194458 -0.125276222825050 0.000000000000000
-1.211681723594666 7.163101196289062 0.211774423718452 0.000000000000000
-1.187813162803650 7.174657821655273 0.212007492780685 0.000000000000000
-0.780194044113159 13.829991340637207 0.565151691436768 0.000000000000000
-1.832985997200012 11.926011085510254 0.071081101894379 0.000000000000000
-0.519838213920593 8.667783737182617 -0.049359988421202 0.000000000000000
-0.409761220216751 6.595888614654541 -0.191068649291992 0.000000000000000
-2.279502630233765 15.947976112365723 0.469358056783676 0.003921568859369
-0.443599730730057 9.132631301879883 0.747018992900848 0.000000000000000
0.074513331055641 9.456125259399414 -0.109046794474125 0.000000000000000
-0.307467281818390 6.183718681335449 1.128913760185242 0.000000000000000
-1.202209115028381 8.781700134277344 0.258451431989670 0.000000000000000
-0.294674754142761 10.135489463806152 1.849297523498535 0.000000000000000
-0.727296352386475 5.256207942962646 -0.214393928647041 0.000000000000000
-0.166781380772591 4.750835895538330 0.083918988704681 0.000000000000000
-0.412562251091003 2.673648118972778 0.079163745045662 0.000000000000000
-0.454869151115417 6.712695598602295 0.000994699890725 0.000000000000000
-0.404354810714722 2.686487674713135 0.079513013362885 0.000000000000000
-0.123318001627922 3.957818269729614 -0.114218100905418 0.000000000000000
-0.107321590185165 6.279333114624023 -0.035502787679434 0.000000000000000
-0.055226065218449 9.185693740844727 0.161368682980537 0.000000000000000
-0.794769287109375 8.014335632324219 0.235003486275673 0.000000000000000
-0.012007698416710 7.901168346405029 0.138951778411865 0.000000000000000
-0.238405942916870 2.801159620285034 0.345130413770676 0.000000000000000
-0.049026384949684 5.791197776794434 1.057117342948914 0.000000000000000
0.681844174861908 11.889674186706543 0.139804586768150 0.000000000000000
-1.253985881805420 14.355147361755371 0.420055836439133 0.000000000000000
0.061927810311317 10.104965209960938 0.412818372249603 0.000000000000000
-0.693111479282379 7.360496520996094 0.215800613164902 0.000000000000000
0.046340361237526 8.146846771240234 1.486901998519897 0.000000000000000
0.347870260477066 14.235243797302246 0.581305027008057 0.000000000000000
-0.267913103103638 2.058254480361938 -0.083090409636497 0.000000000000000
0.017822757363319 3.903196573257446 0.319888830184937 0.000000000000000
-0.146157339215279 7.733521938323975 0.950557589530945 0.000000000000000
-0.120945431292057 7.203565120697021 0.000950037967414 0.000000000000000
0.490076720714569 11.421098709106445 -0.331938236951828 0.000000000000000
1.058098316192627 11.479911804199219 0.135366722941399 0.000000000000000
-0.498280346393585 10.077159881591797 0.294420391321182 0.000000000000000
-0.041704863309860 7.479010105133057 2.005246877670288 0.000000000000000
0.523165524005890 10.079918861389160 0.177308574318886 0.000000000000000
0.230193704366684 21.635675430297852 1.261228442192078 0.003921568859369
-0.410810708999634 9.410431861877441 -0.163377940654755 0.000000000000000
0.021505743265152 8.072196960449219 0.471183598041534 0.000000000000000
-0.031461454927921 4.714237689971924 0.275591075420380 0.000000000000000
0.158166900277138 10.787500381469727 0.000904475222342 0.003921568859369
-0.005971074104309 4.853541374206543 0.283686727285385 0.000000000000000
0.415534913539886 6.915575027465820 0.283577829599380 0.000000000000000
-0.269104868173599 9.165322303771973 -0.159106940031052 0.000000000000000
0.501937687397003 18.440448760986328 0.000914275238756 0.003921568859369
0.128653630614281 7.049619674682617 1.891316175460815 0.000000000000000
0.323632776737213 4.921060085296631 0.087188534438610 0.000000000000000
0.922997593879700 11.280229568481445 0.462537616491318 0.000000000000000
0.243667259812355 8.504662513732910 -0.197204336524010 0.000000000000000
0.283517718315125 8.744514465332031 2.346841096878052 0.000000000000000
-0.108625248074532 10.383180618286133 0.303092449903488 0.000000000000000
-0.112692303955555 4.103463172912598 0.024748483672738 0.000000000000000
-0.075259305536747 9.683307647705078 0.282729208469391 0.000000000000000
0.544977486133575 12.315941810607910 1.515503764152527 0.000000000000000
2.023459434509277 13.684697151184082 -0.160362839698792 0.000000000000000
0.293532848358154 6.924175262451172 0.162350684404373 0.000000000000000
1.676035523414612 11.232969284057617 0.133404597640038 0.000000000000000
0.233189567923546 5.961225032806396 1.601439952850342 0.000000000000000
0.395791411399841 8.556533813476562 -0.198597639799118 0.000000000000000
0.845320045948029 14.899065971374512 0.000917796685826 0.000000000000000
0.478395760059357 9.352529525756836 2.512489080429077 0.000000000000000
0.150094479322433 3.897227525711060 0.000859094201587 0.000000000000000
0.000582173466682 4.903691768646240 0.143630266189575 0.000000000000000
0.675268769264221 9.702402114868164 2.609750270843506 0.000000000000000
1.440691232681274 11.850260734558105 2.180552959442139 0.000000000000000
0.905053615570068 11.950142860412598 0.699451267719269 0.000000000000000
0.596005320549011 8.072877883911133 0.472945660352707 0.000000000000000
0.653517007827759 17.539253234863281 -0.305629909038544 0.003921568859369
0.121269285678864 2.534400463104248 0.149232745170593 0.000000000000000
0.465360015630722 10.826011657714844 -0.440907865762711 0.000000000000000
0.339376568794250 8.070290565490723 0.236136406660080 0.000000000000000
0.579155921936035 10.748120307922363 0.063394315540791 0.000000000000000
0.538597643375397 10.133340835571289 0.296350806951523 0.000000000000000
0.244562610983849 3.248618364334106 0.191286563873291 0.000000000000000
1.417639493942261 11.974166870117188 3.236036539077759 0.000000000000000
0.707187652587891 9.261759757995605 0.054849937558174 0.000000000000000
0.749420642852783 6.284739017486572 0.148490846157074 0.000000000000000
3.933269262313843 21.372509002685547 1.776820540428162 0.003921568859369
3.951914548873901 21.470832824707031 3.985655069351196 0.003921568859369
0.821876287460327 10.154991149902344 0.060078017413616 0.000000000000000
1.049780488014221 6.564208030700684 1.787659883499146 0.000000000000000
4.035732746124268 21.496417999267578 5.867620944976807 0.003921568859369
0.814416408538818 6.367472648620605 0.038127474486828 0.000000000000000
1.157504081726074 8.706833839416504 0.256816118955612 0.000000000000000
1.034261465072632 4.646643638610840 0.195816516876221 0.000000000000000
1.198272585868835 8.761006355285645 0.052196945995092 0.000000000000000
1.677465319633484 11.151664733886719 0.066338464617729 0.000000000000000
0.886113822460175 6.240526676177979 0.184693723917007 0.000000000000000
4.422665596008301 16.112028121948242 1.367292881011963 0.000000000000000
5.412686824798584 19.364994049072266 3.672720432281494 0.003921568859369
3.600140333175659 10.469573974609375 -0.387256562709808 0.000000000000000
2.452190399169922 8.424163818359375 0.719623029232025 0.000000000000000
5.676635742187500 15.959218978881836 -0.592213273048401 0.003921568859369
2.158998012542725 8.523542404174805 1.083852291107178 0.000000000000000
3.475952386856079 11.093213081359863 -0.610400855541229 0.000000000000000
1.331503033638000 4.417052745819092 -0.026297528296709 0.000000000000000
5.941115856170654 18.501066207885742 3.549980163574219 0.003921568859369
1.858745574951172 5.611819267272949 0.104476034641266 0.000000000000000
2.224375247955322 5.739770889282227 -0.215699881315231 0.000000000000000
7.182434558868408 20.327577590942383 3.938061952590942 0.003921568859369
5.231585502624512 16.914583206176758 1.033577322959900 0.000000000000000
3.120744943618774 10.106204986572266 0.618526279926300 0.000000000000000
4.500253200531006 10.488632202148438 -0.399431526660919 0.000000000000000
2.308626890182495 7.289241790771484 0.943385720252991 0.000000000000000
3.077220439910889 9.505591392517090 0.000581342785154 0.003921568859369
1.302803635597229 3.607362747192383 0.706646621227264 0.000000000000000
2.906993627548218 8.883499145507812 0.546863496303558 0.000000000000000
4.368026256561279 12.351781845092773 3.520499944686890 0.000000000000000
5.919130802154541 14.256563186645508 2.822398185729980 0.000000000000000
5.766250133514404 13.753702163696289 1.221365928649902 0.000000000000000
12.935720443725586 26.601766586303711 -0.344381719827652 0.003921568859369
4.536912441253662 14.006348609924316 0.429844230413437 0.000000000000000
1.845524430274963 4.307312011718750 -0.136926919221878 0.000000000000000
3.152271270751953 9.608530044555664 0.059484627097845 0.000000000000000
3.967731952667236 10.008077621459961 1.326971054077148 0.000000000000000
4.261084556579590 10.426311492919922 3.028727293014526 0.000000000000000
0.797393679618835 2.121024608612061 0.617656469345093 0.000000000000000
5.481993675231934 11.594508171081543 2.346699953079224 0.000000000000000
2.184585571289062 5.726657390594482 -0.394454687833786 0.000000000000000
1.840396046638489 4.245003223419189 0.573361217975616 0.000000000000000
2.545090436935425 6.439077377319336 -0.120928600430489 0.000000000000000
4.601694107055664 9.748715400695801 2.899243831634521 0.000000000000000
12.957270622253418 26.650075912475586 -0.690186500549316 0.003921568859369
2.867406845092773 5.930285930633545 0.814122140407562 0.000000000000000
5.556488990783691 10.663966178894043 0.702978909015656 0.000000000000000
1.378383994102478 2.177168846130371 -0.091028757393360 0.000000000000000
3.563974857330322 7.587518692016602 -0.146496444940567 0.000000000000000
2.450135946273804 4.632399082183838 0.000507524528075 0.000000000000000
12.968021392822266 26.673580169677734 0.172772556543350 0.003921568859369
1.737999558448792 3.275619745254517 0.000525149574969 0.000000000000000
3.417985439300537 5.544104576110840 -0.190319955348969 0.000000000000000
7.772164821624756 12.343633651733398 1.194885373115540 0.000000000000000
10.180415153503418 16.004320144653320 1.552534341812134 0.000000000000000
4.400552272796631 8.704806327819824 0.285418510437012 0.000000000000000
4.337713241577148 6.846189022064209 1.486397504806519 0.000000000000000
6.834548473358154 10.383803367614746 2.274850606918335 0.000000000000000
4.801493644714355 8.040472984313965 1.155287981033325 0.000000000000000
1.248225450515747 2.118798017501831 0.146090686321259 0.000000000000000
6.202353477478027 9.880034446716309 -0.544897913932800 0.000000000000000
9.289690017700195 13.057299613952637 2.929879426956177 0.003921568859369
3.012343406677246 4.270902633666992 -0.275651723146439 0.000000000000000
9.116672515869141 12.628878593444824 2.848093986511230 0.000000000000000
9.065320968627930 12.466595649719238 2.818680286407471 0.000000000000000
5.420148849487305 7.331375122070312 1.670747041702271 0.000000000000000
5.116208076477051 6.875555038452148 1.571021080017090 0.000000000000000
5.692672729492188 7.584191799163818 1.737473845481873 0.000000000000000
3.042074918746948 4.976574420928955 -0.238742381334305 0.000000000000000
2.222818374633789 3.242904186248779 -0.277188479900360 0.000000000000000
4.072160243988037 5.179751873016357 -0.347063660621643 0.000000000000000
10.442408561706543 12.780715942382812 3.017423629760742 0.003921568859369
5.310144901275635 6.489245891571045 1.034842610359192 0.000000000000000
1.813169002532959 2.342714548110962 -0.191744595766068 0.000000000000000
8.561889648437500 8.036885261535645 -0.411105334758759 0.000000000000000
4.405934810638428 4.557305812835693 1.163428544998169 0.000000000000000
4.940536499023438 5.548216342926025 0.435272246599197 0.000000000000000
7.466186523437500 7.361992359161377 1.918907999992371 0.000000000000000
8.759441375732422 9.927487373352051 -0.231341525912285 0.000000000000000
4.759320259094238 4.837872982025146 1.827592730522156 0.000000000000000
2.508204460144043 2.555699348449707 0.210788026452065 0.000000000000000
8.216320991516113 8.265689849853516 3.132050514221191 0.000000000000000
2.688150644302368 2.716661691665649 0.090028271079063 0.000000000000000
7.298720836639404 5.992623329162598 -0.551725804805756 0.000000000000000
4.368808269500732 4.083873271942139 0.738339364528656 0.000000000000000
6.164221763610840 5.591412544250488 1.025960087776184 0.000000000000000
2.124236822128296 1.937698483467102 0.357125103473663 0.000000000000000
2.131324291229248 1.929747819900513 0.357125371694565 0.000000000000000
6.803532600402832 5.429001808166504 0.356266587972641 0.000000000000000
5.480268478393555 4.837239265441895 1.967331886291504 0.000000000000000
9.044484138488770 7.845390319824219 3.216927766799927 0.000000000000000
8.579609870910645 7.082021713256836 0.649816513061523 0.000000000000000
4.715082168579102 3.879175901412964 0.753422379493713 0.000000000000000
7.741794586181641 6.305157184600830 1.229702711105347 0.000000000000000
10.101765632629395 7.649405002593994 3.402178287506104 0.000000000000000
5.819374084472656 4.321135044097900 0.893299996852875 0.000000000000000
5.148111343383789 4.201439380645752 0.194325461983681 0.000000000000000
6.880271911621094 4.565771102905273 1.510538935661316 0.000000000000000
14.489068984985352 9.515923500061035 -0.504945099353790 0.000000000000000
1.909936428070068 1.377758264541626 0.636880338191986 0.000000000000000
10.939932823181152 7.746908664703369 3.597810983657837 0.000000000000000
3.687185287475586 2.822425842285156 -0.189830124378204 0.000000000000000
18.345479965209961 9.784423828125000 -0.242029160261154 0.003921568859369
18.363126754760742 9.793829917907715 0.242845371365547 0.003921568859369
14.589837074279785 9.582600593566895 2.145588159561157 0.003921568859369
14.608265876770020 9.594724655151367 4.687931060791016 0.003921568859369
14.789256095886230 9.493133544921875 4.713815689086914 0.003921568859369
18.693029403686523 11.807356834411621 5.929247379302979 0.003921568859369
18.414531707763672 9.171183586120605 -0.239474192261696 0.003921568859369
18.721710205078125 11.652381896972656 5.913719654083252 0.003921568859369
18.747844696044922 11.573470115661621 5.908544063568115 0.003921568859369
18.767066955566406 11.490486145019531 5.901298046112061 0.003921568859369
18.836099624633789 11.451456069946289 5.911651611328125 0.003921568859369
3.809150934219360 2.286278247833252 0.000119031166832 0.000000000000000
18.358703613281250 9.798402786254883 -0.120852291584015 0.003921568859369
14.497967720031738 9.591587066650391 0.506440937519073 0.003921568859369
14.485417366027832 9.583278656005859 -0.707994699478149 0.003921568859369
4.544372081756592 2.879276990890503 -0.345506012439728 0.000000000000000
18.433750152587891 9.190276145935059 -0.119615919888020 0.003921568859369
5.522141933441162 2.976432800292969 1.683443665504456 0.000000000000000
10.917399406433105 4.388438701629639 -0.685703992843628 0.000000000000000
10.958627700805664 4.360589504241943 -0.687331557273865 0.000000000000000
10.940340042114258 4.309111595153809 -0.685238420963287 0.000000000000000
10.943403244018555 4.137090682983398 -0.681569337844849 0.003921568859369
10.927854537963867 4.087661743164062 -0.679708778858185 0.003921568859369
10.682642936706543 4.512483119964600 -0.947031319141388 0.000000000000000
10.683619499206543 4.468994140625000 -0.945729374885559 0.000000000000000
10.672595977783203 4.422846794128418 -0.943451106548309 0.000000000000000
10.666601181030273 4.374610424041748 -0.941498219966888 0.000000000000000
10.930449485778809 3.870330810546875 -0.675522387027740 0.003921568859369
10.639661788940430 4.324558734893799 -0.937918245792389 0.000000000000000
10.632500648498535 4.278446197509766 -0.935965359210968 0.000000000000000
10.639961242675781 4.238340377807617 -0.935314357280731 0.000000000000000
10.950178146362305 3.752964019775391 -0.674359261989594 0.003921568859369
10.587928771972656 4.174840927124023 -0.929456174373627 0.000000000000000
3.705748081207275 1.446072578430176 -0.325091302394867 0.000000000000000
10.578802108764648 4.079904556274414 -0.925602316856384 0.000000000000000
10.599016189575195 4.049492835998535 -0.926253259181976 0.000000000000000
11.291361808776855 4.314012527465820 -0.633474528789520 0.000000000000000
10.583251953125000 4.001193523406982 -0.923649549484253 0.000000000000000
11.414705276489258 4.315539836883545 -0.639545440673828 0.000000000000000
4.895546913146973 1.582164406776428 -0.179662615060806 0.000000000000000
10.597156524658203 3.964224100112915 -0.923649549484253 0.000000000000000
11.440925598144531 4.279864788055420 -0.640173494815826 0.000000000000000
10.589179039001465 3.917060375213623 -0.921696782112122 0.000000000000000
11.452788352966309 4.236519336700439 -0.639964163303375 0.000000000000000
9.504602432250977 3.481958627700806 -0.826337635517120 0.000000000000000
11.447285652160645 4.193649768829346 -0.638917386531830 0.000000000000000
10.626170158386230 3.850818395614624 -0.922673165798187 0.000000000000000
11.067254066467285 3.408964395523071 -0.674412667751312 0.000000000000000
11.446833610534668 4.148219108581543 -0.638080060482025 0.000000000000000
10.833104133605957 4.491649627685547 -0.820057094097137 0.000000000000000
10.624536514282227 3.808319330215454 -0.921371340751648 0.000000000000000
11.063807487487793 3.365660429000854 -0.673482477664948 0.000000000000000
11.465006828308105 4.109581947326660 -0.638289391994476 0.000000000000000
10.805194854736328 4.433739185333252 -0.816708743572235 0.000000000000000
10.638422012329102 3.769355297088623 -0.921371340751648 0.000000000000000
11.099014282226562 3.331978559494019 -0.674877822399139 0.000000000000000
11.446103096008301 4.055529117584229 -0.636405289173126 0.000000000000000
10.775480270385742 4.379850387573242 -0.813360512256622 0.000000000000000
10.609480857849121 3.719544649124146 -0.917791306972504 0.000000000000000
9.357583045959473 3.803525209426880 -0.470522731542587 0.000000000000000
11.455720901489258 4.016225337982178 -0.636195898056030 0.000000000000000
3.436151266098022 1.396673560142517 0.993865191936493 0.000000000000000
8.804763793945312 3.086834669113159 1.701134204864502 0.000000000000000
10.758141517639160 4.326928138732910 -0.810849249362946 0.000000000000000
10.641875267028809 3.687161922454834 -0.919418573379517 0.000000000000000
11.145764350891113 3.861747980117798 -0.618192374706268 0.000000000000000
3.437662363052368 1.382629036903381 0.992829918861389 0.000000000000000
10.753896713256836 4.283842563629150 -0.809454083442688 0.000000000000000
10.635189056396484 3.645386219024658 -0.917791306972504 0.000000000000000
11.434357643127441 3.919314146041870 -0.633474528789520 0.000000000000000
10.751695632934570 4.237536430358887 -0.807831823825836 0.000000000000000
10.660583496093750 3.610838651657104 -0.918495118618011 0.000000000000000
11.426669120788574 3.870443105697632 -0.632063210010529 0.000000000000000
10.744850158691406 4.189415931701660 -0.806157767772675 0.000000000000000
10.598136901855469 3.546443462371826 -0.911985933780670 0.000000000000000
11.652899742126465 3.899568319320679 -0.643786966800690 0.000000000000000
10.748238563537598 4.147598266601562 -0.805320799350739 0.000000000000000
10.633159637451172 3.516967773437500 -0.913938879966736 0.000000000000000
11.620930671691895 3.843835592269897 -0.641274869441986 0.000000000000000
10.724662780761719 4.097699165344238 -0.802530527114868 0.000000000000000
10.667499542236328 3.489141702651978 -0.915891766548157 0.000000000000000
11.424812316894531 3.736963510513306 -0.629760682582855 0.000000000000000
10.723973274230957 4.054606437683105 -0.801414549350739 0.000000000000000
10.660647392272949 3.445765495300293 -0.914264500141144 0.000000000000000
12.032768249511719 3.249835252761841 -0.725631892681122 0.003921568859369
11.460592269897461 3.704450130462646 -0.631016969680786 0.000000000000000
10.745534896850586 4.019960403442383 -0.801972687244415 0.000000000000000
10.657420158386230 3.403693437576294 -0.912962794303894 0.000000000000000
12.186808586120605 3.245869398117065 -0.734236836433411 0.000000000000000
11.492478370666504 3.670516729354858 -0.632063746452332 0.000000000000000
25.367044448852539 8.103808403015137 4.854361057281494 0.003921568859369
10.755064964294434 3.982938289642334 -0.801693797111511 0.000000000000000
10.657243728637695 3.364750623703003 -0.911986470222473 0.000000000000000
12.359708786010742 3.248103141784668 -0.744004547595978 0.000000000000000
11.447451591491699 3.614358186721802 -0.628923654556274 0.000000000000000
10.765844345092773 3.942141056060791 -0.801414847373962 0.000000000000000
10.658085823059082 3.322127580642700 -0.911010146141052 0.000000000000000
12.533888816833496 3.244852066040039 -0.753772318363190 0.000000000000000
11.815941810607910 4.326840400695801 -0.585974037647247 0.000000000000000
11.460620880126953 3.572397947311401 -0.628923773765564 0.000000000000000
10.749526023864746 3.893681526184082 -0.799182653427124 0.000000000000000
10.707717895507812 3.296660661697388 -0.914264917373657 0.000000000000000
12.692165374755859 3.238633871078491 -0.762609839439392 0.000000000000000
11.958696365356445 4.331875801086426 -0.592302620410919 0.000000000000000
11.473019599914551 3.532392501831055 -0.628923892974854 0.000000000000000
10.785590171813965 3.864228725433350 -0.800857007503510 0.000000000000000
10.742045402526855 3.266240119934082 -0.916217803955078 0.000000000000000
12.097868919372559 4.334612369537354 -0.598445057868958 0.000000000000000
11.466175079345703 3.486524343490601 -0.627877175807953 0.000000000000000
10.749455451965332 3.811118841171265 -0.797229647636414 0.000000000000000
10.726092338562012 3.222586393356323 -0.913939654827118 0.000000000000000
12.157365798950195 4.310519695281982 -0.600678741931915 0.000000000000000
11.443244934082031 3.438152790069580 -0.625993192195892 0.000000000000000
6.983435630798340 1.705011010169983 0.083581328392029 0.000000000000000
10.766459465026855 3.774909734725952 -0.797508776187897 0.000000000000000
10.779318809509277 3.197618722915649 -0.917519927024841 0.000000000000000
12.153486251831055 4.261457920074463 -0.599748194217682 0.000000000000000
11.374757766723633 3.374335527420044 -0.621596932411194 0.000000000000000
10.755254745483398 3.725025177001953 -0.795329749584198 0.000000000000000
10.811464309692383 3.162628650665283 -0.918876171112061 0.000000000000000
11.079396247863770 3.837395906448364 -0.545823991298676 0.000000000000000
11.507250785827637 3.366356849670410 -0.627933025360107 0.000000000000000
10.741127967834473 3.680309057235718 -0.793376684188843 0.000000000000000
10.963593482971191 3.167772054672241 -0.930918753147125 0.000000000000000
12.154116630554199 4.164915561676025 -0.598128616809845 0.000000000000000
11.610445976257324 3.354844808578491 -0.632957875728607 0.000000000000000
10.743206024169922 3.637114524841309 -0.792539775371552 0.000000000000000
11.047972679138184 3.148385286331177 -0.937102973461151 0.000000000000000
12.146594047546387 4.112687587738037 -0.597012102603912 0.000000000000000
11.737902641296387 3.345179319381714 -0.639238834381104 0.000000000000000
10.762776374816895 3.604036331176758 -0.793098092079163 0.000000000000000
12.148800849914551 4.068606853485107 -0.596453905105591 0.000000000000000
11.898882865905762 3.348502635955811 -0.647403955459595 0.000000000000000
10.756352424621582 3.560204029083252 -0.791703045368195 0.000000000000000
12.166723251342773 4.027464389801025 -0.596640288829803 0.000000000000000
12.060597419738770 3.348691940307617 -0.655569076538086 0.000000000000000
10.772503852844238 3.523921489715576 -0.791982293128967 0.000000000000000
12.138935089111328 3.971338272094727 -0.594592988491058 0.000000000000000
12.183931350708008 3.337243556976318 -0.661640703678131 0.000000000000000
10.749356269836426 3.479027986526489 -0.789471149444580 0.000000000000000
12.158951759338379 3.935680627822876 -0.594965457916260 0.000000000000000
12.310023307800293 3.330304145812988 -0.667921662330627 0.000000000000000
10.761436462402344 3.441517829895020 -0.789471387863159 0.000000000000000
11.692864418029785 3.119470596313477 -0.987226665019989 0.000000000000000
12.157395362854004 3.888374328613281 -0.594221174716949 0.000000000000000
