# This PCD file was generated using the MATLAB® pcwrite function
# from Computer Vision Toolbox®.
# .PCD v.7 - Point Cloud Data file format
VERSION .7
FIELDS x y z intensity
SIZE 8 8 8 8
TYPE F F F F
COUNT 1 1 1 1
WIDTH 646
HEIGHT 1
VIEWPOINT 0 0 0 1 0 0 0
POINTS 646
DATA ascii
-0.730453491210938 12.956150054931641 1.060544610023499 0.000000000000000
-1.212231755256653 12.753333091735840 3.430891990661621 0.000000000000000
-0.677490293979645 6.860287666320801 0.001680757966824 0.000000000000000
-0.671109020709991 4.196870326995850 0.026256602257490 0.000000000000000
-1.042924642562866 16.237545013427734 1.998533010482788 0.003921568859369
-0.524473071098328 7.118276596069336 0.416723489761353 0.000000000000000
-0.138274520635605 4.727505683898926 0.194067955017090 0.000000000000000
-0.418460965156555 6.354021549224854 1.705629110336304 0.000000000000000
-0.534579277038574 10.134896278381348 2.719208955764771 0.000000000000000
-1.431731224060059 16.207103729248047 -0.281943202018738 0.003921568859369
0.024647668004036 9.449919700622559 0.386340737342834 0.000000000000000
-0.787994086742401 21.353790283203125 2.624631404876709 0.003921568859369
-0.648308277130127 6.528165340423584 -0.112714648246765 0.000000000000000
0.077320799231529 7.898812294006348 0.139182195067406 0.000000000000000
0.050339460372925 6.977350234985352 1.274058341979980 0.000000000000000
-0.890658140182495 11.999368667602539 -0.208218947052956 0.000000000000000
-0.307694435119629 2.766318559646606 0.082082346081734 0.000000000000000
-0.180586263537407 11.719497680664062 1.440355896949768 0.000000000000000
-0.115100383758545 4.418200969696045 0.104086957871914 0.000000000000000
-0.007175430655479 12.145503997802734 -0.564695775508881 0.000000000000000
0.161477863788605 16.353740692138672 2.009407520294189 0.003921568859369
0.168517500162125 14.396080017089844 0.336103945970535 0.000000000000000
-0.101373508572578 9.146074295043945 -0.158562809228897 0.000000000000000
0.871113836765289 9.867735862731934 1.809449195861816 0.000000000000000
-0.054925471544266 7.683782100677490 0.224747121334076 0.000000000000000
-0.051453791558743 6.248209476470947 0.182996943593025 0.000000000000000
0.245478615164757 6.105053424835205 0.752210438251495 0.000000000000000
0.429810881614685 8.499585151672363 2.283676862716675 0.000000000000000
0.911833584308624 9.039812088012695 1.660212635993958 0.000000000000000
0.692514300346375 7.129859447479248 1.924273371696472 0.000000000000000
0.977503776550293 6.315909385681152 0.261981606483459 0.000000000000000
0.446462392807007 3.159703969955444 0.131761103868484 0.000000000000000
1.927886605262756 10.377228736877441 0.863879621028900 0.000000000000000
2.702244520187378 11.025121688842773 -0.397756665945053 0.000000000000000
0.922288954257965 3.937329053878784 -0.141735851764679 0.000000000000000
0.767427325248718 4.097091197967529 -0.023681543767452 0.000000000000000
1.700142741203308 8.034175872802734 -0.239629074931145 0.000000000000000
2.080460548400879 9.702719688415527 -0.057831052690744 0.000000000000000
2.800524950027466 12.654726028442383 2.368053674697876 0.000000000000000
2.222833633422852 9.141524314880371 -0.274751842021942 0.000000000000000
0.589793324470520 4.530015945434570 -0.079385593533516 0.000000000000000
8.214175224304199 26.565999984741211 0.321550041437149 0.003921568859369
1.368428349494934 6.917172908782959 0.165045872330666 0.000000000000000
1.988332390785217 9.590881347656250 -0.228563219308853 0.000000000000000
1.437683939933777 4.745890140533447 -0.174162715673447 0.000000000000000
2.962759494781494 11.037858963012695 0.935297608375549 0.000000000000000
3.866651296615601 20.481531143188477 0.606251001358032 0.003921568859369
3.372851371765137 11.563282966613770 2.202104091644287 0.000000000000000
2.461989879608154 10.201845169067383 1.292101144790649 0.000000000000000
8.209336280822754 26.550357818603516 -0.812548518180847 0.003921568859369
1.246960401535034 5.257652282714844 -0.252752721309662 0.000000000000000
2.103878021240234 7.099466800689697 1.356777548789978 0.000000000000000
2.789708137512207 13.655052185058594 -0.244219228625298 0.000000000000000
3.790711402893066 14.770853996276855 -0.000864390807692 0.000000000000000
1.093541622161865 4.458728313446045 1.238585591316223 0.000000000000000
3.026094913482666 11.405879974365234 0.688575446605682 0.000000000000000
2.658627986907959 8.439902305603027 1.619810223579407 0.000000000000000
3.007961273193359 10.613801956176758 0.643964290618896 0.000000000000000
2.570514202117920 8.788290977478027 1.128272414207458 0.000000000000000
2.549172878265381 10.533802986145020 -0.443039000034332 0.000000000000000
1.078402280807495 4.638871192932129 0.139731645584106 0.000000000000000
2.836611747741699 8.864254951477051 2.502926111221313 0.000000000000000
0.699400544166565 2.390125274658203 0.310581266880035 0.000000000000000
2.413913488388062 8.481598854064941 -0.154722481966019 0.000000000000000
2.103260040283203 4.656736850738525 -0.060025766491890 0.000000000000000
9.546739578247070 26.529787063598633 0.653812527656555 0.003921568859369
0.917685151100159 2.418235301971436 0.214905232191086 0.000000000000000
1.915792942047119 6.235217094421387 0.038063973188400 0.000000000000000
1.389907956123352 3.862077236175537 0.096629083156586 0.000000000000000
0.873804450035095 2.918325424194336 -0.053340002894402 0.000000000000000
1.612407684326172 3.761261224746704 0.168701350688934 0.000000000000000
4.205993175506592 12.096419334411621 -0.524168074131012 0.000000000000000
5.197204589843750 9.726474761962891 -0.387929022312164 0.000000000000000
3.851920604705811 10.523693084716797 -0.458857685327530 0.000000000000000
5.651603698730469 11.491867065429688 2.341956853866577 0.000000000000000
7.316082954406738 16.507431030273438 4.847214221954346 0.003921568859369
4.570196151733398 10.300389289855957 0.657591104507446 0.000000000000000
5.169256687164307 9.914400100708008 0.915370643138885 0.000000000000000
3.260294675827026 6.267923831939697 1.296023607254028 0.000000000000000
4.036642074584961 7.586710929870605 -0.252173006534576 0.000000000000000
5.051795005798340 9.298410415649414 -0.558117210865021 0.000000000000000
2.946914196014404 5.452673912048340 -0.182089582085609 0.000000000000000
3.491970300674438 6.428258895874023 1.341879248619080 0.000000000000000
3.582288980484009 6.692560672760010 0.444067239761353 0.000000000000000
2.700522422790527 5.044846057891846 0.133898004889488 0.000000000000000
4.613059997558594 7.597755908966064 1.628530621528625 0.000000000000000
5.223731994628906 10.090131759643555 -0.465650320053101 0.000000000000000
4.451055049896240 6.840416431427002 1.495920062065125 0.000000000000000
5.765567302703857 10.933714866638184 -0.506518661975861 0.000000000000000
12.232664108276367 20.046888351440430 6.300873279571533 0.003921568859369
12.231384277343750 19.888797760009766 6.264648914337158 0.003921568859369
2.478179693222046 4.102658748626709 0.593588590621948 0.000000000000000
12.272094726562500 19.799808502197266 6.250153064727783 0.003921568859369
9.341829299926758 13.578388214111328 3.011400461196899 0.003921568859369
5.500014781951904 9.841579437255859 -0.198556467890739 0.000000000000000
8.028413772583008 9.215657234191895 -0.429953962564468 0.000000000000000
5.767796993255615 8.002465248107910 -0.462522149085999 0.000000000000000
4.589848041534424 6.197952270507812 2.077215671539307 0.000000000000000
1.354628443717957 1.868842601776123 0.288746207952499 0.000000000000000
4.649052143096924 6.808563709259033 0.240476444363594 0.000000000000000
3.986115455627441 5.765909194946289 -0.287695854902267 0.000000000000000
3.596605062484741 5.135721206665039 -0.257477134466171 0.000000000000000
10.678494453430176 12.226764678955078 2.966326713562012 0.003921568859369
8.972466468811035 10.136438369750977 2.474634647369385 0.000000000000000
4.635226726531982 5.657703876495361 0.427849590778351 0.000000000000000
7.793224811553955 10.383411407470703 -0.228513538837433 0.000000000000000
9.646231651306152 9.470625877380371 -0.791431486606598 0.000000000000000
9.659669876098633 9.483699798583984 -0.475795000791550 0.000000000000000
2.511203527450562 3.309552431106567 0.121971152722836 0.000000000000000
5.276392459869385 6.210010051727295 2.194146156311035 0.000000000000000
2.053775310516357 2.445311546325684 0.397310882806778 0.000000000000000
6.025899887084961 6.924714565277100 1.131203532218933 0.000000000000000
1.836876630783081 2.332980871200562 0.087553791701794 0.000000000000000
6.416604518890381 6.362036228179932 1.654470205307007 0.000000000000000
5.873967170715332 6.999372005462646 0.266349077224731 0.000000000000000
5.578612327575684 5.652633190155029 0.979282736778259 0.000000000000000
11.852580070495605 11.787017822265625 2.055592298507690 0.003921568859369
9.654688835144043 9.481484413146973 -0.950167298316956 0.000000000000000
9.673610687255859 9.499938011169434 -0.634584963321686 0.000000000000000
9.664396286010742 9.490914344787598 -0.317301332950592 0.000000000000000
9.761324882507324 9.513425827026367 1.676804184913635 0.000000000000000
8.388974189758301 8.836057662963867 -0.498686403036118 0.000000000000000
4.132163524627686 4.346340179443359 -0.245994538068771 0.000000000000000
10.150944709777832 9.548075675964355 3.742422103881836 0.000000000000000
10.199526786804199 9.529989242553711 3.748629093170166 0.000000000000000
7.092877864837646 5.893479347229004 1.687553048133850 0.000000000000000
9.689109802246094 9.507702827453613 -0.238456606864929 0.000000000000000
9.710487365722656 9.528567314147949 0.078284241259098 0.000000000000000
4.274620056152344 3.797548770904541 0.133560195565224 0.000000000000000
13.578742980957031 9.727505683898926 0.193522140383720 0.003921568859369
10.896323204040527 9.553387641906738 3.890520334243774 0.000000000000000
13.528148651123047 9.478397369384766 -0.579411745071411 0.003921568859369
15.235175132751465 12.971095085144043 1.165581345558167 0.003921568859369
13.636955261230469 9.137450218200684 -0.192641481757164 0.003921568859369
13.569379806518555 9.724124908447266 -0.487922936677933 0.000000000000000
5.099903106689453 3.671624183654785 0.515240490436554 0.000000000000000
13.586340904235840 9.596833229064941 -0.874560534954071 0.003921568859369
10.581782341003418 8.107683181762695 3.579105854034424 0.000000000000000
9.659131050109863 7.292654037475586 1.488577365875244 0.000000000000000
6.949098587036133 5.215381622314453 1.069595813751221 0.000000000000000
13.654818534851074 9.149182319641113 -0.096690811216831 0.000000000000000
13.652066230773926 9.786517143249512 -0.001019035233185 0.003921568859369
0.945537984371185 0.732171475887299 -0.077918551862240 0.003921568859369
7.310425281524658 5.366407394409180 -0.159050047397614 0.000000000000000
13.624220848083496 9.135233879089355 -0.287305623292923 0.003921568859369
2.672839641571045 1.500482678413391 0.089478015899658 0.000000000000000
11.808344841003418 4.350978374481201 -0.733731985092163 0.000000000000000
4.108835220336914 1.680676221847534 0.181045562028885 0.000000000000000
4.480874061584473 2.055887460708618 0.605907917022705 0.000000000000000
8.369947433471680 3.489219188690186 2.429793357849121 0.000000000000000
11.486654281616211 4.096992969512939 -0.995575785636902 0.000000000000000
8.992786407470703 3.712069988250732 2.606825590133667 0.000000000000000
11.526494026184082 4.068164348602295 -0.997853994369507 0.000000000000000
11.506045341491699 4.018091201782227 -0.994924843311310 0.000000000000000
12.075321197509766 4.216891288757324 -0.670319020748138 0.000000000000000
11.498081207275391 3.968091249465942 -0.992972075939178 0.000000000000000
12.234181404113770 4.222126483917236 -0.678274095058441 0.000000000000000
4.404291152954102 1.519960522651672 0.849490880966187 0.000000000000000
11.522498130798340 3.933801412582397 -0.993948459625244 0.000000000000000
12.365305900573730 4.221537590026855 -0.684763729572296 0.000000000000000
11.464388847351074 3.869336128234863 -0.987764775753021 0.000000000000000
11.501185417175293 3.834854364395142 -0.989717543125153 0.000000000000000
12.489933013916016 4.164534091949463 -0.689997315406799 0.000000000000000
4.784739971160889 1.859721779823303 0.630308330059052 0.000000000000000
11.503141403198242 3.790942907333374 -0.988741159439087 0.000000000000000
11.504933357238770 3.747059583663940 -0.987764775753021 0.000000000000000
11.517294883728027 3.708889245986938 -0.987764775753021 0.000000000000000
11.706882476806641 4.363059520721436 -0.873630046844482 0.000000000000000
11.504215240478516 3.658197164535522 -0.985486567020416 0.000000000000000
12.425046920776367 3.951009988784790 -0.683298289775848 0.003921568859369
11.696037292480469 4.315206527709961 -0.871274292469025 0.000000000000000
11.524908065795898 3.623235225677490 -0.985693395137787 0.000000000000000
11.686280250549316 4.260712146759033 -0.869321525096893 0.000000000000000
11.546351432800293 3.581337690353394 -0.986344218254089 0.000000000000000
12.080086708068848 3.746964454650879 -0.662447392940521 0.000000000000000
11.674808502197266 4.210429191589355 -0.867368638515472 0.000000000000000
11.574030876159668 3.545700550079346 -0.987645864486694 0.000000000000000
12.505563735961914 3.831209182739258 -0.685051023960114 0.000000000000000
11.678159713745117 4.165649414062500 -0.866531729698181 0.000000000000000
11.559625625610352 3.497214555740356 -0.985368013381958 0.000000000000000
11.666291236877441 4.115578651428223 -0.864578902721405 0.000000000000000
11.579402923583984 3.459141731262207 -0.986018896102905 0.000000000000000
12.695857048034668 3.126454353332520 -0.761025309562683 0.000000000000000
4.103785514831543 1.224887728691101 0.779914259910583 0.000000000000000
11.671627998352051 4.076294422149658 -0.864020884037018 0.000000000000000
11.563449859619141 3.414859533309937 -0.983741044998169 0.000000000000000
12.965593338012695 3.149756669998169 -0.776603221893311 0.000000000000000
11.698508262634277 4.035377502441406 -0.864857852458954 0.000000000000000
11.542026519775391 3.360423088073730 -0.980812370777130 0.000000000000000
13.117411613464355 3.133386373519897 -0.784973442554474 0.000000000000000
5.754142284393311 1.983930230140686 -0.283239752054214 0.000000000000000
12.550165176391602 3.654077053070068 -0.684632480144501 0.003921568859369
11.699799537658691 3.994755983352661 -0.864020884037018 0.000000000000000
11.571681976318359 3.329679965972900 -0.982439458370209 0.000000000000000
13.282660484313965 3.128817796707153 -0.794273674488068 0.000000000000000
12.366011619567871 4.222331047058105 -0.608309626579285 0.000000000000000
12.507843017578125 3.599180459976196 -0.681702435016632 0.000000000000000
11.673462867736816 3.935791969299316 -0.860952198505402 0.000000000000000
11.580546379089355 3.284153699874878 -0.982114076614380 0.000000000000000
8.159430503845215 1.888495326042175 -0.487367033958435 0.000000000000000
12.404851913452148 4.182498931884766 -0.609426081180573 0.000000000000000
11.681985855102539 3.897849559783936 -0.860673189163208 0.000000000000000
11.579291343688965 3.244541168212891 -0.981137871742249 0.000000000000000
9.901634216308594 2.259258270263672 -0.591064333915710 0.000000000000000
12.414139747619629 4.142255783081055 -0.609239995479584 0.000000000000000
7.225041389465332 1.621713042259216 -0.086085930466652 0.000000000000000
11.665205001831055 3.847067117691040 -0.858441472053528 0.000000000000000
11.621285438537598 3.212625741958618 -0.983741223812103 0.000000000000000
13.918601989746094 3.125257492065430 -0.830312132835388 0.000000000000000
12.485440254211426 4.117698192596436 -0.612031161785126 0.000000000000000
11.686816215515137 3.806776523590088 -0.858999431133270 0.000000000000000
11.617597579956055 3.165832042694092 -0.982439577579498 0.000000000000000
13.972856521606445 3.083709239959717 -0.832869827747345 0.000000000000000
12.504248619079590 4.073163986206055 -0.612217247486115 0.000000000000000
12.673091888427734 3.453591585159302 -0.687981307506561 0.003921568859369
11.751053810119629 3.780656099319458 -0.862225115299225 0.000000000000000
11.637872695922852 3.126316070556641 -0.982647120952606 0.000000000000000
12.771048545837402 4.109120368957520 -0.624176263809204 0.000000000000000
12.254611968994141 3.292146205902100 -0.664205253124237 0.000000000000000
11.679229736328125 3.717111110687256 -0.856088876724243 0.000000000000000
11.674609184265137 3.096937656402588 -0.984924733638763 0.000000000000000
7.366973876953125 2.745944738388062 -0.503089129924774 0.000000000000000
12.879072189331055 4.099335670471191 -0.628826856613159 0.000000000000000
12.218564033508301 3.241366386413574 -0.661694407463074 0.000000000000000
14.463156700134277 3.090378522872925 -0.515789628028870 0.000000000000000
11.417279243469238 2.395383834838867 -0.135464087128639 0.000000000000000
11.673743247985840 3.668330430984497 -0.854694247245789 0.000000000000000
11.689737319946289 3.055172920227051 -0.985250115394592 0.000000000000000
11.822124481201172 4.359732151031494 -0.806637883186340 0.000000000000000
12.962620735168457 4.073719978332520 -0.632175266742706 0.000000000000000
12.431315422058105 3.249166488647461 -0.672575056552887 0.000000000000000
11.686476707458496 3.627599716186523 -0.854694247245789 0.000000000000000
11.835446357727051 3.049232482910156 -0.996637701988220 0.000000000000000
11.762276649475098 4.291095256805420 -0.801523327827454 0.000000000000000
12.133481025695801 3.766482591629028 -0.591064453125000 0.000000000000000
12.748152732849121 3.284592151641846 -0.689105272293091 0.000000000000000
8.962059020996094 2.781126737594604 2.511748313903809 0.000000000000000
11.683811187744141 3.582136392593384 -0.853578627109528 0.000000000000000
11.758413314819336 4.243265628814697 -0.800244748592377 0.000000000000000
13.070960044860840 4.007816791534424 -0.636081755161285 0.000000000000000
12.829227447509766 3.257817983627319 -0.692871630191803 0.000000000000000
11.764357566833496 3.564253091812134 -0.858599185943604 0.000000000000000
6.908337116241455 2.465577363967896 0.213290825486183 0.000000000000000
11.761142730712891 4.200257301330566 -0.799477517604828 0.000000000000000
12.896816253662109 3.907670736312866 -0.626966714859009 0.000000000000000
12.847708702087402 3.217237472534180 -0.693290293216705 0.000000000000000
11.670306205749512 3.489116907119751 -0.850789427757263 0.000000000000000
11.753877639770508 4.149180412292480 -0.797943115234375 0.000000000000000
11.674759864807129 3.446138143539429 -0.850231587886810 0.000000000000000
11.749445915222168 4.101583003997803 -0.796664535999298 0.000000000000000
4.686785697937012 1.381523489952087 0.284003466367722 0.000000000000000
13.131372451782227 3.876497983932495 -0.637012064456940 0.000000000000000
13.080004692077637 3.176237583160400 -0.704589486122131 0.000000000000000
11.682887077331543 3.404287815093994 -0.849952757358551 0.000000000000000
11.733506202697754 4.050157070159912 -0.794618606567383 0.000000000000000
13.048927307128906 3.802708387374878 -0.632361471652985 0.000000000000000
13.246402740478516 3.167792797088623 -0.712959289550781 0.000000000000000
4.938824176788330 1.179463505744934 0.413713902235031 0.000000000000000
11.679362297058105 3.359105587005615 -0.848837077617645 0.000000000000000
11.728686332702637 4.002757549285889 -0.793340027332306 0.000000000000000
12.946931838989258 3.724009513854980 -0.626780927181244 0.000000000000000
13.409014701843262 3.157301425933838 -0.721119821071625 0.000000000000000
11.687176704406738 3.317266464233398 -0.848558187484741 0.000000000000000
11.735021591186523 3.959278583526611 -0.792828500270844 0.000000000000000
13.090531349182129 3.715960979461670 -0.633105695247650 0.000000000000000
13.606732368469238 3.153844118118286 -0.731163561344147 0.000000000000000
11.701955795288086 3.279608488082886 -0.848837196826935 0.000000000000000
11.729154586791992 3.914056777954102 -0.791549861431122 0.000000000000000
12.991214752197266 3.641272306442261 -0.627711117267609 0.000000000000000
11.718783378601074 3.238774299621582 -0.848717689514160 0.000000000000000
11.778525352478027 3.883135318756104 -0.793472826480865 0.000000000000000
12.435509681701660 3.437133073806763 -0.599864780902863 0.000000000000000
7.016144752502441 1.910997748374939 0.000170177998370 0.000000000000000
11.718469619750977 3.194749355316162 -0.847881257534027 0.000000000000000
11.776828765869141 3.837098121643066 -0.792450129985809 0.000000000000000
12.420451164245605 3.386391401290894 -0.598563134670258 0.000000000000000
11.740560531616211 3.159037351608276 -0.848717868328094 0.000000000000000
11.789489746093750 3.798074722290039 -0.792450189590454 0.000000000000000
12.416181564331055 3.341077566146851 -0.597819328308105 0.000000000000000
11.786769866943359 3.125263214111328 -0.851227819919586 0.000000000000000
11.784312248229980 3.748842477798462 -0.791171789169312 0.000000000000000
12.324071884155273 3.267924785614014 -0.592798233032227 0.000000000000000
6.144254684448242 1.627081155776978 1.699023008346558 0.000000000000000
11.948152542114258 3.123570919036865 -0.862103998661041 0.000000000000000
11.770671844482422 3.699356079101562 -0.789382100105286 0.000000000000000
12.451366424560547 3.255302667617798 -0.598377525806427 0.000000000000000
12.067128181457520 3.792656421661377 -0.514325261116028 0.000000000000000
12.004807472229004 3.095961809158325 -0.865450620651245 0.000000000000000
11.771439552307129 3.656802177429199 -0.788615047931671 0.000000000000000
12.582022666931152 3.245022296905518 -0.604142725467682 0.000000000000000
14.328656196594238 2.958703517913818 2.665153741836548 0.000000000000000
12.092880249023438 3.073776483535767 -0.871028184890747 0.000000000000000
11.761237144470215 3.608708858489990 -0.787081003189087 0.000000000000000
12.767523765563965 3.245487451553345 -0.612511575222015 0.000000000000000
3.263596773147583 0.826525807380676 0.411450833082199 0.000000000000000
5.552485942840576 1.124337196350098 0.461280941963196 0.000000000000000
11.750844955444336 3.560732126235962 -0.785547077655792 0.000000000000000
13.015190124511719 3.260248899459839 -0.623855948448181 0.000000000000000
11.752345085144043 3.514267206192017 -0.784780085086823 0.000000000000000
13.116271018981934 3.234616994857788 -0.628133416175842 0.000000000000000
14.367535591125488 2.807766675949097 1.194229006767273 0.000000000000000
6.943264961242676 1.006831288337708 -0.244279742240906 0.000000000000000
16.250343322753906 3.951393127441406 0.000532151549123 0.003921568859369
12.504361152648926 3.039622068405151 -0.898358166217804 0.003921568859369
11.756278991699219 3.473061323165894 -0.784268856048584 0.000000000000000
13.301631927490234 3.233677387237549 -0.636502265930176 0.000000000000000
5.539835453033447 1.324048280715942 0.000109078609967 0.000000000000000
12.662345886230469 3.031366109848022 -0.908955454826355 0.000000000000000
11.764496803283691 3.430948972702026 -0.784013211727142 0.000000000000000
9.795391082763672 2.855893135070801 -0.414768248796463 0.000000000000000
3.121459007263184 0.585611045360565 0.576144516468048 0.000000000000000
12.921399116516113 3.045863866806030 -0.926803529262543 0.000000000000000
11.776402473449707 3.389916181564331 -0.784013330936432 0.000000000000000
3.077050447463989 0.566178500652313 0.567532956600189 0.000000000000000
13.151169776916504 3.050459146499634 -0.942005693912506 0.000000000000000
11.785929679870605 3.346655845642090 -0.783381283283234 0.000000000000000
10.544276237487793 2.444774866104126 1.326833248138428 0.000000000000000
11.380066871643066 2.638966560363770 -0.270890295505524 0.000000000000000
13.293992996215820 3.034854888916016 -0.951485872268677 0.000000000000000
11.805225372314453 3.307731151580811 -0.783892691135406 0.000000000000000
13.490837097167969 3.032903194427490 -0.964869558811188 0.000000000000000
11.796893119812012 3.263309717178345 -0.782614648342133 0.000000000000000
13.707823753356934 3.031602382659912 -0.979647397994995 0.000000000000000
11.831316947937012 3.228499650955200 -0.784148573875427 0.000000000000000
12.520920753479004 2.768692493438721 -0.595834374427795 0.000000000000000
13.932228088378906 3.032948970794678 -0.994982838630676 0.000000000000000
11.849667549133301 3.191396713256836 -0.784659922122955 0.000000000000000
9.416752815246582 2.048423290252686 1.181016206741333 0.000000000000000
11.097826957702637 2.374491930007935 -0.527230024337769 0.000000000000000
6.349267005920410 1.332269549369812 -0.150281116366386 0.000000000000000
12.253444671630859 3.163317918777466 -0.809200465679169 0.000000000000000
10.600101470947266 2.190652847290039 1.326831698417664 0.000000000000000
12.388744354248047 3.149991989135742 -0.817380666732788 0.000000000000000
4.883252143859863 0.988201797008514 1.329402685165405 0.000000000000000
11.580895423889160 1.725429892539978 2.131347656250000 0.000000000000000
8.018816947937012 1.539987564086914 0.000269461015705 0.003921568859369
7.042179584503174 1.711396932601929 -0.294170260429382 0.000000000000000
4.413851737976074 1.053161501884460 -0.078637473285198 0.000000000000000
13.007034301757812 3.116166353225708 -0.854823589324951 0.000000000000000
13.197076797485352 3.110772848129272 -0.866580367088318 0.000000000000000
13.350632667541504 3.102886199951172 -0.876036942005157 0.000000000000000
13.638726234436035 3.114932298660278 -0.894183099269867 0.000000000000000
8.808259010314941 1.123311758041382 0.361042797565460 0.000000000000000
11.171032905578613 1.425537705421448 2.048918485641479 0.000000000000000
10.153766632080078 0.763185083866119 0.118677422404289 0.000000000000000
13.784734725952148 3.102896213531494 -0.903128564357758 0.000000000000000
10.032063484191895 1.247924327850342 0.823536217212677 0.000000000000000
5.615925788879395 0.421212762594223 -0.195548593997955 0.000000000000000
6.322292327880859 1.099793076515198 1.712571501731873 0.000000000000000
14.017615318298340 3.104136943817139 -0.917696654796600 0.000000000000000
4.833702087402344 1.031316518783569 0.028704211115837 0.000000000000000
7.709763526916504 0.876655161380768 1.410143733024597 0.000000000000000
11.340539932250977 2.386141777038574 -0.201263442635536 0.000000000000000
13.720506668090820 0.839885592460632 0.160384565591812 0.000000000000000
4.217360496520996 0.433025151491165 0.171704947948456 0.000000000000000
13.936090469360352 0.658060312271118 0.162857651710510 0.000000000000000
9.322298049926758 1.723406076431274 -0.384424299001694 0.000000000000000
8.524068832397461 1.485037446022034 0.251316457986832 0.000000000000000
5.812872886657715 1.010907053947449 -0.375840097665787 0.000000000000000
13.163499832153320 1.640099644660950 3.546602964401245 0.000000000000000
4.056689262390137 0.487689882516861 0.497803717851639 0.000000000000000
9.293217658996582 0.181039333343506 -0.322985082864761 0.000000000000000
11.169079780578613 1.272738099098206 0.653412282466888 0.000000000000000
12.421835899353027 1.326187014579773 0.000719920848496 0.000000000000000
9.597380638122559 -0.013371363282204 0.111849792301655 0.000000000000000
8.539928436279297 0.821609497070312 0.497932702302933 0.000000000000000
15.462141036987305 0.681453347206116 0.630088984966278 0.000000000000000
4.821152210235596 0.446245789527893 0.590015709400177 0.000000000000000
7.507799625396729 0.302626460790634 -0.043057464063168 0.000000000000000
6.323920726776123 0.254656970500946 0.513862907886505 0.000000000000000
12.844987869262695 0.476283282041550 -0.073634050786495 0.000000000000000
3.871709346771240 0.115808829665184 0.067025125026703 0.000000000000000
12.890027999877930 -0.284949630498886 -0.148824498057365 0.000000000000000
6.677539825439453 0.177331194281578 0.542531073093414 0.000000000000000
11.917826652526855 1.401827931404114 -0.208001285791397 0.000000000000000
6.863766670227051 0.805457592010498 0.200378656387329 0.000000000000000
7.427970886230469 0.145744919776917 0.603780090808868 0.000000000000000
10.083178520202637 0.163037925958633 0.175969243049622 0.000000000000000
14.230317115783691 1.573706388473511 -0.248006671667099 0.000000000000000
13.076938629150391 0.166029617190361 -0.378355324268341 0.000000000000000
8.775491714477539 0.111233614385128 0.356346994638443 0.000000000000000
15.273725509643555 0.886107444763184 0.001222610706463 0.000000000000000
11.153655052185059 0.646406531333923 0.259779453277588 0.000000000000000
13.156854629516602 0.721576809883118 1.613586664199829 0.000000000000000
10.826226234436035 0.555627644062042 0.252021282911301 0.000000000000000
6.827657699584961 0.325870633125305 0.000383076461731 0.000000000000000
3.326986551284790 -0.002829514676705 -0.172048702836037 0.000000000000000
16.677551269531250 1.499116539955139 -0.290145695209503 0.003921568859369
6.359179973602295 0.569218873977661 0.184895917773247 0.000000000000000
4.664798736572266 0.189654022455215 0.568079531192780 0.000000000000000
12.334822654724121 0.461400777101517 0.000922898994759 0.000000000000000
11.489197731018066 -0.129905581474304 0.467163830995560 0.000000000000000
9.238922119140625 0.248765677213669 1.130100131034851 0.000000000000000
13.555729866027832 0.318380862474442 0.001036860281602 0.000000000000000
9.520830154418945 -0.272867798805237 -0.054370384663343 0.000000000000000
13.638754844665527 0.938304960727692 0.397644460201263 0.000000000000000
22.406385421752930 0.448618501424789 1.304453611373901 0.003921568859369
12.811615943908691 0.836465001106262 -0.222146764397621 0.000000000000000
13.716421127319336 0.226446315646172 3.663987874984741 0.000000000000000
3.863923072814941 -0.123224236071110 0.696041405200958 0.000000000000000
4.716693878173828 0.045644022524357 0.000189721235074 0.000000000000000
9.759799957275391 0.502093791961670 0.283750951290131 0.000000000000000
14.508267402648926 0.040279205888510 0.843346118927002 0.000000000000000
10.079768180847168 -0.042067360132933 0.584953963756561 0.000000000000000
5.255184650421143 -0.294724792242050 0.425934940576553 0.000000000000000
6.771288871765137 -0.711282432079315 -0.235673904418945 0.000000000000000
19.956008911132812 -1.193436503410339 3.637975931167603 0.003921568859369
2.094484329223633 -0.244662389159203 -0.071873195469379 0.000000000000000
10.667029380798340 -0.822272360324860 0.869870722293854 0.000000000000000
6.963667392730713 0.116995066404343 -0.281044721603394 0.000000000000000
17.017616271972656 -2.272537946701050 0.200858846306801 0.003921568859369
7.822876453399658 0.050150189548731 0.226680144667625 0.000000000000000
10.378305435180664 -0.546538889408112 0.602962195873260 0.000000000000000
13.017342567443848 -0.142604753375053 0.076557494699955 0.000000000000000
7.962446689605713 -0.890714824199677 1.450641155242920 0.000000000000000
16.928749084472656 -0.359378665685654 0.492894142866135 0.003921568859369
15.372031211853027 -1.831563353538513 2.813357114791870 0.000000000000000
1.990300297737122 -0.074782878160477 0.011090610176325 0.003921568859369
10.991292953491211 -1.033547401428223 2.943276882171631 0.000000000000000
8.688636779785156 -0.482123464345932 -0.351067662239075 0.000000000000000
10.094162940979004 -1.552734851837158 1.851327300071716 0.000000000000000
4.999728202819824 -0.293998420238495 -0.086007237434387 0.000000000000000
2.119900703430176 -0.238055601716042 0.253836035728455 0.000000000000000
14.143053054809570 -1.033902406692505 0.083615183830261 0.000000000000000
14.491337776184082 -2.491961956024170 0.597995877265930 0.000000000000000
11.574304580688477 -2.031652450561523 2.132052421569824 0.000000000000000
12.169052124023438 -2.306845188140869 0.503225505352020 0.000000000000000
17.003095626831055 -2.377892971038818 4.585092067718506 0.003921568859369
6.539398670196533 -0.635402381420135 0.038302928209305 0.000000000000000
7.518029212951660 -0.757775604724884 -0.304305464029312 0.000000000000000
21.447963714599609 -5.724266052246094 0.260248094797134 0.003921568859369
21.444301605224609 -5.799313545227051 0.260429710149765 0.003921568859369
4.981604576110840 -0.619511067867279 0.144336566329002 0.000000000000000
11.648322105407715 -3.359300374984741 -0.139158502221107 0.000000000000000
15.452632904052734 -2.930666446685791 0.913491845130920 0.000000000000000
9.461474418640137 -2.268955230712891 0.789168536663055 0.000000000000000
25.492620468139648 -4.844790935516357 6.936680793762207 0.003921568859369
6.140478134155273 -1.176667213439941 0.758935630321503 0.000000000000000
7.556977272033691 -1.075334787368774 -0.307245671749115 0.000000000000000
11.463393211364746 -2.252753973007202 0.001245701103471 0.003921568859369
19.268112182617188 -5.790930747985840 -0.231046348810196 0.003921568859369
19.137844085693359 -5.751674652099609 0.234111979603767 0.003921568859369
19.079399108886719 -5.806490421295166 0.233633175492287 0.003921568859369
21.617841720581055 -5.764251232147217 -0.126876384019852 0.003921568859369
21.712413787841797 -5.870510101318359 -0.649703979492188 0.003921568859369
21.582145690917969 -5.835220336914062 -0.126793771982193 0.003921568859369
3.233449220657349 -0.692972898483276 -0.150610953569412 0.000000000000000
20.918352127075195 -5.655313968658447 1.765624403953552 0.003921568859369
12.635629653930664 -2.800576448440552 0.001408159150742 0.000000000000000
9.744199752807617 -2.191220045089722 -0.460813343524933 0.000000000000000
24.132314682006836 -5.541116237640381 3.034298896789551 0.003921568859369
24.118244171142578 -5.625113487243652 3.034364223480225 0.003921568859369
18.479619979858398 -5.334995746612549 0.782698869705200 0.003921568859369
9.890888214111328 -2.881530284881592 -0.058496151119471 0.000000000000000
18.407199859619141 -5.383414745330811 0.780403077602386 0.003921568859369
25.459444046020508 -6.220441341400146 7.004995822906494 0.003921568859369
19.429601669311523 -5.830625057220459 -0.585703969001770 0.003921568859369
19.188447952270508 -5.758008956909180 -0.113629460334778 0.000000000000000
19.017389297485352 -5.775081157684326 0.347879499197006 0.003921568859369
18.249010086059570 -3.716235876083374 0.110110625624657 0.000000000000000
18.052139282226562 -5.687207698822021 1.540923476219177 0.000000000000000
21.249780654907227 -5.656745910644531 2.693110704421997 0.003921568859369
21.762842178344727 -5.793462276458740 -0.519407868385315 0.003921568859369
10.599418640136719 -4.029120922088623 0.132092237472534 0.000000000000000
10.747325897216797 -2.376382589340210 0.319129437208176 0.000000000000000
7.629404544830322 -2.073644161224365 2.098054885864258 0.000000000000000
6.756475448608398 -1.510364770889282 -0.278159618377686 0.000000000000000
7.005245208740234 -2.789566040039062 -0.086460158228874 0.000000000000000
19.566131591796875 -5.792301177978516 -0.944179058074951 0.003921568859369
19.034061431884766 -5.771317958831787 0.463243305683136 0.000000000000000
10.648944854736328 -3.217084407806396 -0.255899697542191 0.000000000000000
17.375228881835938 -5.335962295532227 4.850282669067383 0.003921568859369
21.569864273071289 -5.736526966094971 0.132057547569275 0.003921568859369
21.406520843505859 -5.692975997924805 0.644999921321869 0.003921568859369
21.529134750366211 -5.800447463989258 0.131931483745575 0.003921568859369
21.335067749023438 -5.748008728027344 0.643285214900970 0.003921568859369
11.245541572570801 -4.223518848419189 0.486907601356506 0.000000000000000
10.858255386352539 -4.119750022888184 -0.334511697292328 0.000000000000000
8.123933792114258 -2.263701677322388 0.243451952934265 0.000000000000000
9.818120956420898 -3.955304384231567 0.428527355194092 0.000000000000000
15.962077140808105 -5.567734241485596 4.508368015289307 0.003921568859369
18.941965103149414 -5.738058090209961 0.575800836086273 0.003921568859369
7.207154273986816 -2.579758167266846 0.000398702279199 0.000000000000000
5.929859161376953 -2.116556167602539 -0.289042204618454 0.000000000000000
21.549139022827148 -8.989809989929199 4.244287014007568 0.003921568859369
8.375052452087402 -3.036176443099976 1.083756566047668 0.000000000000000
2.244369268417358 -1.043149828910828 -0.083819933235645 0.000000000000000
17.357465744018555 -5.581623077392578 0.107522450387478 0.003921568859369
24.109163284301758 -9.377746582031250 6.910428047180176 0.003921568859369
9.995255470275879 -3.905023813247681 1.307225465774536 0.000000000000000
5.924214363098145 -2.368302106857300 0.366400361061096 0.000000000000000
10.393066406250000 -3.649807691574097 -0.444120228290558 0.000000000000000
2.368216991424561 -0.846758127212524 -0.099007800221443 0.000000000000000
7.112329959869385 -3.047767400741577 0.445363074541092 0.000000000000000
10.232789993286133 -4.405160903930664 2.960607051849365 0.000000000000000
10.580333709716797 -5.178680419921875 2.131640672683716 0.000000000000000
15.384553909301758 -5.835528373718262 -0.283851295709610 0.003921568859369
1.719463109970093 -0.709410667419434 0.102173253893852 0.003921568859369
12.077751159667969 -5.256919384002686 1.606793522834778 0.000000000000000
9.786265373229980 -4.828071594238281 0.883904218673706 0.000000000000000
1.618406295776367 -0.671363890171051 0.095877341926098 0.003921568859369
11.278632164001465 -5.621269702911377 2.281689643859863 0.000000000000000
1.626988649368286 -0.681540429592133 0.096575669944286 0.003921568859369
24.284666061401367 -10.925306320190430 7.113241672515869 0.003921568859369
7.327621459960938 -3.442244052886963 2.143227815628052 0.000000000000000
12.821602821350098 -6.843160629272461 2.633405447006226 0.000000000000000
25.624248504638672 -15.514345169067383 0.350368529558182 0.003921568859369
24.957136154174805 -15.461411476135254 0.343291759490967 0.003921568859369
11.213731765747070 -5.486952781677246 3.319898605346680 0.000000000000000
24.919958114624023 -15.558678627014160 0.343504697084427 0.003921568859369
23.820724487304688 -14.984936714172363 0.328946918249130 0.003921568859369
23.978158950805664 -15.207139015197754 0.331887692213058 0.003921568859369
24.298822402954102 -12.274516105651855 7.271498680114746 0.003921568859369
24.990869522094727 -15.962279319763184 -0.341630011796951 0.003921568859369
7.226253032684326 -3.639116048812866 -0.185851931571960 0.000000000000000
4.881078720092773 -2.172840118408203 -0.213803648948669 0.000000000000000
10.712100028991699 -5.469028949737549 3.197628974914551 0.000000000000000
10.666561126708984 -5.491850376129150 3.188260793685913 0.000000000000000
10.554962158203125 -5.480172157287598 3.160284519195557 0.000000000000000
20.328607559204102 -13.676484107971191 0.285887181758881 0.003921568859369
20.232080459594727 -13.718934059143066 0.285207897424698 0.003921568859369
24.600849151611328 -15.000791549682617 2.346815586090088 0.003921568859369
23.706085205078125 -14.453396797180176 5.046982288360596 0.003921568859369
20.253297805786133 -13.836639404296875 0.286175072193146 0.003921568859369
24.614839553833008 -16.952949523925781 -0.344568699598312 0.003921568859369
24.542182922363281 -15.194497108459473 2.351007938385010 0.003921568859369
23.378122329711914 -14.582470893859863 -0.796737432479858 0.003921568859369
24.663635253906250 -17.113943099975586 0.350673228502274 0.003921568859369
24.451843261718750 -15.256381988525391 2.347399234771729 0.003921568859369
23.357500076293945 -14.682808876037598 -0.797802567481995 0.003921568859369
20.067199707031250 -14.013398170471191 0.285504430532455 0.003921568859369
24.428770065307617 -15.360409736633301 2.350309610366821 0.003921568859369
23.554470062255859 -14.808843612670898 5.057663440704346 0.003921568859369
4.957644462585449 -2.454104900360107 0.157774865627289 0.000000000000000
19.996326446533203 -14.162841796875000 0.285701692104340 0.003921568859369
23.402843475341797 -14.931611061096191 2.260282278060913 0.003921568859369
23.441705703735352 -15.077456474304199 2.269383668899536 0.003921568859369
23.996059417724609 -15.553558349609375 -0.163310050964355 0.003921568859369
22.867830276489258 -14.819300651550293 2.218514204025269 0.003921568859369
23.446435928344727 -15.197059631347656 5.078367233276367 0.003921568859369
23.700218200683594 -15.472458839416504 -0.161670789122581 0.003921568859369
25.851869583129883 -15.140147209167480 0.697529792785645 0.003921568859369
19.725385665893555 -12.864950180053711 1.916029691696167 0.003921568859369
5.482203960418701 -2.811819791793823 -0.246914252638817 0.000000000000000
25.891729354858398 -15.284955024719238 0.700031042098999 0.003921568859369
23.779115676879883 -17.361337661743164 0.343642324209213 0.003921568859369
24.867038726806641 -16.492609024047852 -0.170468881726265 0.003921568859369
19.778789520263672 -13.102201461791992 1.930328726768494 0.003921568859369
25.626836776733398 -15.369565963745117 0.695676684379578 0.003921568859369
19.386005401611328 -12.933590888977051 4.232549667358398 0.003921568859369
25.607208251953125 -15.479266166687012 0.696587026119232 0.003921568859369
19.788223266601562 -13.302720069885254 1.940066337585449 0.003921568859369
18.830532073974609 -14.135986328125000 -0.271709829568863 0.003921568859369
25.332719802856445 -15.433584213256836 1.724249124526978 0.003921568859369
17.918380737304688 -13.544873237609863 0.261554598808289 0.003921568859369
25.288885116577148 -15.527791023254395 1.724923133850098 0.003921568859369
23.555507659912109 -14.457760810852051 -0.638401925563812 0.003921568859369
20.163053512573242 -15.363675117492676 -0.292571842670441 0.003921568859369
18.509048461914062 -14.096012115478516 0.270974397659302 0.003921568859369
19.051113128662109 -13.095190048217773 1.880689740180969 0.003921568859369
23.706224441528320 -14.767973899841309 0.649902224540710 0.003921568859369
23.694803237915039 -16.417070388793945 2.347363233566284 0.003921568859369
17.946990966796875 -13.849464416503906 -0.261692643165588 0.003921568859369
24.610284805297852 -15.449892997741699 0.676144480705261 0.003921568859369
20.429208755493164 -15.778622627258301 0.300742089748383 0.003921568859369
22.852979660034180 -15.945212364196777 2.268431425094604 0.003921568859369
17.923736572265625 -13.931311607360840 -0.262083202600479 0.003921568859369
18.008647918701172 -13.997954368591309 0.265454679727554 0.003921568859369
19.258340835571289 -13.523210525512695 1.914153575897217 0.003921568859369
23.909248352050781 -15.240727424621582 0.659628808498383 0.003921568859369
23.982793807983398 -15.288159370422363 1.652534246444702 0.003921568859369
24.377874374389648 -17.268947601318359 2.432631969451904 0.003921568859369
19.134309768676758 -13.635542869567871 1.911177515983582 0.003921568859369
18.133069992065430 -12.918062210083008 4.042077541351318 0.003921568859369
19.778989791870117 -15.718327522277832 0.294214159250259 0.003921568859369
23.135652542114258 -14.973487854003906 3.373064756393433 0.003921568859369
24.327816009521484 -17.489213943481445 2.439746379852295 0.003921568859369
18.032747268676758 -14.424344062805176 -0.266694664955139 0.003921568859369
18.506082534790039 -14.805799484252930 0.275836884975433 0.003921568859369
18.742124557495117 -13.552064895629883 1.881152868270874 0.003921568859369
18.134489059448242 -14.610239982604980 -0.268979817628860 0.003921568859369
23.704145431518555 -15.577936172485352 0.659807205200195 0.003921568859369
17.966630935668945 -14.474246978759766 0.268445611000061 0.003921568859369
23.437173843383789 -15.401858329772949 1.629361748695374 0.003921568859369
23.000749588012695 -15.114069938659668 3.368623495101929 0.003921568859369
18.900463104248047 -13.767849922180176 1.901987791061401 0.003921568859369
23.391998291015625 -15.373833656311035 7.474783897399902 0.003921568859369
17.711574554443359 -14.369410514831543 0.265326380729675 0.003921568859369
23.893016815185547 -15.823062896728516 3.508151054382324 0.003921568859369
23.312465667724609 -15.437834739685059 7.466472625732422 0.003921568859369
19.799373626708984 -14.533710479736328 4.461242675781250 0.003921568859369
17.995822906494141 -13.296502113342285 -0.647087991237640 0.003921568859369
19.267436981201172 -15.752213478088379 -0.287503600120544 0.003921568859369
20.026233673095703 -13.349297523498535 2.944063663482666 0.003921568859369
21.349826812744141 -15.792999267578125 2.161339759826660 0.003921568859369
19.855859756469727 -14.682174682617188 4.485628128051758 0.003921568859369
17.718740463256836 -14.581086158752441 -0.265118271112442 0.003921568859369
19.456512451171875 -13.065211296081543 2.866459608078003 0.003921568859369
21.393465042114258 -15.941115379333496 2.171417236328125 0.003921568859369
19.297550201416016 -14.370974540710449 4.370026588439941 0.003921568859369
17.990154266357422 -14.911523818969727 -0.269991725683212 0.003921568859369
20.747652053833008 -15.569025993347168 -0.148690924048424 0.003921568859369
19.374876022338867 -16.067529678344727 0.292992323637009 0.003921568859369
23.757867813110352 -16.092195510864258 1.667241692543030 0.003921568859369
19.062946319580078 -12.895745277404785 2.814717292785645 0.003921568859369
18.105062484741211 -13.574647903442383 1.840312600135803 0.003921568859369
18.124757766723633 -15.130788803100586 -0.272832691669464 0.003921568859369
24.852018356323242 -15.242597579956055 0.171358406543732 0.003921568859369
20.635868072509766 -15.597336769104004 -0.148303881287575 0.003921568859369
22.666957855224609 -15.464504241943359 0.638077616691589 0.003921568859369
23.066043853759766 -15.738600730895996 1.622244119644165 0.003921568859369
19.138942718505859 -13.044878005981445 2.832749605178833 0.003921568859369
18.054393768310547 -13.634914398193359 1.839965701103210 0.003921568859369
18.980854034423828 -15.958522796630859 -0.286606162786484 0.003921568859369
20.924320220947266 -14.373137474060059 3.105440616607666 0.003921568859369
18.072237014770508 -13.743519783020020 1.846078872680664 0.003921568859369
17.448936462402344 -13.266837120056152 3.978662252426147 0.003921568859369
24.953168869018555 -15.535784721374512 0.172691330313683 0.003921568859369
17.822689056396484 -15.079231262207031 0.271411776542664 0.003921568859369
23.196493148803711 -16.056409835815430 1.638700366020203 0.003921568859369
22.164657592773438 -15.340028762817383 7.195962429046631 0.003921568859369
17.797260284423828 -15.164344787597656 0.271810740232468 0.003921568859369
20.361198425292969 -14.188360214233398 3.035619974136353 0.003921568859369
17.827754974365234 -13.846828460693359 -0.652975261211395 0.003921568859369
18.022737503051758 -15.466475486755371 -0.274567306041718 0.003921568859369
22.510650634765625 -17.512016296386719 2.321427583694458 0.003921568859369
19.300813674926758 -16.806547164916992 -0.295928984880447 0.003921568859369
18.278100967407227 -15.910144805908203 0.281729280948639 0.003921568859369
23.776653289794922 -16.955905914306641 3.574692964553833 0.003921568859369
20.447065353393555 -16.128175735473633 4.730867385864258 0.003921568859369
17.466964721679688 -13.859839439392090 -0.128113940358162 0.003921568859369
17.628786087036133 -15.449241638183594 0.272420972585678 0.003921568859369
18.613988876342773 -13.351336479187012 1.329152345657349 0.003921568859369
17.694978713989258 -14.142719268798828 -0.655383586883545 0.003921568859369
19.529750823974609 -17.248258590698242 -0.301344245672226 0.003921568859369
23.926517486572266 -15.596157073974609 0.167588502168655 0.003921568859369
17.893117904663086 -15.904447555541992 -0.276905596256256 0.003921568859369
19.791088104248047 -17.604122161865234 0.308097928762436 0.003921568859369
18.031713485717773 -13.123488426208496 5.948810100555420 0.003921568859369
18.092948913574219 -16.196704864501953 -0.280907154083252 0.003921568859369
17.682888031005859 -15.827161788940430 0.275772780179977 0.003921568859369
20.736688613891602 -15.216129302978516 3.146693229675293 0.003921568859369
18.436450958251953 -13.518706321716309 6.098962783813477 0.003921568859369
20.539897918701172 -16.671670913696289 4.806138038635254 0.003921568859369
17.115402221679688 -15.423077583312988 -0.266546100378036 0.003921568859369
19.393936157226562 -15.846278190612793 -0.143922045826912 0.003921568859369
