# This PCD file was generated using the MATLAB® pcwrite function
# from Computer Vision Toolbox®.
# .PCD v.7 - Point Cloud Data file format
VERSION .7
FIELDS x y z intensity
SIZE 8 8 8 8
TYPE F F F F
COUNT 1 1 1 1
WIDTH 640
HEIGHT 1
VIEWPOINT 0 0 0 1 0 0 0
POINTS 640
DATA ascii
-15.980494499206543 -5.273409366607666 0.370780944824219 0.000000000000000
-19.298540115356445 -6.397473335266113 1.146720647811890 0.000000000000000
-21.160062789916992 -5.915721893310547 1.746353983879089 0.003921568859369
-21.128618240356445 -5.830889225006104 3.908570528030396 0.003921568859369
-8.325067520141602 -1.785994529724121 -0.287492036819458 0.000000000000000
-4.764194011688232 -1.664813041687012 0.133030652999878 0.000000000000000
-17.840606689453125 -6.526385784149170 -0.338760852813721 0.003921568859369
-8.173963546752930 -2.483101367950439 -0.004986055660993 0.003921568859369
-14.580540657043457 -5.081123352050781 0.076888725161552 0.000000000000000
-7.784492969512939 -2.191593170166016 0.443744987249374 0.000000000000000
-21.656732559204102 -6.312185287475586 5.923261642456055 0.003921568859369
-12.045466423034668 -2.756516456604004 -0.076394505798817 0.000000000000000
-9.934924125671387 -2.755260705947876 0.224806442856789 0.000000000000000
-15.568845748901367 -3.593215465545654 2.831124067306519 0.000000000000000
-9.255208015441895 -2.528804779052734 0.208701878786087 0.000000000000000
-11.118401527404785 -3.589331626892090 0.058229275047779 0.000000000000000
-9.230812072753906 -2.026017189025879 0.363975167274475 0.000000000000000
-21.080490112304688 -5.821285724639893 2.622486352920532 0.003921568859369
-23.790899276733398 -5.368218898773193 4.358785152435303 0.003921568859369
-9.497021675109863 -2.023252010345459 -0.059066440910101 0.000000000000000
-23.079914093017578 -6.225509643554688 6.283017158508301 0.003921568859369
-15.958185195922852 -3.462571859359741 2.894957780838013 0.003921568859369
-9.884278297424316 -3.069405078887939 -0.180139839649200 0.000000000000000
-14.752955436706543 -3.137880325317383 0.248078525066376 0.000000000000000
-9.749304771423340 -2.045000553131104 0.384829759597778 0.000000000000000
-6.826126098632812 -1.407270550727844 1.195874571800232 0.000000000000000
-6.550600051879883 -1.899212241172791 -0.115777745842934 0.000000000000000
-10.878017425537109 -3.194165945053101 0.056914951652288 0.000000000000000
-4.818686485290527 -0.889049291610718 0.366171687841415 0.000000000000000
-5.188087940216064 -1.460580110549927 -0.206248283386230 0.000000000000000
-7.155606746673584 -1.332883715629578 -0.043095670640469 0.000000000000000
-11.923492431640625 -2.274192571640015 2.134781599044800 0.000000000000000
-29.682271957397461 -5.662775993347168 -0.885456562042236 0.003921568859369
-9.434057235717773 -1.748901963233948 -0.057990774512291 0.000000000000000
-4.350395202636719 -0.766852498054504 0.731999933719635 0.000000000000000
-29.789247512817383 -5.571794509887695 -0.887961685657501 0.003921568859369
-14.549507141113281 -3.407718420028687 -0.008543815463781 0.000000000000000
-14.989818572998047 -4.277931690216064 0.432714551687241 0.000000000000000
-7.875261783599854 -1.801839590072632 0.443757861852646 0.000000000000000
-5.985472679138184 -1.061242222785950 0.229257702827454 0.000000000000000
-11.581018447875977 -2.122516632080078 0.923004865646362 0.000000000000000
-21.178388595581055 -6.015343666076660 -0.895495116710663 0.003921568859369
-21.083003997802734 -5.906664371490479 0.110900521278381 0.003921568859369
-29.782072067260742 -5.257622241973877 -0.885749340057373 0.003921568859369
-11.750248908996582 -2.611359119415283 0.671668410301208 0.000000000000000
-29.755302429199219 -5.147964954376221 -0.884130239486694 0.003921568859369
-11.648537635803223 -2.547821283340454 0.665626645088196 0.000000000000000
-11.631350517272949 -1.972455143928528 0.459115594625473 0.000000000000000
-8.984720230102539 -1.881854295730591 -0.004388754721731 0.003921568859369
-11.823037147521973 -2.466318368911743 3.125498771667480 0.000000000000000
-17.009147644042969 -3.521383285522461 2.075407981872559 0.003921568859369
-20.915803909301758 -4.351859569549561 5.607409477233887 0.003921568859369
-14.098873138427734 -2.853644847869873 0.318095296621323 0.000000000000000
-26.521558761596680 -5.440966606140137 3.260730266571045 0.003921568859369
-9.025489807128906 -1.766461014747620 -0.004281123634428 0.003921568859369
-5.697936534881592 -1.086974501609802 0.662284314632416 0.000000000000000
-8.923052787780762 -1.316069006919861 0.700540304183960 0.000000000000000
-13.624471664428711 -2.041624069213867 2.433624029159546 0.000000000000000
-17.322147369384766 -3.339359521865845 -0.009468832053244 0.003921568859369
-9.809604644775391 -2.341376066207886 0.051143314689398 0.000000000000000
-15.721385955810547 -2.252833604812622 0.262751638889313 0.000000000000000
-14.711079597473145 -3.505777835845947 -0.265799969434738 0.000000000000000
-10.575190544128418 -2.494125366210938 0.299266159534454 0.000000000000000
-13.958499908447266 -2.578836679458618 0.796714186668396 0.000000000000000
-23.240760803222656 -3.112336874008179 -0.145710527896881 0.003921568859369
-7.256666660308838 -1.257612943649292 0.854057192802429 0.000000000000000
-4.638763904571533 -0.763259232044220 -0.001325577730313 0.000000000000000
-8.747363090515137 -0.667952299118042 0.094677753746510 0.000000000000000
-7.860181331634521 -1.720683097839355 0.219399228692055 0.000000000000000
-6.824729919433594 -1.134200811386108 0.377842038869858 0.000000000000000
-7.479040622711182 -1.583263635635376 -0.130138933658600 0.000000000000000
-6.773544788360596 -1.102243661880493 0.374641150236130 0.000000000000000
-12.089559555053711 -2.018850803375244 1.451830148696899 0.000000000000000
-7.343877792358398 -1.201959609985352 1.887509703636169 0.000000000000000
-13.442407608032227 -2.862871408462524 -0.240412652492523 0.000000000000000
-23.712417602539062 -1.376887083053589 0.262133836746216 0.003921568859369
-23.884805679321289 -1.304766416549683 0.264094561338425 0.003921568859369
-14.911236763000488 -1.522121429443359 0.588446736335754 0.000000000000000
-5.745837688446045 -0.809783220291138 -0.001831796951592 0.000000000000000
-23.821077346801758 -1.218649506568909 -0.282872885465622 0.003921568859369
-9.950237274169922 -1.444704174995422 1.182769775390625 0.000000000000000
-10.009487152099609 -0.975633084774017 0.785468637943268 0.000000000000000
-7.768632888793945 -1.116672396659851 1.996128559112549 0.000000000000000
-15.795232772827148 -1.508211851119995 2.815113782882690 0.000000000000000
-9.230051040649414 -0.833902060985565 0.151681691408157 0.000000000000000
-25.761152267456055 -1.053148627281189 -0.305844485759735 0.003921568859369
-24.022993087768555 -0.981742084026337 0.266045808792114 0.003921568859369
-8.766896247863770 -1.597385883331299 0.244484320282936 0.000000000000000
-10.849544525146484 -0.951520621776581 1.911649942398071 0.000000000000000
-24.030105590820312 -0.903495430946350 0.266170203685760 0.003921568859369
-10.521445274353027 -1.388290405273438 0.591480851173401 0.000000000000000
-24.005121231079102 -0.819989442825317 0.265940546989441 0.003921568859369
-14.242258071899414 -1.848605155944824 1.710097432136536 0.000000000000000
-28.984840393066406 -0.891718268394470 -0.344422549009323 0.003921568859369
-24.011831283569336 -0.737657964229584 0.266069322824478 0.003921568859369
-19.951894760131836 -1.574051618576050 3.570426702499390 0.003921568859369
-8.187561035156250 -1.375605821609497 -0.141661867499352 0.000000000000000
-27.400491714477539 -0.748079001903534 -0.325146019458771 0.003921568859369
-4.221401214599609 -0.485997140407562 0.089138768613338 0.000000000000000
-23.986261367797852 -0.654412031173706 0.265839666128159 0.003921568859369
-9.137729644775391 -1.106440663337708 1.079699158668518 0.000000000000000
-27.426921844482422 -0.654342651367188 -0.325339406728745 0.003921568859369
-23.988393783569336 -0.572017431259155 0.265923827886581 0.003921568859369
-6.901219367980957 -0.802200555801392 1.756679654121399 0.000000000000000
-26.361339569091797 -0.537934243679047 -0.312354594469070 0.003921568859369
-23.986238479614258 -0.489538997411728 0.265963256359100 0.003921568859369
-7.730144500732422 -0.515091359615326 1.340101718902588 0.000000000000000
-28.850505828857422 -0.489842116832733 -0.342277139425278 0.003921568859369
-23.983795166015625 -0.407082587480545 0.266002744436264 0.003921568859369
-23.965065002441406 -0.324436634778976 0.265862792730331 0.003921568859369
-10.297275543212891 -0.623328447341919 0.401182651519775 0.000000000000000
-23.958044052124023 -0.242042407393456 0.265857517719269 0.003921568859369
-23.958736419677734 -0.159748882055283 0.265942126512527 0.003921568859369
-13.007627487182617 -0.705171763896942 1.027396440505981 0.000000000000000
-15.344181060791016 -0.781554281711578 -0.092719897627831 0.000000000000000
-23.955139160156250 -0.077452175319195 0.265981942415237 0.003921568859369
-6.757463932037354 -0.648094713687897 0.370981723070145 0.000000000000000
-9.557081222534180 -0.932310521602631 1.128456354141235 0.000000000000000
-23.933681488037109 0.004985693842173 0.266041100025177 0.003921568859369
-23.941524505615234 0.083124674856663 0.266209781169891 0.003921568859369
-17.991350173950195 -1.665566802024841 1.022730231285095 0.000000000000000
-23.884450912475586 -0.983333349227905 -0.693827390670776 0.003921568859369
-25.788536071777344 -1.063379764556885 -0.157799243927002 0.003921568859369
-23.945081710815430 0.165401041507721 0.266337782144547 0.003921568859369
-2.726564884185791 -0.100880309939384 0.428489893674850 0.000000000000000
-23.967641830444336 -0.904337882995605 -0.696108162403107 0.003921568859369
-23.948348999023438 0.247697398066521 0.266465961933136 0.003921568859369
-23.926692962646484 -0.820464670658112 -0.694727420806885 0.003921568859369
-29.626138687133789 0.410749405622482 -0.350558429956436 0.003921568859369
-23.951332092285156 0.330024331808090 0.266594231128693 0.003921568859369
-23.937402725219727 -0.738506078720093 -0.694881916046143 0.003921568859369
-3.995527267456055 -0.292840063571930 -0.000541505869478 0.000000000000000
-25.385480880737305 0.438158243894577 -0.299484938383102 0.003921568859369
-23.970024108886719 0.412662178277969 0.266902834177017 0.003921568859369
-23.923841476440430 -0.655828475952148 -0.694327771663666 0.003921568859369
-25.407785415649414 0.525945544242859 -0.299684792757034 0.003921568859369
-23.980428695678711 0.495254695415497 0.267121583223343 0.003921568859369
-26.240289688110352 -0.629778206348419 -0.762597143650055 0.003921568859369
-25.121896743774414 0.606324672698975 -0.296183973550797 0.003921568859369
-23.954553604125977 0.577045738697052 0.266934841871262 0.003921568859369
-27.433547973632812 -0.564237177371979 -0.797681927680969 0.003921568859369
-24.887727737426758 0.686175107955933 -0.293309658765793 0.003921568859369
-26.341056823730469 -0.542154729366302 -0.160609424114227 0.003921568859369
-19.044897079467773 -1.305238962173462 0.427842855453491 0.000000000000000
-23.976373672485352 0.660009503364563 0.267289102077484 0.003921568859369
-27.471326828002930 -0.470422446727753 -0.798649787902832 0.003921568859369
-24.877183914184570 0.771464347839355 -0.293126434087753 0.003921568859369
-24.009899139404297 0.743505418300629 0.267778903245926 0.003921568859369
-7.541903972625732 -0.477949321269989 0.879220366477966 0.000000000000000
-28.584211349487305 -0.391159921884537 -0.831361591815948 0.003921568859369
-25.086187362670898 0.864413380622864 -0.295583903789520 0.003921568859369
-24.003149032592773 0.825853228569031 0.267817944288254 0.003921568859369
-5.620220184326172 -0.589647352695465 0.151994735002518 0.000000000000000
-17.197916030883789 -1.058970928192139 0.974820077419281 0.000000000000000
-23.763753890991211 -0.243081763386726 -0.688961207866669 0.003921568859369
-24.032089233398438 0.909544348716736 0.268263250589371 0.003921568859369
-21.470693588256836 -2.291050672531128 0.607909321784973 0.003921568859369
-23.770864486694336 -0.161390960216522 -0.689076006412506 0.003921568859369
-23.999187469482422 0.991261363029480 0.268207222223282 0.003921568859369
-11.820002555847168 -0.080952525138855 0.462964683771133 0.000000000000000
-11.905492782592773 -0.648270428180695 3.090473175048828 0.000000000000000
-11.411002159118652 -1.123532652854919 -0.197894737124443 0.000000000000000
-23.727283477783203 -0.083647049963474 -0.687702655792236 0.003921568859369
-25.154268264770508 1.122752785682678 -0.296195387840271 0.003921568859369
-24.035718917846680 1.071415066719055 0.268737375736237 0.003921568859369
-23.775407791137695 -0.002130407840014 -0.689037680625916 0.003921568859369
-23.867816925048828 1.146531462669373 -0.280722439289093 0.003921568859369
-23.995870590209961 1.152242064476013 0.268413215875626 0.003921568859369
-7.798886775970459 -0.730773866176605 0.214685603976250 0.000000000000000
-23.767269134521484 0.079530723392963 -0.688721597194672 0.003921568859369
-14.218233108520508 0.045146126300097 0.559849500656128 0.000000000000000
-23.798830032348633 0.161414623260498 -0.689584314823151 0.003921568859369
-7.124354839324951 -0.285819202661514 0.391739398241043 0.000000000000000
-23.978229522705078 -0.991599023342133 -0.558775782585144 0.003921568859369
-23.774127960205078 0.242933019995689 -0.688796460628510 0.003921568859369
-13.287616729736328 -0.500250816345215 1.582376599311829 0.000000000000000
-9.032578468322754 0.087450794875622 0.704770803451538 0.000000000000000
-23.961561203002930 -0.908428609371185 -0.558222293853760 0.003921568859369
-23.905061721801758 0.326459944248199 -0.692605495452881 0.003921568859369
-29.626173019409180 0.405735373497009 -0.179887413978577 0.003921568859369
-23.948596954345703 -0.825526118278503 -0.557763576507568 0.003921568859369
-23.971735000610352 0.409786671400070 -0.694527864456177 0.003921568859369
-25.369302749633789 0.433620542287827 -0.153462082147598 0.003921568859369
-11.130359649658203 -0.868338346481323 0.310179144144058 0.000000000000000
-23.955326080322266 -0.743353128433228 -0.557778537273407 0.003921568859369
-23.934177398681641 0.491398990154266 -0.693385720252991 0.003921568859369
-23.913801193237305 -0.659809231758118 -0.556656718254089 0.003921568859369
-23.916324615478516 0.573248565196991 -0.692832946777344 0.003921568859369
-25.389642715454102 0.608693361282349 -0.153437539935112 0.003921568859369
-23.926162719726562 0.655766725540161 -0.693104743957520 0.003921568859369
-24.911552429199219 0.682734131813049 -0.150411620736122 0.003921568859369
-26.348602294921875 -0.546350419521332 -0.614072144031525 0.003921568859369
-23.935714721679688 0.738349378108978 -0.693376481533051 0.003921568859369
-24.853038787841797 0.766620159149170 -0.149980887770653 0.003921568859369
-7.507256507873535 -0.127878293395042 0.874257326126099 0.000000000000000
-28.817277908325195 -0.498731136322021 -0.672402858734131 0.003921568859369
-23.899442672729492 0.819758892059326 -0.692336559295654 0.003921568859369
-12.580151557922363 1.023133516311646 -0.145221620798111 0.000000000000000
-23.645620346069336 -1.467268943786621 0.126384735107422 0.003921568859369
-25.080478668212891 0.860459685325623 -0.151210039854050 0.003921568859369
-28.797273635864258 -0.399051249027252 -0.671727061271667 0.003921568859369
-23.900428771972656 0.902048945426941 -0.692374467849731 0.003921568859369
-23.546777725219727 -1.379835724830627 0.125901877880096 0.003921568859369
-23.948116302490234 -0.249057829380035 -0.556852996349335 0.003921568859369
-23.885141372680664 0.983680188655853 -0.691941320896149 0.003921568859369
-11.520503044128418 -0.081644468009472 1.366124153137207 0.000000000000000
-23.876857757568359 -0.166248768568039 -0.555071413516998 0.003921568859369
-23.897907257080078 1.058284282684326 -0.692340254783630 0.003921568859369
-10.098320960998535 -0.515857577323914 0.053559836000204 0.000000000000000
-14.009091377258301 -0.055644452571869 0.790283143520355 0.000000000000000
-24.661027908325195 -0.095387987792492 -0.573542296886444 0.003921568859369
-23.878089904785156 1.139632582664490 -0.691789269447327 0.003921568859369
-24.211471557617188 1.155283093452454 -0.145619794726372 0.003921568859369
-15.622495651245117 -0.008706903085113 0.883662700653076 0.000000000000000
-24.009393692016602 -0.010371441021562 -0.558043658733368 0.003921568859369
-23.765943527221680 1.220167994499207 -0.688527405261993 0.003921568859369
-23.981273651123047 0.076192319393158 -0.557298600673676 0.003921568859369
-25.749145507812500 -1.071030139923096 0.138047128915787 0.003921568859369
-12.467492103576660 0.079195290803909 0.701236128807068 0.000000000000000
-24.360744476318359 0.161202445626259 -0.566202580928802 0.003921568859369
-10.462876319885254 -0.391864627599716 -0.179431587457657 0.000000000000000
-12.154047012329102 1.275944828987122 -0.140159860253334 0.000000000000000
-30.209337234497070 -1.154496431350708 0.162179708480835 0.003921568859369
-9.438248634338379 0.981187760829926 0.104828335344791 0.000000000000000
-9.119392395019531 0.515802741050720 0.151314288377762 0.000000000000000
-16.021001815795898 0.157779142260551 0.906925082206726 0.000000000000000
-24.008144378662109 0.241326436400414 -0.557802140712738 0.003921568859369
-23.839658737182617 1.470627427101135 -0.690875768661499 0.003921568859369
-25.198705673217773 0.340286612510681 -0.585893154144287 0.003921568859369
-23.854591369628906 1.549773931503296 -0.691387534141541 0.003921568859369
-6.800306320190430 0.107258714735508 0.373436748981476 0.000000000000000
-8.037034988403320 0.503952324390411 0.311815381050110 0.000000000000000
-23.856725692749023 1.636404275894165 -0.691538155078888 0.003921568859369
-6.413575649261475 0.122459128499031 0.741379857063293 0.000000000000000
-24.456075668334961 0.498260140419006 -0.568242609500885 0.003921568859369
-10.114065170288086 0.709438025951385 0.396213352680206 0.000000000000000
-9.584535598754883 0.218486189842224 1.129751682281494 0.000000000000000
-26.312240600585938 -0.550743401050568 0.141721218824387 0.003921568859369
-16.008602142333984 0.485692948102951 0.907324850559235 0.000000000000000
-25.582872390747070 3.349480390548706 -0.301416248083115 0.003921568859369
-24.254034042358398 0.818780779838562 0.549186408519745 0.003921568859369
-12.020018577575684 0.397964745759964 0.676417648792267 0.000000000000000
-25.391489028930664 3.421899080276489 -0.299181401729584 0.003921568859369
-24.190763473510742 0.908220767974854 0.547897875308990 0.003921568859369
-24.585945129394531 0.924389660358429 -0.571193218231201 0.003921568859369
-25.240755081176758 3.489782094955444 -0.297431677579880 0.003921568859369
-11.866847038269043 1.042649626731873 -0.069359391927719 0.000000000000000
-9.423794746398926 0.820548295974731 0.157307371497154 0.000000000000000
-24.418752670288086 1.002096414566040 -0.567242801189423 0.003921568859369
-25.082557678222656 3.551207065582275 -0.295592069625854 0.003921568859369
-24.423700332641602 1.081180334091187 0.553554832935333 0.003921568859369
-23.800085067749023 1.054136753082275 -0.552631735801697 0.003921568859369
-24.990859985351562 3.625817298889160 -0.294556736946106 0.003921568859369
-23.812232971191406 1.136720418930054 -0.552931487560272 0.003921568859369
-24.919370651245117 3.698529481887817 -0.293763577938080 0.003921568859369
-24.021965026855469 0.067589417099953 0.129814237356186 0.003921568859369
-6.793705463409424 0.330591440200806 0.789710104465485 0.000000000000000
-24.862159729003906 3.781788825988770 -0.293152213096619 0.003921568859369
-24.033548355102539 0.154379457235336 0.129960596561432 0.003921568859369
-11.438390731811523 1.708188414573669 0.129035055637360 0.000000000000000
-24.877134323120117 3.867379426956177 -0.293403923511505 0.003921568859369
-24.040897369384766 0.232955038547516 0.130077630281448 0.003921568859369
-6.648647308349609 0.676993489265442 0.256994783878326 0.000000000000000
-24.795661926269531 3.946362972259521 -0.292508035898209 0.003921568859369
-24.023878097534180 0.319527655839920 0.130071803927422 0.003921568859369
-23.849931716918945 1.467522025108337 -0.553939759731293 0.003921568859369
-24.751567840576172 4.017894268035889 -0.292052239179611 0.003921568859369
-24.026750564575195 0.393922895193100 0.130163371562958 0.003921568859369
-23.893081665039062 1.544446468353271 -0.555000841617584 0.003921568859369
-24.786291122436523 4.116724491119385 -0.292568504810333 0.003921568859369
-24.043550491333008 0.481307536363602 0.130518794059753 0.003921568859369
-13.873674392700195 1.602402687072754 -0.081526167690754 0.000000000000000
-4.571616172790527 0.513149738311768 -0.123555213212967 0.000000000000000
-24.763879776000977 4.200617313385010 -0.292390942573547 0.003921568859369
-24.041719436645508 0.563986718654633 0.130594566464424 0.003921568859369
-7.539885520935059 0.521301269531250 0.166523665189743 0.000000000000000
-7.971854209899902 0.552534699440002 0.443452686071396 0.000000000000000
-11.860990524291992 1.403245449066162 0.944252371788025 0.000000000000000
-25.876550674438477 3.208695411682129 -0.753933012485504 0.003921568859369
-24.788454055786133 4.292714595794678 -0.292781978845596 0.003921568859369
-24.051591873168945 0.646988391876221 0.130736067891121 0.003921568859369
-25.294198989868164 3.223883867263794 -0.736948668956757 0.003921568859369
-11.074657440185547 0.854418516159058 -0.002063070423901 0.003921568859369
-24.852054595947266 4.392090320587158 -0.293646425008774 0.003921568859369
-24.045183181762695 0.729565799236298 0.130790174007416 0.003921568859369
-11.917406082153320 0.920441210269928 1.421608805656433 0.000000000000000
-24.438577651977539 3.198707580566406 -0.711871325969696 0.003921568859369
-6.874187946319580 0.541593492031097 -0.000800549634732 0.000000000000000
-24.907384872436523 4.490533828735352 -0.294415533542633 0.003921568859369
-24.042484283447266 0.812255024909973 0.130866274237633 0.003921568859369
-24.352561950683594 3.268284320831299 -0.709565520286560 0.003921568859369
-24.974924087524414 4.587310791015625 -0.295330375432968 0.003921568859369
-24.035654067993164 0.890639603137970 0.130916729569435 0.003921568859369
-15.178552627563477 2.016323328018188 1.218599796295166 0.000000000000000
-23.691034317016602 3.265279054641724 -0.690241336822510 0.003921568859369
-24.052206039428711 0.978247880935669 0.131106436252594 0.003921568859369
-23.034387588500977 3.254081487655640 -0.671042740345001 0.003921568859369
-24.048641204833984 1.060954451560974 0.131182864308357 0.003921568859369
-18.930370330810547 2.660967588424683 3.417609453201294 0.003921568859369
-24.673023223876953 3.571715116500854 -0.719880640506744 0.003921568859369
-24.052972793579102 1.139899373054504 0.131299450993538 0.003921568859369
-24.573421478271484 3.643479824066162 -0.717218816280365 0.003921568859369
-24.291194915771484 3.690754413604736 -0.709159255027771 0.003921568859369
-9.754552841186523 0.517963171005249 0.272034049034119 0.000000000000000
-17.458822250366211 1.785194158554077 0.997818589210510 0.000000000000000
-4.344055175781250 0.613083600997925 -0.211241379380226 0.000000000000000
-18.023202896118164 3.615063428878784 -0.631841182708740 0.003921568859369
-24.278820037841797 3.770104885101318 -0.709082603454590 0.003921568859369
-8.331749916076660 1.254822611808777 0.328225553035736 0.000000000000000
-12.800325393676758 1.957456350326538 2.294943332672119 0.000000000000000
-12.818125724792480 0.770930945873260 0.360784798860550 0.000000000000000
-26.302412033081055 4.271482467651367 -0.769933044910431 0.003921568859369
-8.425642967224121 1.736298561096191 -0.096448563039303 0.000000000000000
-9.660527229309082 1.530475378036499 0.163760483264923 0.000000000000000
-10.839870452880859 0.685684680938721 -0.430333137512207 0.000000000000000
-26.306293487548828 4.369885921478271 -0.770429313182831 0.003921568859369
-26.311353683471680 4.459319591522217 -0.770933926105499 0.003921568859369
-10.689299583435059 1.257467150688171 0.604973733425140 0.000000000000000
-25.515876770019531 4.413101196289062 -0.747648060321808 0.003921568859369
-6.992843627929688 1.162839293479919 0.117416165769100 0.000000000000000
-25.820476531982422 3.193321704864502 -0.602585852146149 0.003921568859369
-25.579030990600586 4.515010356903076 -0.749908030033112 0.003921568859369
-25.249959945678711 3.210063457489014 -0.589244842529297 0.003921568859369
-24.493278503417969 4.407630443572998 -0.717960715293884 0.003921568859369
-24.489356994628906 3.197637557983398 -0.571394443511963 0.003921568859369
-24.552421569824219 4.505786418914795 -0.720106124877930 0.003921568859369
-8.007415771484375 0.660725831985474 0.222555577754974 0.000000000000000
-24.172943115234375 3.240347623825073 -0.564077556133270 0.003921568859369
-24.143733978271484 4.515650272369385 -0.708313763141632 0.003921568859369
-23.682268142700195 3.256549358367920 -0.552626907825470 0.003921568859369
-24.128622055053711 4.594525814056396 -0.708238661289215 0.003921568859369
-11.438325881958008 1.033862471580505 0.322068095207214 0.000000000000000
-23.069627761840820 3.247823476791382 -0.538269579410553 0.003921568859369
-11.212732315063477 1.589279055595398 2.939792633056641 0.000000000000000
-24.584772109985352 3.555254936218262 -0.574462831020355 0.003921568859369
-24.487129211425781 4.843255043029785 -0.719784438610077 0.003921568859369
-8.756785392761230 1.261551141738892 -0.000832061632536 0.003921568859369
-24.572206497192383 3.639831542968750 -0.574383556842804 0.003921568859369
-24.465328216552734 4.923406124114990 -0.719671607017517 0.003921568859369
-24.503019332885742 3.712373971939087 -0.573020458221436 0.003921568859369
-23.665910720825195 4.840770244598389 -0.696187734603882 0.003921568859369
-5.197879314422607 0.536042749881744 0.141888350248337 0.000000000000000
-8.267292022705078 1.299915909767151 0.985061347484589 0.000000000000000
-26.352869033813477 4.276061058044434 -0.617762207984924 0.003921568859369
-26.349609375000000 4.368800640106201 -0.617960572242737 0.003921568859369
-9.000579833984375 1.050021052360535 -0.153277084231377 0.000000000000000
-26.405921936035156 4.467177867889404 -0.619570970535278 0.003921568859369
-25.680370330810547 4.438402175903320 -0.602589786052704 0.003921568859369
-10.641661643981934 2.900724887847900 -0.998674154281616 0.000000000000000
-24.405065536499023 4.301486015319824 -0.572479963302612 0.003921568859369
-16.694812774658203 2.161893844604492 0.092994458973408 0.000000000000000
-10.531905174255371 2.908201456069946 -0.988962769508362 0.000000000000000
-14.654780387878418 3.338080883026123 0.255355805158615 0.000000000000000
-24.484312057495117 4.402672290802002 -0.574654340744019 0.003921568859369
-10.423237800598145 2.911432743072510 -0.979255437850952 0.000000000000000
-9.734242439270020 2.220389842987061 0.392723500728607 0.000000000000000
-24.474285125732422 4.479222297668457 -0.574678122997284 0.003921568859369
-10.409187316894531 2.945472478866577 -0.978849470615387 0.000000000000000
-10.306173324584961 2.956873178482056 -0.969880640506744 0.000000000000000
-10.272482872009277 1.417534828186035 0.290610551834106 0.000000000000000
-7.231433391571045 1.681036472320557 0.578739285469055 0.000000000000000
-4.766075134277344 1.094967484474182 -0.026077475398779 0.000000000000000
-10.077651023864746 2.924041271209717 -0.949032008647919 0.000000000000000
-10.016820907592773 2.946320295333862 -0.944159328937531 0.000000000000000
-9.934165000915527 2.957772493362427 -0.937057375907898 0.000000000000000
-11.807556152343750 2.930488348007202 -0.966764569282532 0.000000000000000
-23.699449539184570 4.768159866333008 -0.557839691638947 0.003921568859369
-7.590994834899902 1.137320041656494 0.042142599821091 0.000000000000000
-7.339109420776367 2.182626485824585 -0.683998405933380 0.000000000000000
-11.720586776733398 2.948490858078003 -0.960210382938385 0.000000000000000
-9.207321166992188 1.838173747062683 1.111444950103760 0.000000000000000
-23.683502197265625 4.845598220825195 -0.557769596576691 0.003921568859369
-4.316987991333008 0.637087285518646 0.023608701303601 0.000000000000000
-11.582987785339355 2.954738140106201 -0.949417471885681 0.000000000000000
-15.265038490295410 3.150617599487305 0.886872708797455 0.000000000000000
-11.391553878784180 2.945679187774658 -0.934062242507935 0.000000000000000
-9.660064697265625 2.481483459472656 1.758421659469604 0.000000000000000
-10.330654144287109 1.675415754318237 -0.177843496203423 0.000000000000000
-11.261899948120117 2.951969146728516 -0.923923015594482 0.000000000000000
-8.615046501159668 2.266682863235474 -0.249642372131348 0.000000000000000
-11.059286117553711 2.937361240386963 -0.907592177391052 0.000000000000000
-6.662961006164551 1.402877092361450 0.377231746912003 0.000000000000000
-13.692160606384277 3.657775640487671 0.563515365123749 0.000000000000000
-7.250864982604980 1.207820653915405 0.040435977280140 0.000000000000000
-10.991346359252930 2.958746194839478 -0.902669072151184 0.000000000000000
-17.556648254394531 3.886559724807739 1.026227593421936 0.000000000000000
-13.619761466979980 2.996553421020508 1.670509338378906 0.000000000000000
-8.911497116088867 1.526500821113586 -0.152624621987343 0.000000000000000
-10.832324981689453 2.950083494186401 -0.889928400516510 0.000000000000000
-10.725593566894531 2.961171627044678 -0.881745755672455 0.000000000000000
-11.723759651184082 2.648435115814209 3.131026029586792 0.000000000000000
-10.603606224060059 2.967091560363770 -0.872260332107544 0.000000000000000
-10.531243324279785 2.982597827911377 -0.867362141609192 0.000000000000000
-14.390413284301758 3.375613689422607 -0.337389439344406 0.000000000000000
-7.816179752349854 2.217159271240234 -0.045073159039021 0.000000000000000
-10.382645606994629 2.979130506515503 -0.855598092079163 0.000000000000000
-11.397849082946777 3.321590900421143 -0.067174531519413 0.000000000000000
-10.257637977600098 2.979769706726074 -0.845791459083557 0.000000000000000
-8.241827964782715 2.372059106826782 1.505528330802917 0.000000000000000
-10.197588920593262 2.999303102493286 -0.841524481773376 0.000000000000000
-10.175626754760742 3.030190706253052 -0.840515613555908 0.000000000000000
-14.520814895629883 2.889215946197510 0.419905424118042 0.000000000000000
-7.698515415191650 2.265097856521606 1.405179142951965 0.000000000000000
-10.176937103271484 3.066368818283081 -0.841463208198547 0.000000000000000
-12.955008506774902 3.264681100845337 -0.303959786891937 0.000000000000000
-10.059625625610352 3.600341796875000 -0.967462658882141 0.000000000000000
-10.154222488403320 3.098824977874756 -0.840452909469604 0.000000000000000
-7.919929504394531 1.990523695945740 0.456804871559143 0.000000000000000
-10.021520614624023 3.622802734375000 -0.964829087257385 0.000000000000000
-10.075529098510742 3.109537124633789 -0.834559202194214 0.000000000000000
-11.629707336425781 3.002874851226807 3.131340026855469 0.000000000000000
-9.990183830261230 3.649552106857300 -0.962937951087952 0.000000000000000
-11.509708404541016 3.016280889511108 -0.809774637222290 0.000000000000000
-10.098752021789551 3.154558897018433 -0.837459802627563 0.000000000000000
-11.325923919677734 3.007846117019653 -0.797163128852844 0.000000000000000
-10.129355430603027 3.202257394790649 -0.841011643409729 0.000000000000000
-13.215723991394043 4.968794822692871 -0.160057529807091 0.000000000000000
-8.770768165588379 1.899263024330139 0.049964163452387 0.000000000000000
-11.227448463439941 3.019747257232666 -0.790702581405640 0.000000000000000
-10.118678092956543 3.234722137451172 -0.840981721878052 0.000000000000000
-5.860198020935059 1.529096961021423 1.536738634109497 0.000000000000000
-5.176134109497070 1.107908725738525 -0.086424827575684 0.000000000000000
-11.078024864196777 3.020744562149048 -0.780606269836426 0.000000000000000
-10.125655174255371 3.276890039443970 -0.842577338218689 0.000000000000000
-9.603902816772461 2.640274286270142 0.000000510131940 0.003921568859369
-10.943393707275391 3.022542715072632 -0.771928787231445 0.000000000000000
-10.101589202880859 3.306862592697144 -0.841926574707031 0.000000000000000
-10.805735588073730 3.024879455566406 -0.762673556804657 0.000000000000000
-10.089399337768555 3.342660665512085 -0.841894447803497 0.000000000000000
-6.683937549591064 1.525011420249939 0.038078621029854 0.000000000000000
-10.707027435302734 3.035652399063110 -0.756214797496796 0.000000000000000
-10.085200309753418 3.379322767257690 -0.842515289783478 0.000000000000000
-10.597428321838379 3.040579080581665 -0.748920023441315 0.000000000000000
-10.100274085998535 3.420884609222412 -0.844765782356262 0.000000000000000
-10.525598526000977 3.058052778244019 -0.744418144226074 0.000000000000000
-10.061964035034180 3.445652961730957 -0.842455565929413 0.000000000000000
-10.488132476806641 3.085505723953247 -0.742430984973907 0.000000000000000
-10.064885139465332 3.484985113143921 -0.843727409839630 0.000000000000000
-14.110674858093262 4.184790611267090 0.838550806045532 0.000000000000000
-13.324842453002930 3.945287227630615 1.667453765869141 0.000000000000000
-10.462038993835449 3.116256237030029 -0.741282165050507 0.000000000000000
-10.015171051025391 3.505376577377319 -0.840440452098846 0.000000000000000
-9.893719673156738 2.940233707427979 0.582925736904144 0.000000000000000
-12.312632560729980 3.097661972045898 -0.216598048806190 0.000000000000000
-10.428236961364746 3.144487857818604 -0.739574670791626 0.000000000000000
-10.051540374755859 3.556982755661011 -0.844642877578735 0.000000000000000
-10.417194366455078 3.179723024368286 -0.739543318748474 0.000000000000000
-10.024105072021484 3.585366964340210 -0.843309760093689 0.000000000000000
-10.849801063537598 4.529400825500488 -0.132289960980415 0.000000000000000
-10.398427009582520 3.212492704391479 -0.738953411579132 0.000000000000000
-10.078740119934082 3.644325971603394 -0.849139809608459 0.000000000000000
-19.511575698852539 7.167150974273682 3.734016895294189 0.003921568859369
-10.373090744018555 3.239211559295654 -0.737807929515839 0.000000000000000
-10.111995697021484 3.691837787628174 -0.853019058704376 0.000000000000000
-8.308308601379395 3.042278289794922 -0.247804880142212 0.000000000000000
-9.902824401855469 4.197824954986572 -0.974789500236511 0.000000000000000
-10.384476661682129 3.281685113906860 -0.739452540874481 0.000000000000000
-10.154915809631348 3.747284889221191 -0.857871532440186 0.000000000000000
-13.455506324768066 5.003291606903076 2.561967849731445 0.000000000000000
-9.906517982482910 4.245924472808838 -0.977412879467010 0.000000000000000
-10.343469619750977 3.312832832336426 -0.737771511077881 0.000000000000000
-10.134852409362793 3.785062313079834 -0.857879579067230 0.000000000000000
-11.958433151245117 3.269038438796997 -0.211268201470375 0.000000000000000
-9.822563171386719 4.248443603515625 -0.970319986343384 0.000000000000000
-10.328055381774902 3.346521377563477 -0.737461805343628 0.000000000000000
-10.121576309204102 3.819287061691284 -0.857849299907684 0.000000000000000
-10.316308975219727 3.381425380706787 -0.737431526184082 0.000000000000000
-10.108180999755859 3.853467226028442 -0.857819020748138 0.000000000000000
-7.174017429351807 2.695640563964844 1.343205690383911 0.000000000000000
-10.320136070251465 3.419714450836182 -0.738519787788391 0.000000000000000
-9.995326995849609 3.846103191375732 -0.849000751972198 0.000000000000000
-11.208006858825684 3.138624668121338 -0.726206064224243 0.000000000000000
-7.530702114105225 2.863732099533081 1.414965629577637 0.000000000000000
-10.323821067810059 3.458066225051880 -0.739607930183411 0.000000000000000
-10.082400321960449 3.918280124664307 -0.857761383056641 0.000000000000000
-11.109407424926758 3.148959398269653 -0.720282196998596 0.000000000000000
-13.389702796936035 5.243505477905273 2.567861557006836 0.000000000000000
-10.330515861511230 3.499543428421021 -0.740973711013794 0.000000000000000
-10.172096252441406 3.994293451309204 -0.866845548152924 0.000000000000000
-10.295665740966797 3.526466369628906 -0.739267826080322 0.000000000000000
-10.423696517944336 4.137499332427979 -0.890251159667969 0.000000000000000
-10.995382308959961 3.196677923202515 -0.714069187641144 0.000000000000000
-10.305830955505371 3.569320440292358 -0.740912675857544 0.000000000000000
-10.225003242492676 4.096497058868408 -0.873945116996765 0.000000000000000
-10.965054512023926 3.228114843368530 -0.712756276130676 0.000000000000000
-10.278297424316406 3.598718881607056 -0.739765346050262 0.000000000000000
-10.026721954345703 4.054161071777344 -0.857640147209167 0.000000000000000
-10.942269325256348 3.261727571487427 -0.711955904960632 0.000000000000000
-10.261290550231934 3.633809566497803 -0.739454209804535 0.000000000000000
-10.180736541748047 4.161044597625732 -0.872579813003540 0.000000000000000
-10.895936965942383 3.289944410324097 -0.709617018699646 0.000000000000000
-10.335908889770508 3.696817874908447 -0.745848000049591 0.000000000000000
-10.072250366210938 4.151369571685791 -0.864090263843536 0.000000000000000
-10.847467422485352 3.311159849166870 -0.707026898860931 0.000000000000000
-4.478574752807617 1.786901712417603 -0.025302790105343 0.000000000000000
-10.265569686889648 3.714278697967529 -0.741626620292664 0.000000000000000
-10.111159324645996 4.212419509887695 -0.868938267230988 0.000000000000000
-10.819458961486816 3.346690416336060 -0.705967545509338 0.000000000000000
-10.255723953247070 3.748392343521118 -0.742197990417480 0.000000000000000
-10.055713653564453 4.227343082427979 -0.865710198879242 0.000000000000000
-10.788104057312012 3.374831199645996 -0.704941809177399 0.000000000000000
-10.231389045715332 3.778795480728149 -0.741330862045288 0.000000000000000
-10.764871597290039 3.407644510269165 -0.704142928123474 0.000000000000000
-12.955585479736328 4.816207885742188 0.788168609142303 0.000000000000000
-10.973360061645508 4.668910980224609 0.475014895200729 0.000000000000000
-7.782175064086914 3.269083738327026 1.486890912055969 0.000000000000000
-8.107999801635742 2.570195198059082 0.048062887042761 0.000000000000000
-10.285153388977051 3.839203119277954 -0.746325850486755 0.000000000000000
-10.745326995849609 3.441586017608643 -0.703600108623505 0.000000000000000
-10.267969131469727 3.872528076171875 -0.746016919612885 0.000000000000000
-10.721886634826660 3.474173545837402 -0.702801287174225 0.000000000000000
-10.267872810363770 3.916552543640137 -0.747100591659546 0.000000000000000
-10.708466529846191 3.514094829559326 -0.702767670154572 0.000000000000000
-10.296305656433105 3.964005231857300 -0.750144064426422 0.000000000000000
-10.704925537109375 3.549304962158203 -0.703252375125885 0.000000000000000
-10.293511390686035 4.003273487091064 -0.750951409339905 0.000000000000000
-3.686775684356689 1.545642495155334 0.065739803016186 0.000000000000000
-10.688694953918457 3.584237575531006 -0.702965676784515 0.000000000000000
-13.534944534301758 4.619585037231445 -0.244230464100838 0.000000000000000
-10.297960281372070 4.045569896697998 -0.752316832542419 0.000000000000000
-14.316623687744141 4.892318248748779 0.431713849306107 0.000000000000000
-10.672347068786621 3.619100093841553 -0.702679097652435 0.000000000000000
-7.952222824096680 3.093356847763062 0.480579197406769 0.000000000000000
-10.320697784423828 4.095508575439453 -0.755077481269836 0.000000000000000
-10.674700736999512 3.660547018051147 -0.703672647476196 0.000000000000000
-10.327736854553223 4.141301155090332 -0.756720244884491 0.000000000000000
-10.649933815002441 3.694449901580811 -0.702872455120087 0.000000000000000
-8.265321731567383 3.319507122039795 0.201318353414536 0.000000000000000
-10.663247108459473 3.739995718002319 -0.704633891582489 0.000000000000000
-3.028657436370850 0.988293826580048 -0.184140741825104 0.000000000000000
-10.423875808715820 3.689151048660278 -0.437863707542419 0.000000000000000
-10.658820152282715 3.818288803100586 -0.706407070159912 0.000000000000000
-10.666513442993164 3.866371393203735 -0.707910239696503 0.000000000000000
-10.667887687683105 3.908133268356323 -0.708904385566711 0.000000000000000
-10.685395240783691 3.952021837234497 -0.710925221443176 0.000000000000000
-10.670835494995117 3.990015983581543 -0.710893750190735 0.000000000000000
-10.683583259582520 4.034479141235352 -0.712656855583191 0.003921568859369
-10.702866554260254 4.083802700042725 -0.714930295944214 0.000000000000000
-11.771931648254395 5.850787162780762 2.347697734832764 0.000000000000000
-9.683208465576172 3.721809387207031 0.294149905443192 0.000000000000000
-10.747177124023438 4.145451545715332 -0.718993484973907 0.000000000000000
-2.093603610992432 1.046013593673706 -0.071046099066734 0.000000000000000
-8.208833694458008 3.690420150756836 0.508787333965302 0.000000000000000
-7.894990921020508 3.165211915969849 -0.142733201384544 0.000000000000000
-4.329648494720459 2.197036743164062 0.375482112169266 0.000000000000000
-9.495411872863770 5.019461631774902 1.910787463188171 0.000000000000000
-5.974040985107422 2.745708465576172 -0.145471453666687 0.000000000000000
-3.657981395721436 1.438944816589355 0.022089771926403 0.000000000000000
-2.410254478454590 1.157639980316162 0.098931171000004 0.000000000000000
-13.224097251892090 5.709514617919922 0.083022415637970 0.000000000000000
-10.939440727233887 4.743832588195801 0.068634837865829 0.000000000000000
-8.476246833801270 3.679071664810181 -0.364090323448181 0.000000000000000
-5.181391716003418 2.840505599975586 1.030250072479248 0.000000000000000
-5.958184242248535 3.349931240081787 1.200342774391174 0.000000000000000
-3.870498895645142 2.164467811584473 0.074151784181595 0.000000000000000
-1.968779206275940 1.049571990966797 0.360547542572021 0.000000000000000
-2.014424085617065 1.095133543014526 0.372043848037720 0.000000000000000
-7.224370956420898 4.099023342132568 0.990094661712646 0.000000000000000
-6.927317619323730 3.587423086166382 0.220708802342415 0.000000000000000
-6.931047916412354 4.650346755981445 -0.045174773782492 0.000000000000000
-13.208944320678711 9.187075614929199 0.279584676027298 0.000000000000000
-5.817420959472656 3.535917758941650 0.807264924049377 0.000000000000000
-8.852313995361328 6.087036609649658 1.917838096618652 0.000000000000000
-8.060482025146484 5.046302318572998 1.139535307884216 0.000000000000000
-7.547041416168213 4.750683307647705 1.066863536834717 0.000000000000000
-7.769728660583496 4.895476818084717 2.397381544113159 0.000000000000000
-5.135940074920654 3.599276304244995 -0.174013495445251 0.000000000000000
-14.974940299987793 10.286272048950195 4.808623313903809 0.003921568859369
-6.890264987945557 4.626444339752197 -0.185944035649300 0.000000000000000
-9.202702522277832 6.290520668029785 2.926747560501099 0.000000000000000
-5.210826873779297 3.527252197265625 0.001553840469569 0.000000000000000
-11.805692672729492 7.484264373779297 0.081941574811935 0.000000000000000
-1.992837429046631 1.372702598571777 0.180164843797684 0.000000000000000
-4.373734951019287 2.696389436721802 -0.084223315119743 0.000000000000000
-4.162147045135498 3.162890672683716 -0.260683178901672 0.000000000000000
-8.405846595764160 6.072737216949463 2.719780921936035 0.000000000000000
-8.947289466857910 5.979117393493652 0.308369159698486 0.000000000000000
-6.764492511749268 5.479568481445312 0.695392131805420 0.000000000000000
-6.147674083709717 4.108395576477051 0.210079684853554 0.000000000000000
-4.151452064514160 3.412488698959351 0.943022429943085 0.000000000000000
-4.887296199798584 4.328222751617432 1.155618786811829 0.000000000000000
-4.400299072265625 4.129722118377686 1.067292094230652 0.000000000000000
-6.742709636688232 6.702170372009277 0.382293999195099 0.000000000000000
-7.828780651092529 8.688766479492188 0.137429639697075 0.000000000000000
-5.983307838439941 6.123422145843506 1.529974341392517 0.000000000000000
-5.812654495239258 5.504031658172607 -0.179842978715897 0.000000000000000
-5.952661037445068 6.311982154846191 1.552182435989380 0.000000000000000
-11.538539886474609 13.048443794250488 3.149067878723145 0.003921568859369
-5.165864467620850 4.728290081024170 0.200133711099625 0.000000000000000
-5.941134452819824 6.716906070709229 0.361164510250092 0.000000000000000
-5.588831901550293 6.342198371887207 1.513521432876587 0.000000000000000
-6.482230663299561 7.564460754394531 1.789409160614014 0.000000000000000
-3.311444044113159 3.136399984359741 -0.074929073452950 0.000000000000000
-5.322853088378906 6.381633281707764 1.488492965698242 0.000000000000000
-2.926337003707886 2.883235692977905 0.115981914103031 0.000000000000000
-8.373167991638184 9.725603103637695 3.399192810058594 0.000000000000000
-5.465640068054199 6.903740406036377 1.580547213554382 0.000000000000000
-5.571498870849609 7.096465110778809 0.157724201679230 0.000000000000000
-3.865204095840454 4.892011165618896 1.111446142196655 0.000000000000000
-7.722399711608887 10.411604881286621 2.340792894363403 0.000000000000000
-7.353153228759766 9.207521438598633 3.120696544647217 0.000000000000000
-9.847877502441406 12.712764739990234 4.274056911468506 0.003921568859369
-3.289404630661011 4.179978370666504 0.002021472901106 0.000000000000000
-11.570887565612793 17.266450881958008 3.771680355072021 0.003921568859369
-1.817980408668518 2.262974739074707 0.001445869216695 0.000000000000000
-4.270659446716309 5.825960159301758 1.901278734207153 0.000000000000000
-5.373577594757080 8.256107330322266 1.776375770568848 0.000000000000000
-3.314321756362915 4.509363174438477 0.672455608844757 0.000000000000000
-2.754017114639282 3.400629997253418 0.124882936477661 0.000000000000000
-5.348691463470459 7.971886157989502 1.166482090950012 0.000000000000000
-5.939073085784912 8.063489913940430 -0.169166728854179 0.000000000000000
-5.363028526306152 8.309935569763184 1.202715635299683 0.000000000000000
-5.492182254791260 9.532432556152344 0.892907798290253 0.000000000000000
-2.651889085769653 5.082369804382324 -0.062953747808933 0.000000000000000
-3.130428075790405 6.254360675811768 -0.237745240330696 0.000000000000000
-1.549236416816711 2.314404487609863 0.715874373912811 0.000000000000000
-6.480928421020508 11.051123619079590 0.744107007980347 0.000000000000000
-3.867924690246582 8.295047760009766 -0.101596020162106 0.000000000000000
-4.856087684631348 10.547579765319824 0.138830706477165 0.000000000000000
-6.640383720397949 12.977876663208008 2.645065784454346 0.000000000000000
-2.714025735855103 4.501977443695068 -0.357351630926132 0.000000000000000
-5.619104385375977 11.004997253417969 -0.637503623962402 0.000000000000000
-3.866844892501831 8.797413825988770 0.114984229207039 0.000000000000000
-4.057227611541748 8.185680389404297 -0.259322345256805 0.000000000000000
-6.416990280151367 13.345207214355469 0.262533068656921 0.000000000000000
-2.486166954040527 5.573295593261719 -0.207209631800652 0.000000000000000
-3.904371261596680 9.153607368469238 0.119152225553989 0.000000000000000
-1.792126178741455 3.900569677352905 -0.144614800810814 0.000000000000000
-6.287203311920166 11.641971588134766 3.522779226303101 0.000000000000000
-2.958899974822998 6.938470363616943 -0.083409763872623 0.000000000000000
-1.083458900451660 2.007896423339844 0.400411754846573 0.000000000000000
-4.324941158294678 9.621123313903809 0.187023997306824 0.000000000000000
-4.390301227569580 10.067982673645020 1.992009997367859 0.000000000000000
-3.543814659118652 8.106860160827637 -0.047078981995583 0.000000000000000
-4.429836750030518 10.266546249389648 0.198410972952843 0.000000000000000
-3.703287839889526 7.435911178588867 2.204491376876831 0.000000000000000
-3.905026674270630 9.068227767944336 0.175129249691963 0.000000000000000
-4.907722949981689 10.183494567871094 0.657551765441895 0.000000000000000
-3.464784383773804 7.048302173614502 2.083233594894409 0.000000000000000
-1.569398403167725 3.394618272781372 -0.189499765634537 0.000000000000000
