# This PCD file was generated using the MATLAB® pcwrite function
# from Computer Vision Toolbox®.
# .PCD v.7 - Point Cloud Data file format
VERSION .7
FIELDS x y z intensity
SIZE 8 8 8 8
TYPE F F F F
COUNT 1 1 1 1
WIDTH 645
HEIGHT 1
VIEWPOINT 0 0 0 1 0 0 0
POINTS 645
DATA ascii
-4.337123394012451 1.169524192810059 -0.075398243963718 0.000000000000000
-7.425299644470215 2.818034648895264 -0.996242165565491 0.000000000000000
-9.727300643920898 4.255617141723633 -0.980088591575623 0.000000000000000
-8.649321556091309 2.819104433059692 -0.627309858798981 0.000000000000000
-10.588420867919922 4.037033081054688 -0.915049552917480 0.000000000000000
-10.176714897155762 2.786303997039795 -0.667843520641327 0.000000000000000
-8.029227256774902 3.504005670547485 -0.502869367599487 0.000000000000000
-8.892330169677734 2.899358272552490 -0.429344266653061 0.000000000000000
-8.331455230712891 3.167251825332642 -0.460279673337936 0.000000000000000
-10.439357757568359 2.859021902084351 -0.435123473405838 0.000000000000000
-9.280665397644043 4.057929992675781 -0.348734200000763 0.000000000000000
-7.988718509674072 2.631468296051025 -0.893172621726990 0.000000000000000
-8.708784103393555 3.840733528137207 -0.877531111240387 0.000000000000000
-7.999739646911621 3.071076869964600 -0.689640402793884 0.000000000000000
-10.047780990600586 2.787981986999512 -0.659918904304504 0.000000000000000
-8.020591735839844 3.533246517181396 -0.503102004528046 0.000000000000000
-8.817728996276855 2.908461570739746 -0.426183670759201 0.000000000000000
-8.286847114562988 3.182876348495483 -0.458397537469864 0.000000000000000
-10.306176185607910 2.860495328903198 -0.429919302463531 0.000000000000000
-9.310241699218750 4.109477043151855 -0.350407481193542 0.000000000000000
-7.783116340637207 2.594062805175781 -0.870906591415405 0.000000000000000
-8.687387466430664 3.868938684463501 -0.876788318157196 0.000000000000000
-7.680525779724121 2.978766441345215 -0.662643611431122 0.000000000000000
-3.328057289123535 1.265554904937744 0.061381250619888 0.000000000000000
-9.914636611938477 2.789413452148438 -0.651738762855530 0.000000000000000
-8.036706924438477 3.575346231460571 -0.504961252212524 0.000000000000000
-8.719954490661621 2.910905361175537 -0.421907454729080 0.000000000000000
-8.263976097106934 3.208425998687744 -0.457770347595215 0.000000000000000
-10.195676803588867 2.869394302368164 -0.425690948963165 0.000000000000000
-9.455443382263184 4.215502738952637 -0.356541812419891 0.000000000000000
-11.540688514709473 4.498230457305908 2.240730762481689 0.000000000000000
-7.378116607666016 2.889882802963257 -0.994288384914398 0.000000000000000
-7.783287048339844 2.624705314636230 -0.872257888317108 0.000000000000000
-8.671812057495117 3.898869991302490 -0.876860916614532 0.000000000000000
-8.529971122741699 2.880146503448486 -0.620967507362366 0.000000000000000
-8.449732780456543 3.316023588180542 -0.731345474720001 0.000000000000000
-9.764743804931641 2.783821105957031 -0.642611682415009 0.000000000000000
-8.047600746154785 3.614592552185059 -0.506657123565674 0.000000000000000
-8.669920921325684 2.928023815155029 -0.420119196176529 0.000000000000000
-8.239574432373047 3.232454538345337 -0.457212477922440 0.000000000000000
-10.083738327026367 2.875809192657471 -0.421539753675461 0.000000000000000
-7.197587490081787 2.845354557037354 -0.221049517393112 0.000000000000000
-7.364811420440674 2.912488460540771 -0.993783712387085 0.003921568859369
-7.751988410949707 2.642335891723633 -0.869688689708710 0.000000000000000
-8.713120460510254 3.952179193496704 -0.882435202598572 0.000000000000000
-8.509060859680176 2.904138326644897 -0.620131134986877 0.000000000000000
-7.202996253967285 2.847522258758545 -0.622700393199921 0.000000000000000
-8.039198875427246 3.642560243606567 -0.506889820098877 0.000000000000000
-8.595967292785645 2.934192180633545 -0.416958242654800 0.000000000000000
-9.939868927001953 2.869661331176758 -0.415846973657608 0.000000000000000
-7.731458187103271 2.665052652359009 -0.868404328823090 0.000000000000000
-8.720952033996582 3.992232799530029 -0.884665250778198 0.000000000000000
-9.884974479675293 3.418179035186768 -0.722748756408691 0.000000000000000
-7.277986049652100 2.906722068786621 -0.630182206630707 0.000000000000000
-8.044548988342285 3.678609848022461 -0.508052051067352 0.000000000000000
-8.578129768371582 2.961152791976929 -0.416586548089981 0.000000000000000
-9.772657394409180 2.857478380203247 -0.409178376197815 0.000000000000000
-7.355316638946533 2.967570781707764 -0.995298802852631 0.003921568859369
-7.684613227844238 2.678377866744995 -0.864122271537781 0.000000000000000
-8.699748992919922 4.018887519836426 -0.883922398090363 0.000000000000000
-9.865458488464355 3.449616193771362 -0.722191333770752 0.000000000000000
-8.485240936279297 3.430428981781006 -0.737526655197144 0.000000000000000
-9.536721229553223 2.823517560958862 -0.629318058490753 0.000000000000000
-8.035277366638184 3.707974910736084 -0.508284807205200 0.000000000000000
-8.242822647094727 3.331128835678101 -0.459304958581924 0.000000000000000
-9.705193519592285 2.873984813690186 -0.406738728284836 0.000000000000000
-7.338102340698242 2.988546371459961 -0.994289278984070 0.003921568859369
-7.713140487670898 2.716863632202148 -0.868404686450958 0.000000000000000
-8.628746032714844 4.020150661468506 -0.877976953983307 0.000000000000000
-8.042839050292969 2.834691762924194 -0.587784945964813 0.000000000000000
-8.363291740417480 3.412477254867554 -0.727768361568451 0.000000000000000
-9.450902938842773 2.831597328186035 -0.624205052852631 0.000000000000000
-8.030158996582031 3.737642288208008 -0.508749902248383 0.000000000000000
-8.531438827514648 3.009307861328125 -0.415285289287567 0.000000000000000
-8.239113807678223 3.361130952835083 -0.459723591804504 0.000000000000000
-9.596164703369141 2.875637292861938 -0.402509868144989 0.000000000000000
-7.699869155883789 2.742032766342163 -0.867976605892181 0.000000000000000
-8.499597549438477 3.995062112808228 -0.866086065769196 0.000000000000000
-8.089187622070312 2.882702589035034 -0.591967940330505 0.000000000000000
-9.657321929931641 3.986653327941895 -0.843245029449463 0.000000000000000
-9.292136192321777 2.818496227264404 -0.614234626293182 0.000000000000000
-8.031485557556152 3.772131681442261 -0.509679734706879 0.000000000000000
-8.490818977355957 3.027820587158203 -0.413797855377197 0.000000000000000
-8.216273307800293 3.384866714477539 -0.459096342325211 0.000000000000000
-9.383571624755859 2.846566677093506 -0.393889367580414 0.000000000000000
-7.316531658172607 3.040187835693359 -0.994289755821228 0.003921568859369
-7.872801303863525 2.836722612380981 -0.888959348201752 0.000000000000000
-8.484898567199707 4.025781631469727 -0.866086423397064 0.000000000000000
-8.026098251342773 2.892749547958374 -0.588064193725586 0.000000000000000
-9.627952575683594 4.015417575836182 -0.841944217681885 0.000000000000000
-9.228379249572754 2.835532665252686 -0.610655665397644 0.000000000000000
-8.021205902099609 3.802868127822876 -0.509912550449371 0.000000000000000
-8.472160339355469 3.055772066116333 -0.413426250219345 0.000000000000000
-8.225894927978516 3.423868894577026 -0.460351675748825 0.000000000000000
-9.415056228637695 2.893590688705444 -0.395678758621216 0.000000000000000
-7.840966701507568 2.854182243347168 -0.886390268802643 0.000000000000000
-8.507339477539062 4.070904731750488 -0.869802772998810 0.000000000000000
-7.971541404724121 2.902396917343140 -0.584718167781830 0.000000000000000
-9.797986030578613 4.125053405761719 -0.858208835124969 0.000000000000000
-9.131348609924316 2.838197231292725 -0.604775786399841 0.000000000000000
-8.026516914367676 3.837789535522461 -0.511074721813202 0.000000000000000
-8.465728759765625 3.084867238998413 -0.413612395524979 0.000000000000000
-8.225522041320801 3.455456495285034 -0.460979461669922 0.000000000000000
-9.325346946716309 2.899238824844360 -0.392263174057007 0.000000000000000
-7.310251235961914 3.095435380935669 -0.996309876441956 0.000000000000000
-7.767613887786865 2.857509136199951 -0.879110813140869 0.000000000000000
-8.396482467651367 4.052939414978027 -0.859769880771637 0.000000000000000
-10.369537353515625 4.410803794860840 -0.910255014896393 0.000000000000000
-9.052919387817383 2.847862720489502 -0.600174129009247 0.000000000000000
-7.991549015045166 3.854870080947876 -0.509680747985840 0.000000000000000
-8.447421073913574 3.111218690872192 -0.413240671157837 0.000000000000000
-8.198730468750000 3.477450132369995 -0.460142999887466 0.000000000000000
-9.239007949829102 2.907129526138306 -0.389010280370712 0.000000000000000
-7.288483619689941 3.115805387496948 -0.994795441627502 0.000000000000000
-7.642239093780518 2.840708255767822 -0.865836381912231 0.000000000000000
-8.428712844848633 4.104747772216797 -0.864601016044617 0.000000000000000
-21.336830139160156 8.006107330322266 0.529744982719421 0.003921568859369
-8.832199096679688 3.289544343948364 -0.650527834892273 0.000000000000000
-10.310194015502930 4.427534103393555 -0.906351923942566 0.000000000000000
-8.966938018798828 2.854564905166626 -0.595061182975769 0.000000000000000
-8.031759262084961 3.908861160278320 -0.513166964054108 0.000000000000000
-8.429034233093262 3.137478828430176 -0.412869065999985 0.000000000000000
-8.193871498107910 3.508841037750244 -0.460561692714691 0.000000000000000
-8.039111137390137 3.441671609878540 0.706836402416229 0.000000000000000
-9.164136886596680 2.918128967285156 -0.386245310306549 0.000000000000000
-5.447476387023926 2.034184455871582 -0.887425005435944 0.000000000000000
-7.292100429534912 3.147212266921997 -0.996815264225006 0.000000000000000
-7.557953357696533 2.838650226593018 -0.857272326946259 0.000000000000000
-8.442856788635254 4.147957801818848 -0.867574334144592 0.000000000000000
-7.989189147949219 3.003029584884644 -0.588343918323517 0.000000000000000
-9.703139305114746 4.203864574432373 -0.853655934333801 0.000000000000000
-8.839274406433105 2.847086906433105 -0.587136089801788 0.000000000000000
-8.057389259338379 3.956063032150269 -0.515723586082458 0.000000000000000
-8.425498008728027 3.169342041015625 -0.413241147994995 0.000000000000000
-8.196208000183105 3.543448448181152 -0.461398661136627 0.000000000000000
-9.112099647521973 2.936080455780029 -0.384456336498260 0.000000000000000
-7.525730609893799 2.856053590774536 -0.854703247547150 0.000000000000000
-8.453240394592285 4.189530849456787 -0.870175898075104 0.000000000000000
-7.971210479736328 3.027645826339722 -0.587786436080933 0.000000000000000
-10.114972114562988 4.426048278808594 -0.891714870929718 0.000000000000000
-8.711771011352539 2.838755130767822 -0.579210937023163 0.000000000000000
-8.036395072937012 3.980196475982666 -0.515259206295013 0.000000000000000
-8.406927108764648 3.195477008819580 -0.412869542837143 0.000000000000000
-8.187442779541016 3.573269605636597 -0.461608171463013 0.000000000000000
-7.260691642761230 3.194057226181030 -0.995870828628540 0.003921568859369
-7.521113872528076 2.884825229644775 -0.855625331401825 0.000000000000000
-8.436548233032227 4.218649864196777 -0.870247781276703 0.000000000000000
-7.958580970764160 3.055088281631470 -0.587854385375977 0.000000000000000
-9.853548049926758 4.352045059204102 -0.869998991489410 0.000000000000000
-8.041810035705566 4.018688201904297 -0.516723275184631 0.000000000000000
-8.393709182739258 3.224440574645996 -0.412939667701721 0.000000000000000
-8.216675758361816 3.621011018753052 -0.464188158512115 0.000000000000000
-8.536903381347656 3.280183553695679 1.111666798591614 0.000000000000000
-9.028716087341309 2.978623390197754 -0.381926655769348 0.000000000000000
-7.253117084503174 3.220631837844849 -0.996376037597656 0.003921568859369
-7.540609836578369 2.922323226928711 -0.859051465988159 0.000000000000000
-8.765787124633789 4.423473358154297 -0.906295895576477 0.000000000000000
-7.947869777679443 3.082469224929810 -0.587854623794556 0.000000000000000
-9.780146598815918 4.359817504882812 -0.864794492721558 0.000000000000000
-8.059738159179688 4.062706470489502 -0.518815279006958 0.000000000000000
-8.374967575073242 3.250414609909058 -0.412567973136902 0.000000000000000
-8.185778617858887 3.641080617904663 -0.463142484426498 0.000000000000000
-8.991759300231934 3.000786304473877 -0.380788147449493 0.000000000000000
-7.493402004241943 2.933564901351929 -0.854769408702850 0.000000000000000
-8.683029174804688 4.418998718261719 -0.899235427379608 0.000000000000000
-7.937061786651611 3.109814405441284 -0.587854862213135 0.000000000000000
-9.685036659240723 4.357225894927979 -0.857638120651245 0.000000000000000
-8.536020278930664 2.879641532897949 -0.569566667079926 0.000000000000000
-8.066804885864258 4.101412773132324 -0.520210087299347 0.000000000000000
-8.348716735839844 3.273348808288574 -0.411824345588684 0.000000000000000
-8.176654815673828 3.670907020568848 -0.463351964950562 0.000000000000000
-8.969883918762207 3.027898550033569 -0.380300313234329 0.000000000000000
-7.244881153106689 3.277054071426392 -0.998396277427673 0.000000000000000
-7.294880390167236 2.883784770965576 -0.832929611206055 0.000000000000000
-8.625144958496094 4.426859378814697 -0.894776284694672 0.000000000000000
-8.749528884887695 3.968029975891113 -0.775010883808136 0.000000000000000
-8.559871673583984 2.920776367187500 -0.571867883205414 0.000000000000000
-8.052439689636230 4.129167079925537 -0.520210444927216 0.000000000000000
-8.174681663513184 3.704048395156860 -0.463979870080948 0.000000000000000
-8.932817459106445 3.049673080444336 -0.379161804914474 0.000000000000000
-13.186304092407227 6.005552291870117 2.625200510025024 0.000000000000000
-7.223748207092285 3.294455289840698 -0.996881663799286 0.000000000000000
-8.544162750244141 4.418480873107910 -0.887715637683868 0.000000000000000
-8.747872352600098 4.000181674957275 -0.775987029075623 0.000000000000000
-2.242674589157104 0.988049507141113 0.041981019079685 0.000000000000000
-8.452667236328125 2.913101911544800 -0.565220534801483 0.000000000000000
-8.039427757263184 4.154102325439453 -0.520210802555084 0.000000000000000
-8.166629791259766 3.731049060821533 -0.464189350605011 0.000000000000000
-8.896778106689453 3.068158149719238 -0.378023236989975 0.000000000000000
-11.074841499328613 5.077685832977295 2.204671382904053 0.000000000000000
-9.892156600952148 4.001624107360840 -0.737888753414154 0.000000000000000
-8.741080284118652 4.033689975738525 -0.776638031005859 0.000000000000000
-3.492636919021606 1.194656491279602 -0.229008391499519 0.000000000000000
-8.024879455566406 4.181761264801025 -0.520211160182953 0.000000000000000
-7.303362846374512 3.361882686614990 0.324687451124191 0.000000000000000
-8.322555541992188 3.359618902206421 -0.412197023630142 0.000000000000000
-8.182508468627930 3.772682666778564 -0.465863198041916 0.000000000000000
-8.878478050231934 3.096154689788818 -0.377698123455048 0.000000000000000
-8.242474555969238 3.361711025238037 -0.946840763092041 0.000000000000000
-8.688065528869629 4.572390079498291 -0.906297922134399 0.000000000000000
-9.851610183715820 4.026786804199219 -0.735936939716339 0.000000000000000
-8.765900611877441 4.084012508392334 -0.780216693878174 0.000000000000000
-8.187258720397949 2.885458230972290 -0.548602104187012 0.000000000000000
-8.009499549865723 4.210747241973877 -0.520211577415466 0.000000000000000
-8.310186386108398 3.389701843261719 -0.412197291851044 0.000000000000000
-8.168626785278320 3.802249193191528 -0.465863525867462 0.000000000000000
-8.836960792541504 3.117521524429321 -0.376396954059601 0.000000000000000
-8.205588340759277 3.377946138381958 -0.943843364715576 0.000000000000000
-9.856616020202637 4.066755294799805 -0.737331569194794 0.000000000000000
-8.640708923339844 4.059597969055176 -0.770132541656494 0.000000000000000
-8.125077247619629 2.893258810043335 -0.545022845268250 0.000000000000000
-8.171380043029785 4.331414699554443 -0.531832218170166 0.000000000000000
-8.309962272644043 3.421495676040649 -0.412755459547043 0.000000000000000
-8.166793823242188 3.834104776382446 -0.466491401195526 0.000000000000000
-8.830334663391113 3.147805929183960 -0.376559823751450 0.000000000000000
-8.193747520446777 3.406188964843750 -0.943843603134155 0.000000000000000
-9.835006713867188 4.097658634185791 -0.736774206161499 0.000000000000000
-8.486320495605469 4.022061347961426 -0.757445931434631 0.000000000000000
-8.099929809570312 2.915751218795776 -0.544000327587128 0.000000000000000
-8.124609947204590 4.342413902282715 -0.529740989208221 0.000000000000000
-8.290603637695312 3.446999788284302 -0.412383764982224 0.000000000000000
-8.171366691589355 3.870853900909424 -0.467537671327591 0.000000000000000
-8.823046684265137 3.179600954055786 -0.376722723245621 0.000000000000000
-8.247682571411133 3.462412357330322 -0.951552212238312 0.000000000000000
-7.859895229339600 3.297443628311157 -0.587856590747833 0.000000000000000
-8.443526268005371 4.037374496459961 -0.754843890666962 0.000000000000000
-8.119916915893555 4.376109600067139 -0.530438601970673 0.000000000000000
-8.285877227783203 3.478665828704834 -0.412755995988846 0.000000000000000
-8.175779342651367 3.907679796218872 -0.468584001064301 0.000000000000000
-8.796895980834961 3.204466104507446 -0.376072257757187 0.000000000000000
-9.248653411865234 5.034185886383057 -0.972820878028870 0.000000000000000
-8.425800323486328 4.064693450927734 -0.754518926143646 0.000000000000000
-8.094340324401855 2.977044820785522 -0.545023441314697 0.000000000000000
-8.094099044799805 4.398268222808838 -0.529741764068604 0.000000000000000
-8.295711517333984 3.516650676727295 -0.413872033357620 0.000000000000000
-8.180033683776855 3.944585323333740 -0.469630241394043 0.000000000000000
-8.781912803649902 3.233378410339355 -0.375909805297852 0.000000000000000
-6.452561378479004 2.724951744079590 1.851147055625916 0.000000000000000
-9.196206092834473 5.046722888946533 -0.969105064868927 0.000000000000000
-8.418712615966797 4.097227096557617 -0.755169928073883 0.000000000000000
-8.121255874633789 3.018977165222168 -0.547580480575562 0.000000000000000
-8.272388458251953 3.540437936782837 -0.413314402103424 0.000000000000000
-8.198459625244141 3.988633632659912 -0.471513360738754 0.000000000000000
-8.755612373352051 3.257997035980225 -0.375259339809418 0.003921568859369
-8.430896759033203 4.140434741973877 -0.757844030857086 0.000000000000000
-8.119844436645508 3.051210403442383 -0.548416137695312 0.000000000000000
-8.268945693969727 3.573742389678955 -0.413942545652390 0.000000000000000
-8.207506179809570 4.029322624206543 -0.473048299551010 0.000000000000000
-8.749643325805664 3.291027784347534 -0.375656634569168 0.000000000000000
-8.466279029846191 4.194499969482422 -0.762399017810822 0.000000000000000
-8.101694107055664 3.076297998428345 -0.547905027866364 0.000000000000000
-8.260075569152832 3.603829622268677 -0.414128839969635 0.000000000000000
-8.204102516174316 4.062951087951660 -0.473676294088364 0.000000000000000
-8.738101959228516 3.321179389953613 -0.375656872987747 0.000000000000000
-9.850713729858398 4.347628593444824 -0.744941532611847 0.000000000000000
-8.561857223510742 4.279466629028320 -0.772484421730042 0.000000000000000
-8.094626426696777 3.105633497238159 -0.548160910606384 0.000000000000000
-8.247446060180664 3.632269144058228 -0.414129137992859 0.000000000000000
-8.221946716308594 4.107427120208740 -0.475559532642365 0.000000000000000
-8.715281486511230 3.346944332122803 -0.375169008970261 0.000000000000000
-7.848139286041260 4.441753864288330 -0.832045316696167 0.000000000000000
-9.820926666259766 4.375058174133301 -0.743826329708099 0.000000000000000
-8.710203170776367 4.392341136932373 -0.787449777126312 0.000000000000000
-8.094883918762207 3.137874126434326 -0.548928201198578 0.000000000000000
-8.263862609863281 3.673787593841553 -0.415617316961288 0.000000000000000
-8.214674949645996 4.139360427856445 -0.475978255271912 0.000000000000000
-8.707265853881836 3.378432035446167 -0.375331938266754 0.000000000000000
-7.805006504058838 4.452795982360840 -0.829072415828705 0.000000000000000
-8.641651153564453 4.394968986511230 -0.782570242881775 0.000000000000000
-7.345528125762939 2.872719764709473 -0.498045206069946 0.000000000000000
-8.247351646423340 3.700586080551147 -0.415431618690491 0.000000000000000
-8.249895095825195 4.193240165710449 -0.478907614946365 0.000000000000000
-8.702850341796875 3.411382198333740 -0.375657558441162 0.000000000000000
-7.693082332611084 4.423470497131348 -0.818666696548462 0.000000000000000
-8.651023864746094 4.437597274780273 -0.784847915172577 0.000000000000000
-8.256175041198730 3.738977432250977 -0.416547864675522 0.000000000000000
-8.256477355957031 4.232686519622803 -0.480163186788559 0.000000000000000
-8.690889358520508 3.441367864608765 -0.375657826662064 0.000000000000000
-8.877081871032715 4.592007160186768 -0.056396327912807 0.000000000000000
-7.681804180145264 4.450620174407959 -0.819038689136505 0.000000000000000
-2.222440719604492 0.979172646999359 0.055142756551504 0.000000000000000
-8.371367454528809 4.327213764190674 -0.760448753833771 0.000000000000000
-11.543746948242188 5.293329238891602 0.735184073448181 0.000000000000000
-8.258234024047852 3.772694826126099 -0.417292088270187 0.000000000000000
-8.284861564636230 4.281923294067383 -0.482674062252045 0.000000000000000
-8.672019958496094 3.466816425323486 -0.375332683324814 0.000000000000000
-7.697062969207764 4.495303153991699 -0.822383940219879 0.000000000000000
-2.211763143539429 0.983167946338654 0.054956309497356 0.000000000000000
-7.800158023834229 3.593345642089844 -0.592667996883392 0.000000000000000
-8.708754539489746 4.542195320129395 -0.792981743812561 0.000000000000000
-8.013908386230469 3.232611179351807 -0.546372175216675 0.000000000000000
-8.263115882873535 3.809582471847534 -0.418222278356552 0.000000000000000
-8.287526130676270 4.319772720336914 -0.483720511198044 0.000000000000000
-8.670964241027832 3.501233339309692 -0.375820994377136 0.000000000000000
-7.636869430541992 4.495230674743652 -0.817552924156189 0.000000000000000
-8.091128349304199 3.296754360198975 -0.552509069442749 0.000000000000000
-8.260611534118652 3.843139410018921 -0.418780565261841 0.000000000000000
-8.297080039978027 4.361443996429443 -0.485185354948044 0.000000000000000
-8.654995918273926 3.529579639434814 -0.375658541917801 0.000000000000000
-12.695431709289551 5.987206935882568 0.001280433847569 0.000000000000000
-8.073973655700684 3.789214372634888 -0.615816712379456 0.000000000000000
-8.064836502075195 3.318460464477539 -0.551486551761627 0.000000000000000
-8.272405624389648 3.883591413497925 -0.420082807540894 0.000000000000000
-8.661067962646484 3.567088603973389 -0.376472264528275 0.000000000000000
-7.760670661926270 3.673031330108643 0.198648780584335 0.000000000000000
-8.060697555541992 3.817002773284912 -0.615817070007324 0.000000000000000
-7.658073425292969 4.089083671569824 -0.699939370155334 0.000000000000000
-8.056881904602051 3.347768545150757 -0.551742494106293 0.000000000000000
-8.269605636596680 3.917258262634277 -0.420641094446182 0.000000000000000
-8.644880294799805 3.595376253128052 -0.376309871673584 0.003921568859369
-7.867093563079834 4.743601322174072 -0.104779496788979 0.000000000000000
-9.421298027038574 5.086009979248047 -0.865206003189087 0.000000000000000
-8.059843063354492 3.381746053695679 -0.552765548229218 0.000000000000000
-8.281056404113770 3.957915067672729 -0.421943336725235 0.000000000000000
-8.632278442382812 3.625156164169312 -0.376310139894485 0.003921568859369
-9.390991210937500 5.112752437591553 -0.864307343959808 0.000000000000000
-8.078986167907715 3.423685789108276 -0.555135786533356 0.000000000000000
-8.286718368530273 3.996974229812622 -0.423130035400391 0.000000000000000
-8.632249832153320 3.661228418350220 -0.377032697200775 0.000000000000000
-8.293872833251953 4.035936355590820 -0.637363195419312 0.000000000000000
-8.015712738037109 3.429273605346680 -0.551555991172791 0.000000000000000
-8.294219017028809 4.036108970642090 -0.424246400594711 0.000000000000000
-8.626750946044922 3.694152116775513 -0.377358406782150 0.000000000000000
-8.422657012939453 4.135553359985352 -0.648519933223724 0.000000000000000
-7.907852172851562 4.367436408996582 -0.728964149951935 0.000000000000000
-8.054891586303711 3.479271173477173 -0.555136263370514 0.000000000000000
-8.297972679138184 4.073564052581787 -0.425176799297333 0.000000000000000
-8.632111549377441 3.731886863708496 -0.378172218799591 0.000000000000000
-7.597432136535645 4.228108406066895 -0.701310098171234 0.000000000000000
-8.093817710876465 3.529585838317871 -0.558716535568237 0.000000000000000
-8.326560974121094 4.123634815216064 -0.427409201860428 0.000000000000000
-8.648279190063477 3.774551630020142 -0.379474192857742 0.003921568859369
-6.868335723876953 3.421866416931152 0.001002963283099 0.000000000000000
-10.113739013671875 6.360735416412354 -0.136951133608818 0.000000000000000
-8.689104080200195 4.343035221099854 -0.671670258045197 0.000000000000000
-7.866774559020996 4.415891647338867 -0.727988839149475 0.000000000000000
-8.194464683532715 3.607855319976807 -0.566643893718719 0.000000000000000
-8.646001815795898 3.809235572814941 -0.379962623119354 0.003921568859369
-3.621794939041138 2.017157793045044 -0.330090463161469 0.000000000000000
-8.181821823120117 3.636071920394897 -0.566644132137299 0.000000000000000
-8.358075141906738 4.211809635162354 -0.430572003126144 0.000000000000000
-8.650875091552734 3.847230195999146 -0.380776435136795 0.000000000000000
-6.601848602294922 4.160824298858643 -0.268425971269608 0.000000000000000
-8.647932052612305 4.397381782531738 -0.670834243297577 0.000000000000000
-7.821951866149902 4.461991310119629 -0.726688146591187 0.000000000000000
-7.889242172241211 3.537092924118042 -0.546954452991486 0.000000000000000
-8.371745109558105 4.255223274230957 -0.432060420513153 0.000000000000000
-8.666502952575684 3.890265941619873 -0.382078438997269 0.000000000000000
-7.792551994323730 4.480872631072998 -0.725387096405029 0.000000000000000
-8.156238555908203 3.692372322082520 -0.566644668579102 0.000000000000000
-8.402941703796387 4.307988643646240 -0.434478878974915 0.000000000000000
-8.667402267456055 3.926792621612549 -0.382729589939117 0.000000000000000
-8.096206665039062 3.698657035827637 -0.563320696353912 0.000000000000000
-8.402013778686523 4.344340324401855 -0.435223251581192 0.000000000000000
-8.689912796020508 3.973443269729614 -0.384357005357742 0.003921568859369
-8.130920410156250 3.747090339660645 -0.566645205020905 0.000000000000000
-8.698418617248535 4.012035369873047 -0.385333567857742 0.003921568859369
-9.825353622436523 5.174201011657715 0.001098501961678 0.003921568859369
-2.614425659179688 1.182339906692505 -0.176935270428658 0.000000000000000
-8.684361457824707 4.042009353637695 -0.385333836078644 0.003921568859369
-8.778731346130371 4.123525619506836 -0.614464521408081 0.000000000000000
-8.731561660766602 4.101104259490967 -0.388100296258926 0.003921568859369
-8.794657707214355 4.169342517852783 -0.616839349269867 0.000000000000000
-8.130435943603516 4.381592750549316 -0.638552963733673 0.000000000000000
-7.896145343780518 3.771861791610718 -0.553929030895233 0.000000000000000
-8.790640830993652 4.204784870147705 -0.392241865396500 0.003921568859369
-8.087125778198242 4.394196510314941 -0.636321902275085 0.000000000000000
-8.062282562255859 3.886620521545410 -0.566715955734253 0.000000000000000
-8.804639816284180 4.249114990234375 -0.393544018268585 0.003921568859369
-8.026381492614746 4.396869659423828 -0.632696032524109 0.000000000000000
-7.919756412506104 3.850873231887817 -0.557509779930115 0.000000000000000
-8.822025299072266 4.295358180999756 -0.395008921623230 0.000000000000000
-7.934373855590820 4.381639003753662 -0.626559793949127 0.000000000000000
-10.894928932189941 6.750583171844482 1.040238142013550 0.000000000000000
-7.401182174682617 4.116844177246094 -0.901658833026886 0.000000000000000
-5.660925865173340 3.895676374435425 0.079930171370506 0.000000000000000
-7.939883232116699 4.420714855194092 -0.628233730792999 0.000000000000000
-8.734841346740723 4.327559471130371 -0.617863714694977 0.000000000000000
-7.397139072418213 4.148193836212158 -0.902944028377533 0.000000000000000
-7.917466640472412 4.444099426269531 -0.627676129341125 0.000000000000000
-8.708996772766113 4.352261066436768 -0.617096841335297 0.000000000000000
-7.413667201995850 4.191431999206543 -0.906799018383026 0.000000000000000
-8.722199440002441 4.396785736083984 -0.619142949581146 0.000000000000000
-10.858349800109863 5.533844947814941 0.071347549557686 0.000000000000000
-7.392104625701904 4.212946891784668 -0.905942678451538 0.000000000000000
-7.446080684661865 4.278408050537109 -0.914508879184723 0.000000000000000
-7.513404369354248 4.352352619171143 -0.924788236618042 0.000000000000000
-7.525544166564941 4.394402503967285 -0.928214967250824 0.000000000000000
-8.289295196533203 4.321053504943848 -0.592292010784149 0.000000000000000
-7.894673824310303 5.142953395843506 0.381339430809021 0.000000000000000
-7.559366703033447 4.450876712799072 -0.934707522392273 0.000000000000000
-8.279191017150879 4.353378772735596 -0.592874705791473 0.000000000000000
-7.526745319366455 4.466633796691895 -0.932566285133362 0.000000000000000
-8.232292175292969 4.364906311035156 -0.590573191642761 0.000000000000000
-7.504306793212891 4.488405704498291 -0.931709945201874 0.000000000000000
-3.983315229415894 2.101604461669922 -0.282133758068085 0.000000000000000
-3.274612903594971 1.732346057891846 0.021815044805408 0.000000000000000
-7.519135951995850 4.532886028289795 -0.935565054416656 0.000000000000000
-8.128039360046387 4.381410598754883 -0.585202932357788 0.000000000000000
-7.524384975433350 4.569969654083252 -0.938135266304016 0.000000000000000
-8.043515205383301 4.369522571563721 -0.580088138580322 0.000000000000000
-4.816123008728027 2.925518274307251 -0.862500309944153 0.000000000000000
-7.707773208618164 4.719557762145996 -0.963406145572662 0.000000000000000
-8.028214454650879 4.397221565246582 -0.580088376998901 0.000000000000000
-8.012817382812500 4.424866676330566 -0.580088675022125 0.000000000000000
-9.102518081665039 6.306961536407471 0.898214697837830 0.000000000000000
-4.509757518768311 2.821462869644165 0.122632279992104 0.000000000000000
-4.542515754699707 3.205444097518921 -0.158588409423828 0.000000000000000
-2.948993444442749 1.673343420028687 -0.211078241467476 0.000000000000000
-8.049690246582031 5.206241607666016 0.554316222667694 0.000000000000000
-4.602194309234619 3.492818355560303 0.232970714569092 0.000000000000000
-5.298429012298584 3.300657033920288 -0.250132054090500 0.000000000000000
-1.796677350997925 1.086159586906433 -0.034453734755516 0.000000000000000
-6.446828842163086 4.060796260833740 0.044605012983084 0.000000000000000
-3.686585903167725 3.143444538116455 0.056264106184244 0.000000000000000
-5.207036495208740 3.713779449462891 0.368633776903152 0.000000000000000
-10.529681205749512 7.581872940063477 3.456539869308472 0.000000000000000
-4.864737033843994 3.860615968704224 0.107813797891140 0.000000000000000
-5.947238922119141 3.886586189270020 0.041561398655176 0.000000000000000
-9.006320953369141 6.011106967926025 0.063238367438316 0.000000000000000
-4.953418254852295 3.768170833587646 1.647851467132568 0.000000000000000
-5.988533496856689 4.605908393859863 2.004972219467163 0.000000000000000
-3.521042346954346 2.694995641708374 0.535914480686188 0.000000000000000
-7.399069309234619 5.874289989471436 0.218799516558647 0.000000000000000
-15.705863952636719 12.554773330688477 5.368635177612305 0.003921568859369
-7.106272697448730 5.966268539428711 0.000614150485490 0.003921568859369
-7.264728546142578 5.598757743835449 -0.158200904726982 0.000000000000000
-3.696236848831177 3.107974290847778 0.111348554491997 0.000000000000000
-7.645744800567627 6.658208370208740 2.698542594909668 0.000000000000000
-8.776453018188477 7.026178359985352 -0.194363743066788 0.000000000000000
-3.241639375686646 3.169575214385986 -0.025353100150824 0.000000000000000
-8.052937507629395 8.012361526489258 0.922631025314331 0.000000000000000
-5.887917518615723 5.915222644805908 2.220118761062622 0.000000000000000
-2.258764743804932 2.308282375335693 0.389540314674377 0.000000000000000
-5.347703456878662 6.000401496887207 0.980304598808289 0.000000000000000
-7.086926460266113 9.345041275024414 0.953704416751862 0.000000000000000
-5.613862991333008 6.768667221069336 2.342261791229248 0.000000000000000
-3.474106788635254 4.657329559326172 -0.032978899776936 0.000000000000000
-5.370497703552246 6.610844135284424 0.000469996768516 0.003921568859369
-4.008168697357178 4.906893730163574 1.683851122856140 0.000000000000000
-2.279122352600098 3.532909870147705 -0.047912847250700 0.000000000000000
-16.606538772583008 24.819854736328125 2.434357166290283 0.003921568859369
-7.387783527374268 9.961080551147461 3.310209035873413 0.000000000000000
-4.514935493469238 5.785565853118896 0.212609171867371 0.000000000000000
-16.987337112426758 24.449054718017578 3.649998903274536 0.003921568859369
-16.863691329956055 24.452276229858398 3.641712665557861 0.003921568859369
-16.798168182373047 24.530755996704102 3.645124912261963 0.003921568859369
-16.659217834472656 24.519506454467773 3.634401321411133 0.003921568859369
-3.137659549713135 5.073732376098633 0.241809114813805 0.000000000000000
-16.551412582397461 24.544252395629883 3.629527330398560 0.003921568859369
-3.248281002044678 4.254354000091553 -0.215572923421860 0.000000000000000
-16.450237274169922 24.578458786010742 3.626115322113037 0.003921568859369
-16.344549179077148 24.596181869506836 3.620754003524780 0.003921568859369
-16.230281829833984 24.609643936157227 3.614417552947998 0.003921568859369
-16.116073608398438 24.613166809082031 3.607106208801270 0.003921568859369
-16.030429840087891 24.672327041625977 3.607591867446899 0.003921568859369
-2.105764389038086 3.963922023773193 0.052337594330311 0.000000000000000
-2.147954225540161 3.225006103515625 0.470932185649872 0.000000000000000
-15.810837745666504 24.718847274780273 3.597843647003174 0.003921568859369
-15.696902275085449 24.729963302612305 3.591507196426392 0.003921568859369
-15.644207954406738 24.838161468505859 3.599306344985962 0.003921568859369
-15.498853683471680 24.788494110107422 3.584683418273926 0.003921568859369
-15.395543098449707 24.815143585205078 3.580784320831299 0.003921568859369
-15.275473594665527 24.823701858520508 3.573960304260254 0.003921568859369
-2.439344406127930 5.882267951965332 -0.036353886127472 0.000000000000000
-1.573030710220337 2.878578186035156 -0.207467690110207 0.000000000000000
-1.370498299598694 3.469084024429321 -0.021008279174566 0.000000000000000
-1.143030643463135 3.019040584564209 0.584549009799957 0.000000000000000
-2.152871608734131 5.117317199707031 0.000500947062392 0.000000000000000
-4.783640384674072 12.069127082824707 0.000429628154961 0.000000000000000
-1.444212675094604 4.093973636627197 0.352984815835953 0.000000000000000
-1.408608317375183 4.034397602081299 0.347452729940414 0.000000000000000
-3.993452072143555 12.135543823242188 2.325772047042847 0.000000000000000
-2.355909347534180 6.104396820068359 1.747002601623535 0.000000000000000
-1.391435861587524 5.244991779327393 -0.188370808959007 0.000000000000000
-2.778650999069214 7.718252182006836 2.192156076431274 0.000000000000000
-2.517551898956299 8.242790222167969 1.568158388137817 0.000000000000000
-2.336590051651001 6.681403636932373 1.890901803970337 0.000000000000000
-5.887190341949463 18.642551422119141 2.398271322250366 0.003921568859369
-2.742735624313354 8.782193183898926 2.460284471511841 0.000000000000000
-1.474677920341492 5.840305328369141 0.105353742837906 0.000000000000000
-2.038250923156738 8.316740036010742 1.558832883834839 0.000000000000000
-1.986140608787537 8.211783409118652 0.344046801328659 0.000000000000000
-2.932160377502441 12.456268310546875 1.043855905532837 0.000000000000000
-1.571340799331665 8.937702178955078 -0.105039827525616 0.000000000000000
-2.998439550399780 17.417882919311523 0.206027925014496 0.003921568859369
-2.106805801391602 9.471179962158203 1.766891360282898 0.000000000000000
-3.274134635925293 15.148777961730957 1.264493465423584 0.000000000000000
-1.852322578430176 8.580122947692871 -0.050460088998079 0.000000000000000
-1.872030615806580 6.952195644378662 1.925066232681274 0.000000000000000
-6.808025360107422 26.732206344604492 3.385343313217163 0.003921568859369
-6.714677333831787 26.755573272705078 3.385344028472900 0.003921568859369
-6.597749233245850 26.689922332763672 3.374131679534912 0.003921568859369
-6.547333717346191 26.890106201171875 3.396554470062256 0.003921568859369
-6.447934627532959 26.889389038085938 3.393630504608154 0.003921568859369
-6.354930877685547 26.915369033813477 3.394118547439575 0.003921568859369
-2.623870849609375 14.004878044128418 1.162637710571289 0.000000000000000
-6.253576755523682 26.926631927490234 3.392656564712524 0.003921568859369
-3.115928649902344 13.273570060729980 3.649777889251709 0.000000000000000
-6.166327953338623 26.934324264526367 3.391194820404053 0.003921568859369
-2.528489589691162 14.021965980529785 1.162638306617737 0.000000000000000
-0.938532233238220 3.177737712860107 -0.057000048458576 0.000000000000000
-1.596398234367371 8.897763252258301 0.368305385112762 0.000000000000000
-6.065357208251953 26.924455642700195 3.387295961380005 0.003921568859369
-5.972178936004639 26.949113845825195 3.387783765792847 0.003921568859369
-5.883097648620605 26.992853164672852 3.390708923339844 0.003921568859369
-1.562369942665100 9.078814506530762 0.751630127429962 0.000000000000000
-2.735009908676147 16.190898895263672 2.992282629013062 0.003921568859369
-1.663124322891235 7.540600299835205 0.000484235410113 0.000000000000000
-1.225051999092102 5.472985267639160 0.130683913826942 0.000000000000000
-5.783071994781494 26.985813140869141 3.387297630310059 0.003921568859369
-2.719789505004883 16.829839706420898 0.694545865058899 0.003921568859369
-5.694510936737061 27.032810211181641 3.390710115432739 0.003921568859369
-0.828170776367188 4.835934162139893 0.400173544883728 0.000000000000000
-5.596140861511230 27.032846450805664 3.388273477554321 0.003921568859369
-5.505422115325928 27.079235076904297 3.391684055328369 0.003921568859369
-5.409333229064941 27.090274810791016 3.390709877014160 0.003921568859369
-1.873304963111877 12.310313224792480 1.016199350357056 0.000000000000000
-2.861897945404053 11.424506187438965 -0.204865545034409 0.000000000000000
-1.026434898376465 4.970238208770752 0.118312813341618 0.000000000000000
-5.319261074066162 27.132160186767578 3.393635272979736 0.003921568859369
-5.223783969879150 27.146436691284180 3.393148422241211 0.003921568859369
-1.752005815505981 12.385236740112305 -0.072203285992146 0.000000000000000
-5.128986835479736 27.164285659790039 3.393149137496948 0.003921568859369
-2.564047574996948 13.673721313476562 0.809957325458527 0.000000000000000
-5.042696952819824 27.228666305541992 3.398998498916626 0.003921568859369
-2.246642112731934 27.355169296264648 -0.319151312112808 0.003921568859369
-2.309008121490479 28.136634826660156 0.328924626111984 0.003921568859369
-3.811319589614868 20.906782150268555 1.237330198287964 0.003921568859369
-4.946938991546631 27.241966247558594 3.398511886596680 0.003921568859369
-2.153263807296753 27.390541076660156 -0.319476842880249 0.003921568859369
-0.906043171882629 6.703158378601074 -0.038769453763962 0.000000000000000
-2.212901592254639 28.172218322753906 0.329251021146774 0.003921568859369
-4.842194080352783 27.204107284545898 3.391688346862793 0.003921568859369
-2.070563316345215 27.509014129638672 -0.320780903100967 0.003921568859369
-2.134883642196655 28.390613555908203 0.331717848777771 0.003921568859369
-2.288251399993896 18.189680099487305 0.320264548063278 0.003921568859369
-4.753296375274658 27.227626800537109 3.392663717269897 0.003921568859369
-1.997820973396301 27.851020812988281 -0.324694395065308 0.003921568859369
-1.564185261726379 12.634991645812988 -0.073505647480488 0.000000000000000
-2.038559198379517 28.437572479248047 0.332183867692947 0.003921568859369
-4.672109127044678 27.326044082641602 3.402900695800781 0.003921568859369
-1.890583157539368 27.705942153930664 -0.322923004627228 0.003921568859369
-4.565049648284912 27.271453857421875 3.394127368927002 0.003921568859369
-2.365607023239136 14.271540641784668 0.000426439393777 0.000000000000000
-1.803196191787720 27.939998626708984 -0.325578331947327 0.003921568859369
-2.077514886856079 9.504831314086914 0.056933898478746 0.000000000000000
-1.349415779113770 7.971290111541748 0.470711141824722 0.000000000000000
-4.468864440917969 27.311285018920898 3.397052526473999 0.003921568859369
-1.678758621215820 27.518663406372070 -0.320593506097794 0.003921568859369
-1.748908638954163 28.712528228759766 0.335162252187729 0.003921568859369
-4.369852066040039 27.314731597900391 3.395589113235474 0.003921568859369
-0.601193428039551 3.494677543640137 -0.989358246326447 0.000000000000000
-1.662088632583618 28.869722366333008 0.336931139230728 0.003921568859369
-0.820857822895050 7.254351139068604 0.297654837369919 0.000000000000000
-4.279846668243408 27.332792282104492 3.396077156066895 0.003921568859369
-0.587843775749207 3.488920927047729 -0.987201571464539 0.000000000000000
-1.562555313110352 28.899093627929688 0.337211042642593 0.003921568859369
-4.188560485839844 27.374828338623047 3.399490118026733 0.003921568859369
-2.214257478713989 21.290729522705078 3.902003526687622 0.003921568859369
-2.799894094467163 28.062799453735352 -0.820270717144012 0.003921568859369
-0.576782763004303 3.498357295989990 -0.989358067512512 0.000000000000000
-4.090082168579102 27.369426727294922 3.397053241729736 0.003921568859369
-2.709800958633423 28.155778884887695 -0.822714328765869 0.003921568859369
-0.559094786643982 3.462005138397217 -0.978574693202972 0.000000000000000
-3.996232271194458 27.395109176635742 3.398516178131104 0.003921568859369
-2.849237442016602 29.638206481933594 2.430496931076050 0.003921568859369
-0.543800652027130 3.440831422805786 -0.972104609012604 0.000000000000000
-3.902777433395386 27.424402236938477 3.400466918945312 0.003921568859369
-0.527097642421722 3.408144235610962 -0.962399482727051 0.000000000000000
-3.808091402053833 27.445512771606445 3.401442289352417 0.003921568859369
-0.514183640480042 3.402110576629639 -0.960242748260498 0.000000000000000
-2.343550205230713 27.328445434570312 -0.159061655402184 0.003921568859369
-2.282621145248413 16.704483032226562 0.981793940067291 0.000000000000000
-3.709655761718750 27.438743591308594 3.399005413055420 0.003921568859369
-2.479999542236328 28.962564468383789 2.372898817062378 0.003921568859369
-0.503292858600616 3.411309003829956 -0.962399363517761 0.000000000000000
-2.251004695892334 27.372129440307617 -0.159270510077477 0.003921568859369
-2.370533227920532 17.842390060424805 0.419041156768799 0.000000000000000
-3.616904020309448 27.474933624267578 3.401930809020996 0.003921568859369
-0.488497525453568 3.389897823333740 -0.955929219722748 0.000000000000000
-2.163379430770874 27.483299255371094 -0.159875139594078 0.003921568859369
-1.077033519744873 8.066596984863281 0.473967611789703 0.000000000000000
-3.522469758987427 27.498991012573242 3.403393983840942 0.003921568859369
-0.475259900093079 3.379896163940430 -0.952694177627563 0.000000000000000
-2.108474016189575 28.052963256835938 -0.163157075643539 0.003921568859369
-0.732265532016754 27.978067398071289 0.326142191886902 0.003921568859369
-3.430320978164673 27.542428970336914 3.407294034957886 0.003921568859369
-0.462095677852631 3.369843006134033 -0.949459075927734 0.000000000000000
-0.634428739547729 27.972240447998047 0.326049894094467 0.003921568859369
-3.334620237350464 27.557962417602539 3.407782077789307 0.003921568859369
-0.448990046977997 3.375045537948608 -0.950537681579590 0.000000000000000
-0.544225394725800 28.517948150634766 -0.331723332405090 0.003921568859369
-3.235710144042969 27.561328887939453 3.406805992126465 0.003921568859369
-1.940111398696899 28.511045455932617 2.332873344421387 0.003921568859369
-1.161049604415894 16.695920944213867 3.051120281219482 0.003921568859369
-1.836992979049683 28.460500717163086 -0.829577267169952 0.003921568859369
-0.436778128147125 3.372554302215576 -0.949459254741669 0.000000000000000
-2.645264148712158 16.009757995605469 0.472373515367508 0.003921568859369
-0.422519117593765 3.350871086120605 -0.942989170551300 0.000000000000000
-0.351195245981216 29.128561019897461 -0.338804364204407 0.003921568859369
-1.714327931404114 28.070814132690430 -0.163109511137009 0.003921568859369
-0.977264046669006 8.480234146118164 0.198961406946182 0.000000000000000
-3.185039043426514 28.894273757934570 1.692847132682800 0.003921568859369
-3.052610397338867 27.669666290283203 3.417531013488770 0.003921568859369
-0.311074793338776 4.258286952972412 0.778261780738831 0.000000000000000
-0.411220014095306 3.355947017669678 -0.944067418575287 0.000000000000000
-0.249404191970825 29.113401412963867 -0.338617205619812 0.003921568859369
-1.680299520492554 29.230630874633789 -0.169836893677711 0.003921568859369
-0.236615657806396 27.145578384399414 0.316372185945511 0.003921568859369
-1.902300834655762 11.937577247619629 0.351976215839386 0.000000000000000
-1.598992466926575 27.763031005859375 5.070006370544434 0.003921568859369
-0.397952824831009 3.341822385787964 -0.939754009246826 0.000000000000000
-0.146698847413063 28.757909774780273 -0.334469467401505 0.003921568859369
-1.525355219841003 28.217496871948242 -0.163899630308151 0.003921568859369
-0.143079668283463 27.553998947143555 0.321119278669357 0.003921568859369
-2.859353780746460 27.689886093139648 3.417532205581665 0.003921568859369
-1.538527131080627 28.470813751220703 2.327669382095337 0.003921568859369
-1.503697156906128 27.799671173095703 5.075746536254883 0.003921568859369
-1.488864302635193 29.396823883056641 -0.856228828430176 0.003921568859369
-0.387244403362274 3.346757650375366 -0.940832257270813 0.000000000000000
-0.051203802227974 29.202005386352539 -0.339640825986862 0.003921568859369
-0.051483929157257 28.302070617675781 0.329821646213531 0.003921568859369
-2.766748905181885 27.691110610961914 3.416558027267456 0.003921568859369
-1.475078105926514 29.112686157226562 2.379738092422485 0.003921568859369
-1.413609385490417 27.847539901733398 5.083639144897461 0.003921568859369
-0.673748552799225 4.267442703247070 -0.074739217758179 0.000000000000000
-1.390210866928101 29.489507675170898 -0.858788728713989 0.003921568859369
-0.373031437397003 3.321034908294678 -0.933283865451813 0.000000000000000
0.051453161984682 29.393787384033203 -0.341876596212387 0.003921568859369
0.048092532902956 28.509857177734375 0.332242161035538 0.003921568859369
-2.813323974609375 29.220859527587891 1.709591507911682 0.003921568859369
-2.670077800750732 27.700389862060547 3.416558742523193 0.003921568859369
-1.346328139305115 28.516063690185547 2.330599546432495 0.003921568859369
-1.316223502159119 27.848161697387695 5.082921981811523 0.003921568859369
-1.299390435218811 29.785594940185547 -0.867284834384918 0.003921568859369
-0.363523632287979 3.345124006271362 -0.939753770828247 0.000000000000000
0.154850855469704 29.501207351684570 -0.343133896589279 0.003921568859369
-1.222913026809692 27.947340011596680 -0.162244632840157 0.003921568859369
-2.629096031188965 28.324037551879883 0.662102341651917 0.003921568859369
0.146393492817879 28.341321945190430 0.330288529396057 0.003921568859369
-2.754223823547363 29.703544616699219 1.737262248992920 0.003921568859369
-2.575872659683228 27.737010955810547 3.419971704483032 0.003921568859369
-1.222435712814331 27.934946060180664 5.097989559173584 0.003921568859369
-0.349171012639999 3.315463542938232 -0.931127011775970 0.000000000000000
