# This PCD file was generated using the MATLAB® pcwrite function
# from Computer Vision Toolbox®.
# .PCD v.7 - Point Cloud Data file format
VERSION .7
FIELDS x y z intensity
SIZE 8 8 8 8
TYPE F F F F
COUNT 1 1 1 1
WIDTH 642
HEIGHT 1
VIEWPOINT 0 0 0 1 0 0 0
POINTS 642
DATA ascii
-9.735604286193848 -0.668055057525635 1.719869852066040 0.000000000000000
-27.132602691650391 -0.505882859230042 -0.286731481552124 0.003921568859369
-27.104171752929688 -0.505631208419800 0.335581153631210 0.003921568859369
-29.681589126586914 -0.462038755416870 -0.314578890800476 0.003921568859369
-30.005044937133789 -0.467452913522720 0.371399581432343 0.003921568859369
-11.845129013061523 -0.741611242294312 0.214013934135437 0.000000000000000
-8.901442527770996 -0.521926522254944 1.565808057785034 0.000000000000000
-8.753879547119141 -0.483018487691879 0.352796345949173 0.000000000000000
-24.721721649169922 -1.234506726264954 -0.119839772582054 0.003921568859369
-13.816534996032715 -0.681709110736847 0.562421619892120 0.000000000000000
-9.486634254455566 -0.909590303897858 1.134306430816650 0.000000000000000
-24.895154953002930 0.121949411928654 0.307786762714386 0.003921568859369
-10.003515243530273 -0.422830373048782 0.797867596149445 0.000000000000000
-26.555810928344727 -1.052950978279114 -0.129123881459236 0.003921568859369
-24.838548660278320 0.211283221840858 0.307136803865433 0.003921568859369
-24.607044219970703 -0.893864512443542 -0.683433890342712 0.003921568859369
-30.321369171142578 0.358330547809601 -0.322239637374878 0.003921568859369
-24.845710754394531 0.292456209659576 0.307271152734756 0.003921568859369
-5.970199108123779 -0.480531632900238 0.697300255298615 0.000000000000000
-24.610015869140625 -0.809330224990845 -0.683393955230713 0.003921568859369
-26.028709411621094 0.396393716335297 -0.275150448083878 0.003921568859369
-15.549701690673828 -2.000023126602173 0.104116134345531 0.000000000000000
-25.092491149902344 0.381653070449829 0.310364395380020 0.003921568859369
-12.835959434509277 -1.642241954803467 0.378950089216232 0.000000000000000
-13.389997482299805 -0.435892820358276 2.386461973190308 0.000000000000000
-24.588710784912109 -0.724063158035278 -0.682671844959259 0.003921568859369
-25.655258178710938 0.478835374116898 -0.271034538745880 0.003921568859369
-24.775087356567383 0.461893379688263 0.306507974863052 0.003921568859369
-24.527252197265625 -0.633680760860443 -0.680810928344727 0.003921568859369
-25.617343902587891 0.570627748966217 -0.270599842071533 0.003921568859369
-15.960543632507324 -1.940948843955994 0.106744125485420 0.000000000000000
-28.211372375488281 -0.730640292167664 -0.137418940663338 0.003921568859369
-24.741237640380859 0.550551891326904 0.306152433156967 0.003921568859369
-24.565196990966797 -0.554458081722260 -0.681797087192535 0.003921568859369
-25.635305404663086 0.654802739620209 -0.270782798528671 0.003921568859369
-28.233634948730469 -0.638832807540894 -0.137479022145271 0.003921568859369
-24.887216567993164 0.635142087936401 0.308011591434479 0.003921568859369
-24.562984466552734 -0.469994246959686 -0.681644320487976 0.003921568859369
-25.648857116699219 0.743388772010803 -0.270920187234879 0.003921568859369
-27.119920730590820 -0.519953131675720 -0.131689772009850 0.003921568859369
-25.084747314453125 0.726531744003296 0.310513854026794 0.003921568859369
-10.441419601440430 -0.196180403232574 0.833413720130920 0.000000000000000
-24.552486419677734 -0.385419428348541 -0.681264340877533 0.003921568859369
-25.598136901855469 0.829976201057434 -0.270356714725494 0.003921568859369
-25.082057952880859 0.812731623649597 0.310550719499588 0.003921568859369
-10.312927246093750 -0.645101368427277 1.233452081680298 0.000000000000000
-24.557731628417969 -0.296904712915421 -0.681337475776672 0.003921568859369
-25.602916717529297 0.922657847404480 -0.270405054092407 0.003921568859369
-25.078914642333984 0.903230726718903 0.310589194297791 0.003921568859369
-18.876815795898438 -0.228993862867355 3.389694213867188 0.003921568859369
-24.516948699951172 -0.212340921163559 -0.681086003780365 0.003921568859369
-25.797691345214844 1.018715739250183 -0.273448109626770 0.003921568859369
-25.069952011108398 0.989288330078125 0.309801310300827 0.003921568859369
-24.513544082641602 -0.128078490495682 -0.680933892726898 0.003921568859369
-25.857917785644531 1.110208630561829 -0.274113178253174 0.003921568859369
-25.066347122192383 1.075454950332642 0.309837847948074 0.003921568859369
-11.474016189575195 -0.059642933309078 0.918381094932556 0.000000000000000
-24.541826248168945 -0.048115991055965 -0.681694149971008 0.003921568859369
-25.977951049804688 1.200489878654480 -0.275438755750656 0.003921568859369
-24.762992858886719 1.143244743347168 0.306180983781815 0.003921568859369
-13.746984481811523 -1.337720751762390 0.404703110456467 0.000000000000000
-24.553838729858398 0.036223541945219 -0.681997478008270 0.003921568859369
-14.947171211242676 0.021207660436630 0.608576595783234 0.000000000000000
-24.569580078125000 0.116451241075993 -0.682416677474976 0.003921568859369
-9.344844818115234 -0.835616886615753 0.273169130086899 0.000000000000000
-24.809677124023438 -1.076812744140625 -0.547848880290985 0.003921568859369
-24.580986022949219 0.205202773213387 -0.682718455791473 0.003921568859369
-25.036481857299805 -0.996831297874451 0.595390975475311 0.003921568859369
-18.812667846679688 -0.745582640171051 1.091544151306152 0.000000000000000
-17.405511856079102 0.143392428755760 1.406568646430969 0.000000000000000
-24.681602478027344 -0.981948077678680 -0.544817805290222 0.003921568859369
-24.520147323608398 0.288940429687500 -0.680974364280701 0.003921568859369
-30.349103927612305 0.358508020639420 -0.148887500166893 0.003921568859369
-25.027820587158203 -0.910332083702087 0.595145285129547 0.003921568859369
-24.704860687255859 -0.897870123386383 -0.545230209827423 0.003921568859369
-24.510997772216797 0.373066157102585 -0.680709600448608 0.003921568859369
-26.004243850708008 0.395917296409607 -0.126417830586433 0.003921568859369
-24.735824584960938 -0.813902974128723 -0.545823812484741 0.003921568859369
-24.561597824096680 0.454049527645111 -0.682153284549713 0.003921568859369
-26.146764755249023 0.483581423759460 -0.127123579382896 0.003921568859369
-6.007651329040527 0.105031773447990 0.468736976385117 0.000000000000000
-24.563768386840820 0.542745828628540 -0.682228267192841 0.003921568859369
-26.020851135253906 0.575215220451355 -0.126442566514015 0.003921568859369
-8.634509086608887 0.184680074453354 0.347483277320862 0.000000000000000
-24.672952651977539 -0.642085969448090 -0.544204890727997 0.003921568859369
-24.585708618164062 0.627774238586426 -0.682873964309692 0.003921568859369
-25.886732101440430 0.661285161972046 -0.125722855329514 0.003921568859369
-25.014869689941406 -0.565081834793091 -0.551859736442566 0.003921568859369
-24.599481582641602 0.708489418029785 -0.683294177055359 0.003921568859369
-25.612516403198242 0.737891137599945 -0.124283835291862 0.003921568859369
-14.221879959106445 0.404277712106705 0.578973531723022 0.000000000000000
-24.600795745849609 -0.475251674652100 -0.542408108711243 0.003921568859369
-24.579195022583008 0.792509555816650 -0.683724939823151 0.003921568859369
-25.788028717041016 0.831859350204468 -0.126039385795593 0.003921568859369
-24.620618820190430 -0.391213536262512 -0.543724417686462 0.003921568859369
-24.576278686523438 0.876976132392883 -0.683688461780548 0.003921568859369
-8.939440727233887 0.309599280357361 0.710572838783264 0.000000000000000
-24.569854736328125 -0.305938452482224 -0.542507171630859 0.003921568859369
-24.601039886474609 0.962549448013306 -0.684449076652527 0.003921568859369
-24.381042480468750 -1.394651293754578 0.159593835473061 0.003921568859369
-24.605520248413086 1.047442555427551 -0.684640586376190 0.003921568859369
-24.289909362792969 -1.305623412132263 0.159020394086838 0.003921568859369
-24.605709075927734 1.132186174392700 -0.684718489646912 0.003921568859369
-24.499748229980469 -0.052441824227571 -0.540760338306427 0.003921568859369
-24.565668106079102 1.214948892593384 -0.683658242225647 0.003921568859369
-12.438008308410645 0.605001688003540 0.999253094196320 0.000000000000000
-6.555531501770020 0.309435397386551 1.137574672698975 0.000000000000000
-24.723726272583008 0.032063093036413 -0.545795798301697 0.003921568859369
-16.579824447631836 0.869634211063385 1.340712428092957 0.000000000000000
-24.667482376098633 0.116774737834930 -0.544489145278931 0.003921568859369
-26.535917282104492 -1.062148571014404 0.173478931188583 0.003921568859369
-24.778890609741211 0.202490687370300 -0.546987533569336 0.003921568859369
-24.604013442993164 1.462864279747009 -0.685035109519958 0.003921568859369
-4.784683227539062 0.265364021062851 0.813605725765228 0.000000000000000
-24.778131484985352 0.279147386550903 -0.546953260898590 0.003921568859369
-24.614719390869141 1.548438787460327 -0.685455322265625 0.003921568859369
-24.753021240234375 0.363958895206451 -0.546371877193451 0.003921568859369
-24.743604660034180 0.448887646198273 -0.546153128147125 0.003921568859369
-13.314081192016602 0.918131530284882 2.378919124603271 0.000000000000000
-24.765779495239258 0.538718402385712 -0.546657145023346 0.003921568859369
-9.488242149353027 0.230714872479439 1.130852699279785 0.000000000000000
-24.758176803588867 0.619470357894897 -0.547436952590942 0.003921568859369
-26.404588699340820 3.313988924026489 -0.283139675855637 0.003921568859369
-16.683242797851562 0.469095796346664 4.388421535491943 0.003921568859369
-24.659931182861328 0.701814830303192 -0.545223355293274 0.003921568859369
-25.599672317504883 3.301035165786743 -0.274301320314407 0.003921568859369
-8.577828407287598 0.265199363231659 0.488737940788269 0.000000000000000
-24.653337478637695 0.786460041999817 -0.545095622539520 0.003921568859369
-6.603897094726562 0.837222039699554 -0.063485428690910 0.000000000000000
-24.973482131958008 0.882311642169952 0.593260526657104 0.003921568859369
-24.646446228027344 0.871067941188812 -0.544968068599701 0.003921568859369
-24.644887924194336 3.348595142364502 -0.263892918825150 0.003921568859369
-25.122091293334961 0.974155366420746 0.596924841403961 0.003921568859369
-6.507109165191650 0.542190313339233 0.260442793369293 0.000000000000000
-12.945762634277344 1.110965251922607 2.315192222595215 0.000000000000000
-24.647253036499023 0.955946147441864 -0.545022010803223 0.003921568859369
-23.314273834228516 3.246649265289307 -0.249208047986031 0.003921568859369
-25.138513565063477 1.061400413513184 0.597439408302307 0.003921568859369
-24.663745880126953 1.041532158851624 -0.545438706874847 0.003921568859369
-24.363019943237305 3.484822273254395 -0.260968297719955 0.003921568859369
-25.030597686767578 1.147333383560181 0.594996333122253 0.003921568859369
-8.787338256835938 0.390903383493423 1.045209050178528 0.000000000000000
-24.667751312255859 1.130928874015808 -0.545581758022308 0.003921568859369
-24.351331710815430 3.564359426498413 -0.260938912630081 0.003921568859369
-24.855813980102539 0.023257253691554 0.162268221378326 0.003921568859369
-24.338743209838867 3.648040056228638 -0.260908126831055 0.003921568859369
-24.907579421997070 0.108953200280666 0.162639588117599 0.003921568859369
-24.326511383056641 3.727495670318604 -0.260879099369049 0.003921568859369
-24.923080444335938 0.190440103411674 0.162778690457344 0.003921568859369
-16.588987350463867 0.182428687810898 -0.267849266529083 0.003921568859369
-24.313354492187500 3.811088800430298 -0.260848701000214 0.003921568859369
-24.902267456054688 0.275912582874298 0.162689253687859 0.003921568859369
-5.984662532806396 0.062972448766232 -0.350696593523026 0.000000000000000
-24.630144119262695 1.460358023643494 -0.544988453388214 0.003921568859369
-24.299903869628906 3.894629716873169 -0.260818481445312 0.003921568859369
-9.980201721191406 0.611485779285431 0.572269439697266 0.000000000000000
-24.612924575805664 1.544255495071411 -0.544681131839752 0.003921568859369
-24.280511856079102 3.978012800216675 -0.261580318212509 0.003921568859369
-26.185846328735352 0.470598816871643 0.170179873704910 0.003921568859369
-10.155222892761230 1.139665246009827 0.816086232662201 0.000000000000000
-24.266479492187500 4.061469554901123 -0.261549890041351 0.003921568859369
-26.180047988891602 0.560641705989838 0.170194625854492 0.003921568859369
-26.358251571655273 3.212096214294434 -0.740729928016663 0.003921568859369
-24.252155303955078 4.144865036010742 -0.261519640684128 0.003921568859369
-26.177928924560547 0.650738775730133 0.170234665274620 0.003921568859369
-14.715156555175781 1.772757768630981 0.266721457242966 0.000000000000000
-9.559512138366699 0.681480288505554 1.142938494682312 0.000000000000000
-25.593255996704102 3.206984043121338 -0.719045579433441 0.003921568859369
-24.237541198730469 4.228215694427490 -0.261489570140839 0.003921568859369
-26.199487686157227 0.741523087024689 0.170427590608597 0.003921568859369
-4.437839508056641 0.517149507999420 -0.015737522393465 0.000000000000000
-9.228575706481934 0.688284158706665 0.528506219387054 0.000000000000000
-8.165478706359863 0.990491986274719 1.443904280662537 0.000000000000000
-6.559465408325195 0.808915853500366 -0.172339022159576 0.000000000000000
-24.222633361816406 4.311514854431152 -0.261459708213806 0.003921568859369
-26.184747695922852 0.831306636333466 0.170390769839287 0.003921568859369
-24.088153839111328 3.184047937393188 -0.676367044448853 0.003921568859369
-24.341176986694336 4.419411182403564 -0.262928128242493 0.003921568859369
-23.962028503417969 3.251008033752441 -0.673031508922577 0.003921568859369
-24.447458267211914 4.525982379913330 -0.264264225959778 0.003921568859369
-26.010442733764648 1.004949688911438 0.169397652149200 0.003921568859369
-7.320515632629395 0.957235634326935 1.289882898330688 0.000000000000000
-23.447740554809570 3.262276411056519 -0.658532142639160 0.003921568859369
-24.435441970825195 4.610765933990479 -0.264278620481491 0.003921568859369
-26.054731369018555 1.096505880355835 0.169742941856384 0.003921568859369
-23.322164535522461 3.244320154190063 -0.114961676299572 0.003921568859369
-24.425474166870117 3.486188411712646 -0.686980783939362 0.003921568859369
-24.423124313354492 4.695519447326660 -0.264293193817139 0.003921568859369
-25.019866943359375 1.138541460037231 0.163193270564079 0.003921568859369
-12.272042274475098 1.134171843528748 0.709225177764893 0.000000000000000
-7.743264198303223 1.068387150764465 0.313866972923279 0.000000000000000
-24.539718627929688 3.588934659957886 -0.690594375133514 0.003921568859369
-24.691856384277344 3.785278558731079 -0.695656776428223 0.003921568859369
-14.129695892333984 1.457124829292297 0.013892168179154 0.000000000000000
-24.637960433959961 3.860147953033447 -0.695405900478363 0.003921568859369
-8.033316612243652 1.607440590858459 -0.446210324764252 0.000000000000000
-26.597606658935547 4.265728950500488 -0.752379000186920 0.003921568859369
-10.424285888671875 0.638736009597778 0.304563850164413 0.000000000000000
-26.606224060058594 4.361217498779297 -0.753028810024261 0.003921568859369
-12.575490951538086 2.029247045516968 0.228989720344543 0.000000000000000
-26.602664947509766 4.454811573028564 -0.753336787223816 0.003921568859369
-16.844785690307617 1.162145614624023 0.495610803365707 0.003921568859369
-8.764798164367676 1.852810502052307 -0.490367054939270 0.000000000000000
-17.330146789550781 2.031715393066406 4.595402240753174 0.003921568859369
-25.799032211303711 4.409774303436279 -0.730503916740417 0.003921568859369
-26.114923477172852 3.177973747253418 -0.583373248577118 0.003921568859369
-24.783435821533203 4.321564674377441 -0.701517820358276 0.003921568859369
-25.560176849365234 3.198849439620972 -0.570904612541199 0.003921568859369
-24.846897125244141 4.421004295349121 -0.703766345977783 0.003921568859369
-8.113095283508301 1.399035930633545 0.653348147869110 0.000000000000000
-24.739925384521484 3.181224584579468 -0.552357614040375 0.003921568859369
-24.571786880493164 4.458643436431885 -0.696212470531464 0.003921568859369
-24.585985183715820 3.247168540954590 -0.549057602882385 0.003921568859369
-12.614031791687012 1.685535192489624 0.300532788038254 0.000000000000000
-23.944604873657227 3.245025396347046 -0.534597575664520 0.003921568859369
-15.172430038452148 1.356458783149719 0.446770787239075 0.000000000000000
-23.402532577514648 3.252419948577881 -0.522407710552216 0.003921568859369
-24.902891159057617 3.551644802093506 -0.557034134864807 0.003921568859369
-9.431644439697266 0.894604086875916 -0.148397549986839 0.000000000000000
-24.820913314819336 4.858566761016846 -0.705207824707031 0.003921568859369
-24.858695983886719 3.632601737976074 -0.556275546550751 0.003921568859369
-13.523644447326660 2.660810708999634 -0.377797305583954 0.000000000000000
-24.520599365234375 3.665117025375366 -0.549696028232574 0.003921568859369
-23.685035705566406 4.799225330352783 -0.674014270305634 0.003921568859369
-5.411155223846436 0.533125996589661 0.037762477993965 0.000000000000000
-24.740806579589844 3.785651445388794 -0.555022418498993 0.003921568859369
-23.668144226074219 4.880626201629639 -0.673984944820404 0.003921568859369
-15.532752990722656 2.410005331039429 0.371650934219360 0.000000000000000
-26.679508209228516 4.275063991546631 -0.600184857845306 0.003921568859369
-11.805322647094727 1.329235672950745 0.347193121910095 0.000000000000000
-3.850206136703491 0.756633281707764 0.299487590789795 0.000000000000000
-26.692039489746094 4.371510982513428 -0.600785553455353 0.003921568859369
-10.639119148254395 1.742429375648499 2.806585550308228 0.000000000000000
-25.966941833496094 4.343053817749023 -0.584405124187469 0.003921568859369
-10.760142326354980 2.870676755905151 -0.995593965053558 0.000000000000000
-5.152303695678711 1.073896050453186 0.208617329597473 0.000000000000000
-5.491423130035400 0.888741731643677 0.648476302623749 0.000000000000000
-25.927980422973633 4.428339958190918 -0.583826541900635 0.003921568859369
-10.673345565795898 2.885520219802856 -0.988194108009338 0.000000000000000
-16.917562484741211 2.926936388015747 0.994494974613190 0.000000000000000
-25.947807312011719 4.523842811584473 -0.584610164165497 0.003921568859369
-9.577175140380859 1.201285481452942 0.064619056880474 0.000000000000000
-10.471613883972168 2.867205858230591 -0.969712793827057 0.000000000000000
-12.079029083251953 1.527206659317017 0.356029748916626 0.000000000000000
-11.357579231262207 2.543908357620239 2.071217298507690 0.000000000000000
-24.849609375000000 4.417928218841553 -0.559608697891235 0.003921568859369
-10.461544990539551 2.902497053146362 -0.969701468944550 0.000000000000000
-9.287766456604004 1.642038226127625 2.444564819335938 0.000000000000000
-24.786846160888672 4.494712829589844 -0.558487355709076 0.003921568859369
-12.450473785400391 2.886665821075439 -0.349129140377045 0.000000000000000
-11.025217056274414 2.001132965087891 0.011648496612906 0.003921568859369
-10.229544639587402 2.873203277587891 -0.948265790939331 0.000000000000000
-11.081410408020020 2.011768341064453 -0.242259502410889 0.000000000000000
-10.200353622436523 2.902022600173950 -0.946407973766327 0.000000000000000
-5.205976009368896 1.429496407508850 -0.168063431978226 0.000000000000000
-10.100519180297852 2.911242008209229 -0.938633441925049 0.000000000000000
-25.101732254028320 4.822076320648193 -0.567741334438324 0.003921568859369
-10.025486946105957 2.925660133361816 -0.932341098785400 0.000000000000000
-4.152826309204102 0.754178881645203 0.233327761292458 0.000000000000000
-24.716037750244141 4.835272789001465 -0.559165835380554 0.003921568859369
-10.026639938354492 2.962914466857910 -0.933438658714294 0.000000000000000
-9.421896934509277 1.375443696975708 0.277281016111374 0.000000000000000
-9.989609718322754 2.988415241241455 -0.930841445922852 0.000000000000000
-11.693908691406250 2.917744159698486 -0.944203853607178 0.000000000000000
-23.863050460815430 4.836840629577637 -0.540109813213348 0.003921568859369
-11.538077354431152 2.915165185928345 -0.931909322738647 0.000000000000000
-7.543272018432617 1.902185559272766 -0.206940501928329 0.000000000000000
-11.350017547607422 2.909250736236572 -0.917027592658997 0.000000000000000
-4.611128807067871 0.921238422393799 0.007804268971086 0.000000000000000
-6.998018264770508 1.437444329261780 0.167425185441971 0.000000000000000
-11.236332893371582 2.917840003967285 -0.908288598060608 0.000000000000000
-11.064493179321289 2.911904096603394 -0.894701182842255 0.000000000000000
-10.328315734863281 2.710879325866699 1.896792769432068 0.000000000000000
-6.762778282165527 1.435910463333130 0.009033728390932 0.000000000000000
-10.941777229309082 2.922265768051147 -0.885314583778381 0.000000000000000
-9.343011856079102 2.480278730392456 1.711840987205505 0.000000000000000
-7.867809295654297 2.501113414764404 0.102280855178833 0.000000000000000
-10.863426208496094 2.936220645904541 -0.879486024379730 0.000000000000000
-6.732282638549805 1.125402927398682 0.197498619556427 0.000000000000000
-10.714499473571777 2.935613393783569 -0.867838382720947 0.000000000000000
-10.581558227539062 2.936576128005981 -0.857484459877014 0.000000000000000
-12.622635841369629 2.255123853683472 0.375277996063232 0.000000000000000
-12.082395553588867 4.042310714721680 0.156810536980629 0.000000000000000
-10.478025436401367 2.944841623306274 -0.850414037704468 0.000000000000000
-17.487319946289062 4.085143566131592 -0.395464390516281 0.000000000000000
-10.371555328369141 2.953793525695801 -0.842319250106812 0.000000000000000
-10.257760047912598 1.929098486900330 0.069205135107040 0.000000000000000
-10.269492149353027 2.961415290832520 -0.834548473358154 0.000000000000000
-10.232900619506836 2.986243009567261 -0.832274436950684 0.000000000000000
-14.875199317932129 2.877740383148193 0.444054067134857 0.000000000000000
-13.326987266540527 4.674830436706543 -0.147542104125023 0.000000000000000
-10.195728302001953 3.012580394744873 -0.829999983310699 0.000000000000000
-10.238468170166016 3.063463211059570 -0.834514260292053 0.000000000000000
-5.321912765502930 1.021665453910828 0.155855968594551 0.000000000000000
-10.427877426147461 3.712827205657959 -0.991642773151398 0.000000000000000
-11.750209808349609 2.973943471908569 -0.812609076499939 0.000000000000000
-10.211958885192871 3.094931125640869 -0.833209156990051 0.000000000000000
-7.826722621917725 1.564601302146912 0.231774151325226 0.000000000000000
-4.883136749267578 1.422948002815247 0.875386178493500 0.000000000000000
-11.594202041625977 2.971037626266479 -0.802074491977692 0.000000000000000
-10.202187538146973 3.125916004180908 -0.833198904991150 0.000000000000000
-11.490210533142090 2.989397048950195 -0.795413970947266 0.000000000000000
-10.193907737731934 3.164961576461792 -0.833509683609009 0.000000000000000
-11.994499206542969 3.742555379867554 2.243446350097656 0.000000000000000
-4.103449344635010 1.021939396858215 0.007435969077051 0.000000000000000
-11.337236404418945 2.989537954330444 -0.785155653953552 0.000000000000000
-10.235878944396973 3.216589450836182 -0.838024020195007 0.000000000000000
-20.708658218383789 5.537029743194580 2.608110904693604 0.003921568859369
-6.301012516021729 1.330426812171936 0.044000506401062 0.000000000000000
-11.173903465270996 2.981681346893311 -0.774068474769592 0.000000000000000
-10.210574150085449 3.242666721343994 -0.836720883846283 0.000000000000000
-11.078872680664062 2.995864152908325 -0.767964243888855 0.000000000000000
-10.187846183776855 3.273312330245972 -0.835740029811859 0.000000000000000
-5.528229236602783 1.723430752754211 0.230963140726089 0.000000000000000
-10.904207229614258 2.992413043975830 -0.756984412670135 0.000000000000000
-10.233764648437500 3.332666635513306 -0.841587781906128 0.000000000000000
-10.783512115478516 2.993702173233032 -0.748940229415894 0.000000000000000
-10.238343238830566 3.368875026702881 -0.842870831489563 0.000000000000000
-10.281991958618164 2.889417886734009 -0.713474094867706 0.000000000000000
-10.195771217346191 3.394749641418457 -0.840272009372711 0.000000000000000
-14.682155609130859 3.470808029174805 -0.244969159364700 0.000000000000000
-10.570424079895020 3.012017011642456 -0.735065460205078 0.000000000000000
-10.138681411743164 3.413398504257202 -0.836380600929260 0.000000000000000
-10.499192237854004 3.027692556381226 -0.730622231960297 0.000000000000000
-10.025772094726562 3.410128593444824 -0.827639877796173 0.000000000000000
-6.091735839843750 2.024754762649536 0.506469845771790 0.000000000000000
-17.374698638916016 4.245383262634277 -0.292397350072861 0.003921568859369
-10.473279953002930 3.058531761169434 -0.729502022266388 0.000000000000000
-10.451094627380371 3.090390682220459 -0.728658854961395 0.000000000000000
-10.424995422363281 3.120950222015381 -0.727538883686066 0.000000000000000
-10.221816062927246 3.595908403396606 -0.847652852535248 0.000000000000000
-10.413488388061523 3.157900094985962 -0.727526128292084 0.000000000000000
-10.208569526672363 3.632110118865967 -0.847641170024872 0.000000000000000
-10.395353317260742 3.188877820968628 -0.726960778236389 0.000000000000000
-10.188996315002441 3.662039041519165 -0.846984088420868 0.000000000000000
-10.379798889160156 3.224496126174927 -0.726671278476715 0.000000000000000
-11.581915855407715 3.013331890106201 -0.734825432300568 0.000000000000000
-9.973336219787598 4.210029125213623 -0.970395803451538 0.000000000000000
-10.360890388488770 3.257059812545776 -0.726105511188507 0.000000000000000
-11.463467597961426 3.023243665695190 -0.727704882621765 0.000000000000000
-2.840966463088989 0.812795042991638 0.159907102584839 0.000000000000000
-9.965315818786621 4.245043277740479 -0.971850633621216 0.000000000000000
-10.322185516357422 3.281003475189209 -0.724801421165466 0.000000000000000
-10.815130233764648 4.020232200622559 -0.905527710914612 0.000000000000000
-11.305828094482422 3.018933773040771 -0.718700468540192 0.000000000000000
-2.696165323257446 0.775772511959076 0.151320904493332 0.000000000000000
-7.004871368408203 2.190804719924927 0.871042251586914 0.000000000000000
-9.939522743225098 4.273783683776855 -0.970731317996979 0.000000000000000
-10.344750404357910 3.327179908752441 -0.727282524108887 0.000000000000000
-3.845670461654663 1.361047983169556 -0.300419598817825 0.000000000000000
-11.168333053588867 3.021825313568115 -0.710307419300079 0.000000000000000
-2.244510889053345 0.850081622600555 -0.115552656352520 0.000000000000000
-10.355770111083984 3.369738817214966 -0.728932619094849 0.000000000000000
-11.073207855224609 3.035739421844482 -0.704707741737366 0.000000000000000
-5.432062625885010 2.016821861267090 -0.023840218782425 0.000000000000000
-10.340168952941895 3.403417110443115 -0.728643476963043 0.000000000000000
-10.962768554687500 3.044626951217651 -0.698092699050903 0.000000000000000
-16.794212341308594 6.510645389556885 3.242263555526733 0.003921568859369
-10.331398963928223 3.441373586654663 -0.728907883167267 0.000000000000000
-10.838689804077148 4.200579643249512 -0.912594139575958 0.000000000000000
-10.886365890502930 3.064641237258911 -0.693762302398682 0.000000000000000
-3.427274942398071 1.236655473709106 0.614627063274384 0.000000000000000
-10.323094367980957 3.477564334869385 -0.729172885417938 0.000000000000000
-10.062439918518066 3.929622411727905 -0.845963835716248 0.000000000000000
-10.806671142578125 3.081177711486816 -0.689179003238678 0.000000000000000
-10.322185516357422 3.516390562057495 -0.729992032051086 0.000000000000000
-10.809107780456543 4.273818492889404 -0.912570536136627 0.000000000000000
-10.776721954345703 3.112018108367920 -0.687896370887756 0.000000000000000
-10.306709289550781 3.548159599304199 -0.729703783988953 0.000000000000000
-10.057584762573242 4.004868030548096 -0.847882866859436 0.000000000000000
-10.743413925170898 3.139717817306519 -0.686360657215118 0.000000000000000
-10.304903030395508 3.588746309280396 -0.730522394180298 0.000000000000000
-10.716565132141113 3.173186063766479 -0.685331463813782 0.000000000000000
-10.292945861816406 3.621792554855347 -0.730511248111725 0.000000000000000
-10.213176727294922 4.149860382080078 -0.864030122756958 0.000000000000000
-10.690731048583984 3.202882289886475 -0.684303700923920 0.000000000000000
-10.290838241577148 3.662408113479614 -0.731330037117004 0.000000000000000
-10.131837844848633 4.158012390136719 -0.858197987079620 0.000000000000000
-10.675111770629883 3.239632844924927 -0.684036314487457 0.000000000000000
-10.300436973571777 3.705487489700317 -0.732980310916901 0.000000000000000
-10.161240577697754 4.211033344268799 -0.862067759037018 0.000000000000000
-10.652323722839355 3.272091865539551 -0.683261990547180 0.000000000000000
-3.630125045776367 1.225323796272278 0.211876690387726 0.000000000000000
-10.271219253540039 3.734257459640503 -0.732503175735474 0.000000000000000
-10.152531623840332 4.248296260833740 -0.863387703895569 0.000000000000000
-10.635748863220215 3.306239366531372 -0.683626770973206 0.000000000000000
-2.798529624938965 0.927534282207489 0.330578625202179 0.000000000000000
-9.372531890869141 3.910477638244629 0.814575195312500 0.000000000000000
-7.253203392028809 3.435216426849365 -0.080908186733723 0.000000000000000
-10.291699409484863 3.781690835952759 -0.734984993934631 0.000000000000000
-10.643129348754883 3.348365783691406 -0.684883534908295 0.000000000000000
-2.325896739959717 0.872118711471558 -0.108081854879856 0.000000000000000
-11.859681129455566 5.033288478851318 2.305903196334839 0.000000000000000
-5.208309173583984 1.871621847152710 0.007668625097722 0.000000000000000
-10.289613723754883 3.820737123489380 -0.735804259777069 0.000000000000000
-10.654131889343262 3.391829490661621 -0.686394155025482 0.000000000000000
-2.253386497497559 0.848481297492981 -0.104140058159828 0.000000000000000
-10.302260398864746 3.865583419799805 -0.737732052803040 0.000000000000000
-10.615711212158203 3.419043540954590 -0.684603452682495 0.000000000000000
-11.515403747558594 4.976862430572510 0.510181605815887 0.000000000000000
-7.772535800933838 3.311397314071655 1.495109915733337 0.000000000000000
-10.307283401489258 3.907654523849487 -0.739105522632599 0.000000000000000
-10.611282348632812 3.457480907440186 -0.685098409652710 0.000000000000000
-20.947978973388672 9.342307090759277 -0.642310678958893 0.003921568859369
-10.309112548828125 3.946597337722778 -0.740202605724335 0.000000000000000
-10.595979690551758 3.490280389785767 -0.684832334518433 0.000000000000000
-10.298287391662598 3.984635353088379 -0.740467309951782 0.000000000000000
-10.605766296386719 3.535683393478394 -0.686342477798462 0.000000000000000
-10.318321228027344 4.031116962432861 -0.742949664592743 0.000000000000000
-10.931350708007812 3.686694383621216 0.337209850549698 0.000000000000000
-10.593984603881836 3.569749116897583 -0.686330318450928 0.000000000000000
-4.750543594360352 2.040892362594604 0.206082493066788 0.000000000000000
-10.330055236816406 4.076510906219482 -0.744877457618713 0.000000000000000
-10.585225105285645 3.606889963150024 -0.686571538448334 0.000000000000000
-11.990973472595215 5.431179046630859 2.357794046401978 0.000000000000000
-10.363734245300293 4.131149768829346 -0.748467564582825 0.000000000000000
-10.591378211975098 3.649361848831177 -0.687828481197357 0.000000000000000
-10.363262176513672 4.174037456512451 -0.749563574790955 0.000000000000000
-10.581689834594727 3.688308715820312 -0.688069164752960 0.000000000000000
-10.678939819335938 4.347530841827393 0.010692113079131 0.003921568859369
-10.568751335144043 3.724081516265869 -0.688056647777557 0.000000000000000
-11.625782012939453 4.744991302490234 0.724915564060211 0.000000000000000
-15.548974037170410 7.286293983459473 3.090983867645264 0.003921568859369
-10.573154449462891 3.766227960586548 -0.689942479133606 0.000000000000000
-5.469991207122803 2.507625102996826 0.107805892825127 0.000000000000000
-10.559945106506348 3.801990270614624 -0.689929604530334 0.000000000000000
-10.481942176818848 4.390638828277588 0.267847150564194 0.000000000000000
-10.587721824645996 3.853135585784912 -0.692710876464844 0.000000000000000
-10.574207305908203 3.888950586318970 -0.692698001861572 0.000000000000000
-10.579205513000488 3.931859970092773 -0.693955183029175 0.000000000000000
-4.604223728179932 2.141393661499023 0.880565345287323 0.000000000000000
-6.527102470397949 2.403233766555786 -0.108048692345619 0.000000000000000
-10.591475486755371 3.977732896804810 -0.695720434188843 0.000000000000000
-6.299701690673828 2.339129686355591 0.045326501131058 0.000000000000000
-8.523754119873047 3.209454059600830 0.265458673238754 0.000000000000000
-10.584963798522949 4.016467571258545 -0.696215689182281 0.000000000000000
-16.953809738159180 6.575875282287598 -0.298878490924835 0.003921568859369
-10.598163604736328 4.102517127990723 -0.698984801769257 0.000000000000000
-26.018276214599609 13.405188560485840 5.304274082183838 0.003921568859369
-10.377578735351562 4.766062259674072 2.993726968765259 0.000000000000000
-8.713297843933105 4.230071067810059 2.529204845428467 0.000000000000000
-3.784040451049805 1.794361948966980 0.234250336885452 0.000000000000000
-6.989638328552246 3.940289258956909 1.422606945037842 0.000000000000000
-16.932771682739258 10.285877227783203 3.578383684158325 0.003921568859369
-9.721946716308594 5.291594505310059 2.903383731842041 0.000000000000000
-7.386531829833984 3.597814083099365 -0.130175769329071 0.000000000000000
-10.505151748657227 5.922501087188721 0.696888625621796 0.000000000000000
-10.746128082275391 6.764741420745850 2.279033660888672 0.000000000000000
-6.311991214752197 3.187290191650391 0.205622434616089 0.000000000000000
-6.429302692413330 4.571872234344482 0.097367726266384 0.000000000000000
-3.555037021636963 2.253884792327881 -0.016349017620087 0.000000000000000
-6.044682979583740 4.040179252624512 -0.032756049185991 0.000000000000000
-5.057476043701172 3.424195766448975 0.246198087930679 0.000000000000000
-8.624914169311523 5.393649101257324 2.667535781860352 0.000000000000000
-13.958032608032227 8.249873161315918 -0.267217934131622 0.000000000000000
-2.728110790252686 1.646191954612732 0.176961541175842 0.000000000000000
-1.222099542617798 0.629823386669159 0.070375777781010 0.003921568859369
-14.189197540283203 9.553924560546875 0.404306739568710 0.000000000000000
-8.698980331420898 5.776618957519531 2.741239547729492 0.000000000000000
-4.915519237518311 3.324876070022583 0.139559134840965 0.000000000000000
-7.570242881774902 6.002344131469727 2.537673473358154 0.000000000000000
-8.292099952697754 7.390766143798828 1.996374845504761 0.000000000000000
-8.979506492614746 6.625790119171143 -0.182202458381653 0.000000000000000
-7.719418525695801 7.413736343383789 1.924307346343994 0.000000000000000
-6.066021919250488 6.275158882141113 1.565389513969421 0.000000000000000
-8.950301170349121 8.646337509155273 0.009022974409163 0.000000000000000
-4.766808509826660 5.007258892059326 0.281282186508179 0.000000000000000
-4.978344440460205 5.468619346618652 1.323163866996765 0.000000000000000
-6.384511947631836 7.155484199523926 0.776603400707245 0.000000000000000
-7.203519344329834 8.353708267211914 1.988836646080017 0.000000000000000
-8.418134689331055 9.953174591064453 2.355563640594482 0.000000000000000
-11.085202217102051 12.050580978393555 0.953765392303467 0.000000000000000
-8.928272247314453 9.854019165039062 0.773564398288727 0.000000000000000
-5.286335468292236 5.749028682708740 2.052985429763794 0.000000000000000
-3.745230197906494 3.637945413589478 -0.081684172153473 0.000000000000000
-4.502717971801758 4.468529224395752 -0.101107962429523 0.000000000000000
-10.971576690673828 13.944374084472656 3.217582225799561 0.003921568859369
-6.882707595825195 7.322719097137451 -0.164457038044930 0.000000000000000
-5.349857807159424 7.291406154632568 1.629857063293457 0.000000000000000
-3.216251373291016 4.306024551391602 0.219164341688156 0.000000000000000
-3.074589252471924 3.367929697036743 0.133625417947769 0.000000000000000
-4.489439010620117 6.197637557983398 1.376050233840942 0.000000000000000
-5.203361988067627 7.296731472015381 1.615504741668701 0.000000000000000
-4.804265975952148 6.759090900421143 1.493270397186279 0.000000000000000
-6.597125530242920 11.020037651062012 0.157260939478874 0.000000000000000
-5.819754600524902 7.854826927185059 1.190344333648682 0.000000000000000
-4.356783866882324 5.268997669219971 -0.265753090381622 0.000000000000000
-7.749606609344482 11.316722869873047 1.676792621612549 0.000000000000000
-4.224340438842773 6.284404754638672 2.000707626342773 0.000000000000000
-2.777656078338623 3.681428670883179 -0.280972659587860 0.000000000000000
-1.639883875846863 2.526396751403809 -0.146355494856834 0.000000000000000
-11.040884017944336 19.513042449951172 4.079535007476807 0.003921568859369
-1.634899020195007 2.538266181945801 -0.146769151091576 0.000000000000000
-5.329258441925049 8.281562805175781 2.612447738647461 0.000000000000000
-4.320041656494141 7.491993427276611 1.562788844108582 0.000000000000000
-5.624965190887451 11.473248481750488 -0.433794528245926 0.000000000000000
-5.956762313842773 10.086301803588867 1.432211995124817 0.000000000000000
-4.907022476196289 9.344060897827148 0.433559536933899 0.000000000000000
-4.556514263153076 8.718387603759766 1.781956553459167 0.000000000000000
-3.693176269531250 8.008368492126465 0.108852632343769 0.000000000000000
-3.482116222381592 5.245518207550049 0.185646936297417 0.000000000000000
-7.189679145812988 14.288053512573242 0.287304252386093 0.000000000000000
-4.523499488830566 7.950208187103271 0.007103973999619 0.003921568859369
-4.649850845336914 8.256055831909180 1.157197237014771 0.000000000000000
-5.777582168579102 12.246141433715820 0.556716501712799 0.000000000000000
-6.856417655944824 13.249382972717285 0.872213900089264 0.000000000000000
-3.099804401397705 5.799959182739258 0.156604945659637 0.000000000000000
-3.303220272064209 6.210205554962158 0.409847408533096 0.000000000000000
-3.684140205383301 7.930249691009521 0.359373420476913 0.000000000000000
-2.130565881729126 3.442988157272339 -0.247303143143654 0.000000000000000
-1.865012645721436 3.796594619750977 0.173603460192680 0.000000000000000
-1.825680255889893 3.741470098495483 -0.113405808806419 0.000000000000000
-1.803000450134277 3.688396453857422 0.168508604168892 0.000000000000000
-8.408030509948730 16.951011657714844 1.107025980949402 0.000000000000000
-3.664847135543823 8.116914749145508 0.366124182939529 0.000000000000000
-2.156396150588989 4.072360038757324 0.005202361848205 0.000000000000000
-5.300023078918457 10.795593261718750 1.472965359687805 0.000000000000000
-6.976586341857910 14.499855041503906 0.381897151470184 0.000000000000000
-4.271475791931152 8.770708084106445 0.007220031693578 0.003921568859369
-3.849834680557251 7.856868743896484 0.208192825317383 0.000000000000000
-5.245993614196777 9.699905395507812 0.325549244880676 0.000000000000000
-4.341931819915771 9.005746841430664 0.584058344364166 0.000000000000000
-2.621252775192261 6.122052192687988 1.204960465431213 0.000000000000000
-4.228949069976807 12.069688796997070 0.156379073858261 0.000000000000000
-1.320449233055115 2.202076196670532 0.075930349528790 0.000000000000000
-5.980145931243896 13.199140548706055 3.868356704711914 0.000000000000000
-2.662790775299072 5.656191349029541 0.149081945419312 0.000000000000000
-6.986521244049072 18.217065811157227 3.554492950439453 0.003921568859369
-3.620864868164062 11.004657745361328 0.141956105828285 0.000000000000000
-3.952323913574219 10.381741523742676 2.019424676895142 0.000000000000000
-4.501833915710449 9.110404014587402 0.300151824951172 0.000000000000000
-2.282624959945679 5.802952289581299 -0.317083328962326 0.000000000000000
-3.965925216674805 10.652541160583496 2.066885471343994 0.000000000000000
-4.607500553131104 9.507056236267090 0.068176627159119 0.000000000000000
-3.655515670776367 7.444820880889893 0.245107010006905 0.000000000000000
-4.743802547454834 9.892856597900391 0.324095368385315 0.000000000000000
-3.185003042221069 8.624505996704102 1.669996023178101 0.000000000000000
-4.461736679077148 10.853219985961914 -0.807435393333435 0.000000000000000
-1.328895688056946 4.107988357543945 -0.143838241696358 0.000000000000000
-5.889692306518555 21.186483383178711 0.266998618841171 0.003921568859369
-4.393857955932617 13.188352584838867 -0.071923963725567 0.000000000000000
-3.891604423522949 11.603969573974609 0.503831267356873 0.000000000000000
-2.163190841674805 6.152001857757568 0.532581448554993 0.000000000000000
-1.385160923004150 3.697813987731934 0.712110638618469 0.000000000000000
-3.037624597549438 9.019442558288574 0.391905009746552 0.000000000000000
-2.235341310501099 6.619499683380127 0.287868320941925 0.000000000000000
-3.397644281387329 10.423274040222168 1.994779944419861 0.000000000000000
-3.952934741973877 12.545845031738281 1.077021718025208 0.000000000000000
-2.691496610641479 7.134262561798096 0.445867240428925 0.000000000000000
-4.139836311340332 13.362111091613770 2.548135995864868 0.000000000000000
-3.999935150146484 13.063779830932617 -0.070911750197411 0.000000000000000
-2.800643444061279 8.933078765869141 0.168922945857048 0.000000000000000
-5.626864910125732 18.666757583618164 3.554663181304932 0.003921568859369
-3.612449169158936 12.205085754394531 -0.065837778151035 0.000000000000000
-2.333017587661743 7.824934482574463 0.336485803127289 0.000000000000000
-3.300927877426147 9.521759986877441 1.236213326454163 0.000000000000000
-5.890690326690674 21.226629257202148 -0.628225088119507 0.003921568859369
-5.901935100555420 21.268280029296875 1.808821678161621 0.003921568859369
-5.850904941558838 21.360654830932617 4.039973258972168 0.003921568859369
-3.649296998977661 11.860424995422363 0.007432798855007 0.000000000000000
-2.709754943847656 8.628312110900879 2.414261817932129 0.000000000000000
-1.579154372215271 5.973117828369141 1.123007297515869 0.000000000000000
-2.906210899353027 8.222194671630859 0.257999747991562 0.000000000000000
-5.911707878112793 21.326286315917969 1.296787858009338 0.003921568859369
-2.769528627395630 12.093103408813477 2.261767625808716 0.000000000000000
-1.725988149642944 7.304988861083984 0.614926457405090 0.000000000000000
-2.621506690979004 10.020289421081543 0.606929302215576 0.000000000000000
-3.088133335113525 9.950013160705566 -0.174399957060814 0.000000000000000
-3.461188316345215 17.433271408081055 0.731743335723877 0.003921568859369
-2.058045625686646 9.943092346191406 1.851033687591553 0.000000000000000
-3.298773527145386 16.908519744873047 3.143564462661743 0.003921568859369
-1.719119191169739 8.468239784240723 0.356438785791397 0.000000000000000
-2.613280534744263 13.437708854675293 2.497298717498779 0.000000000000000
-2.016232252120972 9.050444602966309 0.220723867416382 0.000000000000000
-1.532449126243591 8.868327140808105 0.738049924373627 0.000000000000000
-1.963638424873352 8.950856208801270 0.218174189329147 0.000000000000000
-2.566635370254517 12.436678886413574 0.744479954242706 0.000000000000000
-2.090350866317749 9.944676399230957 -0.465467721223831 0.000000000000000
-1.614594936370850 10.113348007202148 0.840017795562744 0.000000000000000
-2.769273519515991 10.819406509399414 0.330234140157700 0.000000000000000
-3.047200918197632 12.556879997253418 0.381921768188477 0.000000000000000
-0.761361241340637 3.235749721527100 0.195212468504906 0.000000000000000
-1.300495862960815 9.034022331237793 0.164695605635643 0.000000000000000
-2.548953294754028 13.644446372985840 1.707771182060242 0.000000000000000
-1.198635101318359 8.756782531738281 -0.045754179358482 0.000000000000000
-1.328775405883789 9.879827499389648 0.179474905133247 0.000000000000000
-1.167123436927795 8.485383987426758 1.563032269477844 0.000000000000000
-2.059908866882324 16.698207855224609 -0.089534610509872 0.000000000000000
-0.840191423892975 6.223730564117432 0.259624123573303 0.000000000000000
-1.300561666488647 10.589088439941406 0.875384926795959 0.000000000000000
-1.495841264724731 9.070572853088379 0.218884304165840 0.000000000000000
-2.502454757690430 11.894390106201172 0.359294295310974 0.000000000000000
-2.693998098373413 18.276327133178711 1.083098292350769 0.000000000000000
-0.611385703086853 3.282874584197998 0.080708406865597 0.000000000000000
-1.083674430847168 6.909229278564453 0.410685092210770 0.000000000000000
-0.844653367996216 5.413126468658447 0.131107240915298 0.000000000000000
-1.256139278411865 8.754806518554688 1.088437676429749 0.000000000000000
-1.667315483093262 21.191789627075195 3.882842302322388 0.003921568859369
-1.404137969017029 10.895714759826660 0.261095464229584 0.000000000000000
-0.881564378738403 12.465839385986328 1.025730848312378 0.000000000000000
-1.839089393615723 16.266935348510742 0.959979772567749 0.000000000000000
-0.465185582637787 3.020718812942505 0.180146887898445 0.000000000000000
-1.331617116928101 13.719071388244629 0.808396518230438 0.000000000000000
-0.860530495643616 10.227046012878418 1.264117598533630 0.000000000000000
-0.745703577995300 13.539981842041016 3.637908935546875 0.000000000000000
0.321225345134735 6.705376625061035 0.082360990345478 0.000000000000000
0.045693263411522 8.933248519897461 1.634142875671387 0.000000000000000
0.126514002680779 9.535102844238281 0.783744812011719 0.000000000000000
0.190746262669563 4.115801334381104 0.051446810364723 0.000000000000000
-0.197968661785126 4.104465961456299 0.507426977157593 0.000000000000000
0.181164517998695 8.432809829711914 1.543584346771240 0.000000000000000
-0.585506677627563 8.561338424682617 0.253957837820053 0.000000000000000
1.409883975982666 13.291073799133301 -0.461753815412521 0.000000000000000
0.946875095367432 16.078958511352539 2.945216894149780 0.003921568859369
0.091640800237656 5.133672237396240 0.003276174888015 0.000000000000000
0.898980379104614 10.846804618835449 0.194959491491318 0.000000000000000
4.044245243072510 26.665079116821289 0.322928696870804 0.003921568859369
0.091013744473457 4.200658321380615 0.519753158092499 0.000000000000000
0.704953193664551 7.263940811157227 1.337576031684875 0.000000000000000
0.164923325181007 4.214302062988281 0.101380579173565 0.000000000000000
1.514459609985352 13.325402259826660 2.454077482223511 0.000000000000000
1.206310510635376 7.436560153961182 0.091579407453537 0.000000000000000
0.233192652463913 4.258233547210693 0.527865767478943 0.000000000000000
0.606244802474976 8.082137107849121 0.192690968513489 0.000000000000000
0.147790819406509 5.783238410949707 -0.232689201831818 0.000000000000000
0.157474845647812 4.463975429534912 -0.283873319625854 0.000000000000000
3.084987401962280 26.612705230712891 -0.615530312061310 0.003921568859369
0.355817705392838 6.034038543701172 -0.243589624762535 0.000000000000000
2.833710908889771 16.332138061523438 3.032394886016846 0.003921568859369
1.248201012611389 7.485540390014648 1.391678452491760 0.000000000000000
3.080273151397705 17.010728836059570 3.162399053573608 0.003921568859369
0.330707579851151 2.409391403198242 -0.012058909982443 0.000000000000000
2.120956182479858 15.462434768676758 4.192915439605713 0.003921568859369
0.400420516729355 3.545459985733032 -0.248358890414238 0.000000000000000
1.096246361732483 7.552877902984619 0.943251132965088 0.000000000000000
0.779553413391113 8.076389312744141 -0.327641278505325 0.000000000000000
1.383478164672852 6.424501419067383 0.271879523992538 0.000000000000000
0.343778848648071 2.542469024658203 0.002088937209919 0.000000000000000
1.361116409301758 6.232995510101318 0.114748403429985 0.000000000000000
1.602132797241211 7.125133991241455 1.340400695800781 0.000000000000000
1.355049014091492 5.942711830139160 -0.318356662988663 0.000000000000000
1.505093097686768 10.220897674560547 -0.418222725391388 0.000000000000000
