# This PCD file was generated using the MATLAB® pcwrite function
# from Computer Vision Toolbox®.
# .PCD v.7 - Point Cloud Data file format
VERSION .7
FIELDS x y z intensity
SIZE 8 8 8 8
TYPE F F F F
COUNT 1 1 1 1
WIDTH 637
HEIGHT 1
VIEWPOINT 0 0 0 1 0 0 0
POINTS 637
DATA ascii
17.233108520507812 -15.810093879699707 0.674444377422333 0.003921568859369
15.137305259704590 -15.293896675109863 2.625453710556030 0.003921568859369
16.520803451538086 -18.557891845703125 -0.722586929798126 0.003921568859369
12.633791923522949 -15.624580383300781 0.230336621403694 0.003921568859369
17.034549713134766 -15.735942840576172 0.668755233287811 0.003921568859369
15.532226562500000 -15.807358741760254 1.281376242637634 0.003921568859369
18.721567153930664 -21.196144104003906 -0.822701096534729 0.003921568859369
18.549980163574219 -21.000120162963867 -0.165023297071457 0.003921568859369
12.778189659118652 -15.913465499877930 0.234003528952599 0.003921568859369
12.398657798767090 -13.974044799804688 0.321835786104202 0.003921568859369
17.765548706054688 -18.225080490112305 1.472843766212463 0.003921568859369
13.891070365905762 -15.678602218627930 1.698701381683350 0.003921568859369
15.168393135070801 -15.535639762878418 5.784652233123779 0.003921568859369
10.549526214599609 -13.198210716247559 -0.197873130440712 0.003921568859369
18.058254241943359 -18.665000915527344 0.598630070686340 0.003921568859369
19.113885879516602 -19.766326904296875 3.358607053756714 0.003921568859369
11.435221672058105 -12.966830253601074 3.129328727722168 0.003921568859369
12.862454414367676 -14.702980995178223 -0.567853331565857 0.000000000000000
10.673006057739258 -13.441920280456543 -0.201003953814507 0.003921568859369
12.554957389831543 -14.346713066101074 0.328286260366440 0.003921568859369
15.913046836853027 -15.100858688354492 0.632100403308868 0.003921568859369
14.920873641967773 -15.602526664733887 1.247742056846619 0.003921568859369
11.085873603820801 -14.076394081115723 -0.624490380287170 0.003921568859369
13.306302070617676 -15.433675765991211 -0.592443525791168 0.003921568859369
10.622835159301758 -13.571953773498535 -0.201840326189995 0.003921568859369
10.991384506225586 -14.050456047058105 0.204031065106392 0.003921568859369
13.218683242797852 -15.445066452026367 -0.591041564941406 0.003921568859369
10.368993759155273 -13.343243598937988 -0.197909533977509 0.003921568859369
10.325706481933594 -13.286667823791504 -0.976327359676361 0.003921568859369
14.941040039062500 -15.843902587890625 2.656960487365723 0.003921568859369
14.706790924072266 -17.206325531005859 1.836120247840881 0.003921568859369
10.443556785583496 -13.440824508666992 -0.593170642852783 0.003921568859369
16.159715652465820 -19.060808181762695 -0.147434890270233 0.003921568859369
15.079495429992676 -16.104846954345703 1.275399923324585 0.003921568859369
12.334982872009277 -14.501356124877930 0.768629848957062 0.003921568859369
11.228630065917969 -14.679199218750000 -0.216421350836754 0.003921568859369
12.760638236999512 -15.223458290100098 -0.577510774135590 0.000000000000000
12.667253494262695 -15.110480308532715 0.339718610048294 0.003921568859369
11.182054519653320 -13.314617156982422 1.408095598220825 0.003921568859369
15.734290122985840 -15.460002899169922 -0.896533071994781 0.003921568859369
12.796230316162109 -15.375464439392090 -0.581587612628937 0.000000000000000
11.867395401000977 -15.754784584045410 -0.230957597494125 0.003921568859369
12.616968154907227 -15.157103538513184 0.339791178703308 0.003921568859369
10.593273162841797 -14.038721084594727 -0.613010466098785 0.003921568859369
12.738531112670898 -15.409041404724121 0.344527274370193 0.003921568859369
12.751586914062500 -15.541030883789062 -0.118783660233021 0.003921568859369
10.583321571350098 -14.231781005859375 0.202891677618027 0.003921568859369
11.057071685791016 -13.447793960571289 1.410055041313171 0.000000000000000
16.712310791015625 -16.884950637817383 0.685087859630585 0.003921568859369
10.929811477661133 -13.376306533813477 1.398998618125916 0.000000000000000
10.253197669982910 -13.871893882751465 -0.601259946823120 0.003921568859369
12.990222930908203 -16.056507110595703 -0.600631475448608 0.003921568859369
11.893175125122070 -14.681773185729980 0.762630999088287 0.003921568859369
10.116882324218750 -13.787280082702637 -0.596096813678741 0.003921568859369
15.642839431762695 -19.379905700683594 4.517815589904785 0.003921568859369
18.779916763305664 -21.107692718505859 -0.657963633537292 0.003921568859369
15.831042289733887 -16.215534210205078 0.128030464053154 0.003921568859369
12.336546897888184 -15.346937179565430 0.339081406593323 0.003921568859369
11.288341522216797 -14.024035453796387 0.726372241973877 0.003921568859369
11.548427581787109 -15.889362335205078 -0.685011506080627 0.003921568859369
11.288202285766602 -14.114832878112793 -0.525430023670197 0.000000000000000
14.984831809997559 -15.435747146606445 0.619638502597809 0.003921568859369
11.419651985168457 -14.499234199523926 -0.536615252494812 0.000000000000000
17.913646697998047 -20.700384140014648 0.631161272525787 0.003921568859369
10.744728088378906 -13.628729820251465 1.405361413955688 0.003921568859369
10.637238502502441 -13.587949752807617 -0.501638412475586 0.000000000000000
19.189561843872070 -20.252750396728516 0.158190518617630 0.003921568859369
12.311385154724121 -15.762413024902344 0.344523042440414 0.003921568859369
13.622890472412109 -17.465793609619141 1.796630263328552 0.003921568859369
10.256405830383301 -14.605648040771484 -0.209152728319168 0.003921568859369
9.736165046691895 -13.851822853088379 0.193443208932877 0.003921568859369
15.872495651245117 -16.825059890747070 0.666683197021484 0.003921568859369
12.225356101989746 -15.752808570861816 0.343482226133347 0.003921568859369
12.620890617370605 -16.269807815551758 1.669463753700256 0.003921568859369
11.493721008300781 -13.386468887329102 4.694427490234375 0.003921568859369
10.467091560363770 -13.551952362060547 -0.497785687446594 0.003921568859369
12.867752075195312 -15.118775367736816 -0.002741967560723 0.003921568859369
12.143690109252930 -15.759739875793457 0.342720150947571 0.003921568859369
12.918163299560547 -15.178894042968750 -0.925923883914948 0.000000000000000
11.474252700805664 -13.458443641662598 4.705816268920898 0.003921568859369
10.436603546142578 -13.615125656127930 -0.498715251684189 0.000000000000000
11.622026443481445 -16.840845108032227 -0.239733114838600 0.003921568859369
10.457653999328613 -13.643026351928711 -0.101839698851109 0.000000000000000
16.633319854736328 -19.750965118408203 0.595161557197571 0.003921568859369
9.989784240722656 -14.439238548278809 0.200727954506874 0.003921568859369
12.348729133605957 -14.608817100524902 1.104734182357788 0.003921568859369
10.624957084655762 -13.864960670471191 0.704765915870667 0.003921568859369
12.576131820678711 -16.453962326049805 1.679228544235229 0.003921568859369
12.126807212829590 -15.857576370239258 3.617682933807373 0.003921568859369
12.118737220764160 -15.957038879394531 -0.582763850688934 0.003921568859369
11.968835830688477 -17.475490570068359 -0.248147889971733 0.003921568859369
12.190367698669434 -17.803728103637695 0.247323006391525 0.003921568859369
10.918982505798340 -14.353899002075195 0.727860093116760 0.003921568859369
12.323223114013672 -16.230072021484375 1.652236580848694 0.003921568859369
11.166341781616211 -14.684184074401855 3.341539621353149 0.003921568859369
12.944580078125000 -15.427782058715820 -0.468758761882782 0.003921568859369
12.893254280090332 -15.475358009338379 0.463351935148239 0.003921568859369
10.080461502075195 -14.788179397583008 0.204674899578094 0.003921568859369
10.658966064453125 -14.108914375305176 0.304243832826614 0.003921568859369
10.961773872375488 -14.516427040100098 0.734205245971680 0.003921568859369
12.778937339782715 -15.336317062377930 -0.464651286602020 0.000000000000000
12.849955558776855 -15.538459777832031 -0.002746066078544 0.003921568859369
12.412398338317871 -18.415599822998047 0.254656255245209 0.003921568859369
10.267782211303711 -13.686928749084473 0.294294744729996 0.003921568859369
10.327393531799316 -13.767742156982422 0.694367587566376 0.003921568859369
12.864451408386230 -15.660307884216309 -0.002920145401731 0.003921568859369
12.770043373107910 -19.089269638061523 -0.269168496131897 0.003921568859369
11.821846961975098 -15.902608871459961 -0.117382667958736 0.000000000000000
12.707463264465332 -15.466498374938965 -0.466027706861496 0.000000000000000
11.559399604797363 -15.658484458923340 -0.566126525402069 0.000000000000000
10.460098266601562 -14.145431518554688 0.709667444229126 0.003921568859369
12.387352943420410 -15.282687187194824 0.452242702245712 0.000000000000000
10.066662788391113 -13.699300765991211 0.292202979326248 0.003921568859369
13.745635032653809 -16.983360290527344 1.262794971466064 0.003921568859369
10.321929931640625 -14.053037643432617 0.703329324722290 0.003921568859369
12.838617324829102 -15.847846031188965 -0.947688639163971 0.003921568859369
11.511360168457031 -14.185906410217285 -0.425251930952072 0.000000000000000
12.645099639892578 -15.723299026489258 -0.002903758548200 0.003921568859369
12.647170066833496 -14.237734794616699 0.107101298868656 0.000000000000000
11.716025352478027 -16.109268188476562 0.343000918626785 0.003921568859369
12.807749748229980 -15.928576469421387 -0.949734747409821 0.003921568859369
11.062266349792480 -15.196068763732910 1.522974729537964 0.000000000000000
10.470700263977051 -15.963748931884766 -0.665966093540192 0.003921568859369
10.627141952514648 -13.177093505859375 4.502812385559082 0.003921568859369
12.269084930419922 -15.248963356018066 -0.455661386251450 0.000000000000000
10.367342948913574 -14.320404052734375 0.713254570960999 0.003921568859369
12.010397911071777 -16.630413055419922 1.663152694702148 0.003921568859369
11.553090095520020 -14.438625335693359 -0.430469661951065 0.000000000000000
12.086332321166992 -15.230271339416504 -0.903323292732239 0.000000000000000
12.244732856750488 -14.067763328552246 0.104857049882412 0.003921568859369
11.111150741577148 -14.083652496337891 -0.417588710784912 0.000000000000000
10.903338432312012 -13.910783767700195 0.405945211648941 0.003921568859369
12.278721809387207 -14.202408790588379 0.540091872215271 0.003921568859369
13.115946769714355 -15.185475349426270 -0.815613627433777 0.003921568859369
9.813625335693359 -13.950424194335938 -0.891111791133881 0.003921568859369
11.550214767456055 -14.856900215148926 2.294188022613525 0.003921568859369
13.010527610778809 -15.281868934631348 -0.351206630468369 0.003921568859369
13.212900161743164 -15.522905349731445 0.114850215613842 0.003921568859369
10.449879646301270 -14.989006042480469 0.737500309944153 0.003921568859369
10.318510055541992 -13.348094940185547 4.488340377807617 0.003921568859369
11.076732635498047 -14.347013473510742 -0.421963125467300 0.000000000000000
10.171322822570801 -16.357385635375977 0.220418393611908 0.003921568859369
14.945414543151855 -17.711877822875977 0.667948186397552 0.003921568859369
10.175011634826660 -14.697578430175781 0.307538747787476 0.003921568859369
12.948424339294434 -15.316179275512695 -0.815276563167572 0.003921568859369
9.920347213745117 -14.425674438476562 0.301140069961548 0.003921568859369
11.887409210205078 -15.634243965148926 1.134588837623596 0.003921568859369
9.945096015930176 -14.462294578552246 0.708238124847412 0.003921568859369
9.864210128784180 -14.442356109619141 -0.508760452270508 0.000000000000000
12.158943176269531 -16.106044769287109 -0.003037922549993 0.003921568859369
12.664524078369141 -15.177323341369629 0.111125320196152 0.003921568859369
13.038624763488770 -19.180208206176758 -0.137343913316727 0.003921568859369
11.172912597656250 -14.779392242431641 0.425572723150253 0.000000000000000
10.007320404052734 -14.655535697937012 3.213609457015991 0.003921568859369
9.789382934570312 -14.439423561096191 -0.507474124431610 0.000000000000000
14.864197731018066 -17.980655670166016 0.672186255455017 0.003921568859369
11.250288963317871 -14.992337226867676 2.284787654876709 0.003921568859369
10.828006744384766 -16.001123428344727 1.565783977508545 0.000000000000000
10.192838668823242 -13.559484481811523 -0.394956260919571 0.003921568859369
11.123464584350586 -16.577144622802734 -0.580927431583405 0.000000000000000
12.762066841125488 -15.521070480346680 0.113018229603767 0.000000000000000
10.925312042236328 -16.276714324951172 -0.116267777979374 0.000000000000000
9.642320632934570 -15.978911399841309 0.213329806923866 0.003921568859369
14.755410194396973 -17.981513977050781 0.670217335224152 0.003921568859369
12.006821632385254 -16.141117095947266 2.453373193740845 0.003921568859369
9.586236000061035 -15.884236335754395 -0.647339522838593 0.003921568859369
10.307579040527344 -13.922390937805176 -0.002847926225513 0.003921568859369
11.208304405212402 -18.774776458740234 0.250453054904938 0.003921568859369
12.392014503479004 -15.172230720520020 0.563639760017395 0.003921568859369
9.577275276184082 -15.996240615844727 -0.650551259517670 0.003921568859369
9.802398681640625 -14.798359870910645 -0.927699029445648 0.003921568859369
12.895103454589844 -15.911208152770996 -0.832712113857269 0.003921568859369
10.243538856506348 -17.269107818603516 -0.700742483139038 0.003921568859369
10.148524284362793 -13.804676055908203 -0.398957401514053 0.000000000000000
9.762382507324219 -14.844237327575684 -0.516903102397919 0.000000000000000
10.006969451904297 -15.223390579223633 -0.108130291104317 0.003921568859369
9.623367309570312 -16.328227996826172 0.216725423932076 0.003921568859369
12.817711830139160 -15.922169685363770 0.588377535343170 0.003921568859369
14.355278968811035 -21.964309692382812 4.762159824371338 0.003921568859369
11.179418563842773 -17.165826797485352 -0.121440336108208 0.003921568859369
10.061453819274902 -13.876964569091797 0.393484562635422 0.000000000000000
12.250172615051270 -15.310695648193359 0.564231514930725 0.003921568859369
10.299812316894531 -14.211901664733887 1.012953400611877 0.003921568859369
11.846019744873047 -16.512805938720703 1.174181699752808 0.003921568859369
10.805444717407227 -13.579113960266113 -0.705167233943939 0.003921568859369
14.483822822570801 -25.348295211791992 0.335429102182388 0.003921568859369
9.361369132995605 -14.554468154907227 3.134026050567627 0.003921568859369
12.257632255554199 -15.654658317565918 0.572254836559296 0.003921568859369
11.954895973205566 -15.262135505676270 -0.788170099258423 0.003921568859369
9.275779724121094 -16.373414993286133 0.215217724442482 0.003921568859369
11.400920867919922 -14.648963928222656 0.533943176269531 0.003921568859369
9.210627555847168 -14.533893585205078 1.393776297569275 0.000000000000000
9.081586837768555 -16.156251907348633 -0.217484891414642 0.003921568859369
12.155305862426758 -15.748089790344238 0.572611212730408 0.003921568859369
10.515369415283203 -15.064698219299316 1.060829043388367 0.000000000000000
10.515310287475586 -16.765874862670898 0.799351334571838 0.003921568859369
11.319018363952637 -16.237197875976562 -0.920003712177277 0.000000000000000
10.341539382934570 -13.361457824707031 -0.686562061309814 0.003921568859369
13.055809020996094 -18.769884109497070 6.094623088836670 0.003921568859369
10.842318534851074 -14.114665985107422 -0.311681509017944 0.003921568859369
12.062173843383789 -17.442489624023438 2.587237119674683 0.003921568859369
10.721943855285645 -13.955153465270996 -0.715254247188568 0.003921568859369
9.528963088989258 -15.273869514465332 3.260844469070435 0.003921568859369
11.210153579711914 -14.708739280700684 -0.323871523141861 0.003921568859369
10.003530502319336 -16.177440643310547 -0.112970486283302 0.000000000000000
12.473660469055176 -18.183633804321289 0.507312357425690 0.003921568859369
9.001156806945801 -16.267189025878906 0.212441340088844 0.003921568859369
9.913072586059570 -16.028207778930664 0.324199318885803 0.003921568859369
8.828164100646973 -14.238949775695801 1.356567025184631 0.000000000000000
10.685146331787109 -14.007813453674316 -0.716065883636475 0.003921568859369
11.157423019409180 -18.223503112792969 -0.126754954457283 0.003921568859369
10.582942008972168 -17.268384933471680 1.642110466957092 0.003921568859369
10.124209403991699 -18.651338577270508 -0.249058738350868 0.003921568859369
10.374700546264648 -13.792882919311523 0.096634209156036 0.000000000000000
13.646916389465332 -25.267488479614258 0.329774171113968 0.003921568859369
9.862965583801270 -18.314500808715820 -0.244140207767487 0.003921568859369
10.365521430969238 -17.177583694458008 -0.119087122380733 0.000000000000000
10.425034523010254 -17.416467666625977 -0.120467968285084 0.003921568859369
10.447987556457520 -17.455293655395508 1.649605274200439 0.003921568859369
10.244035720825195 -13.816801071166992 -0.699088215827942 0.003921568859369
10.108480453491211 -17.013189315795898 0.799227237701416 0.003921568859369
11.175334930419922 -16.889535903930664 -0.941567361354828 0.003921568859369
12.207890510559082 -16.638408660888672 -0.839345872402191 0.003921568859369
11.521795272827148 -15.804138183593750 -0.342556595802307 0.003921568859369
9.336514472961426 -15.815375328063965 -0.534600853919983 0.000000000000000
10.039031028747559 -17.030397415161133 0.798419237136841 0.003921568859369
10.079858779907227 -17.232858657836914 -0.581236302852631 0.000000000000000
9.462907791137695 -16.157375335693359 -0.111223585903645 0.003921568859369
11.816805839538574 -18.144327163696289 5.770529270172119 0.003921568859369
14.041314125061035 -21.617847442626953 -0.600862503051758 0.003921568859369
9.985275268554688 -13.853540420532227 0.490753978490829 0.003921568859369
11.050134658813477 -17.211702346801758 -0.951053440570831 0.003921568859369
10.666141510009766 -18.553373336791992 1.736139774322510 0.003921568859369
14.447813034057617 -25.460779190063477 -0.852774024009705 0.003921568859369
7.732742309570312 -15.159351348876953 -0.199891850352287 0.003921568859369
9.823755264282227 -19.363792419433594 0.248730242252350 0.003921568859369
9.941903114318848 -17.412124633789062 0.809982895851135 0.003921568859369
10.510897636413574 -16.484045028686523 -0.908928334712982 0.003921568859369
9.742435455322266 -17.055719375610352 1.592721104621887 0.000000000000000
10.119319915771484 -14.258725166320801 -0.710807502269745 0.003921568859369
10.043592453002930 -15.736659049987793 4.971496582031250 0.003921568859369
9.103796005249023 -15.914733886718750 3.322576284408569 0.003921568859369
9.746956825256348 -17.186946868896484 0.340029895305634 0.003921568859369
10.221013069152832 -14.498679161071777 -0.721231937408447 0.003921568859369
11.478104591369629 -20.302679061889648 4.231163501739502 0.003921568859369
9.430438041687012 -16.761653900146484 -0.114332854747772 0.003921568859369
9.967207908630371 -15.850813865661621 0.430099397897720 0.003921568859369
11.215659141540527 -17.876482009887695 2.574958324432373 0.003921568859369
12.001605987548828 -21.429679870605469 4.457098484039307 0.003921568859369
10.024460792541504 -16.069047927856445 0.435114949941635 0.000000000000000
10.429383277893066 -15.028779983520508 0.525913953781128 0.003921568859369
10.533408164978027 -16.901350021362305 1.150484323501587 0.000000000000000
10.989576339721680 -17.647233963012695 2.536473512649536 0.003921568859369
13.377886772155762 -24.128042221069336 2.240730762481689 0.003921568859369
7.401165962219238 -14.869426727294922 -0.579843819141388 0.003921568859369
10.012124061584473 -18.116142272949219 -0.602810025215149 0.003921568859369
9.804938316345215 -15.834003448486328 -0.003137129126117 0.003921568859369
9.946551322937012 -14.427512168884277 0.098069757223129 0.003921568859369
8.730721473693848 -14.062921524047852 2.016617059707642 0.003921568859369
11.849254608154297 -17.244016647338867 -0.851212620735168 0.003921568859369
12.303812980651855 -19.952354431152344 6.249617099761963 0.003921568859369
8.539875030517578 -15.397451400756836 3.189759969711304 0.003921568859369
8.920321464538574 -16.228652954101562 -0.110135801136494 0.000000000000000
10.043178558349609 -14.786528587341309 0.100100025534630 0.003921568859369
10.488871574401855 -19.308923721313477 -0.130427435040474 0.003921568859369
9.497068405151367 -19.711545944213867 0.250556737184525 0.003921568859369
10.391586303710938 -17.061716079711914 1.154216408729553 0.003921568859369
11.773176193237305 -21.718681335449219 2.005622625350952 0.003921568859369
8.127663612365723 -14.877373695373535 3.070708274841309 0.003921568859369
7.191999912261963 -14.966783523559570 -0.964951038360596 0.003921568859369
9.676766395568848 -15.998212814331055 -0.435821741819382 0.000000000000000
11.597680091857910 -21.745065689086914 -0.146106600761414 0.003921568859369
9.455169677734375 -19.973970413208008 0.253117442131042 0.003921568859369
8.715616226196289 -14.478905677795410 2.059509754180908 0.003921568859369
9.435107231140137 -20.132968902587891 0.254699915647507 0.003921568859369
8.701951026916504 -14.583524703979492 2.069746255874634 0.003921568859369
8.224538803100586 -15.453352928161621 3.171853065490723 0.003921568859369
9.381325721740723 -20.201498031616211 0.255169659852982 0.003921568859369
7.060528755187988 -15.095535278320312 -0.581908166408539 0.003921568859369
8.188561439514160 -15.516258239746094 3.179030418395996 0.003921568859369
9.468674659729004 -16.027347564697266 -0.433940827846527 0.003921568859369
10.357804298400879 -15.858258247375488 -0.331925272941589 0.003921568859369
7.197094917297363 -15.539701461791992 -0.201287239789963 0.003921568859369
7.435265064239502 -16.068529129028320 0.202253609895706 0.003921568859369
10.266343116760254 -17.547657012939453 -0.473964154720306 0.003921568859369
7.177595138549805 -15.627347946166992 -0.202124968171120 0.003921568859369
9.463910102844238 -18.290952682495117 -0.122312627732754 0.003921568859369
9.956544876098633 -21.850641250610352 0.275340974330902 0.003921568859369
7.738087177276611 -15.008292198181152 -0.491779416799545 0.003921568859369
9.489187240600586 -20.997314453125000 -0.270627647638321 0.003921568859369
12.502183914184570 -24.499252319335938 4.994208335876465 0.003921568859369
7.368327140808105 -16.354667663574219 -0.210907056927681 0.003921568859369
9.621287345886230 -21.498563766479492 0.269868433475494 0.003921568859369
6.894505023956299 -15.272910118103027 -0.585238218307495 0.003921568859369
12.563842773437500 -24.837966918945312 5.054463386535645 0.003921568859369
10.407556533813477 -18.215589523315430 -0.489221960306168 0.003921568859369
7.274919986724854 -16.303750991821289 -0.209918543696404 0.003921568859369
7.294057369232178 -16.347793579101562 0.204408138990402 0.003921568859369
8.739989280700684 -15.369208335876465 4.707337379455566 0.003921568859369
12.509264945983887 -24.957218170166016 5.069534301757812 0.003921568859369
7.242620944976807 -16.369976043701172 -0.210475116968155 0.003921568859369
7.223707675933838 -16.325887680053711 0.203857123851776 0.003921568859369
8.309308052062988 -14.702268600463867 4.495162487030029 0.003921568859369
12.437712669372559 -25.009889602661133 5.072410583496094 0.003921568859369
12.554209709167480 -25.485494613647461 -0.827941656112671 0.003921568859369
9.517800331115723 -21.883054733276367 0.273504376411438 0.003921568859369
11.645834922790527 -23.609697341918945 4.779788017272949 0.003921568859369
10.137626647949219 -18.177553176879883 -0.485377937555313 0.003921568859369
12.466905593872070 -25.532047271728516 -0.828049719333649 0.003921568859369
8.988676071166992 -16.208927154541016 -0.003210490336642 0.003921568859369
9.377672195434570 -21.764310836791992 0.271612018346786 0.003921568859369
9.497668266296387 -19.348764419555664 1.748945713043213 0.003921568859369
9.303906440734863 -21.790916442871094 0.271572679281235 0.003921568859369
10.315739631652832 -18.806085586547852 2.618257999420166 0.003921568859369
10.856076240539551 -22.367061614990234 2.018879890441895 0.003921568859369
10.223847389221191 -18.635700225830078 -0.495723992586136 0.003921568859369
7.288980484008789 -15.017895698547363 -0.486263662576675 0.003921568859369
9.928309440612793 -16.276473999023438 0.106884054839611 0.000000000000000
6.549215316772461 -15.351477622985840 0.190441325306892 0.003921568859369
10.327031135559082 -18.993679046630859 2.639214992523193 0.003921568859369
9.275618553161621 -19.229269027709961 1.732372522354126 0.003921568859369
8.701007843017578 -18.175691604614258 -0.587120831012726 0.003921568859369
7.095389842987061 -16.839458465576172 0.208797156810760 0.003921568859369
9.659732818603516 -15.953229904174805 -0.758803188800812 0.003921568859369
6.540544509887695 -15.483584403991699 -0.587159454822540 0.003921568859369
11.371731758117676 -23.888330459594727 4.804205894470215 0.003921568859369
6.616084098815918 -15.825415611267090 0.195827320218086 0.003921568859369
7.756493091583252 -16.303184509277344 -0.944712042808533 0.003921568859369
9.718780517578125 -18.156562805175781 2.513524532318115 0.003921568859369
11.882040023803711 -25.209049224853516 5.061703205108643 0.003921568859369
9.701873779296875 -20.692214965820312 -0.135690763592720 0.003921568859369
10.077813148498535 -16.926809310913086 0.566953718662262 0.003921568859369
9.665888786315918 -18.210191726684570 1.191788792610168 0.003921568859369
6.192734718322754 -14.930071830749512 -0.564637899398804 0.003921568859369
11.793973922729492 -25.249654769897461 5.061711311340332 0.003921568859369
7.326979637145996 -15.646972656250000 -0.102945320308208 0.000000000000000
13.440655708312988 -25.673128128051758 0.668274044990540 0.003921568859369
11.812893867492676 -22.514533996582031 6.783652782440186 0.003921568859369
7.114823341369629 -15.316650390625000 -0.492086589336395 0.000000000000000
11.452947616577148 -22.003683090209961 0.571231603622437 0.003921568859369
9.689393997192383 -18.552116394042969 -0.973932623863220 0.003921568859369
9.661849021911621 -18.497503280639648 2.547006607055664 0.003921568859369
8.996753692626953 -19.490976333618164 3.894623517990112 0.003921568859369
7.243540763854980 -15.748656272888184 -0.103399209678173 0.003921568859369
9.581074714660645 -18.498502731323242 2.542628049850464 0.003921568859369
9.279900550842285 -16.046689987182617 0.533042728900909 0.003921568859369
12.503123283386230 -24.468351364135742 3.358228683471680 0.003921568859369
9.808060646057129 -21.684217453002930 1.932271957397461 0.003921568859369
9.325741767883301 -20.593885421752930 4.102634429931641 0.003921568859369
7.475364685058594 -16.577726364135742 -0.108392313122749 0.003921568859369
9.849795341491699 -19.363643646240234 0.499808758497238 0.003921568859369
6.034473896026611 -15.279932975769043 -0.955329596996307 0.003921568859369
8.536442756652832 -18.998826980590820 1.689997434616089 0.003921568859369
8.842707633972168 -19.697242736816406 3.917596340179443 0.003921568859369
7.069034099578857 -15.800329208374023 -0.504424989223480 0.000000000000000
8.814525604248047 -19.821367263793945 1.760575413703918 0.003921568859369
10.118181228637695 -17.826890945434570 -0.834430396556854 0.003921568859369
5.539575576782227 -14.280144691467285 -0.890605270862579 0.000000000000000
7.042055130004883 -15.889902114868164 -0.909594535827637 0.003921568859369
11.476156234741211 -23.032135009765625 3.144366979598999 0.003921568859369
9.735690116882324 -22.155082702636719 1.965142250061035 0.003921568859369
9.219723701477051 -16.473106384277344 0.105736374855042 0.000000000000000
5.366285324096680 -13.956861495971680 -0.869417309761047 0.000000000000000
1.804046392440796 -3.739243745803833 0.163271874189377 0.000000000000000
11.508865356445312 -23.294418334960938 3.175069570541382 0.003921568859369
5.261731147766113 -13.829342842102051 -0.174302622675896 0.003921568859369
10.322125434875488 -18.651054382324219 0.119754076004028 0.003921568859369
10.317976951599121 -21.035440444946289 0.539458751678467 0.003921568859369
5.313726425170898 -13.971912384033203 -0.869179248809814 0.000000000000000
7.265525341033936 -16.730295181274414 0.736556529998779 0.003921568859369
6.875085353851318 -15.804697990417480 -0.902037918567657 0.003921568859369
11.098441123962402 -22.659315109252930 3.082993745803833 0.003921568859369
9.684564590454102 -22.467163085937500 1.986947774887085 0.003921568859369
8.960224151611328 -16.274225234985352 -0.325876116752625 0.003921568859369
6.754947185516357 -15.672161102294922 -0.101809240877628 0.000000000000000
7.060758113861084 -16.404476165771484 0.307156354188919 0.003921568859369
12.128771781921387 -25.027143478393555 3.399695158004761 0.003921568859369
7.462231636047363 -15.226748466491699 4.515811443328857 0.003921568859369
8.923403739929199 -16.342180252075195 0.104283846914768 0.000000000000000
7.430715084075928 -17.461818695068359 -0.113030344247818 0.003921568859369
7.236496448516846 -14.887485504150391 -0.769971191883087 0.003921568859369
7.380487442016602 -15.192536354064941 -0.394073814153671 0.003921568859369
10.443688392639160 -19.348211288452148 0.123633034527302 0.003921568859369
6.733010768890381 -15.923624038696289 -0.103113412857056 0.000000000000000
7.120220661163330 -16.868932723999023 0.315029501914978 0.003921568859369
6.945128917694092 -16.441743850708008 -0.934296727180481 0.003921568859369
10.329683303833008 -24.704021453857422 4.863687038421631 0.003921568859369
7.787603855133057 -16.194198608398438 -0.419262081384659 0.003921568859369
9.766785621643066 -18.221902847290039 0.116104125976562 0.003921568859369
11.368537902832031 -24.066354751586914 1.541100382804871 0.003921568859369
7.059712409973145 -16.888933181762695 0.739344477653503 0.003921568859369
7.775288105010986 -16.316106796264648 -0.840971350669861 0.003921568859369
10.748246192932129 -22.728023529052734 3.072306871414185 0.003921568859369
9.728956222534180 -23.471248626708984 2.064057588577271 0.003921568859369
5.170817852020264 -14.184469223022461 -0.527644693851471 0.000000000000000
7.435009956359863 -15.582015037536621 -0.402834147214890 0.000000000000000
6.359769821166992 -15.301795005798340 -0.483055293560028 0.003921568859369
9.950545310974121 -21.188747406005859 0.538873255252838 0.003921568859369
7.251021862030029 -17.521722793579102 0.326244711875916 0.003921568859369
5.459730625152588 -15.163773536682129 -0.937479913234711 0.003921568859369
8.783298492431641 -18.647592544555664 1.191577076911926 0.003921568859369
6.144082069396973 -14.764603614807129 -0.836958408355713 0.000000000000000
11.296237945556641 -24.117567062377930 3.254854202270508 0.003921568859369
9.305303573608398 -22.638580322265625 1.987807750701904 0.003921568859369
4.982150554656982 -13.782316207885742 -0.512239515781403 0.003921568859369
10.000144004821777 -24.368698120117188 4.783928394317627 0.003921568859369
7.338278293609619 -15.638696670532227 -0.003299351781607 0.003921568859369
10.057548522949219 -21.610322952270508 0.548808932304382 0.003921568859369
8.912700653076172 -19.095655441284180 2.572765350341797 0.003921568859369
9.881477355957031 -24.305931091308594 4.765288829803467 0.003921568859369
7.305577278137207 -15.719388961791992 -0.003297119634226 0.003921568859369
5.739987373352051 -16.342565536499023 0.197706162929535 0.003921568859369
11.360882759094238 -21.802541732788086 0.708707809448242 0.003921568859369
7.147557735443115 -17.618785858154297 0.327162414789200 0.003921568859369
9.715478897094727 -18.583646774291992 -0.853930592536926 0.003921568859369
6.430160045623779 -15.958311080932617 0.295725643634796 0.003921568859369
4.633875846862793 -13.221838951110840 -0.814787328243256 0.000000000000000
8.339784622192383 -18.182182312011719 -0.931111931800842 0.000000000000000
9.200806617736816 -23.074298858642578 2.017753124237061 0.003921568859369
9.639708518981934 -18.595300674438477 -0.852944970130920 0.003921568859369
4.975619316101074 -14.244745254516602 -0.527464091777802 0.003921568859369
8.836629867553711 -19.292732238769531 5.658378124237061 0.003921568859369
7.592790126800537 -18.943595886230469 3.703083276748657 0.003921568859369
9.666700363159180 -21.351837158203125 0.539647758007050 0.003921568859369
8.843551635742188 -22.387525558471680 1.954995512962341 0.003921568859369
8.778615951538086 -19.343896865844727 5.664595603942871 0.003921568859369
7.703489303588867 -19.428220748901367 3.792744874954224 0.003921568859369
10.726377487182617 -23.959981918334961 3.208613634109497 0.003921568859369
7.761060237884521 -19.772808074951172 3.855151653289795 0.003921568859369
7.123741626739502 -15.746984481811523 -0.403402328491211 0.000000000000000
8.304766654968262 -18.623508453369141 5.436903953552246 0.003921568859369
9.923889160156250 -25.724302291870117 5.009197711944580 0.003921568859369
6.695267200469971 -17.352424621582031 -0.973985373973846 0.003921568859369
8.875027656555176 -17.694728851318359 -0.806105375289917 0.003921568859369
4.767771244049072 -14.283134460449219 -0.526463270187378 0.003921568859369
8.229022026062012 -18.626779556274414 5.429666042327881 0.003921568859369
4.566696166992188 -13.809960365295410 0.165625110268593 0.000000000000000
5.765347480773926 -15.013303756713867 -0.841943085193634 0.003921568859369
9.067743301391602 -20.766990661621094 2.768192291259766 0.003921568859369
9.669427871704102 -19.481678009033203 -0.885857582092285 0.003921568859369
7.104146480560303 -16.317886352539062 -0.003285386599600 0.003921568859369
10.196297645568848 -23.643497467041016 3.147259950637817 0.003921568859369
9.903989791870117 -20.324981689453125 0.127167478203773 0.003921568859369
9.242810249328613 -21.595136642456055 0.540995419025421 0.003921568859369
4.335297584533691 -13.401434898376465 -0.819406986236572 0.003921568859369
8.450884819030762 -19.700159072875977 1.239966869354248 0.003921568859369
5.579251289367676 -14.826843261718750 0.639284133911133 0.000000000000000
9.358894348144531 -21.872262954711914 2.907067060470581 0.003921568859369
9.177475929260254 -24.775112152099609 4.799800872802734 0.003921568859369
5.419213771820068 -14.542961120605469 0.266552388668060 0.003921568859369
5.557079315185547 -14.928259849548340 0.642867028713226 0.000000000000000
8.448969841003418 -19.890064239501953 2.639588356018066 0.003921568859369
9.027936935424805 -18.654447555541992 -0.844081580638885 0.003921568859369
9.215536117553711 -25.154529571533203 4.867232322692871 0.003921568859369
7.381642341613770 -17.469884872436523 -0.003478798549622 0.003921568859369
7.478601932525635 -15.501411437988281 0.096027053892612 0.000000000000000
7.134119987487793 -16.865718841552734 0.420698046684265 0.000000000000000
10.060948371887207 -24.007526397705078 3.181718111038208 0.003921568859369
4.456180572509766 -14.126035690307617 -0.518023788928986 0.003921568859369
6.696234226226807 -18.296623229980469 3.535177707672119 0.003921568859369
9.125793457031250 -21.944147109985352 0.547269105911255 0.003921568859369
9.159780502319336 -22.027681350708008 1.380612373352051 0.003921568859369
7.204934597015381 -15.053559303283691 -0.679473102092743 0.003921568859369
7.132659435272217 -19.749149322509766 3.811321496963501 0.003921568859369
4.361984252929688 -14.170600891113281 -0.174905061721802 0.003921568859369
7.607390880584717 -16.067783355712891 0.099300436675549 0.003921568859369
4.948900222778320 -13.661497116088867 -0.760713517665863 0.000000000000000
7.207420349121094 -15.197677612304688 -0.684849739074707 0.003921568859369
4.857561588287354 -13.542542457580566 -0.419660776853561 0.000000000000000
8.687955856323242 -18.581386566162109 -0.835557758808136 0.003921568859369
7.141064643859863 -17.578277587890625 0.436129033565521 0.003921568859369
4.326243877410889 -14.421889305114746 -0.876285076141357 0.003921568859369
5.224797248840332 -14.792010307312012 0.633017599582672 0.000000000000000
8.981792449951172 -22.254711151123047 2.932787179946899 0.003921568859369
6.195779800415039 -17.663253784179688 1.518830537796021 0.000000000000000
7.551554203033447 -18.619859695434570 5.358171939849854 0.003921568859369
6.111124038696289 -17.412261962890625 3.348007440567017 0.003921568859369
4.206876754760742 -14.190061569213867 -0.174606889486313 0.003921568859369
9.770557403564453 -21.361251831054688 0.677095472812653 0.003921568859369
5.231416225433350 -14.983742713928223 0.640502870082855 0.000000000000000
8.921351432800293 -22.329540252685547 2.938642740249634 0.003921568859369
6.091478824615479 -17.555866241455078 3.371683597564697 0.003921568859369
7.131948471069336 -15.603952407836914 -0.301286578178406 0.003921568859369
4.858839988708496 -16.736354827880859 0.199031144380569 0.003921568859369
6.418761253356934 -18.753105163574219 1.608932256698608 0.000000000000000
8.856953620910645 -19.500024795532227 -0.872560143470764 0.003921568859369
4.394175052642822 -15.059144973754883 -0.548747181892395 0.003921568859369
7.458912372589111 -18.767902374267578 5.386132240295410 0.003921568859369
7.462641716003418 -16.498409271240234 -0.317960917949677 0.003921568859369
5.828692436218262 -20.501720428466797 0.244092956185341 0.003921568859369
4.810898303985596 -14.043023109436035 0.254787772893906 0.003921568859369
5.845473289489746 -17.209558486938477 0.734332799911499 0.003921568859369
7.102655410766602 -18.022548675537109 2.365197181701660 0.003921568859369
6.484062671661377 -19.163873672485352 1.642437577247620 0.003921568859369
7.286681175231934 -16.243585586547852 -0.312628269195557 0.003921568859369
4.387166976928711 -15.430624008178711 0.183005556464195 0.003921568859369
9.692550659179688 -21.775802612304688 0.687219917774200 0.003921568859369
7.405313014984131 -19.003416061401367 5.439968585968018 0.003921568859369
5.456251144409180 -13.847805976867676 -0.347645372152328 0.003921568859369
9.607930183410645 -21.799348831176758 0.686880886554718 0.003921568859369
7.054240226745605 -18.276809692382812 5.224689483642578 0.003921568859369
4.017389774322510 -14.461171150207520 -0.177056998014450 0.000000000000000
4.565721988677979 -13.771251678466797 0.585248708724976 0.000000000000000
5.738435268402100 -17.489738464355469 1.493830680847168 0.000000000000000
9.389179229736328 -21.707393646240234 0.133136108517647 0.003921568859369
9.363878250122070 -21.824628829956055 0.133539870381355 0.003921568859369
7.160667896270752 -16.724452972412109 0.523316383361816 0.003921568859369
6.386978149414062 -17.186897277832031 1.059765696525574 0.003921568859369
8.182279586791992 -22.196922302246094 2.891304016113281 0.003921568859369
6.632815361022949 -15.451240539550781 -0.684914827346802 0.003921568859369
3.824472427368164 -14.515989303588867 -0.177192687988281 0.003921568859369
6.558284282684326 -15.423188209533691 0.093431740999222 0.000000000000000
5.715897560119629 -18.274324417114258 1.554224371910095 0.003921568859369
6.508041381835938 -15.469615936279297 0.093576751649380 0.000000000000000
5.861593723297119 -13.877318382263184 -0.963214755058289 0.000000000000000
3.760032176971436 -14.494441032409668 -0.871909320354462 0.003921568859369
5.851058959960938 -16.061626434326172 -0.796090602874756 0.003921568859369
3.720240116119385 -14.529071807861328 -0.177039697766304 0.003921568859369
6.698283672332764 -18.669139862060547 1.147133708000183 0.003921568859369
4.424768447875977 -14.337805747985840 -0.786108911037445 0.003921568859369
5.365341663360596 -17.550760269165039 1.489519715309143 0.000000000000000
6.265696525573730 -15.331459045410156 -0.291040092706680 0.003921568859369
4.402307510375977 -14.658691406250000 -0.446739524602890 0.003921568859369
3.849915027618408 -15.570417404174805 -0.561367392539978 0.003921568859369
7.922418594360352 -22.976036071777344 2.971267223358154 0.003921568859369
5.711023807525635 -19.485706329345703 3.687250614166260 0.003921568859369
4.469141483306885 -15.287802696228027 -0.464914470911026 0.003921568859369
3.946015834808350 -16.491640090942383 -0.593507587909698 0.003921568859369
3.398694753646851 -14.295500755310059 0.167443677783012 0.003921568859369
7.920650959014893 -23.528625488281250 3.035602331161499 0.003921568859369
6.073529720306396 -15.303979873657227 -0.670835375785828 0.003921568859369
3.891886711120605 -16.520128250122070 -0.594059586524963 0.003921568859369
3.436312913894653 -14.708492279052734 -0.879778802394867 0.000000000000000
4.444080352783203 -15.619535446166992 0.655938923358917 0.003921568859369
5.408192634582520 -16.033594131469727 -0.788215041160583 0.003921568859369
7.944654941558838 -23.884014129638672 3.078002214431763 0.003921568859369
6.686944484710693 -17.088912963867188 -0.747809708118439 0.003921568859369
5.370548725128174 -13.743106842041016 -0.259404569864273 0.003921568859369
4.537284374237061 -16.177980422973633 0.678873419761658 0.003921568859369
5.610164642333984 -16.848493576049805 2.168339729309082 0.003921568859369
3.388339519500732 -14.961931228637695 0.174864172935486 0.003921568859369
5.478665351867676 -14.312595367431641 -0.624452412128448 0.000000000000000
3.343317747116089 -15.249011039733887 -0.184333547949791 0.000000000000000
5.110681533813477 -15.825682640075684 4.433787345886230 0.003921568859369
4.563059329986572 -17.216400146484375 -0.520011365413666 0.000000000000000
5.608659744262695 -17.673503875732422 1.072287797927856 0.003921568859369
5.560754299163818 -17.514316558837891 4.901632308959961 0.003921568859369
5.083393573760986 -19.283874511718750 3.621921777725220 0.003921568859369
5.153155803680420 -13.879752159118652 -0.260406702756882 0.003921568859369
4.510625839233398 -17.262454986572266 -0.520936250686646 0.003921568859369
5.253068447113037 -14.161957740783691 -0.966332614421844 0.000000000000000
5.521808147430420 -17.606809616088867 4.922340869903564 0.003921568859369
4.965503692626953 -13.492156028747559 -0.252902567386627 0.003921568859369
3.197102308273315 -15.351419448852539 -0.185154050588608 0.003921568859369
4.537678241729736 -17.621633529663086 -0.108797408640385 0.003921568859369
3.717975139617920 -14.264417648315430 0.595053911209106 0.003921568859369
3.088478326797485 -15.070862770080566 0.175461441278458 0.003921568859369
2.941057682037354 -14.293050765991211 -0.850276768207550 0.000000000000000
5.748071670532227 -18.825809478759766 2.405063867568970 0.003921568859369
5.554073810577393 -15.342197418212891 -0.665030777454376 0.003921568859369
4.385972023010254 -17.543346405029297 1.468373894691467 0.003921568859369
3.097247123718262 -15.426781654357910 -0.551044285297394 0.003921568859369
4.849215507507324 -13.623435974121094 -0.589342355728149 0.003921568859369
2.984700918197632 -15.114173889160156 -0.539574682712555 0.003921568859369
4.405931949615479 -17.905353546142578 3.348687887191772 0.003921568859369
2.728071212768555 -13.966813087463379 -0.829310119152069 0.000000000000000
3.562983512878418 -14.505318641662598 1.211769819259644 0.003921568859369
3.010927677154541 -15.887596130371094 -0.942414999008179 0.003921568859369
5.362861156463623 -18.476396560668945 -0.896713137626648 0.003921568859369
4.585390090942383 -13.301491737365723 -0.900217533111572 0.000000000000000
2.798494815826416 -14.980105400085449 -0.888179659843445 0.000000000000000
4.998135089874268 -17.396850585937500 1.047028899192810 0.003921568859369
3.750216007232666 -15.840875625610352 0.657865464687347 0.003921568859369
4.025500297546387 -17.079826354980469 3.186609029769897 0.003921568859369
2.608680248260498 -14.118175506591797 -0.836842656135559 0.003921568859369
5.206748485565186 -18.376281738281250 1.104992270469666 0.000000000000000
3.503678321838379 -14.938431739807129 -0.804644942283630 0.003921568859369
4.424214363098145 -19.150928497314453 1.596767425537109 0.003921568859369
3.444553375244141 -19.101011276245117 -0.679720103740692 0.003921568859369
2.688945055007935 -14.915048599243164 -0.179126217961311 0.003921568859369
2.658994913101196 -14.733190536499023 -0.872678160667419 0.000000000000000
3.232712030410767 -13.930184364318848 0.577272057533264 0.000000000000000
3.408731937408447 -14.750554084777832 -0.793950378894806 0.003921568859369
4.338080883026123 -19.075763702392578 1.589295864105225 0.000000000000000
4.574131011962891 -16.258777618408203 4.505166530609131 0.003921568859369
2.631842613220215 -14.891919136047363 0.172443255782127 0.000000000000000
2.825961589813232 -16.101781845092773 -0.952966690063477 0.003921568859369
3.635719776153564 -16.079570770263672 0.666230499744415 0.003921568859369
2.481153249740601 -14.256213188171387 -0.843571841716766 0.000000000000000
4.114711761474609 -18.653881072998047 0.772753477096558 0.003921568859369
4.212195873260498 -19.122728347778320 1.590940117835999 0.000000000000000
4.551600456237793 -16.628244400024414 4.599370956420898 0.003921568859369
2.413118124008179 -14.161263465881348 -0.503421247005463 0.000000000000000
3.565123558044434 -16.306051254272461 3.030885457992554 0.003921568859369
5.018487453460693 -18.714145660400391 -0.453027725219727 0.000000000000000
3.171319484710693 -14.636816024780273 0.604944884777069 0.003921568859369
4.712355136871338 -17.772247314453125 2.246678352355957 0.003921568859369
2.370782136917114 -14.216202735900879 -0.505091667175293 0.003921568859369
3.633361101150513 -16.942640304565430 3.147091627120972 0.003921568859369
4.540661334991455 -14.312983512878418 -0.961238384246826 0.003921568859369
2.254111766815186 -13.765607833862305 -0.813295364379883 0.000000000000000
2.595983028411865 -16.102396011352539 -0.571478068828583 0.003921568859369
4.032193183898926 -15.527466773986816 -0.003366446588188 0.003921568859369
2.266977071762085 -14.198850631713867 -0.170061782002449 0.003921568859369
4.499751567840576 -14.358524322509766 -0.963280200958252 0.003921568859369
2.988203763961792 -19.252740859985352 -0.682450354099274 0.003921568859369
2.575309514999390 -16.757123947143555 -0.988527536392212 0.003921568859369
3.935078382492065 -15.586992263793945 4.288901805877686 0.003921568859369
3.860376834869385 -15.525169372558594 4.268208026885986 0.003921568859369
3.354781627655029 -17.096052169799805 3.165064811706543 0.003921568859369
2.038388729095459 -13.971559524536133 0.160955667495728 0.000000000000000
1.983857870101929 -13.548830986022949 -0.798600435256958 0.000000000000000
4.419081687927246 -14.833580017089844 -0.631274342536926 0.003921568859369
4.452137947082520 -18.341255187988281 -0.441399216651917 0.003921568859369
2.844535112380981 -14.835878372192383 1.226294159889221 0.000000000000000
5.196160316467285 -17.809268951416016 -0.756796479225159 0.003921568859369
3.766972064971924 -20.101495742797852 3.717272520065308 0.003921568859369
2.053810119628906 -14.865202903747559 -0.177505344152451 0.003921568859369
4.181174278259277 -14.351484298706055 -0.957208752632141 0.000000000000000
2.025760412216187 -14.634920120239258 -0.517995893955231 0.000000000000000
3.300242424011230 -17.802062988281250 3.289784193038940 0.003921568859369
4.162397861480713 -17.616802215576172 -0.423498600721359 0.003921568859369
3.351085901260376 -14.200354576110840 0.334900170564651 0.003921568859369
2.112704277038574 -15.810920715332031 -0.930402040481567 0.000000000000000
2.744197368621826 -14.873313903808594 1.227935552597046 0.000000000000000
3.627201795578003 -20.129459381103516 3.718010187149048 0.003921568859369
2.962995767593384 -16.530857086181641 -0.490903317928314 0.003921568859369
1.828039407730103 -13.812494277954102 -0.164966091513634 0.003921568859369
2.577951908111572 -14.187216758728027 0.247735679149628 0.000000000000000
4.045913696289062 -14.247467994689941 -0.948487699031830 0.000000000000000
2.007533550262451 -15.380934715270996 -0.904794394969940 0.000000000000000
2.711014747619629 -14.996026039123535 1.237375736236572 0.003921568859369
3.573511362075806 -20.242095947265625 3.736669778823853 0.003921568859369
2.008881330490112 -15.883098602294922 -0.933876693248749 0.003921568859369
1.800411343574524 -14.463478088378906 0.166233927011490 0.003921568859369
2.599135160446167 -15.317484855651855 -0.454280942678452 0.000000000000000
3.056519985198975 -18.295700073242188 -0.973503291606903 0.003921568859369
