# This PCD file was generated using the MATLAB® pcwrite function
# from Computer Vision Toolbox®.
# .PCD v.7 - Point Cloud Data file format
VERSION .7
FIELDS x y z intensity
SIZE 8 8 8 8
TYPE F F F F
COUNT 1 1 1 1
WIDTH 637
HEIGHT 1
VIEWPOINT 0 0 0 1 0 0 0
POINTS 637
DATA ascii
5.106270313262939 -15.259927749633789 -0.091263093054295 0.000000000000000
4.579091072082520 -16.321472167968750 0.198749110102654 0.003921568859369
7.266057491302490 -18.799650192260742 2.467420101165771 0.003921568859369
7.647455692291260 -23.217382431030273 4.447882175445557 0.003921568859369
6.410514831542969 -16.513118743896484 -0.408108413219452 0.000000000000000
6.720599651336670 -20.563322067260742 -0.624367117881775 0.003921568859369
7.581736087799072 -19.855150222778320 0.002998902229592 0.003921568859369
7.005885124206543 -15.870395660400391 0.102291464805603 0.000000000000000
7.465938091278076 -19.542127609252930 0.487817287445068 0.003921568859369
6.133732318878174 -22.476089477539062 0.274189531803131 0.003921568859369
4.267738342285156 -15.367874145507812 -0.923472046852112 0.000000000000000
7.594169616699219 -23.331882476806641 2.001203536987305 0.003921568859369
5.720815181732178 -14.825660705566406 4.238086700439453 0.003921568859369
8.114485740661621 -24.980600357055664 4.780516147613525 0.003921568859369
6.254288673400879 -16.268306732177734 -0.401563286781311 0.003921568859369
4.912028789520264 -15.012611389160156 -0.455870807170868 0.000000000000000
7.083371162414551 -21.980312347412109 -0.130284398794174 0.003921568859369
7.401802062988281 -19.578519821166992 0.488105356693268 0.003921568859369
7.389724731445312 -16.933328628540039 0.537300884723663 0.003921568859369
5.870698451995850 -15.396111488342285 2.015161275863647 0.003921568859369
6.155766010284424 -19.003225326538086 1.627793669700623 0.000000000000000
7.720761775970459 -20.449960708618164 -0.503616273403168 0.003921568859369
4.216162681579590 -15.614302635192871 -0.185677498579025 0.003921568859369
7.824989318847656 -20.960748672485352 0.522043943405151 0.003921568859369
6.941606998443604 -16.028745651245117 0.507750272750854 0.003921568859369
6.128098487854004 -19.149518966674805 1.638570189476013 0.003921568859369
6.886430263519287 -15.897190093994141 -0.700111746788025 0.003921568859369
6.290258884429932 -19.675842285156250 3.756782531738281 0.003921568859369
6.265843868255615 -16.655855178833008 -0.410027176141739 0.000000000000000
4.767564773559570 -14.914841651916504 -0.451939344406128 0.003921568859369
4.168454170227051 -15.655264854431152 -0.185993313789368 0.003921568859369
4.456067562103271 -16.799495697021484 0.203897297382355 0.003921568859369
4.179587364196777 -15.699742317199707 -0.940831005573273 0.003921568859369
6.123824596405029 -19.375953674316406 1.656201720237732 0.003921568859369
4.145861625671387 -15.565466880798340 -0.558568120002747 0.003921568859369
4.608910083770752 -17.668268203735352 0.214359059929848 0.003921568859369
5.922453403472900 -18.951198577880859 0.808935821056366 0.003921568859369
8.673689842224121 -23.821729660034180 3.107274770736694 0.003921568859369
7.282019615173340 -17.341527938842773 0.547177076339722 0.003921568859369
5.667996406555176 -18.324403762817383 -0.999098837375641 0.003921568859369
5.844436645507812 -18.918722152709961 1.613777160644531 0.000000000000000
5.079679012298584 -16.552152633666992 -0.098077058792114 0.000000000000000
5.600629329681396 -18.331762313842773 -0.998469054698944 0.003921568859369
6.924946308135986 -19.302309036254883 2.511417865753174 0.003921568859369
5.703307151794434 -18.681848526000977 1.591911911964417 0.000000000000000
7.110903263092041 -19.839492797851562 -0.485625207424164 0.003921568859369
5.011210441589355 -16.542903900146484 -0.097916804254055 0.000000000000000
3.892396211624146 -15.467261314392090 0.186939314007759 0.000000000000000
5.097149372100830 -16.840286254882812 0.716407477855682 0.003921568859369
8.098257064819336 -22.958585739135742 2.983725786209106 0.003921568859369
7.675299644470215 -18.691862106323242 -0.816973686218262 0.003921568859369
6.023433208465576 -20.046960830688477 3.807815551757812 0.003921568859369
4.588136672973633 -15.267792701721191 -0.460229575634003 0.000000000000000
7.540599822998047 -21.563989639282227 1.329460978507996 0.003921568859369
4.501842975616455 -14.965311050415039 -0.813835024833679 0.000000000000000
7.226015567779541 -24.516250610351562 2.085466861724854 0.003921568859369
7.125774383544922 -24.164173126220703 4.585873126983643 0.003921568859369
7.258408546447754 -20.731616973876953 -0.506152451038361 0.003921568859369
7.361266136169434 -21.279031753540039 0.525565385818481 0.003921568859369
5.640708446502686 -19.212091445922852 0.816002070903778 0.003921568859369
6.090222358703613 -17.484668731689453 -0.856562077999115 0.000000000000000
3.876259803771973 -15.881039619445801 -0.567005336284637 0.003921568859369
7.250326156616211 -24.930496215820312 4.726690769195557 0.003921568859369
6.931419849395752 -20.212276458740234 0.003162088803947 0.003921568859369
4.578976631164551 -15.627699851989746 -0.092284813523293 0.003921568859369
5.580579757690430 -19.234704971313477 0.816241323947906 0.003921568859369
6.396733283996582 -18.597476959228516 -0.909820735454559 0.000000000000000
3.947288036346436 -16.427896499633789 -0.585937798023224 0.003921568859369
7.223707675933838 -21.095266342163086 -0.513704359531403 0.003921568859369
4.584629058837891 -15.862648963928223 -0.093549728393555 0.003921568859369
7.798360347747803 -23.100482940673828 1.419471979141235 0.003921568859369
4.361363410949707 -15.047721862792969 -0.815861463546753 0.000000000000000
7.667068958282471 -22.698841094970703 2.936464071273804 0.003921568859369
6.573495864868164 -23.123180389404297 1.961211204528809 0.003921568859369
5.849040031433105 -20.477823257446289 3.874726295471191 0.003921568859369
7.130835533142090 -18.219160079956055 0.115867912769318 0.000000000000000
3.538963794708252 -15.109198570251465 -0.898839592933655 0.003921568859369
6.518729209899902 -23.241367340087891 1.969377756118774 0.003921568859369
6.975228786468506 -24.930419921875000 4.713161945343018 0.003921568859369
7.403672218322754 -19.142185211181641 0.121684163808823 0.003921568859369
7.062045574188232 -21.353637695312500 0.525107324123383 0.003921568859369
6.391236305236816 -19.253839492797852 1.180114746093750 0.003921568859369
5.166337013244629 -15.419113159179688 4.339738845825195 0.003921568859369
6.880055427551270 -24.923358917236328 4.707420349121094 0.003921568859369
7.599310398101807 -19.876024246215820 0.126266226172447 0.003921568859369
4.382702827453613 -15.771875381469727 -0.092759594321251 0.003921568859369
4.738793849945068 -17.127262115478516 0.723864674568176 0.003921568859369
7.412214279174805 -22.722373962402344 2.929645061492920 0.003921568859369
5.118292331695557 -15.454639434814453 4.344924449920654 0.003921568859369
4.436918258666992 -16.208312988281250 -0.095181718468666 0.003921568859369
4.340113162994385 -15.834671974182129 -0.855225980281830 0.003921568859369
6.487840175628662 -20.037366867065430 2.580409765243530 0.003921568859369
7.048321723937988 -18.587190628051758 -0.803746700286865 0.003921568859369
4.595800399780273 -16.821043014526367 3.170661687850952 0.003921568859369
4.934379100799561 -15.056066513061523 -0.365160793066025 0.000000000000000
4.715653896331787 -17.536724090576172 -0.102722004055977 0.000000000000000
6.859238147735596 -21.492696762084961 0.526817500591278 0.003921568859369
5.428433418273926 -16.847358703613281 -0.818883240222931 0.000000000000000
4.396443367004395 -16.286256790161133 -0.878766059875488 0.003921568859369
3.458779811859131 -16.054592132568359 -0.188542187213898 0.003921568859369
3.438637256622314 -15.954322814941406 -0.945599615573883 0.003921568859369
5.805028438568115 -18.274036407470703 -0.887197196483612 0.000000000000000
4.907549858093262 -15.325833320617676 4.295198440551758 0.003921568859369
6.856359958648682 -26.266830444335938 4.943813800811768 0.003921568859369
4.837911605834961 -15.098346710205078 -0.365429282188416 0.000000000000000
4.178528785705566 -15.870931625366211 -0.473874956369400 0.000000000000000
4.886631488800049 -15.451560974121094 0.001939757727087 0.003921568859369
4.583827018737793 -17.503911972045898 -0.102358639240265 0.000000000000000
6.116537094116211 -23.679162979125977 1.995851397514343 0.003921568859369
5.997909545898438 -19.145364761352539 5.360442161560059 0.003921568859369
4.511541366577148 -17.211816787719727 3.236052274703979 0.003921568859369
4.796695232391357 -15.152603149414062 -0.366345942020416 0.000000000000000
6.643249034881592 -21.578895568847656 0.527304589748383 0.003921568859369
4.588344573974609 -17.800849914550781 0.322408795356750 0.003921568859369
3.228241920471191 -15.478857040405273 -0.916187047958374 0.000000000000000
6.646642684936523 -21.590131759643555 1.315131068229675 0.003921568859369
5.088709831237793 -16.340629577636719 -0.791839361190796 0.003921568859369
6.921028137207031 -19.048904418945312 -0.819585919380188 0.003921568859369
6.010129451751709 -19.444128036499023 5.438164234161377 0.003921568859369
6.747592926025391 -26.638422012329102 5.004894256591797 0.003921568859369
2.974497795104980 -14.421229362487793 -0.169217959046364 0.003921568859369
6.593027114868164 -21.672922134399414 0.529096603393555 0.003921568859369
3.028153896331787 -14.704077720642090 0.175989404320717 0.000000000000000
4.479669570922852 -17.609098434448242 0.318659633398056 0.003921568859369
3.079428195953369 -14.974719047546387 -0.885851562023163 0.000000000000000
5.858333110809326 -19.166494369506836 1.166138291358948 0.003921568859369
4.347687721252441 -17.060859680175781 0.717333972454071 0.003921568859369
5.641455650329590 -18.427175521850586 -0.891811311244965 0.000000000000000
7.080573558807373 -19.712850570678711 -0.847096562385559 0.003921568859369
5.734758377075195 -18.743917465209961 5.237140655517578 0.003921568859369
4.394184589385986 -17.522609710693359 0.316822290420532 0.003921568859369
2.908825397491455 -14.348539352416992 -0.848338127136230 0.000000000000000
5.703654289245605 -18.881742477416992 5.270305156707764 0.003921568859369
4.902979850769043 -19.667747497558594 3.688691139221191 0.003921568859369
7.222668170928955 -20.567630767822266 0.129565507173538 0.003921568859369
2.795843839645386 -13.980638504028320 -0.826065421104431 0.003921568859369
4.590079307556152 -15.211771011352539 4.241381168365479 0.003921568859369
4.770674705505371 -15.845376014709473 -0.381378084421158 0.000000000000000
6.465959072113037 -22.073137283325195 0.537381649017334 0.003921568859369
3.151177883148193 -16.249750137329102 -0.959190011024475 0.003921568859369
5.599593639373779 -18.997497558593750 5.292144298553467 0.003921568859369
6.395216941833496 -26.767787933349609 5.012935161590576 0.003921568859369
6.862451553344727 -19.962787628173828 0.125408187508583 0.003921568859369
5.745971202850342 -19.781906127929688 2.524357557296753 0.003921568859369
5.700793266296387 -24.131456375122070 2.024056673049927 0.003921568859369
5.523926734924316 -18.982568740844727 5.282823085784912 0.003921568859369
6.279178142547607 -26.689302444458008 4.994259834289551 0.003921568859369
3.740802288055420 -15.716547966003418 -0.466532975435257 0.003921568859369
5.653614044189453 -19.717067718505859 -0.949291944503784 0.003921568859369
5.102286338806152 -15.002334594726562 -0.273388773202896 0.000000000000000
2.623436450958252 -14.151894569396973 -0.165426179766655 0.003921568859369
7.151282310485840 -21.331609725952148 0.656089901924133 0.003921568859369
4.472755432128906 -15.625223159790039 -0.374643117189407 0.000000000000000
3.525902748107910 -15.251944541931152 -0.452109605073929 0.003921568859369
4.954094409942627 -14.719818115234375 -0.627863824367523 0.000000000000000
5.276030063629150 -18.853893280029297 5.232060432434082 0.003921568859369
3.831778049468994 -16.961669921875000 0.708736717700958 0.003921568859369
5.669194221496582 -20.616987228393555 2.621096849441528 0.003921568859369
6.022720813751221 -18.280353546142578 -0.778360903263092 0.003921568859369
5.242614746093750 -18.994636535644531 5.266261577606201 0.003921568859369
4.953254699707031 -15.079096794128418 -0.273857384920120 0.000000000000000
3.542163133621216 -15.865598678588867 -0.469519346952438 0.003921568859369
2.510523796081543 -14.401236534118652 -0.168015003204346 0.003921568859369
7.046665191650391 -21.784418106079102 0.667844772338867 0.003921568859369
6.015179157257080 -22.247974395751953 1.342363834381104 0.003921568859369
5.616126537322998 -20.708806991577148 2.630383014678955 0.003921568859369
4.995880603790283 -18.316373825073242 5.073522567749023 0.003921568859369
4.658216953277588 -17.015703201293945 -0.406660705804825 0.003921568859369
5.988121032714844 -22.449985504150391 0.543063461780548 0.003921568859369
4.861761569976807 -18.046321868896484 1.087542891502380 0.000000000000000
5.436231613159180 -16.822179794311523 -0.714914441108704 0.003921568859369
4.002300739288330 -18.385057449340820 3.424397706985474 0.003921568859369
4.661752223968506 -17.519172668457031 0.002530405763537 0.003921568859369
4.490483760833740 -16.839618682861328 0.406479448080063 0.000000000000000
2.454649209976196 -14.697056770324707 0.174822613596916 0.003921568859369
6.902881145477295 -21.845508575439453 0.668326199054718 0.003921568859369
5.864577293395996 -22.290605545043945 1.342607498168945 0.003921568859369
3.889255285263062 -18.155185699462891 1.514449000358582 0.000000000000000
4.857869625091553 -15.135071754455566 -0.642735302448273 0.000000000000000
3.749168634414673 -17.456705093383789 3.249090194702148 0.003921568859369
4.823078632354736 -15.211028099060059 -0.275358617305756 0.000000000000000
3.298409700393677 -15.491815567016602 -0.825537979602814 0.000000000000000
5.836089611053467 -22.508420944213867 2.851682424545288 0.003921568859369
4.739014148712158 -18.090604782104492 4.997887611389160 0.003921568859369
3.377792119979858 -15.893666267395020 2.955950260162354 0.003921568859369
4.570703983306885 -17.677795410156250 0.002571968827397 0.003921568859369
6.735760211944580 -21.842975616455078 0.136106908321381 0.003921568859369
5.102694511413574 -16.346908569335938 -0.692568778991699 0.003921568859369
5.225646972656250 -16.957103729248047 0.516761243343353 0.003921568859369
3.489856243133545 -17.059970855712891 0.709962010383606 0.003921568859369
4.438457012176514 -17.375047683715820 2.197176694869995 0.003921568859369
3.592572212219238 -17.600912094116211 1.465222477912903 0.003921568859369
4.817531108856201 -15.566062927246094 -0.658855736255646 0.003921568859369
4.710607528686523 -15.400278091430664 -0.277843564748764 0.003921568859369
5.553303718566895 -22.344472885131836 0.538286864757538 0.003921568859369
6.604207992553711 -21.940177917480469 0.668553709983826 0.003921568859369
2.158220291137695 -14.014331817626953 -0.822060525417328 0.000000000000000
5.685688495635986 -22.901788711547852 2.894289016723633 0.003921568859369
3.813532352447510 -19.129232406616211 1.591584444046021 0.003921568859369
4.574837207794189 -18.219341278076172 5.020763397216797 0.003921568859369
4.671107292175293 -15.465738296508789 -0.278733462095261 0.003921568859369
3.898117065429688 -15.610950469970703 0.002080339239910 0.003921568859369
4.525632381439209 -14.956843376159668 -0.995065748691559 0.000000000000000
2.995166778564453 -15.026011466979980 -0.798606812953949 0.003921568859369
4.621995449066162 -15.293972015380859 -0.646065115928650 0.003921568859369
4.686975479125977 -18.986751556396484 5.228024959564209 0.003921568859369
3.404623031616211 -17.267433166503906 3.203183174133301 0.003921568859369
6.471495151519775 -22.057109832763672 0.670796036720276 0.003921568859369
5.385389804840088 -22.329452514648438 1.338289022445679 0.003921568859369
3.231945991516113 -16.651586532592773 -0.884211122989655 0.003921568859369
4.426171302795410 -18.156942367553711 2.290494680404663 0.003921568859369
3.710095405578613 -19.322380065917969 1.605631113052368 0.000000000000000
4.543632030487061 -15.220658302307129 -0.642339706420898 0.000000000000000
4.538422584533691 -18.644424438476562 5.129581451416016 0.003921568859369
3.383147716522217 -17.495239257812500 3.243422985076904 0.003921568859369
2.879889488220215 -14.985657691955566 0.621803760528564 0.003921568859369
3.709381580352783 -15.284129142761230 -0.727987468242645 0.000000000000000
5.456939697265625 -23.007776260375977 2.900655031204224 0.003921568859369
4.450836181640625 -15.093081474304199 -0.636349201202393 0.000000000000000
3.857788085937500 -15.940028190612793 -0.378137171268463 0.000000000000000
6.290892601013184 -22.003604888916016 0.667872726917267 0.003921568859369
1.994718432426453 -14.305174827575684 -0.837563693523407 0.000000000000000
2.030940532684326 -14.602340698242188 -0.511909544467926 0.003921568859369
4.366247177124023 -15.199189186096191 -0.639577269554138 0.003921568859369
4.258648395538330 -18.303342819213867 5.023892402648926 0.003921568859369
3.592489242553711 -15.261655807495117 -0.361569583415985 0.000000000000000
6.069378852844238 -21.806743621826172 0.660605669021606 0.003921568859369
1.792736411094666 -13.448437690734863 -0.786863625049591 0.000000000000000
4.184216499328613 -18.283912658691406 5.014569282531738 0.003921568859369
4.242738246917725 -15.161836624145508 -0.636819064617157 0.003921568859369
4.103561878204346 -18.202362060546875 4.988666057586670 0.003921568859369
2.776318550109863 -16.035593032836914 -0.848578333854675 0.003921568859369
3.056008815765381 -17.811378479003906 1.474717497825623 0.000000000000000
4.335212230682373 -15.964888572692871 0.097955368459225 0.000000000000000
4.525767326354980 -16.709768295288086 0.504361033439636 0.003921568859369
1.645479202270508 -13.380187034606934 -0.781998217105865 0.000000000000000
4.283222675323486 -15.982219696044922 0.097983300685883 0.000000000000000
1.599897027015686 -13.372816085815430 -0.781302511692047 0.000000000000000
2.492976665496826 -14.894824028015137 0.615592181682587 0.000000000000000
4.460038185119629 -16.908428192138672 0.103752739727497 0.000000000000000
4.115097999572754 -15.755414009094238 -0.280977696180344 0.003921568859369
2.206791162490845 -13.598466873168945 -0.398238778114319 0.003921568859369
1.709397673606873 -15.482139587402344 0.183141425251961 0.003921568859369
1.710103273391724 -15.489874839782715 -0.541213929653168 0.003921568859369
1.543590784072876 -14.249235153198242 -0.831487238407135 0.000000000000000
3.636090755462646 -17.781188964843750 4.852996349334717 0.003921568859369
4.474942684173584 -17.760990142822266 0.108822174370289 0.000000000000000
2.876224756240845 -14.050595283508301 -0.997766315937042 0.000000000000000
3.546095371246338 -17.643932342529297 2.206574678421021 0.003921568859369
2.622857332229614 -10.117897987365723 0.303050905466080 0.000000000000000
1.483862519264221 -15.385376930236816 -0.177618652582169 0.003921568859369
3.415660142898560 -17.627307891845703 -0.831525027751923 0.000000000000000
1.493679761886597 -15.508647918701172 -0.541208386421204 0.003921568859369
1.361469864845276 -14.488233566284180 -0.167341083288193 0.000000000000000
3.544432878494263 -18.721435546875000 2.337026596069336 0.003921568859369
2.565237522125244 -18.376810073852539 1.514969706535339 0.000000000000000
1.249291419982910 -14.336784362792969 -0.835183620452881 0.003921568859369
1.321820497512817 -15.385148048400879 -0.536495625972748 0.003921568859369
1.189557671546936 -14.192724227905273 -0.826618492603302 0.003921568859369
2.220144748687744 -17.073179244995117 1.405584096908569 0.003921568859369
2.706829786300659 -14.862190246582031 4.038469314575195 0.003921568859369
2.683830738067627 -15.049914360046387 4.087178707122803 0.003921568859369
1.309638261795044 -17.935174942016602 -0.206393882632256 0.003921568859369
2.643304824829102 -15.134618759155273 4.107907772064209 0.000000000000000
1.066144227981567 -14.552092552185059 -0.167789369821548 0.000000000000000
1.858562469482422 -15.285741806030273 0.270372986793518 0.003921568859369
1.043287038803101 -14.137901306152344 -0.822869122028351 0.000000000000000
1.058663606643677 -14.416578292846680 -0.502374887466431 0.000000000000000
2.581090688705444 -15.043543815612793 4.081012725830078 0.000000000000000
2.604856491088867 -15.540145874023438 4.213667392730713 0.003921568859369
2.014329433441162 -17.962533950805664 -0.522413253784180 0.003921568859369
2.022540330886841 -18.046379089355469 0.741624772548676 0.003921568859369
3.227769136428833 -15.296287536621094 -0.269884854555130 0.003921568859369
1.617113590240479 -14.408059120178223 -0.756603837013245 0.003921568859369
1.634303331375122 -15.158979415893555 -0.440930962562561 0.000000000000000
2.936914443969727 -14.058113098144531 -0.915404498577118 0.003921568859369
0.877136528491974 -14.845541000366211 -0.863367259502411 0.000000000000000
2.885392665863037 -14.331671714782715 -0.931956470012665 0.000000000000000
0.725085496902466 -14.962913513183594 -0.869845449924469 0.000000000000000
1.796087980270386 -19.185567855834961 1.574500203132629 0.000000000000000
2.670238494873047 -18.612670898437500 5.032397270202637 0.003921568859369
1.623282194137573 -18.662998199462891 1.530742764472961 0.000000000000000
1.596820354461670 -18.299205780029297 3.348529338836670 0.003921568859369
1.959318161010742 -14.291090965270996 -0.333081066608429 0.000000000000000
1.224244117736816 -14.591259002685547 0.597693383693695 0.003921568859369
1.387325286865234 -17.067316055297852 3.121461868286133 0.003921568859369
2.571528911590576 -14.265205383300781 -0.924271225929260 0.003921568859369
1.164332389831543 -14.355747222900391 -0.751977860927582 0.003921568859369
2.760896682739258 -15.438613891601562 -0.634979069232941 0.003921568859369
1.412928104400635 -19.320484161376953 1.583398342132568 0.000000000000000
1.239179134368896 -17.415893554687500 -0.098631262779236 0.000000000000000
0.373160302639008 -15.361011505126953 -0.892478764057159 0.000000000000000
0.366879820823669 -14.430151939392090 -0.502052724361420 0.000000000000000
1.274428009986877 -19.324190139770508 1.583074808120728 0.000000000000000
0.316244006156921 -15.161971092224121 -0.527387678623199 0.000000000000000
1.131253480911255 -16.570301055908203 3.028102397918701 0.003921568859369
1.070414543151855 -16.572904586791992 -0.480393230915070 0.003921568859369
1.728423237800598 -14.968231201171875 -0.347928315401077 0.000000000000000
0.922626376152039 -14.456212043762207 0.591504216194153 0.000000000000000
0.146400704979897 -16.658733367919922 -0.967683672904968 0.003921568859369
0.157933920621872 -15.097671508789062 -0.525171637535095 0.003921568859369
0.109067231416702 -14.985208511352539 0.176534399390221 0.000000000000000
2.354541778564453 -15.246584892272949 0.449996501207352 0.003921568859369
0.088805854320526 -16.877851486206055 -0.980410635471344 0.003921568859369
0.101790443062782 -15.664844512939453 -0.544830501079559 0.003921568859369
0.070416018366814 -14.022192955017090 -0.814956784248352 0.000000000000000
1.675531983375549 -16.789232254028320 2.071422576904297 0.003921568859369
-0.060593813657761 -18.478998184204102 -0.212106823921204 0.003921568859369
1.611763596534729 -16.766571044921875 2.068003654479980 0.003921568859369
-0.002879142761230 -15.247560501098633 -0.530432105064392 0.003921568859369
-0.122193515300751 -18.341770172119141 -0.210562825202942 0.003921568859369
-0.068794935941696 -15.840939521789551 -0.920476734638214 0.000000000000000
0.859122455120087 -21.419229507446289 1.753245711326599 0.003921568859369
2.085454940795898 -14.421360969543457 -0.590327322483063 0.003921568859369
-0.052091419696808 -15.058670043945312 -0.523925125598907 0.000000000000000
0.824323117733002 -20.154029846191406 3.679888725280762 0.003921568859369
1.646423697471619 -17.989751815795898 -0.416938483715057 0.003921568859369
-0.112092465162277 -15.465431213378906 -0.177913025021553 0.003921568859369
0.774094402790070 -20.843175888061523 1.705888509750366 0.003921568859369
1.408539056777954 -15.557925224304199 4.182659626007080 0.003921568859369
0.678810954093933 -16.906469345092773 3.086318016052246 0.003921568859369
-0.128151386976242 -14.240381240844727 0.167744010686874 0.000000000000000
1.972095251083374 -14.277437210083008 -0.919628560543060 0.000000000000000
0.580173671245575 -14.834264755249023 1.213405132293701 0.000000000000000
1.907155990600586 -14.152407646179199 -0.911222577095032 0.000000000000000
-0.259475231170654 -16.802404403686523 -0.976418673992157 0.003921568859369
-0.179277271032333 -14.283313751220703 -0.497167766094208 0.000000000000000
-0.216909795999527 -14.074884414672852 -0.818391680717468 0.000000000000000
0.483655661344528 -14.973346710205078 -0.782737135887146 0.000000000000000
0.462094217538834 -18.539493560791016 3.383894443511963 0.003921568859369
-0.368731081485748 -15.220506668090820 -0.175188824534416 0.000000000000000
-0.329699814319611 -14.298309326171875 -0.831580042839050 0.003921568859369
1.283534288406372 -18.161886215209961 2.236651420593262 0.003921568859369
1.866510152816772 -15.671757698059082 0.460752904415131 0.000000000000000
-0.373891890048981 -14.280382156372070 -0.830654680728912 0.000000000000000
1.372791051864624 -20.960014343261719 2.581151247024536 0.003921568859369
0.325693249702454 -14.633988380432129 1.196749925613403 0.003921568859369
1.277531147003174 -20.511672973632812 2.525446891784668 0.003921568859369
1.149638414382935 -17.892345428466797 4.803527355194092 0.003921568859369
1.724066972732544 -15.390810012817383 0.092056408524513 0.003921568859369
-0.509099602699280 -14.853347778320312 0.175240084528923 0.000000000000000
0.218949407339096 -14.491340637207031 -0.757546782493591 0.000000000000000
0.201539158821106 -18.965259552001953 3.461510419845581 0.003921568859369
1.500756025314331 -13.472011566162109 -0.865370750427246 0.000000000000000
-0.536569297313690 -14.508034706115723 -0.844306409358978 0.000000000000000
1.141438245773315 -20.688728332519531 2.546462297439575 0.003921568859369
0.118283897638321 -14.924270629882812 1.220596432685852 0.003921568859369
0.007013410329819 -18.908407211303711 3.451451063156128 0.003921568859369
-0.753666102886200 -15.438900947570801 -0.898911595344543 0.003921568859369
-0.006782680749893 -15.955185890197754 0.652565598487854 0.000000000000000
0.919378638267517 -20.641222000122070 2.539625644683838 0.003921568859369
-0.703464925289154 -14.685703277587891 -0.511980235576630 0.003921568859369
-0.058435827493668 -18.875879287719727 3.445702075958252 0.003921568859369
-0.036603748798370 -15.137475013732910 -0.438472658395767 0.000000000000000
-0.019776195287704 -14.336477279663086 -0.749597549438477 0.003921568859369
0.851097106933594 -20.436845779418945 2.514299392700195 0.003921568859369
0.646899461746216 -14.990639686584473 0.002136886818334 0.003921568859369
0.784202396869659 -20.621274948120117 2.536780357360840 0.003921568859369
-0.182044923305511 -18.916395187377930 3.453681707382202 0.003921568859369
-0.117159873247147 -14.149559974670410 0.578632175922394 0.000000000000000
-0.250384151935577 -18.879167556762695 3.447214365005493 0.003921568859369
-0.999959588050842 -15.878449440002441 -0.183036535978317 0.000000000000000
-0.878021240234375 -14.367355346679688 0.169785767793655 0.003921568859369
0.021412998437881 -8.211846351623535 -0.670685529708862 0.000000000000000
-0.190332800149918 -14.899073600769043 0.609473049640656 0.000000000000000
-0.219268977642059 -14.384112358093262 0.253208935260773 0.000000000000000
-0.239169299602509 -14.955875396728516 1.223907351493835 0.000000000000000
-1.141644477844238 -16.253555297851562 -0.947678923606873 0.003921568859369
0.348505347967148 -6.438142776489258 0.790227651596069 0.000000000000000
1.087825417518616 -14.438470840454102 -0.250468641519547 0.003921568859369
-0.381905972957611 -15.802683830261230 0.278494864702225 0.003921568859369
-1.191128730773926 -16.168951034545898 -0.943052887916565 0.003921568859369
-0.315272986888885 -14.215276718139648 -0.743768751621246 0.003921568859369
-0.432585716247559 -15.641564369201660 -0.818278372287750 0.000000000000000
-1.096810936927795 -14.046633720397949 0.166198849678040 0.000000000000000
-0.435195028781891 -14.633219718933105 0.598974406719208 0.000000000000000
-0.393793225288391 -13.787842750549316 -0.721707284450531 0.000000000000000
0.280379325151443 -17.002609252929688 -0.392905652523041 0.000000000000000
-1.444593667984009 -17.010652542114258 -0.196282878518105 0.003921568859369
-1.368839621543884 -16.264173507690430 -0.949533224105835 0.003921568859369
-0.556130528450012 -16.015453338623047 -0.838050663471222 0.003921568859369
-0.580495715141296 -16.481254577636719 1.350002765655518 0.003921568859369
0.224399030208588 -16.901319503784180 4.532056808471680 0.003921568859369
-1.440615534782410 -16.401285171508789 -0.957862496376038 0.003921568859369
0.163688302040100 -17.145275115966797 2.108213663101196 0.003921568859369
-1.240380406379700 -13.999618530273438 0.165813967585564 0.000000000000000
0.082077324390411 -18.928646087646484 5.076196193695068 0.003921568859369
0.053478091955185 -16.675590515136719 -0.774170339107513 0.000000000000000
-0.576022863388062 -13.709280014038086 -0.718135058879852 0.000000000000000
-1.669020891189575 -17.431118011474609 -0.609577536582947 0.003921568859369
-0.769169628620148 -15.933462142944336 -0.462254673242569 0.003921568859369
-0.307065188884735 -5.142466068267822 -0.484188586473465 0.000000000000000
-0.628618955612183 -13.813958168029785 -0.723753809928894 0.000000000000000
-0.040019035339355 -18.880434036254883 5.063833236694336 0.003921568859369
-1.427253484725952 -14.392361640930176 -0.166723102331161 0.003921568859369
-1.529922962188721 -15.254098892211914 0.181150302290916 0.000000000000000
-0.772816479206085 -15.185281753540039 0.622478544712067 0.003921568859369
-0.075588434934616 -17.422998428344727 4.673079967498779 0.003921568859369
-1.603130578994751 -15.410430908203125 0.183109477162361 0.000000000000000
-0.875132501125336 -15.853996276855469 0.279965996742249 0.003921568859369
-0.758011639118195 -14.256750106811523 0.584412217140198 0.000000000000000
-0.171087086200714 -18.846786499023438 5.055542469024658 0.003921568859369
-0.659572601318359 -12.914162635803223 2.362763404846191 0.000000000000000
-1.503277540206909 -14.206660270690918 -0.831976771354675 0.003921568859369
-0.193793743848801 -17.404981613159180 2.141020774841309 0.003921568859369
-0.808956921100616 -14.301023483276367 1.172984600067139 0.003921568859369
-1.513711929321289 -14.289384841918945 -0.500976145267487 0.003921568859369
-0.236261188983917 -18.941711425781250 5.081455230712891 0.003921568859369
-1.543518543243408 -14.108916282653809 -0.826657772064209 0.000000000000000
-0.829675972461700 -13.902514457702637 0.570136785507202 0.003921568859369
-0.255973577499390 -17.351514816284180 2.134668111801147 0.003921568859369
-0.865840733051300 -14.352541923522949 1.177558064460754 0.000000000000000
-1.591284036636353 -14.476940155029297 -0.507756590843201 0.000000000000000
-0.321776092052460 -19.453243255615234 5.219308376312256 0.003921568859369
-0.213535845279694 -14.390356063842773 0.002004750771448 0.003921568859369
-1.819911003112793 -15.806075096130371 0.188125878572464 0.000000000000000
-0.930305421352386 -14.519824981689453 0.595732390880585 0.000000000000000
-1.010404825210571 -14.852299690246582 -0.431751936674118 0.003921568859369
-1.802391290664673 -15.267610549926758 0.181717932224274 0.000000000000000
-1.594186067581177 -13.746589660644531 -0.482717275619507 0.000000000000000
-1.072296857833862 -14.987282752990723 -0.435781478881836 0.000000000000000
-1.060917377471924 -14.861807823181152 -0.084570713341236 0.003921568859369
-1.736408710479736 -14.429410934448242 -0.846554338932037 0.000000000000000
-1.864637136459351 -15.343610763549805 -0.538751423358917 0.003921568859369
0.353514373302460 -18.356256484985352 -0.317193537950516 0.003921568859369
-0.409466505050659 -15.383295059204102 0.002317927079275 0.003921568859369
-2.003570556640625 -15.909940719604492 -0.184632644057274 0.003921568859369
0.339420408010483 -14.441638946533203 -0.923582315444946 0.000000000000000
-2.122226476669312 -16.734130859375000 -0.981873929500580 0.003921568859369
-1.177562713623047 -14.957127571105957 0.264542579650879 0.003921568859369
-1.867598056793213 -14.604185104370117 -0.857660293579102 0.000000000000000
-1.859424829483032 -14.548725128173828 -0.511498749256134 0.000000000000000
-2.020479917526245 -15.288871765136719 -0.177701815962791 0.003921568859369
-1.194912910461426 -14.633867263793945 0.258857250213623 0.000000000000000
-1.189473390579224 -14.580119132995605 0.599175035953522 0.000000000000000
-1.367431163787842 -16.337203979492188 -0.857980608940125 0.003921568859369
-1.910642862319946 -14.561289787292480 -0.512192010879517 0.000000000000000
-2.200434207916260 -16.138458251953125 -0.187478616833687 0.003921568859369
-1.242955565452576 -14.656417846679688 0.259398281574249 0.000000000000000
-1.249825358390808 -14.721913337707520 0.605290055274963 0.003921568859369
-1.380612850189209 -15.969781875610352 -0.838989496231079 0.003921568859369
-1.398089170455933 -16.136232376098633 1.327240109443665 0.000000000000000
-0.392421185970306 -6.542349815368652 1.199155807495117 0.000000000000000
-1.283989667892456 -14.557621002197266 -0.082990609109402 0.003921568859369
-1.509070515632629 -16.634996414184570 -0.874153196811676 0.003921568859369
-1.963849663734436 -14.277062416076660 -0.502743065357208 0.000000000000000
-0.604466795921326 -15.184522628784180 -0.351666301488876 0.000000000000000
-2.321984291076660 -16.175931930541992 -0.188116028904915 0.003921568859369
-1.427516460418701 -15.380629539489746 0.272548526525497 0.000000000000000
-2.338785648345947 -16.279994964599609 -0.957765042781830 0.003921568859369
-0.564283430576324 -13.693543434143066 -0.637323677539825 0.000000000000000
-1.565354824066162 -16.612726211547852 -0.873321890830994 0.003921568859369
-2.037284851074219 -14.415111541748047 -0.507862567901611 0.003921568859369
-0.704218327999115 -15.927638053894043 -0.368827372789383 0.000000000000000
-2.235610961914062 -15.302484512329102 -0.178199619054794 0.000000000000000
-2.225168704986572 -15.239229202270508 0.182187899947166 0.003921568859369
-1.573828816413879 -16.177070617675781 0.286907821893692 0.003921568859369
-2.387133598327637 -16.219491958618164 -0.954760193824768 0.003921568859369
-1.531772136688232 -15.812649726867676 0.651074111461639 0.000000000000000
-1.563328623771667 -16.085950851440430 1.324623823165894 0.000000000000000
-2.026971817016602 -14.040086746215820 -0.495000094175339 0.000000000000000
-1.092126011848450 -12.003420829772949 2.204665184020996 0.000000000000000
-2.242396831512451 -15.017488479614258 -0.175031125545502 0.000000000000000
-1.450531959533691 -14.659461975097656 -0.083652041852474 0.000000000000000
-0.818155050277710 -15.959939956665039 0.374861449003220 0.003921568859369
-2.292334556579590 -15.313166618347168 0.183190792798996 0.003921568859369
-1.727138161659241 -16.984586715698242 0.301480323076248 0.003921568859369
-2.440410137176514 -16.190345764160156 -0.953605592250824 0.003921568859369
-2.118565082550049 -14.284176826477051 -0.503854393959045 0.000000000000000
-0.070290774106979 -15.164463996887207 -0.262499630451202 0.003921568859369
-2.346507072448730 -15.324332237243652 -0.178655982017517 0.000000000000000
-2.349894523620605 -15.343923568725586 0.183667436242104 0.003921568859369
-1.588240146636963 -15.381941795349121 0.272901326417923 0.000000000000000
-2.491375446319580 -16.165449142456055 -0.952682375907898 0.003921568859369
-0.969596505165100 -17.306018829345703 2.133755683898926 0.003921568859369
-0.111840158700943 -16.896387100219727 -0.685761332511902 0.003921568859369
-0.139692366123199 -15.662764549255371 -0.271065026521683 0.000000000000000
-2.578103065490723 -16.311159133911133 -0.190116345882416 0.003921568859369
-2.465062141418457 -15.668958663940430 0.187731757760048 0.000000000000000
-1.031203269958496 -17.277521133422852 2.130822896957397 0.003921568859369
-1.720720410346985 -15.978607177734375 1.317432522773743 0.000000000000000
-2.265363216400146 -14.534709930419922 -0.513263881206512 0.000000000000000
-0.198814541101456 -15.893096923828125 -0.275039076805115 0.000000000000000
-2.551630496978760 -15.852631568908691 0.190073952078819 0.003921568859369
-0.147102206945419 -14.223326683044434 -0.910045862197876 0.000000000000000
-2.587944984436035 -16.055212020874023 -0.947366833686829 0.003921568859369
-1.790670752525330 -16.103065490722656 0.664198577404022 0.003921568859369
-1.810542464256287 -16.256502151489258 1.340956330299377 0.000000000000000
-2.438536643981934 -15.222596168518066 -0.537749171257019 0.003921568859369
-2.707065582275391 -16.389471054077148 0.196721315383911 0.003921568859369
-0.253438055515289 -15.866759300231934 0.464590758085251 0.003921568859369
-1.769255280494690 -15.512043952941895 0.275599420070648 0.000000000000000
-0.197711825370789 -14.249629974365234 -0.911827266216278 0.000000000000000
-2.636061668395996 -16.001850128173828 -0.944824814796448 0.003921568859369
-0.954121947288513 -14.937365531921387 0.875249385833740 0.003921568859369
-2.016332149505615 -17.370403289794922 -0.915357589721680 0.003921568859369
-1.160020232200623 -17.402614593505859 2.147439956665039 0.003921568859369
-2.486618995666504 -15.185441017150879 -0.536782860755920 0.003921568859369
-0.944605350494385 -14.253385543823242 0.002014776924625 0.003921568859369
-1.874322295188904 -15.898429870605469 0.656319081783295 0.003921568859369
-1.224941730499268 -17.480758666992188 2.157703161239624 0.003921568859369
-1.709977984428406 -14.301434516906738 -0.418254196643829 0.000000000000000
-2.805717945098877 -16.285612106323242 0.195712238550186 0.003921568859369
-1.807834267616272 -14.999828338623047 0.619393646717072 0.000000000000000
-1.937554717063904 -15.925474166870117 2.934892416000366 0.003921568859369
-1.759321808815002 -14.290394783020020 -0.418140321969986 0.000000000000000
-1.039089798927307 -14.164555549621582 0.333069324493408 0.003921568859369
-1.856207251548767 -14.964709281921387 0.618243694305420 0.000000000000000
-1.815314173698425 -14.680267333984375 -0.775124490261078 0.000000000000000
-1.805582046508789 -14.298940658569336 -0.418558508157730 0.000000000000000
-0.376391530036926 -13.946313858032227 -0.892953276634216 0.000000000000000
-1.040259122848511 -13.726181983947754 -0.319053739309311 0.003921568859369
-1.893635272979736 -14.544539451599121 -0.425923049449921 0.000000000000000
-1.172237634658813 -14.552738189697266 0.342544883489609 0.003921568859369
-2.953595399856567 -16.169885635375977 0.194762706756592 0.003921568859369
-1.333477735519409 -16.147329330444336 -0.753352701663971 0.003921568859369
-2.943180561065674 -16.118274688720703 -0.571452319622040 0.003921568859369
-1.336695671081543 -15.633652687072754 0.002516797510907 0.003921568859369
-1.230525016784668 -14.619100570678711 0.344242990016937 0.000000000000000
-2.977122783660889 -15.997779846191406 0.192797750234604 0.003921568859369
-1.421444892883301 -16.443553924560547 -0.767398953437805 0.000000000000000
-1.905109167098999 -14.282312393188477 -0.755318522453308 0.000000000000000
-2.165177106857300 -15.966607093811035 2.948600292205811 0.003921568859369
-1.434710979461670 -16.029500961303711 0.002648880472407 0.003921568859369
-1.285849571228027 -14.653427124023438 0.345186084508896 0.000000000000000
-3.071307182312012 -16.170274734497070 0.195045053958893 0.003921568859369
-2.989265441894531 -15.776922225952148 -0.935993015766144 0.003921568859369
-2.138811349868774 -15.438508033752441 0.639296889305115 0.000000000000000
-2.070538520812988 -15.006091117858887 1.242648839950562 0.000000000000000
-3.109471797943115 -16.353532791137695 -0.580584764480591 0.003921568859369
-2.223326921463013 -15.654503822326660 -0.458947300910950 0.000000000000000
-1.507143735885620 -16.222206115722656 0.382554382085800 0.000000000000000
-0.381091177463531 -4.222433090209961 -0.350462198257446 0.000000000000000
-2.073488712310791 -14.724487304687500 0.609914898872375 0.000000000000000
-1.674635410308838 -17.726385116577148 -0.827649116516113 0.000000000000000
-2.048721790313721 -14.571043014526367 -0.771339893341064 0.000000000000000
-2.122114419937134 -15.026122093200684 1.244934797286987 0.000000000000000
-3.145929813385010 -16.272346496582031 -0.578097701072693 0.003921568859369
-2.212806701660156 -15.588625907897949 2.881752014160156 0.003921568859369
-1.579953908920288 -16.306514739990234 0.384723931550980 0.000000000000000
-2.186387538909912 -15.056806564331055 0.268741726875305 0.000000000000000
-1.745890140533447 -17.746459960937500 -0.828943610191345 0.000000000000000
-2.368818759918213 -16.162061691284180 -0.855804443359375 0.003921568859369
-2.272010803222656 -15.574979782104492 2.881031751632690 0.003921568859369
-0.788510859012604 -15.658982276916504 -0.271490871906281 0.000000000000000
-2.327626943588257 -11.973447799682617 -0.141378596425056 0.000000000000000
-1.670828104019165 -16.585767745971680 0.391517430543900 0.003921568859369
-2.208333253860474 -14.866629600524902 0.265468657016754 0.000000000000000
-2.441164970397949 -16.247180938720703 -0.860799014568329 0.003921568859369
-3.079225301742554 -15.399325370788574 -0.548092603683472 0.003921568859369
-2.247172832489014 -15.096421241760254 2.794059753417969 0.000000000000000
-2.329456329345703 -15.259838104248047 -0.448252409696579 0.000000000000000
-2.350888013839722 -15.384180068969727 -0.088276192545891 0.000000000000000
-1.725318431854248 -16.551002502441406 0.390855967998505 0.000000000000000
-2.239170074462891 -14.735602378845215 0.263262361288071 0.000000000000000
-1.808606863021851 -17.232009887695312 -0.805659055709839 0.003921568859369
-2.284583568572998 -14.999037742614746 1.244929909706116 0.000000000000000
-2.361488103866577 -15.160927772521973 -0.445607751607895 0.000000000000000
-1.709629297256470 -16.005432128906250 0.002647599438205 0.003921568859369
-2.387453079223633 -15.308803558349609 -0.087904810905457 0.000000000000000
-1.774816751480103 -16.524721145629883 0.390383273363113 0.000000000000000
-2.261947393417358 -14.593623161315918 0.260842859745026 0.000000000000000
-2.541960239410400 -16.189304351806641 -0.858722150325775 0.003921568859369
-2.485375642776489 -15.866481781005859 1.317796230316162 0.000000000000000
-2.608965873718262 -16.205301284790039 -0.476444572210312 0.000000000000000
-1.715625286102295 -15.569175720214844 0.002504773205146 0.000000000000000
-1.728083133697510 -15.665303230285645 0.922528505325317 0.000000000000000
-1.578067302703857 -14.506402969360352 -0.679248631000519 0.000000000000000
-2.595634937286377 -16.131093978881836 -0.856227815151215 0.003921568859369
-2.659760713577271 -16.163589477539062 -0.475526154041290 0.000000000000000
-1.799441337585449 -15.783662796020508 0.373112380504608 0.000000000000000
-3.784460067749023 -17.446146011352539 0.211777836084366 0.003921568859369
-2.630350828170776 -16.003015518188477 -0.849988698959351 0.003921568859369
-1.947242975234985 -16.498229980468750 0.972573757171631 0.003921568859369
-1.572886228561401 -13.749302864074707 -0.644505441188812 0.003921568859369
-2.685001611709595 -16.017288208007812 -0.851238608360291 0.003921568859369
-2.470289945602417 -14.864492416381836 1.236753821372986 0.003921568859369
-2.792970180511475 -16.296463012695312 0.292402178049088 0.003921568859369
-1.878922939300537 -15.611921310424805 0.920708477497101 0.003921568859369
-2.778035640716553 -16.218130111694336 -0.862413048744202 0.003921568859369
-2.521036148071289 -14.865948677062988 1.237782478332520 0.000000000000000
-1.040958404541016 -14.337695121765137 0.421262770891190 0.003921568859369
-1.991252183914185 -16.007371902465820 0.944564998149872 0.000000000000000
-1.764014244079590 -14.423740386962891 -0.676620960235596 0.000000000000000
-2.808797359466553 -16.073930740356445 -0.855342805385590 0.003921568859369
-2.739734888076782 -15.717040061950684 1.309674978256226 0.000000000000000
-2.130288839340210 -16.976661682128906 -0.396060585975647 0.003921568859369
-2.878298282623291 -16.145509719848633 0.290050148963928 0.003921568859369
-1.806611776351929 -14.381219863891602 -0.674958944320679 0.000000000000000
-2.785582065582275 -15.675524711608887 -0.834752082824707 0.003921568859369
-2.940539121627808 -16.149215698242188 -0.476625561714172 0.000000000000000
-1.123146057128906 -14.150816917419434 0.084734514355659 0.000000000000000
-2.099273443222046 -11.963555335998535 -0.069569841027260 0.000000000000000
-1.998015165328979 -15.294220924377441 0.362400978803635 0.003921568859369
-2.858072757720947 -15.738696098327637 0.656731128692627 0.003921568859369
-1.856335163116455 -14.353625297546387 -0.674036204814911 0.000000000000000
-2.900459051132202 -15.949447631835938 1.330912113189697 0.003921568859369
-2.903884887695312 -15.966166496276855 2.972355127334595 0.003921568859369
-2.923952579498291 -15.781326293945312 -0.466160506010056 0.000000000000000
-0.354449123144150 -3.224135160446167 -0.020754748955369 0.000000000000000
-3.020217180252075 -16.251611709594727 0.292393386363983 0.003921568859369
-3.213453054428101 -17.195865631103516 0.718290865421295 0.003921568859369
-2.935316801071167 -15.836937904357910 -0.844533085823059 0.003921568859369
-1.173966407775879 -13.741580963134766 -0.239332154393196 0.003921568859369
-3.080131530761719 -16.283918380737305 -0.481231003999710 0.000000000000000
-2.927983045578003 -15.551934242248535 0.279869526624680 0.000000000000000
-2.954257965087891 -15.678238868713379 0.655085206031799 0.003921568859369
-3.079372882843018 -16.280347824096680 -0.868664145469666 0.003921568859369
-3.138969659805298 -16.267488479614258 -0.481118559837341 0.000000000000000
-1.346271634101868 -14.831040382385254 0.089037254452705 0.000000000000000
-1.491183876991272 -16.132246017456055 0.475171238183975 0.003921568859369
-2.983311176300049 -15.532152175903320 0.279724836349487 0.000000000000000
-3.081933975219727 -15.998186111450195 -0.854314088821411 0.003921568859369
-2.023080110549927 -14.448741912841797 -0.338381797075272 0.000000000000000
-3.384906053543091 -17.119005203247070 0.308820486068726 0.003921568859369
-3.270388126373291 -16.587667465209961 0.694315254688263 0.003921568859369
-2.100105762481689 -14.586189270019531 -0.686421871185303 0.003921568859369
-3.208730697631836 -16.301958084106445 -0.871165454387665 0.003921568859369
-2.182886600494385 -15.087722778320312 1.880172491073608 0.003921568859369
-2.035682678222656 -14.195481300354004 -0.332697182893753 0.000000000000000
-2.262638330459595 -15.272613525390625 0.002473658183590 0.003921568859369
-0.655221700668335 -5.712796688079834 -0.405924141407013 0.000000000000000
-3.386568069458008 -16.869167327880859 0.706625044345856 0.003921568859369
-2.238835573196411 -15.130727767944336 1.886525630950928 0.000000000000000
-2.420935869216919 -15.858365058898926 0.002674573799595 0.003921568859369
-2.349725246429443 -15.444076538085938 0.367206603288651 0.000000000000000
-3.456145763397217 -16.890495300292969 0.305115669965744 0.003921568859369
-2.121485471725464 -14.116610527038574 -0.665174484252930 0.000000000000000
-3.301381826400757 -16.195779800415039 -0.866802334785461 0.003921568859369
-1.728316545486450 -11.828905105590820 3.217906951904297 0.000000000000000
-2.361941099166870 -15.515261650085449 -0.363790124654770 0.000000000000000
-2.638658046722412 -10.576203346252441 -0.126911044120789 0.000000000000000
-3.527487993240356 -16.931974411010742 0.710395157337189 0.003921568859369
-1.953919410705566 -9.980624198913574 -0.535649538040161 0.000000000000000
-2.366955757141113 -15.225530624389648 1.900697946548462 0.000000000000000
-3.583444833755493 -13.783922195434570 0.168757364153862 0.000000000000000
-1.635822176933289 -15.039677619934082 0.443739861249924 0.003921568859369
