# This PCD file was generated using the MATLAB® pcwrite function
# from Computer Vision Toolbox®.
# .PCD v.7 - Point Cloud Data file format
VERSION .7
FIELDS x y z intensity
SIZE 8 8 8 8
TYPE F F F F
COUNT 1 1 1 1
WIDTH 634
HEIGHT 1
VIEWPOINT 0 0 0 1 0 0 0
POINTS 634
DATA ascii
-1.493274450302124 -15.322335243225098 -0.087450832128525 0.003921568859369
0.035578995943069 -14.095954895019531 -0.901494503021240 0.000000000000000
-1.416749954223633 -14.666564941406250 0.603649318218231 0.003921568859369
-2.126409530639648 -20.731630325317383 1.708125948905945 0.003921568859369
-1.469873905181885 -14.678720474243164 -0.428318500518799 0.003921568859369
-0.704245030879974 -14.097199440002441 -0.986368238925934 0.003921568859369
-1.462680101394653 -14.616841316223145 0.601830601692200 0.000000000000000
-2.214509725570679 -20.853651046752930 1.718891263008118 0.003921568859369
-1.014331340789795 -17.665336608886719 0.415382981300354 0.003921568859369
-2.217085123062134 -14.489561080932617 -0.854741752147675 0.000000000000000
-1.514483690261841 -14.658829689025879 0.603788614273071 0.000000000000000
-2.253711462020874 -14.402049064636230 -0.850129902362823 0.000000000000000
-1.545969009399414 -14.497789382934570 0.597373664379120 0.003921568859369
-1.683318376541138 -15.580148696899414 -0.820872187614441 0.003921568859369
-2.374454259872437 -15.082771301269531 -0.532997012138367 0.003921568859369
-1.807525157928467 -16.104154586791992 0.664167881011963 0.003921568859369
-1.830179691314697 -16.272760391235352 2.995076179504395 0.003921568859369
-1.062188386917114 -16.024446487426758 4.312414646148682 0.003921568859369
-1.940434932708740 -16.663017272949219 3.068375825881958 0.003921568859369
-2.875767707824707 -16.913675308227539 -0.999698519706726 0.003921568859369
-2.278548002243042 -18.728765487670898 3.450890302658081 0.003921568859369
-1.080116987228394 -15.071503639221191 -0.349876910448074 0.003921568859369
-0.457773804664612 -15.320896148681641 -0.980600476264954 0.003921568859369
-1.772959232330322 -20.996238708496094 1.233196973800659 0.003921568859369
-1.165526151657104 -14.862467765808105 -0.693502306938171 0.003921568859369
-1.506294012069702 -18.298677444458008 2.261425256729126 0.003921568859369
-0.402335166931152 -14.205801010131836 -0.577354907989502 0.003921568859369
-2.731992483139038 -15.266543388366699 -0.541554927825928 0.003921568859369
-2.916536092758179 -15.902817726135254 0.191146671772003 0.003921568859369
-2.694642782211304 -14.808935165405273 -0.878113925457001 0.000000000000000
-1.821977138519287 -20.748720169067383 2.565474510192871 0.003921568859369
-0.517432928085327 -15.432496070861816 -0.627077043056488 0.003921568859369
-2.756699085235596 -15.114796638488770 -0.536590933799744 0.003921568859369
-2.552850008010864 -18.776460647583008 3.466632604598999 0.003921568859369
-1.867856025695801 -13.936395645141602 0.247953802347183 0.003921568859369
-2.724689006805420 -14.680514335632324 -0.871191322803497 0.000000000000000
-1.932439327239990 -21.068189620971680 1.238304972648621 0.003921568859369
-0.472834348678589 -13.653705596923828 -0.555267095565796 0.000000000000000
-2.645908832550049 -18.921375274658203 3.495364904403687 0.003921568859369
-2.765976905822754 -14.635211944580078 -0.869124054908752 0.000000000000000
-1.453507184982300 -16.051265716552734 0.943065583705902 0.000000000000000
-1.988780260086060 -14.396514892578125 1.192079067230225 0.003921568859369
-3.104242324829102 -15.700082778930664 -0.184929743409157 0.003921568859369
-2.181554317474365 -14.934635162353516 1.238125920295715 0.000000000000000
-1.382122516632080 -14.042290687561035 -0.327246755361557 0.003921568859369
-1.666834115982056 -15.962089538574219 0.939265251159668 0.003921568859369
-2.926487207412720 -14.408232688903809 -0.513995528221130 0.000000000000000
-1.424759626388550 -14.004869461059570 -0.326525479555130 0.000000000000000
-3.297051668167114 -15.802505493164062 -0.941830039024353 0.003921568859369
-1.739158630371094 -16.085832595825195 0.946969687938690 0.003921568859369
-3.061066389083862 -19.003845214843750 3.522569179534912 0.003921568859369
-3.002086162567139 -14.303209304809570 0.172656938433647 0.000000000000000
-1.827925443649292 -16.367851257324219 4.426503658294678 0.003921568859369
-0.813041388988495 -13.220341682434082 -0.848583102226257 0.000000000000000
-3.471709012985229 -16.051622390747070 -0.958176791667938 0.003921568859369
-2.507796287536621 -15.267889976501465 -0.811522424221039 0.000000000000000
-3.171598196029663 -14.571492195129395 0.176213517785072 0.003921568859369
-2.309644222259521 -13.946911811828613 0.579944729804993 0.000000000000000
-2.552800416946411 -15.243255615234375 -0.810704529285431 0.000000000000000
-0.937014281749725 -9.060318946838379 1.123332858085632 0.000000000000000
-2.967543363571167 -17.120649337768555 -0.504539251327515 0.000000000000000
-3.273381948471069 -14.769138336181641 0.178780466318130 0.000000000000000
-3.227771997451782 -14.582569122314453 -0.872170746326447 0.003921568859369
-1.927294731140137 -15.842180252075195 0.934397876262665 0.003921568859369
-2.534781455993652 -14.858141899108887 1.237147927284241 0.000000000000000
-1.789342641830444 -14.482350349426270 0.854376852512360 0.003921568859369
-3.386613607406616 -14.996587753295898 -0.537509381771088 0.003921568859369
-2.894997835159302 -16.129554748535156 0.672480583190918 0.003921568859369
-1.358402013778687 -8.396937370300293 1.561064720153809 0.000000000000000
-2.615130662918091 -14.457370758056641 0.602866888046265 0.000000000000000
-1.610503435134888 -12.641175270080566 1.571562409400940 0.000000000000000
-3.028731822967529 -16.499891281127930 1.376958489418030 0.000000000000000
-1.066342592239380 -13.465662956237793 -0.549669086933136 0.003921568859369
-2.799904584884644 -15.098093032836914 1.260612964630127 0.000000000000000
-2.392405986785889 -17.371959686279297 4.714566707611084 0.003921568859369
-2.229452610015869 -12.327630996704102 2.296344041824341 0.000000000000000
-3.024373769760132 -15.907344818115234 0.664551258087158 0.003921568859369
-1.423373937606812 -15.364770889282227 -0.627509534358978 0.003921568859369
-1.475978136062622 -15.349022865295410 -0.267285734415054 0.003921568859369
-1.263328313827515 -13.524002075195312 -0.870825409889221 0.003921568859369
-3.469031572341919 -14.067530632019043 -0.846839606761932 0.000000000000000
-3.073865890502930 -15.602370262145996 -0.834549546241760 0.000000000000000
-2.567807674407959 -17.308664321899414 2.157611131668091 0.003921568859369
-3.211462497711182 -16.233480453491211 1.358590602874756 0.003921568859369
-2.509533643722534 -16.953990936279297 4.608783245086670 0.003921568859369
-2.803733587265015 -14.129431724548340 0.254268676042557 0.000000000000000
-2.593554973602295 -17.108327865600586 4.653339862823486 0.003921568859369
-3.430034875869751 -13.575679779052734 -0.818794071674347 0.000000000000000
-3.402977466583252 -16.598098754882812 1.391348958015442 0.000000000000000
-1.548002243041992 -15.123938560485840 -0.618398606777191 0.003921568859369
-3.453734636306763 -13.477910995483398 -0.813721537590027 0.000000000000000
-3.054251194000244 -19.050550460815430 5.188323020935059 0.003921568859369
-3.839913129806519 -14.659964561462402 -0.175648733973503 0.000000000000000
-3.623947620391846 -13.897920608520508 0.169703304767609 0.003921568859369
-3.395611047744751 -16.039623260498047 1.346544384956360 0.003921568859369
-3.610754251480103 -13.852198600769043 -0.501333951950073 0.000000000000000
-2.451326847076416 -15.339007377624512 -0.360373198986053 0.003921568859369
-4.016981601715088 -15.083602905273438 -0.180832028388977 0.000000000000000
-4.156435966491699 -15.569850921630859 -0.941435515880585 0.003921568859369
-3.026920318603516 -14.223310470581055 -0.764002621173859 0.000000000000000
-2.902790784835815 -17.486656188964844 2.186493635177612 0.003921568859369
-1.623493432998657 -14.485603332519531 -0.593264281749725 0.003921568859369
-3.657980918884277 -13.834558486938477 -0.501212120056152 0.000000000000000
-2.524236440658569 -15.138127326965332 -0.715259611606598 0.000000000000000
-3.073770046234131 -14.199893951416016 -0.763394474983215 0.000000000000000
-2.937448740005493 -17.334848403930664 2.168877363204956 0.003921568859369
-3.872736692428589 -14.392503738403320 -0.521843314170837 0.000000000000000
-1.815556287765503 -8.927846908569336 1.673854470252991 0.000000000000000
-3.526173830032349 -15.848846435546875 -0.472342759370804 0.000000000000000
-3.985372304916382 -14.588633537292480 0.178784295916557 0.000000000000000
-3.369456768035889 -15.201102256774902 0.639394342899323 0.003921568859369
-3.232512474060059 -14.638291358947754 -0.787543356418610 0.000000000000000
-3.927474737167358 -14.393128395080566 -0.522413969039917 0.000000000000000
-4.251490116119385 -15.294014930725098 0.187753215432167 0.000000000000000
-3.203694581985474 -14.299450874328613 0.601791799068451 0.000000000000000
-3.543920516967773 -15.680416107177734 1.320658564567566 0.000000000000000
-3.970828771591187 -14.355238914489746 -0.521601200103760 0.000000000000000
-2.650697469711304 -15.224277496337891 -0.358695834875107 0.000000000000000
-3.931933164596558 -14.045237541198730 0.172344386577606 0.000000000000000
-1.872620105743408 -14.775240898132324 -0.955058574676514 0.000000000000000
-2.723623991012573 -15.310004234313965 1.919033288955688 0.000000000000000
-4.735073089599609 -16.701055526733398 -0.606990993022919 0.003921568859369
-3.852712392807007 -16.681152343750000 3.137917041778564 0.003921568859369
-3.485039710998535 -14.775250434875488 -0.442149996757507 0.000000000000000
-3.272573947906494 -13.948286056518555 0.588449537754059 0.003921568859369
-4.162372112274170 -14.443184852600098 -0.526496648788452 0.000000000000000
-2.680917739868164 -14.312678337097168 -0.679324150085449 0.003921568859369
-4.644216060638428 -15.442598342895508 -0.186884865164757 0.003921568859369
-3.403213977813721 -17.186735153198242 2.162497758865356 0.003921568859369
-3.077694654464722 -15.440803527832031 0.002348244190216 0.000000000000000
-2.184902906417847 -14.797396659851074 -0.959621489048004 0.000000000000000
-3.541298866271973 -14.201120376586914 1.203332066535950 0.000000000000000
-2.284880161285400 -15.067821502685547 -0.977700293064117 0.000000000000000
-4.280084609985352 -13.984053611755371 -0.855954289436340 0.003921568859369
-4.088299751281738 -15.991590499877930 0.678235292434692 0.003921568859369
-3.174802064895630 -15.622976303100586 -0.743402361869812 0.000000000000000
-4.410380363464355 -17.158241271972656 1.455893874168396 0.000000000000000
-4.883879184722900 -15.817923545837402 -0.579490959644318 0.003921568859369
-4.752554416656494 -15.230359077453613 -0.185039922595024 0.003921568859369
-4.518155097961426 -14.527784347534180 -0.890210330486298 0.000000000000000
-3.749505996704102 -14.555105209350586 0.617654323577881 0.000000000000000
-3.484363555908203 -13.609143257141113 -0.739141643047333 0.000000000000000
-4.482910633087158 -17.175329208374023 1.458812713623047 0.000000000000000
-4.925639629364014 -15.577315330505371 -0.189411506056786 0.003921568859369
-4.792906284332275 -15.182966232299805 0.188377559185028 0.003921568859369
-2.266774892807007 -14.365672111511230 -0.933463573455811 0.000000000000000
-4.558574199676514 -17.228340148925781 -0.935771226882935 0.003921568859369
-3.720368385314941 -17.481838226318359 2.206414461135864 0.003921568859369
-4.315131664276123 -13.765779495239258 -0.505914866924286 0.003921568859369
-5.236765861511230 -16.312288284301758 -0.198455929756165 0.003921568859369
-5.342671871185303 -16.622568130493164 0.206753462553024 0.003921568859369
-3.885452270507812 -14.656188964843750 0.268027096986771 0.003921568859369
-5.190189361572266 -16.176506042480469 -0.993193984031677 0.003921568859369
-4.350396633148193 -16.274875640869141 0.692290604114532 0.003921568859369
-3.758668899536133 -17.371004104614258 2.194174051284790 0.003921568859369
-4.626126766204834 -17.234180450439453 1.466613531112671 0.000000000000000
-4.631401062011719 -14.536550521850586 -0.534716248512268 0.003921568859369
-4.954750537872314 -15.309629440307617 -0.186685428023338 0.003921568859369
-4.928767204284668 -15.233851432800293 0.189436972141266 0.003921568859369
-3.923183917999268 -14.595325469970703 0.267156034708023 0.003921568859369
-5.247927188873291 -16.160936355590820 -0.993446290493011 0.003921568859369
-3.912578582763672 -14.558444976806641 0.619571208953857 0.000000000000000
-3.061530351638794 -14.185086250305176 -0.677506685256958 0.000000000000000
-4.721134662628174 -17.339588165283203 -0.943719923496246 0.003921568859369
-3.798090457916260 -17.267831802368164 2.182911396026611 0.003921568859369
-4.669556140899658 -17.159385681152344 1.461691498756409 0.000000000000000
-2.504433870315552 -15.079567909240723 -0.622762978076935 0.003921568859369
-5.346562862396240 -16.446632385253906 -0.605312645435333 0.003921568859369
-5.284681320190430 -16.084236145019531 -0.196230590343475 0.003921568859369
-5.028002262115479 -15.347609519958496 0.191089048981667 0.003921568859369
-4.531507492065430 -16.471675872802734 0.302182406187057 0.003921568859369
-5.279331684112549 -16.069744110107422 -0.989071786403656 0.003921568859369
-4.824542045593262 -17.467475891113281 -0.951647877693176 0.003921568859369
-4.718294620513916 -14.460081100463867 -0.533231794834137 0.003921568859369
-5.136075496673584 -15.483495712280273 0.193027287721634 0.003921568859369
-5.331410884857178 -16.038791656494141 -0.988398849964142 0.003921568859369
-4.848925113677979 -17.326915740966797 -0.945011138916016 0.003921568859369
-3.947012901306152 -17.354293823242188 2.197535514831543 0.003921568859369
-4.496146202087402 -16.142364501953125 1.377681255340576 0.000000000000000
-2.606589317321777 -15.043766021728516 -0.622150123119354 0.000000000000000
-2.713962554931641 -10.171504974365234 1.936066865921021 0.000000000000000
-3.373793363571167 -14.804265975952148 0.002022912725806 0.000000000000000
-5.128311157226562 -15.291039466857910 0.190809875726700 0.003921568859369
-4.329269886016846 -15.388442039489746 0.282667189836502 0.003921568859369
-4.567942142486572 -16.177431106567383 0.690897643566132 0.003921568859369
-4.689757823944092 -16.582252502441406 -0.905497372150421 0.003921568859369
-4.560546398162842 -16.152154922485352 1.379948258399963 0.003921568859369
-4.733218193054199 -14.183538436889648 -0.524412095546722 0.000000000000000
-2.852275133132935 -15.719013214111328 -0.277423620223999 0.003921568859369
-5.528857707977295 -16.235179901123047 0.203015163540840 0.003921568859369
-4.381788730621338 -15.368283271789551 0.282576948404312 0.003921568859369
-2.675355911254883 -14.844338417053223 -0.968416273593903 0.000000000000000
-4.796718597412109 -16.725076675415039 -0.914257586002350 0.003921568859369
-2.716295480728149 -15.046448707580566 -0.623151779174805 0.003921568859369
-4.767788887023926 -14.124433517456055 -0.522908449172974 0.003921568859369
-4.242183685302734 -14.729212760925293 -0.447020530700684 0.000000000000000
-5.595083236694336 -16.240961074829102 0.203327834606171 0.003921568859369
-4.844429016113281 -16.672761917114258 -0.912405788898468 0.003921568859369
-2.760751962661743 -14.996599197387695 -0.621553957462311 0.000000000000000
-4.833487510681152 -14.151648521423340 -0.524588108062744 0.000000000000000
-4.535503387451172 -15.671546936035156 2.993970632553101 0.003921568859369
-4.273961067199707 -14.688066482543945 -0.446138590574265 0.003921568859369
-5.637215614318848 -16.214752197265625 0.203313469886780 0.003921568859369
-3.393293142318726 -14.288603782653809 0.861896216869354 0.000000000000000
-4.652452468872070 -15.894421577453613 0.680933237075806 0.003921568859369
-2.982987165451050 -10.568990707397461 -0.580040156841278 0.000000000000000
-4.537439823150635 -15.524735450744629 2.968898296356201 0.003921568859369
-2.989336252212524 -15.611709594726562 -0.276063978672028 0.000000000000000
-4.269591808319092 -14.496593475341797 -0.440863728523254 0.000000000000000
-3.482035398483276 -14.423820495605469 0.001937986351550 0.003921568859369
-5.670079231262207 -16.130092620849609 0.202479049563408 0.003921568859369
-4.750207901000977 -16.010265350341797 0.686656355857849 0.003921568859369
-4.713619232177734 -15.894138336181641 1.363637089729309 0.000000000000000
-3.041279077529907 -15.588300704956055 -0.275876700878143 0.003921568859369
-5.717908382415771 -16.086591720581055 0.202170222997665 0.003921568859369
-4.533125400543213 -15.142849922180176 0.279613405466080 0.003921568859369
-4.665552616119385 -15.554833412170410 0.667763829231262 0.003921568859369
-4.808079242706299 -15.997900962829590 1.374071598052979 0.000000000000000
-2.690075635910034 -13.964531898498535 -0.580174267292023 0.000000000000000
-4.989832401275635 -16.561864852905273 3.174413919448853 0.003921568859369
-3.093098878860474 -15.564722061157227 -0.275689512491226 0.000000000000000
-5.809538841247559 -16.158859252929688 0.203341960906982 0.003921568859369
-3.511318206787109 -14.133235931396484 0.854827046394348 0.003921568859369
-4.527139663696289 -14.944349288940430 0.642144441604614 0.000000000000000
-4.866361141204834 -15.987454414367676 1.374704122543335 0.000000000000000
-2.821198940277100 -14.328641891479492 -0.595687568187714 0.000000000000000
-5.871321678161621 -16.322343826293945 -0.607620716094971 0.003921568859369
-3.139649391174316 -15.505236625671387 -0.274887531995773 0.000000000000000
-2.856637239456177 -14.241242408752441 -0.933301448822021 0.000000000000000
-5.732380867004395 -15.782491683959961 -0.982688128948212 0.003921568859369
-3.795507669448853 -14.962117195129395 0.906029701232910 0.003921568859369
-4.978508472442627 -16.131141662597656 1.388731002807617 0.000000000000000
-6.217339515686035 -16.867723464965820 0.212941542267799 0.003921568859369
-2.916065931320190 -14.272851943969727 -0.936116933822632 0.000000000000000
-4.285254955291748 -13.863237380981445 -0.764266669750214 0.000000000000000
-4.281240940093994 -16.269502639770508 0.396024733781815 0.003921568859369
-4.481439113616943 -14.277773857116699 -0.788008451461792 0.000000000000000
-1.642876267433167 -6.958169460296631 0.887490391731262 0.000000000000000
-5.268228054046631 -16.610321044921875 1.433446288108826 0.000000000000000
-4.605697631835938 -14.495507240295410 -0.443970769643784 0.003921568859369
-3.914133310317993 -10.716599464416504 -0.133891969919205 0.000000000000000
-4.539722919464111 -16.979673385620117 -0.820120871067047 0.000000000000000
-5.308820724487305 -16.558691024780273 1.430485963821411 0.000000000000000
-4.669218540191650 -14.507563591003418 -0.444912046194077 0.000000000000000
-3.806797266006470 -14.225798606872559 0.001778011210263 0.003921568859369
-4.972324371337891 -15.386901855468750 -0.092619739472866 0.000000000000000
-3.258544683456421 -15.046316146850586 0.452453553676605 0.003921568859369
-4.918282032012939 -15.229633331298828 0.283116489648819 0.003921568859369
-5.110115528106689 -15.785964012145996 0.682406365871429 0.003921568859369
-4.672202110290527 -14.516620635986328 -0.803028881549835 0.000000000000000
-5.869948863983154 -15.490484237670898 -0.580881118774414 0.003921568859369
-5.006384372711182 -15.482329368591309 2.988139390945435 0.003921568859369
-5.048668861389160 -15.442441940307617 -0.473941743373871 0.000000000000000
-4.992434501647949 -15.280130386352539 0.284375905990601 0.003921568859369
-2.126789569854736 -6.078440666198730 -0.383029967546463 0.000000000000000
-4.979722976684570 -15.243213653564453 0.659580945968628 0.003921568859369
-5.306217193603516 -16.182439804077148 -0.895863056182861 0.003921568859369
-4.952245235443115 -15.163590431213379 1.312832593917847 0.000000000000000
-3.386293172836304 -15.114595413208008 -0.269453436136246 0.003921568859369
-4.959352970123291 -15.007795333862305 0.279594451189041 0.000000000000000
-4.902981281280518 -17.539508819580078 -0.849757909774780 0.000000000000000
-5.372131347656250 -16.180511474609375 -0.896926462650299 0.003921568859369
-3.780669927597046 -13.774247169494629 1.766754269599915 0.000000000000000
-4.802255630493164 -14.410120010375977 -0.443587929010391 0.003921568859369
-5.005071640014648 -14.978872299194336 0.279362082481384 0.000000000000000
-4.692027091979980 -16.630792617797852 -0.806714296340942 0.000000000000000
-4.789300441741943 -14.225675582885742 -0.438457190990448 0.003921568859369
-5.535027980804443 -16.294933319091797 0.304659575223923 0.003921568859369
-4.773717403411865 -16.700136184692383 -0.810876846313477 0.000000000000000
-4.818526268005371 -16.842935562133789 2.165660381317139 0.003921568859369
-5.100538730621338 -15.087709426879883 1.311228990554810 0.003921568859369
-2.282888174057007 -8.554677963256836 2.397549152374268 0.000000000000000
-3.639354705810547 -15.490694046020508 -0.276725560426712 0.000000000000000
-5.532196998596191 -16.128429412841797 -0.097511321306229 0.000000000000000
-5.392961502075195 -15.746556282043457 -0.876080036163330 0.003921568859369
-4.816263198852539 -16.648410797119141 2.142667293548584 0.003921568859369
-5.702337265014648 -16.417043685913086 0.307671546936035 0.003921568859369
-4.891191959381104 -16.685441970825195 1.021001458168030 0.000000000000000
-4.892729759216309 -16.692573547363281 -0.812212347984314 0.000000000000000
-5.503044605255127 -15.876427650451660 -0.884426116943359 0.003921568859369
-5.135818958282471 -14.875471115112305 1.295834064483643 0.003921568859369
-4.238516330718994 -14.603281021118164 -0.354192048311234 0.000000000000000
-5.621233940124512 -16.024484634399414 -0.495386064052582 0.000000000000000
-4.998062133789062 -16.822771072387695 -0.819442272186279 0.000000000000000
-5.184937477111816 -14.848811149597168 1.295159816741943 0.000000000000000
-5.800950050354004 -16.315855026245117 -0.505081951618195 0.000000000000000
-3.263897657394409 -8.312501907348633 -0.105964109301567 0.000000000000000
-5.547985076904297 -15.642388343811035 0.293769657611847 0.003921568859369
-6.111106395721436 -17.139177322387695 0.748611330986023 0.003921568859369
-5.530686378479004 -15.597649574279785 -0.871362149715424 0.003921568859369
-5.708713531494141 -15.901901245117188 -0.493015915155411 0.000000000000000
-6.156725883483887 -17.079744338989258 0.321451961994171 0.003921568859369
-5.673084735870361 -15.808584213256836 -0.884287536144257 0.003921568859369
-5.503614425659180 -15.358542442321777 2.998104095458984 0.003921568859369
-6.194595813751221 -17.018188476562500 0.320648670196533 0.003921568859369
-4.359422206878662 -14.287174224853516 -0.698816001415253 0.003921568859369
-5.903012752532959 -16.259546279907227 -0.910531222820282 0.003921568859369
-5.533516883850098 -15.292368888854980 2.988741636276245 0.003921568859369
-4.049983978271484 -15.716083526611328 -0.282386511564255 0.003921568859369
-5.693029403686523 -15.548468589782715 0.293065816164017 0.003921568859369
-4.845222473144531 -15.579976081848145 0.958453357219696 0.003921568859369
-4.455910205841064 -14.410989761352539 -0.705674171447754 0.000000000000000
-5.819677829742432 -15.876394271850586 -0.890366077423096 0.003921568859369
-5.058606624603271 -16.220432281494141 2.101478338241577 0.003921568859369
-5.901930332183838 -16.086111068725586 1.410717129707336 0.000000000000000
-5.759991645812988 -15.543824195861816 0.293396323919296 0.003921568859369
-4.959815979003906 -15.722696304321289 0.968485295772552 0.000000000000000
-5.837030887603760 -15.739147186279297 1.382271766662598 0.000000000000000
-6.354812145233154 -16.887039184570312 0.319436728954315 0.003921568859369
-6.415159225463867 -17.038923263549805 0.749145090579987 0.003921568859369
-5.821456909179688 -15.539602279663086 1.366569519042969 0.000000000000000
-3.826828718185425 -14.505178451538086 -0.612862408161163 0.003921568859369
-6.314715385437012 -16.782709121704102 3.294104814529419 0.003921568859369
-4.623520374298096 -14.557364463806152 -0.356074661016464 0.003921568859369
-6.114055156707764 -16.130695343017578 0.709919750690460 0.003921568859369
-5.175213813781738 -16.009153366088867 2.081373929977417 0.003921568859369
-5.853816032409668 -15.317074775695801 0.290205717086792 0.003921568859369
-6.352812290191650 -16.551614761352539 0.729578018188477 0.003921568859369
-5.399703502655029 -16.464986801147461 2.143420457839966 0.003921568859369
-6.157528400421143 -16.065780639648438 3.161825418472290 0.003921568859369
-4.985530853271484 -15.278570175170898 -0.374470055103302 0.003921568859369
-3.385328769683838 -9.135774612426758 -0.057491254061460 0.000000000000000
-5.338674068450928 -16.138082504272461 -0.794588685035706 0.003921568859369
-3.993594646453857 -14.550375938415527 -0.616537988185883 0.000000000000000
-5.987667560577393 -15.512174606323242 3.056972026824951 0.003921568859369
-4.749925136566162 -14.464900970458984 -0.355035185813904 0.000000000000000
-5.159926891326904 -15.456389427185059 0.383941411972046 0.000000000000000
-5.453374862670898 -16.281791687011719 -0.399743586778641 0.000000000000000
-5.204401493072510 -15.402829170227051 0.002112288959324 0.003921568859369
-6.198658466339111 -15.709495544433594 0.695319771766663 0.003921568859369
-4.781513214111328 -14.228680610656738 -0.350213617086411 0.000000000000000
-3.907692432403564 -13.742796897888184 -0.249383002519608 0.003921568859369
-5.470095157623291 -15.983046531677246 0.002296107355505 0.003921568859369
-5.143930912017822 -15.084939956665039 0.936865627765656 0.003921568859369
-5.496366500854492 -16.056200027465820 -0.793547332286835 0.000000000000000
-6.223285675048828 -15.627576828002930 3.092835903167725 0.003921568859369
-5.100652694702148 -14.797427177429199 0.368782877922058 0.003921568859369
-5.571338176727295 -16.076622009277344 0.999976813793182 0.000000000000000
-5.560695648193359 -16.049695968627930 -0.794310927391052 0.000000000000000
-6.269768238067627 -15.578057289123535 3.087780475616455 0.003921568859369
-5.680357456207275 -16.198942184448242 0.404509484767914 0.000000000000000
-4.214664459228516 -14.371279716491699 -0.964354157447815 0.003921568859369
-5.633393764495850 -16.073938369750977 -0.796552360057831 0.000000000000000
-5.395419120788574 -15.430596351623535 2.023645162582397 0.003921568859369
-5.533857345581055 -15.805712699890137 -0.390199482440948 0.000000000000000
-4.222365856170654 -14.230715751647949 -0.259024888277054 0.003921568859369
-5.663756370544434 -15.991703987121582 0.399771422147751 0.000000000000000
-4.563195228576660 -15.292593002319336 0.469653725624084 0.003921568859369
-5.513903617858887 -15.593924522399902 -0.773836493492126 0.000000000000000
-2.661309242248535 -6.944049835205078 0.616814732551575 0.000000000000000
-5.721189498901367 -16.145538330078125 -0.399032920598984 0.000000000000000
-3.146630287170410 -7.990556240081787 -0.051254354417324 0.000000000000000
-6.067162513732910 -16.886631011962891 0.422854423522949 0.000000000000000
-7.503916263580322 -17.971305847167969 1.603569149971008 0.000000000000000
-5.783193111419678 -16.139230728149414 -0.399423569440842 0.000000000000000
-6.166261196136475 -16.960098266601562 0.425280481576920 0.000000000000000
-4.266470909118652 -14.023175239562988 -0.944307386875153 0.000000000000000
-6.562914848327637 -15.658899307250977 1.399070143699646 0.000000000000000
-4.389465808868408 -14.397068977355957 -0.615564763545990 0.000000000000000
-6.542229175567627 -15.610253334045410 3.112837076187134 0.003921568859369
-5.820819377899170 -16.060670852661133 -0.398071289062500 0.000000000000000
-4.803896427154541 -15.475464820861816 -0.282438546419144 0.003921568859369
-5.872848987579346 -16.028312683105469 0.002213697880507 0.003921568859369
-4.311617851257324 -13.995639801025391 -0.943563282489777 0.000000000000000
-1.541754245758057 -4.230731487274170 0.186923786997795 0.000000000000000
-5.786478519439697 -15.806388854980469 -0.787586748600006 0.000000000000000
-6.935268402099609 -16.348569869995117 1.463064193725586 0.000000000000000
-6.287851810455322 -14.892323493957520 2.974118232727051 0.003921568859369
-4.848818302154541 -15.439362525939941 -0.282116532325745 0.003921568859369
-2.919223308563232 -6.404067039489746 -0.084879584610462 0.000000000000000
-6.617093086242676 -15.495163917541504 1.388571023941040 0.000000000000000
-4.844826221466064 -15.242280006408691 -0.278919726610184 0.003921568859369
-5.166449069976807 -16.187076568603516 0.101845048367977 0.003921568859369
-6.899136066436768 -15.967082977294922 0.716258764266968 0.003921568859369
-6.068704605102539 -16.197921752929688 -0.809265434741974 0.000000000000000
-2.183960437774658 -5.568439006805420 0.497873604297638 0.000000000000000
-1.970512032508850 -5.839675426483154 1.682151913642883 0.000000000000000
-2.261160135269165 -5.702317237854004 -0.037782989442348 0.000000000000000
-4.599612236022949 -14.383358001708984 -0.617817163467407 0.000000000000000
-4.990473270416260 -15.344496726989746 0.096667326986790 0.000000000000000
-6.149769783020020 -16.095108032226562 1.013189077377319 0.003921568859369
-6.704370021820068 -15.273007392883301 1.375192165374756 0.000000000000000
-5.022768020629883 -15.265397071838379 0.096251927316189 0.000000000000000
-6.383818626403809 -16.508649826049805 1.040753364562988 0.000000000000000
-1.429561734199524 -3.813522338867188 0.169506892561913 0.000000000000000
-6.705447673797607 -15.136276245117188 1.365042090415955 0.000000000000000
-5.140360355377197 -15.435946464538574 0.097459428012371 0.000000000000000
-3.508929491043091 -8.205611228942871 -0.053247053176165 0.000000000000000
-4.879506587982178 -11.121793746948242 0.214917615056038 0.000000000000000
-6.444612979888916 -16.501007080078125 1.041664481163025 0.000000000000000
-6.775958061218262 -15.156101226806641 1.368937969207764 0.000000000000000
-4.742113590240479 -14.316586494445801 -0.617232382297516 0.000000000000000
-5.370175838470459 -15.897505760192871 0.100580118596554 0.000000000000000
-6.166965007781982 -15.661927223205566 2.085062503814697 0.003921568859369
-5.287322044372559 -10.429136276245117 -0.138036802411079 0.000000000000000
-5.375066757202148 -15.738361358642578 0.099648162722588 0.000000000000000
-3.596527814865112 -9.387820243835449 2.728945255279541 0.000000000000000
-4.894252300262451 -14.261585235595703 -0.617296218872070 0.003921568859369
-5.671433925628662 -16.209011077880859 0.102941624820232 0.000000000000000
-2.774027585983276 -7.292584896087646 0.183857530355453 0.000000000000000
-1.041663527488708 -3.741073608398438 -0.257714003324509 0.000000000000000
-6.963044643402100 -15.004549026489258 3.045104503631592 0.003921568859369
-5.722370147705078 -16.164371490478516 0.102769158780575 0.000000000000000
-7.042308330535889 -15.027090072631836 3.055138587951660 0.003921568859369
-5.799269676208496 -16.028230667114258 0.102107688784599 0.000000000000000
-4.198055267333984 -10.222621917724609 0.260531812906265 0.000000000000000
-5.643479347229004 -15.467917442321777 0.484907358884811 0.003921568859369
-5.932309627532959 -16.215007781982422 -0.706092655658722 0.003921568859369
-4.332040786743164 -9.273170471191406 1.893850684165955 0.000000000000000
-3.282484769821167 -6.355661392211914 0.083964087069035 0.000000000000000
-5.682597637176514 -15.424538612365723 0.484270513057709 0.003921568859369
-5.724647521972656 -15.373626708984375 0.483305394649506 0.003921568859369
-6.630596160888672 -15.414592742919922 2.080042839050293 0.003921568859369
-5.788661479949951 -15.378308296203613 0.484105080366135 0.003921568859369
-3.459636688232422 -7.364835739135742 0.143900766968727 0.000000000000000
-4.334258556365967 -10.158125877380371 0.260511845350266 0.000000000000000
-5.846796512603760 -15.367895126342773 0.484433978796005 0.003921568859369
-7.331975460052490 -14.718359947204590 0.291274160146713 0.003921568859369
-4.235691547393799 -11.261770248413086 -0.211613625288010 0.000000000000000
-4.243881225585938 -8.730026245117188 -0.057825058698654 0.000000000000000
-7.009859561920166 -15.810264587402344 1.017810463905334 0.000000000000000
-1.703933000564575 -4.417913913726807 -0.228827610611916 0.000000000000000
-7.532921314239502 -14.972884178161621 3.087349176406860 0.003921568859369
-7.023119926452637 -15.701316833496094 2.132229089736938 0.003921568859369
-2.927298784255981 -6.924628257751465 -0.357929825782776 0.000000000000000
-2.002164840698242 -4.363378047943115 -0.030686594545841 0.000000000000000
-1.746155023574829 -4.350251674652100 0.279595345258713 0.000000000000000
-3.722618579864502 -9.347109794616699 -0.178069576621056 0.000000000000000
-4.384582042694092 -8.489231109619141 1.772262573242188 0.000000000000000
-2.195020437240601 -4.542567729949951 -0.275024950504303 0.000000000000000
-3.051295518875122 -7.674702167510986 0.048210181295872 0.000000000000000
-0.435524880886078 -1.772200822830200 -0.036567263305187 0.003921568859369
-4.058657169342041 -9.848339080810547 0.314303487539291 0.000000000000000
-7.416634082794189 -15.284891128540039 2.107640981674194 0.003921568859369
-4.653041839599609 -9.777617454528809 0.255640238523483 0.000000000000000
-7.875776290893555 -16.062334060668945 2.218534708023071 0.003921568859369
-3.016215324401855 -6.522871971130371 0.169802725315094 0.000000000000000
-7.816961288452148 -15.797890663146973 2.186254501342773 0.003921568859369
-4.328218460083008 -8.064997673034668 1.700359582901001 0.000000000000000
-2.438804149627686 -5.321111202239990 -0.649259150028229 0.000000000000000
-7.851342201232910 -15.609795570373535 2.167633771896362 0.003921568859369
-7.757763862609863 -15.295542716979980 2.128027439117432 0.003921568859369
-4.704425811767578 -9.543514251708984 -0.251618891954422 0.000000000000000
-7.952446937561035 -15.524688720703125 2.164154529571533 0.003921568859369
-4.712662220001221 -8.385998725891113 1.786501526832581 0.000000000000000
-4.370405197143555 -7.766265869140625 0.157822161912918 0.000000000000000
-6.231730461120605 -10.731966972351074 2.296586036682129 0.000000000000000
-3.642165899276733 -8.162446975708008 -0.159263551235199 0.000000000000000
-1.195752620697021 -2.821961402893066 0.185532793402672 0.000000000000000
-6.295018196105957 -10.763210296630859 -0.663428068161011 0.000000000000000
-5.163372516632080 -8.932188034057617 1.915086984634399 0.000000000000000
-2.671718835830688 -5.400498390197754 0.359369099140167 0.000000000000000
-4.267633914947510 -7.313551425933838 0.705802321434021 0.000000000000000
-7.687660217285156 -14.100415229797363 0.379066765308380 0.000000000000000
-1.266252994537354 -2.557962894439697 0.050468176603317 0.000000000000000
-4.395672798156738 -9.208315849304199 0.060028977692127 0.000000000000000
-5.802323818206787 -11.928532600402832 0.391532510519028 0.000000000000000
-8.227740287780762 -13.260831832885742 1.290747642517090 0.000000000000000
-7.208788871765137 -12.945556640625000 0.000764962984249 0.000000000000000
-4.993795871734619 -10.281394958496094 0.067509450018406 0.000000000000000
-5.941650390625000 -12.099467277526855 0.397858530282974 0.000000000000000
-7.487921714782715 -11.936524391174316 0.249638766050339 0.000000000000000
-2.018810987472534 -4.495177745819092 0.146322324872017 0.000000000000000
-7.969297409057617 -12.572383880615234 0.263699203729630 0.000000000000000
-2.708313226699829 -5.701612472534180 -0.416637718677521 0.000000000000000
-2.453106880187988 -4.638095855712891 -0.001861550379544 0.000000000000000
-4.384727954864502 -7.748707771301270 0.210701704025269 0.000000000000000
-7.210130214691162 -11.096468925476074 0.547518372535706 0.000000000000000
-3.843599319458008 -5.526918888092041 -0.406704217195511 0.000000000000000
-2.780916690826416 -5.097229480743408 0.734359323978424 0.000000000000000
-16.212884902954102 -23.918228149414062 5.310760498046875 0.003921568859369
-8.766780853271484 -14.555674552917480 0.001160723390058 0.003921568859369
-3.796318531036377 -5.878893375396729 0.586787998676300 0.000000000000000
-4.580118179321289 -6.936306476593018 -0.050889786332846 0.000000000000000
-6.201341629028320 -11.420429229736328 0.383896082639694 0.000000000000000
-14.284690856933594 -22.809324264526367 1.582657575607300 0.003921568859369
-3.271443367004395 -5.102543354034424 0.510077476501465 0.000000000000000
-9.245708465576172 -12.080860137939453 0.179610297083855 0.000000000000000
-5.314310073852539 -7.791342258453369 -0.506707668304443 0.000000000000000
-3.814113140106201 -5.693387031555176 -0.042813546955585 0.000000000000000
-1.189385294914246 -2.347534656524658 -0.002633334137499 0.000000000000000
-2.375094652175903 -3.360342741012573 -0.154217243194580 0.000000000000000
-8.604013442993164 -13.355251312255859 0.000676705734804 0.003921568859369
-7.110843658447266 -9.012605667114258 0.135390773415565 0.000000000000000
-4.448021888732910 -7.068301200866699 -0.001236551208422 0.003921568859369
-8.367128372192383 -14.146725654602051 0.485203713178635 0.003921568859369
-4.842541217803955 -7.588660717010498 0.535414218902588 0.000000000000000
-3.300261974334717 -4.824150562286377 -0.320009768009186 0.000000000000000
-3.310251474380493 -4.836541652679443 0.494635641574860 0.000000000000000
-4.524525165557861 -6.385723114013672 -0.048394236713648 0.000000000000000
-2.875493764877319 -5.185649871826172 -0.108593292534351 0.000000000000000
-3.619171380996704 -5.169641494750977 1.189789414405823 0.000000000000000
-3.325960397720337 -5.813320636749268 -0.282414257526398 0.000000000000000
-3.139880180358887 -4.930743217468262 0.139057308435440 0.000000000000000
-8.535468101501465 -12.493218421936035 1.884857416152954 0.000000000000000
-2.871214151382446 -5.060430526733398 -0.246833428740501 0.000000000000000
-6.335012912750244 -10.371510505676270 0.071666374802589 0.000000000000000
-3.491249322891235 -5.977919578552246 -0.291661769151688 0.000000000000000
-2.090353012084961 -3.784146070480347 -0.081066966056824 0.000000000000000
-7.541464805603027 -9.880386352539062 -0.074339427053928 0.000000000000000
-7.159926414489746 -10.408445358276367 -0.299436599016190 0.000000000000000
-5.398664474487305 -6.443892478942871 -0.102633208036423 0.000000000000000
-5.639340877532959 -6.616585731506348 -0.522963285446167 0.000000000000000
-9.659727096557617 -14.838753700256348 0.105317048728466 0.000000000000000
-3.679135799407959 -6.002854347229004 -0.296909689903259 0.000000000000000
-3.747946739196777 -6.009133338928223 -0.298717886209488 0.000000000000000
-1.203959465026855 -2.293306589126587 0.078537017107010 0.000000000000000
-10.558792114257812 -12.903943061828613 3.085069417953491 0.003921568859369
-7.226287364959717 -9.848985671997070 -0.000638301949948 0.000000000000000
-5.848155975341797 -8.935810089111328 0.062632784247398 0.000000000000000
-1.200524091720581 -2.271350145339966 0.077945120632648 0.000000000000000
-5.532056331634521 -8.419524192810059 0.298654437065125 0.000000000000000
-5.559519290924072 -6.724133014678955 -0.472331255674362 0.000000000000000
-6.823873519897461 -7.391567230224609 -0.362483173608780 0.000000000000000
-11.070544242858887 -12.949886322021484 3.153134584426880 0.003921568859369
-4.716760635375977 -5.732655525207520 0.132050037384033 0.000000000000000
-8.484392166137695 -9.033039093017578 -0.443660587072372 0.000000000000000
-9.160764694213867 -10.719947814941406 2.617321491241455 0.000000000000000
-3.042035818099976 -3.825758695602417 -0.271890550851822 0.000000000000000
-7.574447154998779 -8.877748489379883 0.972549617290497 0.000000000000000
-8.981680870056152 -12.762182235717773 -0.644768297672272 0.000000000000000
-3.495853900909424 -4.240356922149658 1.046561717987061 0.000000000000000
-9.970549583435059 -11.153588294982910 2.775146484375000 0.000000000000000
-4.971975803375244 -5.730690956115723 0.317734301090240 0.000000000000000
-3.604531526565552 -4.710315227508545 0.756337404251099 0.000000000000000
-6.641202926635742 -8.290295600891113 2.912024736404419 0.000000000000000
-3.841181993484497 -4.521241664886475 1.126960158348083 0.000000000000000
-3.801586866378784 -5.426607131958008 -0.281282067298889 0.000000000000000
-3.377468109130859 -3.971964597702026 -0.034316442906857 0.000000000000000
-3.838577985763550 -4.919146060943604 -0.455836385488510 0.000000000000000
-6.143399238586426 -6.844580650329590 -0.056868091225624 0.000000000000000
-7.037479400634766 -8.525642395019531 0.657601594924927 0.000000000000000
-7.607294082641602 -9.114789962768555 0.705411076545715 0.000000000000000
-8.175428390502930 -8.849760055541992 0.500594079494476 0.000000000000000
-4.395634651184082 -5.984394073486328 0.042807899415493 0.000000000000000
-7.567506313323975 -7.404179573059082 0.124625541269779 0.000000000000000
-2.563170671463013 -3.033607006072998 0.071248695254326 0.000000000000000
-9.265037536621094 -9.904929161071777 1.128477811813354 0.000000000000000
-7.664184570312500 -8.149764060974121 -0.068247817456722 0.000000000000000
-4.039062976837158 -4.912714481353760 -0.002212749561295 0.000000000000000
-6.742239475250244 -8.664574623107910 0.064189866185188 0.000000000000000
-8.817401885986328 -9.125468254089355 0.526920735836029 0.000000000000000
-11.159278869628906 -12.618561744689941 4.584900379180908 0.003921568859369
-8.575426101684570 -9.730042457580566 1.624182462692261 0.000000000000000
-3.419639348983765 -4.503219127655029 0.032075129449368 0.000000000000000
-5.338229179382324 -6.133089542388916 0.193441838026047 0.000000000000000
-4.801148891448975 -5.526446819305420 -0.002130357082933 0.000000000000000
-7.048627376556396 -6.506236076354980 -0.925799310207367 0.000000000000000
-8.138517379760742 -9.939118385314941 -0.229570478200912 0.000000000000000
-6.776425361633301 -6.224468231201172 -0.889431357383728 0.000000000000000
-0.762656867504120 -1.355009198188782 -0.117719702422619 0.003921568859369
-12.776337623596191 -13.899572372436523 1.115444421768188 0.000000000000000
-5.981923103332520 -5.535067081451416 -0.297604978084564 0.000000000000000
-6.638218879699707 -6.061070919036865 -0.110586449503899 0.000000000000000
-6.943819999694824 -6.280313491821289 -0.904696524143219 0.000000000000000
-10.571408271789551 -10.349583625793457 1.230188727378845 0.000000000000000
-5.993558883666992 -6.609410285949707 1.127563834190369 0.000000000000000
-2.546754837036133 -3.026162862777710 0.095588438212872 0.000000000000000
-6.202153682708740 -5.491874694824219 -0.302582949399948 0.000000000000000
-10.548396110534668 -12.139913558959961 -0.666510045528412 0.003921568859369
-6.103744029998779 -7.018743991851807 0.276951879262924 0.000000000000000
-5.932168006896973 -6.691833496093750 0.266471356153488 0.000000000000000
-13.906702041625977 -12.247902870178223 3.433914422988892 0.003921568859369
-5.534892082214355 -4.907361030578613 1.402824878692627 0.000000000000000
-5.316390037536621 -4.694650173187256 -0.218259453773499 0.000000000000000
-13.894355773925781 -12.864936828613281 -0.897377312183380 0.000000000000000
-4.136248588562012 -4.062180519104004 -0.286957591772079 0.000000000000000
-6.162911415100098 -6.430628299713135 0.265667378902435 0.000000000000000
-6.014774799346924 -4.628746032714844 0.089205153286457 0.000000000000000
-13.686473846435547 -11.238453865051270 0.732844054698944 0.003921568859369
-5.002626419067383 -3.871351242065430 -0.080662518739700 0.000000000000000
-12.452398300170898 -10.181868553161621 0.284398794174194 0.003921568859369
-13.006308555603027 -9.525461196899414 0.189036384224892 0.003921568859369
-9.568388938903809 -7.789752960205078 -0.076030775904655 0.000000000000000
-8.336806297302246 -8.323412895202637 0.349798560142517 0.000000000000000
-7.880424976348877 -6.951552391052246 -0.002348583424464 0.003921568859369
-12.182974815368652 -11.495008468627930 0.097952209413052 0.000000000000000
-14.212149620056152 -10.854250907897949 -0.532495737075806 0.000000000000000
-11.394093513488770 -8.633931159973145 2.665727615356445 0.000000000000000
-11.819211959838867 -8.816203117370605 0.260721147060394 0.000000000000000
-10.609025955200195 -7.101077556610107 0.149555593729019 0.000000000000000
-10.342348098754883 -7.698207855224609 0.228251993656158 0.000000000000000
-6.527672290802002 -4.968217372894287 1.554600358009338 0.000000000000000
-16.482337951660156 -11.998778343200684 3.777328252792358 0.003921568859369
-2.061873674392700 -2.125260829925537 -0.212703943252563 0.000000000000000
-8.704255104064941 -7.758719444274902 0.346448391675949 0.000000000000000
-10.008635520935059 -7.240853309631348 1.033685803413391 0.000000000000000
-11.296285629272461 -8.133845329284668 2.598033189773560 0.000000000000000
-15.093084335327148 -11.769089698791504 1.132401227951050 0.000000000000000
-5.826819896697998 -4.705873012542725 2.094491720199585 0.000000000000000
-9.410723686218262 -6.629040241241455 -0.072023250162601 0.000000000000000
-10.386973381042480 -7.286096096038818 1.061554193496704 0.000000000000000
-2.993712902069092 -2.537117481231689 -0.003280242905021 0.000000000000000
-8.708105087280273 -5.483050346374512 -0.127544835209846 0.000000000000000
-5.083311080932617 -4.521295070648193 0.204638764262199 0.000000000000000
-6.877844810485840 -5.419080257415771 0.526843905448914 0.000000000000000
-12.129299163818359 -9.248807907104492 -0.002469212980941 0.000000000000000
-8.413723945617676 -5.867737770080566 -0.064851932227612 0.000000000000000
-13.330155372619629 -10.133147239685059 0.395252317190170 0.000000000000000
-8.149380683898926 -5.692055225372314 0.176501378417015 0.000000000000000
-11.490411758422852 -9.580058097839355 0.086813062429428 0.000000000000000
-9.156401634216309 -6.222157955169678 -0.335783600807190 0.000000000000000
-5.748116493225098 -4.007541179656982 1.339040994644165 0.000000000000000
-2.035607814788818 -1.761122822761536 -0.215187728404999 0.000000000000000
-10.597792625427246 -7.887735843658447 0.786786496639252 0.000000000000000
-11.567169189453125 -8.578868865966797 3.948982477188110 0.000000000000000
-6.476878643035889 -4.904354572296143 0.490169614553452 0.000000000000000
-8.114735603332520 -6.021684646606445 -0.002986284205690 0.003921568859369
-9.703584671020508 -7.139328479766846 3.318292856216431 0.000000000000000
-7.673703670501709 -5.097393989562988 0.386603176593781 0.000000000000000
-8.477887153625488 -6.191653251647949 -0.003032015170902 0.003921568859369
-9.939905166625977 -6.480150222778320 -0.074453733861446 0.000000000000000
-10.125564575195312 -7.336156845092773 0.745909035205841 0.000000000000000
-10.183247566223145 -6.577989101409912 0.214627489447594 0.000000000000000
-20.316196441650391 -12.854599952697754 4.447342395782471 0.003921568859369
-3.756355524063110 -3.177382230758667 -0.094991296529770 0.000000000000000
-9.723499298095703 -6.950088500976562 -0.003011568915099 0.000000000000000
-11.996777534484863 -6.829213142395020 -0.499154388904572 0.000000000000000
-13.311078071594238 -8.448053359985352 2.938293218612671 0.003921568859369
-7.928869724273682 -5.100579738616943 -0.060420252382755 0.000000000000000
-9.647395133972168 -6.102527618408203 0.958569109439850 0.000000000000000
-12.430685043334961 -6.892736911773682 0.165941596031189 0.000000000000000
-7.366656780242920 -4.682965755462646 0.155276626348495 0.000000000000000
-9.214847564697266 -5.747645378112793 -0.330406993627548 0.000000000000000
-7.382961273193359 -4.655712604522705 0.155255004763603 0.000000000000000
-7.580317020416260 -4.773134231567383 0.376482993364334 0.000000000000000
-13.993578910827637 -7.666238784790039 -0.574588179588318 0.003921568859369
-8.995575904846191 -5.615144729614258 1.997490882873535 0.000000000000000
-8.911962509155273 -6.840797424316406 -0.474677205085754 0.000000000000000
-7.554008483886719 -4.611633300781250 -0.057255525141954 0.000000000000000
-7.148824214935303 -4.847229480743408 -0.003369019133970 0.003921568859369
-10.495462417602539 -7.657326698303223 0.385655432939529 0.000000000000000
-15.621992111206055 -9.051613807678223 0.317995697259903 0.003921568859369
-10.174080848693848 -6.629609584808350 0.725449085235596 0.000000000000000
