# This PCD file was generated using the MATLAB® pcwrite function
# from Computer Vision Toolbox®.
# .PCD v.7 - Point Cloud Data file format
VERSION .7
FIELDS x y z intensity
SIZE 8 8 8 8
TYPE F F F F
COUNT 1 1 1 1
WIDTH 638
HEIGHT 1
VIEWPOINT 0 0 0 1 0 0 0
POINTS 638
DATA ascii
10.756754875183105 -21.695415496826172 -0.566869854927063 0.003921568859369
9.415003776550293 -19.079998016357422 -0.005437146406621 0.003921568859369
7.620212554931641 -15.490182876586914 0.994686007499695 0.003921568859369
1.241548776626587 -1.894089221954346 -0.140188038349152 0.000000000000000
7.581460952758789 -15.548375129699707 0.996764779090881 0.003921568859369
8.537035942077637 -15.553614616394043 -0.723194301128387 0.003921568859369
6.848428249359131 -16.140882492065430 0.299488604068756 0.003921568859369
7.516135215759277 -15.685420989990234 0.397566378116608 0.003921568859369
8.426781654357910 -15.602222442626953 0.508115172386169 0.003921568859369
8.943472862243652 -18.930633544921875 -0.005438582506031 0.003921568859369
8.620010375976562 -18.227573394775391 -0.940037071704865 0.003921568859369
9.105785369873047 -17.038427352905273 -0.787770271301270 0.003921568859369
9.243071556091309 -17.450508117675781 -0.347958683967590 0.003921568859369
7.625854492187500 -16.216844558715820 -0.004984684288502 0.003921568859369
7.924224376678467 -16.870920181274414 -0.436580121517181 0.000000000000000
6.553344726562500 -16.056032180786133 -0.507242619991302 0.000000000000000
9.226391792297363 -17.736196517944336 0.573603630065918 0.003921568859369
6.628239154815674 -16.568376541137695 1.444794297218323 0.000000000000000
8.308605194091797 -16.191982269287109 0.100237876176834 0.000000000000000
7.169689178466797 -15.797564506530762 0.999943733215332 0.003921568859369
7.351475238800049 -16.212677001953125 4.739668846130371 0.003921568859369
6.993432521820068 -21.153108596801758 -0.264743000268936 0.003921568859369
9.268353462219238 -18.424287796020508 0.591678023338318 0.003921568859369
6.496568202972412 -16.910364151000977 1.466676354408264 0.003921568859369
9.736702919006348 -19.551496505737305 -0.891322195529938 0.003921568859369
7.302746295928955 -16.556509017944336 4.818111896514893 0.003921568859369
5.662247180938721 -17.404235839843750 -0.217770695686340 0.003921568859369
10.444870948791504 -21.197137832641602 0.130755141377449 0.003921568859369
7.553674221038818 -15.330613136291504 0.093764759600163 0.000000000000000
6.593867301940918 -17.548181533813477 0.754916250705719 0.003921568859369
7.477461814880371 -20.217670440673828 -0.130806356668472 0.003921568859369
6.886769294738770 -16.203290939331055 0.402374446392059 0.003921568859369
4.840664386749268 -15.331956863403320 -0.937473952770233 0.003921568859369
2.564180850982666 -5.672572135925293 1.639678120613098 0.000000000000000
5.052542686462402 -13.590271949768066 2.624050855636597 0.003921568859369
7.696051597595215 -16.059377670288086 0.097807645797729 0.003921568859369
6.819628238677979 -16.200473785400391 0.401719003915787 0.003921568859369
4.390787124633789 -14.011810302734375 0.165232986211777 0.000000000000000
4.762140750885010 -15.263710021972656 -0.932348966598511 0.000000000000000
5.967078685760498 -16.351108551025391 1.409150004386902 0.000000000000000
8.991292953491211 -19.021196365356445 0.116065613925457 0.003921568859369
6.770502567291260 -16.241907119750977 0.402172267436981 0.000000000000000
6.107109546661377 -16.939825057983398 1.458181381225586 0.000000000000000
4.369472980499268 -14.305611610412598 0.168383345007896 0.003921568859369
6.677922248840332 -16.174852371215820 1.008740425109863 0.003921568859369
6.170721530914307 -17.318510055541992 1.489025473594666 0.000000000000000
6.569010257720947 -16.063749313354492 -0.406989812850952 0.000000000000000
6.533470153808594 -16.138639450073242 -0.005206838250160 0.003921568859369
8.073362350463867 -27.852079391479492 -0.344382464885712 0.003921568859369
7.033700466156006 -20.534620285034180 -0.635605573654175 0.003921568859369
6.458364486694336 -16.112012863159180 -0.005206509493291 0.003921568859369
5.976512908935547 -17.341859817504883 1.485752582550049 0.000000000000000
6.122169494628906 -21.455085754394531 -0.265544414520264 0.003921568859369
7.613389968872070 -19.277051925659180 0.474270462989807 0.003921568859369
5.885454654693604 -17.239578247070312 1.475175738334656 0.000000000000000
5.822788715362549 -17.251588821411133 1.474517703056335 0.000000000000000
4.231161117553711 -14.964231491088867 0.175012022256851 0.000000000000000
5.796523571014404 -17.377292633056641 1.483601450920105 0.000000000000000
7.208813667297363 -22.059970855712891 -0.679877161979675 0.003921568859369
5.129729747772217 -15.666820526123047 -0.100757241249084 0.003921568859369
4.953466415405273 -15.481501579284668 0.653950452804565 0.003921568859369
4.905666351318359 -15.323746681213379 -0.844782948493958 0.003921568859369
6.878381252288818 -16.159515380859375 -0.310280472040176 0.003921568859369
4.917479991912842 -15.557506561279297 -0.478143215179443 0.000000000000000
6.884119033813477 -16.173807144165039 0.503497004508972 0.003921568859369
4.416860580444336 -13.891918182373047 0.248160094022751 0.000000000000000
4.845250129699707 -15.316978454589844 -0.843529701232910 0.003921568859369
5.355869770050049 -17.017225265502930 1.444917917251587 0.000000000000000
4.942839145660400 -19.244628906250000 -0.236793547868729 0.003921568859369
6.842679977416992 -16.233932495117188 0.504644513130188 0.003921568859369
4.807662487030029 -15.386564254760742 -0.846478343009949 0.003921568859369
7.420392513275146 -20.467590332031250 -0.510962724685669 0.003921568859369
6.429462432861328 -21.122812271118164 -0.647032976150513 0.003921568859369
5.579111576080322 -22.185285568237305 -0.272400587797165 0.003921568859369
5.303062438964844 -17.278247833251953 1.464059591293335 0.000000000000000
7.337110042572021 -20.458520889282227 -0.510129451751709 0.003921568859369
1.625061035156250 -5.837813377380371 -0.073344245553017 0.000000000000000
1.611222505569458 -5.779462814331055 0.065661929547787 0.000000000000000
6.108023166656494 -17.107648849487305 1.047633528709412 0.000000000000000
4.331407546997070 -17.263143539428711 -0.625311493873596 0.003921568859369
5.931828498840332 -16.784994125366211 2.170543193817139 0.003921568859369
4.181031227111816 -13.966522216796875 0.248042479157448 0.003921568859369
4.705737113952637 -15.829460144042969 -0.867475211620331 0.003921568859369
4.614732742309570 -15.695477485656738 -0.100271001458168 0.003921568859369
7.110841274261475 -20.694967269897461 1.263236522674561 0.003921568859369
4.332636356353760 -14.681769371032715 0.615491092205048 0.000000000000000
4.616018295288086 -15.915060997009277 -0.101552464067936 0.000000000000000
4.647317886352539 -16.029499053955078 0.671550452709198 0.003921568859369
5.342137813568115 -18.561840057373047 1.565137386322021 0.000000000000000
4.296865463256836 -15.165993690490723 -0.462325930595398 0.000000000000000
4.936149597167969 -14.648868560791016 1.883164167404175 0.000000000000000
4.162668228149414 -14.664116859436035 1.233633160591125 0.003921568859369
5.246462821960449 -18.725442886352539 3.527348995208740 0.003921568859369
4.200139999389648 -15.013769149780273 -0.457295387983322 0.000000000000000
4.983863353729248 -14.976987838745117 -0.005393631756306 0.003921568859369
4.330000400543213 -15.507346153259277 -0.098762333393097 0.000000000000000
5.852157592773438 -17.723722457885742 1.076602458953857 0.000000000000000
4.505510807037354 -16.173786163330078 -0.882221996784210 0.003921568859369
5.311064243316650 -16.012809753417969 2.056427240371704 0.003921568859369
4.116530418395996 -14.696969985961914 1.235249519348145 0.000000000000000
4.160763263702393 -15.077782630920410 -0.458825498819351 0.000000000000000
4.956599235534668 -15.073604583740234 -0.005417442880571 0.000000000000000
6.755745887756348 -17.931579589843750 0.549239099025726 0.003921568859369
7.119049072265625 -22.269596099853516 -0.549184083938599 0.003921568859369
5.666933059692383 -21.499067306518555 -0.135671913623810 0.003921568859369
5.067012310028076 -19.118976593017578 0.337841719388962 0.003921568859369
2.123030185699463 -5.222058296203613 -0.359018057584763 0.000000000000000
3.944381475448608 -14.664782524108887 0.610743522644043 0.000000000000000
1.221175670623779 -2.739771127700806 -0.053675100207329 0.000000000000000
4.801838874816895 -15.133389472961426 0.362301141023636 0.000000000000000
4.722238540649414 -14.868312835693359 -0.728668749332428 0.000000000000000
5.420120239257812 -17.190383911132812 4.804034709930420 0.003921568859369
5.382637023925781 -20.677459716796875 3.877765178680420 0.003921568859369
4.974021434783936 -19.317642211914062 -0.585156798362732 0.000000000000000
4.489372253417969 -14.275138854980469 -0.005273037590086 0.000000000000000
5.472896575927734 -17.586839675903320 2.246689081192017 0.003921568859369
3.958909273147583 -15.168868064880371 1.269304394721985 0.003921568859369
3.452614784240723 -13.099777221679688 2.453701496124268 0.000000000000000
5.687897205352783 -22.577348709106445 -0.142027199268341 0.003921568859369
4.027221679687500 -15.684599876403809 0.275986760854721 0.003921568859369
3.740062475204468 -14.492863655090332 0.601974010467529 0.000000000000000
4.821218967437744 -19.249013900756836 -0.582325220108032 0.003921568859369
4.752179145812988 -19.257049560546875 -0.582099795341492 0.003921568859369
6.368254661560059 -18.014719009399414 0.547496020793915 0.003921568859369
8.090715408325195 -27.792255401611328 -0.680236756801605 0.003921568859369
4.490400791168213 -15.424499511718750 0.366512566804886 0.000000000000000
4.649993896484375 -16.005062103271484 -0.778981924057007 0.003921568859369
5.949571609497070 -17.573160171508789 -0.328535467386246 0.003921568859369
4.194624423980713 -14.546854019165039 1.844948530197144 0.000000000000000
4.513680458068848 -15.944356918334961 0.378210633993149 0.000000000000000
4.319722652435303 -15.217849731445312 -0.372196853160858 0.003921568859369
4.223373413085938 -15.284738540649414 0.361778527498245 0.003921568859369
5.056620121002197 -15.555191040039062 0.088934361934662 0.000000000000000
2.294449329376221 -13.590582847595215 -0.165437132120132 0.003921568859369
3.942842006683350 -14.645095825195312 0.873968482017517 0.003921568859369
4.652042388916016 -14.605801582336426 0.438427954912186 0.000000000000000
6.523844718933105 -20.822259902954102 -0.892752230167389 0.003921568859369
6.418281555175781 -24.802345275878906 -0.602436184883118 0.003921568859369
4.382762908935547 -13.866058349609375 0.415503561496735 0.000000000000000
4.213552474975586 -16.147058486938477 0.962069928646088 0.003921568859369
3.406199455261230 -12.849416732788086 1.618946433067322 0.003921568859369
6.451587200164795 -20.824872970581055 -0.892150163650513 0.003921568859369
3.829684019088745 -14.580725669860840 4.016334533691406 0.003921568859369
4.325450420379639 -16.857707977294922 -0.814004421234131 0.003921568859369
1.649175763130188 -5.758456707000732 0.723561823368073 0.000000000000000
1.662580609321594 -5.814563274383545 1.598840594291687 0.000000000000000
6.144963741302490 -24.783834457397461 -0.600739955902100 0.003921568859369
4.053469657897949 -16.226444244384766 -0.006093441974372 0.003921568859369
4.632613182067871 -15.290845870971680 0.086613319814205 0.003921568859369
4.247225284576416 -13.943060874938965 0.416521072387695 0.000000000000000
2.480325698852539 -16.732385635375977 -0.989359498023987 0.003921568859369
2.082241058349609 -14.109773635864258 0.159887194633484 0.003921568859369
1.990628719329834 -13.778715133666992 0.156001910567284 0.000000000000000
2.278694152832031 -16.539966583251953 -0.200301796197891 0.003921568859369
4.734138965606689 -16.289688110351562 0.485577046871185 0.003921568859369
2.096232652664185 -15.494431495666504 0.175571039319038 0.000000000000000
2.009628295898438 -15.194473266601562 0.172051161527634 0.000000000000000
4.032566070556641 -14.110286712646484 0.419488370418549 0.003921568859369
1.939262747764587 -14.582434654235840 -0.518472135066986 0.000000000000000
2.053723096847534 -16.070936203002930 -0.194479182362556 0.003921568859369
4.269629001617432 -15.209797859191895 0.451939195394516 0.000000000000000
3.353458881378174 -19.167964935302734 0.784160614013672 0.003921568859369
3.733049154281616 -21.523002624511719 3.967411518096924 0.003921568859369
2.145772933959961 -17.477182388305664 -0.211202934384346 0.003921568859369
3.673130512237549 -21.656091690063477 3.989615678787231 0.003921568859369
4.223286151885986 -15.482266426086426 -0.284858494997025 0.000000000000000
1.715796470642090 -13.947176933288574 0.157521784305573 0.003921568859369
1.662135958671570 -13.431811332702637 -0.792117059230804 0.000000000000000
2.321822643280029 -13.658758163452148 0.556966543197632 0.000000000000000
4.106613159179688 -15.439023017883301 -0.283768326044083 0.000000000000000
2.175306558609009 -19.582859039306641 -0.694370567798615 0.003921568859369
3.604945182800293 -22.702421188354492 4.175669193267822 0.003921568859369
1.592664241790771 -14.113437652587891 -0.831521093845367 0.003921568859369
2.312202692031860 -14.254181861877441 1.169632911682129 0.003921568859369
1.748111486434937 -16.383899688720703 0.185015887022018 0.003921568859369
1.545186638832092 -14.137863159179688 -0.832694053649902 0.000000000000000
2.468498945236206 -15.733482360839844 0.640967011451721 0.003921568859369
1.570298433303833 -14.416040420532227 -0.511509060859680 0.000000000000000
1.779568672180176 -17.408958435058594 -0.210197269916534 0.003921568859369
1.674634814262390 -16.200689315795898 -0.574348151683807 0.003921568859369
1.627414345741272 -16.318010330200195 -0.197131380438805 0.003921568859369
1.451097965240479 -14.202153205871582 -0.835973978042603 0.000000000000000
1.771332025527954 -18.838476181030273 -0.227133437991142 0.003921568859369
2.039966583251953 -13.715615272521973 0.235592558979988 0.003921568859369
2.399022817611694 -17.451889038085938 1.428553700447083 0.003921568859369
3.337973356246948 -25.140495300292969 4.609107494354248 0.003921568859369
1.961324691772461 -14.281436920166016 -0.424512356519699 0.003921568859369
1.989864945411682 -14.521685600280762 -0.772423386573792 0.000000000000000
1.840145826339722 -13.667624473571777 -0.406216233968735 0.000000000000000
1.871856927871704 -13.943471908569336 -0.087456613779068 0.003921568859369
2.186251163482666 -16.675937652587891 0.677343189716339 0.003921568859369
1.896687507629395 -14.158560752868652 -0.752871215343475 0.000000000000000
3.720849514007568 -20.945446014404297 5.680327892303467 0.003921568859369
3.124152421951294 -24.829017639160156 4.548182010650635 0.003921568859369
2.759054422378540 -15.445744514465332 0.904972910881042 0.003921568859369
1.505616068840027 -19.876911163330078 -0.702877163887024 0.003921568859369
3.026129961013794 -24.737152099609375 4.529541969299316 0.003921568859369
1.431362390518188 -19.693552017211914 -0.696488618850708 0.003921568859369
3.027035951614380 -25.497892379760742 4.666850090026855 0.003921568859369
1.151368260383606 -15.878386497497559 -0.191747352480888 0.003921568859369
1.361354589462280 -19.676431655883789 0.221848189830780 0.003921568859369
2.403320789337158 -13.815978050231934 1.710445880889893 0.003921568859369
1.116831064224243 -16.284784317016602 -0.196558818221092 0.003921568859369
2.426253557205200 -14.294719696044922 0.330300718545914 0.003921568859369
1.406454563140869 -21.877025604248047 0.246891722083092 0.003921568859369
2.011994123458862 -17.222045898437500 0.698332786560059 0.003921568859369
1.718263506889343 -14.311081886291504 -0.759998202323914 0.003921568859369
1.156734228134155 -17.054346084594727 -0.603274762630463 0.003921568859369
2.991213798522949 -18.049612045288086 4.883636474609375 0.003921568859369
2.075963973999023 -18.500146865844727 -0.548173666000366 0.000000000000000
3.134378671646118 -19.457330703735352 0.450271457433701 0.000000000000000
1.060141444206238 -16.291723251342773 0.183166533708572 0.003921568859369
2.114650964736938 -18.898721694946289 0.766295194625854 0.003921568859369
1.575323820114136 -13.361884117126465 -0.709522008895874 0.000000000000000
2.563247680664062 -15.574577331542969 1.926443815231323 0.003921568859369
2.450978755950928 -22.351688385009766 1.825132489204407 0.003921568859369
1.051874876022339 -16.118995666503906 -0.570235848426819 0.003921568859369
2.275145053863525 -13.616820335388184 3.681732177734375 0.003921568859369
2.528663396835327 -23.151775360107422 4.232624530792236 0.003921568859369
2.039324522018433 -18.768747329711914 -0.555926501750946 0.000000000000000
1.669576644897461 -14.840023994445801 0.253887981176376 0.003921568859369
2.042609930038452 -18.805244445800781 0.762242317199707 0.003921568859369
1.003445625305176 -16.233308792114258 -0.574178457260132 0.003921568859369
2.283266067504883 -13.994380950927734 3.782056570053101 0.003921568859369
0.961197853088379 -16.584335327148438 -0.200049445033073 0.003921568859369
1.796712398529053 -16.821088790893555 0.681320726871490 0.003921568859369
1.852596998214722 -17.436138153076172 -0.924503922462463 0.003921568859369
0.945119619369507 -16.195817947387695 -0.572777926921844 0.003921568859369
0.886754512786865 -16.150981903076172 -0.194868102669716 0.003921568859369
0.890212774276733 -16.243005752563477 0.182512283325195 0.003921568859369
1.753582835197449 -17.005479812622070 0.688596427440643 0.003921568859369
1.869324445724487 -18.332931518554688 -0.971628129482269 0.003921568859369
0.910126924514771 -16.765300750732422 -0.592751622200012 0.003921568859369
1.015381574630737 -21.517456054687500 -0.258738160133362 0.003921568859369
1.017129421234131 -21.569551467895508 0.243165418505669 0.003921568859369
1.793679475784302 -18.199069976806641 -0.964272916316986 0.003921568859369
1.700902462005615 -17.091548919677734 1.393246173858643 0.000000000000000
1.681943297386169 -16.866809844970703 3.079044580459595 0.003921568859369
1.458152770996094 -14.806040763854980 -0.438587665557861 0.000000000000000
0.939851999282837 -21.508049011230469 0.242429524660110 0.003921568859369
1.565282702445984 -16.145765304565430 0.276088595390320 0.003921568859369
0.774241924285889 -16.162008285522461 -0.571388244628906 0.003921568859369
0.863887786865234 -21.478260040283203 0.242058053612709 0.003921568859369
1.396041393280029 -14.676226615905762 1.195316553115845 0.003921568859369
1.434801816940308 -15.185056686401367 2.770227193832397 0.003921568859369
1.443253755569458 -16.026199340820312 -0.474279552698135 0.000000000000000
0.661956071853638 -16.189960479736328 -0.195270553231239 0.003921568859369
1.432338595390320 -15.877230644226074 -0.099108152091503 0.003921568859369
0.810797214508057 -22.391870498657227 0.252433061599731 0.003921568859369
1.575653076171875 -17.841646194458008 0.721743822097778 0.003921568859369
1.628651976585388 -18.568820953369141 1.512625098228455 0.003921568859369
2.041470289230347 -14.451982498168945 -0.344963401556015 0.003921568859369
0.604866325855255 -16.163227081298828 -0.194942697882652 0.003921568859369
1.587377548217773 -18.909818649291992 -0.117526113986969 0.000000000000000
0.729926109313965 -22.261646270751953 0.250923097133636 0.003921568859369
1.454912662506104 -17.004243850708008 0.290655791759491 0.003921568859369
2.442136287689209 -18.257888793945312 2.250396728515625 0.003921568859369
1.459368705749512 -17.070047378540039 1.389975905418396 0.000000000000000
0.678192138671875 -19.735408782958984 -0.696984708309174 0.003921568859369
0.659173965454102 -22.311094284057617 0.251436412334442 0.003921568859369
0.577559411525726 -22.036327362060547 0.248287782073021 0.003921568859369
1.440275907516479 -18.577749252319336 -0.982847273349762 0.003921568859369
2.117123126983643 -16.449647903442383 2.025602340698242 0.003921568859369
1.413682579994202 -18.156240463256836 1.477866888046265 0.003921568859369
0.517014563083649 -17.555303573608398 -0.620234906673431 0.003921568859369
1.448685526847839 -19.824764251708984 -0.585599422454834 0.003921568859369
0.449813544750214 -26.017372131347656 -0.312230348587036 0.003921568859369
1.873506188392639 -15.230860710144043 0.885457456111908 0.000000000000000
1.295457959175110 -18.316585540771484 0.740135967731476 0.003921568859369
1.358878731727600 -19.461427688598633 1.583621501922607 0.000000000000000
1.107082366943359 -15.923411369323730 -0.470695674419403 0.000000000000000
0.359607547521591 -26.217794418334961 -0.314618736505508 0.003921568859369
0.347320228815079 -22.214231491088867 0.250269889831543 0.003921568859369
1.077238440513611 -16.457349777221680 -0.486313492059708 0.003921568859369
0.268247902393341 -25.841939926147461 -0.310151964426041 0.003921568859369
1.047898292541504 -15.852868080139160 -0.098877035081387 0.003921568859369
2.355545759201050 -14.101838111877441 0.408772349357605 0.003921568859369
2.003357887268066 -17.663116455078125 2.172006845474243 0.003921568859369
0.975570321083069 -14.363376617431641 1.167677640914917 0.000000000000000
1.233837008476257 -19.696506500244141 3.587655067443848 0.003921568859369
0.177479013800621 -25.985733032226562 -0.311873733997345 0.003921568859369
1.001183748245239 -16.047254562377930 -0.100047670304775 0.003921568859369
0.177723765373230 -25.909894943237305 0.292318254709244 0.003921568859369
1.100403070449829 -18.256912231445312 1.484647512435913 0.000000000000000
1.938221693038940 -17.629007339477539 -0.419050544500351 0.003921568859369
0.095388785004616 -26.049278259277344 -0.312642604112625 0.003921568859369
0.097087681293488 -25.801456451416016 0.291082113981247 0.003921568859369
1.542070627212524 -13.891419410705566 3.731271266937256 0.003921568859369
0.961547374725342 -17.875055313110352 -0.527768552303314 0.000000000000000
0.001289695501328 -25.920444488525391 -0.311127334833145 0.003921568859369
1.032106161117554 -19.726501464843750 0.336940199136734 0.003921568859369
0.988129854202271 -18.575031280517578 0.749974071979523 0.003921568859369
1.458593368530273 -13.522567749023438 3.630938053131104 0.003921568859369
0.831507921218872 -14.475132942199707 2.634736299514771 0.003921568859369
1.696560263633728 -16.245571136474609 -0.386143445968628 0.000000000000000
2.211109161376953 -14.505431175231934 -0.261609911918640 0.003921568859369
-0.092207670211792 -26.131277084350586 -0.313658416271210 0.003921568859369
0.922591567039490 -18.557422637939453 0.749158680438995 0.003921568859369
1.923766374588013 -19.641464233398438 -0.925691068172455 0.003921568859369
1.899710178375244 -19.354701995849609 -0.459422796964645 0.003921568859369
0.787999749183655 -16.224811553955078 -0.479180514812469 0.003921568859369
1.561589717864990 -15.952333450317383 -0.006610713899136 0.003921568859369
-0.179770827293396 -26.181890487670898 -0.314284682273865 0.003921568859369
-0.170705348253250 -25.662162780761719 0.289511442184448 0.003921568859369
2.041310071945190 -13.573609352111816 -0.883190631866455 0.003921568859369
1.424332261085510 -14.246953964233398 1.748739719390869 0.003921568859369
0.888253688812256 -19.429979324340820 1.579357147216797 0.000000000000000
1.465547800064087 -14.762779235839844 3.961904287338257 0.000000000000000
1.833596706390381 -19.336051940917969 -0.458865463733673 0.000000000000000
0.739819169044495 -16.530237197875977 -0.488107770681381 0.000000000000000
-0.274243384599686 -26.324243545532227 0.297059595584869 0.003921568859369
1.625220656394958 -17.510635375976562 1.015770912170410 0.003921568859369
2.026817321777344 -22.738180160522461 2.791734218597412 0.003921568859369
0.835404753684998 -19.969997406005859 1.623148679733276 0.003921568859369
1.411051273345947 -14.728302955627441 3.951555490493774 0.000000000000000
0.826279997825623 -19.649051666259766 3.576151847839355 0.003921568859369
1.711539983749390 -18.631649017333984 -0.442129552364349 0.000000000000000
-0.358890712261200 -26.093965530395508 -0.313298344612122 0.003921568859369
0.669465303421021 -15.874843597412109 -0.098962128162384 0.000000000000000
-0.366154730319977 -26.386016845703125 0.297781944274902 0.003921568859369
0.745916604995728 -19.043245315551758 1.547551274299622 0.000000000000000
1.337292432785034 -14.377819061279297 3.856395483016968 0.000000000000000
0.762793183326721 -19.749279022216797 3.594058036804199 0.003921568859369
-0.452450275421143 -26.179515838623047 -0.314353287220001 0.003921568859369
0.613719046115875 -15.860090255737305 -0.098870240151882 0.000000000000000
1.406400084495544 -16.088512420654297 0.368621736764908 0.003921568859369
0.693965673446655 -19.743379592895508 0.796865284442902 0.003921568859369
0.653747797012329 -17.791305541992188 -0.939795911312103 0.003921568859369
1.282340288162231 -14.309828758239746 1.755048513412476 0.003921568859369
0.678124010562897 -18.980962753295898 1.542354106903076 0.000000000000000
-0.539388418197632 -26.180921554565430 -0.314407914876938 0.003921568859369
0.561052441596985 -15.857089996337891 -0.098850883543491 0.000000000000000
-0.556450307369232 -26.720777511596680 0.301635891199112 0.003921568859369
0.626617610454559 -19.636724472045898 0.792490661144257 0.003921568859369
-0.242649495601654 -16.765073776245117 -0.592734575271606 0.003921568859369
-0.632732868194580 -26.233844757080078 -0.315081864595413 0.003921568859369
0.505531311035156 -15.845958709716797 -0.098783165216446 0.000000000000000
-0.645801186561584 -26.605751037597656 0.300354093313217 0.003921568859369
0.549531579017639 -19.022363662719727 0.767568051815033 0.003921568859369
0.529196560382843 -17.545763015747070 -0.926763713359833 0.003921568859369
0.457751214504242 -16.851633071899414 -0.497408330440521 0.000000000000000
-0.729340791702271 -26.242294311523438 -0.315232336521149 0.003921568859369
1.569129109382629 -21.700094223022461 0.497728615999222 0.003921568859369
-0.751346111297607 -26.809991836547852 0.302712947130203 0.003921568859369
-0.348597407341003 -16.399454116821289 -0.962701261043549 0.003921568859369
0.487766623497009 -19.802524566650391 0.799111306667328 0.003921568859369
1.239547967910767 -16.125875473022461 -0.759185075759888 0.000000000000000
0.475537419319153 -18.589040756225586 -0.981678724288940 0.003921568859369
0.517783761024475 -22.751384735107422 1.848916530609131 0.003921568859369
-0.299111008644104 -15.119109153747559 -0.534936487674713 0.000000000000000
0.494959682226181 -20.533176422119141 3.735890388488770 0.003921568859369
0.398735046386719 -16.824140548706055 -0.496591866016388 0.000000000000000
-0.827514648437500 -26.394441604614258 -0.317096650600433 0.003921568859369
0.461197495460510 -26.122701644897461 -0.161184683442116 0.003921568859369
-0.802625775337219 -25.803163528442383 0.291282773017883 0.003921568859369
1.745392084121704 -13.922512054443359 -0.903261959552765 0.000000000000000
-0.403150558471680 -16.333305358886719 -0.958968043327332 0.003921568859369
0.416678935289383 -19.511354446411133 0.787294209003448 0.003921568859369
0.408763438463211 -18.309980392456055 -0.966957926750183 0.003921568859369
1.072744369506836 -14.147928237915039 1.733623147010803 0.000000000000000
-0.351212739944458 -15.101000785827637 -0.534377992153168 0.000000000000000
1.166614055633545 -15.830893516540527 -0.375566840171814 0.003921568859369
1.121407866477966 -15.973925590515137 -0.006654656957835 0.003921568859369
-0.399873316287994 -15.067120552062988 -0.182147637009621 0.000000000000000
2.227037906646729 -19.129215240478516 0.104373723268509 0.000000000000000
0.374827384948730 -26.199138641357422 -0.161653935909271 0.003921568859369
-0.886551618576050 -25.763456344604492 0.290866583585739 0.003921568859369
0.350656956434250 -19.124000549316406 0.771594703197479 0.003921568859369
0.347238928079605 -18.074617385864258 -0.954550862312317 0.003921568859369
1.739248633384705 -14.322108268737793 -0.592680513858795 0.003921568859369
1.108677625656128 -15.729899406433105 -0.373126357793808 0.003921568859369
0.283373504877090 -26.231290817260742 -0.161856397986412 0.003921568859369
1.321037411689758 -21.208894729614258 0.486109822988510 0.003921568859369
-0.521933913230896 -16.483789443969727 -0.968087434768677 0.003921568859369
0.283900141716003 -19.156085968017578 0.772883057594299 0.003921568859369
1.225320577621460 -19.258062362670898 5.158528327941895 0.003921568859369
0.284075081348419 -15.095640182495117 2.745735406875610 0.000000000000000
1.794878363609314 -16.010276794433594 -0.287308961153030 0.003921568859369
1.267282009124756 -21.743864059448242 0.498341828584671 0.003921568859369
1.178125143051147 -19.765943527221680 -0.929324924945831 0.000000000000000
1.609341502189636 -14.041675567626953 -0.580732583999634 0.003921568859369
-1.206752777099609 -26.568172454833984 0.300174474716187 0.003921568859369
0.118865236639977 -23.003139495849609 1.869319558143616 0.003921568859369
1.948255419731140 -18.321039199829102 -0.756694674491882 0.003921568859369
0.138871937990189 -20.218887329101562 3.678542137145996 0.003921568859369
0.008647024631500 -25.811164855957031 -0.760547220706940 0.003921568859369
0.006163001060486 -26.037794113159180 -0.160714730620384 0.003921568859369
1.111340165138245 -21.642293930053711 0.495842009782791 0.003921568859369
1.790323615074158 -17.251071929931641 0.497036665678024 0.003921568859369
0.852649211883545 -14.865714073181152 1.820187807083130 0.000000000000000
-0.610861301422119 -15.023736953735352 -0.532147347927094 0.003921568859369
1.765732765197754 -17.606903076171875 -0.315441429615021 0.003921568859369
-0.072915494441986 -25.840812683105469 -0.159531340003014 0.003921568859369
-0.760452032089233 -16.649864196777344 0.187222450971603 0.003921568859369
-0.738370776176453 -16.299715042114258 -0.958058774471283 0.003921568859369
0.948282957077026 -18.934499740600586 2.318801641464233 0.003921568859369
-0.033692568540573 -23.001525878906250 1.869306445121765 0.003921568859369
-0.746532797813416 -16.429197311401367 -0.581803202629089 0.003921568859369
1.876907110214233 -19.765209197998047 -0.353689372539520 0.003921568859369
-0.169112205505371 -26.015213012695312 -0.160606667399406 0.003921568859369
-0.769525468349457 -15.915397644042969 0.178892105817795 0.000000000000000
-0.115370839834213 -22.972229003906250 1.867029786109924 0.003921568859369
1.576182126998901 -16.014860153198242 -0.661197364330292 0.003921568859369
-0.065440207719803 -20.145423889160156 3.665629863739014 0.003921568859369
-0.259921133518219 -26.013446807861328 -0.160614266991615 0.003921568859369
-0.213568150997162 -23.819669723510742 1.936123013496399 0.003921568859369
0.751626253128052 -16.616815567016602 -0.393673479557037 0.000000000000000
-0.123803287744522 -16.827312469482422 -0.889161407947540 0.003921568859369
0.660400629043579 -15.253226280212402 1.866868257522583 0.000000000000000
-0.299071609973907 -23.913415908813477 1.943902134895325 0.003921568859369
0.698356866836548 -16.814210891723633 -0.398289173841476 0.000000000000000
-1.186210155487061 -19.229814529418945 0.216827556490898 0.003921568859369
0.665195584297180 -17.748386383056641 -0.834107220172882 0.003921568859369
0.746499121189117 -21.629219055175781 2.648106098175049 0.003921568859369
-0.371087074279785 -23.799854278564453 1.934812307357788 0.003921568859369
0.645950198173523 -16.835390090942383 -0.398764580488205 0.000000000000000
-0.234307527542114 -16.788295745849609 -0.495823413133621 0.000000000000000
0.627640724182129 -19.157550811767578 2.345040082931519 0.003921568859369
-0.323132455348969 -19.617273330688477 1.594499349594116 0.000000000000000
0.586197853088379 -16.780550003051758 -0.397452861070633 0.000000000000000
1.268368959426880 -15.586765289306641 -0.279146790504456 0.003921568859369
-0.634607732295990 -26.330999374389648 -0.162636429071426 0.003921568859369
0.590440511703491 -21.799959182739258 0.499105811119080 0.003921568859369
0.532397150993347 -17.554876327514648 -0.824948549270630 0.000000000000000
0.619952976703644 -23.970264434814453 2.934609889984131 0.003921568859369
-0.573289394378662 -24.583259582519531 1.999031186103821 0.003921568859369
1.493922233581543 -19.186004638671875 -0.790664732456207 0.003921568859369
0.496445596218109 -14.963538169860840 4.003178119659424 0.003921568859369
0.522090554237366 -16.805547714233398 -0.398023366928101 0.000000000000000
-0.728368103504181 -26.375572204589844 -0.162935301661491 0.003921568859369
-0.645838618278503 -24.237480163574219 1.971125364303589 0.003921568859369
1.539515495300293 -21.093158721923828 -0.868826270103455 0.003921568859369
-0.468220055103302 -19.641984939575195 3.576040983200073 0.003921568859369
1.227173566818237 -16.809511184692383 0.090987406671047 0.003921568859369
-0.813184082508087 -26.200004577636719 -0.161897510290146 0.003921568859369
0.442675232887268 -22.461322784423828 0.514274358749390 0.003921568859369
0.441184639930725 -22.249910354614258 1.287455558776855 0.003921568859369
0.415717959403992 -18.431152343750000 -0.865948140621185 0.000000000000000
-0.398912549018860 -16.378496170043945 -0.866041183471680 0.003921568859369
-0.735141813755035 -24.345594406127930 1.980202317237854 0.003921568859369
1.390372276306152 -19.740621566772461 -0.813125729560852 0.003921568859369
-0.536776781082153 -19.639213562011719 3.576035499572754 0.003921568859369
0.466691017150879 -26.019987106323242 -0.614818572998047 0.003921568859369
-0.392996013164520 -15.109748840332031 -0.446761429309845 0.003921568859369
0.327952742576599 -10.107711791992188 -0.005198260769248 0.003921568859369
-1.202658176422119 -15.824240684509277 -0.191867843270302 0.000000000000000
-0.905991017818451 -26.428159713745117 -0.163313463330269 0.003921568859369
0.372354656457901 -22.529672622680664 0.515832245349884 0.003921568859369
-0.452172279357910 -16.416149139404297 -0.868149220943451 0.003921568859369
0.343606412410736 -14.527053833007812 1.777333259582520 0.000000000000000
-0.778580963611603 -23.613407135009766 1.920830130577087 0.003921568859369
1.117977619171143 -15.736867904663086 -0.648627877235413 0.000000000000000
0.289753258228302 -22.777748107910156 0.521529614925385 0.003921568859369
-0.598192512989044 -18.163093566894531 0.733496546745300 0.003921568859369
0.290261209011078 -18.355649948120117 -0.862403273582458 0.000000000000000
-0.515466630458832 -16.477144241333008 -0.871520102024078 0.003921568859369
-0.867074668407440 -23.649147033691406 1.924067378044128 0.003921568859369
1.073153734207153 -16.003253936767578 -0.659447908401489 0.003921568859369
-1.236351013183594 -15.571290016174316 -0.553144872188568 0.003921568859369
-0.489067256450653 -14.924921035766602 -0.441485583782196 0.000000000000000
-1.296135902404785 -15.646289825439453 -0.189874127507210 0.003921568859369
-0.588894128799438 -16.832443237304688 -0.104994639754295 0.000000000000000
1.285943627357483 -21.852071762084961 0.628448665142059 0.003921568859369
0.241904228925705 -14.610437393188477 1.787539482116699 0.000000000000000
-0.940072119235992 -23.541654586791992 1.915627002716064 0.003921568859369
1.146156549453735 -18.776559829711914 -0.773166239261627 0.003921568859369
-1.505528926849365 -17.709789276123047 -0.628968358039856 0.003921568859369
-0.652439355850220 -18.042123794555664 3.286580324172974 0.003921568859369
-0.087265074253082 -6.769047260284424 -0.043771311640739 0.000000000000000
0.133959904313087 -22.321310043334961 0.511026620864868 0.003921568859369
-1.499958038330078 -17.032686233520508 0.192226558923721 0.003921568859369
0.152911975979805 -19.657728195190430 -0.923430740833282 0.000000000000000
0.189170286059380 -14.495020866394043 1.773428082466125 0.000000000000000
-1.035264492034912 -23.696205139160156 1.928596615791321 0.003921568859369
0.107772827148438 -26.039915084838867 -0.615320801734924 0.003921568859369
-0.696549296379089 -16.715002059936523 -0.494331955909729 0.003921568859369
0.017765134572983 -26.527276992797852 0.607814908027649 0.003921568859369
1.141979694366455 -22.022441864013672 0.633163571357727 0.003921568859369
-1.410727858543396 -15.716131210327148 -0.927500545978546 0.000000000000000
-0.677305340766907 -16.392026901245117 -0.867534160614014 0.003921568859369
0.150052979588509 -13.974985122680664 3.738374471664429 0.003921568859369
-0.074943929910660 -26.534135818481445 0.607990980148315 0.003921568859369
-0.800559163093567 -17.434902191162109 0.704522371292114 0.003921568859369
-0.643603920936584 -14.945388793945312 -0.791372478008270 0.000000000000000
0.099860504269600 -14.074840545654297 3.765261411666870 0.000000000000000
0.797704100608826 -15.857416152954102 -0.283586502075195 0.003921568859369
-0.160572141408920 -26.396810531616211 0.604855358600616 0.003921568859369
-2.018225431442261 -20.033021926879883 0.226789847016335 0.003921568859369
-0.877647161483765 -17.722204208374023 0.302739173173904 0.003921568859369
-0.844349265098572 -17.219800949096680 0.695944488048553 0.003921568859369
-0.090865373611450 -22.373079299926758 2.738997697830200 0.003921568859369
-0.993840098381042 -19.472480773925781 1.585365653038025 0.000000000000000
-0.812817215919495 -15.864647865295410 -0.099229201674461 0.000000000000000
-1.607861399650574 -15.970964431762695 -0.943630695343018 0.003921568859369
-0.164005100727081 -21.950744628906250 2.687428236007690 0.003921568859369
-1.041528105735779 -19.129564285278320 1.557786822319031 0.000000000000000
0.831398367881775 -21.908172607421875 0.629558563232422 0.003921568859369
-1.703046202659607 -16.285247802734375 -0.962557911872864 0.003921568859369
-0.288086622953415 -23.888467788696289 1.382779121398926 0.003921568859369
-0.285521656274796 -23.778760910034180 2.911669254302979 0.003921568859369
-0.167279720306396 -18.950727462768555 5.071522712707520 0.003921568859369
0.774508833885193 -22.470378875732422 0.122255004942417 0.003921568859369
0.764689922332764 -22.009672164916992 0.632435262203217 0.003921568859369
-1.171382904052734 -19.160684585571289 0.327749758958817 0.003921568859369
-1.742211937904358 -16.183795928955078 -0.956953644752502 0.003921568859369
-0.373071998357773 -24.245769500732422 1.403608679771423 0.003921568859369
-0.362745255231857 -23.868097305297852 2.922851324081421 0.003921568859369
-1.167453169822693 -19.108333587646484 1.556804537773132 0.000000000000000
0.671911478042603 -17.628997802734375 -0.725525736808777 0.003921568859369
-0.212260931730270 -18.423877716064453 4.930858612060547 0.003921568859369
-1.021354794502258 -17.201696395874023 3.138249635696411 0.003921568859369
-0.063546866178513 -11.601590156555176 -0.817307710647583 0.000000000000000
0.693308115005493 -22.318992614746094 0.641308367252350 0.003921568859369
-1.054745793342590 -16.867126464843750 0.288285851478577 0.003921568859369
-1.258987188339233 -19.413499832153320 0.785707354545593 0.003921568859369
-0.431459814310074 -23.397373199462891 2.865445375442505 0.003921568859369
-1.190800428390503 -18.562627792358398 1.512682199478149 0.000000000000000
0.589833736419678 -16.471351623535156 -0.678011536598206 0.003921568859369
-1.049929141998291 -16.804714202880859 3.066602945327759 0.003921568859369
0.607070267200470 -22.001268386840820 0.119618915021420 0.003921568859369
-0.294990330934525 -17.020948410034180 0.389259606599808 0.000000000000000
0.613076925277710 -22.432235717773438 0.644529938697815 0.003921568859369
-1.113295555114746 -16.822868347167969 0.680717885494232 0.003921568859369
-0.525916457176208 -23.644523620605469 2.896083593368530 0.003921568859369
0.530732989311218 -22.046209335327148 0.119856171309948 0.003921568859369
0.507464408874512 -19.846418380737305 0.569906771183014 0.003921568859369
-0.619244337081909 -23.923191070556641 2.930613756179810 0.003921568859369
-1.371497035026550 -19.099594116210938 1.557439684867859 0.000000000000000
-1.067710757255554 -15.020914077758789 -0.797082126140594 0.000000000000000
-0.702745437622070 -23.919845581054688 2.930607318878174 0.003921568859369
-0.304472893476486 -14.395946502685547 3.854175567626953 0.000000000000000
-0.876597762107849 -26.014387130737305 0.596516549587250 0.003921568859369
0.382759153842926 -22.618211746215820 0.649813771247864 0.003921568859369
-1.853894591331482 -14.960459709167480 -0.534473717212677 0.000000000000000
-0.350112289190292 -14.347549438476562 3.841761112213135 0.000000000000000
-0.515998721122742 -16.671918869018555 -0.006980123929679 0.003921568859369
0.299842268228531 -22.430448532104492 0.644386231899261 0.003921568859369
-0.504527568817139 -16.438152313232422 -0.773565053939819 0.000000000000000
-1.185006141662598 -15.138227462768555 -0.803821980953217 0.000000000000000
-0.452832430601120 -15.371672630310059 4.116868495941162 0.003921568859369
-1.045716762542725 -25.797655105590820 0.591720581054688 0.003921568859369
-0.628194093704224 -17.819837570190430 -0.838519811630249 0.000000000000000
-0.152348697185516 -8.722531318664551 1.067569732666016 0.000000000000000
0.250941872596741 -15.634551048278809 -0.643629193305969 0.000000000000000
-1.981629490852356 -15.122545242309570 -0.540808677673340 0.003921568859369
-0.482154458761215 -15.021677017211914 4.023782730102539 0.000000000000000
0.123445898294449 -26.198753356933594 0.142872676253319 0.003921568859369
-1.167410850524902 -26.359752655029297 0.604777097702026 0.003921568859369
-1.480022192001343 -16.988365173339844 0.688784420490265 0.003921568859369
-0.612007975578308 -16.412202835083008 -0.772636651992798 0.000000000000000
-0.494726449251175 -14.305118560791016 3.832442045211792 0.000000000000000
-2.152264833450317 -15.517447471618652 -0.189729303121567 0.000000000000000
-2.034584760665894 -14.774241447448730 -0.877776145935059 0.000000000000000
-0.668347001075745 -16.392950057983398 -0.771892130374908 0.000000000000000
-1.731412768363953 -18.751287460327148 1.532113552093506 0.000000000000000
-0.776762127876282 -18.213434219360352 4.881170749664307 0.003921568859369
-0.671358227729797 -15.569249153137207 -0.006706584710628 0.000000000000000
-1.773628354072571 -18.566141128540039 1.517512202262878 0.000000000000000
-0.834974169731140 -18.175045013427734 4.871858119964600 0.003921568859369
-0.640056252479553 -15.070050239562988 -0.357940495014191 0.000000000000000
0.206173241138458 -5.638842105865479 0.028732210397720 0.000000000000000
-1.981575608253479 -19.769144058227539 0.339457929134369 0.003921568859369
-1.788544297218323 -18.098991394042969 1.479879260063171 0.000000000000000
-2.862077951431274 -19.135601043701172 -0.685157656669617 0.003921568859369
-1.828965783119202 -18.447641372680664 3.378209114074707 0.003921568859369
0.134887441992760 -8.112738609313965 -0.146340206265450 0.000000000000000
-0.240828782320023 -26.121692657470703 0.142441913485527 0.003921568859369
-1.689037680625916 -16.726961135864258 0.286940217018127 0.003921568859369
-2.412811040878296 -16.071874618530273 -0.956285893917084 0.003921568859369
-1.018877744674683 -18.941751480102539 1.098189949989319 0.003921568859369
-1.513057470321655 -15.250605583190918 -0.811625599861145 0.000000000000000
-2.986159324645996 -19.463411331176758 -0.697259366512299 0.003921568859369
0.099708527326584 -8.455813407897949 -0.546892940998077 0.000000000000000
-1.776680827140808 -16.982774734497070 0.689899325370789 0.003921568859369
-0.988595008850098 -17.664110183715820 2.167357444763184 0.003921568859369
-0.103791505098343 -16.872663497924805 -0.694622457027435 0.003921568859369
-0.428688257932663 -26.481231689453125 0.144447296857834 0.003921568859369
-1.204570531845093 -19.672887802124023 1.141238927841187 0.000000000000000
-1.621819853782654 -15.277511596679688 -0.813735663890839 0.003921568859369
-0.162134945392609 -16.851161956787109 -0.693807959556580 0.003921568859369
-1.889343619346619 -17.397840499877930 3.189780473709106 0.003921568859369
-0.518858313560486 -26.554618835449219 0.144861921668053 0.003921568859369
-1.223176836967468 -19.085702896118164 0.437865883111954 0.003921568859369
-2.309532642364502 -14.562130928039551 0.165651276707649 0.003921568859369
-1.330479979515076 -19.526296615600586 0.448163688182831 0.000000000000000
-1.041728496551514 -16.077852249145508 -0.758442401885986 0.003921568859369
-1.157928824424744 -17.463651657104492 2.144482851028442 0.003921568859369
-0.993201375007629 -15.494214057922363 4.159235954284668 0.003921568859369
-0.330355256795883 -16.629064559936523 -0.297429680824280 0.003921568859369
-0.714956164360046 -26.707933425903320 0.145734548568726 0.003921568859369
-0.273514419794083 -15.140031814575195 -0.623844921588898 0.000000000000000
-2.520816564559937 -15.116570472717285 -0.543786525726318 0.003921568859369
-1.297136902809143 -18.353513717651367 4.928710937500000 0.003921568859369
-2.124182701110840 -17.759925842285156 3.260695695877075 0.003921568859369
-0.337635546922684 -15.407999992370605 -0.275820940732956 0.000000000000000
-0.790697455406189 -26.284582138061523 0.143396884202957 0.003921568859369
-2.569077730178833 -15.083054542541504 -0.542944490909576 0.003921568859369
-1.360139489173889 -18.336269378662109 4.925604343414307 0.003921568859369
-2.498821973800659 -14.484952926635742 0.165189266204834 0.003921568859369
-2.173923015594482 -17.291948318481445 0.704438984394073 0.003921568859369
-1.408259510993958 -18.261405944824219 4.906984806060791 0.003921568859369
-0.435894042253494 -15.393468856811523 0.082933798432350 0.003921568859369
-2.243582963943481 -17.346435546875000 0.707023859024048 0.003921568859369
-2.091949701309204 -16.317028045654297 -0.871407270431519 0.003921568859369
-0.491268485784531 -15.370658874511719 0.082818567752838 0.000000000000000
-2.756809949874878 -15.231472969055176 -0.911679327487946 0.003921568859369
-2.635839223861694 -14.384059906005859 -0.861681282520294 0.000000000000000
-1.343819022178650 -15.804024696350098 -0.747043907642365 0.003921568859369
-2.384180307388306 -17.454669952392578 1.434430360794067 0.000000000000000
-2.876715421676636 -15.288426399230957 -0.916355907917023 0.003921568859369
-1.557882428169250 -17.265850067138672 1.004160642623901 0.000000000000000
-2.426338434219360 -17.326639175415039 0.707338452339172 0.003921568859369
-2.659127950668335 -14.244565010070801 -0.514674961566925 0.003921568859369
-0.633131384849548 -15.099964141845703 -0.270670473575592 0.000000000000000
-1.326202750205994 -26.192304611206055 0.143002808094025 0.003921568859369
-0.800990223884583 -17.785690307617188 0.511332452297211 0.003921568859369
-0.618586778640747 -14.867977142333984 -0.961277306079865 0.000000000000000
-1.563941836357117 -16.260118484497070 -0.006964862346649 0.003921568859369
-2.204772949218750 -15.232913017272949 0.622254133224487 0.000000000000000
-1.678229570388794 -16.737611770629883 0.385117471218109 0.003921568859369
-3.143615722656250 -15.741761207580566 -0.945566892623901 0.003921568859369
-2.622980594635010 -17.387832641601562 1.432148456573486 0.003921568859369
-1.967864513397217 -19.173227310180664 5.165517330169678 0.003921568859369
-0.810423016548157 -15.352512359619141 -0.275359302759171 0.000000000000000
-2.422123670578003 -15.859749794006348 0.273976922035217 0.003921568859369
-0.910580396652222 -15.956898689270020 0.086185865104198 0.003921568859369
-0.967462420463562 -16.700006484985352 0.480414777994156 0.003921568859369
-3.041244506835938 -19.055450439453125 0.780433237552643 0.003921568859369
-2.404098510742188 -15.123496055603027 -0.453923791646957 0.003921568859369
-2.917369127273560 -14.008159637451172 -0.843701779842377 0.000000000000000
-2.852146625518799 -17.619575500488281 0.721879124641418 0.003921568859369
-2.920000791549683 -14.019538879394531 -0.508916139602661 0.003921568859369
-2.191820144653320 -19.328426361083984 5.214115142822266 0.003921568859369
-2.420954942703247 -14.917576789855957 0.258026033639908 0.003921568859369
-3.014810800552368 -18.160881042480469 1.499607801437378 0.003921568859369
-2.225138664245605 -19.062950134277344 5.144817352294922 0.003921568859369
-2.746546030044556 -16.695289611816406 3.087288618087769 0.003921568859369
-0.996673703193665 -15.115463256835938 -0.979026973247528 0.000000000000000
