# This PCD file was generated using the MATLAB® pcwrite function
# from Computer Vision Toolbox®.
# .PCD v.7 - Point Cloud Data file format
VERSION .7
FIELDS x y z intensity
SIZE 8 8 8 8
TYPE F F F F
COUNT 1 1 1 1
WIDTH 631
HEIGHT 1
VIEWPOINT 0 0 0 1 0 0 0
POINTS 631
DATA ascii
-3.416855573654175 -26.178464889526367 -0.326617062091827 0.003921568859369
-1.992199301719666 -16.164262771606445 0.177033811807632 0.003921568859369
-0.427718549966812 -16.837083816528320 -0.800069093704224 0.003921568859369
-1.276560068130493 -17.098503112792969 1.387369632720947 0.003921568859369
-2.040650606155396 -16.499288558959961 -0.595217525959015 0.003921568859369
-0.437867313623428 -17.078771591186523 -0.412956655025482 0.000000000000000
-1.016566395759583 -13.750284194946289 -0.414287239313126 0.003921568859369
-3.519177913665771 -26.240509033203125 -0.327449023723602 0.003921568859369
-1.757850050926208 -21.460384368896484 -0.142314419150352 0.003921568859369
-3.587824821472168 -26.715898513793945 0.295310765504837 0.003921568859369
-1.433484435081482 -18.104875564575195 1.469797849655151 0.000000000000000
-1.300678014755249 -16.084661483764648 -0.484091132879257 0.000000000000000
-3.612960815429688 -26.210491180419922 -0.327152967453003 0.003921568859369
-1.266785264015198 -15.749176025390625 -0.105424448847771 0.000000000000000
-1.520918488502502 -18.302082061767578 0.734340965747833 0.003921568859369
-2.114313125610352 -16.185564041137695 -0.584456264972687 0.003921568859369
-1.350013732910156 -16.074983596801758 -0.484122335910797 0.000000000000000
-3.727061986923218 -26.386436462402344 -0.329661756753922 0.003921568859369
-1.577542781829834 -18.287656784057617 0.733859121799469 0.003921568859369
-0.686941623687744 -18.420194625854492 -0.875451505184174 0.003921568859369
-1.173688650131226 -14.366902351379395 -0.769717693328857 0.003921568859369
-1.707737922668457 -19.555370330810547 1.588893890380859 0.000000000000000
-2.218865633010864 -16.532649993896484 -0.597351193428040 0.003921568859369
-1.398218393325806 -16.021671295166016 -0.482640951871872 0.000000000000000
-2.217189788818359 -16.165897369384766 -0.203505754470825 0.003921568859369
-1.456725120544434 -16.573348999023438 -0.110913917422295 0.000000000000000
-3.737268209457397 -25.883335113525391 0.286476880311966 0.003921568859369
-0.608565568923950 -15.995500564575195 -0.760807573795319 0.003921568859369
-1.388900279998779 -15.930755615234375 -0.853323638439178 0.003921568859369
-3.883186578750610 -26.212202072143555 -0.327662318944931 0.003921568859369
-1.453204631805420 -16.017856597900391 0.642882406711578 0.003921568859369
-3.971472978591919 -26.149282455444336 -0.326972782611847 0.003921568859369
-1.525729179382324 -16.129138946533203 0.269702702760696 0.003921568859369
-1.341263294219971 -14.501366615295410 -0.777606964111328 0.003921568859369
-1.414627075195312 -14.736445426940918 -0.444581985473633 0.000000000000000
-4.030533313751221 -25.997617721557617 -0.325176775455475 0.003921568859369
-4.107697963714600 -26.463582992553711 0.293776214122772 0.003921568859369
-1.863515615463257 -18.577787399291992 0.746954143047333 0.003921568859369
-1.257510900497437 -13.393213272094727 -0.718694329261780 0.000000000000000
-2.296941280364990 -22.286062240600586 1.814347267150879 0.003921568859369
-4.156917572021484 -26.191261291503906 -0.327661305665970 0.003921568859369
-4.083661079406738 -25.765890121459961 0.286198586225510 0.003921568859369
-1.931223392486572 -18.593883514404297 0.747985184192657 0.003921568859369
-0.953205287456512 -17.762516021728516 2.170954465866089 0.003921568859369
-0.993108451366425 -18.284065246582031 -0.442272752523422 0.003921568859369
-4.194758892059326 -25.868160247802734 -0.323760479688644 0.003921568859369
-4.269681453704834 -26.302040100097656 0.292512685060501 0.003921568859369
-1.996603727340698 -18.589904785156250 0.748214304447174 0.003921568859369
-2.621959447860718 -23.632293701171875 1.925977945327759 0.003921568859369
-0.781660258769989 -13.924939155578613 -0.012792260386050 0.000000000000000
-4.356844425201416 -26.229490280151367 -0.328333169221878 0.003921568859369
-1.711001634597778 -15.810564041137695 -0.105888254940510 0.000000000000000
-4.349934577941895 -26.194499969482422 0.291596770286560 0.003921568859369
-2.205230712890625 -19.679464340209961 0.792737305164337 0.003921568859369
-1.393963336944580 -21.750900268554688 2.660868644714355 0.003921568859369
-2.692368984222412 -23.494825363159180 1.915730476379395 0.003921568859369
-1.873656034469604 -16.617280960083008 -0.501458704471588 0.000000000000000
-4.454918384552002 -26.252834320068359 0.292541354894638 0.003921568859369
-1.865121126174927 -16.138422012329102 -0.487275838851929 0.000000000000000
-4.504705905914307 -26.031919479370117 -0.326092153787613 0.003921568859369
-1.820712566375732 -15.812279701232910 -0.105876132845879 0.003921568859369
-4.546316146850586 -26.260475158691406 0.292903840541840 0.003921568859369
-2.252360105514526 -19.024787902832031 1.552049875259399 0.000000000000000
-1.866590499877930 -15.734682083129883 -0.475348055362701 0.000000000000000
-1.132645606994629 -16.251554489135742 0.365530967712402 0.003921568859369
-0.964653909206390 -14.403764724731445 3.861047506332397 0.003921568859369
-1.061963319778442 -14.836326599121094 -0.013175410218537 0.003921568859369
-2.039505481719971 -16.533971786499023 -0.888714849948883 0.003921568859369
-0.278178751468658 -13.555374145507812 -0.565820097923279 0.000000000000000
-1.163522958755493 -15.980488777160645 4.285606384277344 0.003921568859369
-0.950848042964935 -13.633543968200684 -0.331031084060669 0.003921568859369
-2.055798530578613 -16.288412094116211 -0.492504656314850 0.003921568859369
-1.286933183670044 -16.698827743530273 -0.014505423605442 0.003921568859369
-1.631942391395569 -9.949648857116699 -0.127277836203575 0.000000000000000
-1.532049179077148 -19.237499237060547 -0.916399180889130 0.003921568859369
-1.670365214347839 -20.713911056518555 2.537817001342773 0.003921568859369
-3.051193714141846 -23.135013580322266 1.891038894653320 0.003921568859369
-1.019989013671875 -13.919629096984863 -0.338147819042206 0.000000000000000
-2.150508403778076 -16.553310394287109 -0.500632822513580 0.000000000000000
-1.341506361961365 -16.685451507568359 -0.014441395178437 0.003921568859369
-3.616377592086792 -26.383440017700195 -0.174295127391815 0.003921568859369
-2.300646305084229 -17.556606292724609 -0.944448173046112 0.003921568859369
-1.838208556175232 -14.471987724304199 1.182099103927612 0.000000000000000
-3.037057638168335 -16.817508697509766 -0.611727595329285 0.003921568859369
-2.182148694992065 -16.354440689086914 -0.494870752096176 0.000000000000000
-1.942036032676697 -21.909873962402344 0.494877159595490 0.003921568859369
-2.452554941177368 -18.119421005249023 -0.975062727928162 0.003921568859369
-1.877982735633850 -14.377276420593262 1.175047874450684 0.000000000000000
-3.101860761642456 -16.820762634277344 -0.612223923206329 0.003921568859369
-2.219441413879395 -16.219205856323242 -0.491011470556259 0.000000000000000
-3.789614200592041 -26.255811691284180 -0.173448547720909 0.003921568859369
-1.121152400970459 -13.481472015380859 -0.960453152656555 0.000000000000000
-1.934930682182312 -14.412842750549316 1.178658485412598 0.000000000000000
-1.096837162971497 -13.299220085144043 3.570879936218262 0.000000000000000
-3.776150703430176 -19.476530075073242 -0.245761528611183 0.003921568859369
-2.233205556869507 -15.981028556823730 -0.107100732624531 0.000000000000000
-2.212642908096313 -23.042772293090820 1.331774830818176 0.003921568859369
-2.570151090621948 -18.084867477416992 -0.974083125591278 0.003921568859369
-2.077376604080200 -21.825490951538086 2.678291320800781 0.003921568859369
-3.549920558929443 -24.240531921386719 1.986086964607239 0.003921568859369
-0.305933803319931 -5.700403213500977 1.528896212577820 0.000000000000000
-0.696943879127502 -15.820689201354980 -0.291176825761795 0.003921568859369
-1.886724591255188 -19.450735092163086 1.124073863029480 0.000000000000000
-2.615235805511475 -17.964296340942383 -0.968088746070862 0.003921568859369
-3.692943096160889 -24.584943771362305 2.015594720840454 0.003921568859369
-3.757853507995605 -19.056427001953125 -0.694309473037720 0.003921568859369
-0.563266634941101 -5.410601615905762 0.992456495761871 0.000000000000000
-1.631525754928589 -16.645980834960938 -0.014124202542007 0.003921568859369
-3.981327533721924 -19.751905441284180 0.221282184123993 0.003921568859369
-1.310556769371033 -13.897896766662598 -0.990982532501221 0.000000000000000
-1.559009432792664 -16.020221710205078 -0.765124857425690 0.000000000000000
-1.903908610343933 -18.992063522338867 2.332127571105957 0.003921568859369
-3.756757736206055 -24.412767410278320 2.002765417098999 0.003921568859369
-3.836180210113525 -19.080415725708008 -0.695645153522491 0.003921568859369
-3.097285509109497 -20.476743698120117 3.769223690032959 0.003921568859369
-4.145177841186523 -26.161180496215820 -0.172816678881645 0.003921568859369
-1.623519778251648 -16.094909667968750 0.363505393266678 0.000000000000000
-2.800845146179199 -18.277526855468750 -0.985926866531372 0.003921568859369
-3.313343048095703 -16.403987884521484 -0.599005997180939 0.003921568859369
-1.564828038215637 -15.602077484130859 -0.379125565290451 0.000000000000000
-4.179776191711426 -25.846746444702148 -0.170785993337631 0.003921568859369
-2.462665319442749 -22.422183990478516 0.508234381675720 0.003921568859369
-3.384273290634155 -16.463418960571289 -0.995030939579010 0.003921568859369
-2.048009634017944 -19.085742950439453 1.104500651359558 0.003921568859369
-1.978115916252136 -18.505100250244141 -0.883780002593994 0.000000000000000
-2.870347023010254 -18.318243026733398 -0.988609015941620 0.003921568859369
-4.371127605438232 -26.373540878295898 -0.174188345670700 0.003921568859369
-2.070252656936646 -18.686792373657227 -0.892754912376404 0.000000000000000
-2.509458780288696 -22.153968811035156 2.724792003631592 0.003921568859369
-3.156796216964722 -19.556194305419922 1.606701374053955 0.000000000000000
-3.139831304550171 -15.119558334350586 -0.553151071071625 0.003921568859369
-2.481451511383057 -15.766716957092285 2.906772375106812 0.003921568859369
-4.383897304534912 -25.920150756835938 -0.171264290809631 0.003921568859369
-0.794860601425171 -13.585758209228516 -0.886383771896362 0.003921568859369
-2.680787563323975 -22.860433578491211 2.813167572021484 0.003921568859369
-4.108578681945801 -24.416221618652344 2.008320093154907 0.003921568859369
-2.304650306701660 -14.200122833251953 1.167139410972595 0.000000000000000
-1.021770596504211 -15.141580581665039 -0.279177963733673 0.003921568859369
-4.666447162628174 -20.820493698120117 0.234935194253922 0.003921568859369
-3.372321605682373 -19.623331069946289 3.625717401504517 0.003921568859369
-1.944553613662720 -16.390733718872070 -0.398868083953857 0.000000000000000
-0.946238994598389 -13.775047302246094 -0.254367530345917 0.000000000000000
-3.377243518829346 -15.218786239624023 -0.193833634257317 0.003921568859369
-0.930166602134705 -13.593446731567383 -0.887717664241791 0.003921568859369
-2.008625268936157 -16.448635101318359 -0.787700176239014 0.000000000000000
-1.734632253646851 -14.537453651428223 1.790035724639893 0.003921568859369
-2.460433959960938 -14.510368347167969 1.194250702857971 0.000000000000000
-3.438106536865234 -19.614810943603516 3.626508235931396 0.003921568859369
-2.017992734909058 -16.517732620239258 -0.402051120996475 0.000000000000000
-1.530770540237427 -19.367958068847656 -0.356068104505539 0.003921568859369
-1.555284619331360 -9.609375953674316 -0.066098831593990 0.000000000000000
-3.348063945770264 -25.267684936523438 0.575178146362305 0.003921568859369
-1.088486552238464 -14.745249748229980 -0.962856352329254 0.000000000000000
-2.381789207458496 -18.611108779907227 -0.891104519367218 0.000000000000000
-2.972938776016235 -16.848016738891602 -0.912867426872253 0.003921568859369
-1.564681768417358 -19.716547012329102 -0.823649644851685 0.003921568859369
-1.041980624198914 -13.761856079101562 -0.254190355539322 0.000000000000000
-1.838264465332031 -10.854106903076172 -0.074148647487164 0.000000000000000
-3.707244634628296 -27.074159622192383 0.617010056972504 0.003921568859369
-0.147922843694687 -2.375221490859985 0.093411475419998 0.000000000000000
-1.789301395416260 -14.208528518676758 1.751337170600891 0.000000000000000
-3.607906818389893 -19.741765975952148 1.628634572029114 0.003921568859369
-3.078201770782471 -16.766393661499023 -0.510853052139282 0.000000000000000
-3.074353218078613 -22.296720504760742 1.296437263488770 0.003921568859369
-2.178339719772339 -16.407505035400391 -0.786752223968506 0.000000000000000
-1.174075722694397 -14.570398330688477 -0.610022187232971 0.003921568859369
-3.614338874816895 -19.431573867797852 3.600276708602905 0.003921568859369
-2.242707967758179 -16.832262039184570 -0.410057634115219 0.000000000000000
-1.345195651054382 -15.724805831909180 -0.289961308240891 0.000000000000000
-4.760579109191895 -19.716987609863281 -0.250469535589218 0.003921568859369
-2.003073215484619 -21.927665710449219 0.623878598213196 0.003921568859369
-1.115791916847229 -13.558979034423828 -0.886479616165161 0.003921568859369
-2.674693822860718 -19.247116088867188 1.119221210479736 0.000000000000000
-3.427629947662354 -18.185644149780273 0.742870330810547 0.003921568859369
-1.133345127105713 -7.064752578735352 -0.385808527469635 0.000000000000000
-3.711572408676147 -19.566144943237305 1.616503000259399 0.003921568859369
-2.547199726104736 -18.457702636718750 4.989796161651611 0.003921568859369
-2.297897100448608 -16.819700241088867 -0.409899026155472 0.000000000000000
-3.810762643814087 -15.806475639343262 -0.201696515083313 0.003921568859369
-3.735186815261841 -19.329582214355469 -0.128965526819229 0.000000000000000
-3.843474626541138 -26.138706207275391 0.596812188625336 0.003921568859369
-3.788189649581909 -25.798585891723633 1.502475619316101 0.003921568859369
-1.930487632751465 -14.154612541198730 1.747621059417725 0.000000000000000
-3.763458490371704 -19.473892211914062 1.610115051269531 0.000000000000000
-1.440723419189453 -16.085378646850586 -0.673399329185486 0.003921568859369
-3.854454278945923 -15.971663475036621 -0.588099122047424 0.003921568859369
-1.507285714149475 -16.149572372436523 -0.297789871692657 0.003921568859369
-3.801823854446411 -19.295013427734375 -0.128755733370781 0.000000000000000
-2.218507051467896 -22.426912307739258 0.638855278491974 0.003921568859369
-1.296542882919312 -14.286032676696777 -0.934418499469757 0.000000000000000
-2.011754751205444 -14.326501846313477 1.770000457763672 0.000000000000000
-3.843137979507446 -19.497756958007812 1.613433241844177 0.003921568859369
-3.551136970520020 -18.142263412475586 3.368705511093140 0.003921568859369
-1.596568346023560 -16.449275970458984 -0.303296267986298 0.003921568859369
-3.603789806365967 -18.073604583740234 -0.551663577556610 0.000000000000000
-1.518000960350037 -15.780364990234375 0.078540913760662 0.000000000000000
-4.118543148040771 -26.665145874023438 0.609822869300842 0.003921568859369
-1.543776869773865 -16.004566192626953 0.455001115798950 0.003921568859369
-4.080417633056641 -26.442808151245117 1.542063355445862 0.003921568859369
-3.968696355819702 -19.775329589843750 3.675001144409180 0.003921568859369
-1.568294405937195 -15.734120368957520 0.078393973410130 0.000000000000000
-3.888174772262573 -19.063381195068359 -0.127287209033966 0.000000000000000
-4.085416316986084 -25.908325195312500 0.592855989933014 0.003921568859369
-4.043368339538574 -25.667470932006836 1.497716784477234 0.003921568859369
-3.657884120941162 -18.026088714599609 0.738826870918274 0.003921568859369
-3.609188079833984 -17.796630859375000 -0.968397915363312 0.003921568859369
-2.152494192123413 -14.564671516418457 1.801653504371643 0.003921568859369
-4.092717647552490 -19.998369216918945 1.657579064369202 0.003921568859369
-1.900997877120972 -18.490409851074219 -0.774200856685638 0.003921568859369
-2.179738044738770 -14.739414215087891 3.993133544921875 0.003921568859369
-2.565490245819092 -13.092730522155762 2.433701038360596 0.000000000000000
-4.208016872406006 -26.077943801879883 0.597228765487671 0.003921568859369
-1.671191811561584 -16.118103027343750 0.458770483732224 0.003921568859369
-4.161654472351074 -25.817304611206055 1.507493615150452 0.003921568859369
-3.593760967254639 -17.446630477905273 0.715580582618713 0.003921568859369
-1.990603685379028 -18.684804916381836 -0.782557845115662 0.003921568859369
-2.538088083267212 -22.472988128662109 0.641590535640717 0.003921568859369
-3.656416416168213 -17.440635681152344 0.715974628925323 0.003921568859369
-3.673745393753052 -17.507829666137695 -0.954092085361481 0.003921568859369
-2.322043418884277 -14.930130958557129 1.849328517913818 0.000000000000000
-4.231329917907715 -19.963140487670898 1.657420992851257 0.003921568859369
-4.137932300567627 -19.265336990356445 0.331331253051758 0.003921568859369
-4.284608364105225 -19.904424667358398 1.653768062591553 0.003921568859369
-1.994116544723511 -17.748838424682617 -0.744288265705109 0.003921568859369
-3.728611946105957 -17.516668319702148 3.265158176422119 0.003921568859369
-1.761742115020752 -15.557097434997559 -0.287573099136353 0.000000000000000
-4.554264068603516 -26.461629867553711 0.607295691967010 0.003921568859369
-4.165706157684326 -19.088768005371094 1.587213039398193 0.003921568859369
-1.921007633209229 -16.312845230102539 0.081738479435444 0.000000000000000
-4.695432662963867 -26.703790664672852 0.613402545452118 0.003921568859369
-4.280699729919434 -19.268665313720703 0.332106173038483 0.003921568859369
-3.469264984130859 -20.195125579833984 1.181459426879883 0.003921568859369
-2.545919418334961 -15.295704841613770 1.898358464241028 0.000000000000000
-4.101479053497314 -18.526229858398438 1.541679501533508 0.000000000000000
-3.556351184844971 -20.647026062011719 -0.504422783851624 0.003921568859369
-1.587026715278625 -10.017776489257812 -0.009586175903678 0.003921568859369
-1.983438730239868 -16.384901046752930 0.082214437425137 0.000000000000000
-4.732664108276367 -26.444347381591797 0.607867240905762 0.003921568859369
-3.528182983398438 -20.159545898437500 1.180152416229248 0.003921568859369
-3.739048480987549 -16.775032043457031 0.690838456153870 0.003921568859369
-2.009772539138794 -16.564922332763672 -0.695672392845154 0.003921568859369
-2.096899271011353 -16.762094497680664 -0.309770405292511 0.003921568859369
-2.041190624237061 -16.380676269531250 0.082301177084446 0.000000000000000
-4.740160465240479 -25.997709274291992 1.524233460426331 0.003921568859369
-2.959331035614014 -16.858589172363281 -0.813448190689087 0.000000000000000
-2.468696117401123 -14.360467910766602 1.784423947334290 0.003921568859369
-3.848120212554932 -16.978227615356445 3.175286054611206 0.003921568859369
-2.022665262222290 -15.859465599060059 -0.293392032384872 0.003921568859369
-1.022324204444885 -6.812827587127686 0.153867080807686 0.000000000000000
-2.535819292068481 -14.436272621154785 1.795161604881287 0.000000000000000
-4.415459632873535 -18.987073898315430 1.584295749664307 0.000000000000000
-1.948532104492188 -11.255212783813477 -0.010139364749193 0.003921568859369
-3.650628089904785 -19.663286209106445 1.153676867485046 0.003921568859369
-3.217151403427124 -17.225549697875977 0.395940482616425 0.000000000000000
-2.654140949249268 -14.501441955566406 1.805960655212402 0.000000000000000
-2.176916360855103 -16.119922637939453 -0.678228974342346 0.003921568859369
-3.904887199401855 -20.557928085327148 -0.503526508808136 0.003921568859369
-1.746017932891846 -13.053403854370117 -0.242424368858337 0.000000000000000
-3.592457771301270 -15.016825675964355 -0.462969958782196 0.003921568859369
-3.989220142364502 -20.600252151489258 -0.995541632175446 0.003921568859369
-2.705554485321045 -14.494810104370117 1.806506872177124 0.003921568859369
-1.230823040008545 -5.985831737518311 1.120946764945984 0.000000000000000
-1.255980134010315 -5.990329742431641 -0.187264144420624 0.000000000000000
-3.876344680786133 -25.859369277954102 0.133161783218384 0.003921568859369
-3.529704570770264 -18.105878829956055 1.064490199089050 0.000000000000000
-4.023578166961670 -20.409206390380859 -0.986986398696899 0.003921568859369
-2.764405488967896 -14.522945404052734 1.811421871185303 0.000000000000000
-1.247203230857849 -9.699826240539551 -0.410099118947983 0.000000000000000
-3.767092227935791 -19.209903717041016 -0.471297770738602 0.000000000000000
-3.464936494827271 -17.496686935424805 -0.013250185176730 0.003921568859369
-3.603207349777222 -18.161590576171875 4.965041160583496 0.003921568859369
-4.057444572448730 -25.833303451538086 0.133393764495850 0.003921568859369
-3.971661090850830 -19.505632400512695 0.450565963983536 0.000000000000000
-0.324414700269699 -3.860337257385254 -0.257243126630783 0.000000000000000
-3.291894912719727 -16.418115615844727 -0.795832216739655 0.000000000000000
-2.820164203643799 -14.306078910827637 3.913211584091187 0.000000000000000
-3.280644893646240 -16.369285583496094 -0.402671366930008 0.000000000000000
-4.238251686096191 -26.377475738525391 0.136230394244194 0.003921568859369
-3.963877677917480 -19.173414230346680 -0.929521620273590 0.000000000000000
-3.547625303268433 -17.049581527709961 1.005379557609558 0.000000000000000
-3.886102199554443 -18.556478500366211 5.084967136383057 0.003921568859369
-0.293785870075226 -3.497821331024170 0.097326643764973 0.000000000000000
-4.258505821228027 -19.848661422729492 1.172141313552856 0.003921568859369
-3.875068664550781 -18.199443817138672 2.280071258544922 0.003921568859369
-0.900177419185638 -6.850943088531494 -0.291679143905640 0.000000000000000
-3.037298440933228 -14.592310905456543 4.001079559326172 0.000000000000000
-4.537876129150391 -26.482370376586914 0.137377396225929 0.003921568859369
-4.241138935089111 -19.479551315307617 1.151241898536682 0.003921568859369
0.042819947004318 -1.603535532951355 -0.071467697620392 0.003921568859369
-5.137515544891357 -15.868939399719238 -0.988049745559692 0.003921568859369
-4.172772884368896 -18.892475128173828 1.117431044578552 0.000000000000000
0.034273445606232 -1.618206501007080 -0.072121076285839 0.003921568859369
-5.031054019927979 -15.386000633239746 -0.959190607070923 0.003921568859369
-3.567417860031128 -20.034440994262695 0.578787505626678 0.003921568859369
-3.946264266967773 -17.410917282104492 2.188615798950195 0.003921568859369
-2.953028917312622 -16.875303268432617 -0.713978826999664 0.003921568859369
-3.214140653610229 -14.446761131286621 3.974462509155273 0.000000000000000
-3.648227453231812 -20.075592041015625 0.580471634864807 0.003921568859369
-3.801741600036621 -16.561492919921875 -0.409581929445267 0.000000000000000
-4.288410186767578 -18.264865875244141 5.034891605377197 0.003921568859369
-4.233172893524170 -17.772668838500977 2.240319252014160 0.003921568859369
-4.405990123748779 -18.458166122436523 5.092844963073730 0.003921568859369
-1.401376724243164 -8.304192543029785 0.238316804170609 0.000000000000000
-4.003972053527832 -20.719787597656250 -0.877804815769196 0.003921568859369
-3.565606355667114 -14.971528053283691 4.133870601654053 0.003921568859369
-3.753533363342285 -19.193433761596680 -0.356956899166107 0.003921568859369
-3.883963108062744 -19.810708999633789 0.574758648872375 0.003921568859369
-5.551503658294678 -15.805281639099121 -0.992209613323212 0.003921568859369
-4.535375595092773 -18.194753646850586 5.034028530120850 0.003921568859369
-3.349763631820679 -16.757270812988281 0.086600750684738 0.000000000000000
-6.261831760406494 -17.169342041015625 -0.652694642543793 0.003921568859369
-3.165423154830933 -15.406586647033691 -0.288105458021164 0.000000000000000
-6.273849010467529 -17.031835556030273 -0.648247420787811 0.003921568859369
-4.082883358001709 -19.130228042602539 0.557287514209747 0.003921568859369
-5.647862911224365 -15.261517524719238 -0.964334607124329 0.003921568859369
-6.031461238861084 -18.499467849731445 1.585802435874939 0.003921568859369
-4.991413593292236 -15.301156997680664 -0.481823593378067 0.003921568859369
-3.971125841140747 -17.808172225952148 0.093231841921806 0.003921568859369
-3.864387273788452 -17.369930267333984 0.507096052169800 0.003921568859369
-6.833271026611328 -17.566244125366211 -0.672618389129639 0.003921568859369
-5.564515113830566 -14.319499969482422 -0.189163744449615 0.003921568859369
-5.305942535400391 -15.673234939575195 -0.495032876729965 0.003921568859369
-6.166329383850098 -15.620326042175293 -0.994742572307587 0.003921568859369
-7.020323276519775 -17.670684814453125 -0.678357720375061 0.003921568859369
-5.611629009246826 -16.535303115844727 3.193763732910156 0.003921568859369
-5.194954872131348 -15.198872566223145 -0.480707049369812 0.003921568859369
-5.608898162841797 -14.143741607666016 -0.902349174022675 0.000000000000000
-5.724018573760986 -14.302092552185059 -0.189606413245201 0.000000000000000
-6.223964691162109 -15.476431846618652 -0.988361537456512 0.003921568859369
-6.100710391998291 -17.528720855712891 1.513954281806946 0.000000000000000
-5.602349758148193 -14.014436721801758 -0.540343165397644 0.003921568859369
-5.770405769348145 -14.263313293457031 -0.912567853927612 0.000000000000000
-5.954967975616455 -16.947843551635742 3.286278724670410 0.003921568859369
-5.381842136383057 -15.235795974731445 0.653383195400238 0.003921568859369
-5.319141387939453 -14.762122154235840 0.266509026288986 0.000000000000000
-6.508980751037598 -15.251608848571777 -0.982517063617706 0.003921568859369
-6.328126907348633 -17.037103652954102 1.483676552772522 0.000000000000000
-6.042119026184082 -14.214819908142090 -0.552572250366211 0.003921568859369
-8.071443557739258 -18.556697845458984 0.227826267480850 0.003921568859369
-6.633160114288330 -15.383921623229980 -0.992482006549835 0.003921568859369
-6.047672748565674 -16.161848068237305 3.159289121627808 0.003921568859369
-6.559532642364502 -17.264184951782227 -0.551296830177307 0.003921568859369
-6.872266292572021 -20.973388671875000 2.710878372192383 0.003921568859369
-6.608219146728516 -17.400012969970703 3.406472682952881 0.003921568859369
-5.671842098236084 -14.899546623229980 0.645504951477051 0.003921568859369
-6.439932346343994 -16.793718338012695 -0.959235489368439 0.003921568859369
-6.942126274108887 -17.872022628784180 3.509074926376343 0.003921568859369
-6.421958923339844 -14.381769180297852 -0.933791816234589 0.003921568859369
-6.578838348388672 -16.807340621948242 1.474374055862427 0.000000000000000
-7.065939426422119 -17.995615005493164 3.538532972335815 0.003921568859369
-5.560466289520264 -14.205986022949219 -0.456764549016953 0.000000000000000
-6.487695693969727 -16.430414199829102 -0.942434966564178 0.003921568859369
-6.782740116119385 -17.147455215454102 1.506478309631348 0.000000000000000
-6.465639591217041 -14.231827735900879 -0.191614031791687 0.003921568859369
-6.606995105743408 -14.527875900268555 0.179616183042526 0.003921568859369
-6.241837978363037 -13.642632484436035 -0.184089973568916 0.000000000000000
-6.236743450164795 -17.929777145385742 5.107330799102783 0.003921568859369
-7.176727294921875 -17.750349044799805 3.505771875381470 0.003921568859369
-5.749637126922607 -14.251938819885254 -0.459959179162979 0.000000000000000
-6.656255245208740 -14.381581306457520 -0.939625322818756 0.003921568859369
-5.608952522277832 -13.922392845153809 -0.802437365055084 0.000000000000000
-5.693099498748779 -16.293373107910156 4.646279335021973 0.003921568859369
-6.931952953338623 -17.024747848510742 3.366879701614380 0.003921568859369
-7.060037136077881 -17.158124923706055 3.398488521575928 0.003921568859369
-5.429093837738037 -15.227670669555664 -0.768681108951569 0.003921568859369
-5.766018390655518 -14.011114120483398 -0.809864699840546 0.003921568859369
-6.436478614807129 -13.564654350280762 -0.183991357684135 0.003921568859369
-7.578746795654297 -15.846634864807129 0.198442667722702 0.003921568859369
-6.825074672698975 -14.338243484497070 -0.941490650177002 0.003921568859369
-6.550440788269043 -15.662253379821777 0.688483953475952 0.003921568859369
-8.048818588256836 -16.639949798583984 0.209058150649071 0.003921568859369
-7.753868103027344 -18.216800689697266 0.338498532772064 0.003921568859369
-5.973946094512939 -16.328645706176758 2.140160322189331 0.003921568859369
-6.845220088958740 -14.131217956542969 -0.931070089340210 0.000000000000000
-5.485193252563477 -14.608564376831055 0.906978785991669 0.000000000000000
-6.641334056854248 -15.141633987426758 -0.882615745067596 0.003921568859369
-6.733587265014648 -17.556568145751953 2.314568281173706 0.003921568859369
-7.754274368286133 -15.512347221374512 -0.618717014789581 0.003921568859369
-7.377632141113281 -16.748811721801758 3.354695081710815 0.003921568859369
-7.072968482971191 -14.115766525268555 0.178625717759132 0.003921568859369
-6.712217807769775 -13.427793502807617 -0.890932083129883 0.003921568859369
-6.339962005615234 -14.384607315063477 -0.839917957782745 0.000000000000000
-6.708293914794922 -13.421418190002441 -0.536759793758392 0.003921568859369
-7.553271293640137 -17.002748489379883 3.410600185394287 0.003921568859369
-7.111786365509033 -15.886620521545410 0.706803739070892 0.003921568859369
-7.270339488983154 -14.354176521301270 -0.574827075004578 0.003921568859369
-6.904955387115479 -17.631116867065430 -0.453925102949142 0.000000000000000
-5.615581035614014 -14.234865188598633 -0.368196368217468 0.003921568859369
-6.366379261016846 -13.933412551879883 0.262295246124268 0.000000000000000
-7.671816349029541 -16.645961761474609 3.361521244049072 0.003921568859369
-6.401878833770752 -13.869513511657715 -0.097394891083241 0.003921568859369
-7.557713031768799 -16.240367889404297 0.307130455970764 0.003921568859369
-6.267874240875244 -15.467821121215820 -0.793110966682434 0.000000000000000
-7.495058536529541 -14.291737556457520 -0.576328635215759 0.003921568859369
-6.338977813720703 -13.630583763122559 -0.449646025896072 0.000000000000000
-7.991276264190674 -15.081740379333496 -0.608913183212280 0.003921568859369
-7.964829921722412 -16.949687957763672 3.434801101684570 0.003921568859369
-7.533740520477295 -15.922340393066406 0.302193522453308 0.003921568859369
-7.747026920318604 -14.519906044006348 -0.975255131721497 0.003921568859369
-5.729101657867432 -12.291051864624023 2.493905305862427 0.000000000000000
-7.200648784637451 -15.108906745910645 -0.499519765377045 0.003921568859369
-2.244924068450928 -5.212323188781738 0.470250010490417 0.000000000000000
-7.832342624664307 -16.382835388183594 3.331787824630737 0.003921568859369
-7.447103023529053 -15.467336654663086 -0.108483329415321 0.003921568859369
-6.810338973999023 -16.122209548950195 1.018618106842041 0.000000000000000
-6.494955539703369 -15.425602912902832 4.514272212982178 0.003921568859369
-7.910748004913330 -16.396272659301758 3.340478420257568 0.003921568859369
-8.579460144042969 -15.619648933410645 -0.216113075613976 0.003921568859369
-5.190786838531494 -14.174968719482422 -0.985105693340302 0.003921568859369
-7.875364780426025 -14.387698173522949 -0.971975088119507 0.003921568859369
-7.960780620574951 -16.353246688842773 3.337701797485352 0.003921568859369
-8.223573684692383 -14.878521919250488 0.193603456020355 0.003921568859369
-5.147670745849609 -13.921674728393555 -0.968834102153778 0.000000000000000
-8.043330192565918 -14.562893867492676 -0.985640943050385 0.003921568859369
-8.026792526245117 -16.341579437255859 3.341375827789307 0.003921568859369
-5.182049751281738 -13.896889686584473 -0.968343019485474 0.000000000000000
-8.013878822326660 -16.195566177368164 0.735254168510437 0.003921568859369
-6.642597198486328 -15.351888656616211 4.513408184051514 0.003921568859369
-8.173660278320312 -16.354431152343750 -0.114916853606701 0.003921568859369
-7.055632591247559 -16.087047576904297 1.023060917854309 0.000000000000000
-6.166203498840332 -14.154594421386719 -0.734529018402100 0.000000000000000
-5.480266571044922 -14.490345954895020 -0.646027326583862 0.003921568859369
-6.658347129821777 -15.238348007202148 4.487638950347900 0.003921568859369
-8.602816581726074 -17.028810501098633 1.563597083091736 0.000000000000000
-9.141879081726074 -16.086744308471680 -0.658920884132385 0.003921568859369
-7.529716491699219 -16.963853836059570 5.004904270172119 0.003921568859369
-5.546270370483398 -14.358358383178711 -0.280248820781708 0.003921568859369
-7.656876564025879 -15.099671363830566 -0.504945874214172 0.003921568859369
-6.115312576293945 -13.786741256713867 -0.008029818534851 0.003921568859369
-8.748071670532227 -15.299737930297852 -0.213476315140724 0.003921568859369
-7.492955207824707 -14.796999931335449 1.360688686370850 0.000000000000000
-7.314974784851074 -16.208173751831055 1.036062002182007 0.000000000000000
-7.490468978881836 -14.680839538574219 1.352319121360779 0.000000000000000
-6.821706771850586 -13.308153152465820 -0.799580037593842 0.003921568859369
-0.550058066844940 -1.905915379524231 0.118312776088715 0.000000000000000
-7.447162628173828 -14.356151580810547 0.659066140651703 0.003921568859369
-9.349592208862305 -15.938710212707520 -0.657853484153748 0.003921568859369
-7.728495597839355 -14.880044937133789 3.081736087799072 0.003921568859369
-7.882392883300781 -16.936725616455078 1.088700532913208 0.000000000000000
-7.953720092773438 -15.024601936340332 -0.907027900218964 0.003921568859369
-8.879188537597656 -16.702730178833008 1.551501512527466 0.000000000000000
-8.297599792480469 -17.645696640014648 5.258905410766602 0.003921568859369
-1.347183108329773 -3.101990699768066 0.641475975513458 0.000000000000000
-8.188331604003906 -15.329162597656250 -0.517764449119568 0.000000000000000
-8.265158653259277 -17.433324813842773 5.204171180725098 0.003921568859369
-8.173154830932617 -17.088378906250000 2.337466478347778 0.003921568859369
-9.141241073608398 -16.903434753417969 1.576384902000427 0.003921568859369
-8.460659027099609 -17.672657012939453 5.284959793090820 0.003921568859369
-9.831830024719238 -16.098262786865234 -0.227364301681519 0.003921568859369
-8.038471221923828 -16.676603317260742 1.079565167427063 0.003921568859369
-8.426356315612793 -17.449930191040039 2.391095399856567 0.003921568859369
-8.084175109863281 -14.908901214599609 1.392547130584717 0.000000000000000
-8.046736717224121 -16.561761856079102 1.074048876762390 0.000000000000000
-6.385517597198486 -13.290361404418945 -0.701961815357208 0.000000000000000
-7.819920539855957 -14.330868721008301 -0.871678709983826 0.003921568859369
-8.441124916076660 -17.350395202636719 5.206481933593750 0.003921568859369
-8.101908683776855 -16.520114898681641 1.073452949523926 0.000000000000000
-8.768521308898926 -15.854345321655273 -0.965782880783081 0.003921568859369
-8.097352027893066 -16.523723602294922 4.967600345611572 0.003921568859369
-7.980495452880859 -14.372001647949219 -0.877588033676147 0.003921568859369
-8.472355842590332 -15.224810600280762 1.431142807006836 0.000000000000000
-9.573410987854004 -15.335860252380371 -0.643538594245911 0.003921568859369
-9.652523040771484 -17.118011474609375 -0.583929538726807 0.000000000000000
-8.210463523864746 -16.454936981201172 1.073174476623535 0.003921568859369
-9.517438888549805 -15.021144866943359 0.204436972737312 0.003921568859369
-8.438534736633301 -14.925786018371582 1.408893108367920 0.000000000000000
-7.824599266052246 -15.571529388427734 -0.417009085416794 0.003921568859369
-8.776953697204590 -15.377584457397461 -0.110172145068645 0.000000000000000
-9.040941238403320 -14.195008277893066 0.193459793925285 0.003921568859369
-9.169130325317383 -16.038948059082031 0.754179716110229 0.003921568859369
-8.140314102172852 -14.305791854858398 -0.878594279289246 0.003921568859369
-8.414586067199707 -14.773131370544434 1.397274255752563 0.000000000000000
-13.235761642456055 -22.882843017578125 4.847485542297363 0.003921568859369
-8.005860328674316 -13.973121643066406 0.657919287681580 0.003921568859369
-8.434783935546875 -14.683569908142090 -0.903460919857025 0.003921568859369
-4.090042591094971 -8.350879669189453 2.531424045562744 0.000000000000000
-8.038038253784180 -13.916417121887207 0.656703054904938 0.003921568859369
-8.576946258544922 -14.803121566772461 -0.912598073482513 0.003921568859369
-8.371937751770020 -16.212181091308594 2.254548549652100 0.003921568859369
-7.154835224151611 -13.834899902343750 -0.006858651526272 0.000000000000000
-8.038725852966309 -13.808460235595703 0.653048455715179 0.003921568859369
-10.624855041503906 -16.089038848876953 -0.231407955288887 0.003921568859369
-3.971001863479614 -7.927563667297363 2.416714429855347 0.000000000000000
-9.158384323120117 -13.840413093566895 -0.200083777308464 0.003921568859369
-9.269606590270996 -17.436326980590820 2.439380407333374 0.003921568859369
-10.280366897583008 -17.217525482177734 1.647145628929138 0.003921568859369
-6.514558792114258 -14.025446891784668 -0.644460260868073 0.003921568859369
-5.412035465240479 -8.338586807250977 -0.595577001571655 0.000000000000000
-2.193629264831543 -4.119947910308838 0.391568928956985 0.000000000000000
-10.265145301818848 -15.234416961669922 0.212187394499779 0.003921568859369
-8.598321914672852 -14.290094375610352 0.682151734828949 0.003921568859369
-8.334926605224609 -15.508331298828125 2.177559375762939 0.003921568859369
-10.392983436584473 -17.148006439208984 1.647679090499878 0.003921568859369
-10.414973258972168 -15.334507942199707 0.214245244860649 0.003921568859369
-8.845053672790527 -16.278841018676758 1.082915663719177 0.003921568859369
-8.684501647949219 -14.316056251525879 0.685005187988281 0.003921568859369
-8.747822761535645 -14.411572456359863 -0.899501323699951 0.003921568859369
-10.459170341491699 -17.120384216308594 1.648761034011841 0.003921568859369
-8.221020698547363 -15.173652648925781 -0.412585437297821 0.000000000000000
-8.740867614746094 -14.294422149658203 0.685582041740417 0.003921568859369
-7.831131458282471 -14.367740631103516 -0.777424991130829 0.000000000000000
-8.813121795654297 -14.403183937072754 -0.900878429412842 0.003921568859369
-10.566043853759766 -17.156362533569336 1.656023621559143 0.003921568859369
-8.252106666564941 -15.105340957641602 -0.411465704441071 0.003921568859369
-10.982789039611816 -15.902692794799805 -0.231427028775215 0.003921568859369
-9.031078338623047 -14.635080337524414 0.298513621091843 0.003921568859369
-10.649580955505371 -17.154918670654297 1.659708857536316 0.003921568859369
-10.654411315917969 -15.330958366394043 0.216129362583160 0.003921568859369
-9.215553283691406 -16.526615142822266 1.106423616409302 0.003921568859369
-10.618325233459473 -16.975780487060547 1.646151661872864 0.003921568859369
-11.210136413574219 -16.100509643554688 -0.696576118469238 0.003921568859369
-9.277952194213867 -14.788647651672363 -0.519138932228088 0.000000000000000
-8.006711959838867 -14.328051567077637 0.380110114812851 0.003921568859369
-10.679681777954102 -15.253483772277832 0.215667277574539 0.003921568859369
-8.344614028930664 -14.901563644409180 -0.810737848281860 0.000000000000000
-10.078069686889648 -16.019298553466797 1.556783556938171 0.000000000000000
-10.048089027404785 -14.380489349365234 -0.624122798442841 0.003921568859369
-10.638747215270996 -15.090376853942871 -0.221160024404526 0.003921568859369
-8.531699180603027 -15.109528541564941 0.401972860097885 0.000000000000000
-10.737280845642090 -15.226405143737793 0.215901419520378 0.003921568859369
-10.369933128356934 -16.347576141357422 1.592345356941223 0.000000000000000
-6.903175354003906 -11.080593109130859 2.413010835647583 0.000000000000000
-8.738631248474121 -15.336462020874023 -0.006182691548020 0.003921568859369
-8.224639892578125 -14.473394393920898 0.385749012231827 0.000000000000000
-10.806952476501465 -15.210046768188477 0.216327831149101 0.003921568859369
-8.091259002685547 -14.250813484191895 0.959499716758728 0.003921568859369
-8.773652076721191 -13.809373855590820 -0.873212933540344 0.003921568859369
-11.098674774169922 -17.323495864868164 1.691695332527161 0.003921568859369
-11.197634696960449 -15.738795280456543 -0.685817241668701 0.003921568859369
-10.297610282897949 -16.120113372802734 3.520775556564331 0.003921568859369
-9.590027809143066 -14.922703742980957 -0.527125239372253 0.000000000000000
-10.192795753479004 -15.828254699707031 0.770768761634827 0.003921568859369
-9.121636390686035 -14.220747947692871 -0.901178300380707 0.003921568859369
-11.281678199768066 -17.460300445556641 1.709382653236389 0.003921568859369
-10.298111915588379 -14.405347824096680 -0.629695713520050 0.003921568859369
-7.790145397186279 -15.144742965698242 -0.307592660188675 0.003921568859369
-8.236388206481934 -14.261573791503906 0.964554905891418 0.003921568859369
-9.190042495727539 -14.219733238220215 0.693693995475769 0.003921568859369
-8.591108322143555 -14.843237876892090 -0.813918411731720 0.000000000000000
-11.393752098083496 -17.495540618896484 1.716978073120117 0.003921568859369
-10.485166549682617 -16.150981903076172 3.544659852981567 0.003921568859369
-2.420107364654541 -3.727947235107422 -0.275899410247803 0.000000000000000
-9.815441131591797 -16.755218505859375 1.136279702186584 0.000000000000000
-9.023886680603027 -13.878599166870117 0.678468406200409 0.003921568859369
-10.484698295593262 -16.036026000976562 1.576802849769592 0.000000000000000
-9.693856239318848 -14.741537094116211 -0.524167180061340 0.000000000000000
-11.395256996154785 -15.544473648071289 0.223995864391327 0.003921568859369
-9.165049552917480 -13.971064567565918 0.684916555881500 0.003921568859369
-9.004034996032715 -13.731328964233398 -0.876210033893585 0.003921568859369
-10.667643547058105 -16.171922683715820 1.594490885734558 0.000000000000000
-1.511027455329895 -2.489442348480225 -0.040867049247026 0.000000000000000
-9.482050895690918 -15.951693534851074 0.430738151073456 0.000000000000000
-7.501229763031006 -14.264248847961426 0.467562019824982 0.003921568859369
-10.368115425109863 -14.092797279357910 -0.622179508209229 0.003921568859369
-8.691863059997559 -14.672418594360352 -0.407206028699875 0.000000000000000
-9.412228584289551 -15.723973274230957 1.073395252227783 0.000000000000000
-10.400175094604492 -14.038032531738281 -0.621254503726959 0.003921568859369
-10.745105743408203 -16.064302444458008 3.559439659118652 0.003921568859369
-7.633555412292480 -14.269659996032715 -0.673632502555847 0.003921568859369
-10.636640548706055 -15.789796829223633 3.507160186767578 0.003921568859369
-10.615500450134277 -15.635716438293457 0.774911820888519 0.003921568859369
-10.789038658142090 -15.889594078063965 3.538120269775391 0.003921568859369
-8.658484458923340 -14.287585258483887 -0.398917615413666 0.003921568859369
-9.882843971252441 -14.483742713928223 -0.520775914192200 0.000000000000000
-10.511501312255859 -15.372489929199219 0.324972182512283 0.003921568859369
-9.932862281799316 -16.179298400878906 1.112272143363953 0.000000000000000
-11.125699043273926 -16.242038726806641 1.621405601501465 0.000000000000000
-9.854313850402832 -14.337188720703125 -0.516730844974518 0.000000000000000
-10.640755653381348 -15.441422462463379 0.769247710704803 0.003921568859369
-3.496378183364868 -6.044979572296143 0.877415299415588 0.000000000000000
-10.336996078491211 -16.566614151000977 2.418041706085205 0.003921568859369
-8.108453750610352 -14.638154029846191 -0.695977270603180 0.003921568859369
-10.896903991699219 -15.696922302246094 3.521201848983765 0.003921568859369
-10.657502174377441 -15.236517906188965 -0.113050229847431 0.000000000000000
-8.164071083068848 -14.610361099243164 -0.696045815944672 0.003921568859369
-10.760407447814941 -15.387763023376465 3.461024522781372 0.003921568859369
-11.312745094299316 -16.021110534667969 -0.580896973609924 0.000000000000000
-10.804984092712402 -15.327071189880371 -0.113870173692703 0.000000000000000
-3.959849834442139 -5.380042076110840 -0.649540483951569 0.000000000000000
-8.958216667175293 -14.208367347717285 0.390803128480911 0.003921568859369
-10.650762557983398 -15.120151519775391 1.524773001670837 0.003921568859369
-10.802441596984863 -15.332843780517578 3.457537651062012 0.003921568859369
-9.099226951599121 -15.952611923217773 -0.330245465040207 0.003921568859369
-10.257279396057129 -14.469743728637695 -0.526339530944824 0.000000000000000
-11.568008422851562 -16.256958007812500 1.644085407257080 0.003921568859369
-9.300437927246094 -14.614927291870117 -0.412898212671280 0.003921568859369
-8.317602157592773 -14.535515785217285 0.092435128986835 0.003921568859369
-10.379754066467285 -16.135097503662109 0.446609616279602 0.003921568859369
-11.293277740478516 -15.777266502380371 0.796493530273438 0.003921568859369
-8.266345977783203 -14.447613716125488 -0.692194938659668 0.003921568859369
-1.678920269012451 -3.072205543518066 -0.580862224102020 0.000000000000000
-9.208347320556641 -15.890179634094238 0.101825632154942 0.000000000000000
-10.711369514465332 -14.875954627990723 0.320692867040634 0.003921568859369
-9.075507164001465 -14.065726280212402 -0.794406414031982 0.000000000000000
-10.737445831298828 -16.544862747192383 2.443429946899414 0.003921568859369
-9.096256256103516 -15.702071189880371 -0.753435313701630 0.003921568859369
-10.132607460021973 -14.009665489196777 -0.513264000415802 0.000000000000000
-10.725402832031250 -14.800728797912598 0.319984674453735 0.003921568859369
-10.897370338439941 -15.030733108520508 0.762808561325073 0.003921568859369
-9.124692916870117 -14.047516822814941 -0.795057058334351 0.000000000000000
-10.694496154785156 -16.373151779174805 2.423564910888672 0.003921568859369
-5.045563697814941 -8.036972045898438 2.595946073532104 0.000000000000000
-10.401045799255371 -14.262937545776367 -0.523724436759949 0.000000000000000
-9.139336585998535 -13.967180252075195 0.389022737741470 0.000000000000000
-11.538343429565430 -17.483461380004883 1.228350877761841 0.003921568859369
-8.964127540588379 -13.707322120666504 -0.777661383152008 0.000000000000000
-10.507639884948730 -15.976881980895996 2.370530366897583 0.003921568859369
-11.555620193481445 -15.793865203857422 1.613928794860840 0.003921568859369
-3.336404323577881 -4.933375358581543 1.123671531677246 0.000000000000000
-10.504174232482910 -14.290035247802734 -0.526057958602905 0.000000000000000
-11.508721351623535 -15.610570907592773 0.796967267990112 0.003921568859369
-10.731352806091309 -16.167903900146484 -0.918582856655121 0.000000000000000
-11.376533508300781 -15.439259529113770 1.582108616828918 0.000000000000000
-9.595001220703125 -14.517836570739746 -0.414466232061386 0.000000000000000
-10.376158714294434 -14.025500297546387 -0.517616987228394 0.000000000000000
-10.807671546936035 -16.163761138916016 -0.920341789722443 0.000000000000000
-1.821168184280396 -2.885956048965454 -0.195105671882629 0.000000000000000
-11.557110786437988 -17.254758834838867 2.573087692260742 0.003921568859369
-11.672864913940430 -15.719516754150391 1.615121126174927 0.000000000000000
-11.489077568054199 -15.360062599182129 0.336336553096771 0.003921568859369
-9.114112854003906 -13.613463401794434 -0.777758359909058 0.000000000000000
-12.181614875793457 -18.014888763427734 2.693646430969238 0.003921568859369
-11.832840919494629 -15.807612419128418 1.628921389579773 0.003921568859369
-11.527536392211914 -15.417920112609863 3.551000595092773 0.003921568859369
-11.813735008239746 -15.673175811767578 0.806914865970612 0.003921568859369
-9.087938308715820 -13.480546951293945 -0.771907448768616 0.000000000000000
-11.693245887756348 -17.193609237670898 2.576729059219360 0.003921568859369
-11.814146995544434 -15.675757408142090 1.619572758674622 0.000000000000000
-11.745397567749023 -15.592516899108887 3.600637912750244 0.003921568859369
-10.378080368041992 -15.206697463989258 1.081375837326050 0.003921568859369
-9.144181251525879 -13.460406303405762 -0.772561848163605 0.000000000000000
