# This PCD file was generated using the MATLAB® pcwrite function
# from Computer Vision Toolbox®.
# .PCD v.7 - Point Cloud Data file format
VERSION .7
FIELDS x y z intensity
SIZE 8 8 8 8
TYPE F F F F
COUNT 1 1 1 1
WIDTH 631
HEIGHT 1
VIEWPOINT 0 0 0 1 0 0 0
POINTS 631
DATA ascii
-2.978631973266602 -17.403245925903320 -0.614827394485474 0.003921568859369
-2.539511203765869 -20.530042648315430 3.784492254257202 0.003921568859369
-1.062644004821777 -15.385015487670898 -0.356598794460297 0.000000000000000
-2.075025081634521 -16.758123397827148 -0.489244401454926 0.003921568859369
-0.454401463270187 -17.509344100952148 0.105459667742252 0.000000000000000
-1.677162885665894 -13.967085838317871 0.248682603240013 0.003921568859369
-1.868063211441040 -23.464857101440430 1.378391623497009 0.003921568859369
-2.482367515563965 -14.502608299255371 -0.513168692588806 0.000000000000000
-2.561849117279053 -19.681335449218750 -0.574375808238983 0.000000000000000
-0.578917384147644 -18.845197677612305 0.553193807601929 0.003921568859369
-1.726238489151001 -13.962347984313965 0.577345728874207 0.003921568859369
-1.183608770370483 -15.516642570495605 1.917243599891663 0.000000000000000
-0.653456687927246 -19.145776748657227 0.562151491641998 0.003921568859369
-1.201252102851868 -15.198888778686523 -0.708748102188110 0.000000000000000
-2.703104972839355 -14.837829589843750 0.179075628519058 0.000000000000000
-2.132553100585938 -23.703722000122070 1.393845796585083 0.003921568859369
-1.430284619331360 -16.898620605468750 -0.787963926792145 0.003921568859369
-1.680221557617188 -18.650985717773438 0.440599232912064 0.003921568859369
-3.746405124664307 -19.600971221923828 0.237636342644691 0.003921568859369
-2.745272159576416 -14.767779350280762 -0.875603735446930 0.000000000000000
-1.414902925491333 -16.169010162353516 -0.754354417324066 0.000000000000000
-1.600360870361328 -17.903762817382812 -0.415202260017395 0.000000000000000
-2.845539808273315 -14.988190650939941 -0.175493732094765 0.003921568859369
-1.354182958602905 -15.102441787719727 0.356381684541702 0.000000000000000
-3.338553905487061 -17.327201843261719 -0.614689469337463 0.003921568859369
-1.473936319351196 -16.187866210937500 4.367908000946045 0.003921568859369
-2.810600996017456 -14.582619667053223 -0.170940026640892 0.003921568859369
-1.859141349792480 -19.093902587890625 0.451473444700241 0.000000000000000
-2.072757244110107 -20.972356796264648 5.661707401275635 0.003921568859369
-1.707725048065186 -17.763170242309570 -0.412267714738846 0.000000000000000
-3.224224567413330 -16.236309051513672 0.196801424026489 0.003921568859369
-0.814585089683533 -16.584957122802734 0.487113505601883 0.003921568859369
-3.312083244323730 -16.639554977416992 -0.988373041152954 0.003921568859369
-2.159698724746704 -14.792474746704102 0.613825380802155 0.000000000000000
-1.643256068229675 -16.678161621093750 -0.778908252716064 0.003921568859369
-1.484966039657593 -15.329295158386230 -0.356309473514557 0.000000000000000
-1.062876939773560 -19.194400787353516 -0.331681966781616 0.003921568859369
-3.405036211013794 -16.770404815673828 -0.996923446655273 0.003921568859369
-1.422710299491882 -13.956629753112793 1.729504823684692 0.003921568859369
-2.946160554885864 -18.692682266235352 1.553375363349915 0.000000000000000
-2.929624557495117 -14.186116218566895 -0.166883766651154 0.000000000000000
-2.422768831253052 -15.394852638244629 0.640115499496460 0.000000000000000
-3.508089303970337 -16.711402893066406 -0.595216155052185 0.003921568859369
-1.038551807403564 -16.519529342651367 0.485710173845291 0.003921568859369
-3.085467815399170 -18.735410690307617 0.780102908611298 0.003921568859369
-2.196114063262939 -13.842739105224609 2.568079233169556 0.000000000000000
-1.303956270217896 -18.936626434326172 0.114639692008495 0.000000000000000
-2.473638296127319 -15.070279121398926 1.254236936569214 0.003921568859369
-4.004548549652100 -18.290987014770508 -0.652262628078461 0.003921568859369
-1.323568344116211 -18.482851028442383 -0.319912761449814 0.003921568859369
-3.083333253860474 -14.195275306701660 -0.167381599545479 0.000000000000000
-1.391772031784058 -19.250143051147461 0.566781222820282 0.003921568859369
-3.365235805511475 -19.537157058715820 0.814607381820679 0.003921568859369
-2.084967136383057 -17.372207641601562 -0.404471993446350 0.000000000000000
-3.287588119506836 -18.730350494384766 -0.550929129123688 0.000000000000000
-3.264775276184082 -14.702814102172852 -0.173424467444420 0.000000000000000
-1.377375364303589 -18.291933059692383 0.538622736930847 0.003921568859369
-3.363884925842285 -19.126487731933594 0.798012793064117 0.003921568859369
-3.037148475646973 -17.430101394653320 -0.926578164100647 0.003921568859369
-2.579546451568604 -15.054320335388184 1.254564166069031 0.000000000000000
-3.598074197769165 -16.069860458374023 -0.574362635612488 0.003921568859369
-3.293978214263916 -14.600910186767578 -0.172388270497322 0.000000000000000
-3.244942426681519 -14.402773857116699 0.175418645143509 0.000000000000000
-2.023288965225220 -16.059101104736328 -0.752860963344574 0.003921568859369
-2.344212293624878 -13.577103614807129 1.131965756416321 0.000000000000000
-1.148195266723633 -15.243474006652832 -0.621142625808716 0.003921568859369
-3.873116254806519 -16.715328216552734 0.204192981123924 0.003921568859369
-3.329304456710815 -18.292783737182617 -0.973556578159332 0.003921568859369
-1.668860435485840 -13.337112426757812 1.658126711845398 0.000000000000000
-1.699258565902710 -19.567707061767578 -0.338969886302948 0.003921568859369
-2.972559690475464 -16.194921493530273 -0.092765159904957 0.000000000000000
-1.592750430107117 -18.535970687866211 0.546406507492065 0.003921568859369
-3.149519443511963 -13.619103431701660 -0.488452196121216 0.000000000000000
-0.566501855850220 -5.799506187438965 1.571942687034607 0.000000000000000
-3.075708389282227 -16.394252777099609 -0.093940965831280 0.000000000000000
-3.604919433593750 -15.173954963684082 0.185455620288849 0.000000000000000
-1.411617875099182 -16.199127197265625 0.477359294891357 0.003921568859369
-3.351578235626221 -14.194570541381836 -0.509448170661926 0.000000000000000
-3.109081745147705 -16.297388076782227 -0.093462184071541 0.000000000000000
-3.431576728820801 -14.318082809448242 0.174982324242592 0.000000000000000
-1.446433424949646 -15.548185348510742 -0.270214706659317 0.000000000000000
-1.818289279937744 -18.821187973022461 0.555485844612122 0.003921568859369
-3.482617139816284 -14.309057235717773 -0.859669983386993 0.000000000000000
-2.731405258178711 -14.255240440368652 0.596575379371643 0.003921568859369
-1.713737010955811 -17.900653839111328 -0.730212569236755 0.003921568859369
-2.861632347106934 -19.029226303100586 1.128023386001587 0.003921568859369
-3.414293527603149 -13.847229003906250 -0.498401582241058 0.000000000000000
-2.490233421325684 -12.897328376770020 2.409196138381958 0.000000000000000
-3.002893209457397 -15.039949417114258 0.271785408258438 0.003921568859369
-2.956609487533569 -14.830902099609375 -0.793334960937500 0.000000000000000
-2.995701551437378 -14.763067245483398 -0.437652736902237 0.000000000000000
-3.416875839233398 -13.514175415039062 -0.814381003379822 0.000000000000000
-2.160207271575928 -14.274838447570801 3.885862588882446 0.003921568859369
-3.596710443496704 -17.140140533447266 3.210079908370972 0.003921568859369
-3.010672330856323 -18.414430618286133 1.094091773033142 0.000000000000000
-3.915498971939087 -14.713601112365723 -0.889026582241058 0.000000000000000
-3.690151929855347 -17.015180587768555 -0.912654697895050 0.003921568859369
-2.100001096725464 -13.115130424499512 1.640041112899780 0.003921568859369
-3.142130374908447 -14.478668212890625 -0.430647134780884 0.000000000000000
-3.324071884155273 -15.238086700439453 0.641426682472229 0.000000000000000
-3.058835744857788 -14.130987167358398 -0.759039342403412 0.000000000000000
-3.776456594467163 -17.126329421997070 3.215110063552856 0.003921568859369
-3.756172895431519 -13.798142433166504 0.170021682977676 0.003921568859369
-3.993091821670532 -17.743566513061523 -0.953191161155701 0.003921568859369
-3.784823656082153 -13.718792915344238 -0.164290368556976 0.003921568859369
-3.099513053894043 -17.491495132446289 4.780538082122803 0.003921568859369
-4.756137847900391 -20.565027236938477 3.867893695831299 0.003921568859369
-2.548009634017944 -14.675714492797852 -0.345302462577820 0.003921568859369
-2.484991312026978 -18.875473022460938 -0.328901201486588 0.003921568859369
-3.697989702224731 -16.054946899414062 -0.478443056344986 0.000000000000000
-4.469929695129395 -15.814082145690918 -0.189139351248741 0.003921568859369
-3.437100172042847 -15.014010429382324 1.266653656959534 0.000000000000000
-2.954114913940430 -16.164962768554688 0.003282598685473 0.003921568859369
-2.237314224243164 -12.632864952087402 3.456669092178345 0.000000000000000
-3.677325487136841 -19.381259918212891 0.004499217029661 0.003921568859369
-2.767704010009766 -14.977960586547852 0.358765453100204 0.000000000000000
-4.163361549377441 -14.439550399780273 -0.525354444980621 0.003921568859369
-3.289901733398438 -17.202474594116211 0.003682421520352 0.003921568859369
-4.668906688690186 -15.869813919067383 -0.190408691763878 0.003921568859369
-4.011841297149658 -16.569240570068359 0.302499622106552 0.003921568859369
-4.081765651702881 -14.004530906677246 -0.852527499198914 0.003921568859369
-3.254905223846436 -13.678280830383301 -0.738673508167267 0.003921568859369
-4.656628131866455 -15.830855369567871 -0.576326906681061 0.003921568859369
-4.889411926269531 -16.380973815917969 0.203680709004402 0.003921568859369
-4.162995338439941 -14.102369308471680 -0.514308333396912 0.000000000000000
-4.886048793792725 -16.184793472290039 -0.194562271237373 0.003921568859369
-4.132367610931396 -13.847329139709473 0.171929553151131 0.000000000000000
-1.777406692504883 -6.466453552246094 -0.079520113766193 0.000000000000000
-4.193089962005615 -13.869680404663086 0.172407656908035 0.000000000000000
-5.030466079711914 -19.642349243164062 3.717627763748169 0.003921568859369
-4.903356552124023 -15.867817878723145 -0.191230043768883 0.003921568859369
-4.269144535064697 -13.945753097534180 0.173558220267296 0.000000000000000
-4.278011798858643 -13.972774505615234 -0.854384899139404 0.003921568859369
-3.075462102890015 -15.170852661132812 1.912381172180176 0.003921568859369
-4.970311641693115 -19.171773910522461 1.628552317619324 0.000000000000000
-3.254866123199463 -15.969327926635742 4.389698982238770 0.003921568859369
-5.163769245147705 -19.870964050292969 3.764355897903442 0.003921568859369
-3.397439241409302 -16.604160308837891 -0.392557561397552 0.003921568859369
-2.559280633926392 -16.299575805664062 0.099525645375252 0.003921568859369
-4.326760292053223 -13.956593513488770 -0.854387283325195 0.000000000000000
-3.933995723724365 -15.218300819396973 0.647000074386597 0.000000000000000
-4.234335899353027 -16.062923431396484 -0.482706367969513 0.000000000000000
-2.966239452362061 -14.208508491516113 0.002575458260253 0.003921568859369
-5.132021903991699 -16.170970916748047 -0.195294603705406 0.003921568859369
-4.020540237426758 -12.881800651550293 0.160489484667778 0.000000000000000
-2.952774047851562 -14.150548934936523 -0.674195230007172 0.003921568859369
-3.798521995544434 -14.530130386352539 -0.788986682891846 0.000000000000000
-3.742358207702637 -14.332370758056641 1.219237923622131 0.003921568859369
-3.522692680358887 -13.559624671936035 2.573095083236694 0.003921568859369
-4.294219970703125 -16.070743560791016 -0.483397394418716 0.000000000000000
-3.676137447357178 -17.009788513183594 -0.810467481613159 0.000000000000000
-3.757883548736572 -14.207677841186523 1.209755539894104 0.000000000000000
-3.924730777740479 -14.787014961242676 2.808900594711304 0.000000000000000
-3.691878318786621 -13.797181129455566 0.253374457359314 0.003921568859369
-2.934859991073608 -13.650764465332031 1.726091504096985 0.000000000000000
-2.404263257980347 -14.539033889770508 -0.600138723850250 0.000000000000000
-4.297325134277344 -19.342823028564453 -0.458312690258026 0.000000000000000
-4.302762985229492 -19.071187973022461 0.004432810470462 0.003921568859369
-4.006784915924072 -14.685804367065430 0.626784443855286 0.000000000000000
-3.559809923171997 -16.014596939086914 -0.764491260051727 0.000000000000000
-3.749300479888916 -13.630476951599121 -0.411710470914841 0.000000000000000
-3.797400474548340 -13.791012763977051 0.253798663616180 0.000000000000000
-3.801460742950439 -13.804530143737793 0.589651107788086 0.000000000000000
-3.683572292327881 -13.411036491394043 -0.731412053108215 0.000000000000000
-5.369444847106934 -19.040227890014648 1.627231597900391 0.000000000000000
-3.599619150161743 -15.923807144165039 -0.378459364175797 0.000000000000000
-3.846596717834473 -13.788722038269043 0.254010826349258 0.000000000000000
-5.460916042327881 -19.114866256713867 0.818351924419403 0.003921568859369
-3.714123725891113 -13.351769447326660 -0.728919208049774 0.000000000000000
-5.493848800659180 -19.223423004150391 1.644556045532227 0.003921568859369
-2.978523015975952 -13.219875335693359 3.654672861099243 0.003921568859369
-6.841919898986816 -19.860956192016602 -0.240958258509636 0.003921568859369
-3.304959058761597 -14.311252593994141 0.346280157566071 0.000000000000000
-3.963939666748047 -13.999625205993652 0.258214414119720 0.000000000000000
-5.550396442413330 -19.168661117553711 1.641611218452454 0.003921568859369
-4.263834953308105 -14.813401222229004 -0.448596745729446 0.000000000000000
-3.416383504867554 -14.561987876892090 0.002736332826316 0.003921568859369
-6.659122467041016 -19.163311004638672 -0.232888087630272 0.003921568859369
-4.594449520111084 -15.877374649047852 -0.093342877924442 0.000000000000000
-6.873119354248047 -19.749238967895508 0.249653026461601 0.003921568859369
-4.205439567565918 -14.625244140625000 1.253225445747375 0.000000000000000
-4.132810592651367 -21.292476654052734 0.638469040393829 0.003921568859369
-4.606119155883789 -15.531455039978027 -0.471235305070877 0.003921568859369
-7.312875747680664 -20.508016586303711 -0.249675795435905 0.003921568859369
-4.154268264770508 -14.112338066101074 -0.773620545864105 0.003921568859369
-4.341311931610107 -14.699522972106934 1.262374877929688 0.000000000000000
-4.953402996063232 -16.423643112182617 -0.498697608709335 0.000000000000000
-6.900356292724609 -19.197507858276367 -0.234208703041077 0.003921568859369
-4.150727272033691 -13.932682037353516 -0.082525253295898 0.000000000000000
-7.545269489288330 -20.907642364501953 0.265487253665924 0.003921568859369
-3.640770435333252 -12.350070953369141 0.530657351016998 0.000000000000000
-4.204731941223145 -14.100368499755859 -0.773830533027649 0.000000000000000
-5.643918991088867 -22.233539581298828 2.833045005798340 0.003921568859369
-6.005027294158936 -16.823286056518555 -0.624170005321503 0.003921568859369
-4.404853820800781 -14.720896720886230 2.823261260986328 0.003921568859369
-5.522094249725342 -17.973335266113281 -0.986700832843781 0.003921568859369
-5.710006237030029 -22.170389175415039 2.827664852142334 0.003921568859369
-4.401320934295654 -14.535900115966797 2.790907382965088 0.000000000000000
-4.930984020233154 -15.971177101135254 -0.094400584697723 0.000000000000000
-3.646482229232788 -14.409234046936035 0.350621074438095 0.003921568859369
-3.476434469223022 -11.562912940979004 0.497794538736343 0.000000000000000
-5.642377376556396 -18.127265930175781 -0.996266245841980 0.003921568859369
-5.719630718231201 -21.904254913330078 2.796370506286621 0.003921568859369
-6.131476879119873 -19.609149932861328 1.690632462501526 0.003921568859369
-4.955108642578125 -16.043832778930664 3.084223747253418 0.003921568859369
-3.662523031234741 -14.467300415039062 -0.346599578857422 0.000000000000000
-5.070069789886475 -16.221298217773438 -0.494224488735199 0.000000000000000
-4.580105781555176 -14.751677513122559 1.272500276565552 0.000000000000000
-5.025296688079834 -15.901759147644043 -0.094209715723991 0.000000000000000
-3.272002935409546 -10.704219818115234 0.461646318435669 0.000000000000000
-3.492227554321289 -13.502426147460938 -0.651497483253479 0.000000000000000
-4.183048725128174 -13.405099868774414 -0.739123642444611 0.000000000000000
-5.574355125427246 -20.840030670166016 2.665330648422241 0.003921568859369
-6.270136356353760 -19.591381072998047 3.775097370147705 0.003921568859369
-6.407522678375244 -17.003770828247070 -0.209149166941643 0.003921568859369
-5.069148540496826 -15.848866462707520 -0.094016492366791 0.000000000000000
-3.919230699539185 -14.810111045837402 0.361487001180649 0.003921568859369
-2.983263969421387 -14.119419097900391 -0.927142083644867 0.000000000000000
-6.429986000061035 -19.836318969726562 3.826855897903442 0.003921568859369
-3.599466800689697 -16.479871749877930 -0.292339026927948 0.003921568859369
-6.777592658996582 -20.619888305664062 -0.629699051380157 0.003921568859369
-3.985447168350220 -14.845066070556641 0.362714111804962 0.003921568859369
-4.443756580352783 -16.207471847534180 0.003406377509236 0.003921568859369
-5.584997653961182 -20.074674606323242 1.223948597908020 0.003921568859369
-6.652508735656738 -20.030082702636719 1.737037301063538 0.003921568859369
-6.253216266632080 -18.885816574096680 3.652152061462402 0.003921568859369
-4.426644325256348 -16.149528503417969 -0.388460189104080 0.003921568859369
-5.256134510040283 -15.851708412170410 -0.094373971223831 0.000000000000000
-6.898577213287354 -17.698373794555664 0.226747184991837 0.003921568859369
-5.488081932067871 -19.495290756225586 1.189778685569763 0.003921568859369
-6.337443351745605 -18.914632797241211 3.662213563919067 0.003921568859369
-3.658446073532104 -13.374140739440918 -0.322523117065430 0.000000000000000
-3.906368732452393 -11.913229942321777 -0.366357594728470 0.000000000000000
-4.536238670349121 -16.127084732055664 0.395508050918579 0.000000000000000
-5.373776912689209 -18.893932342529297 1.154204964637756 0.000000000000000
-0.499153882265091 -2.366101980209351 0.100526846945286 0.000000000000000
-6.662807941436768 -19.636133193969727 3.806711912155151 0.003921568859369
-7.070537567138672 -20.552394866943359 -0.630748569965363 0.003921568859369
-7.259508609771729 -21.076028823852539 -0.124859429895878 0.003921568859369
-4.185243606567383 -12.555907249450684 0.235089719295502 0.000000000000000
-5.562571048736572 -19.274723052978516 1.178774952888489 0.003921568859369
-0.484352916479111 -2.299229383468628 0.097733452916145 0.000000000000000
-4.961061000823975 -14.705849647521973 1.279346227645874 0.000000000000000
-6.604438304901123 -19.259929656982422 3.738411426544189 0.003921568859369
-4.441388130187988 -15.617012977600098 -0.376926839351654 0.003921568859369
-7.060593128204346 -20.313568115234375 -0.624203145503998 0.003921568859369
-6.684054851531982 -19.280681610107422 -0.114601790904999 0.003921568859369
-5.543663024902344 -18.988048553466797 1.162390708923340 0.003921568859369
-6.642984390258789 -19.167736053466797 1.670331716537476 0.003921568859369
-3.153222322463989 -13.596066474914551 -0.569651007652283 0.000000000000000
-6.615555286407471 -16.534181594848633 -0.622834146022797 0.003921568859369
-6.358567237854004 -18.190401077270508 -0.559976637363434 0.000000000000000
-6.754084587097168 -19.263532638549805 -0.114649474620819 0.003921568859369
-4.234829425811768 -14.587976455688477 -0.709493398666382 0.000000000000000
-5.801401138305664 -19.577083587646484 2.524496555328369 0.003921568859369
-6.825658321380615 -19.457437515258789 1.697788357734680 0.003921568859369
-4.694928169250488 -16.053350448608398 -0.388195931911469 0.000000000000000
-7.248295783996582 -20.385011672973633 -0.628003776073456 0.003921568859369
-4.192523956298828 -14.278480529785156 0.351357877254486 0.000000000000000
-5.360413074493408 -17.953447341918945 -0.873471379280090 0.000000000000000
-4.671000480651855 -15.784121513366699 -0.382153779268265 0.000000000000000
-6.879950523376465 -19.191038131713867 -0.114527195692062 0.003921568859369
-4.329618453979492 -14.533677101135254 1.877630591392517 0.000000000000000
-7.128493785858154 -19.850883483886719 1.736682295799255 0.003921568859369
-6.783557891845703 -16.449375152587891 -0.622433900833130 0.003921568859369
-7.128635883331299 -19.850894927978516 3.872831106185913 0.003921568859369
-4.718723297119141 -15.743674278259277 -0.381606698036194 0.003921568859369
-4.848060607910156 -15.954427719116211 0.003344435710460 0.003921568859369
-6.961124897003174 -19.203083038330078 -0.114749461412430 0.003921568859369
-7.207672119140625 -19.850751876831055 1.738965988159180 0.003921568859369
-5.539704322814941 -15.466670989990234 3.020919561386108 0.003921568859369
-3.621293067932129 -14.370853424072266 -0.257568031549454 0.000000000000000
-6.597561836242676 -18.057697296142578 -0.558843910694122 0.003921568859369
-7.009457111358643 -19.128923416137695 -0.114470630884171 0.003921568859369
-8.266031265258789 -19.495731353759766 0.253015071153641 0.003921568859369
-6.496401309967041 -17.794664382934570 -0.995068371295929 0.003921568859369
-6.927837371826172 -18.916328430175781 1.659195661544800 0.003921568859369
-5.092543601989746 -19.701057434082031 -0.827988564968109 0.003921568859369
-7.049590110778809 -19.232625961303711 3.762110233306885 0.003921568859369
-6.213296413421631 -16.881855010986328 0.741720438003540 0.003921568859369
-4.928839683532715 -15.826354980468750 -0.384911507368088 0.000000000000000
-8.858285903930664 -20.449090957641602 0.266348034143448 0.003921568859369
-4.152579784393311 -13.341582298278809 -0.653555274009705 0.000000000000000
-6.333318233489990 -14.839021682739258 -0.565256297588348 0.003921568859369
-5.383629322052002 -14.594710350036621 2.862030029296875 0.000000000000000
-4.224920749664307 -13.401437759399414 -0.657250821590424 0.000000000000000
-7.134364604949951 -18.861352920532227 1.661143302917480 0.003921568859369
-5.492568016052246 -14.720931053161621 2.890782594680786 0.003921568859369
-6.772130012512207 -15.523437500000000 -0.195502981543541 0.003921568859369
-6.758337497711182 -20.594308853149414 1.273989558219910 0.003921568859369
-4.678317546844482 -14.563925743103027 1.894728422164917 0.000000000000000
-4.422244071960449 -16.188858032226562 0.101504519581795 0.000000000000000
-8.742947578430176 -19.654685974121094 0.257112622261047 0.003921568859369
-3.658390998840332 -13.598708152770996 -0.906303346157074 0.000000000000000
-6.674280643463135 -17.362907409667969 0.767167329788208 0.003921568859369
-4.705671310424805 -14.497591018676758 1.888369679450989 0.003921568859369
-7.165173530578613 -18.575893402099609 1.640539288520813 0.003921568859369
-4.403163433074951 -13.630081176757812 3.871298313140869 0.003921568859369
-7.432295799255371 -16.669202804565430 0.217986196279526 0.003921568859369
-6.733389854431152 -20.084827423095703 1.245432257652283 0.003921568859369
-7.270699977874756 -18.649179458618164 1.649360775947571 0.003921568859369
-5.703980445861816 -14.815636634826660 2.921684265136719 0.003921568859369
-4.620215892791748 -16.436365127563477 -0.296259164810181 0.003921568859369
-1.863133430480957 -6.209378719329834 0.153041541576385 0.000000000000000
-8.162181854248047 -18.067476272583008 0.236891925334930 0.003921568859369
-6.631751060485840 -19.578556060791016 1.215474247932434 0.003921568859369
-4.009342670440674 -14.416973114013672 -0.610975623130798 0.003921568859369
-6.797670841217041 -17.318582534790039 3.420598030090332 0.003921568859369
-6.815198898315430 -19.884347915649414 0.496787101030350 0.003921568859369
-6.685808181762695 -19.525238037109375 1.213598489761353 0.003921568859369
-7.638216495513916 -19.174612045288086 1.700674653053284 0.003921568859369
-5.060895919799805 -17.681442260742188 -0.749424099922180 0.003921568859369
-6.604379177093506 -16.531099319458008 -0.518320024013519 0.000000000000000
-4.940447807312012 -14.523458480834961 1.901070356369019 0.003921568859369
-4.863462924957275 -16.826385498046875 -0.714088559150696 0.003921568859369
-6.650535583496094 -19.217061996459961 -0.471306413412094 0.003921568859369
-4.010306835174561 -13.901848793029785 0.087231978774071 0.000000000000000
-6.566320419311523 -16.281351089477539 -0.099237106740475 0.000000000000000
-4.715942859649658 -16.150667190551758 0.496084034442902 0.003921568859369
-3.928621292114258 -13.641649246215820 -0.913943231105804 0.000000000000000
-5.859757423400879 -16.863645553588867 -0.833440601825714 0.000000000000000
-5.006212711334229 -14.545871734619141 1.906445384025574 0.000000000000000
-4.144415855407715 -14.329350471496582 -0.609206557273865 0.000000000000000
-6.018508434295654 -14.991471290588379 2.973428964614868 0.003921568859369
-7.128078937530518 -20.306995391845703 -0.498513549566269 0.003921568859369
-0.520622491836548 -2.342905759811401 -0.271356463432312 0.000000000000000
-6.346541404724121 -17.991003036499023 1.122321009635925 0.000000000000000
-5.309067249298096 -15.204213142395020 1.995426893234253 0.003921568859369
-4.746103286743164 -16.050575256347656 -0.682789444923401 0.003921568859369
-7.127369403839111 -15.320114135742188 -0.592106163501740 0.003921568859369
-6.934965610504150 -16.983308792114258 3.373850584030151 0.003921568859369
-7.225432872772217 -20.351964950561523 -0.500258207321167 0.003921568859369
-4.916406631469727 -16.388149261474609 0.103565134108067 0.000000000000000
-6.058451652526855 -17.035203933715820 0.427399247884750 0.000000000000000
-6.973235607147217 -19.466176986694336 1.216155767440796 0.003921568859369
-7.114090919494629 -17.235027313232422 0.769269406795502 0.003921568859369
-6.859653472900391 -19.164693832397461 -0.949234664440155 0.003921568859369
-5.283815383911133 -14.976282119750977 1.968043565750122 0.003921568859369
-4.168518543243408 -14.061700820922852 -0.599206387996674 0.000000000000000
-7.186105728149414 -15.304671287536621 -0.592526316642761 0.003921568859369
-6.712773323059082 -16.153945922851562 -0.509605407714844 0.003921568859369
-4.985957622528076 -16.407693862915039 0.103809699416161 0.003921568859369
-7.139279365539551 -17.129064559936523 0.330295830965042 0.003921568859369
-7.161402225494385 -17.179565429687500 0.767950117588043 0.003921568859369
-7.168658256530762 -17.196504592895508 -0.979744493961334 0.003921568859369
-5.010118961334229 -16.482076644897461 -0.702642023563385 0.003921568859369
-8.499168395996094 -20.237972259521484 4.033068180084229 0.003921568859369
-7.341753482818604 -20.231287002563477 -0.498618662357330 0.003921568859369
-6.554484844207764 -17.971748352050781 0.452247291803360 0.003921568859369
-7.030190944671631 -19.209552764892578 1.203276276588440 0.003921568859369
-8.568181991577148 -20.203350067138672 4.032342910766602 0.003921568859369
-6.816983699798584 -18.462352752685547 -0.918223321437836 0.000000000000000
-7.427137851715088 -15.385435104370117 -0.598761618137360 0.003921568859369
-6.640359401702881 -17.822582244873047 0.449686974287033 0.003921568859369
-6.661038398742676 -17.875534057617188 -0.890342414379120 0.000000000000000
-6.479792118072510 -15.186030387878418 -0.869570493698120 0.003921568859369
-5.084171295166016 -16.133380889892578 -0.690225243568420 0.003921568859369
-7.346532821655273 -17.111907958984375 3.425585269927979 0.003921568859369
-6.243181705474854 -16.810323715209961 -0.416469633579254 0.000000000000000
-7.450053691864014 -17.196477890014648 -0.105791963636875 0.003921568859369
-7.859017372131348 -18.097101211547852 0.351293325424194 0.003921568859369
-7.090584278106689 -18.793416976928711 1.181968092918396 0.003921568859369
-7.686237335205078 -17.716310501098633 1.592748999595642 0.000000000000000
-5.135275840759277 -16.118114471435547 -0.690389215946198 0.003921568859369
-7.411138057708740 -17.110048294067383 3.430612325668335 0.003921568859369
-7.523366928100586 -17.198207855224609 -0.105972044169903 0.003921568859369
-6.660041332244873 -17.528347015380859 0.443441152572632 0.000000000000000
-7.957131385803223 -18.144657135009766 0.352783650159836 0.003921568859369
-5.490929126739502 -14.608057975769043 1.935264468193054 0.000000000000000
-6.555563449859619 -19.830665588378906 0.616124451160431 0.003921568859369
-6.637232303619385 -19.852882385253906 0.617534697055817 0.003921568859369
-7.667491912841797 -17.202354431152344 0.777439713478088 0.003921568859369
-7.927251815795898 -17.758983612060547 1.604172945022583 0.000000000000000
-6.947958469390869 -20.734979629516602 -0.890492916107178 0.003921568859369
-5.762047290802002 -14.988242149353027 4.341903686523438 0.003921568859369
-7.946750640869141 -17.639778137207031 1.595994710922241 0.000000000000000
-6.774318218231201 -19.799797058105469 0.617408990859985 0.003921568859369
-7.934890747070312 -17.456361770629883 0.791554391384125 0.003921568859369
-7.049203395843506 -20.563140869140625 -0.885337412357330 0.003921568859369
-5.845763683319092 -14.895215988159180 4.327382087707520 0.003921568859369
-6.964046478271484 -15.275151252746582 -0.489774525165558 0.003921568859369
-7.522438526153564 -16.439813613891602 0.746540904045105 0.003921568859369
-7.247248172760010 -18.082077026367188 5.261422634124756 0.003921568859369
-7.034733772277832 -15.285494804382324 -0.490929335355759 0.000000000000000
-4.416447162628174 -12.969476699829102 0.404496341943741 0.000000000000000
-9.607663154602051 -20.423292160034180 -0.656093597412109 0.003921568859369
-6.934088230133057 -19.597253799438477 0.126355513930321 0.003921568859369
-6.816731929779053 -19.282026290893555 -0.833550393581390 0.003921568859369
-7.381441116333008 -15.721372604370117 -0.506571531295776 0.000000000000000
-8.176225662231445 -15.389307975769043 -0.201502516865730 0.003921568859369
-2.180695533752441 -5.863673210144043 -0.688924849033356 0.000000000000000
-7.116247177124023 -19.874166488647461 0.622929632663727 0.003921568859369
-8.256900787353516 -17.499292373657227 1.596616983413696 0.000000000000000
-6.841826915740967 -18.943494796752930 0.594412803649902 0.003921568859369
-7.484598159790039 -17.942337036132812 -0.907939791679382 0.000000000000000
-6.271948814392090 -15.166969299316406 4.439321517944336 0.003921568859369
-7.665520668029785 -18.356168746948242 -0.461773931980133 0.003921568859369
-8.261110305786133 -17.204126358032227 -0.556006312370300 0.003921568859369
-8.380658149719238 -17.442281723022461 1.596930623054504 0.000000000000000
-6.084663867950439 -14.599419593811035 4.279669284820557 0.003921568859369
-9.205505371093750 -18.936855316162109 -0.612791895866394 0.003921568859369
-8.057178497314453 -16.664312362670898 0.329776257276535 0.003921568859369
-6.215601921081543 -14.770970344543457 4.336682319641113 0.003921568859369
-6.960419654846191 -16.444047927856445 -0.415246516466141 0.003921568859369
-7.299776554107666 -17.045387268066406 0.438846409320831 0.003921568859369
-2.279382705688477 -5.879762649536133 -0.451398193836212 0.003921568859369
-8.844480514526367 -20.480772018432617 1.313171267509460 0.003921568859369
-7.395753860473633 -15.223479270935059 -0.892308175563812 0.003921568859369
-8.373760223388672 -17.141143798828125 3.512486219406128 0.003921568859369
-6.453662872314453 -15.163722991943359 -0.383737206459045 0.003921568859369
-9.206823348999023 -21.089654922485352 0.544483304023743 0.003921568859369
-7.184563636779785 -19.056755065917969 0.601228535175323 0.003921568859369
-8.456093788146973 -19.435739517211914 -0.989408314228058 0.003921568859369
-8.749607086181641 -17.725675582885742 1.631559491157532 0.003921568859369
-8.482319831848145 -15.316497802734375 -0.614344179630280 0.003921568859369
-8.802502632141113 -19.837646484375000 5.861597537994385 0.003921568859369
-9.251712799072266 -18.392768859863281 3.789231300354004 0.003921568859369
-6.716812133789062 -15.325037002563477 -0.389615148305893 0.003921568859369
-9.108644485473633 -16.017629623413086 -0.212987557053566 0.003921568859369
-7.718812465667725 -19.807222366333008 0.627604305744171 0.003921568859369
-7.990451335906982 -17.917053222656250 -0.916659533977509 0.003921568859369
-7.795986652374268 -17.499332427978516 2.375209331512451 0.003921568859369
-7.921547412872314 -15.589922904968262 -0.510419547557831 0.000000000000000
-7.833702564239502 -17.429061889648438 2.369336843490601 0.003921568859369
-9.407330513000488 -18.384977340698242 1.704423069953918 0.003921568859369
-8.293243408203125 -14.408296585083008 -0.192675992846489 0.003921568859369
-8.944012641906738 -17.359594345092773 0.806735992431641 0.003921568859369
-9.487838745117188 -18.373632431030273 1.706702947616577 0.003921568859369
-8.945369720458984 -15.493736267089844 -0.627787590026855 0.003921568859369
-8.409948348999023 -16.362966537475586 3.389518260955811 0.003921568859369
-8.689893722534180 -16.752008438110352 0.779793381690979 0.003921568859369
-8.414967536926270 -14.501811027526855 -0.588958442211151 0.003921568859369
-8.509875297546387 -14.543646812438965 -0.195265457034111 0.003921568859369
-8.383205413818359 -14.336236000061035 -0.975116789340973 0.003921568859369
-7.840795993804932 -16.822809219360352 0.439456075429916 0.003921568859369
-8.913516044616699 -16.875909805297852 0.788647234439850 0.003921568859369
-9.260031700134277 -15.643946647644043 -0.637901127338409 0.003921568859369
-8.193209648132324 -17.405933380126953 2.385928630828857 0.003921568859369
-8.213987350463867 -15.366744995117188 -0.098936438560486 0.003921568859369
-8.562829971313477 -15.991398811340332 -0.956422746181488 0.003921568859369
-9.766273498535156 -18.145019531250000 1.701433897018433 0.003921568859369
-8.872501373291016 -18.627443313598633 5.577499389648438 0.003921568859369
-8.021585464477539 -16.913797378540039 -0.435470432043076 0.003921568859369
-7.666274547576904 -16.049480438232422 0.421297639608383 0.003921568859369
-7.246556758880615 -15.211566925048828 -0.789267718791962 0.000000000000000
-8.793525695800781 -16.263471603393555 1.527863025665283 0.000000000000000
-8.562665939331055 -14.185853958129883 -0.582500696182251 0.003921568859369
-9.171472549438477 -16.811010360717773 -0.558641493320465 0.003921568859369
-8.496747970581055 -17.569688796997070 1.150465130805969 0.000000000000000
-8.192905426025391 -15.086680412292480 0.710114717483521 0.003921568859369
-9.330659866333008 -17.090957641601562 1.608590126037598 0.000000000000000
-8.032794952392578 -18.892852783203125 -0.837835490703583 0.003921568859369
-7.280810832977295 -17.025672912597656 0.112407825887203 0.003921568859369
-7.428760051727295 -15.307545661926270 -0.797036945819855 0.003921568859369
-8.232324600219727 -15.021845817565918 -0.904043495655060 0.003921568859369
-8.680873870849609 -14.153450012207031 -0.583760261535645 0.003921568859369
-9.491855621337891 -16.958251953125000 3.581378698348999 0.003921568859369
-8.387678146362305 -14.940132141113281 -0.097428098320961 0.003921568859369
-9.921201705932617 -17.555690765380859 1.665756225585938 0.003921568859369
-8.963939666748047 -15.922324180603027 3.369309425354004 0.003921568859369
-9.312915802001953 -16.387176513671875 -0.550174236297607 0.000000000000000
-9.028369903564453 -15.779603004455566 -0.530982673168182 0.000000000000000
-8.889801025390625 -19.697687149047852 0.131510004401207 0.003921568859369
-7.657816410064697 -17.077053070068359 0.553186178207397 0.003921568859369
-9.009065628051758 -14.016362190246582 -0.193417847156525 0.003921568859369
-8.639787673950195 -15.001565933227539 0.716303586959839 0.003921568859369
-9.556402206420898 -16.527027130126953 3.519524097442627 0.003921568859369
-8.987829208374023 -15.458822250366211 -0.522491097450256 0.000000000000000
-8.810079574584961 -15.164898872375488 0.725656390190125 0.003921568859369
-8.033399581909180 -15.549715042114258 -0.819984972476959 0.003921568859369
-9.059665679931641 -15.577594757080078 -0.950884699821472 0.003921568859369
-9.348745346069336 -16.054513931274414 1.535963773727417 0.000000000000000
-8.602888107299805 -14.718260765075684 -0.097028113901615 0.003921568859369
-8.479596138000488 -14.402039527893066 -0.489049196243286 0.003921568859369
-10.890612602233887 -16.462072372436523 0.236230581998825 0.003921568859369
-7.814890384674072 -16.803749084472656 0.547979176044464 0.003921568859369
-9.084315299987793 -15.385528564453125 -0.943206191062927 0.003921568859369
-9.858889579772949 -16.515539169311523 -0.561607360839844 0.000000000000000
-9.009606361389160 -15.145289421081543 -0.930528819561005 0.003921568859369
-9.499388694763184 -15.934958457946777 1.534304738044739 0.000000000000000
-7.647819995880127 -16.187740325927734 -0.311765640974045 0.003921568859369
-9.332098007202148 -17.393846511840820 1.164415717124939 0.003921568859369
-8.518288612365723 -15.936326026916504 -0.846611022949219 0.003921568859369
-8.832848548889160 -16.499139785766602 2.324225425720215 0.003921568859369
-9.670260429382324 -15.973252296447754 0.772581458091736 0.003921568859369
-9.333163261413574 -15.437739372253418 -0.952380359172821 0.003921568859369
-8.677345275878906 -14.278549194335938 -0.489079743623734 0.000000000000000
-9.013087272644043 -18.606101989746094 -0.844543814659119 0.003921568859369
-9.050778388977051 -13.281019210815430 -0.945915639400482 0.003921568859369
-9.216336250305176 -16.771284103393555 1.129297971725464 0.000000000000000
-8.295345306396484 -17.043149948120117 -0.775146186351776 0.003921568859369
-9.461400032043457 -13.757175445556641 0.199803724884987 0.003921568859369
-9.045983314514160 -13.176564216613770 -0.940837681293488 0.003921568859369
-9.318711280822754 -16.813795089721680 1.134437084197998 0.000000000000000
-8.670559883117676 -14.055460929870605 -0.873169839382172 0.003921568859369
-10.192773818969727 -18.329259872436523 2.602849721908569 0.003921568859369
-8.643135070800781 -17.574583053588867 -0.800655305385590 0.003921568859369
-7.582488059997559 -15.368990898132324 -0.298803597688675 0.003921568859369
-9.342140197753906 -16.712556838989258 1.129983544349670 0.000000000000000
-6.764077186584473 -11.004328727722168 1.072771787643433 0.000000000000000
-7.996191501617432 -16.167919158935547 -0.738197445869446 0.003921568859369
-8.827434539794922 -14.082058906555176 -0.486696600914001 0.003921568859369
-9.686429977416992 -17.173780441284180 -0.923133313655853 0.000000000000000
-9.568352699279785 -15.215753555297852 -0.949303805828094 0.003921568859369
-4.577929019927979 -7.580161571502686 0.739730060100555 0.000000000000000
-10.695355415344238 -15.256673812866211 -0.654827952384949 0.003921568859369
-9.484115600585938 -16.694147109985352 1.133242964744568 0.000000000000000
-10.198260307312012 -16.056381225585938 0.787141561508179 0.003921568859369
-9.845891952514648 -17.307128906250000 -0.932193458080292 0.003921568859369
-7.888855457305908 -12.454872131347656 1.222764372825623 0.000000000000000
-8.908301353454590 -15.478069305419922 -0.416571646928787 0.003921568859369
-9.436708450317383 -14.575627326965332 -0.508349001407623 0.003921568859369
-10.281081199645996 -14.271242141723633 -0.619058847427368 0.003921568859369
-8.833046913146973 -15.115884780883789 4.748002529144287 0.003921568859369
-8.063178062438965 -15.390254020690918 -0.303088724613190 0.003921568859369
-10.445103645324707 -15.838319778442383 0.785452723503113 0.003921568859369
-8.481583595275879 -14.432740211486816 -0.391112446784973 0.003921568859369
-10.575656890869141 -15.903831481933594 0.790696442127228 0.003921568859369
-11.346818923950195 -17.022769927978516 1.692029833793640 0.003921568859369
-8.715494155883789 -14.692531585693359 -0.399003803730011 0.000000000000000
-10.491022109985352 -17.430397033691406 -0.952761113643646 0.003921568859369
-11.544129371643066 -17.186840057373047 1.712281942367554 0.003921568859369
-3.462498664855957 -5.500009536743164 1.223467230796814 0.003921568859369
-11.008129119873047 -16.172430038452148 0.809876143932343 0.003921568859369
-3.472616434097290 -5.473681926727295 1.220588445663452 0.000000000000000
-8.654428482055664 -14.263634681701660 -0.389951646327972 0.003921568859369
-8.664240837097168 -14.061100006103516 -0.775994598865509 0.000000000000000
-9.811478614807129 -14.261365890502930 -0.915718317031860 0.003921568859369
-5.115216255187988 -7.691252231597900 0.772354841232300 0.000000000000000
-8.592749595642090 -15.454026222229004 -0.308542370796204 0.003921568859369
-10.896877288818359 -15.669308662414551 0.340722143650055 0.003921568859369
-10.729327201843262 -17.144842147827148 1.194194316864014 0.003921568859369
-10.362192153930664 -14.817182540893555 0.322852075099945 0.003921568859369
-10.500885009765625 -16.664632797241211 1.163306117057800 0.000000000000000
-11.223014831542969 -16.004108428955078 0.809342026710510 0.003921568859369
-9.889342308044434 -15.728782653808594 -0.871527254581451 0.000000000000000
-12.186412811279297 -17.332365036010742 1.752412438392639 0.003921568859369
-9.623576164245605 -15.320395469665527 4.907566547393799 0.003921568859369
-10.618540763854980 -15.060009956359863 -0.539389371871948 0.000000000000000
-8.964517593383789 -14.204165458679199 -0.789135813713074 0.000000000000000
-10.405473709106445 -14.767806053161621 1.496519565582275 0.000000000000000
-8.753217697143555 -15.480532646179199 -0.728947460651398 0.003921568859369
-8.397988319396973 -14.771461486816406 -0.296866029500961 0.003921568859369
-8.987725257873535 -14.141524314880371 -0.787481129169464 0.000000000000000
-3.328494548797607 -5.606604099273682 0.825757026672363 0.000000000000000
-10.459963798522949 -14.742952346801758 1.497817039489746 0.000000000000000
-1.409807443618774 -3.024577856063843 -0.145045533776283 0.003921568859369
-8.906097412109375 -15.502162933349609 -0.312061816453934 0.003921568859369
-9.913849830627441 -15.421055793762207 -0.860468924045563 0.000000000000000
-3.356870412826538 -5.606792926788330 0.827709078788757 0.000000000000000
-12.199337005615234 -16.982072830200195 1.730156183242798 0.003921568859369
-10.319698333740234 -14.346917152404785 0.732634902000427 0.003921568859369
-3.386532068252563 -5.610803604125977 0.830150067806244 0.000000000000000
-12.310438156127930 -17.013706207275391 1.737661123275757 0.003921568859369
-8.353880882263184 -14.472290039062500 -0.685866177082062 0.003921568859369
-10.979924201965332 -15.115877151489258 -0.547022104263306 0.000000000000000
-10.806321144104004 -18.379102706909180 -0.872175753116608 0.003921568859369
-8.563635826110840 -14.582560539245605 -0.295596241950989 0.003921568859369
-10.909482955932617 -14.913557052612305 -0.541166186332703 0.000000000000000
-10.340043067932129 -14.161600112915039 0.727032959461212 0.003921568859369
-10.662408828735352 -14.587549209594727 -0.955941140651703 0.003921568859369
-9.717845916748047 -14.788539886474609 4.803853034973145 0.003921568859369
-9.154620170593262 -15.430242538452148 -0.735774874687195 0.003921568859369
-8.590787887573242 -14.400123596191406 0.497012197971344 0.003921568859369
-3.489762067794800 -5.554471492767334 0.831599533557892 0.000000000000000
-3.492784976959229 -5.513561725616455 0.827685058116913 0.000000000000000
-12.231327056884766 -14.544625282287598 -0.220837175846100 0.003921568859369
-12.663693428039551 -14.947776794433594 -0.227504581212997 0.003921568859369
-8.611660957336426 -14.005542755126953 -0.675433099269867 0.003921568859369
-10.728964805603027 -15.571054458618164 -0.441622287034988 0.000000000000000
-12.528184890747070 -14.683609962463379 -0.224257633090019 0.003921568859369
-12.567594528198242 -14.632507324218750 -0.224179416894913 0.003921568859369
-12.478432655334473 -14.531988143920898 -0.674643337726593 0.003921568859369
-10.079203605651855 -14.344617843627930 0.003142826026306 0.003921568859369
-12.485463142395020 -14.437934875488281 -0.221927806735039 0.003921568859369
-9.786165237426758 -15.478318214416504 -0.751342594623566 0.003921568859369
-11.935619354248047 -13.821743965148926 -0.643810093402863 0.003921568859369
-10.644748687744141 -15.119209289550781 -0.432207196950912 0.000000000000000
-10.418941497802734 -14.701539993286133 1.066310882568359 0.000000000000000
-5.370479106903076 -7.781335830688477 1.189864516258240 0.000000000000000
-12.625186920166016 -14.290417671203613 -0.221785008907318 0.003921568859369
-13.392893791198730 -15.132863044738770 0.242031201720238 0.003921568859369
-5.354865550994873 -7.703893661499023 1.181060791015625 0.000000000000000
-10.234715461730957 -14.138623237609863 0.414743840694427 0.003921568859369
-13.459161758422852 -15.099370956420898 0.242256626486778 0.003921568859369
-10.883626937866211 -15.001928329467773 -0.433349162340164 0.000000000000000
-13.598688125610352 -15.145087242126465 -0.236398085951805 0.003921568859369
-13.433075904846191 -14.965718269348145 0.240855857729912 0.003921568859369
-11.700829505920410 -15.972008705139160 1.170817375183105 0.003921568859369
-4.704569339752197 -6.733744144439697 2.264139890670776 0.000000000000000
-11.347251892089844 -15.404654502868652 0.003619309747592 0.003921568859369
-10.854706764221191 -16.358427047729492 0.119331449270248 0.000000000000000
-13.439171791076660 -14.878262519836426 0.240126073360443 0.003921568859369
-9.162287712097168 -13.789069175720215 0.100398808717728 0.003921568859369
-13.474476814270020 -14.807017326354980 0.239776805043221 0.003921568859369
-4.161887168884277 -5.933165073394775 0.918556213378906 0.000000000000000
-13.501551628112793 -14.737658500671387 0.239381045103073 0.003921568859369
-13.555483818054199 -14.686615943908691 0.239366412162781 0.003921568859369
-11.857288360595703 -14.230951309204102 0.331055968999863 0.003921568859369
-5.219099044799805 -5.910694599151611 -0.475150227546692 0.000000000000000
-13.306317329406738 -15.913551330566406 1.718457937240601 0.003921568859369
-7.567020416259766 -8.326883316040039 -0.133375570178032 0.000000000000000
-12.066826820373535 -14.377606391906738 0.335452556610107 0.003921568859369
-12.019094467163086 -14.322412490844727 0.775573492050171 0.003921568859369
-13.416467666625977 -15.934294700622559 1.725633621215820 0.003921568859369
-13.469153404235840 -15.890849113464355 -0.609976589679718 0.003921568859369
-14.353357315063477 -15.323197364807129 0.251483380794525 0.003921568859369
-6.412884712219238 -7.806417465209961 1.890334248542786 0.000000000000000
-13.471745491027832 -15.782266616821289 -0.607688665390015 0.003921568859369
-13.277325630187988 -14.107094764709473 -0.682975530624390 0.003921568859369
-12.850893974304199 -14.965016365051270 -0.578241586685181 0.003921568859369
-11.860101699829102 -13.845960617065430 0.325960546731949 0.003921568859369
-13.711041450500488 -15.935637474060059 1.741929054260254 0.003921568859369
-10.367967605590820 -14.863249778747559 -0.744521558284760 0.003921568859369
-13.233970642089844 -13.959627151489258 -0.678285896778107 0.003921568859369
-13.901241302490234 -16.149789810180664 3.937993526458740 0.003921568859369
-12.506532669067383 -14.474038124084473 -0.561106860637665 0.000000000000000
-11.935997962951660 -13.834420204162598 -0.968472540378571 0.003921568859369
-13.846195220947266 -15.975529670715332 1.751717209815979 0.003921568859369
-11.965534210205078 -13.770459175109863 -0.967028200626373 0.003921568859369
-13.495269775390625 -15.370636940002441 -0.116683192551136 0.003921568859369
-12.199983596801758 -13.840690612792969 -0.541693806648254 0.000000000000000
-13.511138916015625 -15.280622482299805 -0.116389274597168 0.003921568859369
-12.248226165771484 -13.796614646911621 -0.541706323623657 0.000000000000000
-13.564400672912598 -15.231960296630859 -0.116403102874756 0.003921568859369
-15.156318664550781 -16.967590332031250 1.883982539176941 0.003921568859369
-12.865919113159180 -14.369266510009766 -0.565889775753021 0.000000000000000
-13.753168106079102 -15.330046653747559 -0.117516227066517 0.003921568859369
-13.963268280029297 -15.557062149047852 1.732697010040283 0.003921568859369
-12.924390792846680 -14.336899757385254 -0.566362857818604 0.000000000000000
-1.870737671852112 -2.444777011871338 -0.021183429285884 0.000000000000000
