# This PCD file was generated using the MATLAB® pcwrite function
# from Computer Vision Toolbox®.
# .PCD v.7 - Point Cloud Data file format
VERSION .7
FIELDS x y z intensity
SIZE 8 8 8 8
TYPE F F F F
COUNT 1 1 1 1
WIDTH 641
HEIGHT 1
VIEWPOINT 0 0 0 1 0 0 0
POINTS 641
DATA ascii
4.634258270263672 -5.476509571075439 0.286355912685394 0.000000000000000
6.197609901428223 -7.455697059631348 0.780753433704376 0.000000000000000
5.510796070098877 -6.687486171722412 1.556600928306580 0.000000000000000
8.728052139282227 -10.888631820678711 -0.403550475835800 0.000000000000000
2.730557203292847 -2.653599500656128 0.105614393949509 0.000000000000000
15.724922180175781 -19.965951919555664 4.611202239990234 0.003921568859369
10.274264335632324 -11.895531654357910 0.361720532178879 0.000000000000000
7.862792968750000 -8.200679779052734 0.325468748807907 0.000000000000000
10.266344070434570 -11.886522293090820 -0.363624185323715 0.000000000000000
6.241166591644287 -6.509196281433105 0.257314920425415 0.000000000000000
6.325082778930664 -7.337398052215576 0.221393257379532 0.000000000000000
3.855794906616211 -4.843690395355225 0.494645774364471 0.000000000000000
6.465597629547119 -6.846115112304688 0.268966913223267 0.000000000000000
5.593789100646973 -7.193785190582275 0.156045749783516 0.000000000000000
2.522275447845459 -3.100113868713379 0.156875357031822 0.000000000000000
4.825633049011230 -6.215088367462158 0.134315758943558 0.000000000000000
4.070420742034912 -5.200998306274414 0.528515458106995 0.000000000000000
6.815531253814697 -8.092624664306641 -0.001057104906067 0.003921568859369
5.663232803344727 -8.203507423400879 -0.115551255643368 0.000000000000000
8.544151306152344 -9.302629470825195 0.071354016661644 0.000000000000000
3.911099910736084 -5.051846027374268 -0.037463366985321 0.000000000000000
4.671867370605469 -5.502812862396240 0.163858070969582 0.000000000000000
2.700521469116211 -3.402808666229248 -0.222359567880630 0.000000000000000
7.295554161071777 -9.661203384399414 2.184532165527344 0.000000000000000
6.755546092987061 -8.184045791625977 1.286355257034302 0.000000000000000
3.718420505523682 -4.928585529327393 0.104678377509117 0.000000000000000
7.418473243713379 -9.136552810668945 -0.543402254581451 0.000000000000000
9.484894752502441 -13.109185218811035 -0.094076395034790 0.000000000000000
5.256992340087891 -7.244768142700195 0.153303489089012 0.000000000000000
10.734840393066406 -13.625816345214844 1.002106785774231 0.000000000000000
5.366652488708496 -7.457415580749512 -0.053614214062691 0.000000000000000
12.887310028076172 -16.529491424560547 1.212651014328003 0.003921568859369
4.557287693023682 -5.674790859222412 -0.167532235383987 0.000000000000000
4.353976726531982 -6.041835308074951 0.597580313682556 0.000000000000000
7.955360412597656 -10.254076957702637 -0.000934359850362 0.000000000000000
6.089390754699707 -8.631975173950195 0.852204978466034 0.000000000000000
6.435401439666748 -8.300646781921387 0.240592911839485 0.000000000000000
7.552176475524902 -10.926849365234375 0.229074954986572 0.000000000000000
2.376833438873291 -2.667901754379272 0.098880007863045 0.000000000000000
1.335650205612183 -1.911582469940186 0.024752371013165 0.000000000000000
2.318634748458862 -3.259280443191528 0.066733568906784 0.000000000000000
6.985602855682373 -9.496477127075195 -0.544382870197296 0.000000000000000
3.729331016540527 -4.455451965332031 -0.232531785964966 0.000000000000000
6.899208545684814 -8.531808853149414 -0.442837566137314 0.000000000000000
7.682260513305664 -11.815431594848633 1.140798211097717 0.000000000000000
9.260879516601562 -16.122510910034180 0.215201169252396 0.003921568859369
6.678901672363281 -10.392959594726562 0.998848617076874 0.000000000000000
5.252536296844482 -8.162520408630371 -0.280016988515854 0.000000000000000
8.567904472351074 -13.527627944946289 0.647455334663391 0.000000000000000
10.410448074340820 -18.612319946289062 0.247220739722252 0.003921568859369
3.266913890838623 -4.032528877258301 0.146036893129349 0.000000000000000
5.707870483398438 -7.314351558685303 0.052084103226662 0.000000000000000
5.325490474700928 -9.411118507385254 -0.624242424964905 0.000000000000000
5.334910392761230 -9.428294181823730 -0.375206649303436 0.000000000000000
3.178069353103638 -3.974164009094238 -0.318891853094101 0.000000000000000
8.831342697143555 -11.633937835693359 0.420389950275421 0.000000000000000
3.952746629714966 -5.641445636749268 -0.000989758176729 0.000000000000000
5.288120269775391 -8.607156753540039 0.406380593776703 0.000000000000000
4.478242874145508 -6.533258914947510 0.180612936615944 0.000000000000000
2.811739444732666 -3.978866338729858 0.275687605142593 0.000000000000000
5.213204860687256 -8.614022254943848 -0.290529310703278 0.000000000000000
9.995455741882324 -16.856351852416992 0.340058535337448 0.003921568859369
3.392107009887695 -4.906107425689697 -0.273303776979446 0.000000000000000
6.270121097564697 -9.350197792053223 1.367075085639954 0.000000000000000
5.090103149414062 -9.521249771118164 -0.374005764722824 0.003921568859369
5.051131248474121 -9.523305892944336 -0.997535049915314 0.000000000000000
4.728038311004639 -8.886229515075684 0.115552946925163 0.000000000000000
3.864799737930298 -5.189753055572510 0.183601543307304 0.000000000000000
3.357827901840210 -6.244749069213867 -0.244860082864761 0.000000000000000
9.123078346252441 -15.865885734558105 -0.529676020145416 0.000000000000000
6.411997318267822 -8.878315925598145 0.062005016952753 0.000000000000000
9.195346832275391 -15.994318962097168 -0.106716550886631 0.000000000000000
9.282348632812500 -16.148988723754883 0.323196589946747 0.003921568859369
4.844832897186279 -8.244775772094727 0.771330654621124 0.000000000000000
3.250358104705811 -6.083972930908203 -0.238166362047195 0.000000000000000
9.063320159912109 -15.870859146118164 -0.528870403766632 0.000000000000000
9.135160446166992 -15.999515533447266 -0.106562584638596 0.000000000000000
9.256689071655273 -16.217363357543945 0.323960512876511 0.003921568859369
9.344057083129883 -16.373882293701172 0.763584196567535 0.003921568859369
9.507827758789062 -16.667297363281250 1.557578444480896 0.000000000000000
9.564735412597656 -16.909536361694336 -0.562286376953125 0.000000000000000
9.857039451599121 -17.437595367431641 0.811717689037323 0.003921568859369
10.035730361938477 -17.760406494140625 1.656618952751160 0.003921568859369
1.506109952926636 -1.880554556846619 -0.094013541936874 0.000000000000000
3.356647968292236 -6.506822109222412 0.083427287638187 0.000000000000000
12.346623420715332 -17.892812728881836 0.628494739532471 0.003921568859369
3.606034517288208 -5.029670238494873 -0.106897376477718 0.000000000000000
5.303294658660889 -9.424971580505371 -0.874723076820374 0.000000000000000
2.584952592849731 -3.620006084442139 0.024026315659285 0.000000000000000
1.386869430541992 -1.990621685981750 -0.054835297167301 0.000000000000000
5.672491550445557 -9.388395309448242 2.908475160598755 0.000000000000000
4.431107997894287 -7.251738548278809 -0.195923909544945 0.000000000000000
4.292082786560059 -8.068057060241699 0.157105043530464 0.000000000000000
7.363468170166016 -14.290367126464844 0.278788805007935 0.000000000000000
4.784158706665039 -8.106879234313965 0.540898561477661 0.000000000000000
9.027793884277344 -15.789075851440430 -0.842182636260986 0.000000000000000
4.552038192749023 -7.756660938262939 1.089747309684753 0.000000000000000
9.792604446411133 -17.302206039428711 0.460028707981110 0.003921568859369
4.480239391326904 -6.875109195709229 0.234362408518791 0.000000000000000
9.616868972778320 -16.982851028442383 2.382742643356323 0.003921568859369
4.572309494018555 -7.923040390014648 0.525567293167114 0.000000000000000
6.372201442718506 -12.632444381713867 2.561254978179932 0.000000000000000
10.335804939270020 -18.575212478637695 0.000116202863865 0.003921568859369
1.807848811149597 -3.303324699401855 -0.107577323913574 0.000000000000000
1.018612384796143 -1.883879780769348 -0.024887705221772 0.000000000000000
4.147067546844482 -8.269978523254395 0.372371017932892 0.000000000000000
5.233776569366455 -8.482947349548340 -0.172705903649330 0.000000000000000
7.217515945434570 -15.158859252929688 0.291595071554184 0.003921568859369
10.698103904724121 -22.704776763916016 4.559801578521729 0.003921568859369
3.797327518463135 -7.870716571807861 -0.251978069543839 0.000000000000000
8.529990196228027 -21.002769470214844 -0.261709779500961 0.003921568859369
8.509573936462402 -20.950565338134766 0.263436466455460 0.003921568859369
4.934639453887939 -10.383171081542969 0.198697805404663 0.000000000000000
9.649641990661621 -20.799341201782227 1.864715337753296 0.003921568859369
6.175591468811035 -10.392752647399902 0.068960599601269 0.000000000000000
6.978677272796631 -11.894196510314941 -0.239179521799088 0.000000000000000
4.824249744415283 -11.861231803894043 0.148195371031761 0.000000000000000
9.169864654541016 -15.759387016296387 -0.738334000110626 0.003921568859369
4.237148761749268 -7.937279224395752 2.381538629531860 0.000000000000000
9.232673645019531 -15.999776840209961 -0.320617407560349 0.003921568859369
2.474395275115967 -5.848485469818115 -0.073529422283173 0.000000000000000
9.385313034057617 -16.270555496215820 0.543122828006744 0.003921568859369
2.781397819519043 -5.786181926727295 0.256881713867188 0.000000000000000
10.294125556945801 -22.855146408081055 4.554213047027588 0.003921568859369
9.128061294555664 -15.943767547607422 -0.318854838609695 0.003921568859369
9.222916603088379 -16.113506317138672 0.107079870998859 0.000000000000000
9.349884033203125 -16.340808868408203 0.544429719448090 0.003921568859369
3.538389205932617 -6.666781425476074 1.993214607238770 0.000000000000000
10.187543869018555 -22.828794479370117 4.542041301727295 0.003921568859369
9.636740684509277 -16.987957000732422 -0.339002132415771 0.003921568859369
9.879248619079590 -22.323425292968750 4.435108184814453 0.003921568859369
9.009557723999023 -18.016420364379883 5.370327472686768 0.003921568859369
10.699235916137695 -19.223003387451172 0.127351120114326 0.003921568859369
9.784568786621094 -22.535131454467773 4.463884830474854 0.003921568859369
2.911022663116455 -6.377204418182373 0.564056932926178 0.000000000000000
9.756089210510254 -22.688068389892578 4.487605571746826 0.003921568859369
4.692189216613770 -9.401695251464844 1.277258276939392 0.000000000000000
2.945340633392334 -6.522724628448486 0.576123118400574 0.000000000000000
9.389925956726074 -22.030738830566406 4.351237773895264 0.003921568859369
8.214702606201172 -16.986110687255859 1.093351960182190 0.000000000000000
9.768143653869629 -23.168825149536133 4.569507598876953 0.003921568859369
5.793402194976807 -12.036223411560059 -0.000135459704325 0.000000000000000
6.593996524810791 -13.770262718200684 1.862205147743225 0.000000000000000
9.462614059448242 -22.862506866455078 4.496354103088379 0.003921568859369
3.543749570846558 -8.272035598754883 -0.052137039601803 0.000000000000000
9.163872718811035 -22.346372604370117 4.388698577880859 0.003921568859369
8.527427673339844 -20.968851089477539 -0.129851639270782 0.003921568859369
9.064112663269043 -22.322488784790039 4.377960681915283 0.003921568859369
8.455755233764648 -21.013015747070312 -0.655403852462769 0.003921568859369
8.147610664367676 -23.557970046997070 0.291239768266678 0.003921568859369
10.055650711059570 -25.102769851684570 2.202152729034424 0.003921568859369
10.627201080322266 -20.773593902587891 0.676461219787598 0.003921568859369
4.607186317443848 -11.394547462463379 0.996294915676117 0.000000000000000
7.905833721160889 -23.641939163208008 0.291379690170288 0.003921568859369
10.527990341186523 -20.755981445312500 0.674741506576538 0.003921568859369
5.855966091156006 -14.809187889099121 0.645807266235352 0.000000000000000
10.845054626464844 -24.311683654785156 3.258139133453369 0.003921568859369
3.169619083404541 -7.722943782806396 0.673964798450470 0.000000000000000
10.429120063781738 -20.728979110717773 0.672786772251129 0.003921568859369
5.497291564941406 -12.160093307495117 1.626696228981018 0.000000000000000
8.714125633239746 -22.572811126708984 1.969895958900452 0.003921568859369
8.692288398742676 -22.512096405029297 4.386010646820068 0.003921568859369
7.513918399810791 -22.965396881103516 -0.278473019599915 0.003921568859369
7.444051742553711 -22.744100570678711 0.279707908630371 0.003921568859369
4.084748268127441 -8.978375434875488 0.568474769592285 0.000000000000000
10.687123298645020 -24.401536941528320 3.260645866394043 0.003921568859369
9.698730468750000 -25.463008880615234 4.954659938812256 0.003921568859369
7.414599895477295 -22.929565429687500 -0.277706623077393 0.003921568859369
10.256331443786621 -20.741983413696289 0.670980274677277 0.003921568859369
9.093634605407715 -20.881578445434570 1.321921944618225 0.003921568859369
10.530593872070312 -24.269708633422852 3.238237380981445 0.003921568859369
1.195385575294495 -2.596028566360474 0.224842354655266 0.000000000000000
5.857815742492676 -13.245478630065918 3.855506181716919 0.000000000000000
8.562047004699707 -22.644407272338867 4.400432109832764 0.003921568859369
7.456139564514160 -23.348077774047852 -0.282414227724075 0.003921568859369
10.168331146240234 -20.744358062744141 0.669960260391235 0.003921568859369
10.444270133972168 -24.301813125610352 3.237783908843994 0.003921568859369
8.473534584045410 -22.647424697875977 4.395436763763428 0.003921568859369
6.652070522308350 -21.004981994628906 0.257455825805664 0.003921568859369
10.094141006469727 -20.775272369384766 0.669873774051666 0.003921568859369
10.504158020019531 -24.685544967651367 3.284168720245361 0.003921568859369
10.249187469482422 -24.295293807983398 3.227616310119629 0.003921568859369
8.854309082031250 -24.204690933227539 2.099154949188232 0.003921568859369
7.044377326965332 -22.839607238769531 -0.275298148393631 0.003921568859369
6.554014205932617 -21.191030502319336 0.259285181760788 0.003921568859369
9.918263435363770 -20.763771057128906 0.667358696460724 0.003921568859369
2.841224670410156 -6.363421440124512 -0.320764839649200 0.000000000000000
10.357609748840332 -24.804321289062500 3.290592670440674 0.003921568859369
8.462946891784668 -23.362039566040039 2.023562431335449 0.003921568859369
8.348228454589844 -23.032997131347656 4.453707695007324 0.003921568859369
6.982644557952881 -22.924598693847656 -0.276002883911133 0.003921568859369
6.422502994537354 -21.017200469970703 0.256908506155014 0.003921568859369
10.043663978576660 -24.276157379150391 3.215976238250732 0.003921568859369
6.045860767364502 -14.366098403930664 4.151805400848389 0.003921568859369
7.884862422943115 -22.212385177612305 1.919312357902527 0.003921568859369
4.074881553649902 -8.447121620178223 -0.162389323115349 0.000000000000000
6.866451263427734 -23.124870300292969 -0.277779549360275 0.003921568859369
8.540132522583008 -20.973041534423828 0.526019096374512 0.003921568859369
7.854743480682373 -22.378570556640625 1.931404948234558 0.003921568859369
7.602485656738281 -21.633745193481445 4.168039321899414 0.003921568859369
8.002619743347168 -23.080865859985352 -0.706753253936768 0.003921568859369
6.565004825592041 -22.366453170776367 -0.268420428037643 0.003921568859369
6.020083427429199 -14.749399185180664 0.369031757116318 0.000000000000000
7.972131729125977 -22.986957550048828 1.981639266014099 0.003921568859369
9.524296760559082 -23.697458267211914 6.820934295654297 0.003921568859369
7.486807346343994 -21.539916992187500 4.145092964172363 0.003921568859369
8.411168098449707 -20.860609054565430 -0.520065367221832 0.003921568859369
7.754405975341797 -22.603120803833008 -0.691317677497864 0.003921568859369
6.555606842041016 -22.634956359863281 -0.271331161260605 0.003921568859369
6.217560768127441 -21.421154022216797 0.260937392711639 0.003921568859369
9.976204872131348 -25.113945007324219 3.308825492858887 0.003921568859369
9.823101043701172 -24.977220535278320 3.286415576934814 0.003921568859369
7.833835601806641 -23.108497619628906 1.987570762634277 0.003921568859369
9.288071632385254 -23.577648162841797 6.768179416656494 0.003921568859369
9.745850563049316 -25.023681640625000 3.288400888442993 0.003921568859369
7.773161411285400 -23.182821273803711 1.991839051246643 0.003921568859369
3.725087404251099 -9.159184455871582 2.625245332717896 0.000000000000000
7.660440444946289 -23.113258361816406 -0.704427301883698 0.003921568859369
6.046281814575195 -21.666950225830078 0.263286858797073 0.003921568859369
7.686098575592041 -23.189966201782227 1.990240693092346 0.003921568859369
9.085242271423340 -23.526496887207031 6.736136436462402 0.003921568859369
7.500002384185791 -22.887428283691406 -0.696753144264221 0.003921568859369
8.545235633850098 -22.330760955810547 1.388966679573059 0.003921568859369
9.551548957824707 -25.037273406982422 3.281640291213989 0.003921568859369
7.632798194885254 -23.303197860717773 1.997771024703979 0.003921568859369
8.965368270874023 -23.455793380737305 6.707168579101562 0.003921568859369
6.238072872161865 -23.027011871337891 -0.274580657482147 0.003921568859369
8.655977249145508 -22.873065948486328 1.420926451683044 0.003921568859369
8.658618927001953 -22.878520965576172 2.994748592376709 0.003921568859369
7.319145202636719 -22.586935043334961 1.934227585792542 0.003921568859369
8.976759910583496 -23.739912033081055 6.779705047607422 0.003921568859369
7.937330245971680 -24.558362960815430 4.694567680358887 0.003921568859369
7.356026172637939 -22.968034744262695 -0.697584927082062 0.003921568859369
8.221015930175781 -21.907743453979492 1.359215259552002 0.003921568859369
0.878466725349426 -2.017763376235962 -0.111858382821083 0.000000000000000
7.573069572448730 -23.666454315185547 2.024602890014648 0.003921568859369
1.057481288909912 -1.930265069007874 -0.037705905735493 0.000000000000000
6.222282886505127 -19.539684295654297 1.669570207595825 0.003921568859369
8.716701507568359 -23.520252227783203 6.700038909912109 0.003921568859369
6.149128437042236 -19.297492980957031 3.680774688720703 0.003921568859369
7.121016025543213 -22.766567230224609 1.943482160568237 0.003921568859369
8.615109443664551 -23.495042800903320 6.684536457061768 0.003921568859369
6.038541316986084 -19.174791336059570 3.653515338897705 0.003921568859369
6.959936141967773 -22.519985198974609 -0.681745231151581 0.003921568859369
6.551091670989990 -21.143604278564453 1.802982807159424 0.003921568859369
8.399654388427734 -23.145051956176758 6.576848506927490 0.003921568859369
7.240987300872803 -23.766946792602539 -0.718639612197876 0.003921568859369
6.644991874694824 -21.738716125488281 -0.129679128527641 0.003921568859369
8.273088455200195 -23.041975021362305 6.539593696594238 0.003921568859369
7.131241321563721 -23.699031829833984 -0.715828716754913 0.003921568859369
5.351230621337891 -12.754023551940918 0.079992644488811 0.000000000000000
7.382302761077881 -20.721261978149414 0.511451005935669 0.003921568859369
7.856918811798096 -22.100078582763672 1.362869977951050 0.003921568859369
7.922007560729980 -22.287481307983398 2.895898818969727 0.003921568859369
8.222769737243652 -23.157495498657227 6.564485549926758 0.003921568859369
5.925159454345703 -19.536623001098633 3.711041688919067 0.003921568859369
6.794187068939209 -22.834976196289062 -0.689059078693390 0.003921568859369
8.544970512390137 -20.958383560180664 0.132207989692688 0.003921568859369
6.766188144683838 -22.736448287963867 -0.135230869054794 0.003921568859369
7.630580425262451 -21.687938690185547 1.335862159729004 0.003921568859369
7.441462039947510 -21.130126953125000 2.742205381393433 0.003921568859369
5.760476589202881 -19.219623565673828 3.647159337997437 0.003921568859369
6.759429454803467 -22.986213684082031 -0.692965865135193 0.003921568859369
6.878798007965088 -23.407238006591797 -0.139026135206223 0.003921568859369
7.843926429748535 -22.547391891479492 1.387405872344971 0.003921568859369
8.311854362487793 -23.931156158447266 6.768601894378662 0.003921568859369
6.394582271575928 -21.690303802490234 4.112504482269287 0.003921568859369
8.050539016723633 -23.163642883300781 -0.566811382770538 0.003921568859369
5.508214950561523 -23.140457153320312 -0.273524999618530 0.003921568859369
7.552070617675781 -21.946048736572266 1.348743438720703 0.003921568859369
5.479659080505371 -18.722545623779297 1.588564038276672 0.003921568859369
6.385911464691162 -21.966600418090820 4.160648345947266 0.003921568859369
7.839413166046143 -22.812593460083008 -0.557526826858521 0.003921568859369
5.117002487182617 -21.768993377685547 -0.257169246673584 0.003921568859369
5.108450889587402 -21.729829788208008 0.261736601591110 0.003921568859369
8.200305938720703 -24.175045013427734 3.126864433288574 0.003921568859369
6.186955928802490 -18.045927047729492 5.091684818267822 0.003921568859369
6.276807308197021 -21.870258331298828 4.138417720794678 0.003921568859369
7.905800342559814 -23.283422470092773 -0.568316161632538 0.003921568859369
6.849596500396729 -24.288925170898438 -0.729900777339935 0.003921568859369
6.476177692413330 -22.912853240966797 -0.135627195239067 0.003921568859369
8.910676956176758 -22.796392440795898 0.711247801780701 0.003921568859369
7.155549049377441 -21.246078491210938 2.744764804840088 0.003921568859369
7.143137454986572 -25.361993789672852 4.794795036315918 0.003921568859369
7.791125297546387 -23.207296371459961 -0.565786004066467 0.003921568859369
7.847750663757324 -23.646888732910156 0.580063402652740 0.003921568859369
5.180275440216064 -18.378723144531250 1.555051445960999 0.000000000000000
5.194764137268066 -18.681848526000977 1.579238533973694 0.000000000000000
5.086311817169189 -18.268287658691406 3.446990251541138 0.003921568859369
4.842731475830078 -21.927774429321289 0.263509869575500 0.003921568859369
6.926617145538330 -21.259536743164062 5.972273349761963 0.003921568859369
5.319408893585205 -19.411304473876953 3.659581661224365 0.003921568859369
2.160035133361816 -5.219606876373291 -0.227068051695824 0.000000000000000
7.429163455963135 -23.168889999389648 -0.562201201915741 0.003921568859369
6.005808830261230 -22.717985153198242 -0.679478406906128 0.003921568859369
6.018599987030029 -18.838384628295898 2.420372962951660 0.003921568859369
5.877233982086182 -22.523540496826172 -0.673085987567902 0.003921568859369
4.459775447845459 -21.201618194580078 0.254276037216187 0.003921568859369
6.389151573181152 -20.552192687988281 1.250889658927917 0.003921568859369
4.999186992645264 -24.857568740844727 0.298023164272308 0.003921568859369
6.263061046600342 -20.402126312255859 1.240427732467651 0.003921568859369
6.520415782928467 -21.279460906982422 -0.514187037944794 0.003921568859369
3.403036832809448 -16.802444458007812 0.200869798660278 0.003921568859369
4.819925308227539 -19.145849227905273 1.608775019645691 0.003921568859369
6.885433673858643 -22.814271926879883 -0.550573408603668 0.003921568859369
3.357350587844849 -16.884122848510742 0.201744377613068 0.003921568859369
6.225721359252930 -20.804273605346680 5.801568508148193 0.003921568859369
3.870859622955322 -20.038915634155273 0.239596188068390 0.003921568859369
6.462565898895264 -21.889757156372070 6.098895549774170 0.003921568859369
6.238079071044922 -21.418445587158203 0.519571065902710 0.003921568859369
8.015526771545410 -23.320955276489258 0.717284679412842 0.003921568859369
5.353422641754150 -18.469446182250977 2.354202032089233 0.003921568859369
7.617722034454346 -22.903959274291992 0.141873493790627 0.003921568859369
6.637034416198730 -24.088331222534180 -0.577097237110138 0.003921568859369
2.827767133712769 -16.144046783447266 -0.188393056392670 0.003921568859369
6.711933135986328 -20.815740585327148 0.128472760319710 0.003921568859369
5.222235202789307 -19.290735244750977 2.447601556777954 0.003921568859369
7.310572147369385 -23.033727645874023 0.142199471592903 0.003921568859369
5.152915000915527 -19.300212860107422 2.446652889251709 0.003921568859369
7.263648986816406 -23.169216156005859 0.142925724387169 0.003921568859369
6.625318527221680 -21.054477691650391 0.642020821571350 0.003921568859369
4.449855327606201 -21.896503448486328 1.822844505310059 0.003921568859369
7.057075977325439 -23.351415634155273 0.143719241023064 0.003921568859369
6.522030830383301 -21.510433197021484 0.654046177864075 0.003921568859369
4.145034313201904 -20.692323684692383 1.721412301063538 0.003921568859369
6.100828170776367 -20.312833786010742 0.616986513137817 0.003921568859369
6.409255027770996 -21.671762466430664 0.657734990119934 0.003921568859369
2.976325988769531 -21.326923370361328 -0.246974349021912 0.003921568859369
6.613831520080566 -22.672740936279297 0.139221668243408 0.003921568859369
6.024637222290039 -20.564811706542969 0.623513162136078 0.003921568859369
2.261585235595703 -16.184194564819336 -0.187675431370735 0.003921568859369
6.219713687896729 -21.582448959350586 0.132346972823143 0.003921568859369
6.216420650482178 -21.569683074951172 0.653390109539032 0.003921568859369
4.953458309173584 -21.243587493896484 0.508792221546173 0.003921568859369
3.913548707962036 -21.928537368774414 1.817893743515015 0.003921568859369
4.142766952514648 -23.857114791870117 -0.699827075004578 0.003921568859369
2.026461601257324 -16.074462890625000 0.190480485558510 0.003921568859369
2.760059356689453 -16.018829345703125 -0.092276737093925 0.000000000000000
2.324903964996338 -19.441593170166016 0.230634808540344 0.003921568859369
1.877422094345093 -16.898420333862305 -0.986099004745483 0.003921568859369
2.720164060592651 -16.925800323486328 1.398420810699463 0.000000000000000
1.770096540451050 -16.375007629394531 -0.955272912979126 0.003921568859369
1.741345882415771 -16.670269012451172 -0.972159266471863 0.003921568859369
3.303471803665161 -16.418251037597656 0.390393674373627 0.000000000000000
1.958543539047241 -19.850616455078125 0.235277488827705 0.003921568859369
1.697399377822876 -16.766786575317383 -0.977410495281219 0.003921568859369
4.342923164367676 -22.058847427368164 2.757331371307373 0.003921568859369
3.589081048965454 -24.678483963012695 4.544269084930420 0.003921568859369
2.586738348007202 -17.705816268920898 -0.517156183719635 0.000000000000000
3.671247959136963 -18.803556442260742 0.002426166553050 0.003921568859369
2.300416946411133 -15.497420310974121 2.851822614669800 0.000000000000000
3.626424312591553 -18.932134628295898 0.449874877929688 0.003921568859369
1.569683551788330 -16.676965713500977 -0.971574842929840 0.003921568859369
2.592431545257568 -18.744918823242188 -0.546891748905182 0.003921568859369
2.587656021118164 -18.704778671264648 -0.106749266386032 0.000000000000000
4.079814910888672 -21.916316986083984 2.734476089477539 0.003921568859369
2.242593050003052 -16.378847122192383 -0.477835357189178 0.000000000000000
3.966075420379639 -21.710254669189453 2.707161903381348 0.003921568859369
3.521010637283325 -19.081678390502930 5.189292430877686 0.003921568859369
2.655085086822510 -20.456884384155273 -0.596126735210419 0.003921568859369
1.357611179351807 -16.125843048095703 -0.185639217495918 0.003921568859369
1.398425340652466 -16.741353988647461 -0.974517881870270 0.003921568859369
3.949530363082886 -22.103511810302734 2.754562139511108 0.003921568859369
2.378415107727051 -18.641330718994141 -0.543118834495544 0.000000000000000
1.290580749511719 -15.957757949829102 0.188669368624687 0.003921568859369
2.091059446334839 -16.609474182128906 -0.483883410692215 0.000000000000000
3.713537693023682 -21.614942550659180 2.690653324127197 0.003921568859369
3.158640623092651 -18.520526885986328 1.094152927398682 0.003921568859369
4.600340366363525 -21.361051559448242 0.637086331844330 0.003921568859369
4.383996963500977 -20.662254333496094 0.615793645381927 0.003921568859369
1.880991220474243 -16.233934402465820 -0.852593839168549 0.003921568859369
3.923925399780273 -18.686782836914062 0.556418240070343 0.003921568859369
2.884933710098267 -17.988912582397461 4.873462677001953 0.003921568859369
2.236099004745483 -21.288862228393555 -0.618466556072235 0.003921568859369
1.736864328384399 -16.436107635498047 -0.477695733308792 0.003921568859369
4.905040740966797 -24.576236724853516 0.149006113409996 0.003921568859369
1.717448234558105 -16.217704772949219 -0.850809454917908 0.003921568859369
0.569637060165405 -7.969272136688232 -0.092286266386509 0.000000000000000
3.965384483337402 -19.978633880615234 0.120781816542149 0.003921568859369
3.753384590148926 -18.826116561889648 0.559600770473480 0.003921568859369
0.893601596355438 -17.111303329467773 -0.994164586067200 0.003921568859369
1.801923036575317 -17.914678573608398 1.470741510391235 0.000000000000000
0.965951800346375 -19.147266387939453 -0.665506482124329 0.003921568859369
0.824184000492096 -16.801124572753906 -0.192735999822617 0.003921568859369
1.804292321205139 -19.535812377929688 -0.566905736923218 0.003921568859369
0.793098866939545 -17.662406921386719 -0.202491432428360 0.003921568859369
0.777207136154175 -17.102558135986328 0.202279150485992 0.003921568859369
2.547112464904785 -17.770517349243164 4.803184032440186 0.003921568859369
1.500610113143921 -16.326944351196289 -0.473915219306946 0.003921568859369
0.778893470764160 -19.415313720703125 -0.222384050488472 0.003921568859369
0.748657703399658 -18.215652465820312 0.215550422668457 0.003921568859369
1.533958077430725 -16.777658462524414 -0.879053175449371 0.003921568859369
2.214866161346436 -16.067554473876953 0.002248514443636 0.003921568859369
0.708507120609283 -19.452978134155273 -0.222766265273094 0.003921568859369
0.671745181083679 -17.749366760253906 0.209998726844788 0.003921568859369
1.639353513717651 -19.134952545166016 0.784912705421448 0.003921568859369
1.647523283958435 -19.246175765991211 1.578577637672424 0.000000000000000
2.256123065948486 -16.412715911865234 -0.382348269224167 0.003921568859369
0.603162586688995 -17.386688232421875 0.205683976411819 0.003921568859369
3.972654342651367 -22.160749435424805 0.657162249088287 0.003921568859369
1.563707709312439 -19.007965087890625 0.779531419277191 0.003921568859369
2.722805023193359 -20.919885635375977 -0.486671715974808 0.003921568859369
1.366319775581360 -16.961423873901367 -0.491837799549103 0.000000000000000
1.362866759300232 -16.909580230712891 -0.885232329368591 0.003921568859369
1.350720524787903 -16.704923629760742 1.369348764419556 0.000000000000000
3.369275093078613 -19.347915649414062 -0.339247673749924 0.003921568859369
0.470687747001648 -16.160711288452148 -0.185242787003517 0.003921568859369
1.266076207160950 -16.233045578002930 -0.091876596212387 0.003921568859369
0.481886535882950 -17.132471084594727 0.202676862478256 0.003921568859369
1.791410565376282 -24.912742614746094 4.555862426757812 0.003921568859369
1.219686269760132 -16.468152999877930 -0.093141011893749 0.000000000000000
1.235299348831177 -16.749179840087891 -0.876437962055206 0.003921568859369
3.165843009948730 -18.942447662353516 -0.331747591495514 0.003921568859369
0.354982793331146 -16.149614334106445 -0.185063198208809 0.003921568859369
0.356169819831848 -16.397489547729492 0.193947270512581 0.003921568859369
0.367532104253769 -19.167135238647461 -0.665557444095612 0.003921568859369
2.244856595993042 -19.115598678588867 5.152566909790039 0.003921568859369
1.179729938507080 -17.733263015747070 -0.513588607311249 0.000000000000000
0.311379700899124 -16.737684249877930 -0.191658109426498 0.003921568859369
0.310014218091965 -15.337671279907227 0.181381344795227 0.000000000000000
1.156208157539368 -17.265750885009766 -0.902991652488708 0.003921568859369
1.902497291564941 -16.230895996093750 -0.377095192670822 0.000000000000000
1.101127147674561 -17.508871078491211 -0.506991624832153 0.000000000000000
0.239965841174126 -19.317453384399414 -0.220915064215660 0.003921568859369
1.113238334655762 -17.760915756225586 0.727635741233826 0.003921568859369
1.098551630973816 -17.456481933593750 -0.912753582000732 0.003921568859369
0.245975121855736 -17.092458724975586 -0.593579590320587 0.003921568859369
1.032283663749695 -17.312973022460938 1.417874693870544 0.000000000000000
0.132747396826744 -17.108798980712891 0.202591180801392 0.003921568859369
0.940982222557068 -16.388191223144531 0.671125411987305 0.003921568859369
0.929703593254089 -16.096246719360352 1.317969679832458 0.003921568859369
2.269429206848145 -22.280632019042969 5.998337268829346 0.003921568859369
0.071613356471062 -16.752223968505859 -0.191749706864357 0.003921568859369
0.865408658981323 -16.044334411621094 -0.090512998402119 0.000000000000000
0.859642803668976 -15.867490768432617 1.299052953720093 0.000000000000000
0.200831949710846 -5.533640384674072 -0.064447499811649 0.000000000000000
0.826235592365265 -16.569953918457031 -0.093390814960003 0.000000000000000
0.813067674636841 -16.155876159667969 0.285025805234909 0.003921568859369
1.731189846992493 -17.702119827270508 1.037368416786194 0.003921568859369
0.848839163780212 -17.263313293457031 0.706911385059357 0.003921568859369
0.801682293415070 -15.789677619934082 1.292543053627014 0.000000000000000
0.009326636791229 -16.970220565795898 -0.589338004589081 0.003921568859369
2.758057355880737 -19.395923614501953 -0.338235437870026 0.003921568859369
1.654485702514648 -17.509492874145508 2.159531831741333 0.003921568859369
2.340633630752563 -16.111927032470703 -0.659471273422241 0.003921568859369
1.582910656929016 -17.348268508911133 -0.807474434375763 0.003921568859369
1.473591804504395 -15.862953186035156 1.955843091011047 0.003921568859369
0.758290767669678 -18.319486618041992 1.499635219573975 0.000000000000000
0.891705036163330 -23.541700363159180 4.299064159393311 0.003921568859369
0.665801882743835 -17.036022186279297 0.300625592470169 0.003921568859369
1.758416533470154 -20.666637420654297 2.547955274581909 0.003921568859369
0.658319950103760 -16.674905776977539 1.364780664443970 0.000000000000000
2.511233806610107 -18.458786010742188 -0.754596710205078 0.003921568859369
-0.138508528470993 -15.971359252929688 -0.554812729358673 0.003921568859369
0.833835422992706 -24.653024673461914 4.501737594604492 0.003921568859369
1.428572893142700 -16.026372909545898 -0.371299743652344 0.000000000000000
1.391056776046753 -16.301862716674805 0.002679760567844 0.003921568859369
1.434694170951843 -16.947689056396484 0.398138403892517 0.000000000000000
0.614553987979889 -17.485069274902344 0.308594167232513 0.003921568859369
-0.272837340831757 -18.543014526367188 -0.643915474414825 0.003921568859369
0.707608044147491 -22.475175857543945 4.103670120239258 0.003921568859369
1.373940467834473 -16.934148788452148 -0.787600696086884 0.000000000000000
0.627142906188965 -22.342708587646484 4.079267978668213 0.003921568859369
0.552070558071136 -22.599483489990234 4.126007080078125 0.003921568859369
-0.420575261116028 -17.566844940185547 -0.200889259576797 0.003921568859369
0.436707317829132 -17.331474304199219 0.305964678525925 0.003921568859369
-0.343754351139069 -15.687222480773926 -0.911192297935486 0.000000000000000
1.399497032165527 -19.358766555786133 -0.899616777896881 0.000000000000000
1.721207141876221 -24.993503570556641 3.079233646392822 0.003921568859369
1.519560813903809 -21.425348281860352 5.755175113677979 0.003921568859369
0.501702785491943 -25.366344451904297 4.631342887878418 0.003921568859369
-0.955386459827423 -28.313110351562500 -0.322742044925690 0.003921568859369
-0.388517081737518 -15.521439552307129 -0.901689767837524 0.000000000000000
1.334228992462158 -19.342359542846680 -0.898666024208069 0.000000000000000
-1.052880287170410 -28.280588150024414 -0.322388529777527 0.003921568859369
-0.439835548400879 -15.459112167358398 -0.898200392723083 0.000000000000000
1.166795730590820 -17.346488952636719 -0.805948138237000 0.000000000000000
1.046467423439026 -16.117465972900391 0.002815013518557 0.003921568859369
0.251377135515213 -18.874790191650391 0.772982358932495 0.003921568859369
1.111153364181519 -17.521184921264648 -0.813878238201141 0.000000000000000
-0.612397372722626 -17.708642959594727 -0.615333557128906 0.003921568859369
1.092363357543945 -17.111881256103516 -0.395543575286865 0.000000000000000
0.199038088321686 -17.602184295654297 -0.098731718957424 0.000000000000000
-0.552340149879456 -15.594352722167969 0.185104191303253 0.000000000000000
1.759617567062378 -16.479787826538086 -0.286152154207230 0.003921568859369
0.141473621129990 -16.861740112304688 -0.094629444181919 0.000000000000000
-0.614153623580933 -15.670982360839844 0.186081930994987 0.003921568859369
0.133157983422279 -17.763158798217773 0.313748776912689 0.003921568859369
0.959877192974091 -16.687688827514648 2.053835630416870 0.003921568859369
-0.605555713176727 -15.519046783447266 -0.539628267288208 0.003921568859369
-0.882781922817230 -19.124979019165039 -0.218641385436058 0.003921568859369
0.079159170389175 -17.129058837890625 -0.096083588898182 0.000000000000000
-0.717479288578033 -16.454137802124023 0.195527866482735 0.003921568859369
0.061363443732262 -18.522289276123047 0.327266156673431 0.003921568859369
0.097750797867775 -15.708214759826660 0.643137276172638 0.000000000000000
0.085942387580872 -16.645570755004883 1.362452030181885 0.000000000000000
-0.671784281730652 -14.870072364807129 -0.170398369431496 0.000000000000000
0.852875709533691 -17.005035400390625 0.399092048406601 0.003921568859369
0.044089853763580 -15.635481834411621 0.640205204486847 0.000000000000000
0.029134869575500 -16.564998626708984 1.355940580368042 0.000000000000000
0.919070899486542 -18.985027313232422 5.094171524047852 0.003921568859369
-0.868746936321259 -16.973464965820312 -0.194282531738281 0.003921568859369
1.592875480651855 -16.568069458007812 0.099334351718426 0.000000000000000
-0.081755220890045 -19.206659317016602 -0.107492037117481 0.000000000000000
0.771124362945557 -16.235403060913086 0.380934953689575 0.003921568859369
-0.021201282739639 -16.173933029174805 0.662372469902039 0.003921568859369
0.918560743331909 -21.246202468872070 5.700481891632080 0.003921568859369
1.794152498245239 -20.002647399902344 0.120273403823376 0.003921568859369
-0.097503989934921 -17.137874603271484 -0.096083179116249 0.000000000000000
0.709161996841431 -15.921067237854004 0.373513877391815 0.000000000000000
-0.906164109706879 -16.710073471069336 0.198796048760414 0.003921568859369
-0.107493549585342 -17.575248718261719 0.310573548078537 0.003921568859369
-0.139838755130768 -18.977657318115234 0.777558982372284 0.003921568859369
1.706657648086548 -19.808492660522461 0.119086638092995 0.000000000000000
0.692407071590424 -17.799945831298828 1.040419340133667 0.003921568859369
0.879882276058197 -26.274034500122070 3.233004808425903 0.003921568859369
-0.117819368839264 -15.572918891906738 1.274987697601318 0.000000000000000
1.483275175094604 -16.667114257812500 -0.677976965904236 0.003921568859369
-0.129731982946396 -16.039535522460938 2.929106712341309 0.003921568859369
-0.557150423526764 -28.230031967163086 -0.814946293830872 0.003921568859369
0.606859982013702 -16.539583206176758 0.966588854789734 0.000000000000000
-0.249202787876129 -18.081871032714844 -0.944222867488861 0.003921568859369
0.791257143020630 -26.442604064941406 3.253562927246094 0.003921568859369
-0.245880216360092 -16.411584854125977 0.672529280185699 0.003921568859369
0.603894233703613 -19.571502685546875 -0.907725453376770 0.000000000000000
0.514469027519226 -17.707174301147461 1.034951329231262 0.000000000000000
-0.829777479171753 -27.936040878295898 -0.806515872478485 0.003921568859369
0.448974698781967 -17.310127258300781 0.003469036426395 0.003921568859369
1.264809012413025 -16.763032913208008 0.100579768419266 0.003921568859369
0.456604719161987 -18.186956405639648 1.063026666641235 0.000000000000000
-0.340974062681198 -15.928127288818359 0.652879178524017 0.003921568859369
0.481051623821259 -20.941431045532227 5.616797447204590 0.003921568859369
-0.939813137054443 -28.215509414672852 -0.814649701118469 0.003921568859369
0.380363225936890 -15.554217338562012 0.364934682846069 0.003921568859369
-0.548020482063293 -19.352798461914062 0.342636108398438 0.003921568859369
-0.557842493057251 -19.579128265380859 0.803065240383148 0.003921568859369
-1.056005001068115 -28.582414627075195 -0.825314462184906 0.003921568859369
-0.470017164945602 -16.291975021362305 -0.091289296746254 0.000000000000000
0.328357636928558 -17.377872467041016 0.407942891120911 0.000000000000000
-0.437141209840775 -15.607839584350586 0.639955282211304 0.000000000000000
-0.430642038583755 -15.488607406616211 2.830825567245483 0.003921568859369
-1.120426535606384 -27.886672973632812 -0.805370986461639 0.003921568859369
0.267691999673843 -17.377843856811523 0.407966375350952 0.000000000000000
-1.376573085784912 -16.777299880981445 0.200329169631004 0.003921568859369
1.110240817070007 -17.229867935180664 -0.699582338333130 0.003921568859369
-0.476278811693192 -15.320886611938477 2.800658226013184 0.003921568859369
-1.217249512672424 -27.961637496948242 -0.807637870311737 0.003921568859369
-2.315572977066040 -25.293348312377930 0.303030639886856 0.003921568859369
-0.526034355163574 -15.281637191772461 0.270389735698700 0.000000000000000
-0.560979366302490 -15.925663948059082 0.653289377689362 0.000000000000000
-0.520888090133667 -15.204258918762207 2.779833078384399 0.003921568859369
0.143949389457703 -17.621963500976562 0.003682315815240 0.003921568859369
-2.420024871826172 -25.391126632690430 -0.290268450975418 0.003921568859369
-0.527253031730652 -14.338388442993164 0.588149130344391 0.000000000000000
0.091232746839523 -16.929344177246094 0.003491539973766 0.003921568859369
-2.496296405792236 -25.270141601562500 -0.288972020149231 0.003921568859369
-0.623084306716919 -15.073854446411133 -0.084580644965172 0.000000000000000
0.114856690168381 -15.127297401428223 1.860709547996521 0.000000000000000
0.090019151568413 -17.012851715087891 -0.392421215772629 0.000000000000000
0.579424560070038 -8.353025436401367 -0.145214974880219 0.000000000000000
-0.798696994781494 -16.955701828002930 -0.490694731473923 0.000000000000000
0.034405142068863 -16.788509368896484 0.003470614086837 0.003921568859369
-2.587218999862671 -25.284048080444336 -0.289211928844452 0.003921568859369
0.050375014543533 -15.848985671997070 1.949675559997559 0.003921568859369
0.030243039131165 -17.035984039306641 -0.392949342727661 0.000000000000000
-0.710087656974792 -14.837778091430664 -0.429702997207642 0.000000000000000
-0.069755822420120 -19.271039962768555 0.004267978481948 0.003921568859369
-2.206656694412231 -21.333662033081055 0.255822002887726 0.003921568859369
-0.701900124549866 -14.723782539367676 0.604454398155212 0.000000000000000
-0.043544799089432 -17.912128448486328 -0.830738902091980 0.000000000000000
-0.097178041934967 -17.538068771362305 0.003750164527446 0.003921568859369
-0.131952941417694 -19.056371688842773 0.447808206081390 0.003921568859369
-0.777402639389038 -15.055022239685059 0.618262350559235 0.000000000000000
-2.806229114532471 -24.975055694580078 -0.285820126533508 0.003921568859369
0.709721565246582 -17.729911804199219 0.106648206710815 0.000000000000000
-0.434733480215073 -28.197345733642578 -0.649109423160553 0.003921568859369
0.640601813793182 -17.357040405273438 -0.299564719200134 0.003921568859369
-0.131992071866989 -14.842572212219238 0.867873907089233 0.003921568859369
-0.218750506639481 -17.718038558959961 -0.408573061227798 0.000000000000000
-3.012737035751343 -25.198343276977539 0.303276419639587 0.003921568859369
-1.088739633560181 -16.987762451171875 1.395700812339783 0.000000000000000
-0.255823343992233 -15.385791778564453 0.899952232837677 0.003921568859369
-1.083455443382263 -16.232067108154297 1.333951592445374 0.003921568859369
-2.782702207565308 -22.254987716674805 -0.255247145891190 0.003921568859369
-0.360390990972519 -16.640523910522461 0.973639905452728 0.003921568859369
-1.099084615707397 -15.766224861145020 0.648631930351257 0.000000000000000
-1.014606595039368 -14.825422286987305 1.218598961830139 0.003921568859369
-0.818019986152649 -27.928438186645508 -0.643087446689606 0.003921568859369
0.389490753412247 -15.554205894470215 0.093425124883652 0.000000000000000
-0.370251983404160 -15.527043342590332 -0.720719635486603 0.000000000000000
-1.203180432319641 -16.297409057617188 2.988570690155029 0.003921568859369
-0.521142005920410 -17.569999694824219 0.413339763879776 0.000000000000000
-2.984663724899292 -22.553239822387695 0.271893888711929 0.003921568859369
0.336914896965027 -16.655464172363281 0.488144010305405 0.003921568859369
-0.523644208908081 -16.412797927856445 0.386087477207184 0.000000000000000
-2.791440725326538 -20.725973129272461 0.249874830245972 0.003921568859369
0.273194789886475 -19.366268157958984 0.567908287048340 0.003921568859369
-0.503126621246338 -16.014417648315430 0.937454462051392 0.000000000000000
0.277343362569809 -17.120660781860352 -0.694012463092804 0.003921568859369
-0.493828684091568 -15.856581687927246 4.258441925048828 0.003921568859369
-1.113891124725342 -27.982961654663086 -0.644536137580872 0.003921568859369
-2.159664154052734 -16.141366958618164 -0.185923084616661 0.003921568859369
-0.533041596412659 -15.575624465942383 -0.359614223241806 0.000000000000000
0.163149252533913 -17.211503982543945 -0.296839714050293 0.003921568859369
-2.099814653396606 -15.409821510314941 0.185548290610313 0.000000000000000
-3.320493936538696 -22.687927246093750 0.274209737777710 0.003921568859369
0.123596891760826 -15.550802230834961 0.455767065286636 0.003921568859369
-0.992736220359802 -20.144411087036133 0.004989945329726 0.003921568859369
0.046189248561859 -16.828252792358398 0.101373448967934 0.000000000000000
-2.583310604095459 -25.385623931884766 -0.141256198287010 0.003921568859369
0.041447043418884 -17.137115478515625 0.502490043640137 0.003921568859369
0.006575822830200 -16.175321578979492 0.097460612654686 0.003921568859369
0.013191729784012 -15.840834617614746 0.464457690715790 0.000000000000000
-0.740007638931274 -15.511854171752930 0.909082710742950 0.003921568859369
-1.601884126663208 -16.336162567138672 0.674319922924042 0.003921568859369
-2.688486099243164 -24.858999252319336 -0.721509218215942 0.003921568859369
-1.542911410331726 -10.895943641662598 -0.126348242163658 0.000000000000000
-0.879833579063416 -16.739065170288086 0.394498020410538 0.000000000000000
-1.670931577682495 -16.452697753906250 0.679432272911072 0.003921568859369
-1.512996673583984 -15.149005889892578 1.249553918838501 0.000000000000000
-2.215641021728516 -20.964357376098633 3.856527328491211 0.003921568859369
-2.771489381790161 -17.730104446411133 -0.204514339566231 0.003921568859369
-0.134157508611679 -17.460432052612305 0.105412438511848 0.003921568859369
-3.079723119735718 -19.499164581298828 0.236159265041351 0.003921568859369
-0.094569504261017 -15.942373275756836 0.467558354139328 0.003921568859369
-1.716658353805542 -16.373926162719727 0.292207360267639 0.003921568859369
-1.720124959945679 -16.404859542846680 1.353858232498169 0.000000000000000
-2.375423908233643 -21.682128906250000 3.990270614624023 0.003921568859369
-0.200388699769974 -17.632406234741211 -0.303959161043167 0.003921568859369
-2.841074705123901 -17.762527465820312 -0.204988524317741 0.003921568859369
-0.246611386537552 -19.205951690673828 0.116173416376114 0.003921568859369
-3.163889169692993 -19.577751159667969 0.237288787961006 0.003921568859369
-1.971587896347046 -17.385478973388672 1.436286568641663 0.000000000000000
-0.268375962972641 -16.117570877075195 -0.278027445077896 0.003921568859369
-2.935157537460327 -17.578779220581055 -0.203100591897964 0.003921568859369
-3.359465122222900 -19.871519088745117 0.241232082247734 0.003921568859369
-1.869300603866577 -16.212980270385742 0.289773374795914 0.003921568859369
-2.747130632400513 -22.129978179931641 -0.643812239170074 0.003921568859369
-3.324529170989990 -25.638305664062500 -0.745908915996552 0.003921568859369
-3.024563074111938 -17.382808685302734 -0.201078712940216 0.003921568859369
-3.415438890457153 -25.572689056396484 -0.744380950927734 0.003921568859369
