# This PCD file was generated using the MATLAB® pcwrite function
# from Computer Vision Toolbox®.
# .PCD v.7 - Point Cloud Data file format
VERSION .7
FIELDS x y z intensity
SIZE 8 8 8 8
TYPE F F F F
COUNT 1 1 1 1
WIDTH 640
HEIGHT 1
VIEWPOINT 0 0 0 1 0 0 0
POINTS 640
DATA ascii
5.451287269592285 -0.318180650472641 0.094153210520744 0.000000000000000
15.714179992675781 -0.158668532967567 0.911343812942505 0.000000000000000
9.147878646850586 -0.568383872509003 -0.264868110418320 0.000000000000000
4.756953239440918 0.165386870503426 -0.300875604152679 0.000000000000000
14.519665718078613 -0.197019085288048 0.841812372207642 0.000000000000000
18.799066543579102 -0.255345553159714 2.300355672836304 0.003921568859369
11.324737548828125 -0.194749012589455 0.655774712562561 0.000000000000000
7.335608482360840 -0.151138991117477 0.423460096120834 0.000000000000000
11.713559150695801 -0.321479409933090 1.430712103843689 0.000000000000000
7.749811649322510 0.081685990095139 0.223622113466263 0.000000000000000
8.941665649414062 -0.339579522609711 2.380072116851807 0.000000000000000
6.366944313049316 -0.041867595165968 -0.109905175864697 0.000000000000000
8.309100151062012 -0.457789927721024 0.191938638687134 0.000000000000000
6.410750865936279 -0.064286731183529 -0.110673129558563 0.000000000000000
8.169013977050781 -0.478359490633011 0.995887875556946 0.000000000000000
14.805678367614746 -1.022785305976868 1.813372135162354 0.000000000000000
8.434484481811523 -0.992872118949890 1.535369396209717 0.000000000000000
10.583764076232910 -0.616972088813782 -0.428766399621964 0.000000000000000
6.176384449005127 -1.311547875404358 0.253824859857559 0.000000000000000
3.606926202774048 -0.784068226814270 0.294519990682602 0.000000000000000
10.047855377197266 -2.287936925888062 1.862407207489014 0.000000000000000
9.386022567749023 -2.204249620437622 0.389008849859238 0.000000000000000
27.161962509155273 -5.233466148376465 7.387392997741699 0.003921568859369
8.358895301818848 -1.777134776115417 -0.000137384107802 0.003921568859369
8.524174690246582 -2.310252428054810 0.355592727661133 0.000000000000000
4.331550598144531 -1.160736918449402 0.358101785182953 0.000000000000000
2.700737476348877 -0.588112831115723 0.327412754297256 0.000000000000000
23.920612335205078 -5.989422798156738 3.015244245529175 0.003921568859369
20.827384948730469 -5.211890697479248 5.726457118988037 0.003921568859369
8.048548698425293 -2.449347257614136 1.516390562057495 0.000000000000000
8.197730064392090 -2.526295661926270 1.546518206596375 0.000000000000000
7.991453170776367 -2.072535037994385 0.474358350038528 0.000000000000000
6.270102500915527 -1.642041563987732 -0.000444250385044 0.000000000000000
8.785207748413086 -1.893228411674500 0.258034676313400 0.000000000000000
10.784200668334961 -2.882264614105225 0.643523991107941 0.000000000000000
19.082612991333008 -6.131154060363770 3.635030269622803 0.003921568859369
11.313114166259766 -3.794714212417603 2.156697034835815 0.000000000000000
9.249024391174316 -2.707606792449951 1.170313835144043 0.000000000000000
11.972545623779297 -3.563640356063843 1.520672202110291 0.000000000000000
3.847733497619629 -1.326490402221680 0.323793470859528 0.000000000000000
9.378760337829590 -3.353784561157227 0.803615093231201 0.000000000000000
11.193719863891602 -3.497441768646240 1.425858378410339 0.000000000000000
3.703233242034912 -0.968850016593933 0.021174684166908 0.000000000000000
20.746044158935547 -6.663117885589600 5.808298587799072 0.003921568859369
20.730007171630859 -6.737504482269287 5.810359954833984 0.003921568859369
15.262080192565918 -5.844428062438965 0.660166978836060 0.003921568859369
15.137969017028809 -5.854138374328613 2.938808917999268 0.003921568859369
15.469721794128418 -6.107212066650391 3.011949300765991 0.003921568859369
11.773890495300293 -4.777202606201172 2.295152664184570 0.000000000000000
7.625697612762451 -3.201786518096924 1.486968517303467 0.000000000000000
19.160240173339844 -8.195439338684082 3.777341842651367 0.003921568859369
3.801621437072754 -1.645888805389404 -0.118089392781258 0.000000000000000
10.552749633789062 -4.706050872802734 0.464912444353104 0.000000000000000
11.151496887207031 -4.517160415649414 0.692223548889160 0.000000000000000
3.646686553955078 -1.663116693496704 -0.204931601881981 0.000000000000000
7.001248359680176 -2.845430612564087 1.992736220359802 0.000000000000000
3.626436233520508 -1.668528079986572 -0.204094439744949 0.000000000000000
3.086707830429077 -1.250041484832764 0.860636234283447 0.000000000000000
6.045690536499023 -2.187534570693970 0.035653278231621 0.000000000000000
7.677867889404297 -3.758629322052002 -0.246943861246109 0.000000000000000
12.482763290405273 -6.258080005645752 2.523380517959595 0.000000000000000
9.196283340454102 -4.831476211547852 -0.061702497303486 0.000000000000000
10.954744338989258 -5.152388095855713 -0.560541808605194 0.000000000000000
5.968639373779297 -3.162742376327515 1.208940386772156 0.000000000000000
7.713566780090332 -3.673342466354370 1.032776236534119 0.000000000000000
7.695829391479492 -4.166718482971191 -0.051959536969662 0.000000000000000
13.253994941711426 -7.348149299621582 0.609917402267456 0.000000000000000
8.199249267578125 -4.153554439544678 1.111339688301086 0.000000000000000
25.663154602050781 -14.883855819702148 -0.865940451622009 0.003921568859369
25.490402221679688 -14.901953697204590 -0.861862778663635 0.003921568859369
8.420474052429199 -4.338735103607178 -0.437653809785843 0.000000000000000
6.062689304351807 -3.208849430084229 0.825574278831482 0.000000000000000
4.158155441284180 -1.995967745780945 0.129051268100739 0.000000000000000
17.676609039306641 -11.228401184082031 -0.611049532890320 0.003921568859369
9.692372322082520 -4.872863769531250 -0.439356684684753 0.000000000000000
4.588342666625977 -2.287666559219360 -0.321809113025665 0.000000000000000
25.721017837524414 -14.908236503601074 -0.695692300796509 0.003921568859369
25.719715118408203 -15.021322250366211 -0.697030246257782 0.003921568859369
11.212689399719238 -7.306572437286377 2.414385080337524 0.000000000000000
25.474426269531250 -14.996420860290527 -0.691795587539673 0.003921568859369
14.427739143371582 -9.500637054443359 3.123074293136597 0.003921568859369
25.136909484863281 -14.914658546447754 -0.684024691581726 0.003921568859369
6.091750144958496 -3.219517230987549 -0.277405291795731 0.000000000000000
9.782506942749023 -5.844328403472900 3.016942739486694 0.000000000000000
3.861908912658691 -2.025767326354980 -0.272463560104370 0.000000000000000
11.063432693481445 -6.668991088867188 1.566485524177551 0.000000000000000
9.767792701721191 -5.923903465270996 3.022786378860474 0.000000000000000
9.513980865478516 -5.812737464904785 2.949339151382446 0.000000000000000
5.858296394348145 -4.001010417938232 1.268276572227478 0.000000000000000
5.844298362731934 -4.020906448364258 1.268270611763000 0.000000000000000
17.796075820922852 -11.288020133972168 -0.493186444044113 0.003921568859369
18.771593093872070 -14.981024742126465 -0.285356730222702 0.003921568859369
5.788331508636475 -4.099015235900879 1.268247485160828 0.000000000000000
18.666486740112305 -15.213548660278320 -0.286878556013107 0.003921568859369
18.669622421264648 -15.216303825378418 0.271007448434830 0.003921568859369
17.286861419677734 -11.737071990966797 -0.006509119644761 0.003921568859369
11.127033233642578 -7.738454818725586 1.643683195114136 0.000000000000000
18.816160202026367 -15.001954078674316 1.946486353874207 0.003921568859369
8.214791297912598 -5.721468448638916 0.283619999885559 0.000000000000000
3.775310516357422 -2.618980884552002 -0.287786483764648 0.000000000000000
18.857067108154297 -15.129165649414062 6.432052612304688 0.003921568859369
11.042029380798340 -9.785104751586914 -0.431902706623077 0.000000000000000
5.971415519714355 -5.294860363006592 -0.415283709764481 0.000000000000000
5.057659149169922 -4.492225646972656 -0.196420758962631 0.000000000000000
4.839692592620850 -4.732990741729736 -0.080739386379719 0.000000000000000
5.766393184661865 -5.672323703765869 -0.282086253166199 0.000000000000000
13.056286811828613 -10.963545799255371 2.070161581039429 0.003921568859369
4.943292617797852 -3.727482795715332 -0.249584376811981 0.000000000000000
4.955676078796387 -3.759039640426636 -0.250807106494904 0.000000000000000
7.810415267944336 -6.681345462799072 2.712720155715942 0.000000000000000
6.398066043853760 -6.006084442138672 1.571890830993652 0.000000000000000
18.854272842407227 -15.006820678710938 0.687119543552399 0.003921568859369
21.490499496459961 -18.913175582885742 7.621804237365723 0.003921568859369
21.384025573730469 -18.951404571533203 7.607301712036133 0.003921568859369
10.619824409484863 -9.396958351135254 1.718185424804688 0.000000000000000
5.509397506713867 -4.935128688812256 1.942537188529968 0.000000000000000
4.455147743225098 -4.449720859527588 0.247558072209358 0.000000000000000
4.834717750549316 -4.455959796905518 0.786956608295441 0.000000000000000
6.754691600799561 -7.822748661041260 -0.124656274914742 0.000000000000000
6.898933410644531 -5.995697498321533 -0.581672251224518 0.000000000000000
9.504904747009277 -10.269328117370605 -0.087930507957935 0.000000000000000
8.433087348937988 -8.299060821533203 0.675222814083099 0.000000000000000
4.717520236968994 -4.164658546447754 -0.398054450750351 0.000000000000000
6.213311195373535 -6.779480934143066 -0.057843022048473 0.000000000000000
9.331082344055176 -9.790751457214355 3.580727577209473 0.000000000000000
7.019122600555420 -7.365715980529785 2.684789419174194 0.000000000000000
17.764335632324219 -19.493280410766602 3.208193540573120 0.003921568859369
4.923995018005371 -5.825191020965576 -0.223376736044884 0.000000000000000
5.949193000793457 -7.088703155517578 -0.059023279696703 0.000000000000000
15.666444778442383 -17.267133712768555 0.526098251342773 0.003921568859369
17.656446456909180 -19.489625930786133 3.197559356689453 0.003921568859369
17.550609588623047 -19.514909744262695 3.191220045089722 0.003921568859369
17.501575469970703 -19.590200424194336 3.194105386734009 0.003921568859369
7.492234706878662 -7.542023181915283 0.054542142897844 0.000000000000000
17.285701751708984 -19.489294052124023 3.167381763458252 0.003921568859369
2.701544761657715 -3.154560565948486 0.325520813465118 0.000000000000000
2.237321853637695 -2.588149309158325 -0.098674252629280 0.000000000000000
8.422217369079590 -11.639123916625977 -0.506696879863739 0.000000000000000
4.845716476440430 -4.976968765258789 0.193606287240982 0.000000000000000
5.411971092224121 -6.160877704620361 0.464651405811310 0.000000000000000
5.595912456512451 -6.423383235931396 0.189698278903961 0.000000000000000
6.557302951812744 -8.365701675415039 1.908840179443359 0.000000000000000
2.768430233001709 -3.101861953735352 -0.003168073715642 0.000000000000000
4.917584419250488 -5.159311294555664 0.035959240049124 0.000000000000000
7.564373016357422 -9.071494102478027 0.263992279767990 0.000000000000000
4.039243698120117 -4.311640739440918 0.163610249757767 0.000000000000000
5.952493190765381 -7.236127853393555 0.531708538532257 0.000000000000000
3.767681598663330 -5.560465812683105 -0.081943981349468 0.000000000000000
8.166083335876465 -10.098206520080566 0.740279257297516 0.000000000000000
4.534887313842773 -5.530782222747803 0.857200503349304 0.000000000000000
14.216779708862305 -19.817874908447266 4.409094333648682 0.003921568859369
14.035366058349609 -19.853857040405273 4.395462512969971 0.003921568859369
4.819221973419189 -7.482528209686279 -0.313412785530090 0.000000000000000
2.361073255538940 -3.180507659912109 -0.115253813564777 0.000000000000000
2.552906036376953 -2.904721975326538 0.105180434882641 0.000000000000000
4.552886962890625 -5.958370208740234 0.423566430807114 0.000000000000000
4.853071212768555 -6.514835357666016 0.459658950567245 0.000000000000000
7.341232299804688 -11.118782043457031 2.398231744766235 0.000000000000000
4.200976371765137 -6.318242549896240 -0.049354504793882 0.000000000000000
7.370748996734619 -10.197656631469727 0.716579437255859 0.000000000000000
4.382256507873535 -6.653949737548828 -0.234715834259987 0.000000000000000
5.585433483123779 -8.573995590209961 1.836981177330017 0.000000000000000
4.981484889984131 -7.658855915069580 0.150102332234383 0.000000000000000
2.484132051467896 -3.301727771759033 -0.003841116325930 0.000000000000000
6.359139442443848 -9.955548286437988 2.123177528381348 0.000000000000000
5.842771530151367 -8.248853683471680 0.573525309562683 0.000000000000000
2.220559358596802 -3.721396207809448 -0.151658102869987 0.000000000000000
7.067198753356934 -11.548433303833008 0.223949223756790 0.000000000000000
4.533426761627197 -6.572193622589111 -0.189417898654938 0.000000000000000
6.360399246215820 -9.433526039123535 1.373211741447449 0.000000000000000
3.586604356765747 -6.535138607025146 0.079272471368313 0.000000000000000
3.803440809249878 -5.587481021881104 0.148800656199455 0.000000000000000
7.810320854187012 -11.829806327819824 -0.337790459394455 0.000000000000000
3.001680374145508 -4.882782936096191 -0.037709552794695 0.000000000000000
5.854069232940674 -9.958030700683594 0.190103143453598 0.000000000000000
4.961481571197510 -7.499276161193848 0.508938670158386 0.000000000000000
6.642858028411865 -11.353521347045898 1.053851723670959 0.000000000000000
4.843211174011230 -8.233572959899902 -0.282833546400070 0.000000000000000
6.008047580718994 -9.223429679870605 0.624924361705780 0.000000000000000
9.280158042907715 -16.274713516235352 -0.556836545467377 0.000000000000000
8.440153121948242 -13.203698158264160 0.893188238143921 0.000000000000000
3.826355695724487 -5.834504127502441 -0.006144563201815 0.000000000000000
5.446230411529541 -8.594854354858398 -0.008465788327157 0.003921568859369
3.791109085083008 -5.912945270538330 0.395891487598419 0.000000000000000
3.267784595489502 -5.652450561523438 0.255580961704254 0.000000000000000
6.590795516967773 -10.553812026977539 1.503017902374268 0.000000000000000
4.053419113159180 -6.401412010192871 1.991478443145752 0.000000000000000
3.700515985488892 -5.859250545501709 -0.006144014652818 0.000000000000000
5.346441745758057 -7.744444847106934 0.262381523847580 0.000000000000000
5.781024456024170 -9.365292549133301 -0.262477964162827 0.000000000000000
3.704429388046265 -5.908052444458008 -0.006181290838867 0.000000000000000
7.694915771484375 -11.459215164184570 0.387114137411118 0.000000000000000
3.270694017410278 -5.902084827423096 -0.199388384819031 0.000000000000000
3.583809137344360 -6.509322166442871 1.328607320785522 0.000000000000000
4.175245761871338 -7.774656772613525 0.347102433443069 0.000000000000000
5.639904975891113 -9.484076499938965 2.915047168731689 0.000000000000000
7.580767631530762 -14.612231254577637 -0.109020613133907 0.000000000000000
1.997491955757141 -3.986836910247803 0.046060204505920 0.000000000000000
4.608949184417725 -7.088366031646729 -0.541473925113678 0.000000000000000
2.838706493377686 -6.055067539215088 -0.236656546592712 0.000000000000000
2.040009260177612 -3.304746389389038 -0.267564564943314 0.000000000000000
5.508897304534912 -10.869852066040039 2.191969871520996 0.000000000000000
3.691059827804565 -6.428902149200439 -0.006889982149005 0.000000000000000
6.440070152282715 -10.296824455261230 0.339523822069168 0.000000000000000
6.041794300079346 -10.796216011047363 0.703239977359772 0.000000000000000
2.095315933227539 -3.522216558456421 1.063025712966919 0.000000000000000
4.109043121337891 -6.625687122344971 0.215858295559883 0.000000000000000
4.500813007354736 -9.525824546813965 -0.313603669404984 0.000000000000000
6.844863414764404 -11.579080581665039 0.375968724489212 0.000000000000000
4.064536571502686 -7.675841808319092 -0.008299598470330 0.003921568859369
4.759275913238525 -9.144674301147461 -0.484803050756454 0.000000000000000
4.183307647705078 -9.069879531860352 -0.527804911136627 0.000000000000000
8.194734573364258 -16.091896057128906 -0.433643490076065 0.000000000000000
6.292397499084473 -16.184480667114258 0.185468271374702 0.003921568859369
4.249327659606934 -8.262479782104492 1.118721485137939 0.000000000000000
2.328403472900391 -4.902733325958252 0.965739369392395 0.000000000000000
5.013775825500488 -11.300858497619629 -0.082748688757420 0.000000000000000
6.336129188537598 -12.666087150573730 0.805803120136261 0.000000000000000
3.324102163314819 -8.521461486816406 -0.325342535972595 0.000000000000000
3.372681140899658 -7.624454498291016 -0.248325154185295 0.000000000000000
3.755225181579590 -7.493325233459473 2.208070993423462 0.000000000000000
3.656970024108887 -6.498088836669922 -0.135682404041290 0.000000000000000
5.879149913787842 -13.870025634765625 0.246977910399437 0.000000000000000
8.477974891662598 -20.470697402954102 -0.148692712187767 0.003921568859369
3.618635654449463 -6.480123043060303 0.205034181475639 0.000000000000000
7.274134159088135 -13.731509208679199 -0.283698707818985 0.000000000000000
4.022584438323975 -7.380610466003418 -0.539765179157257 0.000000000000000
2.279571533203125 -4.506575584411621 0.282278299331665 0.000000000000000
4.068349361419678 -7.534804821014404 -0.352767348289490 0.000000000000000
6.554385185241699 -16.672849655151367 1.438271045684814 0.003921568859369
4.248063564300537 -8.162363052368164 -0.167795717716217 0.000000000000000
2.926318168640137 -6.219338893890381 -0.007214445620775 0.000000000000000
6.319417953491211 -16.222412109375000 0.285922676324844 0.003921568859369
6.393877506256104 -16.421384811401367 0.697724401950836 0.003921568859369
3.906174182891846 -9.884453773498535 1.910857439041138 0.000000000000000
2.869267940521240 -5.583080291748047 0.172492295503616 0.000000000000000
5.349612712860107 -10.969855308532715 0.058075081557035 0.000000000000000
8.580734252929688 -20.485715866088867 5.902494907379150 0.003921568859369
8.556182861328125 -20.422431945800781 -0.534295976161957 0.003921568859369
2.461883544921875 -4.801262378692627 -0.344881474971771 0.000000000000000
3.235084533691406 -7.488342761993408 -0.008715748786926 0.003921568859369
8.449131011962891 -20.569992065429688 0.493822097778320 0.003921568859369
2.696126937866211 -5.359206676483154 0.164695754647255 0.000000000000000
3.993550300598145 -8.514684677124023 0.044275823980570 0.000000000000000
7.193339347839355 -18.154155731201172 5.187393665313721 0.003921568859369
6.453959941864014 -16.556142807006836 1.012082815170288 0.000000000000000
8.017932891845703 -18.159231185913086 -0.824486672878265 0.003921568859369
7.256823062896729 -22.418891906738281 4.257391929626465 0.003921568859369
3.415554046630859 -8.706041336059570 -0.010242928750813 0.003921568859369
6.686048984527588 -20.845535278320312 1.758373141288757 0.003921568859369
7.194782257080078 -22.495838165283203 4.267375946044922 0.003921568859369
5.561703681945801 -14.782300949096680 -0.016327738761902 0.000000000000000
7.229761600494385 -22.892654418945312 4.338028907775879 0.003921568859369
7.164564132690430 -22.965848922729492 4.347300052642822 0.003921568859369
2.645765304565430 -6.882603645324707 0.415789276361465 0.000000000000000
5.768159389495850 -23.239387512207031 0.253762930631638 0.003921568859369
6.905148029327393 -22.972637176513672 4.335144996643066 0.003921568859369
7.330780506134033 -20.838726043701172 2.679278135299683 0.003921568859369
2.418142080307007 -9.549502372741699 -0.352719157934189 0.000000000000000
6.336988449096680 -21.849258422851562 4.111014842987061 0.003921568859369
6.575636386871338 -23.049125671386719 4.332265853881836 0.003921568859369
6.233421802520752 -22.079671859741211 4.145065307617188 0.003921568859369
6.363808631896973 -16.272651672363281 0.487139403820038 0.003921568859369
7.940189838409424 -24.571943283081055 3.133376121520996 0.003921568859369
7.758379459381104 -24.287467956542969 3.093714952468872 0.003921568859369
6.400578498840332 -23.989137649536133 4.487565517425537 0.003921568859369
5.555771827697754 -20.990692138671875 -0.652980983257294 0.003921568859369
7.732604026794434 -24.507183074951172 3.118367910385132 0.003921568859369
7.625591754913330 -24.477355957031250 3.111105442047119 0.003921568859369
2.140876293182373 -7.562537193298340 0.626662254333496 0.000000000000000
1.141489744186401 -3.586977005004883 0.059209194034338 0.000000000000000
1.772742033004761 -6.166765689849854 0.510274410247803 0.000000000000000
7.481195449829102 -24.603092193603516 3.120761156082153 0.003921568859369
5.722214698791504 -22.649230957031250 1.877011775970459 0.003921568859369
7.347097396850586 -20.630544662475586 0.611759126186371 0.003921568859369
4.464211463928223 -22.999008178710938 -0.296902239322662 0.003921568859369
6.699450016021729 -22.519994735717773 6.249071598052979 0.003921568859369
2.473890304565430 -9.460210800170898 1.759538888931274 0.000000000000000
4.351593494415283 -22.832948684692383 0.245476529002190 0.003921568859369
6.148959636688232 -20.867807388305664 1.239555120468140 0.003921568859369
2.413713455200195 -9.472588539123535 0.157884478569031 0.000000000000000
2.421129941940308 -9.505391120910645 0.385329693555832 0.000000000000000
2.377371311187744 -9.465279579162598 -0.293776988983154 0.000000000000000
2.384875774383545 -9.498970031738281 -0.521595954895020 0.000000000000000
7.015794277191162 -20.823438644409180 0.612976193428040 0.003921568859369
6.869117736816406 -24.373466491699219 3.072330713272095 0.003921568859369
2.807657480239868 -9.372264862060547 2.589023113250732 0.000000000000000
4.045907497406006 -22.906423568725586 -0.295747399330139 0.003921568859369
6.930854320526123 -20.796190261840820 0.611508190631866 0.003921568859369
6.823115825653076 -24.525636672973633 3.088760852813721 0.003921568859369
3.991395711898804 -23.077407836914062 -0.297771275043488 0.003921568859369
6.222154140472412 -22.593051910400391 6.232634067535400 0.003921568859369
3.868465423583984 -22.821598052978516 -0.294322103261948 0.003921568859369
6.778363704681396 -20.819282531738281 0.610817670822144 0.003921568859369
6.168537616729736 -22.710941314697266 6.259443759918213 0.003921568859369
3.509923219680786 -21.024024963378906 0.224147886037827 0.003921568859369
6.698579788208008 -20.818944931030273 0.610136032104492 0.003921568859369
3.449021816253662 -21.118265151977539 0.225043073296547 0.003921568859369
6.624708652496338 -20.837430953979492 0.610015988349915 0.003921568859369
6.603458881378174 -25.103687286376953 3.150132656097412 0.003921568859369
5.572505950927734 -21.016448974609375 -0.528237342834473 0.003921568859369
3.459028482437134 -21.699081420898438 0.231160774827003 0.003921568859369
6.541564941406250 -20.825029373168945 0.608998119831085 0.003921568859369
6.267538547515869 -24.126520156860352 1.420493841171265 0.003921568859369
6.524430274963379 -25.160316467285156 3.154478788375854 0.003921568859369
4.655995368957520 -22.231426239013672 1.824647188186646 0.003921568859369
6.149552822113037 -23.652847290039062 6.501788139343262 0.003921568859369
6.250730991363525 -24.422706604003906 1.436710119247437 0.003921568859369
2.841315984725952 -10.499369621276855 1.314178943634033 0.000000000000000
6.096393108367920 -23.793338775634766 6.534786224365234 0.003921568859369
3.511291027069092 -23.178546905517578 0.246794313192368 0.003921568859369
6.098041057586670 -24.163913726806641 1.420257925987244 0.003921568859369
4.712095260620117 -23.373918533325195 1.915914177894592 0.003921568859369
3.385439634323120 -22.860233306884766 -0.293890506029129 0.003921568859369
5.930200576782227 -23.833421707153320 6.534779548645020 0.003921568859369
3.142563343048096 -21.594335556030273 -0.278442710638046 0.003921568859369
5.657583236694336 -23.014991760253906 0.523074924945831 0.003921568859369
3.134778022766113 -21.535392761230469 0.228101074695587 0.003921568859369
4.370791435241699 -22.395498275756836 4.123931884765625 0.003921568859369
3.282442092895508 -23.270807266235352 0.246512353420258 0.003921568859369
6.057921409606934 -25.122779846191406 1.471997976303101 0.003921568859369
3.764025211334229 -15.399534225463867 -0.018511343747377 0.000000000000000
2.423958539962769 -9.481494903564453 0.553995370864868 0.000000000000000
2.408232450485229 -9.566883087158203 -0.012132362462580 0.003921568859369
4.159280776977539 -23.054164886474609 -0.706961870193481 0.003921568859369
4.004664421081543 -22.617851257324219 -0.693208217620850 0.003921568859369
3.954257011413574 -22.311868667602539 -0.157192543148994 0.003921568859369
4.513750076293945 -25.706195831298828 2.097105741500854 0.003921568859369
3.604914665222168 -21.549430847167969 -0.151626482605934 0.003921568859369
3.262305498123169 -19.329662322998047 3.542625188827515 0.003921568859369
3.710940837860107 -22.789653778076172 -0.696933269500732 0.003921568859369
3.492540359497070 -21.339986801147461 -0.150082170963287 0.003921568859369
5.598090171813965 -21.077114105224609 -0.910456955432892 0.003921568859369
3.773811101913452 -23.205179214477539 4.250922203063965 0.003921568859369
3.606931686401367 -22.635364532470703 -0.691862940788269 0.003921568859369
5.939065933227539 -22.762550354003906 0.655919194221497 0.003921568859369
4.964353561401367 -23.740633010864258 6.454389572143555 0.003921568859369
3.675049781799316 -23.096527099609375 4.228814601898193 0.003921568859369
3.577354431152344 -22.962882995605469 -0.701507925987244 0.003921568859369
4.623186111450195 -22.403348922729492 2.775524616241455 0.003921568859369
4.713396072387695 -22.868227005004883 6.213098526000977 0.003921568859369
3.227204799652100 -20.524711608886719 3.755909204483032 0.003921568859369
3.317209482192993 -21.671323776245117 1.760269761085510 0.003921568859369
4.673929214477539 -23.084699630737305 -0.574445188045502 0.003921568859369
2.179215908050537 -21.761259078979492 -0.279982417821884 0.003921568859369
4.508224487304688 -23.067552566528320 1.337956905364990 0.003921568859369
4.176592826843262 -21.256563186645508 2.627270936965942 0.003921568859369
3.952915430068970 -20.877441406250000 -0.025124188512564 0.003921568859369
1.944702625274658 -21.744308471679688 -0.279494017362595 0.003921568859369
2.975589275360107 -21.404310226440430 -0.150856196880341 0.003921568859369
2.718355894088745 -19.357774734497070 1.569254159927368 0.000000000000000
4.514835357666016 -24.073701858520508 6.518388271331787 0.003921568859369
1.542325615882874 -5.645845890045166 -0.109072953462601 0.000000000000000
3.056833744049072 -22.690174102783203 -0.692132532596588 0.003921568859369
1.859308362007141 -21.618879318237305 0.226861387491226 0.003921568859369
4.460310459136963 -24.259717941284180 6.564786434173584 0.003921568859369
2.625812768936157 -19.160541534423828 3.495522737503052 0.003921568859369
4.248002052307129 -23.027755737304688 -0.571220219135284 0.003921568859369
2.506556272506714 -18.700830459594727 1.514682650566101 0.000000000000000
3.855743408203125 -21.167491912841797 5.724511146545410 0.003921568859369
2.966605424880981 -23.299556732177734 1.886815547943115 0.003921568859369
2.510941505432129 -19.340637207031250 3.525486946105957 0.003921568859369
1.657993078231812 -22.037384033203125 0.231155589222908 0.003921568859369
2.349703788757324 -18.510200500488281 1.497999191284180 0.000000000000000
1.666012406349182 -23.486873626708984 -0.301340579986572 0.003921568859369
1.488484144210815 -20.468854904174805 0.214542329311371 0.003921568859369
1.480914354324341 -21.627105712890625 0.226748511195183 0.003921568859369
2.341063022613525 -19.678638458251953 0.782527387142181 0.003921568859369
2.215061902999878 -18.472620010375977 1.493838071823120 0.003921568859369
1.245963811874390 -18.431293487548828 0.192957580089569 0.003921568859369
2.955496072769165 -18.118326187133789 4.882461547851562 0.003921568859369
1.206521868705750 -20.271663665771484 0.211511716246605 0.003921568859369
4.840430259704590 -23.927183151245117 0.679165184497833 0.003921568859369
1.206619858741760 -24.210165023803711 -0.311159640550613 0.003921568859369
1.202205777168274 -24.090890884399414 0.251658678054810 0.003921568859369
1.992919445037842 -19.583694458007812 3.558963775634766 0.003921568859369
1.121822714805603 -23.961099624633789 -0.307928681373596 0.003921568859369
2.107811927795410 -21.700984954833984 -0.153067126870155 0.003921568859369
0.988104999065399 -20.104255676269531 0.209698081016541 0.003921568859369
2.027946949005127 -21.703514099121094 -0.153029248118401 0.003921568859369
1.747472524642944 -19.032051086425781 1.534528374671936 0.003921568859369
2.758559465408325 -20.137283325195312 2.465625524520874 0.003921568859369
1.654955267906189 -18.635154724121094 1.502121806144714 0.000000000000000
4.041965484619141 -21.748943328857422 -0.926126480102539 0.003921568859369
1.818012356758118 -21.915775299072266 -0.154360145330429 0.003921568859369
1.398837208747864 -17.721857070922852 3.214637517929077 0.003921568859369
2.827996253967285 -22.705314636230469 -0.559398472309113 0.003921568859369
1.679280042648315 -23.397583007812500 -0.710428118705750 0.003921568859369
4.137422084808350 -24.297201156616211 0.686002731323242 0.003921568859369
1.473943710327148 -19.935716629028320 0.324168026447296 0.003921568859369
1.346905469894409 -17.788112640380859 3.226054668426514 0.003921568859369
1.399030208587646 -19.856355667114258 0.321952760219574 0.003921568859369
2.226821422576904 -18.432323455810547 2.251393795013428 0.003921568859369
3.524813413619995 -21.403305053710938 0.098406627774239 0.003921568859369
1.523090720176697 -23.581119537353516 -0.166718810796738 0.003921568859369
2.339526653289795 -20.844614028930664 0.460829704999924 0.003921568859369
1.135674595832825 -18.492082595825195 0.299576610326767 0.003921568859369
2.142807245254517 -19.538640975952148 1.117851138114929 0.003921568859369
1.278326511383057 -21.633323669433594 1.740386605262756 0.003921568859369
2.579313993453979 -24.154050827026367 6.468056678771973 0.003921568859369
2.004506349563599 -18.809116363525391 2.294389486312866 0.003921568859369
0.059256315231323 -16.958475112915039 -0.218928113579750 0.003921568859369
1.150264620780945 -24.478080749511719 -0.172794580459595 0.003921568859369
0.992571353912354 -19.950777053833008 0.323255896568298 0.003921568859369
0.433596730232239 -4.923794746398926 0.192990571260452 0.003921568859369
-0.178482234477997 -19.410116195678711 -0.250311911106110 0.003921568859369
2.033455133438110 -24.852437973022461 1.419615149497986 0.003921568859369
-0.284755021333694 -18.478855133056641 -0.238406240940094 0.003921568859369
0.704108953475952 -23.382417678833008 1.879728436470032 0.003921568859369
-0.292484521865845 -17.121805191040039 -0.221801578998566 0.003921568859369
-0.274719357490540 -16.614620208740234 0.171760231256485 0.003921568859369
0.584276795387268 -19.944051742553711 0.786583721637726 0.003921568859369
1.635755538940430 -21.135810852050781 2.572137832641602 0.003921568859369
-0.350568473339081 -18.785951614379883 -0.680742084980011 0.003921568859369
-0.343379616737366 -16.811759948730469 -0.217833533883095 0.003921568859369
0.530199050903320 -21.758174896240234 1.747924566268921 0.003921568859369
-0.428953647613525 -19.031084060668945 -0.689675331115723 0.003921568859369
0.454339802265167 -21.770792007446289 1.748901367187500 0.003921568859369
0.475662380456924 -24.785921096801758 4.486222743988037 0.003921568859369
0.382330477237701 -21.819015502929688 1.752763867378235 0.003921568859369
0.305647522211075 -16.611970901489258 1.333981156349182 0.000000000000000
0.235963582992554 -18.960779190063477 -0.576472043991089 0.000000000000000
-0.787514090538025 -20.791259765625000 -0.269036322832108 0.003921568859369
1.233934879302979 -20.513389587402344 2.493996381759644 0.003921568859369
1.205733060836792 -21.561504364013672 0.474108427762985 0.003921568859369
0.275805622339249 -3.975798130035400 -0.215002119541168 0.000000000000000
1.159852027893066 -20.456996917724609 2.486767053604126 0.003921568859369
1.133464574813843 -21.544399261474609 0.473678588867188 0.003921568859369
0.050435423851013 -18.253633499145508 -0.980497598648071 0.003921568859369
1.074272274971008 -21.994123458862305 2.673106193542480 0.003921568859369
0.615405797958374 -4.044920444488525 -0.077644705772400 0.000000000000000
-0.942844152450562 -17.852643966674805 -0.231438696384430 0.003921568859369
2.189304351806641 -24.475547790527344 0.682644069194794 0.003921568859369
-0.147458404302597 -18.531602859497070 -0.563543736934662 0.003921568859369
-0.874066352844238 -16.061132431030273 -0.208441749215126 0.003921568859369
-0.892714500427246 -16.316883087158203 0.169171556830406 0.003921568859369
1.861391305923462 -21.184169769287109 0.590430498123169 0.003921568859369
0.837722420692444 -21.746927261352539 2.642253160476685 0.003921568859369
-0.160144627094269 -16.891338348388672 -0.514608979225159 0.000000000000000
-1.215847253799438 -19.858003616333008 0.205512270331383 0.003921568859369
1.819395661354065 -21.556554794311523 0.599777340888977 0.003921568859369
0.764643669128418 -21.586072921752930 2.621546268463135 0.003921568859369
-0.285338431596756 -21.421022415161133 3.877483129501343 0.003921568859369
-0.275880008935928 -18.699871063232422 -0.569541454315186 0.000000000000000
-1.390590548515320 -21.164251327514648 0.219246402382851 0.003921568859369
-1.183963775634766 -17.813602447509766 -0.231898203492165 0.003921568859369
-1.058483958244324 -16.315408706665039 -0.975449383258820 0.003921568859369
-0.594073414802551 -25.991144180297852 4.706300258636475 0.003921568859369
1.508134126663208 -20.134267807006836 0.559713363647461 0.003921568859369
-0.624352574348450 -24.410642623901367 4.420558929443359 0.003921568859369
0.442480325698853 -18.576326370239258 4.950469017028809 0.003921568859369
-0.447604268789291 -16.720790863037109 -0.509685575962067 0.000000000000000
1.404575943946838 -20.848770141601562 0.093246206641197 0.003921568859369
1.393332123756409 -20.633268356323242 0.573429822921753 0.003921568859369
-0.456053346395493 -16.917671203613281 1.359385132789612 0.000000000000000
-0.481715887784958 -16.281999588012695 -0.116776399314404 0.003921568859369
-0.686991214752197 -19.186918258666992 -0.584725260734558 0.000000000000000
-1.294362425804138 -15.867383003234863 -0.207017853856087 0.000000000000000
-1.336151838302612 -16.281707763671875 0.168623507022858 0.003921568859369
-1.364654660224915 -16.559751510620117 -0.991505205631256 0.003921568859369
-0.644707322120667 -17.162677764892578 -0.122997365891933 0.000000000000000
-1.437519192695618 -16.673357009887695 0.172814309597015 0.003921568859369
1.175615310668945 -20.519481658935547 0.570007085800171 0.003921568859369
0.172219172120094 -20.705923080444336 5.518319129943848 0.003921568859369
-0.633256196975708 -15.953378677368164 -0.114478699862957 0.000000000000000
-1.484828591346741 -16.563217163085938 -0.992415785789490 0.003921568859369
-0.809367060661316 -18.933774948120117 0.747358620166779 0.003921568859369
-1.770596981048584 -19.200593948364258 -0.699804008007050 0.003921568859369
-1.051054596900940 -23.034315109252930 4.175539970397949 0.003921568859369
-0.712110280990601 -16.318136215209961 -0.497846156358719 0.000000000000000
1.015547513961792 -20.049076080322266 0.089573293924332 0.003921568859369
-0.693434834480286 -16.021841049194336 -0.114970080554485 0.000000000000000
-0.759150505065918 -17.076988220214844 1.373568058013916 0.000000000000000
-1.026138544082642 -20.252269744873047 -0.617513358592987 0.003921568859369
-0.015126526355743 -19.118883132934570 -0.025654334574938 0.003921568859369
-0.004394114017487 -18.477869033813477 -0.885687828063965 0.000000000000000
-1.607109785079956 -16.170267105102539 -0.211969047784805 0.003921568859369
-0.946037828922272 -17.255577087402344 -0.527422547340393 0.000000000000000
-0.148117125034332 -19.220090866088867 -0.026593366637826 0.003921568859369
-1.083175659179688 -19.132032394409180 0.308507144451141 0.003921568859369
-1.101983785629272 -19.390724182128906 0.765373826026917 0.003921568859369
-0.951627671718597 -17.330333709716797 -0.934664368629456 0.003921568859369
-2.042841434478760 -19.256950378417969 -0.703744411468506 0.003921568859369
-0.210845828056335 -19.185832977294922 0.420022219419479 0.003921568859369
-0.185212850570679 -18.291845321655273 4.875604152679443 0.003921568859369
-0.204961359500885 -16.741548538208008 0.366296619176865 0.000000000000000
-1.781903266906738 -16.193351745605469 0.167674466967583 0.003921568859369
-1.153244972229004 -18.332529067993164 0.723914980888367 0.003921568859369
-0.249817371368408 -18.212615966796875 4.855012416839600 0.003921568859369
-2.253053665161133 -19.297683715820312 -0.252915233373642 0.003921568859369
-0.260652124881744 -16.664697647094727 0.947623848915100 0.003921568859369
-1.047459840774536 -16.299962997436523 0.643617749214172 0.003921568859369
-1.764282703399658 -24.873146057128906 4.515993595123291 0.003921568859369
-1.182984828948975 -16.590362548828125 -0.507790505886078 0.003921568859369
-1.222654819488525 -17.027637481689453 -0.919570207595825 0.003921568859369
-0.505529046058655 -19.902742385864258 -0.490893959999084 0.000000000000000
-1.222269773483276 -16.325748443603516 -0.499880462884903 0.000000000000000
-2.159353494644165 -17.215042114257812 -0.226098939776421 0.003921568859369
-1.238512754440308 -16.496688842773438 -0.891253709793091 0.003921568859369
-0.658304214477539 -21.589200973510742 -0.532385766506195 0.003921568859369
-2.254430770874023 -17.443704605102539 -0.229167327284813 0.003921568859369
-1.241654157638550 -15.937270164489746 -0.115238055586815 0.003921568859369
-2.208262681961060 -17.131626129150391 0.178056403994560 0.003921568859369
-1.538177490234375 -18.973760604858398 1.530006051063538 0.003921568859369
-0.602542579174042 -18.921833038330078 5.047769546508789 0.003921568859369
-2.257291793823242 -17.051515579223633 0.177330344915390 0.003921568859369
-1.363710165023804 -16.584774017333984 -0.896575987339020 0.003921568859369
-1.367642164230347 -16.630701065063477 1.341279268264771 0.000000000000000
-1.405942678451538 -16.487508773803711 -0.119189009070396 0.000000000000000
-1.429092884063721 -16.706537246704102 -0.903418362140656 0.003921568859369
-1.737517118453979 -18.986389160156250 -0.136971637606621 0.000000000000000
-0.905499637126923 -20.728042602539062 1.180681705474854 0.003921568859369
-1.438956260681152 -16.230270385742188 0.642479956150055 0.003921568859369
-1.503207921981812 -16.819154739379883 -0.909828543663025 0.003921568859369
-0.893040955066681 -20.522909164428711 2.495554447174072 0.003921568859369
-1.487516641616821 -16.205337524414062 -0.497724652290344 0.003921568859369
-0.686387479305267 -16.158235549926758 -0.023286717012525 0.003921568859369
-2.474859952926636 -17.324216842651367 0.179784655570984 0.003921568859369
-0.976797282695770 -20.807441711425781 1.184569597244263 0.003921568859369
-1.560873270034790 -16.860328674316406 -0.913135111331940 0.003921568859369
0.073914498090744 -18.395845413208008 -0.775887846946716 0.003921568859369
-1.527120828628540 -16.051959991455078 -0.493209272623062 0.003921568859369
-2.536612987518311 -17.322237014770508 0.179891929030418 0.003921568859369
-0.916090667247772 -18.775337219238281 -0.903162181377411 0.000000000000000
-0.980528295040131 -19.752803802490234 -0.488591045141220 0.003921568859369
-1.613566875457764 -16.326822280883789 -0.118884354829788 0.003921568859369
-2.786169767379761 -18.452514648437500 0.191902458667755 0.003921568859369
-1.677000522613525 -16.859010696411133 -0.913739681243896 0.003921568859369
-1.688652753829956 -16.963796615600586 1.370099067687988 0.000000000000000
-2.676555633544922 -17.411668777465820 -0.230246022343636 0.003921568859369
-0.139680922031403 -19.272041320800781 0.084528282284737 0.000000000000000
-1.666585206985474 -16.264026641845703 -0.118466027081013 0.003921568859369
-2.679195880889893 -17.427978515625000 0.181268885731697 0.003921568859369
-1.055282592773438 -18.877798080444336 -0.908483088016510 0.000000000000000
-0.121584981679916 -18.512079238891602 -0.780889809131622 0.003921568859369
-2.627480745315552 -17.125949859619141 -0.631035804748535 0.003921568859369
-0.895479857921600 -16.692270278930664 -0.413378536701202 0.000000000000000
-2.681653022766113 -17.102235794067383 -0.226297378540039 0.003921568859369
-2.565953969955444 -16.444890975952148 0.171045079827309 0.003921568859369
-1.613476037979126 -15.408391952514648 0.610468685626984 0.000000000000000
-1.240193605422974 -20.487186431884766 2.493308305740356 0.003921568859369
-2.691865444183350 -17.159376144409180 -0.632603585720062 0.003921568859369
-1.182018280029297 -19.714401245117188 -0.487944394350052 0.000000000000000
-2.611430644989014 -16.351003646850586 -0.216563969850540 0.003921568859369
-1.019809246063232 -16.784036636352539 0.367700427770615 0.000000000000000
-2.756146907806396 -17.156074523925781 -0.632866382598877 0.003921568859369
-1.173352956771851 -18.718416213989258 5.002798557281494 0.003921568859369
-2.641823053359985 -16.195089340209961 -0.214629456400871 0.003921568859369
-3.151166200637817 -18.977184295654297 0.198029279708862 0.003921568859369
-1.889836311340332 -16.645122528076172 1.346799135208130 0.003921568859369
-2.795125961303711 -17.031190872192383 -0.628645777702332 0.003921568859369
-1.044547796249390 -16.371751785278320 -0.405762225389481 0.003921568859369
-1.875903844833374 -16.148231506347656 -0.117762550711632 0.000000000000000
-1.885792732238770 -16.221841812133789 0.262584149837494 0.003921568859369
-1.802222490310669 -15.609401702880859 0.619356751441956 0.000000000000000
-2.860331535339355 -17.084186553955078 -0.630937218666077 0.003921568859369
-1.106338500976562 -16.486886978149414 -0.408694326877594 0.000000000000000
-0.380497276782990 -17.035078048706055 0.074579432606697 0.003921568859369
-1.933407545089722 -16.128173828125000 -0.117655575275421 0.000000000000000
-1.189562320709229 -16.741987228393555 2.039529561996460 0.003921568859369
-2.246758699417114 -18.371034622192383 1.488112926483154 0.003921568859369
-2.915456533432007 -17.033128738403320 -0.629463493824005 0.003921568859369
-0.439589679241180 -17.024520874023438 0.074557907879353 0.000000000000000
-2.958260536193848 -16.937763214111328 0.176939636468887 0.003921568859369
-1.946683645248413 -15.821599960327148 0.256352752447128 0.000000000000000
-1.246490955352783 -16.720787048339844 2.037618398666382 0.003921568859369
-1.979521989822388 -16.053115844726562 1.300732016563416 0.000000000000000
-2.969563961029053 -16.994245529174805 -0.628424882888794 0.003921568859369
-0.453605651855469 -16.082860946655273 0.070341303944588 0.003921568859369
-1.258343219757080 -16.232931137084961 0.356190055608749 0.003921568859369
-2.248673439025879 -17.491300582885742 0.283802628517151 0.003921568859369
-2.555926322937012 -19.583389282226562 1.588111877441406 0.000000000000000
-1.414464712142944 -17.242204666137695 0.378614276647568 0.003921568859369
-2.297662496566772 -17.423957824707031 0.693093359470367 0.003921568859369
-3.066539049148560 -22.541854858398438 4.123628616333008 0.003921568859369
-4.248172760009766 -22.368091583251953 -0.297608107328415 0.003921568859369
-3.242976427078247 -17.458906173706055 0.182127684354782 0.003921568859369
-2.197908163070679 -16.393852233886719 0.265445798635483 0.003921568859369
-2.253401279449463 -16.754600524902344 0.666022896766663 0.003921568859369
-1.418930053710938 -16.731344223022461 -0.808239698410034 0.003921568859369
-2.237729549407959 -16.654741287231445 1.350983381271362 0.000000000000000
-3.066707611083984 -22.035402297973633 4.032205581665039 0.003921568859369
-2.409564256668091 -17.362508773803711 -0.127485886216164 0.000000000000000
-3.251677751541138 -17.195720672607422 0.179507419466972 0.003921568859369
-2.412237167358398 -17.380466461181641 0.281733274459839 0.003921568859369
-2.140461683273315 -15.661063194274902 1.270954012870789 0.000000000000000
-0.625526309013367 -16.239349365234375 -0.686843276023865 0.003921568859369
-1.434883356094360 -16.333759307861328 -0.406371027231216 0.000000000000000
-3.393868446350098 -17.569911956787109 -0.234514623880386 0.003921568859369
-2.244089365005493 -15.953320503234863 0.258584171533585 0.003921568859369
-2.098381280899048 -21.769882202148438 2.657536268234253 0.003921568859369
-2.198913097381592 -15.675958633422852 1.272897124290466 0.000000000000000
-3.384042978286743 -23.025341033935547 4.218176364898682 0.003921568859369
-2.514662027359009 -17.264520645141602 -0.126868590712547 0.000000000000000
-3.478990554809570 -17.683153152465820 0.184984758496284 0.003921568859369
-2.855660438537598 -19.334512710571289 0.314057856798172 0.003921568859369
-1.687629938125610 -17.560434341430664 2.144028663635254 0.003921568859369
-3.338145732879639 -22.271099090576172 4.082157135009766 0.003921568859369
-0.995831787586212 -19.116523742675781 -0.362436443567276 0.003921568859369
-4.121329784393311 -20.301694869995117 -0.270976901054382 0.003921568859369
-2.563948631286621 -17.171148300170898 -0.126244395971298 0.000000000000000
-5.236779689788818 -25.389192581176758 0.266821980476379 0.003921568859369
-1.029906034469604 -19.611167907714844 0.543391346931458 0.003921568859369
-2.826542854309082 -18.730884552001953 0.746641516685486 0.003921568859369
-2.330260515213013 -22.436006546020508 6.018938064575195 0.003921568859369
-2.492271423339844 -16.753757476806641 3.072134971618652 0.003921568859369
-2.944328546524048 -19.021053314208984 -0.589177608489990 0.000000000000000
-2.763680696487427 -17.972970962524414 -0.132088989019394 0.000000000000000
-2.875835418701172 -18.625402450561523 0.302879989147186 0.003921568859369
-2.929871559143066 -18.940328598022461 0.755493342876434 0.003921568859369
-1.734895229339600 -16.896554946899414 -0.817713916301727 0.003921568859369
-1.622949361801147 -15.988640785217285 1.953603148460388 0.003921568859369
-2.406182050704956 -15.900087356567383 1.293458461761475 0.000000000000000
-1.773061513900757 -17.224201202392578 4.622097492218018 0.003921568859369
-3.506042718887329 -22.294702529907227 4.091482639312744 0.003921568859369
-2.955559015274048 -18.717084884643555 0.304584592580795 0.003921568859369
-2.997492074966431 -18.956968307495117 0.756622731685638 0.003921568859369
-2.412689447402954 -15.627806663513184 1.272024750709534 0.000000000000000
-1.862872362136841 -17.477905273437500 4.692167282104492 0.003921568859369
-2.742238759994507 -17.148656845092773 -0.531974792480469 0.000000000000000
-4.554376602172852 -21.229223251342773 -0.283802658319473 0.003921568859369
-2.649578094482422 -16.632535934448242 -0.122496753931046 0.003921568859369
-2.970581293106079 -18.425916671752930 0.735847413539886 0.003921568859369
-1.888240575790405 -17.179294586181641 -0.832030534744263 0.003921568859369
-1.731702804565430 -15.974972724914551 1.953641295433044 0.003921568859369
-2.054445266723633 -18.482126235961914 4.964147090911865 0.003921568859369
-2.729458570480347 -16.740600585937500 -0.519668936729431 0.000000000000000
-2.648633480072021 -16.299386978149414 -0.120137095451355 0.000000000000000
-3.183634996414185 -19.228155136108398 0.768499314785004 0.003921568859369
-2.256103992462158 -19.508197784423828 5.242311477661133 0.003921568859369
-2.852350473403931 -17.075693130493164 -0.530342936515808 0.000000000000000
-1.874952077865601 -16.188287734985352 -0.023833390325308 0.003921568859369
-5.593363285064697 -24.945940017700195 -0.333563297986984 0.003921568859369
-1.437391042709351 -20.377113342285156 0.089250601828098 0.003921568859369
-2.691575765609741 -16.214176177978516 -0.119571641087532 0.000000000000000
-5.697685241699219 -25.386499404907227 0.268072843551636 0.003921568859369
-2.603883266448975 -15.744624137878418 0.256419986486435 0.003921568859369
-3.767544269561768 -21.995897293090820 4.046735763549805 0.003921568859369
-2.878118753433228 -16.903554916381836 -0.124614603817463 0.000000000000000
-5.745284557342529 -25.214715957641602 0.266499251127243 0.003921568859369
