# This PCD file was generated using the MATLAB® pcwrite function
# from Computer Vision Toolbox®.
# .PCD v.7 - Point Cloud Data file format
VERSION .7
FIELDS x y z intensity
SIZE 8 8 8 8
TYPE F F F F
COUNT 1 1 1 1
WIDTH 643
HEIGHT 1
VIEWPOINT 0 0 0 1 0 0 0
POINTS 643
DATA ascii
-13.913296699523926 -4.211855411529541 0.436613500118256 0.000000000000000
-6.380013942718506 -1.232837796211243 0.259990572929382 0.000000000000000
-25.959745407104492 -6.541909217834473 7.095405578613281 0.003921568859369
-8.082002639770508 -1.532509922981262 1.430991291999817 0.000000000000000
-7.121280670166016 -1.656502008438110 0.015814227983356 0.000000000000000
-16.966886520385742 -3.205154895782471 3.092407703399658 0.003921568859369
-8.979820251464844 -2.502559661865234 0.276869535446167 0.000000000000000
-9.052097320556641 -2.493662118911743 -0.345262169837952 0.000000000000000
-2.774384498596191 -0.356186538934708 0.049559824168682 0.000000000000000
-8.947520256042480 -1.224590420722961 -0.033058356493711 0.000000000000000
-10.754300117492676 -0.866918087005615 0.138588577508926 0.000000000000000
-4.281869888305664 -0.443404704332352 -0.011735765263438 0.000000000000000
-8.772295951843262 -0.556865036487579 0.112714834511280 0.000000000000000
-7.379137992858887 -1.147868752479553 0.875269114971161 0.000000000000000
-30.308841705322266 -1.898421049118042 0.389889657497406 0.003921568859369
-10.912535667419434 -1.659549951553345 0.019445922225714 0.003921568859369
-30.076841354370117 -1.775417327880859 -0.303944677114487 0.003921568859369
-30.322170257568359 -1.690803527832031 -0.306551218032837 0.003921568859369
-12.291575431823730 -1.250580787658691 0.228115543723106 0.000000000000000
-30.388673782348633 -1.583860874176025 0.389180332422256 0.003921568859369
-6.726928234100342 -0.638678789138794 0.527484357357025 0.000000000000000
-19.434541702270508 -2.812913417816162 2.385051488876343 0.003921568859369
-19.521123886108398 -2.624228477478027 0.029450371861458 0.003921568859369
-12.013519287109375 -2.169591903686523 0.362818270921707 0.000000000000000
-22.162261962890625 -3.993954896926880 0.676026940345764 0.003921568859369
-13.890239715576172 -2.331510543823242 -0.214962348341942 0.000000000000000
-12.055015563964844 -0.859020233154297 2.139493465423584 0.000000000000000
-30.427469253540039 -0.653569519519806 0.388270229101181 0.003921568859369
-30.437759399414062 -0.538637280464172 0.388251215219498 0.003921568859369
-6.464569568634033 -0.379149913787842 1.109714269638062 0.000000000000000
-30.200658798217773 -1.782770037651062 -0.134161889553070 0.003921568859369
-30.446168899536133 -0.329138398170471 0.386934250593185 0.003921568859369
-15.923554420471191 -1.686349391937256 1.934716463088989 0.000000000000000
-5.920094013214111 -0.848458707332611 -0.084234550595284 0.000000000000000
-30.439136505126953 -0.224376380443573 0.386722236871719 0.003921568859369
-8.581676483154297 -0.457336843013763 0.679302394390106 0.000000000000000
-11.945886611938477 -1.747532486915588 0.087210923433304 0.000000000000000
-30.034366607666016 -1.467980742454529 -0.823372900485992 0.003921568859369
-30.415979385375977 -0.020258918404579 0.386201262474060 0.003921568859369
-30.027088165283203 -1.369335770606995 -0.823136389255524 0.003921568859369
-30.411886215209961 0.079082101583481 0.386044740676880 0.003921568859369
-30.419403076171875 0.188940450549126 0.386029064655304 0.003921568859369
-30.438560485839844 0.293727010488510 0.386170715093613 0.003921568859369
-3.821085691452026 -0.462755501270294 0.108585968613625 0.000000000000000
-30.445356369018555 0.398497819900513 0.386159688234329 0.003921568859369
-29.931591033935547 -0.947541832923889 -0.820427954196930 0.003921568859369
-29.902744293212891 -0.843733847141266 -0.819638013839722 0.003921568859369
-30.142667770385742 0.601059973239899 -0.309256792068481 0.003921568859369
-27.260087966918945 -0.485708922147751 4.923739910125732 0.003921568859369
-2.949316024780273 -0.036237817257643 0.110070504248142 0.000000000000000
-8.308094024658203 -0.115209966897964 0.655494928359985 0.000000000000000
-2.893477678298950 -0.027299355715513 0.107724502682686 0.000000000000000
-30.072404861450195 -1.687448501586914 -0.652893781661987 0.003921568859369
-8.328322410583496 -0.418187767267227 0.983136892318726 0.000000000000000
-30.086378097534180 -1.579285264015198 -0.653179466724396 0.003921568859369
-6.266696929931641 -0.005090146325529 0.248571529984474 0.000000000000000
-30.167339324951172 -1.484785914421082 -0.654964327812195 0.003921568859369
-29.932050704956055 0.076921761035919 -0.822498500347137 0.003921568859369
-3.873257398605347 0.177158415317535 -0.110917530953884 0.000000000000000
-30.164588928222656 -1.375480175018311 -0.654896080493927 0.003921568859369
-22.023038864135742 -1.981213331222534 0.660218656063080 0.003921568859369
-30.157224655151367 -1.271236419677734 -0.654734134674072 0.003921568859369
-30.233207702636719 -1.175551176071167 -0.656432271003723 0.003921568859369
-8.292335510253906 0.485932201147079 -0.078456528484821 0.000000000000000
-10.294369697570801 0.128340631723404 0.416673421859741 0.000000000000000
-30.052833557128906 -0.961473047733307 -0.652468144893646 0.003921568859369
-30.054241180419922 0.588866889476776 -0.826636075973511 0.003921568859369
-9.094522476196289 0.173184528946877 0.366552889347076 0.000000000000000
-8.471103668212891 -0.230768084526062 0.999659597873688 0.000000000000000
-30.028024673461914 -0.857316017150879 -0.651951730251312 0.003921568859369
-10.842298507690430 -0.264761090278625 1.293641328811646 0.000000000000000
-9.139528274536133 0.659571349620819 0.114884898066521 0.000000000000000
-30.271566390991211 0.906244218349457 -0.834717929363251 0.003921568859369
-29.885513305664062 -1.985517024993896 0.207964390516281 0.003921568859369
-30.128677368164062 -0.549021363258362 -0.655730545520782 0.003921568859369
-29.824407577514648 -1.878383636474609 0.207397639751434 0.003921568859369
-13.360869407653809 -0.825185954570770 0.395798236131668 0.000000000000000
-30.126413345336914 -0.445330649614334 -0.655747711658478 0.003921568859369
-11.328399658203125 -0.124561235308647 0.016292857006192 0.003921568859369
-30.377777099609375 -1.808869004249573 0.211053237318993 0.003921568859369
-30.139785766601562 -0.341846823692322 -0.656121492385864 0.003921568859369
-30.168792724609375 -0.238403886556625 -0.656852185726166 0.003921568859369
-30.137428283691406 -0.139671862125397 -0.656241357326508 0.003921568859369
-30.201715469360352 -0.036099456250668 -0.657774984836578 0.003921568859369
-6.703560829162598 0.321912288665771 0.523234844207764 0.000000000000000
-30.113685607910156 0.067584902048111 -0.655922174453735 0.003921568859369
-28.130565643310547 2.876678228378296 -0.294431686401367 0.003921568859369
-30.113267898559570 0.171159535646439 -0.656030476093292 0.003921568859369
-27.499961853027344 2.906688451766968 -0.287817806005478 0.003921568859369
-30.076499938964844 0.274399816989899 -0.655336618423462 0.003921568859369
-27.267028808593750 2.976429224014282 -0.285511404275894 0.003921568859369
-30.127346038818359 0.378504663705826 -0.656604886054993 0.003921568859369
-27.099321365356445 3.048427343368530 -0.285053044557571 0.003921568859369
-30.123258590698242 0.477362364530563 -0.658022463321686 0.003921568859369
-27.040304183959961 3.140506505966187 -0.284644752740860 0.003921568859369
-8.383653640747070 0.546978831291199 -0.033973339945078 0.000000000000000
-30.117311477661133 0.586086153984070 -0.658047080039978 0.003921568859369
-26.882833480834961 3.210886001586914 -0.283142805099487 0.003921568859369
-26.872039794921875 3.298573970794678 -0.283243358135223 0.003921568859369
-10.634742736816406 0.805210292339325 -0.283579856157303 0.000000000000000
-26.860364913940430 3.390837907791138 -0.283349454402924 0.003921568859369
-30.160448074340820 -0.564074277877808 0.206801995635033 0.003921568859369
-30.129846572875977 0.887120604515076 -0.658810794353485 0.003921568859369
-11.716144561767578 0.379186183214188 0.015649266541004 0.003921568859369
-26.847761154174805 3.487676620483398 -0.283461153507233 0.003921568859369
-30.354290008544922 -0.458055168390274 0.207991257309914 0.003921568859369
-10.069280624389648 1.272438406944275 -0.326186358928680 0.000000000000000
-30.110406875610352 0.995422720909119 -0.658568501472473 0.003921568859369
-26.835428237915039 3.579847812652588 -0.283567786216736 0.003921568859369
-30.291715621948242 -0.352860450744629 0.207451909780502 0.003921568859369
-4.515155315399170 0.352960020303726 0.755783319473267 0.000000000000000
-26.823413848876953 3.667376995086670 -0.283669322729111 0.003921568859369
-30.276725769042969 -0.253710508346558 0.207242608070374 0.003921568859369
-26.809799194335938 3.764065980911255 -0.283781796693802 0.003921568859369
-30.337459564208984 -0.144629284739494 0.207536116242409 0.003921568859369
-26.796501159667969 3.856109380722046 -0.283889204263687 0.003921568859369
-30.381782531738281 -0.040306624025106 0.207726076245308 0.003921568859369
-28.327754974365234 2.794337272644043 -0.787002265453339 0.003921568859369
-26.976707458496094 3.977150201797485 -0.286125838756561 0.003921568859369
-30.353744506835938 0.064178496599197 0.207429230213165 0.003921568859369
-9.010087966918945 1.285754919052124 0.113116458058357 0.000000000000000
-27.049142837524414 2.760148048400879 -0.751052379608154 0.003921568859369
-26.899408340454102 4.060072898864746 -0.285539090633392 0.003921568859369
-30.341344833374023 0.168549671769142 0.207240238785744 0.003921568859369
-26.576419830322266 2.795198202133179 -0.739207625389099 0.003921568859369
-3.758309841156006 0.192916974425316 0.008151616901159 0.000000000000000
-26.966754913330078 4.157117366790771 -0.287655889987946 0.003921568859369
-30.394025802612305 0.263372719287872 0.206308558583260 0.003921568859369
-25.921691894531250 2.824275732040405 -0.720977962017059 0.003921568859369
-27.069076538085938 4.278008460998535 -0.289083719253540 0.003921568859369
-30.364799499511719 0.378080189228058 0.206002429127693 0.003921568859369
-25.855979919433594 2.817665100097656 -0.123258896172047 0.003921568859369
-12.284636497497559 1.316770553588867 2.190093755722046 0.000000000000000
-27.259437561035156 3.057790756225586 -0.759454607963562 0.003921568859369
-30.351469039916992 0.471940815448761 0.205824926495552 0.003921568859369
-27.363210678100586 3.169658899307251 -0.762849509716034 0.003921568859369
-30.265560150146484 0.579983949661255 0.205148950219154 0.003921568859369
-8.605068206787109 1.370561718940735 -0.278198331594467 0.000000000000000
-22.962459564208984 2.657325267791748 4.160668373107910 0.003921568859369
-27.217021942138672 3.247304439544678 -0.759104430675507 0.003921568859369
-27.225362777709961 3.343268871307373 -0.759776532649994 0.003921568859369
-8.632143020629883 1.024333119392395 -0.036347232758999 0.000000000000000
-8.243375778198242 0.590243041515350 0.194180473685265 0.000000000000000
-7.054717063903809 0.852036714553833 -0.183984607458115 0.000000000000000
-7.266765117645264 0.543632268905640 1.849614977836609 0.000000000000000
-29.143115997314453 3.791331768035889 -0.815518975257874 0.003921568859369
-24.482961654663086 3.182013988494873 4.448496818542480 0.003921568859369
-29.135026931762695 3.882059097290039 -0.815735161304474 0.003921568859369
-11.299633979797363 0.400093525648117 0.331373274326324 0.000000000000000
-29.116643905639648 3.986704826354980 -0.815742135047913 0.003921568859369
-3.129849672317505 0.376262873411179 -0.008457904681563 0.000000000000000
-9.856852531433105 1.312023878097534 0.789712667465210 0.000000000000000
-28.350456237792969 3.979643344879150 -0.794318079948425 0.003921568859369
-10.625448226928711 0.448425114154816 0.311166197061539 0.000000000000000
-27.264205932617188 3.920481920242310 -0.763704657554626 0.003921568859369
-15.879738807678223 2.261478662490845 2.864652872085571 0.000000000000000
-29.143259048461914 2.770949125289917 -0.642831802368164 0.003921568859369
-27.128967285156250 3.997294902801514 -0.761592924594879 0.003921568859369
-13.945759773254395 1.354013919830322 0.331878781318665 0.000000000000000
-7.969754219055176 0.756897985935211 0.942601442337036 0.000000000000000
-9.775554656982422 1.402831554412842 1.736752390861511 0.000000000000000
-28.139894485473633 2.772820949554443 -0.621778011322021 0.003921568859369
-27.211191177368164 2.774420738220215 -0.601086974143982 0.003921568859369
-15.511695861816406 1.611076831817627 -0.336448162794113 0.000000000000000
-25.983339309692383 2.823283910751343 -0.573909282684326 0.003921568859369
-27.178165435791016 4.478602886199951 -0.765643239021301 0.003921568859369
-27.456354141235352 3.177127599716187 -0.607981204986572 0.003921568859369
-26.255891799926758 4.417010784149170 -0.739614725112915 0.003921568859369
-6.560058116912842 1.050337433815002 -0.026679564267397 0.000000000000000
-11.451468467712402 1.887220144271851 0.468821436166763 0.000000000000000
-27.290267944335938 3.252731561660767 -0.604572057723999 0.003921568859369
-26.178079605102539 4.491668701171875 -0.737895548343658 0.003921568859369
-15.271114349365234 1.115463495254517 0.103529870510101 0.000000000000000
-27.184093475341797 3.329966783523560 -0.602508425712585 0.003921568859369
-6.421446323394775 1.070135474205017 0.257691979408264 0.000000000000000
-28.476707458496094 3.595228672027588 -0.632273435592651 0.003921568859369
-26.260183334350586 4.692084789276123 -0.741401314735413 0.003921568859369
-3.219734191894531 0.379278182983398 0.007307709194720 0.000000000000000
-29.227659225463867 3.896032094955444 -0.650166332721710 0.003921568859369
-29.206657409667969 3.990437030792236 -0.650093615055084 0.003921568859369
-28.421720504760742 3.982600212097168 -0.633919417858124 0.003921568859369
-10.885450363159180 2.587571859359741 -0.995511054992676 0.000000000000000
-4.360658168792725 0.774616658687592 0.740947306156158 0.000000000000000
-28.432102203369141 4.078909873962402 -0.634565293788910 0.003921568859369
-10.702054023742676 2.582303762435913 -0.978927075862885 0.000000000000000
-27.349077224731445 4.022126674652100 -0.610277891159058 0.003921568859369
-10.577187538146973 2.588709115982056 -0.967883169651031 0.000000000000000
-26.979099273681641 4.061732292175293 -0.602247893810272 0.003921568859369
-14.084859848022461 1.457717299461365 0.094929583370686 0.000000000000000
-10.472135543823242 2.597501277923584 -0.958684146404266 0.000000000000000
-26.925975799560547 4.143626213073730 -0.601442933082581 0.003921568859369
-10.289625167846680 2.587177276611328 -0.942094564437866 0.000000000000000
-10.677231788635254 1.641756653785706 0.253876179456711 0.000000000000000
-10.222790718078613 2.606293201446533 -0.936592102050781 0.000000000000000
-11.364781379699707 1.792171478271484 1.374949932098389 0.000000000000000
-12.033576011657715 2.490637302398682 2.179081916809082 0.000000000000000
-27.291063308715820 4.393104553222656 -0.610696017742157 0.003921568859369
-4.931849002838135 0.756155550479889 0.008176389150321 0.000000000000000
-10.117033004760742 2.616302728652954 -0.927394866943359 0.000000000000000
-9.779232978820801 2.526484012603760 0.123327076435089 0.000000000000000
-26.198009490966797 4.311546802520752 -0.586112976074219 0.003921568859369
-6.179082393646240 0.985412061214447 0.008976523764431 0.000000000000000
-9.984898567199707 2.616549491882324 -0.915607333183289 0.000000000000000
-9.530117988586426 2.022504329681396 1.713276624679565 0.000000000000000
-26.356245040893555 4.431140422821045 -0.590196073055267 0.003921568859369
-9.918591499328613 2.632327079772949 -0.910101115703583 0.000000000000000
-12.567312240600586 2.738435983657837 2.284026384353638 0.000000000000000
-9.775130271911621 2.627816438674927 -0.897202789783478 0.000000000000000
-7.055179119110107 0.848997712135315 -0.419192105531693 0.000000000000000
-9.693111419677734 2.639770507812500 -0.890218615531921 0.000000000000000
-9.953398704528809 2.254309177398682 -0.046589575707912 0.000000000000000
-9.558500289916992 2.638066291809082 -0.879193246364594 0.000000000000000
-19.799505233764648 2.617644786834717 0.587270081043243 0.003921568859369
-9.491887092590332 2.653244495391846 -0.873684108257294 0.000000000000000
-6.197513580322266 1.692078709602356 0.078236028552055 0.000000000000000
-11.356876373291016 2.625025510787964 -0.907943069934845 0.000000000000000
-9.474931716918945 2.682673215866089 -0.872982859611511 0.000000000000000
-11.258547782897949 2.641539335250854 -0.900551140308380 0.000000000000000
-8.574129104614258 1.989434957504272 0.352021187543869 0.000000000000000
-10.552878379821777 3.040064096450806 -0.978444814682007 0.000000000000000
-11.117664337158203 2.646882534027100 -0.889601588249207 0.000000000000000
-10.970064163208008 2.645648956298828 -0.877999901771545 0.000000000000000
-14.414669036865234 3.510303974151611 0.600982069969177 0.000000000000000
-10.790744781494141 2.639293193817139 -0.863814353942871 0.000000000000000
-10.680628776550293 2.651431560516357 -0.855450987815857 0.000000000000000
-10.563779830932617 2.657231569290161 -0.846435725688934 0.000000000000000
-8.357008934020996 1.268497943878174 -0.317805826663971 0.000000000000000
-10.250564575195312 2.068179845809937 -0.223196357488632 0.000000000000000
-7.663892745971680 1.184327006340027 0.052399918437004 0.000000000000000
-10.411860466003418 2.654834270477295 -0.834510803222656 0.000000000000000
-10.271167755126953 2.656239748001099 -0.823557138442993 0.000000000000000
-8.662419319152832 2.224374532699585 0.357720494270325 0.000000000000000
-10.988606452941895 2.852861881256104 2.008806943893433 0.000000000000000
-14.440082550048828 3.053162574768066 -0.321000784635544 0.000000000000000
-10.208455085754395 2.674241542816162 -0.819067835807800 0.000000000000000
-17.225933074951172 4.591081619262695 0.724083721637726 0.003921568859369
-2.983176708221436 0.713189959526062 -0.009072303771973 0.000000000000000
-10.079939842224121 2.675488948822021 -0.809080898761749 0.000000000000000
-11.597798347473145 2.518663644790649 3.085182666778564 0.000000000000000
-9.960182189941406 2.680303335189819 -0.800798535346985 0.000000000000000
-9.865926742553711 2.691332817077637 -0.793719708919525 0.000000000000000
-9.987482070922852 2.729014873504639 1.826931715011597 0.000000000000000
-8.645842552185059 2.375630140304565 -0.691477835178375 0.000000000000000
-9.736866950988770 2.721689224243164 -0.784407436847687 0.000000000000000
-4.802097320556641 0.828847825527191 0.137873560190201 0.000000000000000
-9.726347923278809 2.757513046264648 -0.784450292587280 0.000000000000000
-10.314362525939941 2.413329601287842 0.604298651218414 0.000000000000000
-7.525591850280762 2.134451389312744 -0.208126738667488 0.000000000000000
-9.693748474121094 2.783183097839355 -0.782546937465668 0.000000000000000
-9.845292091369629 2.861815214157104 -0.048022840172052 0.000000000000000
-6.945405960083008 1.639201760292053 0.165337055921555 0.000000000000000
-9.704039573669434 2.818137407302856 -0.784200727939606 0.000000000000000
-9.553323745727539 3.304410219192505 -0.899571120738983 0.000000000000000
-11.014021873474121 2.696053266525269 -0.755283772945404 0.000000000000000
-9.694145202636719 2.850593090057373 -0.784239768981934 0.000000000000000
-5.037632942199707 1.179333567619324 0.594792306423187 0.000000000000000
-9.207118988037109 2.240743160247803 2.444430589675903 0.000000000000000
-5.851146697998047 1.405590772628784 0.007768184877932 0.000000000000000
-9.526766777038574 3.330873012542725 -0.898129761219025 0.000000000000000
-10.865435600280762 2.697234153747559 -0.745350956916809 0.000000000000000
-9.699366569519043 2.887740612030029 -0.785573899745941 0.000000000000000
-9.522560119628906 3.365459442138672 -0.898910224437714 0.000000000000000
-10.767162322998047 2.710528135299683 -0.739019751548767 0.000000000000000
-9.674017906188965 2.915393829345703 -0.784318089485168 0.000000000000000
-10.626495361328125 2.711922645568848 -0.729639232158661 0.000000000000000
-9.659986495971680 2.946533203125000 -0.784033417701721 0.000000000000000
-10.504740715026855 2.719311952590942 -0.721645653247833 0.000000000000000
-9.664302825927734 2.985337018966675 -0.785369992256165 0.000000000000000
-10.365769386291504 2.719339370727539 -0.713242292404175 0.000000000000000
-9.662806510925293 3.021096467971802 -0.787098705768585 0.000000000000000
-10.252369880676270 2.725424528121948 -0.705794751644135 0.000000000000000
-9.629487037658691 3.045936822891235 -0.785193562507629 0.000000000000000
-10.146258354187012 2.734603643417358 -0.698903083801270 0.000000000000000
-9.625824928283691 3.082284927368164 -0.785882174968719 0.000000000000000
-14.894673347473145 3.312920570373535 0.444934576749802 0.000000000000000
-8.403579711914062 2.676961421966553 1.547791004180908 0.000000000000000
-10.068521499633789 2.745621204376221 -0.693946242332458 0.000000000000000
-9.646316528320312 3.121464252471924 -0.788509070873260 0.000000000000000
-9.828435897827148 2.186887979507446 0.291398346424103 0.000000000000000
-12.068483352661133 3.314897060394287 0.716803669929504 0.000000000000000
-10.047373771667480 2.776060581207275 -0.693153500556946 0.000000000000000
-9.612725257873535 3.146011114120483 -0.786603808403015 0.000000000000000
-9.302783966064453 2.596959352493286 -0.990629315376282 0.000000000000000
-10.287035942077637 3.967252969741821 -0.986699402332306 0.000000000000000
-9.213479995727539 2.571339845657349 -0.633555293083191 0.000000000000000
-9.589826583862305 3.175872325897217 -0.785672426223755 0.000000000000000
-9.274591445922852 2.622406005859375 -0.988531768321991 0.000000000000000
-10.140233039855957 3.947933197021484 -0.973400652408600 0.000000000000000
-10.000473022460938 2.837151765823364 -0.691292583942413 0.000000000000000
-8.441970825195312 2.810997009277344 -0.687844097614288 0.000000000000000
-9.288709640502930 2.658669233322144 -0.991127192974091 0.000000000000000
-10.127086639404297 3.980226993560791 -0.973441123962402 0.000000000000000
-9.968072891235352 2.862133026123047 -0.689665436744690 0.000000000000000
-9.590554237365723 3.246346473693848 -0.787692725658417 0.000000000000000
-9.935109138488770 2.888592481613159 -0.688040137290955 0.000000000000000
-9.567901611328125 3.274401903152466 -0.786759495735168 0.000000000000000
-4.587518692016602 1.049838304519653 0.132745653390884 0.000000000000000
-5.641304969787598 1.610370159149170 0.007162615656853 0.000000000000000
-9.932088851928711 2.925879240036011 -0.688636302947998 0.000000000000000
-9.525840759277344 3.297170877456665 -0.784207642078400 0.000000000000000
-2.725219726562500 0.842502772808075 0.106794513761997 0.000000000000000
-9.902763366699219 2.953234910964966 -0.687288343906403 0.000000000000000
-9.611650466918945 3.364559412002563 -0.792673885822296 0.000000000000000
-9.923373222351074 2.994313001632690 -0.689545631408691 0.000000000000000
-9.574258804321289 3.385447740554810 -0.790442287921906 0.000000000000000
-14.118554115295410 4.318035125732422 3.865918636322021 0.000000000000000
-8.748539924621582 3.083876371383667 1.631586790084839 0.000000000000000
-7.259531497955322 2.561409473419189 -0.926287174224854 0.000000000000000
-9.868139266967773 3.015585184097290 -0.687213301658630 0.000000000000000
-9.495906829833984 3.395310878753662 -0.785679638385773 0.000000000000000
-9.439252853393555 3.925048112869263 -0.913646817207336 0.000000000000000
-9.861354827880859 3.049880027770996 -0.687529623508453 0.000000000000000
-9.648159027099609 3.488917112350464 -0.799987316131592 0.000000000000000
-9.381713867187500 3.937450885772705 -0.909235775470734 0.000000000000000
-9.846858024597168 3.081690073013306 -0.687290608882904 0.000000000000000
-9.658282279968262 3.529726266860962 -0.801972270011902 0.000000000000000
-6.606117725372314 1.718756437301636 -0.105147309601307 0.000000000000000
-9.393415451049805 3.980086803436279 -0.911871135234833 0.000000000000000
-20.808483123779297 9.027089118957520 0.269896835088730 0.003921568859369
-9.854993820190430 3.120932579040527 -0.688717842102051 0.000000000000000
-9.623578071594238 3.553474187850952 -0.800065398216248 0.000000000000000
-10.661667823791504 2.838673830032349 -0.673968851566315 0.000000000000000
-9.847826004028320 3.155220031738281 -0.689034342765808 0.000000000000000
-9.651993751525879 3.601576566696167 -0.803672373294830 0.000000000000000
-10.574814796447754 2.852990627288818 -0.668924093246460 0.000000000000000
-9.836754798889160 3.188220739364624 -0.689073264598846 0.000000000000000
-9.620811462402344 3.626604557037354 -0.802089810371399 0.000000000000000
-10.526391029357910 2.877634286880493 -0.666421651840210 0.000000000000000
-20.780349731445312 9.266169548034668 -0.251032948493958 0.003921568859369
-9.841238975524902 3.224684715270996 -0.690221190452576 0.000000000000000
-9.734741210937500 3.707164525985718 -0.813156127929688 0.000000000000000
-10.501447677612305 2.906825065612793 -0.665442943572998 0.000000000000000
-9.818607330322266 3.253760576248169 -0.689426958560944 0.000000000000000
-9.962303161621094 3.836133718490601 -0.834281921386719 0.000000000000000
-10.426082611083984 2.923141956329346 -0.661159753799438 0.000000000000000
-14.310718536376953 4.806623458862305 1.818201780319214 0.000000000000000
-10.897888183593750 3.670124530792236 0.008462311699986 0.003921568859369
-8.078298568725586 2.684674024581909 -0.869821727275848 0.000000000000000
-9.810386657714844 3.289614439010620 -0.689745783805847 0.000000000000000
-9.767101287841797 3.797887086868286 -0.818428456783295 0.000000000000000
-10.388501167297363 2.952000379562378 -0.659421622753143 0.000000000000000
-6.656906127929688 1.874947667121887 -0.106868080794811 0.000000000000000
-9.802610397338867 3.323811531066895 -0.690062642097473 0.000000000000000
-9.753787040710449 3.830600738525391 -0.818468570709229 0.000000000000000
-10.347538948059082 2.977743864059448 -0.657426953315735 0.000000000000000
-9.810329437255859 3.361715316772461 -0.691488802433014 0.000000000000000
-9.663642883300781 3.829690933227539 -0.811693429946899 0.000000000000000
-10.318505287170410 3.004973649978638 -0.656193256378174 0.000000000000000
-9.377167701721191 3.750686645507812 -0.276089727878571 0.000000000000000
-9.797944068908691 3.396225690841675 -0.691530048847198 0.000000000000000
-9.649544715881348 3.863660335540771 -0.811735272407532 0.000000000000000
-10.288341522216797 3.035499811172485 -0.654963374137878 0.000000000000000
-14.074241638183594 5.713974475860596 2.712801933288574 0.000000000000000
-9.645555496215820 2.875057697296143 0.064367830753326 0.000000000000000
-9.802412986755371 3.435733795166016 -0.693630635738373 0.000000000000000
-9.589541435241699 3.877455949783325 -0.808587074279785 0.000000000000000
-10.267703056335449 3.067258119583130 -0.655165672302246 0.000000000000000
-9.782874107360840 3.465835332870483 -0.693113386631012 0.000000000000000
-9.616312026977539 3.926728487014771 -0.812196850776672 0.000000000000000
-10.249320030212402 3.099353790283203 -0.654695808887482 0.000000000000000
-9.793157577514648 3.506988286972046 -0.694819867610931 0.000000000000000
-10.211812019348145 3.125315189361572 -0.652953088283539 0.000000000000000
-5.571398735046387 1.954343795776367 -0.856422424316406 0.000000000000000
-9.777123451232910 3.538410663604736 -0.694580554962158 0.000000000000000
-10.200843811035156 3.159607172012329 -0.652992367744446 0.000000000000000
-7.341081619262695 3.018156766891479 0.315456479787827 0.000000000000000
-8.655576705932617 3.589605808258057 1.651149392127991 0.000000000000000
-14.879352569580078 6.345213413238525 -0.452549874782562 0.000000000000000
-9.783363342285156 3.578280448913574 -0.696009397506714 0.000000000000000
-10.193552017211914 3.195098400115967 -0.653286278247833 0.000000000000000
-9.781988143920898 3.615374803543091 -0.696882367134094 0.000000000000000
-12.563471794128418 4.015075683593750 0.382043033838272 0.000000000000000
-10.159588813781738 3.221837282180786 -0.651797950267792 0.000000000000000
-20.841751098632812 9.042661666870117 1.835364580154419 0.003921568859369
-11.204845428466797 4.206859588623047 0.007716851774603 0.003921568859369
-9.802786827087402 3.661171436309814 -0.699423730373383 0.000000000000000
-10.159645080566406 3.259735584259033 -0.652601182460785 0.000000000000000
-9.817244529724121 3.700946092605591 -0.701405346393585 0.000000000000000
-4.954732894897461 1.541522026062012 0.146747216582298 0.000000000000000
-10.145574569702148 3.289161443710327 -0.652381956577301 0.000000000000000
-4.408021926879883 1.595838189125061 -0.460612446069717 0.000000000000000
-9.822815895080566 3.741209983825684 -0.702834963798523 0.000000000000000
-10.149147987365723 3.328375101089478 -0.653439998626709 0.000000000000000
-9.824519157409668 3.780071020126343 -0.703986644744873 0.000000000000000
-10.133697509765625 3.361147165298462 -0.653224825859070 0.000000000000000
-20.462873458862305 9.206739425659180 4.036735534667969 0.003921568859369
-9.844561576843262 3.826469421386719 -0.706529080867767 0.000000000000000
-10.125676155090332 3.396480560302734 -0.653519034385681 0.000000000000000
-10.121290206909180 3.433126688003540 -0.654068112373352 0.000000000000000
-17.104450225830078 8.902807235717773 0.227003514766693 0.003921568859369
-10.113829612731934 3.471244573593140 -0.655279219150543 0.000000000000000
-10.120429992675781 3.511984825134277 -0.656592428684235 0.000000000000000
-17.045669555664062 9.020880699157715 -0.214431822299957 0.003921568859369
-10.111864089965820 3.547347784042358 -0.656886339187622 0.000000000000000
-5.009730815887451 1.707613229751587 -0.080261752009392 0.000000000000000
-8.809017181396484 3.107163429260254 0.268472880125046 0.000000000000000
-10.110662460327148 3.585449695587158 -0.657690107822418 0.000000000000000
-10.331115722656250 3.706990003585815 0.068975530564785 0.000000000000000
-10.139241218566895 3.634726524353027 -0.660533368587494 0.000000000000000
-10.126493453979492 3.668787956237793 -0.660572648048401 0.000000000000000
-10.671138763427734 4.460867881774902 0.660210251808167 0.000000000000000
-10.180793762207031 3.728333234786987 -0.665201008319855 0.000000000000000
-10.168377876281738 3.760829687118530 -0.665238678455353 0.000000000000000
-20.858860015869141 9.039942741394043 1.312412977218628 0.003921568859369
-10.162634849548340 3.797881841659546 -0.665788352489471 0.000000000000000
-17.030191421508789 9.541910171508789 -0.217720896005630 0.003921568859369
-3.549565315246582 1.286632418632507 -0.054583340883255 0.000000000000000
-12.770555496215820 6.487474918365479 0.575829327106476 0.000000000000000
-8.286352157592773 4.143701076507568 1.634678006172180 0.000000000000000
-6.512159347534180 3.026092529296875 0.846241772174835 0.000000000000000
-5.184941768646240 2.968168020248413 0.103299163281918 0.000000000000000
-10.225250244140625 5.516753196716309 3.032892942428589 0.000000000000000
-17.058017730712891 8.878099441528320 0.114467181265354 0.000000000000000
-6.988604545593262 4.017180442810059 0.455765664577484 0.000000000000000
-9.327498435974121 6.190558433532715 1.990699291229248 0.000000000000000
-10.847325325012207 7.352378368377686 2.339393615722656 0.000000000000000
-9.754625320434570 7.347043991088867 -0.136842489242554 0.000000000000000
-6.362263202667236 4.366177082061768 0.609938263893127 0.000000000000000
-5.987928867340088 4.095308780670166 1.274012446403503 0.000000000000000
-5.765757083892822 3.625481605529785 1.750196218490601 0.000000000000000
-10.083262443542480 6.320092678070068 0.070278316736221 0.000000000000000
-10.244771003723145 7.955063343048096 0.223133251070976 0.000000000000000
-14.221530914306641 10.076721191406250 2.107027530670166 0.003921568859369
-3.555490970611572 2.368651866912842 0.003683985210955 0.000000000000000
-3.305079221725464 2.416509389877319 0.315657347440720 0.000000000000000
-4.272296905517578 3.224996328353882 -0.026333045214415 0.000000000000000
-6.880471706390381 6.053960800170898 0.105302587151527 0.000000000000000
-17.073526382446289 14.141252517700195 3.993025541305542 0.003921568859369
-13.314881324768066 11.276337623596191 3.133920907974243 0.003921568859369
-21.560750961303711 16.815114974975586 7.252615451812744 0.003921568859369
-5.064948558807373 4.166811466217041 0.112522102892399 0.000000000000000
-5.888182163238525 4.924874782562256 0.304511100053787 0.000000000000000
-11.397179603576660 9.881334304809570 2.703963041305542 0.000000000000000
-2.733274459838867 2.209540605545044 0.136274039745331 0.000000000000000
-7.962092399597168 7.013262271881104 1.890613913536072 0.000000000000000
-3.683070182800293 2.636364936828613 0.127336144447327 0.000000000000000
-4.169762611389160 3.359411954879761 0.121447481215000 0.000000000000000
-7.882914066314697 6.651249408721924 1.236823678016663 0.000000000000000
-9.077922821044922 8.561957359313965 0.498410791158676 0.000000000000000
-7.826246738433838 6.653957843780518 1.232136964797974 0.000000000000000
-9.337976455688477 7.342291831970215 0.338987201452255 0.000000000000000
-17.989696502685547 17.768299102783203 4.562356472015381 0.003921568859369
-10.038892745971680 9.373291015625000 0.785252094268799 0.000000000000000
-18.008186340332031 17.179594039916992 6.601265430450439 0.003921568859369
-18.055620193481445 17.352415084838867 6.642543315887451 0.003921568859369
-4.776012897491455 4.425381660461426 1.684983015060425 0.000000000000000
-8.724081039428711 9.258778572082520 2.278666973114014 0.000000000000000
-6.975480079650879 6.837638854980469 1.172029614448547 0.000000000000000
-5.068822383880615 4.914707183837891 0.840720951557159 0.000000000000000
-8.412957191467285 8.430098533630371 1.434280872344971 0.000000000000000
-7.642241954803467 7.906536579132080 1.323271751403809 0.000000000000000
-9.814710617065430 11.386842727661133 2.701069593429565 0.000000000000000
-8.431789398193359 8.105859756469727 0.333249419927597 0.000000000000000
-5.723877429962158 5.441949367523193 0.224300682544708 0.000000000000000
-5.795450687408447 6.123779773712158 0.191658914089203 0.000000000000000
-8.748829841613770 8.540596961975098 0.348438292741776 0.000000000000000
-4.420224189758301 4.623156070709229 1.658751726150513 0.000000000000000
-5.913887977600098 6.487801551818848 0.199601531028748 0.000000000000000
-6.038975715637207 7.488928794860840 1.719017148017883 0.000000000000000
-5.624955177307129 6.371698856353760 1.019354581832886 0.000000000000000
-7.300381183624268 8.378476142883301 2.923423767089844 0.000000000000000
-3.837815999984741 4.933711051940918 -0.175980910658836 0.000000000000000
-9.333610534667969 12.691756248474121 2.836198806762695 0.000000000000000
-7.129679679870605 10.263372421264648 2.245759963989258 0.000000000000000
-2.897805690765381 3.581881284713745 0.545613765716553 0.000000000000000
-3.841745376586914 4.912610054016113 0.141797333955765 0.000000000000000
-3.885812997817993 4.973735809326172 0.358129054307938 0.000000000000000
-7.183454513549805 10.999724388122559 0.525507807731628 0.000000000000000
-7.205408096313477 9.993868827819824 1.489578008651733 0.000000000000000
-4.355084419250488 5.467133522033691 0.198729544878006 0.000000000000000
-8.568696975708008 11.202953338623047 0.402209848165512 0.000000000000000
-5.242238044738770 9.372005462646484 -0.125884100794792 0.000000000000000
-4.120963096618652 5.267170906066895 0.190116539597511 0.000000000000000
-3.679151058197021 6.529140949249268 0.085120350122452 0.000000000000000
-4.203807830810547 6.823974609375000 0.641754269599915 0.000000000000000
-4.082341670989990 7.491015911102295 -0.098999202251434 0.000000000000000
-4.538456916809082 7.726166725158691 -0.052626352757215 0.000000000000000
-6.573046684265137 11.601107597351074 2.402526378631592 0.000000000000000
-3.624416589736938 6.221095561981201 0.576341748237610 0.000000000000000
-3.948250532150269 7.913115501403809 0.100001975893974 0.000000000000000
-3.015497207641602 5.220250129699707 0.240449547767639 0.000000000000000
-6.525074958801270 10.700851440429688 1.518177509307861 0.000000000000000
-4.784637451171875 8.812366485595703 0.170681148767471 0.000000000000000
-4.559446334838867 8.997015953063965 0.811386704444885 0.000000000000000
-8.452194213867188 17.304244995117188 0.326421946287155 0.003921568859369
-3.690957069396973 7.237939357757568 0.652405858039856 0.000000000000000
-4.259666919708252 8.590474128723145 -0.057055559009314 0.000000000000000
-5.342279434204102 10.094022750854492 1.384426474571228 0.000000000000000
-2.807069540023804 5.103583812713623 0.132947444915771 0.000000000000000
-5.090847969055176 9.847056388854980 2.935325622558594 0.000000000000000
-3.555679321289062 7.719696521759033 0.683615446090698 0.000000000000000
-3.465727806091309 7.656024932861328 0.143416538834572 0.000000000000000
-7.127985000610352 14.505558013916016 -0.005797976627946 0.003921568859369
-3.128240823745728 8.171791076660156 -0.102637961506844 0.000000000000000
-7.085804462432861 14.829613685607910 0.373815596103668 0.000000000000000
-4.574223518371582 8.281147956848145 0.269944339990616 0.000000000000000
-7.064988136291504 16.917333602905273 3.316600799560547 0.003921568859369
-5.194011211395264 12.394294738769531 2.427765130996704 0.000000000000000
-5.141343116760254 10.807608604431152 0.687273025512695 0.000000000000000
-3.432900428771973 8.056076049804688 0.705182313919067 0.000000000000000
-1.491884708404541 2.763378381729126 0.177954494953156 0.000000000000000
-4.170285701751709 8.827247619628906 -0.002170040737838 0.003921568859369
-4.890057086944580 12.246992111206055 0.224154055118561 0.000000000000000
-2.643922090530396 7.655974388122559 -0.094869084656239 0.000000000000000
-4.614471435546875 10.305900573730469 0.648497521877289 0.000000000000000
-3.349039793014526 8.442019462585449 0.731930077075958 0.000000000000000
-3.625718832015991 9.499283790588379 1.834791302680969 0.000000000000000
-2.790049076080322 7.329370021820068 1.412869095802307 0.000000000000000
-4.259665966033936 10.066174507141113 1.327361226081848 0.000000000000000
-4.067747592926025 11.265036582946777 0.203856468200684 0.000000000000000
-3.481876611709595 8.281143188476562 -0.208707332611084 0.000000000000000
-3.765354156494141 9.393161773681641 1.228810548782349 0.000000000000000
-2.058054447174072 4.882663726806641 0.121426254510880 0.000000000000000
-2.919455528259277 6.376932144165039 0.200543209910393 0.000000000000000
-2.129439830780029 5.188987731933594 0.321469426155090 0.000000000000000
-3.643145322799683 11.015588760375977 0.937277257442474 0.000000000000000
-4.312242507934570 11.344383239746094 -0.003743086010218 0.000000000000000
-5.489489078521729 12.645296096801758 0.393912136554718 0.000000000000000
-4.093183040618896 9.466934204101562 0.056832175701857 0.000000000000000
-5.424335002899170 14.767565727233887 0.905530154705048 0.000000000000000
-2.066589117050171 6.146383762359619 0.522778153419495 0.000000000000000
-3.568752765655518 11.205695152282715 2.127213001251221 0.000000000000000
-4.545154571533203 12.534389495849609 -0.004485115408897 0.000000000000000
-6.292422771453857 15.322419166564941 0.473243653774261 0.003921568859369
-3.346384048461914 9.254945755004883 2.612642288208008 0.000000000000000
-4.913379669189453 16.801149368286133 0.703256666660309 0.003921568859369
-3.735335588455200 12.565202713012695 1.060031294822693 0.000000000000000
-1.341883420944214 4.183531761169434 0.789155840873718 0.000000000000000
-1.456046104431152 3.328638076782227 -0.143283128738403 0.000000000000000
-3.812121152877808 17.821695327758789 -0.642435669898987 0.003921568859369
-1.005377292633057 3.057401418685913 0.575997829437256 0.000000000000000
-3.250019550323486 10.019390106201172 0.606387495994568 0.000000000000000
-2.890094280242920 10.691444396972656 2.004881381988525 0.000000000000000
-2.545677423477173 6.580726146697998 -0.284955710172653 0.000000000000000
-2.661994218826294 6.990007400512695 -0.130214542150497 0.000000000000000
-4.287217140197754 11.803264617919922 0.359191447496414 0.000000000000000
-4.991415023803711 14.013327598571777 0.425345003604889 0.000000000000000
-5.243217945098877 22.137485504150391 4.127389907836914 0.003921568859369
-2.504134178161621 6.923224449157715 0.210981607437134 0.000000000000000
-1.707913637161255 8.987880706787109 -0.532730221748352 0.000000000000000
-2.914958715438843 14.127887725830078 2.616340398788452 0.000000000000000
-0.838937461376190 2.695699691772461 0.162395030260086 0.000000000000000
-0.823686003684998 2.701698780059814 0.162573188543320 0.000000000000000
-2.300883293151855 18.057834625244141 -0.642205059528351 0.003921568859369
-1.719858050346375 9.083065032958984 1.675902009010315 0.000000000000000
-1.436703324317932 7.530250072479248 1.389091372489929 0.000000000000000
-3.101925373077393 11.236549377441406 0.334043979644775 0.000000000000000
-2.357525587081909 8.455407142639160 0.251871138811111 0.000000000000000
-0.599988520145416 1.951672792434692 -0.044401589781046 0.003921568859369
-3.330261945724487 12.871196746826172 -0.543919682502747 0.000000000000000
-1.675964355468750 16.696350097656250 0.188440263271332 0.003921568859369
-2.435492515563965 11.855607986450195 0.698443293571472 0.000000000000000
-2.443112611770630 18.205930709838867 0.739894151687622 0.003921568859369
-1.035055994987488 6.902163028717041 1.266073584556580 0.000000000000000
-3.487984180450439 29.281261444091797 -0.871006727218628 0.003921568859369
-3.379721641540527 29.236862182617188 -0.869350492954254 0.003921568859369
-3.217271327972412 28.671134948730469 -0.852158546447754 0.003921568859369
-3.108711004257202 28.597904205322266 -0.849671661853790 0.003921568859369
-3.090478897094727 29.443489074707031 -0.874579310417175 0.003921568859369
-0.567191720008850 4.123154163360596 -0.119881242513657 0.000000000000000
-2.294635295867920 16.115039825439453 0.940285921096802 0.000000000000000
-1.866732239723206 13.152404785156250 -0.004369594156742 0.000000000000000
-2.069811820983887 14.762907981872559 0.861257553100586 0.000000000000000
-2.371064186096191 29.540489196777344 -0.875243365764618 0.003921568859369
-2.280996799468994 29.735324859619141 -0.880814015865326 0.003921568859369
-2.177195310592651 29.742378234863281 -0.880813777446747 0.003921568859369
-1.114199519157410 7.846194267272949 -0.185255691409111 0.000000000000000
-2.044332265853882 29.286184310913086 -0.867064356803894 0.003921568859369
-3.487054824829102 29.289260864257812 -0.698938190937042 0.003921568859369
-1.935956716537476 29.188640594482422 -0.863982081413269 0.003921568859369
-3.355923891067505 29.034162521362305 -0.692560911178589 0.003921568859369
-3.232858180999756 28.838167190551758 -0.687611579895020 0.003921568859369
-3.128135919570923 28.808765411376953 -0.686661064624786 0.003921568859369
-3.026409387588501 28.806838989257812 -0.686376929283142 0.003921568859369
-2.919973850250244 28.828472137451172 -0.686264038085938 0.003921568859369
-2.822949409484863 28.877609252929688 -0.687214732170105 0.003921568859369
0.114455968141556 29.532688140869141 -0.356497883796692 0.003921568859369
-2.718648433685303 28.846746444702148 -0.686262249946594 0.003921568859369
-2.621603250503540 28.899192810058594 -0.687307715415955 0.003921568859369
-2.522330999374390 28.927396774291992 -0.687782108783722 0.003921568859369
-2.424087524414062 28.971206665039062 -0.688636898994446 0.003921568859369
-0.817210316658020 5.024902343750000 0.147364348173141 0.000000000000000
-2.327039957046509 29.034620285034180 -0.689967155456543 0.003921568859369
-1.415267467498779 10.184289932250977 0.295797079801559 0.000000000000000
-2.234641075134277 29.097358703613281 -0.691297411918640 0.003921568859369
0.738665342330933 29.867559432983398 -0.360688358545303 0.003921568859369
-2.139144182205200 29.196052551269531 -0.693483650684357 0.003921568859369
-2.044753074645996 29.322366714477539 -0.696335792541504 0.003921568859369
0.013371542096138 29.563226699829102 -0.184049412608147 0.003921568859369
-0.640547454357147 5.313014507293701 -0.093145541846752 0.000000000000000
-0.416212260723114 6.352685451507568 -0.000595259945840 0.000000000000000
-0.365134894847870 6.986424922943115 0.857050478458405 0.000000000000000
0.252010285854340 11.438436508178711 0.931418180465698 0.000000000000000
-0.473767101764679 6.827755928039551 0.198056772351265 0.000000000000000
-0.110928669571877 10.982322692871094 2.939471960067749 0.000000000000000
0.040273159742355 2.965970516204834 0.243900403380394 0.000000000000000
0.076083660125732 5.705217838287354 0.132686167955399 0.000000000000000
0.016495048999786 29.491426467895508 0.160138234496117 0.003921568859369
0.231253027915955 6.238877296447754 -0.000424589030445 0.000000000000000
-0.007770583033562 3.712687730789185 0.022304318845272 0.000000000000000
-0.040164574980736 1.840204596519470 -0.116707153618336 0.003921568859369
1.089261293411255 7.455120086669922 1.377512574195862 0.000000000000000
0.730480253696442 12.277675628662109 -0.217747420072556 0.000000000000000
1.053966522216797 9.189152717590332 0.214190438389778 0.000000000000000
2.718722343444824 12.704214096069336 2.372264385223389 0.000000000000000
1.810997009277344 7.793810367584229 0.326825916767120 0.000000000000000
0.757514834403992 4.381058216094971 1.199376106262207 0.000000000000000
2.608975172042847 11.096718788146973 3.061771392822266 0.000000000000000
5.941833972930908 19.487586975097656 3.718167781829834 0.003921568859369
3.882825136184692 12.742484092712402 2.434567451477051 0.000000000000000
2.637253284454346 8.699327468872070 1.664547801017761 0.000000000000000
2.857568979263306 8.452757835388184 1.634666800498962 0.000000000000000
3.077307939529419 8.967669486999512 1.736412048339844 0.000000000000000
4.514128684997559 11.661488533020020 2.287704706192017 0.000000000000000
4.365601539611816 10.740153312683105 2.122243165969849 0.000000000000000
4.635065555572510 9.369227409362793 1.915745615959167 0.000000000000000
4.286138534545898 9.138468742370605 2.717820167541504 0.000000000000000
6.272353172302246 11.855558395385742 1.653137803077698 0.000000000000000
3.723284959793091 5.412722110748291 -0.617913603782654 0.000000000000000
1.781429171562195 2.520347118377686 -0.199835807085037 0.003921568859369
4.561478614807129 2.336816787719727 0.938139677047729 0.000000000000000
2.243010997772217 1.032440423965454 0.057714320719242 0.000000000000000
6.944911956787109 2.787594318389893 -0.392353355884552 0.000000000000000
5.540729999542236 2.157386779785156 0.486061334609985 0.000000000000000
7.729973793029785 2.944061279296875 1.508133292198181 0.000000000000000
8.719713211059570 3.218600034713745 1.694677114486694 0.000000000000000
9.706933021545410 3.319640398025513 1.870458483695984 0.000000000000000
7.951687335968018 1.992584228515625 -0.286233156919479 0.000000000000000
9.708393096923828 2.869910001754761 1.844416856765747 0.000000000000000
8.372965812683105 2.377851009368896 0.709102988243103 0.000000000000000
1.185438752174377 0.391609728336334 -0.028967848047614 0.003921568859369
11.621067047119141 4.478703022003174 -0.507324576377869 0.000000000000000
4.752721309661865 1.529674768447876 -0.000299263978377 0.000000000000000
10.686377525329590 2.248871564865112 -0.127459496259689 0.000000000000000
8.046634674072266 2.501818418502808 0.195402562618256 0.000000000000000
9.246998786926270 2.838590860366821 -0.000410013628425 0.003921568859369
7.387172698974609 2.069064855575562 -0.000557623687200 0.000000000000000
9.129052162170410 2.020591020584106 1.700484871864319 0.000000000000000
13.888999938964844 4.319141387939453 -0.254329025745392 0.000000000000000
8.843534469604492 2.281531572341919 -0.212688654661179 0.000000000000000
10.377131462097168 3.148042678833008 -0.189712077379227 0.000000000000000
10.079947471618652 1.902515649795532 1.864497780799866 0.000000000000000
15.812036514282227 3.678355455398560 -0.001213882584125 0.003921568859369
