# This PCD file was generated using the MATLAB® pcwrite function
# from Computer Vision Toolbox®.
# .PCD v.7 - Point Cloud Data file format
VERSION .7
FIELDS x y z intensity
SIZE 8 8 8 8
TYPE F F F F
COUNT 1 1 1 1
WIDTH 641
HEIGHT 1
VIEWPOINT 0 0 0 1 0 0 0
POINTS 641
DATA ascii
-9.140213012695312 0.286234259605408 -0.836159646511078 0.000000000000000
-9.294569015502930 0.291409343481064 0.108124628663063 0.000000000000000
-13.780880928039551 -0.897881090641022 -0.951977431774139 0.000000000000000
-9.353095054626465 -0.155702114105225 0.162291005253792 0.000000000000000
-9.942270278930664 0.311866343021393 -0.567735970020294 0.000000000000000
-14.130270004272461 -0.920850098133087 -0.649799704551697 0.003921568859369
-9.182127952575684 -0.152965769171715 -0.470546603202820 0.000000000000000
-14.350069046020508 -1.634235978126526 -0.579429566860199 0.000000000000000
-9.226160049438477 -0.565359890460968 0.002053474541754 0.003921568859369
-10.272812843322754 0.357835590839386 -0.115942783653736 0.000000000000000
-15.408740997314453 -1.702184438705444 0.091315455734730 0.000000000000000
-9.418815612792969 -0.124578841030598 -0.051843926310539 0.000000000000000
-9.127219200134277 0.317130297422409 -0.835052371025085 0.000000000000000
-9.333470344543457 0.324679672718048 0.108580105006695 0.000000000000000
-9.337588310241699 -0.123422116041183 0.162003412842751 0.000000000000000
-9.458205223083496 -0.125229611992836 -0.485006868839264 0.000000000000000
-14.264504432678223 -0.880207836627960 -0.326668351888657 0.000000000000000
-15.484086990356445 -1.656594038009644 -0.266737341880798 0.000000000000000
-9.311934471130371 -0.538683712482452 0.002043729182333 0.003921568859369
-15.498102188110352 -1.658011555671692 0.091789044439793 0.000000000000000
-9.134017944335938 0.348709821701050 -0.835804700851440 0.000000000000000
-9.328286170959473 0.356514573097229 0.108525015413761 0.000000000000000
-9.146242141723633 -0.529085218906403 -0.626878440380096 0.003921568859369
-9.337965965270996 -0.091414809226990 0.161994695663452 0.000000000000000
-10.051583290100098 0.384434640407562 -0.574270427227020 0.003921568859369
-9.530483245849609 -0.093523517251015 -0.488785773515701 0.000000000000000
-14.257822990417480 -1.524010419845581 -0.575223386287689 0.000000000000000
-9.251413345336914 0.353412479162216 -0.315643221139908 0.003921568859369
-16.934135437011719 -0.988265514373779 -0.388875335454941 0.000000000000000
-9.392746925354004 -0.059827592223883 -0.051793530583382 0.000000000000000
-9.122072219848633 0.379685938358307 -0.835137307643890 0.000000000000000
-9.320274353027344 0.388326793909073 0.108402423560619 0.000000000000000
-9.129384040832520 -0.496842205524445 -0.625847876071930 0.000000000000000
-9.351511001586914 -0.059501927345991 0.162192568182945 0.000000000000000
-14.200270652770996 -0.778103888034821 -0.652889549732208 0.000000000000000
-9.516054153442383 -0.060748118907213 -0.488238245248795 0.000000000000000
-10.404135704040527 -0.065937899053097 1.868684291839600 0.000000000000000
-10.169907569885254 0.459249645471573 -0.114915154874325 0.000000000000000
-9.392902374267578 -0.027614235877991 -0.051801964640617 0.000000000000000
-9.132630348205566 0.411498785018921 -0.836261212825775 0.000000000000000
-9.338842391967773 0.421200484037399 0.108626134693623 0.000000000000000
-9.107155799865723 -0.464302718639374 -0.624181747436523 0.000000000000000
-9.347664833068848 -0.027420382946730 0.162114456295967 0.000000000000000
-14.206892967224121 -0.729310810565948 -0.653088569641113 0.000000000000000
-15.647760391235352 -0.046875245869160 -0.809750854969025 0.000000000000000
-14.181906700134277 -1.417130470275879 -0.571908533573151 0.003921568859369
-16.038961410522461 -1.551696538925171 -0.276351809501648 0.000000000000000
-16.862016677856445 0.004875197540969 -0.484308868646622 0.003921568859369
-10.583801269531250 0.512852489948273 -0.119783081114292 0.000000000000000
-9.348943710327148 0.002972809365019 -0.051553048193455 0.000000000000000
-9.123259544372559 0.440841108560562 -0.835525095462799 0.000000000000000
-9.309432983398438 0.450242191553116 0.108293391764164 0.000000000000000
-9.172414779663086 -0.437751770019531 -0.628654778003693 0.000000000000000
-9.139226913452148 0.002738844603300 -0.730776488780975 0.000000000000000
-9.355705261230469 0.003030559048057 0.162245884537697 0.000000000000000
-14.241163253784180 -0.684298694133759 -0.654590308666229 0.000000000000000
-9.121666908264160 0.472110718488693 -0.835533201694489 0.000000000000000
-9.375708580017090 0.485738664865494 0.109073892235756 0.000000000000000
-9.580481529235840 -0.424666583538055 -0.657130002975464 0.000000000000000
-9.230860710144043 0.034409571439028 -0.738272726535797 0.000000000000000
-9.355641365051270 0.035114165395498 0.162237495183945 0.000000000000000
-20.554182052612305 -0.920103192329407 -0.948962569236755 0.003921568859369
-9.104758262634277 0.034006554633379 -0.466689467430115 0.000000000000000
-13.205657958984375 0.049823671579361 1.066279530525208 0.000000000000000
-10.328795433044434 0.535824060440063 -0.353758871555328 0.003921568859369
-20.242286682128906 -1.821181178092957 0.119173750281334 0.003921568859369
-9.123942375183105 0.503593444824219 -0.835913240909576 0.000000000000000
-9.334023475646973 0.515641093254089 0.108601562678814 0.000000000000000
-9.872944831848145 -0.403925269842148 -0.677512228488922 0.000000000000000
-9.359464645385742 0.067221991717815 0.162298813462257 0.000000000000000
-9.136540412902832 0.065440960228443 -0.468373298645020 0.000000000000000
-9.130083084106445 0.535337328910828 -0.836665272712708 0.000000000000000
-9.340156555175781 0.548120379447937 0.108686029911041 0.000000000000000
-9.778598785400391 -0.366383403539658 -0.670822799205780 0.000000000000000
-9.274252891540527 0.098167717456818 -0.741870641708374 0.000000000000000
-9.449914932250977 -0.809210538864136 0.273273438215256 0.003921568859369
-9.347177505493164 0.099187225103378 0.162081345915794 0.000000000000000
-17.461730957031250 -0.659509837627411 -0.804514348506927 0.003921568859369
-9.295621871948242 -0.315868347883224 0.001908437116072 0.003921568859369
-9.144059181213379 0.567632257938385 -0.838161230087280 0.000000000000000
-9.358148574829102 0.581405401229858 0.108909651637077 0.000000000000000
-9.153727531433105 -0.311116546392441 -0.627013325691223 0.000000000000000
-9.249937057495117 0.129624411463737 -0.739925444126129 0.000000000000000
-9.366773605346680 0.131522953510284 0.162421405315399 0.000000000000000
-9.606231689453125 0.596909284591675 -0.549264192581177 0.000000000000000
-11.619499206542969 -0.958357453346252 -0.466283082962036 0.003921568859369
-8.721994400024414 -0.295388609170914 2.296090602874756 0.000000000000000
-17.418064117431641 -0.597433149814606 -0.399946004152298 0.000000000000000
-9.432603836059570 -0.288232266902924 0.001897493610159 0.003921568859369
-9.134077072143555 0.598439514636993 -0.837425529956818 0.000000000000000
-9.419918060302734 0.617748081684113 0.109643496572971 0.000000000000000
-9.577521324157715 -0.292920410633087 -0.656606316566467 0.000000000000000
-9.257402420043945 0.161474898457527 -0.740584909915924 0.000000000000000
-9.362260818481445 0.163569137454033 0.162343338131905 0.000000000000000
-9.624011993408203 0.631187558174133 -0.550436437129974 0.000000000000000
-11.646678924560547 -0.920287728309631 -0.467270761728287 0.003921568859369
-10.694264411926270 0.223825246095657 -0.304768562316895 0.003921568859369
-9.417562484741211 -0.255435943603516 0.001889320672490 0.003921568859369
-10.722545623779297 0.224489212036133 -0.059645429253578 0.003921568859369
-9.127961158752441 0.629467129707336 -0.837061643600464 0.000000000000000
-9.357858657836914 0.645850896835327 0.108939364552498 0.000000000000000
-9.243433952331543 -0.250785529613495 -0.633170068264008 0.000000000000000
-9.276713371276855 0.193636849522591 -0.742221057415009 0.000000000000000
-9.361636161804199 0.195674672722816 0.162334948778152 0.000000000000000
-9.386408805847168 -0.222363784909248 0.001881512347609 0.003921568859369
-9.161458015441895 0.663383722305298 -0.840417444705963 0.000000000000000
-9.359539985656738 0.678229868412018 0.108977407217026 0.000000000000000
-9.228300094604492 -0.218708455562592 -0.632061958312988 0.000000000000000
-9.260041236877441 0.225047886371613 -0.740927040576935 0.000000000000000
-9.352902412414551 0.227577999234200 0.162187218666077 0.000000000000000
-20.584964752197266 -0.493291944265366 -0.949819624423981 0.003921568859369
-9.403127670288086 -0.190506786108017 0.001872724387795 0.003921568859369
-10.609300613403320 0.806946933269501 -0.120372936129570 0.003921568859369
-20.702991485595703 -1.430058360099792 0.121546432375908 0.003921568859369
-9.155117034912109 0.694474458694458 -0.840053617954254 0.000000000000000
-9.357118606567383 0.710318386554718 0.108969077467918 0.000000000000000
-9.240976333618164 -0.187320187687874 -0.632907629013062 0.000000000000000
-9.263186454772949 0.256904214620590 -0.741260886192322 0.000000000000000
-9.352054595947266 0.259646028280258 0.162178844213486 0.000000000000000
-20.574577331542969 -0.421766519546509 -0.949279606342316 0.003921568859369
-14.267188072204590 -0.981941401958466 -0.573978662490845 0.000000000000000
-9.427761077880859 -0.157052323222160 0.001863303827122 0.003921568859369
-10.981021881103516 0.875541687011719 -0.124777987599373 0.000000000000000
-10.723560333251953 0.337002515792847 -0.059698138386011 0.000000000000000
-9.172361373901367 0.729027628898621 -0.841921985149384 0.000000000000000
-9.370400428771973 0.745296597480774 0.109145827591419 0.000000000000000
-9.153831481933594 -0.152557000517845 -0.626775741577148 0.000000000000000
-9.278123855590820 0.290758699178696 -0.742572069168091 0.000000000000000
-9.343047142028809 0.293063640594482 0.162030726671219 0.000000000000000
-13.839236259460449 -0.901858448982239 -0.876326382160187 0.000000000000000
-9.873156547546387 -0.164747864007950 -0.450429290533066 0.000000000000000
-10.094412803649902 0.316831946372986 -0.518916904926300 0.000000000000000
-14.254742622375488 -0.929191648960114 -0.573340833187103 0.000000000000000
-9.730316162109375 -0.161527484655380 2.565199851989746 0.000000000000000
-19.904888153076172 -0.335408389568329 -0.457774549722672 0.000000000000000
-9.473515510559082 -0.126985624432564 0.001781529048458 0.003921568859369
-11.118828773498535 0.923502862453461 -0.126529127359390 0.000000000000000
-10.723670959472656 0.372164994478226 -0.059795673936605 0.000000000000000
-9.159245491027832 0.758239686489105 -0.841249704360962 0.000000000000000
-9.321324348449707 0.772130548954010 0.108564488589764 0.000000000000000
-9.115668296813965 -0.122243143618107 -0.624344766139984 0.000000000000000
-9.262445449829102 0.320571154356003 -0.741671442985535 0.000000000000000
-9.347306251525879 0.323783636093140 0.162094056606293 0.000000000000000
-9.696088790893555 -0.596863567829132 -0.610307753086090 0.000000000000000
-9.435453414916992 -0.126573055982590 -0.430212557315826 0.000000000000000
-9.312147140502930 0.322386175394058 -0.478143274784088 0.000000000000000
-14.255038261413574 -0.882439732551575 -0.573424935340881 0.000000000000000
-10.603008270263672 0.879988312721252 -0.364386111497879 0.000000000000000
-15.472434043884277 0.539996922016144 2.794594287872314 0.000000000000000
-19.359378814697266 -0.262462347745895 -0.445179522037506 0.000000000000000
-9.477903366088867 -0.094523496925831 0.001773268333636 0.003921568859369
-9.832559585571289 0.849149942398071 -0.111484237015247 0.000000000000000
-10.726305961608887 0.409183382987976 -0.059828281402588 0.000000000000000
-9.140674591064453 0.788247823715210 -0.839769601821899 0.000000000000000
-9.374357223510742 0.808992266654968 0.109205789864063 0.000000000000000
-9.199832916259766 -0.091845571994781 -0.630214035511017 0.000000000000000
-9.261272430419922 0.352334648370743 -0.741679370403290 0.000000000000000
-9.338129043579102 0.355533987283707 0.161946699023247 0.000000000000000
-9.116328239440918 -0.529164910316467 -0.572958886623383 0.000000000000000
-10.505028724670410 0.908044517040253 -0.603150248527527 0.000000000000000
-16.819438934326172 -0.169613450765610 -0.774346351623535 0.000000000000000
-14.270003318786621 -0.833949327468872 -0.573925971984863 0.000000000000000
-9.516701698303223 0.821376383304596 -0.326373338699341 0.000000000000000
-17.848672866821289 -0.180021628737450 -0.409988224506378 0.000000000000000
-9.434179306030273 -0.061710182577372 0.001766134984791 0.003921568859369
-9.399353981018066 0.843634307384491 -0.106442965567112 0.000000000000000
-9.228215217590332 -0.503873169422150 0.054654531180859 0.000000000000000
-10.728811264038086 0.446224719285965 -0.059860888868570 0.000000000000000
-9.157700538635254 0.821393191814423 -0.841637253761292 0.000000000000000
-9.236011505126953 -0.060539763420820 -0.632734060287476 0.000000000000000
-9.248038291931152 0.383589953184128 -0.740710496902466 0.000000000000000
-9.352818489074707 0.388235718011856 0.162217363715172 0.000000000000000
-9.090222358703613 -0.496353626251221 -0.571175634860992 0.000000000000000
-10.426238059997559 0.937246024608612 -0.598737001419067 0.000000000000000
-16.300502777099609 -0.107976183295250 -0.750152528285980 0.000000000000000
-14.292781829833984 -0.785809338092804 -0.574752748012543 0.000000000000000
-9.434334754943848 -0.030963124707341 0.001758411759511 0.003921568859369
-9.285014152526855 0.863711178302765 -0.105141319334507 0.000000000000000
-10.747254371643066 0.482171386480331 -0.059986621141434 0.000000000000000
-9.182683944702148 0.853844285011292 -0.844248473644257 0.000000000000000
-9.188279151916504 -0.030286440625787 -0.629392087459564 0.000000000000000
-9.355476379394531 0.418892294168472 0.162279412150383 0.000000000000000
-9.111752510070801 -0.467787772417068 -0.572462499141693 0.000000000000000
-9.301993370056152 0.865211308002472 -0.533109664916992 0.000000000000000
-16.264814376831055 -0.054336525499821 -0.748489975929260 0.000000000000000
-14.307283401489258 -0.739572882652283 -0.575253248214722 0.000000000000000
-10.269880294799805 0.497516423463821 -0.292907923460007 0.003921568859369
-9.406388282775879 0.003010854590684 0.001750588417053 0.003921568859369
-10.729437828063965 0.520175337791443 -0.059902723878622 0.000000000000000
-9.195347785949707 0.888456106185913 -0.845744550228119 0.000000000000000
-9.248186111450195 0.002808536868542 -0.633587360382080 0.000000000000000
-9.193376541137695 0.444463729858398 -0.736493408679962 0.000000000000000
-9.341898918151855 0.451992392539978 0.162062004208565 0.000000000000000
-9.145304679870605 -0.436537295579910 -0.574517846107483 0.000000000000000
-9.139800071716309 0.883074402809143 -0.523807823657990 0.000000000000000
-9.256107330322266 0.032967012375593 -0.634153187274933 0.000000000000000
-9.211760520935059 0.475454270839691 -0.738128960132599 0.000000000000000
-9.348339080810547 0.482850104570389 0.162193715572357 0.000000000000000
-9.904368400573730 -0.441090703010559 -0.623143672943115 0.000000000000000
-10.547050476074219 0.037635575979948 -0.482024490833282 0.000000000000000
-10.063131332397461 0.520209789276123 -0.517987310886383 0.000000000000000
-17.478223800659180 -0.784308135509491 -0.704445660114288 0.003921568859369
-17.562889099121094 -0.727086007595062 0.102948129177094 0.003921568859369
-9.128253936767578 0.063808649778366 -0.625228881835938 0.000000000000000
-9.221987724304199 0.507708430290222 -0.739113688468933 0.000000000000000
-9.354586601257324 0.515359640121460 0.162325009703636 0.000000000000000
-9.873944282531738 -0.405747115612030 -0.621105074882507 0.000000000000000
-9.511980056762695 0.524229645729065 0.383125752210617 0.003921568859369
-7.306454658508301 0.050988476723433 -0.330999016761780 0.000000000000000
-17.549333572387695 -0.665729403495789 0.102840088307858 0.000000000000000
-9.216181755065918 0.539092779159546 -0.738795995712280 0.000000000000000
-9.360716819763184 0.547918617725372 0.162456303834915 0.000000000000000
-9.699791908264160 -0.365116268396378 -0.609854340553284 0.000000000000000
-9.490145683288574 0.555675387382507 0.382304221391678 0.003921568859369
-4.504731178283691 0.258854120969772 -0.226165279746056 0.000000000000000
-9.182171821594238 0.096113048493862 1.109281539916992 0.000000000000000
-8.957620620727539 0.524292111396790 1.608058571815491 0.000000000000000
-10.698942184448242 0.111803881824017 -0.243502900004387 0.003921568859369
-17.433277130126953 -0.601011633872986 -0.299947917461395 0.003921568859369
-17.535562515258789 -0.604472100734711 0.102732054889202 0.000000000000000
-10.292629241943359 0.142762914299965 -0.706753611564636 0.000000000000000
-9.218224525451660 0.570946276187897 -0.739129483699799 0.000000000000000
-9.362742424011230 0.580277442932129 0.162517935037613 0.000000000000000
-9.234252929687500 -0.315557748079300 -0.579922914505005 0.000000000000000
-9.512084007263184 0.589742779731750 0.383272111415863 0.003921568859369
-10.702487945556641 0.148641616106033 -0.243605270981789 0.000000000000000
-9.297752380371094 -0.285687685012817 0.054946709424257 0.000000000000000
-9.216176986694336 0.602551758289337 -0.739137351512909 0.000000000000000
-9.360662460327148 0.612387180328369 0.162509933114052 0.000000000000000
-9.517946243286133 0.622904300689697 0.383589327335358 0.000000000000000
-29.222188949584961 3.468433618545532 -0.340331226587296 0.003921568859369
-9.294696807861328 -0.253686010837555 0.054915506392717 0.000000000000000
-9.217997550964355 0.634430408477783 -0.739470899105072 0.000000000000000
-9.354479789733887 0.644212186336517 0.162432283163071 0.000000000000000
-19.735466003417969 2.336197614669800 -0.687453806400299 0.003921568859369
-10.693199157714844 0.222051098942757 -0.243437349796295 0.003921568859369
-17.482608795166016 -0.421194940805435 -0.300762236118317 0.003921568859369
-28.451663970947266 3.476678609848022 -0.331420034170151 0.003921568859369
-9.295530319213867 -0.221806555986404 0.054907482117414 0.000000000000000
-9.943536758422852 0.240326434373856 -0.682494044303894 0.000000000000000
-9.227656364440918 0.666913628578186 -0.740455687046051 0.000000000000000
-9.364143371582031 0.677174866199493 0.162633210420609 0.000000000000000
-9.129316329956055 -0.217918425798416 -0.573037385940552 0.000000000000000
-9.632951736450195 0.696997284889221 0.388452678918839 0.003921568859369
-9.196325302124023 -0.187942758202553 -0.156039863824844 0.000000000000000
-9.301530838012695 -0.190085291862488 0.054872095584869 0.000000000000000
-15.738594055175781 1.970174074172974 0.183869346976280 0.000000000000000
-9.218581199645996 0.698261439800262 -0.740202307701111 0.000000000000000
-9.378943443298340 0.710832059383392 0.162909358739853 0.000000000000000
-9.203134536743164 -0.188186362385750 -0.577981412410736 0.000000000000000
-20.570281982421875 -0.425234019756317 -0.830210626125336 0.003921568859369
-9.208924293518066 -0.156603708863258 -0.156257122755051 0.000000000000000
-9.306138992309570 -0.158240139484406 0.054887581616640 0.000000000000000
-10.625588417053223 0.843589186668396 -0.059576716274023 0.000000000000000
-9.247881889343262 0.732441484928131 -0.742814958095551 0.000000000000000
-9.380395889282227 0.743332624435425 0.162971332669258 0.000000000000000
-9.535007476806641 -0.162369981408119 -0.599229276180267 0.000000000000000
-19.736459732055664 -0.339475959539413 -0.796180427074432 0.003921568859369
-19.854770660400391 -0.272653758525848 -0.342311710119247 0.003921568859369
-10.741184234619141 0.371056973934174 0.001559309428558 0.003921568859369
-9.310637474060059 -0.126367241144180 0.054903056472540 0.000000000000000
-9.207658767700195 1.208462476730347 -0.850717425346375 0.000000000000000
-9.229378700256348 0.762825369834900 -0.741519868373871 0.000000000000000
-9.373760223388672 0.775179564952850 0.162894010543823 0.000000000000000
-9.280067443847656 -0.126096948981285 -0.582858920097351 0.000000000000000
-16.920139312744141 -0.232047751545906 -0.681345820426941 0.003921568859369
-17.955930709838867 -0.190405219793320 -0.309127479791641 0.003921568859369
-10.743966102600098 0.404448449611664 0.001551214838400 0.003921568859369
-4.998319625854492 0.662059783935547 -0.055231254547834 0.000000000000000
-9.298991203308105 -0.097491115331650 0.054826643317938 0.000000000000000
-9.703263282775879 0.833029985427856 -0.054205618798733 0.000000000000000
-9.199872016906738 1.236340641975403 -0.850352227687836 0.000000000000000
-9.215024948120117 0.790274143218994 -0.740549862384796 0.000000000000000
-9.367297172546387 0.803773343563080 0.162817478179932 0.000000000000000
-9.432100296020508 -0.099074237048626 -0.592590510845184 0.000000000000000
-10.189475059509277 0.383174091577530 -0.465975463390350 0.000000000000000
-9.767939567565918 0.874114274978638 -0.279320716857910 0.000000000000000
-10.738416671752930 0.443072170019150 0.001542057259940 0.003921568859369
-9.315289497375488 -0.064105868339539 0.054911222308874 0.000000000000000
-9.397400856018066 0.840475142002106 -0.052433419972658 0.000000000000000
-9.203169822692871 1.270574331283569 -0.851104080677032 0.000000000000000
-9.253475189208984 0.380795121192932 -0.634866297245026 0.000000000000000
-9.208098411560059 0.823097705841064 -0.740232110023499 0.000000000000000
-9.352342605590820 0.836429178714752 0.162600547075272 0.000000000000000
-9.372528076171875 -0.064664684236050 -0.588759958744049 0.000000000000000
-10.144090652465820 0.418096214532852 -0.463935434818268 0.000000000000000
-10.435105323791504 0.934718191623688 -0.539304256439209 0.000000000000000
-7.969379425048828 0.710789561271667 0.641718327999115 0.000000000000000
-7.444152355194092 0.305719763040543 1.955218434333801 0.000000000000000
-14.945310592651367 -0.054880425333977 -0.256522923707962 0.000000000000000
-9.319155693054199 0.863944053649902 -0.266275227069855 0.000000000000000
-10.740887641906738 0.478330940008163 0.001533520873636 0.003921568859369
-9.307454109191895 -0.033714171499014 0.054857604205608 0.000000000000000
-9.375735282897949 0.416527777910233 -0.643527507781982 0.000000000000000
-9.169598579406738 0.849732220172882 -0.737308502197266 0.000000000000000
-9.468493461608887 -0.034472927451134 -0.594909310340881 0.000000000000000
-9.484037399291992 0.421468943357468 -0.433210253715515 0.000000000000000
-8.550886154174805 0.791473746299744 -0.440206050872803 0.000000000000000
-17.880962371826172 -0.004015181213617 -0.307844161987305 0.003921568859369
-10.739154815673828 0.515263676643372 0.001524680526927 0.003921568859369
-9.299515724182129 -0.001779936952516 0.054803617298603 0.000000000000000
-9.354298591613770 0.447726398706436 -0.642139434814453 0.000000000000000
-9.150705337524414 0.879625976085663 -0.736013352870941 0.000000000000000
-9.516458511352539 -0.001991216093302 -0.597988247871399 0.000000000000000
-10.113080024719238 0.484689533710480 -0.462647855281830 0.000000000000000
-9.311463356018066 0.031758263707161 0.054865013808012 0.000000000000000
-9.217022895812988 0.031283453106880 -0.578801989555359 0.000000000000000
-9.444464683532715 1.403888821601868 -0.326574414968491 0.000000000000000
-9.327309608459473 0.062214560806751 0.054950311779976 0.000000000000000
-9.172962188720703 0.061024032533169 -0.575993955135345 0.000000000000000
-14.567710876464844 2.227161407470703 -0.508090436458588 0.000000000000000
-9.327021598815918 0.095817521214485 0.054942235350609 0.000000000000000
-9.342653274536133 0.126436769962311 0.055027499794960 0.000000000000000
-28.812305450439453 3.207103729248047 -0.167114898562431 0.003921568859369
-9.116175651550293 0.561590731143951 -0.625977694988251 0.000000000000000
-10.206381797790527 0.138170197606087 -0.407724648714066 0.003921568859369
-20.956233978271484 2.404995203018188 -0.608441114425659 0.003921568859369
-9.326131820678711 0.159813225269318 0.054926868528128 0.000000000000000
-28.995058059692383 3.334605693817139 -0.168288990855217 0.003921568859369
-9.137948036193848 0.595996856689453 -0.627660632133484 0.000000000000000
-10.715725898742676 1.221104621887207 0.186839684844017 0.000000000000000
-7.171107769012451 0.811275243759155 0.289093315601349 0.000000000000000
-20.262952804565430 2.389227867126465 -0.588432967662811 0.003921568859369
-11.456510543823242 1.906717658042908 -0.132281035184860 0.000000000000000
-9.310874938964844 0.188371941447258 0.054780982434750 0.000000000000000
-28.926115036010742 3.418631315231323 -0.167981371283531 0.003921568859369
-9.133318901062012 0.624215245246887 -0.627732694149017 0.000000000000000
-9.771190643310547 0.197666004300117 -0.614739894866943 0.003921568859369
-19.452814102172852 2.361312150955200 -0.564903974533081 0.000000000000000
-9.346153259277344 0.221188455820084 0.054981909692287 0.000000000000000
-18.895286560058594 2.292999029159546 -0.988482534885406 0.003921568859369
-10.655383110046387 0.289248824119568 -0.181805178523064 0.003921568859369
-9.365319252014160 0.253813773393631 0.055090237408876 0.000000000000000
-10.656532287597656 0.803750276565552 -0.734952747821808 0.000000000000000
-9.191330909729004 1.137742400169373 -0.741994500160217 0.000000000000000
-10.522394180297852 0.321801900863647 -0.179506078362465 0.003921568859369
-10.683299064636230 0.842933297157288 0.001387019990943 0.003921568859369
-9.372374534606934 0.286201328039169 0.055129129439592 0.000000000000000
-8.626148223876953 1.096786499023438 -0.048260711133480 0.000000000000000
-10.629798889160156 0.838483929634094 -0.733286023139954 0.000000000000000
-11.054988861083984 0.910979509353638 0.001363359857351 0.003921568859369
-9.363326072692871 0.318094015121460 0.055075500160456 0.000000000000000
-9.163409233093262 1.198158860206604 -0.740380465984344 0.003921568859369
-19.801298141479492 2.689819335937500 -0.576274096965790 0.000000000000000
-9.760336875915527 0.839956641197205 0.001407612813637 0.003921568859369
-9.374029159545898 0.353899180889130 0.055136777460575 0.000000000000000
-9.182443618774414 1.235974311828613 -0.742342352867126 0.000000000000000
-9.634522438049316 0.363735556602478 -0.606332719326019 0.000000000000000
-10.561944007873535 0.909917950630188 -0.485155224800110 0.003921568859369
-7.029474258422852 1.286059498786926 -0.242792919278145 0.000000000000000
-19.839303970336914 2.765053033828735 -0.577688574790955 0.000000000000000
-9.376737594604492 0.386240273714066 0.055152539163828 0.000000000000000
-9.149789810180664 0.818085074424744 -0.630009770393372 0.000000000000000
-9.189918518066406 1.269137501716614 -0.743326544761658 0.000000000000000
-9.521521568298340 0.392148107290268 -0.599173545837402 0.000000000000000
-10.403513908386230 0.932125091552734 -0.477898031473160 0.000000000000000
-6.777555465698242 1.262871980667114 -0.233987495303154 0.000000000000000
-9.742796897888184 0.872101902961731 -0.222576931118965 0.000000000000000
-9.387468338012695 0.415740638971329 0.055215269327164 0.000000000000000
-9.123341560363770 0.844088435173035 -0.628341078758240 0.000000000000000
-9.197727203369141 1.299208045005798 -0.744309902191162 0.000000000000000
-9.528221130371094 0.421922773122787 -0.599692225456238 0.000000000000000
-19.425935745239258 3.737388372421265 -0.684893071651459 0.003921568859369
-9.262251853942871 0.857255220413208 -0.211396843194962 0.000000000000000
-9.377814292907715 0.450790017843246 0.055160921066999 0.000000000000000
-9.306820869445801 1.811529278755188 0.109782077372074 0.000000000000000
-9.159748077392578 0.882400989532471 -0.631140947341919 0.000000000000000
-9.204504013061523 1.335658550262451 -0.745294809341431 0.000000000000000
-9.372359275817871 0.479550838470459 0.055131182074547 0.000000000000000
-9.131328582763672 1.353839993476868 -0.051445886492729 0.000000000000000
-12.884895324707031 1.920436382293701 2.347954034805298 0.000000000000000
-9.358649253845215 0.511049032211304 0.055054489523172 0.000000000000000
-19.543746948242188 3.065992116928101 -0.570536971092224 0.000000000000000
-9.372688293457031 0.545716524124146 0.055139210075140 0.000000000000000
-19.459156036376953 3.122197389602661 -0.568473398685455 0.000000000000000
-9.391963005065918 0.579391658306122 0.055205091834068 0.000000000000000
-9.460041999816895 0.583705425262451 0.272764235734940 0.003921568859369
-9.373921394348145 0.610577642917633 0.055105626583099 0.000000000000000
-2.336027860641479 0.252394139766693 0.129526734352112 0.000000000000000
-10.675703048706055 1.740052223205566 1.945488572120667 0.000000000000000
-20.926582336425781 2.398638486862183 -0.485788285732269 0.003921568859369
-7.842522144317627 1.296091914176941 -0.225622773170471 0.000000000000000
-9.379937171936035 0.640090405941010 0.055145524442196 0.000000000000000
-19.374441146850586 2.280551910400391 -0.900747001171112 0.000000000000000
-15.979614257812500 1.878410696983337 1.957729697227478 0.003921568859369
-20.335197448730469 2.394628524780273 -0.472097009420395 0.003921568859369
-20.088544845581055 3.431387901306152 -0.588102400302887 0.003921568859369
-9.369671821594238 0.671709537506104 0.055092304944992 0.000000000000000
-12.572613716125488 2.768582820892334 0.148988366127014 0.000000000000000
-19.782907485961914 2.398619174957275 -0.459338784217834 0.000000000000000
-20.075836181640625 3.504427909851074 -0.588118195533752 0.003921568859369
-9.387089729309082 0.707007288932800 0.055200450122356 0.000000000000000
-9.240135192871094 1.144267082214355 -0.639075279235840 0.000000000000000
-10.519303321838379 0.793544054031372 -0.422177761793137 0.003921568859369
-10.237078666687012 1.808404088020325 -0.296995937824249 0.000000000000000
-9.388684272766113 0.737939357757568 0.055216893553734 0.000000000000000
-13.312052726745605 2.360382080078125 2.438206195831299 0.000000000000000
-9.389904975891113 0.772113680839539 0.055232621729374 0.000000000000000
-7.515731334686279 1.348348736763000 -0.042217969894409 0.000000000000000
-9.229346275329590 1.207252621650696 -0.984874188899994 0.000000000000000
-9.176552772521973 1.200306773185730 -0.635179996490479 0.003921568859369
-10.577238082885742 0.871210277080536 -0.424801230430603 0.000000000000000
-19.680948257446289 2.597440719604492 -0.457612365484238 0.000000000000000
-10.469635009765625 0.898543357849121 -0.179418355226517 0.000000000000000
-20.038049697875977 3.712852478027344 -0.588163137435913 0.003921568859369
-9.395124435424805 0.805041551589966 0.055271789431572 0.000000000000000
-9.052317619323730 1.661818623542786 -0.051430098712444 0.000000000000000
-9.160448074340820 1.230173945426941 -0.634349167346954 0.003921568859369
-10.541539192199707 0.904697656631470 -0.666912436485291 0.003921568859369
-11.680753707885742 2.741207122802734 -0.689103186130524 0.000000000000000
-15.625432014465332 2.113553285598755 1.918199300765991 0.000000000000000
-10.442741394042969 0.896149635314941 -0.419430673122406 0.000000000000000
-11.260110855102539 2.074491977691650 2.060917377471924 0.000000000000000
-19.667798995971680 2.665045261383057 -0.457533895969391 0.000000000000000
-19.652477264404297 3.707814931869507 -0.577100038528442 0.000000000000000
-9.412324905395508 0.837480127811432 0.055380575358868 0.000000000000000
-9.180030822753906 1.263348460197449 -0.636030972003937 0.000000000000000
-9.404585838317871 0.836827397346497 0.271662622690201 0.003921568859369
-12.628805160522461 2.372478246688843 0.222598537802696 0.000000000000000
-10.451020240783691 0.931230127811432 -0.661288201808929 0.000000000000000
-11.539618492126465 2.747568130493164 -0.681194841861725 0.000000000000000
-9.739157676696777 0.866931140422821 -0.390752464532852 0.000000000000000
-19.631135940551758 2.725857019424438 -0.456895142793655 0.000000000000000
-13.675401687622070 1.943101525306702 0.001026483019814 0.000000000000000
-9.191141128540039 1.298693537712097 -0.637154996395111 0.000000000000000
-9.179754257202148 0.849679827690125 -0.579635441303253 0.000000000000000
-11.401487350463867 2.757904291152954 -0.673520028591156 0.000000000000000
-9.222611427307129 0.853758573532104 -0.369734436273575 0.000000000000000
-19.640808105468750 2.800074100494385 -0.457376897335052 0.000000000000000
-9.194448471069336 1.331390738487244 -0.637720286846161 0.000000000000000
-11.163167953491211 2.740247726440430 -0.659790635108948 0.000000000000000
-8.621863365173340 1.673557281494141 0.705801725387573 0.000000000000000
-7.749756813049316 1.890794754028320 -0.272178053855896 0.000000000000000
-19.658609390258789 2.872150897979736 -0.458044409751892 0.000000000000000
-11.080455780029297 2.758172750473022 -0.655374407768250 0.000000000000000
-11.402387619018555 2.839483976364136 -0.404238641262054 0.000000000000000
-19.637115478515625 2.935027360916138 -0.457778573036194 0.000000000000000
-11.279996871948242 1.716485023498535 0.001073588617146 0.003921568859369
-10.483629226684570 2.646562576293945 -0.994723320007324 0.000000000000000
-10.886232376098633 2.749751091003418 -0.644478201866150 0.000000000000000
-11.285130500793457 2.851969242095947 -0.400507748126984 0.000000000000000
-19.714939117431641 3.017074108123779 -0.459958851337433 0.000000000000000
-10.374107360839844 2.656572341918945 -0.985057234764099 0.000000000000000
-10.721974372863770 2.747036457061768 -0.635172486305237 0.000000000000000
-18.586015701293945 3.840026140213013 -0.986347138881683 0.003921568859369
-11.170644760131836 2.863671064376831 -0.396738946437836 0.000000000000000
-10.287750244140625 2.671939611434937 -0.977623403072357 0.000000000000000
-10.650540351867676 2.767633914947510 -0.631454586982727 0.000000000000000
-10.955709457397461 2.848119020462036 -0.389333188533783 0.000000000000000
-19.622339248657227 3.142112255096436 -0.458308339118958 0.000000000000000
-12.962721824645996 1.475089073181152 0.076044335961342 0.000000000000000
-10.159087181091309 2.675424337387085 -0.966096639633179 0.000000000000000
-2.993783712387085 0.613220512866974 0.052203603088856 0.000000000000000
-10.725687980651855 2.826952457427979 -0.636584579944611 0.000000000000000
-10.872324943542480 2.866201639175415 -0.386683106422424 0.000000000000000
-19.776969909667969 3.237392425537109 -0.462239235639572 0.000000000000000
-10.096342086791992 2.694019556045532 -0.960894644260406 0.000000000000000
-10.415617942810059 2.780572175979614 -0.618429958820343 0.000000000000000
-10.727714538574219 2.865158319473267 -0.381794393062592 0.000000000000000
-19.762184143066406 3.301791906356812 -0.462159305810928 0.000000000000000
-9.990394592285156 2.704066991806030 -0.951600372791290 0.000000000000000
-10.320648193359375 2.794892549514771 -0.613314986228943 0.000000000000000
-10.589941024780273 2.868944644927979 -0.377185970544815 0.000000000000000
-19.659309387207031 3.358041048049927 -0.460029035806656 0.000000000000000
-9.154026985168457 1.132197737693787 -0.580268442630768 0.000000000000000
-10.310831069946289 2.830372810363770 -0.613322198390961 0.000000000000000
-10.510547637939453 2.886055469512939 -0.374675363302231 0.000000000000000
-11.525927543640137 1.999758839607239 3.095450639724731 0.000000000000000
-19.643529891967773 3.425424098968506 -0.459949761629105 0.000000000000000
-7.391160488128662 0.936369359493256 0.043732911348343 0.000000000000000
-9.848627090454102 2.738066196441650 -0.939708173274994 0.000000000000000
-11.849511146545410 2.693652868270874 -0.979094326496124 0.000000000000000
-9.245034217834473 1.175899624824524 -0.586419165134430 0.000000000000000
-10.300890922546387 2.865821123123169 -0.613329410552979 0.000000000000000
-2.977602481842041 0.651111721992493 -0.150539264082909 0.000000000000000
-20.160274505615234 2.586923837661743 -0.821228384971619 0.003921568859369
-10.400382995605469 2.893960237503052 -0.371045470237732 0.000000000000000
-19.686561584472656 3.503329277038574 -0.461269527673721 0.000000000000000
-19.943119049072266 2.625701427459717 -0.347760707139969 0.003921568859369
-9.678667068481445 2.724225759506226 -0.924087584018707 0.000000000000000
-11.619234085083008 2.680709600448608 -0.960536479949951 0.000000000000000
-9.248999595642090 1.207096099853516 -0.586937308311462 0.000000000000000
-9.911233901977539 2.790787935256958 -0.590283811092377 0.000000000000000
-7.978184700012207 1.430912971496582 0.978097081184387 0.000000000000000
-20.401191711425781 2.686364173889160 -0.831511676311493 0.003921568859369
-10.321547508239746 2.908148765563965 -0.368534266948700 0.000000000000000
-19.686639785766602 3.570243120193481 -0.461562633514404 0.000000000000000
-19.897701263427734 2.693360090255737 -0.347145736217499 0.003921568859369
-11.423154830932617 2.678488492965698 -0.944910466670990 0.000000000000000
-9.244515419006348 1.240432024002075 -0.586944222450256 0.000000000000000
-9.870259284973145 2.817646741867065 -0.588428199291229 0.000000000000000
-8.964056968688965 2.094531774520874 0.740476489067078 0.000000000000000
-20.391210556030273 2.760565280914307 -0.831526935100555 0.003921568859369
-10.268589973449707 2.933162212371826 -0.367002964019775 0.000000000000000
-19.720600128173828 3.650618314743042 -0.462696641683578 0.000000000000000
-19.860935211181641 2.754951953887939 -0.346669286489487 0.003921568859369
-1.696484804153442 0.216377511620522 0.010624607093632 0.003921568859369
-11.286314010620117 2.685016632080078 -0.934169292449951 0.000000000000000
-9.268027305603027 1.274446249008179 -0.588742554187775 0.000000000000000
-9.699934005737305 2.802632331848145 -0.578654706478119 0.000000000000000
-11.715789794921875 2.788633108139038 -0.622583925724030 0.000000000000000
-20.381948471069336 2.827667951583862 -0.831540822982788 0.003921568859369
-10.258808135986328 2.966695308685303 -0.367009788751602 0.000000000000000
-1.691762208938599 0.221201702952385 0.010600437410176 0.003921568859369
-9.321310043334961 2.726250648498535 -0.892108857631683 0.000000000000000
-11.133597373962402 2.688794851303101 -0.922125399112701 0.000000000000000
-6.572600364685059 0.920634806156158 -0.414400219917297 0.000000000000000
-9.605884552001953 2.810913324356079 -0.573538482189178 0.000000000000000
-8.792969703674316 2.116046667098999 0.363492339849472 0.000000000000000
-5.940395832061768 1.417567849159241 -0.311109602451324 0.000000000000000
-20.371953964233398 2.898268938064575 -0.831555366516113 0.003921568859369
-10.194745063781738 2.986011266708374 -0.365058302879333 0.000000000000000
-8.695030212402344 2.573411226272583 -0.832255423069000 0.000000000000000
-10.997611999511719 2.696369647979736 -0.911750018596649 0.000000000000000
-9.585644721984863 2.841611623764038 -0.573120534420013 0.000000000000000
-11.379312515258789 2.791287660598755 -0.605659961700439 0.000000000000000
-21.043077468872070 3.069356441497803 -0.859790086746216 0.003921568859369
-10.131775856018066 3.006083250045776 -0.363284975290298 0.000000000000000
-8.685997009277344 2.603225708007812 -0.832261204719543 0.000000000000000
-9.552753448486328 2.867545843124390 -0.571729838848114 0.000000000000000
-11.230066299438477 2.795302391052246 -0.598122060298920 0.000000000000000
-7.452475070953369 1.099247217178345 -0.299700915813446 0.000000000000000
-10.098281860351562 3.033915281295776 -0.362452387809753 0.000000000000000
-10.721944808959961 2.667643308639526 1.988968729972839 0.000000000000000
-8.779605865478516 2.664730310440063 -0.842312812805176 0.000000000000000
-10.704306602478027 2.701863288879395 -0.888638854026794 0.000000000000000
-9.466375350952148 2.876799345016479 -0.567079186439514 0.000000000000000
-18.817857742309570 3.817608594894409 -0.887141227722168 0.003921568859369
-11.061582565307617 2.793363094329834 -0.589535892009735 0.000000000000000
-10.076171875000000 3.065092325210571 -0.362039387226105 0.000000000000000
-8.762648582458496 2.692465066909790 -0.841574430465698 0.000000000000000
-10.648506164550781 2.726669549942017 -0.884737372398376 0.000000000000000
-9.456277847290039 2.909306526184082 -0.567085504531860 0.000000000000000
-10.908713340759277 2.794294834136963 -0.581787884235382 0.000000000000000
-21.061115264892578 3.296078681945801 -0.861952126026154 0.003921568859369
-10.034889221191406 3.090186595916748 -0.360926926136017 0.000000000000000
-9.732870101928711 3.032442092895508 -0.937575638294220 0.000000000000000
-10.457728385925293 2.715578556060791 -0.869435548782349 0.000000000000000
-9.206212997436523 2.865893602371216 -0.552421808242798 0.000000000000000
-10.783010482788086 2.801312685012817 -0.575506865978241 0.000000000000000
-3.780409574508667 0.769548714160919 0.457122921943665 0.000000000000000
-20.315572738647461 3.250765562057495 -0.831644892692566 0.003921568859369
-9.993553161621094 3.115027666091919 -0.359814375638962 0.000000000000000
-9.597060203552246 3.025799512863159 -0.925303578376770 0.000000000000000
-2.975198745727539 0.609279394149780 0.068653188645840 0.000000000000000
-10.317233085632324 2.716567039489746 -0.858367979526520 0.000000000000000
-9.123897552490234 2.874354839324951 -0.548003613948822 0.000000000000000
-10.657393455505371 2.807490587234497 -0.569225788116455 0.000000000000000
-20.000455856323242 3.271113395690918 -0.819106042385101 0.003921568859369
-9.986429214477539 3.150593042373657 -0.359960913658142 0.000000000000000
-19.832769393920898 3.314193964004517 -0.347849816083908 0.003921568859369
-9.018136024475098 2.874599933624268 -0.869497895240784 0.000000000000000
-2.906648635864258 0.604593932628632 0.067073315382004 0.000000000000000
-10.284600257873535 2.745791196823120 -0.856420457363129 0.000000000000000
-8.318342208862305 1.375839471817017 0.242240995168686 0.000000000000000
-9.064427375793457 2.889663696289062 -0.544982433319092 0.000000000000000
-10.766619682312012 2.326535224914551 0.633928775787354 0.000000000000000
-10.520297050476074 2.809692382812500 -0.562315702438354 0.000000000000000
-14.913220405578613 3.235141277313232 1.856491088867188 0.000000000000000
-19.902208328247070 3.325792789459229 -0.815533101558685 0.003921568859369
-9.963963508605957 3.181216955184937 -0.359547853469849 0.000000000000000
-19.852613449096680 3.388305664062500 -0.348423272371292 0.003921568859369
-8.682593345642090 2.798819065093994 -0.837504684925079 0.000000000000000
-10.086579322814941 2.729426145553589 -0.840466618537903 0.000000000000000
-9.054286956787109 2.920767545700073 -0.544988453388214 0.000000000000000
-10.444945335388184 2.827896595001221 -0.558759272098541 0.000000000000000
-19.535980224609375 3.333774328231812 -0.800874233245850 0.003921568859369
-9.949001312255859 3.214213132858276 -0.359414547681808 0.000000000000000
-8.631192207336426 2.814795017242432 -0.833417594432831 0.000000000000000
-10.007859230041504 2.744855165481567 -0.834610164165497 0.000000000000000
-9.025087356567383 2.945548057556152 -0.543830096721649 0.000000000000000
-10.365745544433594 2.844537734985352 -0.554993152618408 0.000000000000000
-19.496671676635742 3.396591663360596 -0.799746215343475 0.003921568859369
-9.945311546325684 3.250920534133911 -0.359700918197632 0.000000000000000
-11.366491317749023 3.163289070129395 -0.338459998369217 0.000000000000000
-8.606708526611328 2.837841510772705 -0.831934571266174 0.000000000000000
-9.879751205444336 2.743996620178223 -0.824518740177155 0.000000000000000
-9.117491722106934 3.009259700775146 -0.550123274326324 0.000000000000000
-10.190938949584961 2.831792354583740 -0.545985996723175 0.000000000000000
-19.520709991455078 3.467069864273071 -0.801226019859314 0.003921568859369
-9.915529251098633 3.277032375335693 -0.359007626771927 0.000000000000000
-11.344407081604004 3.197178125381470 -0.338117271661758 0.000000000000000
-8.608567237854004 2.869711637496948 -0.833056211471558 0.000000000000000
-11.802433013916016 2.719928503036499 -0.835982203483582 0.000000000000000
-9.747928619384766 2.741225719451904 -0.814101457595825 0.000000000000000
-9.099900245666504 3.036419630050659 -0.549663186073303 0.000000000000000
-10.146924018859863 2.855207681655884 -0.544105827808380 0.000000000000000
-19.564151763916016 3.541330575942993 -0.803520977497101 0.003921568859369
-9.893251419067383 3.305550336837769 -0.358594149351120 0.000000000000000
-11.286528587341309 3.224845170974731 -0.336725473403931 0.000000000000000
-8.590460777282715 2.898110866546631 -0.832318127155304 0.000000000000000
-11.640970230102539 2.726699829101562 -0.825098931789398 0.000000000000000
-9.611445426940918 2.739803314208984 -0.803358912467957 0.000000000000000
-11.213921546936035 2.060532808303833 0.328516006469727 0.000000000000000
-11.634338378906250 3.943030834197998 -0.706626236438751 0.000000000000000
-9.998265266418457 2.851842403411865 -0.536566376686096 0.000000000000000
-20.230791091918945 3.739007711410522 -0.831740260124207 0.003921568859369
-9.869729995727539 3.337347269058228 -0.358181267976761 0.000000000000000
-11.242355346679688 3.252782583236694 -0.335833132266998 0.000000000000000
-9.522494316101074 3.253791093826294 -0.925756156444550 0.000000000000000
-11.446812629699707 2.720923900604248 -0.812019407749176 0.000000000000000
-9.595760345458984 2.770064592361450 -0.803080976009369 0.000000000000000
-11.641109466552734 3.988973140716553 -0.708055973052979 0.000000000000000
-9.890199661254883 2.856417179107666 -0.531372368335724 0.000000000000000
-20.215553283691406 3.805626869201660 -0.831764459609985 0.003921568859369
-9.874770164489746 3.376131534576416 -0.358921974897385 0.000000000000000
-8.225836753845215 2.835523366928101 -0.798511803150177 0.000000000000000
-11.293829917907715 2.725298643112183 -0.801694095134735 0.000000000000000
-9.559280395507812 2.795090436935425 -0.800806939601898 0.000000000000000
-8.243474006652832 2.841766834259033 -0.498957306146622 0.000000000000000
-11.600054740905762 2.800200700759888 -0.548487424850464 0.000000000000000
-9.753803253173828 2.852895736694336 -0.524461388587952 0.000000000000000
-19.366315841674805 3.714160203933716 -0.797052681446075 0.003921568859369
-8.233395576477051 2.838266849517822 -0.298491477966309 0.000000000000000
-11.161365509033203 3.314821958541870 -0.334098160266876 0.000000000000000
-9.577788352966309 3.348784923553467 -0.933582007884979 0.000000000000000
-11.109498977661133 2.722865104675293 -0.789134860038757 0.000000000000000
-9.472620964050293 2.806600332260132 -0.794298708438873 0.000000000000000
-8.959282875061035 3.129268646240234 -0.543904662132263 0.000000000000000
-11.450112342834473 2.807496070861816 -0.541786193847656 0.000000000000000
-9.674431800842285 2.867374897003174 -0.520694851875305 0.000000000000000
-19.289834976196289 3.772220134735107 -0.794457256793976 0.003921568859369
-9.831528663635254 3.438974857330322 -0.358235150575638 0.000000000000000
-11.061761856079102 3.326448678970337 -0.331422597169876 0.000000000000000
-9.408605575561523 3.325176239013672 -0.917960643768311 0.000000000000000
-10.949028015136719 2.723086595535278 -0.778250575065613 0.000000000000000
-9.519973754882812 2.856569290161133 -0.799190640449524 0.000000000000000
-8.948307991027832 3.160013437271118 -0.543910264968872 0.000000000000000
-16.877613067626953 4.217672348022461 1.005300283432007 0.000000000000000
-11.320136070251465 2.816666126251221 -0.536016166210175 0.000000000000000
-9.607049942016602 2.883153438568115 -0.517556607723236 0.000000000000000
-9.834516525268555 3.478164911270142 -0.358800947666168 0.000000000000000
-12.849720954895020 2.595672845840454 -0.225536167621613 0.000000000000000
-11.053905487060547 3.365710496902466 -0.331546187400818 0.000000000000000
-9.363249778747559 3.345261573791504 -0.914617717266083 0.000000000000000
-10.842812538146973 2.736063480377197 -0.771275937557220 0.000000000000000
-11.673766136169434 3.556834220886230 -0.984212636947632 0.000000000000000
-8.937225341796875 3.190720319747925 -0.543915867805481 0.000000000000000
-11.105069160461426 2.803183078765869 -0.526145994663239 0.000000000000000
-9.501504898071289 2.886721372604370 -0.512322187423706 0.000000000000000
-9.837348937988281 3.517418146133423 -0.359366744756699 0.000000000000000
