# This PCD file was generated using the MATLAB® pcwrite function
# from Computer Vision Toolbox®.
# .PCD v.7 - Point Cloud Data file format
VERSION .7
FIELDS x y z intensity
SIZE 8 8 8 8
TYPE F F F F
COUNT 1 1 1 1
WIDTH 625
HEIGHT 1
VIEWPOINT 0 0 0 1 0 0 0
POINTS 625
DATA ascii
-7.658264160156250 -16.112020492553711 1.051142573356628 0.000000000000000
-2.902089834213257 -5.245292186737061 -0.216641277074814 0.000000000000000
-12.543802261352539 -25.886032104492188 -0.669241487979889 0.003921568859369
-9.944578170776367 -16.313131332397461 0.226939842104912 0.003921568859369
-8.516782760620117 -15.708579063415527 0.317234069108963 0.003921568859369
-8.680375099182129 -15.996801376342773 0.751374959945679 0.003921568859369
-11.062622070312500 -22.714366912841797 -0.588503479957581 0.003921568859369
-8.743176460266113 -17.960168838500977 0.002475350862369 0.003921568859369
-9.863650321960449 -16.061311721801758 -0.219853371381760 0.003921568859369
-8.856766700744629 -16.176094055175781 -0.106238871812820 0.000000000000000
-8.465051651000977 -17.413471221923828 0.457012921571732 0.000000000000000
-9.452413558959961 -15.417403221130371 0.214874595403671 0.003921568859369
-11.264499664306641 -20.384330749511719 4.284862995147705 0.003921568859369
-9.719905853271484 -15.721114158630371 -0.215689569711685 0.003921568859369
-7.812683105468750 -15.999938964843750 0.420510977506638 0.000000000000000
-13.847224235534668 -22.135341644287109 0.309750169515610 0.003921568859369
-8.371718406677246 -17.089097976684570 2.360702991485596 0.003921568859369
-9.826956748962402 -15.766152381896973 0.220719367265701 0.003921568859369
-8.016695022583008 -16.119499206542969 0.425186336040497 0.000000000000000
-14.106423377990723 -22.196088790893555 0.311993598937988 0.003921568859369
-9.334036827087402 -18.642337799072266 5.637625217437744 0.003921568859369
-12.845591545104980 -25.372644424438477 -0.661918878555298 0.003921568859369
-7.362594127655029 -16.691005706787109 -0.319117516279221 0.003921568859369
-8.073151588439941 -16.110074996948242 0.002071345224977 0.003921568859369
-14.023775100708008 -21.920728683471680 -0.302251547574997 0.003921568859369
-9.105325698852539 -16.109609603881836 -0.978306829929352 0.003921568859369
-10.493220329284668 -20.710083007812500 -0.541487455368042 0.003921568859369
-8.937915802001953 -17.596805572509766 0.465975910425186 0.000000000000000
-8.558120727539062 -16.880804061889648 2.348951101303101 0.003921568859369
-7.193386077880859 -16.026319503784180 0.105150371789932 0.000000000000000
-9.856905937194824 -17.102020263671875 -0.113654538989067 0.003921568859369
-8.927628517150879 -15.552860260009766 0.318515598773956 0.003921568859369
-8.921322822570801 -15.542241096496582 0.740356802940369 0.003921568859369
-9.047848701477051 -15.752956390380859 1.501681566238403 0.000000000000000
-8.753931999206543 -17.105968475341797 -0.449209630489349 0.003921568859369
-12.716908454895020 -19.480129241943359 -0.270690798759460 0.003921568859369
-11.648269653320312 -25.197729110717773 0.166379734873772 0.003921568859369
-9.875144958496094 -16.997646331787109 -0.113213405013084 0.000000000000000
-10.026844978332520 -15.485753059387207 0.219253987073898 0.003921568859369
-9.083257675170898 -15.687892913818359 0.321963459253311 0.003921568859369
-8.423053741455078 -16.350011825561523 1.084201812744141 0.000000000000000
-9.254693031311035 -15.971303939819336 0.762428402900696 0.003921568859369
-7.641378879547119 -16.819795608520508 -0.757358431816101 0.003921568859369
-11.632708549499512 -17.736343383789062 -0.247173264622688 0.003921568859369
-8.737411499023438 -16.792055130004883 0.447095513343811 0.000000000000000
-12.701744079589844 -19.311635971069336 0.274400383234024 0.003921568859369
-9.899724960327148 -16.904624938964844 0.347770750522614 0.003921568859369
-7.922370433807373 -17.252357482910156 -0.778109014034271 0.003921568859369
-8.558884620666504 -16.334934234619141 0.002112078946084 0.003921568859369
-12.801810264587402 -19.321029663085938 -0.269750386476517 0.003921568859369
-12.366748809814453 -23.275705337524414 0.621370971202850 0.003921568859369
-12.736375808715820 -19.225145339965820 0.273774892091751 0.003921568859369
-11.206910133361816 -21.161870956420898 -0.558521986007690 0.003921568859369
-12.933800697326660 -19.361438751220703 -0.271001219749451 0.003921568859369
-12.861207008361816 -19.255910873413086 0.274896800518036 0.003921568859369
-12.967098236083984 -19.265476226806641 -0.270325005054474 0.003921568859369
-12.894137382507324 -19.160202026367188 0.274176210165024 0.003921568859369
-11.700970649719238 -21.692867279052734 -0.574789822101593 0.003921568859369
-13.516656875610352 -19.916061401367188 -0.280061513185501 0.003921568859369
-10.229024887084961 -16.915739059448242 -0.113913133740425 0.000000000000000
-8.546665191650391 -15.915029525756836 0.426895976066589 0.000000000000000
-7.639321804046631 -16.094627380371094 0.525706231594086 0.003921568859369
-9.370748519897461 -15.550376892089844 -0.960643589496613 0.003921568859369
-9.171435356140137 -15.232631683349609 1.470643520355225 0.000000000000000
-10.916800498962402 -16.196228027343750 -0.687999546527863 0.003921568859369
-8.063055038452148 -16.795993804931641 -0.326088994741440 0.003921568859369
-6.997495174407959 -11.683485031127930 -0.401398301124573 0.000000000000000
-11.946745872497559 -19.497362136840820 -0.131384596228600 0.003921568859369
-11.280388832092285 -20.607837677001953 0.554260790348053 0.003921568859369
-13.929210662841797 -20.354509353637695 0.292723476886749 0.003921568859369
-9.922771453857422 -16.301759719848633 0.338908582925797 0.003921568859369
-9.947873115539551 -16.341272354125977 0.790178596973419 0.003921568859369
-9.388639450073242 -15.458799362182617 -0.957105755805969 0.003921568859369
-12.991211891174316 -18.882108688354492 -0.266919285058975 0.003921568859369
-7.829122066497803 -16.190895080566406 0.107662044465542 0.000000000000000
-9.894924163818359 -16.133058547973633 -0.109200268983841 0.000000000000000
-11.123745918273926 -16.249300003051758 0.233978092670441 0.003921568859369
-9.428750991821289 -15.402600288391113 0.320845246315002 0.003921568859369
-8.391548156738281 -15.386279106140137 2.178001642227173 0.003921568859369
-7.887417316436768 -16.165618896484375 0.107678435742855 0.000000000000000
-9.899250030517578 -16.016273498535156 -0.108668655157089 0.000000000000000
-13.261700630187988 -19.121486663818359 0.276255488395691 0.003921568859369
-8.799952507019043 -17.944938659667969 0.589399695396423 0.003921568859369
-9.835462570190430 -15.806003570556641 -0.546216011047363 0.000000000000000
-9.814545631408691 -17.601819992065430 0.002369859954342 0.003921568859369
-13.772706031799316 -19.700208663940430 -0.279836982488632 0.003921568859369
-9.719978332519531 -15.627719879150391 -0.106312736868858 0.000000000000000
-9.618969917297363 -17.264989852905273 0.466909587383270 0.000000000000000
-10.639014244079590 -15.347109794616699 0.222003117203712 0.003921568859369
-8.877916336059570 -17.955272674560547 0.590795040130615 0.003921568859369
-9.857834815979004 -15.840294837951660 0.331474810838699 0.003921568859369
-9.598731994628906 -15.440439224243164 0.751554071903229 0.003921568859369
-12.409312248229980 -19.626552581787109 -0.679458558559418 0.003921568859369
-8.008196830749512 -16.135673522949219 0.107853539288044 0.000000000000000
-8.868412971496582 -17.784490585327148 0.586218714714050 0.003921568859369
-9.553419113159180 -15.253416061401367 1.489190459251404 0.003921568859369
-9.751564025878906 -15.556303977966309 3.389830589294434 0.003921568859369
-12.429385185241699 -19.508205413818359 -0.676925480365753 0.003921568859369
-13.751812934875488 -19.384328842163086 -0.276787728071213 0.003921568859369
-13.218589782714844 -18.654296875000000 0.271493762731552 0.003921568859369
-8.924853324890137 -17.741382598876953 0.585858821868896 0.003921568859369
-10.446885108947754 -18.392110824584961 5.725542545318604 0.003921568859369
-9.818787574768066 -15.540463447570801 3.394130706787109 0.003921568859369
-8.710780143737793 -15.329379081726074 1.040709614753723 0.003921568859369
-9.092205047607422 -15.970987319946289 -0.863647043704987 0.000000000000000
-9.876225471496582 -17.152038574218750 0.002267600968480 0.003921568859369
-13.884414672851562 -19.281778335571289 -0.276766866445541 0.003921568859369
-11.428244590759277 -19.740007400512695 0.538428425788879 0.003921568859369
-10.181939125061035 -15.850830078125000 0.778664290904999 0.003921568859369
-10.151165008544922 -15.804575920104980 1.553742885589600 0.003921568859369
-9.778784751892090 -16.855863571166992 0.002203027019277 0.003921568859369
-13.616595268249512 -18.783092498779297 -0.270354449748993 0.003921568859369
-8.578362464904785 -16.657247543334961 0.112190358340740 0.000000000000000
-10.050089836120605 -15.535938262939453 0.328819632530212 0.003921568859369
-14.895103454589844 -20.354082107543945 -0.293588757514954 0.003921568859369
-12.691257476806641 -19.320514678955078 -0.132975012063980 0.003921568859369
-9.160055160522461 -15.714143753051758 0.430093854665756 0.000000000000000
-15.375866889953613 -20.993318557739258 0.308808326721191 0.003921568859369
-8.440767288208008 -16.272762298583984 0.541204631328583 0.003921568859369
-10.730019569396973 -16.428010940551758 0.348553091287613 0.003921568859369
-8.899289131164551 -15.285479545593262 2.199416160583496 0.003921568859369
-12.964104652404785 -19.582929611206055 -0.687391996383667 0.003921568859369
-15.068746566772461 -20.443532943725586 -0.295620977878571 0.003921568859369
-9.036645889282227 -17.232130050659180 0.116518132388592 0.003921568859369
-10.721281051635742 -16.298507690429688 0.346569508314133 0.003921568859369
-10.432012557983398 -15.874822616577148 0.785177886486053 0.003921568859369
-15.503845214843750 -20.866308212280273 0.308497875928879 0.003921568859369
-9.321118354797363 -17.604881286621094 0.587798416614532 0.003921568859369
-10.943861961364746 -16.500131607055664 1.637200474739075 0.003921568859369
-13.445660591125488 -19.979572296142578 -0.704766869544983 0.003921568859369
-11.276921272277832 -20.961709976196289 0.142581209540367 0.003921568859369
-8.655468940734863 -16.259513854980469 0.543873667716980 0.003921568859369
-10.722552299499512 -16.052183151245117 1.596747517585754 0.003921568859369
-12.999912261962891 -19.200357437133789 -0.133449867367744 0.003921568859369
-16.444602966308594 -21.782800674438477 0.323818296194077 0.003921568859369
-10.988979339599609 -16.320724487304688 0.813110649585724 0.003921568859369
-9.357205390930176 -15.551414489746094 -0.853509724140167 0.000000000000000
-10.223141670227051 -15.223499298095703 3.387594223022461 0.003921568859369
-13.512314796447754 -19.786699295043945 -0.701320707798004 0.003921568859369
-14.364312171936035 -18.957180023193359 -0.277221858501434 0.003921568859369
-13.929990768432617 -20.380187988281250 -0.141921356320381 0.003921568859369
-13.877515792846680 -18.332397460937500 0.273038029670715 0.003921568859369
-9.845097541809082 -14.574033737182617 1.456486225128174 0.000000000000000
-9.475032806396484 -15.617608070373535 -0.428157985210419 0.000000000000000
-14.612292289733887 -19.138746261596680 -0.280679374933243 0.003921568859369
-8.623879432678223 -15.823003768920898 0.107908882200718 0.000000000000000
-13.891505241394043 -20.177312850952148 -0.140897959470749 0.003921568859369
-9.405080795288086 -15.392239570617676 0.426758319139481 0.000000000000000
-14.167668342590332 -18.572380065917969 0.277415603399277 0.003921568859369
-9.549668312072754 -15.619174957275391 -0.861130893230438 0.000000000000000
-10.226524353027344 -16.678398132324219 5.303802490234375 0.003921568859369
-9.968485832214355 -16.163133621215820 0.002042222535238 0.003921568859369
-13.903523445129395 -18.118654251098633 -0.266459345817566 0.003921568859369
-9.559308052062988 -15.526162147521973 0.431344926357269 0.000000000000000
-13.915936470031738 -18.134222030639648 0.271501690149307 0.003921568859369
-9.538215637207031 -15.493662834167480 -0.855947375297546 0.000000000000000
-9.598198890686035 -15.586915016174316 -0.429192364215851 0.000000000000000
-13.151718139648438 -18.860765457153320 -0.673595726490021 0.003921568859369
-13.974818229675293 -18.072307586669922 -0.266564339399338 0.003921568859369
-9.863967895507812 -15.872124671936035 0.442024528980255 0.000000000000000
-12.671746253967285 -16.435775756835938 0.246652230620384 0.003921568859369
-9.692678451538086 -15.607991218566895 -0.864300370216370 0.000000000000000
-10.260317802429199 -14.841527938842773 -0.956427097320557 0.003921568859369
-15.652521133422852 -22.336370468139648 2.249625921249390 0.003921568859369
-12.300881385803223 -19.634891510009766 -0.541582167148590 0.003921568859369
-13.270037651062012 -18.878887176513672 -0.676037609577179 0.003921568859369
-9.811153411865234 -15.664559364318848 0.001933411462232 0.003921568859369
-13.674726486206055 -19.436979293823242 -0.136828780174255 0.003921568859369
-15.755340576171875 -22.306369781494141 2.252546310424805 0.003921568859369
-10.159808158874512 -16.197248458862305 5.185674190521240 0.003921568859369
-10.697961807250977 -15.329932212829590 3.454332828521729 0.003921568859369
-13.411772727966309 -18.948837280273438 -0.680097401142120 0.003921568859369
-13.841826438903809 -19.538013458251953 -0.137855574488640 0.003921568859369
-9.021702766418457 -16.009553909301758 -0.755128979682922 0.003921568859369
-10.380438804626465 -16.422208786010742 5.268542766571045 0.003921568859369
-10.822619438171387 -15.399830818176270 3.478022575378418 0.003921568859369
-12.221158027648926 -19.223741531372070 -0.532646775245667 0.003921568859369
-14.119614601135254 -19.773490905761719 -0.711460530757904 0.003921568859369
-13.272636413574219 -18.621183395385742 -0.131796494126320 0.003921568859369
-9.658077239990234 -15.208213806152344 2.241792917251587 0.003921568859369
-15.555812835693359 -21.726444244384766 2.204577922821045 0.003921568859369
-9.633301734924316 -15.170141220092773 4.877976894378662 0.003921568859369
-13.258377075195312 -18.600694656372070 4.211952686309814 0.003921568859369
-13.427133560180664 -18.694391250610352 -0.674453139305115 0.003921568859369
-9.809011459350586 -17.071262359619141 0.117906376719475 0.003921568859369
-9.862060546875000 -15.399589538574219 0.432706296443939 0.000000000000000
-17.327934265136719 -23.961313247680664 2.437747001647949 0.003921568859369
-13.810257911682129 -19.072206497192383 -0.689852058887482 0.003921568859369
-13.497401237487793 -18.652135848999023 1.902228951454163 0.003921568859369
-12.893996238708496 -17.701488494873047 -0.126392751932144 0.003921568859369
-10.019556999206543 -15.390025138854980 0.434562057256699 0.000000000000000
-11.555933952331543 -19.659288406372070 0.672692477703094 0.003921568859369
-13.420368194580078 -18.401016235351562 1.881995677947998 0.003921568859369
-12.595976829528809 -19.189855575561523 -0.536849200725555 0.003921568859369
-16.191442489624023 -21.942993164062500 -0.156727582216263 0.003921568859369
-10.719453811645508 -16.311639785766602 0.461647242307663 0.000000000000000
-13.710408210754395 -16.763751983642578 -0.253116369247437 0.003921568859369
-12.671967506408691 -17.166950225830078 3.938284397125244 0.003921568859369
-10.200926780700684 -15.315093040466309 2.290066242218018 0.003921568859369
-9.418283462524414 -15.675766944885254 -0.321136683225632 0.003921568859369
-15.065214157104492 -18.121025085449219 -0.275143682956696 0.003921568859369
-13.388928413391113 -17.857107162475586 -0.128856211900711 0.003921568859369
-13.157762527465820 -15.889198303222656 0.245261728763580 0.003921568859369
-9.080106735229492 -15.137205123901367 -0.726343810558319 0.003921568859369
-13.562486648559570 -18.080423355102539 4.170215606689453 0.003921568859369
-13.884052276611328 -20.492919921875000 -0.578643262386322 0.003921568859369
-9.847838401794434 -16.227605819702148 -0.333168178796768 0.003921568859369
-9.911274909973145 -16.327720642089844 0.114388309419155 0.000000000000000
-10.647719383239746 -15.733900070190430 0.449607014656067 0.000000000000000
-13.111512184143066 -15.718081474304199 0.243361681699753 0.003921568859369
-13.312967300415039 -17.624553680419922 1.826494574546814 0.003921568859369
-14.243080139160156 -18.817382812500000 4.352606296539307 0.003921568859369
-13.503434181213379 -19.792787551879883 -0.560368478298187 0.003921568859369
-9.916583061218262 -16.210613250732422 0.113803975284100 0.000000000000000
-13.968326568603516 -18.333604812622070 -0.133015006780624 0.003921568859369
-14.625865936279297 -17.353879928588867 0.269635289907455 0.003921568859369
-9.807036399841309 -16.038747787475586 0.555667221546173 0.003921568859369
-13.407225608825684 -17.617746353149414 4.086169719696045 0.003921568859369
-9.909744262695312 -16.082010269165039 0.113124318420887 0.000000000000000
-9.525428771972656 -15.484073638916016 -0.747931063175201 0.003921568859369
-9.810663223266602 -15.800266265869141 -0.326631426811218 0.003921568859369
-13.133637428283691 -17.024328231811523 -0.631187438964844 0.003921568859369
-14.017476081848145 -22.295228958129883 0.157724842429161 0.003921568859369
-13.131710052490234 -17.021305084228516 1.778520464897156 0.003921568859369
-14.449147224426270 -18.675083160400391 4.355439662933350 0.003921568859369
-13.361982345581055 -19.162179946899414 -0.546642303466797 0.003921568859369
-13.548207283020020 -17.419807434082031 -0.647630214691162 0.003921568859369
-14.915490150451660 -17.318218231201172 -0.267125546932220 0.003921568859369
-13.933439254760742 -21.996809005737305 0.155939206480980 0.003921568859369
-15.008069038391113 -21.292873382568359 0.615006387233734 0.003921568859369
-14.713677406311035 -18.871690750122070 4.413594245910645 0.003921568859369
-10.953644752502441 -15.583506584167480 0.450870007276535 0.000000000000000
-13.881846427917480 -17.707597732543945 4.152905941009521 0.003921568859369
-13.720874786376953 -15.757597923278809 -0.244635730981827 0.003921568859369
-15.286300659179688 -21.376958847045898 0.620416820049286 0.003921568859369
-16.136114120483398 -18.448268890380859 0.291037887334824 0.003921568859369
-12.032518386840820 -16.948732376098633 2.584832191467285 0.003921568859369
-14.374687194824219 -18.200986862182617 1.917405724525452 0.003921568859369
-9.971869468688965 -15.698668479919434 -0.765151619911194 0.003921568859369
-12.974247932434082 -16.477922439575195 3.874267578125000 0.003921568859369
-13.844332695007324 -19.272806167602539 2.947026014328003 0.003921568859369
-14.662916183471680 -18.423746109008789 1.946415781974792 0.003921568859369
-14.161026000976562 -17.810232162475586 4.199559211730957 0.003921568859369
-14.416165351867676 -22.065629959106445 0.157828196883202 0.003921568859369
-12.449581146240234 -15.603662490844727 1.653239965438843 0.003921568859369
-11.430433273315430 -15.889172554016113 5.313952922821045 0.003921568859369
-14.394372940063477 -21.867994308471680 0.156761363148689 0.003921568859369
-15.820666313171387 -17.713775634765625 0.282078623771667 0.003921568859369
-13.068454742431641 -16.237504959106445 3.851252555847168 0.003921568859369
-10.697712898254395 -16.295806884765625 -0.342314660549164 0.003921568859369
-18.510929107666016 -20.510725021362305 -0.322124332189560 0.003921568859369
-14.487105369567871 -21.848472595214844 0.156964406371117 0.003921568859369
-15.884743690490723 -17.665687561035156 0.282159715890884 0.003921568859369
-16.251996994018555 -22.039197921752930 1.612756490707397 0.003921568859369
-14.222409248352051 -19.357198715209961 -0.562155306339264 0.003921568859369
-13.112077713012695 -16.075199127197266 -0.609757602214813 0.003921568859369
-18.602989196777344 -20.473684310913086 -0.322600603103638 0.003921568859369
-16.021924972534180 -19.529270172119141 -0.145736902952194 0.003921568859369
-14.215380668640137 -19.216562271118164 0.564864933490753 0.003921568859369
-16.060770034790039 -21.637746810913086 1.587553143501282 0.003921568859369
-12.983949661254883 -17.600193023681641 2.719501972198486 0.003921568859369
-13.676050186157227 -18.375482559204102 0.541516721248627 0.003921568859369
-19.327648162841797 -21.104837417602539 0.339531987905502 0.003921568859369
-13.011874198913574 -15.842595100402832 3.790178298950195 0.003921568859369
-18.676864624023438 -20.267549514770508 -0.321484178304672 0.003921568859369
-13.685172080993652 -20.224840164184570 0.146222904324532 0.003921568859369
-13.200537681579590 -14.458353042602539 0.232925459742546 0.003921568859369
-10.823702812194824 -16.124618530273438 0.574283003807068 0.003921568859369
-15.418157577514648 -16.693695068359375 -0.265925854444504 0.003921568859369
-11.031749725341797 -16.301292419433594 0.117869429290295 0.000000000000000
-14.619752883911133 -19.324008941650391 0.572604477405548 0.003921568859369
-19.493791580200195 -20.986686706542969 0.339828193187714 0.003921568859369
-12.971022605895996 -17.207244873046875 -0.505293846130371 0.003921568859369
-14.780584335327148 -17.552507400512695 -0.673690736293793 0.003921568859369
-14.207694053649902 -15.311243057250977 -0.244839280843735 0.003921568859369
-13.104668617248535 -19.107429504394531 0.138730317354202 0.003921568859369
-14.635282516479492 -19.205284118652344 0.570623397827148 0.003921568859369
-19.453601837158203 -20.798484802246094 0.337877631187439 0.003921568859369
-10.640178680419922 -15.628040313720703 0.559280931949615 0.003921568859369
-11.929693222045898 -15.755639076232910 2.460745811462402 0.003921568859369
-10.074294090270996 -14.829469680786133 -0.738645970821381 0.003921568859369
-4.174981117248535 -4.816708564758301 -0.233102351427078 0.000000000000000
-12.985704421997070 -15.372488975524902 -0.591992914676666 0.003921568859369
-13.559295654296875 -19.603813171386719 0.142715141177177 0.003921568859369
-13.750272750854492 -17.947683334350586 0.534626424312592 0.003921568859369
-14.949841499328613 -17.621934890747070 4.266943931579590 0.003921568859369
-18.720676422119141 -19.760915756225586 -0.317687273025513 0.003921568859369
-10.722968101501465 -15.519856452941895 0.558091342449188 0.003921568859369
-13.532786369323730 -17.551067352294922 6.012060165405273 0.003921568859369
-12.605728149414062 -14.836438179016113 3.602699518203735 0.003921568859369
-19.231637954711914 -20.139934539794922 -0.324922829866409 0.003921568859369
-13.710412979125977 -17.642051696777344 2.778481960296631 0.003921568859369
-15.196504592895508 -17.654819488525391 1.927030205726624 0.003921568859369
-12.355017662048340 -15.950247764587402 5.479592323303223 0.003921568859369
-14.542646408081055 -16.798173904418945 -0.652793765068054 0.003921568859369
-15.552868843078613 -16.257692337036133 -0.263465255498886 0.003921568859369
-18.839172363281250 -19.600408554077148 0.322627156972885 0.003921568859369
-14.518399238586426 -16.653568267822266 -0.649218440055847 0.003921568859369
-18.848369598388672 -19.473480224609375 -0.316403865814209 0.003921568859369
-13.267911911010742 -18.639457702636719 0.136971578001976 0.003921568859369
-18.851194381713867 -19.476179122924805 0.321667790412903 0.003921568859369
-13.297870635986328 -18.680093765258789 0.677206575870514 0.003921568859369
-14.141294479370117 -17.921798706054688 2.838496208190918 0.003921568859369
-14.107686996459961 -19.645341873168945 0.144782766699791 0.003921568859369
-14.206891059875488 -16.198013305664062 -0.124921344220638 0.003921568859369
-19.076608657836914 -19.573619842529297 0.324339419603348 0.003921568859369
-13.374013900756836 -18.653751373291016 0.677897393703461 0.003921568859369
-15.001351356506348 -18.851959228515625 1.421369075775146 0.003921568859369
-16.401021957397461 -20.561491012573242 3.265586614608765 0.003921568859369
-12.658094406127930 -15.988159179687500 5.538604736328125 0.003921568859369
-12.874940872192383 -14.723056793212891 3.619888305664062 0.003921568859369
-14.244028091430664 -16.120073318481445 -0.632460236549377 0.003921568859369
-19.321060180664062 -19.674329757690430 -0.321909219026566 0.003921568859369
-14.387614250183105 -19.870903015136719 0.146850451827049 0.003921568859369
-13.750471115112305 -15.481670379638672 -0.609322071075439 0.003921568859369
-14.805022239685059 -15.081965446472168 -0.247929617762566 0.003921568859369
-14.665720939636230 -14.944002151489258 0.249023333191872 0.003921568859369
-15.271389961242676 -17.021703720092773 -0.671958208084106 0.003921568859369
-19.838720321655273 -19.923364639282227 -0.328243046998978 0.003921568859369
-15.660272598266602 -17.442975997924805 -0.135737031698227 0.003921568859369
-16.764127731323242 -20.569786071777344 3.295316696166992 0.003921568859369
-13.279299736022949 -14.862448692321777 1.652730345726013 0.003921568859369
-14.609367370605469 -14.681883811950684 -0.243126273155212 0.003921568859369
-13.403486251831055 -16.434503555297852 0.502003669738770 0.003921568859369
-14.222520828247070 -19.241502761840820 0.706636667251587 0.003921568859369
-16.679828643798828 -20.324382781982422 3.265527248382568 0.003921568859369
-14.119446754455566 -15.554126739501953 -0.618156552314758 0.003921568859369
-12.827065467834473 -15.638903617858887 0.479038596153259 0.003921568859369
-20.431161880493164 -20.220958709716797 0.341034829616547 0.003921568859369
-12.766035079956055 -15.565710067749023 5.471214771270752 0.003921568859369
-14.244951248168945 -15.578876495361328 -0.621178865432739 0.003921568859369
-16.564682006835938 -16.359748840332031 -0.272728830575943 0.003921568859369
-18.769157409667969 -20.379467010498047 -0.159944176673889 0.003921568859369
-13.811225891113281 -18.433244705200195 0.680514693260193 0.003921568859369
-13.655661582946777 -14.953010559082031 1.679105401039124 0.003921568859369
-14.335020065307617 -15.565237998962402 -0.622696340084076 0.003921568859369
-13.633673667907715 -14.825653076171875 1.670289874076843 0.003921568859369
-14.209707260131836 -15.325687408447266 -0.615184068679810 0.003921568859369
-19.217721939086914 -20.565868377685547 -0.162491574883461 0.003921568859369
-13.679836273193359 -14.770680427551270 1.669625759124756 0.003921568859369
-18.798458099365234 -19.987010955810547 -0.158498391509056 0.003921568859369
-20.647422790527344 -19.867277145385742 0.339926958084106 0.003921568859369
-14.167283058166504 -16.621917724609375 1.290652871131897 0.003921568859369
-15.695520401000977 -18.360078811645508 6.551577091217041 0.003921568859369
-13.623226165771484 -14.506807327270508 3.685114860534668 0.003921568859369
-19.510488510131836 -20.439512252807617 -0.828363001346588 0.003921568859369
-18.591100692749023 -19.497270584106445 -0.155721455812454 0.003921568859369
-12.910765647888184 -16.659067153930664 0.623349606990814 0.003921568859369
-15.637214660644531 -18.167184829711914 -0.562079489231110 0.003921568859369
-19.102481842041016 -19.882108688354492 -0.808582127094269 0.003921568859369
-13.461685180664062 -15.598138809204102 0.001843571080826 0.003921568859369
-18.626134872436523 -17.589565277099609 -0.299779772758484 0.003921568859369
-20.146051406860352 -20.812808990478516 -0.849004089832306 0.003921568859369
-18.168342590332031 -17.059246063232422 -0.291787624359131 0.003921568859369
-15.698642730712891 -17.994422912597656 0.564747214317322 0.003921568859369
-16.146242141723633 -18.492107391357422 6.658231735229492 0.003921568859369
-15.479518890380859 -14.497847557067871 -0.249145045876503 0.003921568859369
-13.655089378356934 -14.156619071960449 -0.114606082439423 0.000000000000000
-14.483533859252930 -14.988034248352051 1.728566169738770 0.003921568859369
-18.687360763549805 -19.076183319091797 -0.783737361431122 0.003921568859369
-19.920976638793945 -18.412233352661133 -0.317268431186676 0.003921568859369
-13.787924766540527 -15.649185180664062 2.599127769470215 0.003921568859369
-14.854771614074707 -15.253927230834961 1.765395283699036 0.003921568859369
-13.643346786499023 -15.490950584411621 -0.485407978296280 0.003921568859369
-18.762351989746094 -19.017732620239258 -0.784100949764252 0.003921568859369
-18.187494277954102 -16.727090835571289 -0.289487868547440 0.003921568859369
-14.811691284179688 -15.000619888305664 -0.620970964431763 0.003921568859369
-13.836353302001953 -15.484500885009766 0.001810079906136 0.003921568859369
-18.490587234497070 -16.880208969116211 -0.293277680873871 0.003921568859369
-16.226825714111328 -16.392023086547852 -0.133915081620216 0.003921568859369
-20.783470153808594 -18.924236297607422 0.333519786596298 0.003921568859369
-14.386691093444824 -16.080612182617188 2.687933921813965 0.003921568859369
-14.761909484863281 -14.951094627380371 1.742547273635864 0.003921568859369
-12.713392257690430 -15.745539665222168 -0.834074676036835 0.003921568859369
-14.555006980895996 -14.645586967468262 -0.608478486537933 0.003921568859369
-13.003095626831055 -15.978316307067871 0.123312793672085 0.003921568859369
-14.595455169677734 -14.684966087341309 -0.120550148189068 0.003921568859369
-15.388566970825195 -17.047748565673828 0.543510377407074 0.003921568859369
-18.438600540161133 -16.715784072875977 0.295585662126541 0.003921568859369
-13.837559700012207 -15.377116203308105 2.578591823577881 0.003921568859369
-19.549007415771484 -19.521394729614258 2.283739805221558 0.003921568859369
-13.878873825073242 -13.984327316284180 3.651271104812622 0.003921568859369
-16.156057357788086 -16.096185684204102 -0.671019732952118 0.003921568859369
-14.303344726562500 -15.767919540405273 2.652767181396484 0.003921568859369
-19.608440399169922 -19.443166732788086 2.282744646072388 0.003921568859369
-14.595746994018555 -16.081356048583984 -0.510418236255646 0.003921568859369
-18.449989318847656 -18.193046569824219 -0.761007368564606 0.003921568859369
-18.616502761840820 -18.352674484252930 2.162425279617310 0.003921568859369
-16.592853546142578 -18.089883804321289 -0.575887680053711 0.003921568859369
-18.541999816894531 -18.160694122314453 -0.762296319007874 0.003921568859369
-15.971875190734863 -17.314607620239258 1.391701817512512 0.003921568859369
-14.317468643188477 -15.569215774536133 2.636147975921631 0.003921568859369
-19.815233230590820 -19.377876281738281 2.291188001632690 0.003921568859369
-16.977397918701172 -18.375732421875000 -0.586811244487762 0.003921568859369
-18.503812789916992 -17.997930526733398 -0.758259415626526 0.003921568859369
-13.182862281799316 -15.746036529541016 0.122908569872379 0.003921568859369
-21.364917755126953 -18.776479721069336 0.337433457374573 0.003921568859369
-14.923722267150879 -16.096117019653320 1.297961473464966 0.003921568859369
-18.190687179565430 -19.517658233642578 3.316014528274536 0.003921568859369
-19.758459091186523 -19.188978195190430 2.277151823043823 0.003921568859369
-20.210269927978516 -19.617443084716797 5.196418762207031 0.003921568859369
-19.239482879638672 -20.617206573486328 -0.660422265529633 0.003921568859369
-13.009105682373047 -15.436028480529785 0.120819889008999 0.003921568859369
-19.286411285400391 -20.522136688232422 0.665275454521179 0.003921568859369
-15.040697097778320 -16.105709075927734 1.303077578544617 0.003921568859369
-16.195045471191406 -17.306030273437500 2.949949264526367 0.003921568859369
-20.355913162231445 -19.618131637573242 5.215787887573242 0.003921568859369
-16.161472320556641 -17.150863647460938 2.933340787887573 0.003921568859369
-20.461612701416016 -19.580375671386719 5.225104331970215 0.003921568859369
-19.012844085693359 -16.399896621704102 -0.294326633214951 0.003921568859369
-14.822487831115723 -17.271839141845703 0.136167928576469 0.003921568859369
-13.569133758544922 -15.853668212890625 0.617686450481415 0.003921568859369
-16.071578979492188 -16.939289093017578 2.906971216201782 0.003921568859369
-19.498968124389648 -20.455772399902344 -0.661952257156372 0.003921568859369
-19.081689834594727 -16.347167968750000 -0.294619232416153 0.003921568859369
-19.678478240966797 -20.502611160278320 0.671404719352722 0.003921568859369
-12.777659416198730 -14.860827445983887 0.580707848072052 0.003921568859369
-16.465127944946289 -17.229827880859375 -0.559701263904572 0.003921568859369
-15.617239952087402 -14.737408638000488 -0.632914781570435 0.003921568859369
-18.388051986694336 -15.655125617980957 -0.283399283885956 0.003921568859369
-13.463527679443359 -14.073567390441895 0.462017536163330 0.000000000000000
-12.830463409423828 -13.432767868041992 2.320786714553833 0.003921568859369
-19.556303024291992 -16.508111953735352 0.303899198770523 0.003921568859369
-14.292338371276855 -16.331857681274414 -0.894383966922760 0.003921568859369
-18.963409423828125 -19.500356674194336 -0.637683629989624 0.003921568859369
-18.150369644165039 -15.239318847656250 -0.278272718191147 0.003921568859369
-14.291352272033691 -16.216337203979492 0.129338502883911 0.003921568859369
-14.091118812561035 -13.151335716247559 1.601883888244629 0.000000000000000
-13.562747955322266 -13.879666328430176 2.423243045806885 0.003921568859369
-14.033123016357422 -13.007266998291016 1.590461850166321 0.000000000000000
-21.296289443969727 -17.564485549926758 -0.323305219411850 0.003921568859369
-14.827518463134766 -15.027884483337402 -0.496980577707291 0.003921568859369
-20.682189941406250 -18.714630126953125 -0.819114387035370 0.003921568859369
-19.806674957275391 -16.244821548461914 -0.300429940223694 0.003921568859369
-20.942329406738281 -18.944850921630859 -0.163632363080978 0.003921568859369
-19.447851181030273 -15.956921577453613 0.298748880624771 0.003921568859369
-15.806303977966309 -17.510761260986328 0.697605848312378 0.003921568859369
-19.865718841552734 -19.844123840332031 1.656609892845154 0.003921568859369
-14.231024742126465 -13.000988006591797 1.602172970771790 0.000000000000000
-19.803808212280273 -16.126672744750977 -0.299571633338928 0.003921568859369
-19.572271347045898 -15.942174911499023 0.299767583608627 0.003921568859369
-16.467802047729492 -14.876743316650391 1.840785741806030 0.003921568859369
-18.436792373657227 -18.320497512817383 -0.609929025173187 0.003921568859369
-19.530521392822266 -15.795421600341797 -0.294751375913620 0.003921568859369
-18.461860656738281 -16.514028549194336 -0.143973842263222 0.003921568859369
-19.549358367919922 -15.810170173645020 0.298574358224869 0.003921568859369
-19.405523300170898 -17.337486267089844 2.154045820236206 0.003921568859369
-16.570976257324219 -16.395692825317383 -0.547979354858398 0.003921568859369
-19.106838226318359 -16.963405609130859 -0.751404821872711 0.003921568859369
-19.390491485595703 -20.935123443603516 0.170563220977783 0.003921568859369
-18.392627716064453 -16.343770980834961 -0.143057510256767 0.003921568859369
-15.284648895263672 -15.056112289428711 0.508450031280518 0.003921568859369
-13.642461776733398 -14.869884490966797 0.597914934158325 0.003921568859369
-16.628910064697266 -14.813484191894531 1.847277641296387 0.003921568859369
-19.524011611938477 -15.570522308349609 -0.293125331401825 0.003921568859369
-15.496394157409668 -13.637833595275879 -0.609304487705231 0.003921568859369
-16.547096252441406 -14.535829544067383 1.827364087104797 0.003921568859369
-18.502622604370117 -16.100181579589844 -0.722030758857727 0.003921568859369
-19.688982009887695 -15.479311943054199 -0.294080018997192 0.003921568859369
-16.501276016235352 -14.298492431640625 1.812340497970581 0.003921568859369
-19.786602020263672 -17.067918777465820 4.829943180084229 0.003921568859369
-21.229591369628906 -18.156854629516602 -0.820878744125366 0.003921568859369
-20.000619888305664 -15.492839813232422 -0.297063022851944 0.003921568859369
-13.529145240783691 -14.250802040100098 0.117590464651585 0.003921568859369
-20.281221389770508 -15.705203056335449 0.304590463638306 0.003921568859369
-17.251098632812500 -14.825271606445312 1.886974096298218 0.003921568859369
-19.079107284545898 -16.240703582763672 -0.737486362457275 0.003921568859369
-18.210432052612305 -15.518420219421387 -0.139356628060341 0.003921568859369
-20.503385543823242 -17.424016952514648 2.227272748947144 0.003921568859369
-18.913665771484375 -15.989151000976562 -0.729161441326141 0.003921568859369
-20.343639373779297 -17.169353485107422 -0.154696255922318 0.003921568859369
-18.557096481323242 -17.323221206665039 3.160497188568115 0.003921568859369
-17.243490219116211 -14.609919548034668 1.875209689140320 0.003921568859369
-20.552663803100586 -17.219099044799805 -0.788494527339935 0.003921568859369
-20.052473068237305 -15.196796417236328 -0.295547097921371 0.003921568859369
-20.149507522583008 -18.643253326416016 1.620754361152649 0.003921568859369
-16.754770278930664 -14.105813026428223 1.818150877952576 0.003921568859369
-14.523360252380371 -14.947689056396484 -0.860504925251007 0.003921568859369
-18.288127899169922 -15.361892700195312 4.420628547668457 0.003921568859369
-21.471683502197266 -17.844715118408203 -0.820604145526886 0.003921568859369
-20.840002059936523 -15.665472030639648 -0.306073725223541 0.003921568859369
-20.347644805908203 -16.929298400878906 2.191689729690552 0.003921568859369
-15.539684295654297 -13.016408920288086 3.761512756347656 0.003921568859369
-20.426673889160156 -16.873489379882812 -0.779376864433289 0.003921568859369
-20.112846374511719 -15.020221710205078 -0.294935882091522 0.003921568859369
-18.664466857910156 -17.058658599853516 0.598350524902344 0.003921568859369
-21.414449691772461 -17.670848846435547 2.297609567642212 0.003921568859369
-19.075763702392578 -15.669603347778320 -0.727025270462036 0.003921568859369
-20.220205307006836 -14.988232612609863 -0.295736640691757 0.003921568859369
-17.346242904663086 -14.281533241271973 1.864719510078430 0.003921568859369
-20.203739166259766 -16.573156356811523 4.831259250640869 0.003921568859369
-15.063083648681641 -13.749009132385254 -0.481080800294876 0.003921568859369
-21.237159729003906 -15.615915298461914 -0.309491515159607 0.003921568859369
-20.683454513549805 -18.602972030639648 0.657653391361237 0.003921568859369
-19.915964126586914 -17.927371978759766 1.582691907882690 0.003921568859369
-14.323211669921875 -13.005647659301758 2.418644905090332 0.003921568859369
-20.520877838134766 -16.714164733886719 2.191638469696045 0.003921568859369
-15.118988990783691 -13.705163002014160 5.560819625854492 0.003921568859369
-18.488916397094727 -16.672119140625000 -0.585268259048462 0.003921568859369
-20.549551010131836 -15.009913444519043 -0.298997521400452 0.003921568859369
-19.487979888916016 -15.778225898742676 -0.146041199564934 0.003921568859369
-16.448205947875977 -14.771488189697266 1.309030055999756 0.003921568859369
-20.666641235351562 -16.710092544555664 2.200747489929199 0.003921568859369
-20.226640701293945 -14.670386314392090 -0.293712526559830 0.003921568859369
-19.438512802124023 -17.262500762939453 0.615037918090820 0.003921568859369
-15.345153808593750 -15.125549316406250 0.638316929340363 0.003921568859369
-20.097936630249023 -17.834430694580078 1.587086200714111 0.003921568859369
-21.259788513183594 -18.842067718505859 3.532731771469116 0.003921568859369
-20.615108489990234 -16.550065994262695 2.189321756362915 0.003921568859369
-22.136716842651367 -17.623804092407227 -0.831952989101410 0.003921568859369
-19.583492279052734 -15.520568847656250 -0.736144244670868 0.003921568859369
-20.754619598388672 -14.827928543090820 -0.299833357334137 0.003921568859369
-17.504461288452148 -15.370968818664551 2.905128955841064 0.003921568859369
-20.663557052612305 -16.356052398681641 2.183093547821045 0.003921568859369
-15.208191871643066 -13.405888557434082 5.527621746063232 0.003921568859369
-19.058330535888672 -15.112744331359863 4.503067970275879 0.003921568859369
-20.041067123413086 -17.541870117187500 -0.625766813755035 0.003921568859369
-20.474332809448242 -14.523389816284180 0.298129528760910 0.003921568859369
-20.824710845947266 -18.083408355712891 1.628988385200500 0.003921568859369
-17.027608871459961 -14.856808662414551 6.151148319244385 0.003921568859369
-22.226448059082031 -19.274694442749023 -0.690277695655823 0.003921568859369
-19.481578826904297 -15.220143318176270 -0.728529691696167 0.003921568859369
-20.389596939086914 -15.912903785705566 -0.150677427649498 0.003921568859369
-22.718990325927734 -15.960802078247070 0.329420953989029 0.003921568859369
-21.052803039550781 -18.147800445556641 3.458483219146729 0.003921568859369
-15.847791671752930 -13.756960868835449 5.719214439392090 0.003921568859369
-21.217617034912109 -18.287803649902344 -0.657725155353546 0.003921568859369
-19.611070632934570 -15.208377838134766 -0.731327474117279 0.003921568859369
-15.970354080200195 -13.764062881469727 -0.997175216674805 0.003921568859369
-20.291172027587891 -17.381795883178711 3.326219797134399 0.003921568859369
-15.652185440063477 -14.895933151245117 -0.892452776432037 0.003921568859369
-19.095449447631836 -16.381294250488281 -0.591765463352203 0.003921568859369
-20.197671890258789 -15.539562225341797 -0.750696778297424 0.003921568859369
-20.893383026123047 -14.485323905944824 -0.298981338739395 0.003921568859369
-20.807201385498047 -17.688426971435547 1.613319039344788 0.003921568859369
-17.656280517578125 -15.067824363708496 2.895308971405029 0.003921568859369
-15.696872711181641 -13.437726020812988 5.633217334747314 0.003921568859369
-20.465679168701172 -15.739816665649414 4.776539802551270 0.003921568859369
-18.036403656005859 -15.384758949279785 -0.558190584182739 0.003921568859369
-19.611030578613281 -14.988918304443359 -0.727536618709564 0.003921568859369
-21.212574005126953 -14.591601371765137 -0.302735298871994 0.003921568859369
-23.269744873046875 -15.976255416870117 0.334815531969070 0.003921568859369
-15.322093963623047 -14.387415885925293 0.623141050338745 0.003921568859369
-20.384466171264648 -17.213726043701172 3.321793317794800 0.003921568859369
-15.636659622192383 -14.571677207946777 0.127781271934509 0.003921568859369
-20.066675186157227 -15.217657089233398 -0.146898105740547 0.003921568859369
-22.726730346679688 -15.493362426757812 0.326336085796356 0.003921568859369
-20.230472564697266 -15.337916374206543 4.698249340057373 0.003921568859369
-20.747219085693359 -14.064158439636230 -0.294928669929504 0.003921568859369
-20.229209899902344 -15.226500511169434 -0.147689595818520 0.003921568859369
-20.900569915771484 -14.165699005126953 0.299810916185379 0.003921568859369
-17.367921829223633 -14.515235900878906 1.340582728385925 0.003921568859369
-20.162370681762695 -16.789556503295898 3.267592430114746 0.003921568859369
-18.205804824829102 -15.197755813598633 -0.558514773845673 0.003921568859369
-20.207944869995117 -15.099909782409668 -0.147182837128639 0.003921568859369
-19.668149948120117 -16.270753860473633 3.180227279663086 0.003921568859369
-18.146778106689453 -15.041999816894531 -0.555198609828949 0.003921568859369
-21.184892654418945 -14.148421287536621 0.302455872297287 0.003921568859369
-22.427783966064453 -18.382534027099609 3.607190847396851 0.003921568859369
-16.036260604858398 -14.632487297058105 -0.896915316581726 0.003921568859369
-21.476352691650391 -15.798695564270020 -0.785106003284454 0.003921568859369
-21.666173934936523 -14.347629547119141 -0.305638819932938 0.003921568859369
-20.501758575439453 -15.096757888793945 -0.148560658097267 0.003921568859369
-20.178937911987305 -16.452554702758789 3.243142604827881 0.003921568859369
-16.092781066894531 -14.574553489685059 -0.897092163562775 0.003921568859369
-17.326078414916992 -14.177981376647949 6.097156524658203 0.003921568859369
-21.534446716308594 -15.728847503662109 -0.785471439361572 0.003921568859369
-20.818384170532227 -18.608388900756836 0.166713654994965 0.003921568859369
-20.448322296142578 -16.553998947143555 0.622676968574524 0.003921568859369
-15.823578834533691 -12.893013000488281 5.568905830383301 0.003921568859369
-18.231149673461914 -16.237825393676758 0.145843297243118 0.003921568859369
-21.173488616943359 -13.823922157287598 0.300288647413254 0.003921568859369
-21.207969665527344 -17.038309097290039 1.607817411422729 0.003921568859369
-19.943544387817383 -16.044126510620117 3.189920902252197 0.003921568859369
-15.584364891052246 -13.939969062805176 -0.864822030067444 0.003921568859369
-17.482322692871094 -14.108970642089844 6.119914054870605 0.003921568859369
-21.010215759277344 -15.245435714721680 4.804400920867920 0.003921568859369
-21.244907379150391 -15.293957710266113 -0.771367192268372 0.003921568859369
-20.637409210205078 -16.465074539184570 1.560956120491028 0.003921568859369
-20.537515640258789 -16.386743545532227 3.273345470428467 0.003921568859369
-4.979178428649902 -3.837946176528931 0.543532133102417 0.000000000000000
-21.072383880615234 -15.171132087707520 4.805817604064941 0.003921568859369
-19.759332656860352 -15.780632972717285 -0.595262229442596 0.003921568859369
-21.364271163940430 -16.915899276733398 1.610577702522278 0.003921568859369
-20.830265045166016 -16.501777648925781 3.310413837432861 0.003921568859369
-15.905955314636230 -14.019887924194336 -0.876859486103058 0.003921568859369
-21.041959762573242 -15.043239593505859 4.787852764129639 0.003921568859369
-19.564971923828125 -15.522430419921875 -0.588058233261108 0.003921568859369
-24.771339416503906 -15.752314567565918 -0.344728648662567 0.003921568859369
-22.253593444824219 -14.180948257446289 0.313200175762177 0.003921568859369
-20.604518890380859 -16.209478378295898 3.266479730606079 0.003921568859369
-21.197793960571289 -15.039849281311035 4.810808658599854 0.003921568859369
-19.520776748657227 -15.376811981201172 -0.585205376148224 0.003921568859369
-20.394523620605469 -14.381284713745117 -0.736065030097961 0.003921568859369
-24.371208190917969 -15.388390541076660 -0.338609546422958 0.003921568859369
-15.775034904479980 -13.717284202575684 -0.864875376224518 0.003921568859369
-23.349689483642578 -14.629341125488281 -0.323999464511871 0.003921568859369
-21.735683441162109 -16.827970504760742 3.423077106475830 0.003921568859369
-21.200908660888672 -14.813354492187500 4.787798404693604 0.003921568859369
-20.054180145263672 -15.554609298706055 -0.597551524639130 0.003921568859369
-19.046506881713867 -16.235773086547852 0.149431049823761 0.003921568859369
-21.170457839965820 -16.281431198120117 1.579044461250305 0.003921568859369
-22.181348800659180 -17.041536331176758 3.482589006423950 0.003921568859369
-21.216674804687500 -14.713308334350586 4.779883861541748 0.003921568859369
-21.725280761718750 -16.699388504028320 -0.644411027431488 0.003921568859369
-23.423860549926758 -14.446130752563477 -0.323669344186783 0.003921568859369
-20.637104034423828 -14.213906288146973 -0.146505370736122 0.003921568859369
-22.091196060180664 -16.850711822509766 3.459636688232422 0.003921568859369
-20.175085067749023 -15.420513153076172 -0.597955942153931 0.003921568859369
-21.249750137329102 -14.516665458679199 -0.758857667446136 0.003921568859369
-24.245889663696289 -14.825555801391602 -0.334076702594757 0.003921568859369
-22.728490829467773 -15.504829406738281 -0.160529553890228 0.003921568859369
-23.748550415039062 -14.527082443237305 0.330199182033539 0.003921568859369
-20.408672332763672 -15.481733322143555 -0.603157520294189 0.003921568859369
-24.318117141723633 -14.751458168029785 -0.334374010562897 0.003921568859369
-20.992488861083984 -14.236444473266602 -0.148296996951103 0.003921568859369
-23.871295928955078 -14.485404968261719 0.331165432929993 0.003921568859369
-22.278635025024414 -16.744564056396484 3.470333576202393 0.003921568859369
-20.198505401611328 -15.214365959167480 -0.595583140850067 0.003921568859369
-24.364337921142578 -14.673506736755371 -0.334392309188843 0.003921568859369
-23.913242340087891 -14.406824111938477 0.331100493669510 0.003921568859369
-23.227411270141602 -17.328838348388672 1.711797356605530 0.003921568859369
-22.225374221801758 -16.595676422119141 3.454214811325073 0.003921568859369
-21.417943954467773 -16.006206512451172 -0.629206776618958 0.003921568859369
-22.377988815307617 -14.931191444396973 -0.792995810508728 0.003921568859369
