# This PCD file was generated using the MATLAB® pcwrite function
# from Computer Vision Toolbox®.
# .PCD v.7 - Point Cloud Data file format
VERSION .7
FIELDS x y z intensity
SIZE 8 8 8 8
TYPE F F F F
COUNT 1 1 1 1
WIDTH 647
HEIGHT 1
VIEWPOINT 0 0 0 1 0 0 0
POINTS 647
DATA ascii
-9.661790847778320 3.776828289031982 -0.685368418693542 0.000000000000000
-13.860054969787598 5.491106033325195 3.916688203811646 0.000000000000000
-1.739962577819824 0.484281629323959 -0.052230723202229 0.003921568859369
-10.872561454772949 3.852350950241089 -0.439583659172058 0.000000000000000
-11.761359214782715 4.272065162658691 0.370055496692657 0.000000000000000
-2.634224414825439 0.990106225013733 0.006870968267322 0.000000000000000
-2.502668380737305 0.941430151462555 0.006733508780599 0.000000000000000
-4.537715435028076 2.113518714904785 -0.126803770661354 0.000000000000000
-8.873594284057617 3.916070699691772 -0.993472397327423 0.000000000000000
-7.260183334350586 3.590610265731812 1.425633907318115 0.000000000000000
-8.846138000488281 3.937474966049194 -0.991795241832733 0.000000000000000
-7.931734085083008 3.972597837448120 0.708313167095184 0.000000000000000
-8.706337928771973 3.875063419342041 2.472878932952881 0.000000000000000
-8.821539878845215 3.961905002593994 -0.990543842315674 0.000000000000000
-13.046443939208984 5.266233921051025 0.416549921035767 0.000000000000000
-7.991848468780518 3.676017045974731 0.504394352436066 0.000000000000000
-7.711204051971436 3.287766695022583 -0.128391668200493 0.000000000000000
-12.494905471801758 5.535106658935547 0.094045117497444 0.000000000000000
-8.295684814453125 4.311538219451904 0.012020193040371 0.003921568859369
-7.095300674438477 3.688782930374146 0.010864007286727 0.000000000000000
-14.918184280395508 8.180654525756836 0.018290020525455 0.003921568859369
-5.054417610168457 2.339480638504028 -0.326422363519669 0.000000000000000
-5.740425586700439 3.509721279144287 0.121293522417545 0.000000000000000
-10.634501457214355 5.401208400726318 -0.188501283526421 0.000000000000000
-7.329899787902832 4.449125766754150 0.492123425006866 0.000000000000000
-4.570708274841309 2.793058156967163 0.628585100173950 0.000000000000000
-2.872713804244995 1.505799651145935 -0.181205987930298 0.000000000000000
-7.361333370208740 5.542364597320557 1.639415860176086 0.000000000000000
-11.418410301208496 8.879795074462891 2.600550889968872 0.000000000000000
-7.320026397705078 5.126173973083496 1.072309255599976 0.000000000000000
-6.794206142425537 5.474904537200928 0.699874758720398 0.000000000000000
-7.516368865966797 5.628670692443848 0.540867447853088 0.000000000000000
-7.358764171600342 6.252738475799561 0.392426401376724 0.000000000000000
-9.408798217773438 7.373249053955078 0.691846728324890 0.000000000000000
-6.902788639068604 6.062856197357178 1.638379216194153 0.000000000000000
-7.961482524871826 5.852684497833252 -0.157655313611031 0.000000000000000
-8.820509910583496 7.407078742980957 3.028356790542603 0.000000000000000
-5.720458030700684 5.255926132202148 0.622179567813873 0.000000000000000
-7.197460174560547 6.337837219238281 0.553169667720795 0.000000000000000
-17.523637771606445 14.480993270874023 0.670938849449158 0.003921568859369
-3.088151216506958 2.846333503723145 0.728466629981995 0.000000000000000
-6.124254703521729 5.499597072601318 0.988984167575836 0.000000000000000
-4.916855812072754 4.833479404449463 0.278628706932068 0.000000000000000
-6.232273578643799 6.347959518432617 0.715595006942749 0.000000000000000
-3.867578029632568 3.837944030761719 0.097480267286301 0.000000000000000
-4.621592521667480 4.371174335479736 0.363848626613617 0.000000000000000
-5.814092159271240 6.160486221313477 1.512051105499268 0.000000000000000
-5.962028026580811 6.418390274047852 1.565212130546570 0.000000000000000
-3.975221633911133 4.273536682128906 -0.288258284330368 0.000000000000000
-6.929697513580322 7.848215579986572 1.879037380218506 0.000000000000000
-6.792548656463623 7.016750812530518 0.564009368419647 0.000000000000000
-5.978539466857910 6.217576026916504 1.039916157722473 0.000000000000000
-14.439274787902832 16.298316955566406 2.660416364669800 0.003921568859369
-5.102971076965332 5.607686042785645 0.912337779998779 0.000000000000000
-2.815824985504150 2.973606824874878 0.005277600605041 0.000000000000000
-6.518598079681396 8.504101753234863 0.866607964038849 0.000000000000000
-8.644491195678711 12.031586647033691 0.604183554649353 0.000000000000000
-12.192097663879395 17.799512863159180 1.756641387939453 0.003921568859369
-5.579394817352295 8.873673439025879 0.126109778881073 0.000000000000000
-7.509822845458984 10.874346733093262 0.538540303707123 0.000000000000000
-3.244878053665161 4.621408939361572 1.004347801208496 0.000000000000000
-2.968765974044800 4.219283103942871 -0.140557259321213 0.000000000000000
-5.779503822326660 9.673812866210938 0.135131284594536 0.000000000000000
-2.626391649246216 3.335222482681274 0.004728876985610 0.000000000000000
-8.763689041137695 13.589876174926758 2.926560401916504 0.003921568859369
-11.295778274536133 18.655307769775391 1.775824427604675 0.003921568859369
-7.881659507751465 11.808608055114746 1.730360984802246 0.000000000000000
-4.412628650665283 7.158315658569336 0.679382145404816 0.000000000000000
-7.263566017150879 12.404407501220703 -0.408162564039230 0.000000000000000
-1.527045965194702 1.969792604446411 0.627288162708282 0.000000000000000
-6.087354660034180 11.697541236877441 -0.146794587373734 0.000000000000000
-4.742636680603027 8.984704971313477 0.121550291776657 0.000000000000000
-2.900986194610596 4.680699825286865 0.981656193733215 0.000000000000000
-2.309717178344727 3.008787631988525 -0.059031967073679 0.000000000000000
-5.036983489990234 7.057445049285889 -0.341277360916138 0.000000000000000
-9.437698364257812 13.695152282714844 0.486546248197556 0.003921568859369
-5.502867698669434 8.699728012084961 -0.230753377079964 0.000000000000000
-3.711681365966797 6.515628814697266 1.346868872642517 0.000000000000000
-8.547533035278320 14.221204757690430 0.006283245980740 0.003921568859369
-10.384535789489746 17.384181976318359 1.177829027175903 0.003921568859369
-3.818739652633667 6.136349201202393 1.902320265769958 0.000000000000000
-2.478805065155029 4.353793621063232 -0.024276377633214 0.000000000000000
-4.002301692962646 7.376029968261719 0.678824007511139 0.000000000000000
-6.888670444488525 10.587170600891113 0.369091838598251 0.000000000000000
-5.297972202301025 9.057775497436523 0.245975330471992 0.000000000000000
-3.607287883758545 7.692074298858643 0.101627737283707 0.000000000000000
-5.974764823913574 10.383050918579102 0.694808840751648 0.000000000000000
-3.859024763107300 8.455868721008301 -0.102993167936802 0.000000000000000
-10.719885826110840 17.135879516601562 0.590960919857025 0.003921568859369
-4.575973510742188 8.996983528137207 1.822413802146912 0.000000000000000
-5.288551807403564 9.442853927612305 2.869374513626099 0.000000000000000
-3.521557569503784 7.963738441467285 0.103900499641895 0.000000000000000
-5.628353595733643 11.814439773559570 0.230795636773109 0.000000000000000
-6.986810684204102 14.950997352600098 -0.090617597103119 0.000000000000000
-1.812381625175476 3.422702312469482 0.069141767919064 0.000000000000000
-3.439812421798706 7.182194709777832 -0.041682392358780 0.000000000000000
-8.526251792907715 16.496931076049805 1.079588413238525 0.000000000000000
-10.864908218383789 21.373476028442383 1.394933938980103 0.003921568859369
-3.410597801208496 5.673908710479736 0.192891642451286 0.000000000000000
-3.511883735656738 7.652479171752930 1.519022107124329 0.000000000000000
-5.150707244873047 9.115007400512695 0.305471032857895 0.000000000000000
-3.744235038757324 7.328299045562744 0.476293116807938 0.000000000000000
-4.230130672454834 9.529253959655762 0.424187511205673 0.000000000000000
-2.937951564788818 6.482819080352783 -0.363809973001480 0.000000000000000
-3.134040355682373 7.097515106201172 0.315393269062042 0.000000000000000
-1.998848915100098 5.085804462432861 0.065785661339760 0.000000000000000
-5.820300102233887 10.902584075927734 -0.208953499794006 0.000000000000000
-3.621386528015137 9.971126556396484 0.125656843185425 0.000000000000000
-4.694235324859619 11.438863754272461 1.004880428314209 0.000000000000000
-3.261130094528198 7.819665908813477 0.149522721767426 0.000000000000000
-3.472550630569458 7.354112625122070 0.003613567212597 0.003921568859369
-6.301160812377930 18.827400207519531 -0.687743663787842 0.003921568859369
-2.444070577621460 5.871913433074951 -0.033154051750898 0.000000000000000
-1.234313488006592 1.994144678115845 -0.086995601654053 0.000000000000000
-2.427702665328979 5.890755653381348 -0.033240452408791 0.000000000000000
-1.544983983039856 3.023901462554932 -0.149660035967827 0.000000000000000
-4.556005477905273 10.223182678222656 0.003658724483103 0.003921568859369
-3.799827814102173 9.835227966308594 -0.057533718645573 0.000000000000000
-2.607708215713501 6.592499732971191 -0.200448989868164 0.000000000000000
-6.380777835845947 14.857759475708008 0.003785534529015 0.003921568859369
-5.587111473083496 11.325631141662598 0.368333548307419 0.000000000000000
-5.463133335113525 11.060400962829590 -0.493833065032959 0.000000000000000
-4.433761596679688 10.335265159606934 0.652605950832367 0.000000000000000
-1.987822294235229 3.771659612655640 -0.068930640816689 0.000000000000000
-3.595962524414062 7.370417594909668 0.050577268004417 0.000000000000000
-4.142199516296387 9.927609443664551 0.251356720924377 0.000000000000000
-3.384653329849243 8.075130462646484 0.003221182851121 0.003921568859369
-2.857929229736328 7.832340717315674 0.339158236980438 0.000000000000000
-5.723667621612549 14.259575843811035 0.358648121356964 0.000000000000000
-4.579745769500732 11.401547431945801 3.270541906356812 0.000000000000000
-4.011441230773926 8.852195739746094 0.059347845613956 0.000000000000000
-4.149209976196289 9.176020622253418 -0.402621775865555 0.000000000000000
-1.600545883178711 3.201051235198975 0.023394880816340 0.000000000000000
-2.098433017730713 5.065950393676758 0.128524139523506 0.000000000000000
-5.264328479766846 11.921215057373047 0.379869222640991 0.000000000000000
-3.752808332443237 9.619119644165039 2.745533227920532 0.000000000000000
-4.608316421508789 14.075756072998047 2.688778877258301 0.000000000000000
-6.539646148681641 15.102482795715332 -0.281886786222458 0.003921568859369
-2.288916349411011 5.651348114013672 0.352837800979614 0.000000000000000
-4.362136363983154 13.608026504516602 -0.411170065402985 0.000000000000000
-2.660523653030396 5.895569324493408 -0.107866816222668 0.000000000000000
-1.665153622627258 3.455697298049927 0.024886332452297 0.000000000000000
-2.309346914291382 6.060610771179199 0.375648975372314 0.000000000000000
-3.587282896041870 9.817220687866211 -0.238508597016335 0.000000000000000
-2.057101964950562 4.712958335876465 -0.202623054385185 0.000000000000000
-2.539231300354004 8.437783241271973 0.716148912906647 0.000000000000000
-4.643392562866211 11.697695732116699 0.075639471411705 0.000000000000000
-1.130264878273010 3.292142152786255 -0.017042363062501 0.000000000000000
-4.088090419769287 10.440422058105469 0.067608259618282 0.000000000000000
-5.354628086090088 16.312986373901367 4.582396984100342 0.003921568859369
-3.118231296539307 11.029295921325684 2.079967498779297 0.000000000000000
-2.081505537033081 5.032752037048340 0.034094989299774 0.000000000000000
-1.131739377975464 3.436489105224609 -0.017891243100166 0.000000000000000
-4.110800743103027 12.627695083618164 1.623773574829102 0.000000000000000
-3.758877277374268 9.871953010559082 0.307715713977814 0.000000000000000
-3.426133871078491 10.543165206909180 1.354611992835999 0.000000000000000
-1.973017692565918 6.941743373870850 1.306674361228943 0.000000000000000
-2.590204000473022 6.824374198913574 0.212764844298363 0.000000000000000
-3.958709001541138 15.833486557006836 -0.093142494559288 0.000000000000000
-3.834935903549194 12.698056221008301 0.309152960777283 0.000000000000000
-3.226941823959351 9.292356491088867 0.286570787429810 0.000000000000000
-2.582005500793457 7.376696586608887 -0.132492646574974 0.000000000000000
-1.265338301658630 3.930649757385254 0.501282393932343 0.000000000000000
-2.030134677886963 5.941969394683838 -0.105871751904488 0.000000000000000
-3.247773647308350 12.455333709716797 0.747906625270844 0.000000000000000
-2.378846883773804 7.379840373992920 0.225985229015350 0.000000000000000
-3.566254854202271 11.610633850097656 0.353568196296692 0.000000000000000
-2.241006374359131 8.977828025817871 1.131346106529236 0.000000000000000
-2.296655893325806 11.944046974182129 2.210994243621826 0.000000000000000
-1.949882149696350 10.366353034973145 1.917000174522400 0.000000000000000
-2.637411355972290 9.369884490966797 -0.166979625821114 0.000000000000000
-1.171995997428894 4.590893745422363 0.111231192946434 0.000000000000000
-1.200545430183411 3.781897783279419 -0.156698092818260 0.000000000000000
-2.477603912353516 12.256333351135254 3.339864015579224 0.000000000000000
-0.475497961044312 3.619015216827393 -0.040322374552488 0.000000000000000
-1.838501691818237 7.734304428100586 -0.320208132266998 0.000000000000000
-2.737332344055176 17.439613342285156 -0.000098912976682 0.003921568859369
-1.880499720573425 8.842062950134277 0.263279616832733 0.000000000000000
-0.792237997055054 7.477759361267090 -0.042497560381889 0.000000000000000
-0.637054681777954 3.429309606552124 0.082358375191689 0.000000000000000
-0.745459437370300 4.577477931976318 0.001749443938024 0.000000000000000
-0.855241358280182 11.368455886840820 0.929717719554901 0.000000000000000
-1.045294880867004 8.451854705810547 1.043714284896851 0.000000000000000
-0.611302614212036 4.978509902954102 0.117722563445568 0.000000000000000
-0.948011279106140 10.514146804809570 0.000387477921322 0.003921568859369
-0.241220474243164 8.657778739929199 1.578899145126343 0.000000000000000
-0.022886276245117 17.979692459106445 3.276291131973267 0.003921568859369
-0.011535584926605 8.927932739257812 2.392685174942017 0.000000000000000
0.562170386314392 7.181408882141113 0.589647650718689 0.000000000000000
0.372841626405716 4.168294429779053 0.172236278653145 0.000000000000000
3.959699630737305 28.199756622314453 7.630459308624268 0.003921568859369
4.060719013214111 28.169149398803711 7.626285552978516 0.003921568859369
4.394742965698242 28.398763656616211 7.700644969940186 0.003921568859369
2.704698324203491 12.120227813720703 2.269077539443970 0.000000000000000
3.091636896133423 12.945289611816406 2.431626558303833 0.000000000000000
1.647801876068115 8.409527778625488 2.303958415985107 0.000000000000000
2.157705545425415 7.814079284667969 1.485278010368347 0.000000000000000
5.003328800201416 19.911638259887695 5.506750106811523 0.003921568859369
3.221614837646484 10.682453155517578 1.373659729957581 0.000000000000000
6.940741539001465 4.229847431182861 1.487093091011047 0.000000000000000
7.830335617065430 4.435362815856934 1.644937872886658 0.000000000000000
7.254923820495605 3.880730390548706 1.504362344741821 0.000000000000000
6.957233905792236 3.594114542007446 -0.411479145288467 0.000000000000000
3.308190107345581 1.686091303825378 0.304690778255463 0.000000000000000
6.673175811767578 3.359590768814087 -0.392621099948883 0.000000000000000
3.626366138458252 2.009316682815552 0.000040910774260 0.000000000000000
8.276213645935059 4.271652221679688 -0.434536755084991 0.000000000000000
6.820348262786865 3.081585884094238 -0.218243196606636 0.000000000000000
3.019044160842896 1.536756753921509 0.000050903559895 0.000000000000000
8.818194389343262 4.203801631927490 2.619182825088501 0.000000000000000
12.870866775512695 5.972356319427490 3.803476095199585 0.000000000000000
5.136951446533203 1.859552264213562 0.095359951257706 0.000000000000000
7.031545639038086 3.323796272277832 -0.316865503787994 0.000000000000000
9.780712127685547 2.858229398727417 -0.355835258960724 0.000000000000000
9.654664039611816 3.228535652160645 1.856109023094177 0.000000000000000
10.154013633728027 3.279289960861206 -0.061909113079309 0.000000000000000
4.970192909240723 1.489004850387573 -0.150811016559601 0.000000000000000
8.322682380676270 2.400141239166260 0.706608891487122 0.000000000000000
19.120607376098633 6.473142623901367 5.407447338104248 0.003921568859369
8.231361389160156 2.311698913574219 1.557676911354065 0.000000000000000
6.841773509979248 1.896004676818848 -0.371338933706284 0.000000000000000
8.298892974853516 2.083968162536621 1.557710766792297 0.000000000000000
9.867888450622559 2.440297842025757 -0.295330762863159 0.000000000000000
20.254579544067383 5.012453079223633 3.802290916442871 0.003921568859369
6.219444274902344 1.422939062118530 -0.036944147199392 0.000000000000000
12.321511268615723 3.932467460632324 -0.225117444992065 0.000000000000000
3.739375114440918 1.188786983489990 -0.250267893075943 0.000000000000000
8.715979576110840 2.746374130249023 -0.159022137522697 0.000000000000000
7.340960502624512 1.546432971954346 -0.392042100429535 0.000000000000000
13.332972526550293 4.204679489135742 -0.568423271179199 0.000000000000000
10.569540023803711 3.291380405426025 -0.192663297057152 0.000000000000000
16.503309249877930 3.421988010406494 0.686246931552887 0.003921568859369
8.930839538574219 2.242793798446655 0.000132924295031 0.003921568859369
6.988926410675049 1.145942807197571 0.123189471662045 0.000000000000000
12.678702354431152 3.330344915390015 -0.227963447570801 0.000000000000000
11.324520111083984 2.931703805923462 0.339970022439957 0.000000000000000
11.100942611694336 2.062549829483032 0.655899643898010 0.000000000000000
8.614535331726074 1.168820977210999 0.707037150859833 0.000000000000000
2.932065010070801 0.677292108535767 -0.052120089530945 0.000000000000000
6.571069240570068 1.194647312164307 0.387011080980301 0.000000000000000
8.308606147766113 1.482400417327881 0.489675462245941 0.000000000000000
6.471578598022461 1.457429170608521 0.038406495004892 0.000000000000000
9.511241912841797 1.629649043083191 1.180886387825012 0.000000000000000
12.028904914855957 2.627856969833374 0.357753276824951 0.000000000000000
7.897463798522949 1.722691535949707 -0.327800422906876 0.000000000000000
8.465526580810547 1.816310048103333 0.251165628433228 0.000000000000000
3.754606008529663 0.599652171134949 -0.000143451121403 0.000000000000000
7.974468708038330 1.279938936233521 0.468483716249466 0.000000000000000
11.049766540527344 2.292710304260254 0.327777773141861 0.000000000000000
7.465267181396484 0.435976803302765 -0.433444529771805 0.000000000000000
14.663938522338867 2.252516746520996 0.862244784832001 0.000000000000000
11.099876403808594 2.221179962158203 0.328657329082489 0.000000000000000
24.997781753540039 3.755442142486572 -0.585880219936371 0.003921568859369
9.552479743957520 0.925416767597198 -0.055326055735350 0.000000000000000
16.799934387207031 0.807228207588196 -0.585235953330994 0.003921568859369
9.061450958251953 0.877526640892029 1.652524590492249 0.000000000000000
8.026239395141602 1.144506335258484 0.469895958900452 0.000000000000000
4.621459484100342 0.837830007076263 0.026958933100104 0.000000000000000
7.856297492980957 0.651682496070862 0.640263378620148 0.000000000000000
11.201812744140625 0.891553521156311 -0.064756996929646 0.000000000000000
16.819826126098633 1.991052269935608 0.000740719900932 0.003921568859369
11.677410125732422 0.807016909122467 -0.067453190684319 0.000000000000000
7.117985725402832 0.839713275432587 -0.165765017271042 0.000000000000000
10.153898239135742 1.594583630561829 -0.178226575255394 0.000000000000000
9.935945510864258 1.033465027809143 -0.231043845415115 0.000000000000000
6.311183452606201 0.324515908956528 0.511908292770386 0.000000000000000
6.082645416259766 0.887462317943573 -0.106467433273792 0.000000000000000
8.524287223815918 0.826032280921936 1.045804262161255 0.000000000000000
6.228225708007812 0.886846959590912 -0.108970023691654 0.000000000000000
13.275272369384766 1.898222565650940 0.389480829238892 0.000000000000000
11.278485298156738 1.017466187477112 0.000381302204914 0.003921568859369
8.026689529418945 0.331184178590775 -0.418389827013016 0.000000000000000
15.896777153015137 0.602508962154388 -0.091493114829063 0.000000000000000
7.672540664672852 0.289825618267059 -0.399787396192551 0.000000000000000
2.451401710510254 0.311025768518448 0.070196226239204 0.000000000000000
17.973512649536133 1.371993660926819 1.047865509986877 0.000000000000000
7.638799667358398 0.901071012020111 0.222373649477959 0.000000000000000
17.176918029785156 1.190193533897400 1.000468969345093 0.000000000000000
12.344392776489258 0.166566714644432 0.214970186352730 0.000000000000000
13.287056922912598 0.826989173889160 0.772671461105347 0.000000000000000
6.325931549072266 0.084902875125408 0.511881947517395 0.000000000000000
6.345722675323486 0.680708408355713 -0.110445015132427 0.000000000000000
12.718929290771484 0.083249509334564 -0.073133476078510 0.000000000000000
12.068603515625000 1.257648110389709 0.352053940296173 0.000000000000000
13.339996337890625 1.297098278999329 0.078210815787315 0.000000000000000
18.950864791870117 0.790897428989410 0.001053230371326 0.003921568859369
7.452746868133545 0.672726273536682 0.043256111443043 0.000000000000000
10.655236244201660 0.443603098392487 0.247198864817619 0.000000000000000
6.600418567657471 0.273809969425201 0.804314851760864 0.000000000000000
9.479572296142578 0.822240948677063 0.275580674409866 0.000000000000000
13.219337463378906 1.102339744567871 -0.229975998401642 0.000000000000000
7.340832233428955 0.558234155178070 0.042500395327806 0.000000000000000
18.758890151977539 0.517285466194153 5.012910842895508 0.003921568859369
14.107358932495117 -0.297841399908066 2.562004804611206 0.000000000000000
18.901844024658203 0.133513182401657 1.098311185836792 0.000000000000000
10.489022254943848 -0.436102151870728 1.903008818626404 0.000000000000000
4.496565341949463 0.232811287045479 -0.181130230426788 0.000000000000000
11.291573524475098 0.550454378128052 -0.457595825195312 0.000000000000000
12.520498275756836 -0.129193782806396 0.726061463356018 0.000000000000000
9.055084228515625 -0.128023892641068 2.408232688903809 0.000000000000000
6.292297363281250 -0.458603590726852 -0.036412246525288 0.000000000000000
18.891725540161133 0.455343216657639 0.549220681190491 0.003921568859369
6.229736804962158 -0.152136817574501 -0.143510729074478 0.000000000000000
11.863273620605469 -0.906575977802277 2.157112598419189 0.000000000000000
11.218983650207520 0.115952558815479 -0.194195672869682 0.000000000000000
16.358722686767578 -0.055142745375633 -0.283386230468750 0.003921568859369
4.336570262908936 -0.223433166742325 1.144693493843079 0.000000000000000
11.997764587402344 -0.123709224164486 -0.207567065954208 0.000000000000000
12.133086204528809 -0.501995384693146 -0.772872269153595 0.000000000000000
15.554630279541016 -1.459183216094971 1.909733057022095 0.000000000000000
6.833577632904053 -0.328417330980301 -0.275433331727982 0.000000000000000
3.621594190597534 -0.197018802165985 0.020125498995185 0.000000000000000
10.081437110900879 -1.545469999313354 1.844775676727295 0.000000000000000
13.356044769287109 -2.960735321044922 -0.157961517572403 0.000000000000000
13.260996818542480 -3.036262989044189 -0.157099217176437 0.000000000000000
13.875442504882812 -2.475821256637573 2.555419921875000 0.000000000000000
12.861333847045898 -2.477222681045532 2.372367620468140 0.000000000000000
8.984418869018555 -0.868242561817169 -0.363973408937454 0.000000000000000
2.666179180145264 -0.555053353309631 0.214433088898659 0.000000000000000
26.647294998168945 -4.857719898223877 7.234474182128906 0.003921568859369
20.828485488891602 -4.017356872558594 2.594218969345093 0.003921568859369
12.154630661010742 -3.039390563964844 2.267449378967285 0.000000000000000
13.152437210083008 -2.719617128372192 1.637860894203186 0.000000000000000
4.934660911560059 -1.292450070381165 0.408239841461182 0.000000000000000
5.759751796722412 -1.555287837982178 0.478940933942795 0.000000000000000
14.003129005432129 -2.640427112579346 0.082818090915680 0.000000000000000
19.940500259399414 -4.923471927642822 5.477705478668213 0.003921568859369
22.805765151977539 -5.722275733947754 2.876045703887939 0.003921568859369
4.940975666046143 -1.812960743904114 -0.482850372791290 0.000000000000000
3.082417249679565 -0.641226291656494 0.087936691939831 0.000000000000000
9.562587738037109 -2.101772308349609 -0.169005557894707 0.000000000000000
14.305371284484863 -5.312479496002197 1.236872553825378 0.000000000000000
21.628145217895508 -8.054978370666504 4.188709735870361 0.003921568859369
19.670215606689453 -6.326831817626953 5.507472515106201 0.003921568859369
19.703092575073242 -6.413081645965576 5.522988796234131 0.003921568859369
14.929855346679688 -5.664967060089111 2.891590595245361 0.003921568859369
14.440909385681152 -5.534752368927002 0.625697791576385 0.000000000000000
14.854938507080078 -5.695361137390137 2.880809307098389 0.003921568859369
14.765323638916016 -5.719576835632324 2.867156505584717 0.000000000000000
10.239613533020020 -3.663277626037598 0.626271963119507 0.000000000000000
6.319855690002441 -2.468207359313965 1.786218881607056 0.000000000000000
5.986817359924316 -2.401532173156738 0.776289224624634 0.000000000000000
3.387616872787476 -1.166555285453796 0.099715121090412 0.000000000000000
13.844624519348145 -5.683587074279785 3.977462768554688 0.000000000000000
5.171654224395752 -1.925529003143311 -0.094960130751133 0.000000000000000
10.774190902709961 -4.106323242187500 0.331719011068344 0.000000000000000
5.235546112060547 -2.567075967788696 0.465448081493378 0.000000000000000
5.822195053100586 -2.522156238555908 1.667019367218018 0.000000000000000
16.852230072021484 -7.478996753692627 1.066793680191040 0.000000000000000
9.740397453308105 -4.957228660583496 0.881973683834076 0.000000000000000
4.596869468688965 -2.340699434280396 0.086843483150005 0.000000000000000
5.042346000671387 -2.662885189056396 1.016337037086487 0.000000000000000
5.042448520660400 -2.707228660583496 0.456213563680649 0.000000000000000
5.169577598571777 -2.800122261047363 -0.168615505099297 0.000000000000000
9.302404403686523 -4.803204536437988 -0.000807791948318 0.003921568859369
6.911304473876953 -4.112540245056152 1.442450046539307 0.000000000000000
5.896083354949951 -2.886318206787109 0.036334846168756 0.000000000000000
5.788199424743652 -3.560584545135498 1.214156270027161 0.000000000000000
6.756444454193115 -4.266041278839111 0.640556335449219 0.000000000000000
3.140475034713745 -1.539732098579407 -0.138160765171051 0.000000000000000
14.525127410888672 -9.434844970703125 3.133553743362427 0.003921568859369
5.270895004272461 -3.434100151062012 -0.504479706287384 0.000000000000000
9.647532463073730 -5.765147686004639 2.975354194641113 0.000000000000000
9.521895408630371 -5.733725547790527 2.942207336425781 0.000000000000000
2.369102954864502 -1.221896290779114 0.072363018989563 0.000000000000000
9.488673210144043 -5.758286476135254 2.938051939010620 0.000000000000000
2.385739803314209 -1.237430572509766 0.072777606546879 0.000000000000000
3.297666549682617 -2.027806520462036 0.999725222587585 0.000000000000000
12.948080062866211 -9.177183151245117 2.868453025817871 0.003921568859369
8.860589027404785 -5.707479953765869 1.276393771171570 0.000000000000000
13.482519149780273 -8.740075111389160 4.268287181854248 0.003921568859369
8.109406471252441 -4.748708248138428 0.268340826034546 0.000000000000000
6.343595504760742 -4.179652214050293 0.915083885192871 0.000000000000000
8.727034568786621 -5.832862377166748 -0.725774407386780 0.000000000000000
12.030644416809082 -8.140715599060059 3.853959560394287 0.000000000000000
16.267551422119141 -12.423634529113770 3.706085920333862 0.003921568859369
4.172524929046631 -2.567300319671631 0.137056589126587 0.000000000000000
4.745944499969482 -2.957189798355103 -0.096558988094330 0.000000000000000
3.928304910659790 -2.738770246505737 0.569795548915863 0.000000000000000
4.081594467163086 -3.198190212249756 0.411037296056747 0.000000000000000
6.539017677307129 -5.205738544464111 1.498512268066406 0.000000000000000
6.463891029357910 -5.175538063049316 1.483359098434448 0.000000000000000
8.885524749755859 -5.929551601409912 -0.676879107952118 0.000000000000000
7.910261631011963 -7.224872112274170 -0.371827781200409 0.000000000000000
22.103269577026367 -17.410213470458984 7.500402450561523 0.003921568859369
16.705583572387695 -14.900081634521484 -0.650391757488251 0.003921568859369
16.579107284545898 -14.884929656982422 -0.647392690181732 0.003921568859369
16.462125778198242 -14.882737159729004 -0.644861400127411 0.003921568859369
16.377716064453125 -14.909692764282227 -0.643612444400787 0.003921568859369
16.281587600708008 -14.925372123718262 -0.641896903514862 0.003921568859369
16.194314956665039 -14.948743820190430 -0.640531003475189 0.003921568859369
15.692768096923828 -15.968490600585938 -0.262655645608902 0.003921568859369
6.131324291229248 -5.555355548858643 -0.428757905960083 0.000000000000000
15.881309509277344 -16.275854110717773 -0.266817152500153 0.003921568859369
11.522049903869629 -10.738558769226074 2.845025777816772 0.000000000000000
17.513372421264648 -18.477088928222656 -0.298867136240005 0.003921568859369
16.767892837524414 -16.141115188598633 -0.137926027178764 0.003921568859369
17.703105926513672 -18.522094726562500 -0.152429088950157 0.003921568859369
4.074535846710205 -4.561430931091309 -0.211570367217064 0.000000000000000
9.539116859436035 -9.957081794738770 2.486528873443604 0.000000000000000
17.384689331054688 -18.447925567626953 -0.150904804468155 0.003921568859369
16.687028884887695 -14.550611495971680 -0.899048149585724 0.003921568859369
5.994794368743896 -6.869302749633789 -0.316802769899368 0.000000000000000
17.231126785278320 -18.540979385375977 -0.150773763656616 0.003921568859369
9.013554573059082 -10.593079566955566 -0.484838485717773 0.000000000000000
4.104366779327393 -3.860185384750366 1.469995617866516 0.000000000000000
3.379675626754761 -3.164669990539551 -0.485738277435303 0.000000000000000
11.760073661804199 -11.656950950622559 2.013022422790527 0.003921568859369
15.165055274963379 -15.186565399169922 -0.997007668018341 0.003921568859369
2.239802360534668 -2.075903654098511 0.355843484401703 0.000000000000000
8.286228179931641 -7.443882942199707 -0.450399041175842 0.000000000000000
6.411616802215576 -6.438616752624512 -0.419483125209808 0.000000000000000
7.617362022399902 -7.740584850311279 1.313324689865112 0.000000000000000
7.477837085723877 -8.378974914550781 2.020115137100220 0.000000000000000
8.719191551208496 -11.141273498535156 -0.820694744586945 0.000000000000000
2.984446763992310 -3.028692722320557 0.237317949533463 0.000000000000000
6.986207008361816 -8.205686569213867 0.430545091629028 0.000000000000000
6.527559280395508 -7.708404541015625 0.403104007244110 0.000000000000000
15.705330848693848 -15.515181541442871 -0.897418916225433 0.003921568859369
4.324479579925537 -5.060079574584961 0.111251309514046 0.000000000000000
10.207136154174805 -12.278558731079102 0.641280531883240 0.000000000000000
15.614481925964355 -15.532326698303223 -0.895334541797638 0.003921568859369
15.574027061462402 -15.589208602905273 -0.895857691764832 0.003921568859369
11.489537239074707 -14.046855926513672 1.466687560081482 0.000000000000000
6.548618316650391 -7.943813800811768 0.410705149173737 0.000000000000000
11.567896842956543 -12.887712478637695 2.105271100997925 0.003921568859369
8.310408592224121 -11.318286895751953 0.157735794782639 0.000000000000000
16.045114517211914 -18.344247817993164 2.970468997955322 0.003921568859369
8.276046752929688 -11.519057273864746 0.159316256642342 0.000000000000000
15.960316658020020 -18.375307083129883 2.966531515121460 0.003921568859369
8.267754554748535 -11.593126296997070 0.159934043884277 0.000000000000000
15.854910850524902 -18.381813049316406 2.958698749542236 0.003921568859369
6.222139358520508 -7.808075904846191 0.801126956939697 0.000000000000000
10.556014060974121 -13.536075592041016 0.689528346061707 0.003921568859369
15.756689071655273 -18.402650833129883 2.952811956405640 0.003921568859369
8.698725700378418 -11.186868667602539 -0.085762739181519 0.000000000000000
15.674502372741699 -18.435523986816406 2.949361801147461 0.003921568859369
15.503994941711426 -18.355562210083008 2.928385496139526 0.003921568859369
8.353747367858887 -10.891470909118652 2.475482702255249 0.000000000000000
5.046135425567627 -6.052726745605469 -0.003097017295659 0.000000000000000
9.902094841003418 -14.917888641357422 -0.212672367691994 0.003921568859369
9.941181182861328 -14.978453636169434 0.202293664216995 0.003921568859369
9.879554748535156 -14.882807731628418 -0.625267446041107 0.003921568859369
4.518533706665039 -5.430290222167969 -0.325716495513916 0.000000000000000
3.291006565093994 -4.298165798187256 0.960732877254486 0.000000000000000
6.228212833404541 -8.459423065185547 0.177338927984238 0.000000000000000
6.154603004455566 -8.356081962585449 0.413863837718964 0.000000000000000
9.655350685119629 -14.980886459350586 0.200438454747200 0.003921568859369
7.040309429168701 -9.741528511047363 0.203467220067978 0.000000000000000
9.707343101501465 -13.550204277038574 3.011216640472412 0.003921568859369
5.756933689117432 -6.603361129760742 0.247745558619499 0.000000000000000
5.502361774444580 -7.014931678771973 -0.003389756195247 0.003921568859369
7.468694686889648 -11.880105018615723 0.157073095440865 0.000000000000000
8.389977455139160 -10.847077369689941 1.663422107696533 0.000000000000000
8.705640792846680 -11.342498779296875 -0.004365171771497 0.000000000000000
8.641854286193848 -11.330405235290527 -0.004539612215012 0.000000000000000
10.259629249572754 -14.985622406005859 1.466639995574951 0.003921568859369
8.590379714965820 -11.343632698059082 -0.004561424721032 0.000000000000000
8.013940811157227 -9.548324584960938 0.067716762423515 0.000000000000000
3.912940025329590 -5.003934383392334 0.359025031328201 0.000000000000000
10.198433876037598 -15.007290840148926 1.465309500694275 0.000000000000000
8.541660308837891 -11.364546775817871 -0.004585941787809 0.000000000000000
10.112635612487793 -14.997164726257324 1.460731506347656 0.000000000000000
8.504295349121094 -11.396754264831543 -0.004612202290446 0.000000000000000
10.053681373596191 -15.021594047546387 1.459725975990295 0.000000000000000
2.714770317077637 -4.247990608215332 -0.175066664814949 0.000000000000000
8.457441329956055 -11.415864944458008 -0.004635318182409 0.000000000000000
9.919287681579590 -14.928669929504395 0.304913252592087 0.003921568859369
9.938725471496582 -14.958979606628418 0.720889031887054 0.003921568859369
8.405565261840820 -11.423602104187012 -0.004654720891267 0.000000000000000
6.137795448303223 -7.459310054779053 -0.391377419233322 0.000000000000000
8.370278358459473 -11.458619117736816 -0.004681643098593 0.000000000000000
8.316391944885254 -11.467384338378906 -0.004702134057879 0.000000000000000
8.199599266052246 -11.471075057983398 -0.004739484749734 0.000000000000000
6.555159091949463 -8.218631744384766 -0.426445692777634 0.000000000000000
8.979581832885742 -14.008584022521973 3.006290674209595 0.003921568859369
8.152693748474121 -11.488976478576660 -0.004762059077621 0.000000000000000
8.770430564880371 -11.173615455627441 -0.577586710453033 0.000000000000000
8.105761528015137 -11.506689071655273 -0.004784554243088 0.000000000000000
5.181320667266846 -8.056131362915039 -0.059066291898489 0.000000000000000
8.083657264709473 -11.550748825073242 -0.004980888217688 0.000000000000000
5.330269336700439 -8.352328300476074 0.166506454348564 0.000000000000000
8.700877189636230 -11.235165596008301 -0.906437695026398 0.000000000000000
8.090287208557129 -11.647720336914062 -0.005025133024901 0.000000000000000
8.593664169311523 -11.255591392517090 -0.903411269187927 0.003921568859369
6.191005229949951 -9.916686058044434 0.466595739126205 0.000000000000000
8.744671821594238 -14.166179656982422 3.007374525070190 0.003921568859369
8.511587142944336 -11.227677345275879 0.076395705342293 0.000000000000000
8.554324150085449 -11.284718513488770 -0.903437554836273 0.003921568859369
8.068264007568359 -13.144699096679688 2.784515142440796 0.000000000000000
8.559413909912109 -11.371241569519043 0.077179059386253 0.000000000000000
11.390336990356445 -18.856536865234375 3.987471342086792 0.003921568859369
8.521663665771484 -11.398804664611816 0.077154032886028 0.000000000000000
8.474602699279785 -11.333229064941406 -0.902974009513855 0.003921568859369
11.345695495605469 -18.923984527587891 3.993881940841675 0.003921568859369
8.479831695556641 -11.429123878479004 0.077126413583755 0.000000000000000
7.611232280731201 -12.670420646667480 -0.090890124440193 0.000000000000000
5.897252082824707 -7.852190494537354 0.277928441762924 0.000000000000000
9.994523048400879 -15.023269653320312 1.037439703941345 0.000000000000000
9.870716094970703 -14.833912849426270 2.166211605072021 0.003921568859369
3.584509611129761 -5.760299682617188 0.540537953376770 0.000000000000000
8.416586875915527 -11.425343513488770 0.076875872910023 0.000000000000000
6.956787586212158 -11.641111373901367 0.542379260063171 0.000000000000000
8.367383003234863 -11.440817832946777 0.076760031282902 0.000000000000000
4.932254791259766 -8.204699516296387 0.767614126205444 0.000000000000000
9.801942825317383 -14.958059310913086 4.752060890197754 0.003921568859369
8.334016799926758 -11.474276542663574 0.076780058443546 0.000000000000000
8.297137260437012 -11.421169281005859 -0.901025176048279 0.003921568859369
8.301093101501465 -11.517008781433105 0.076842300593853 0.000000000000000
8.250639915466309 -11.444125175476074 -0.900539100170135 0.003921568859369
8.231146812438965 -11.502431869506836 0.076525077223778 0.000000000000000
8.206086158752441 -11.465502738952637 -0.900051593780518 0.000000000000000
8.163822174072266 -11.480197906494141 -0.899216234683990 0.000000000000000
8.134737014770508 -11.519589424133301 -0.900268435478210 0.000000000000000
8.103465080261230 -11.560293197631836 -0.901322007179260 0.000000000000000
8.965909957885742 -14.400410652160645 0.385570496320724 0.000000000000000
8.152881622314453 -13.267977714538574 0.893782854080200 0.000000000000000
5.439081668853760 -7.877178668975830 -0.388791441917419 0.000000000000000
6.191451072692871 -10.141275405883789 0.679812908172607 0.000000000000000
2.560005187988281 -3.959092617034912 1.226726174354553 0.000000000000000
9.920232772827148 -14.898050308227539 0.510901749134064 0.003921568859369
6.031668186187744 -11.264689445495605 -0.079297147691250 0.000000000000000
4.523280620574951 -8.401580810546875 -0.059561882168055 0.000000000000000
6.235723495483398 -10.461867332458496 0.697110474109650 0.000000000000000
6.616443634033203 -12.504286766052246 1.139841914176941 0.000000000000000
8.968895912170410 -15.357422828674316 1.022082328796387 0.000000000000000
3.967571973800659 -7.554971218109131 0.142374202609062 0.000000000000000
3.516614198684692 -6.640962123870850 0.600047707557678 0.000000000000000
3.785989761352539 -5.751641750335693 -0.121692597866058 0.000000000000000
5.130713462829590 -7.996800422668457 0.049984738230705 0.000000000000000
5.624255657196045 -9.856077194213867 0.256021291017532 0.000000000000000
3.418664932250977 -5.196272850036621 0.173597201704979 0.000000000000000
4.533474445343018 -10.189183235168457 -0.134506314992905 0.000000000000000
6.168783664703369 -9.926190376281738 -0.746009826660156 0.000000000000000
6.713178634643555 -12.253203392028809 -0.328560471534729 0.000000000000000
3.265568733215332 -6.696645736694336 -0.047254405915737 0.000000000000000
3.699218750000000 -8.877322196960449 0.105296000838280 0.000000000000000
9.173168182373047 -20.013469696044922 3.985324144363403 0.003921568859369
6.866625785827637 -13.660965919494629 0.876929342746735 0.000000000000000
3.720427751541138 -7.226281642913818 -0.004695951472968 0.003921568859369
7.223307132720947 -16.880479812622070 -0.114741310477257 0.000000000000000
4.992413043975830 -11.483760833740234 2.258563041687012 0.000000000000000
2.989938259124756 -5.865156173706055 0.372746318578720 0.000000000000000
3.744266510009766 -6.669343471527100 0.214715763926506 0.000000000000000
1.608470559120178 -3.371116876602173 0.059912264347076 0.000000000000000
3.456598520278931 -6.972498416900635 0.441953420639038 0.000000000000000
4.801706314086914 -8.903413772583008 0.285538852214813 0.000000000000000
6.561912536621094 -12.457561492919922 -0.250389069318771 0.000000000000000
8.014931678771973 -17.544725418090820 0.437431544065475 0.000000000000000
1.972593426704407 -3.418874740600586 -0.159201055765152 0.000000000000000
2.480031490325928 -5.898552894592285 0.105475574731827 0.000000000000000
5.253145217895508 -13.257777214050293 2.575335502624512 0.000000000000000
6.176297187805176 -15.866313934326172 3.078625202178955 0.003921568859369
3.795169115066528 -7.298748493194580 -0.146419882774353 0.000000000000000
1.693383455276489 -2.963918685913086 -0.137395039200783 0.000000000000000
2.788538932800293 -5.946177005767822 -0.154835417866707 0.000000000000000
1.698087573051453 -3.001587629318237 -0.138879328966141 0.000000000000000
4.629175186157227 -10.373570442199707 -0.268169254064560 0.000000000000000
2.822247982025146 -7.407777786254883 -0.233463123440742 0.000000000000000
5.868316650390625 -14.116716384887695 0.345353841781616 0.000000000000000
5.939409255981445 -14.294717788696289 -0.366014331579208 0.000000000000000
3.047523021697998 -8.241886138916016 0.146056145429611 0.000000000000000
5.043057918548584 -14.313562393188477 0.254925757646561 0.000000000000000
3.653137207031250 -10.154199600219727 1.944899439811707 0.000000000000000
2.251445055007935 -6.023963928222656 0.253587245941162 0.000000000000000
2.553765773773193 -7.021355152130127 -0.220193997025490 0.000000000000000
3.648120880126953 -7.723441600799561 0.043732028454542 0.000000000000000
3.898649215698242 -8.295364379882812 0.258055657148361 0.000000000000000
3.036067485809326 -6.448762893676758 -0.127295270562172 0.000000000000000
5.077780246734619 -15.116229057312012 -0.101103506982327 0.000000000000000
3.313777446746826 -9.578543663024902 0.403082132339478 0.000000000000000
7.000651359558105 -21.156778335571289 1.800877332687378 0.003921568859369
3.513730049133301 -7.699681282043457 -0.345784723758698 0.000000000000000
6.125843524932861 -14.007667541503906 -0.273131340742111 0.000000000000000
1.923569440841675 -4.570919513702393 -0.004235205706209 0.000000000000000
2.709664583206177 -5.899246215820312 -0.116128683090210 0.000000000000000
4.004591941833496 -9.030957221984863 0.050751071423292 0.000000000000000
4.500040054321289 -13.953770637512207 1.181499719619751 0.000000000000000
3.816783189773560 -8.740477561950684 0.048873547464609 0.000000000000000
4.909753799438477 -13.408776283264160 -0.008235350251198 0.000000000000000
3.497855901718140 -11.345111846923828 2.142710685729980 0.000000000000000
2.829241275787354 -9.369376182556152 -0.063115336000919 0.000000000000000
4.249377727508545 -10.645187377929688 0.059162549674511 0.000000000000000
2.345462799072266 -7.801287651062012 -0.052857130765915 0.000000000000000
3.164565324783325 -9.071734428405762 0.215183034539223 0.000000000000000
2.114466190338135 -5.779947280883789 -0.146023169159889 0.000000000000000
3.624854326248169 -9.062043190002441 0.049774851650000 0.000000000000000
4.828816890716553 -12.321537017822266 0.374400854110718 0.000000000000000
3.406985759735107 -11.951748847961426 0.495140433311462 0.000000000000000
3.183751821517944 -7.944394111633301 -0.153518587350845 0.000000000000000
4.064819335937500 -14.865388870239258 0.615292906761169 0.000000000000000
2.415291547775269 -8.392212867736816 0.700468719005585 0.000000000000000
4.007227897644043 -12.134211540222168 3.392836332321167 0.000000000000000
1.795360326766968 -6.054593086242676 -0.186913862824440 0.000000000000000
5.288564205169678 -19.990446090698242 1.670066952705383 0.003921568859369
3.183650255203247 -9.702795028686523 -0.006914407946169 0.003921568859369
0.964838862419128 -2.296000003814697 0.136178418993950 0.000000000000000
0.912274062633514 -2.144988059997559 0.126945987343788 0.000000000000000
1.565860271453857 -4.408261299133301 -0.004382209386677 0.000000000000000
3.875660419464111 -10.395012855529785 0.313047677278519 0.000000000000000
1.891129255294800 -9.072540283203125 -0.328800290822983 0.000000000000000
1.047935009002686 -4.417697429656982 -0.056781336665154 0.000000000000000
2.695297956466675 -7.649663448333740 0.040578376501799 0.000000000000000
3.366329193115234 -11.925164222717285 1.503773689270020 0.000000000000000
5.587774753570557 -17.695507049560547 0.526548683643341 0.003921568859369
2.798500299453735 -13.077535629272461 1.077726602554321 0.000000000000000
2.421011686325073 -11.525881767272949 0.948344111442566 0.000000000000000
0.787941694259644 -2.166413307189941 0.269563019275665 0.000000000000000
1.781220316886902 -8.412600517272949 1.550789117813110 0.000000000000000
2.254955530166626 -11.249188423156738 0.923497915267944 0.000000000000000
2.801705121994019 -15.018943786621094 2.765154361724854 0.000000000000000
2.590864896774292 -9.158954620361328 -0.171992912888527 0.000000000000000
1.716435670852661 -5.844383239746094 -0.250499099493027 0.000000000000000
1.399485588073730 -6.051655292510986 -0.148948952555656 0.000000000000000
2.529753923416138 -13.046507835388184 3.535947561264038 0.000000000000000
2.287194252014160 -12.416955947875977 1.534273624420166 0.000000000000000
1.769403696060181 -9.188986778259277 2.485244274139404 0.000000000000000
0.716661870479584 -2.937074184417725 0.360038429498672 0.000000000000000
0.637974143028259 -3.873817443847656 0.312469720840454 0.000000000000000
1.980159640312195 -20.247089385986328 3.688521385192871 0.003921568859369
1.899322271347046 -20.214143753051758 3.681335210800171 0.003921568859369
1.830241441726685 -20.239208221435547 3.684877395629883 0.003921568859369
1.695997476577759 -20.248889923095703 3.684815645217896 0.003921568859369
1.624808430671692 -20.245773315429688 3.683353424072266 0.003921568859369
1.554627418518066 -20.258117675781250 3.684751272201538 0.003921568859369
1.785247445106506 -9.635841369628906 0.275515109300613 0.000000000000000
1.412976503372192 -20.262430191040039 3.683972597122192 0.003921568859369
1.343659281730652 -20.293691635131836 3.688945770263672 0.003921568859369
1.279236078262329 -20.289411544799805 3.687142848968506 0.003921568859369
1.301379442214966 -7.099066734313965 -0.131966412067413 0.000000000000000
1.138868570327759 -20.327140808105469 3.692797660827637 0.003921568859369
1.071324944496155 -20.325843811035156 3.692052364349365 0.003921568859369
1.093176841735840 -9.447885513305664 2.530997514724731 0.000000000000000
0.997758865356445 -20.356027603149414 3.697023153305054 0.003921568859369
2.317782163619995 -27.705930709838867 3.390096426010132 0.003921568859369
0.614397227764130 -4.389757156372070 0.534788310527802 0.000000000000000
0.392514914274216 -8.544670104980469 1.549413800239563 0.000000000000000
0.367766767740250 -8.241903305053711 1.494170546531677 0.000000000000000
0.368389874696732 -20.340084075927734 3.691387891769409 0.003921568859369
0.990797281265259 -8.095706939697266 -0.149634227156639 0.000000000000000
1.142859816551208 -9.930715560913086 0.280930817127228 0.000000000000000
-0.006761103868484 -21.683708190917969 3.935678482055664 0.003921568859369
-0.060144245624542 -20.478351593017578 3.716935157775879 0.003921568859369
-0.270845860242844 -20.469442367553711 3.716131210327148 0.003921568859369
0.401173770427704 -12.444105148315430 3.322249650955200 0.000000000000000
-0.699784874916077 -20.598140716552734 3.742028951644897 0.003921568859369
-1.571578383445740 -18.530879974365234 0.200361892580986 0.003921568859369
