# This PCD file was generated using the MATLAB® pcwrite function
# from Computer Vision Toolbox®.
# .PCD v.7 - Point Cloud Data file format
VERSION .7
FIELDS x y z intensity
SIZE 8 8 8 8
TYPE F F F F
COUNT 1 1 1 1
WIDTH 626
HEIGHT 1
VIEWPOINT 0 0 0 1 0 0 0
POINTS 626
DATA ascii
-9.828142166137695 -19.742391586303711 1.285782814025879 0.003921568859369
-2.217141389846802 -5.066237449645996 -0.137116476893425 0.000000000000000
-12.182624816894531 -19.240215301513672 -0.274942398071289 0.003921568859369
-10.848276138305664 -21.534341812133789 1.405238628387451 0.003921568859369
-9.566322326660156 -19.085409164428711 2.635037183761597 0.003921568859369
-11.278992652893066 -22.353786468505859 -0.597116410732269 0.003921568859369
-12.712970733642578 -19.901668548583984 -0.285110294818878 0.003921568859369
-11.411900520324707 -22.425392150878906 1.466098070144653 0.003921568859369
-9.621633529663086 -19.034709930419922 2.632891178131104 0.003921568859369
-9.171661376953125 -18.188091278076172 5.499758243560791 0.003921568859369
-10.690661430358887 -20.879446029663086 0.540514230728149 0.003921568859369
-12.626934051513672 -19.622964859008789 0.266912460327148 0.003921568859369
-12.930126190185547 -22.387090682983398 4.742619991302490 0.003921568859369
-5.131314754486084 -10.351211547851562 -0.006186567712575 0.003921568859369
-6.686460494995117 -13.252764701843262 0.342713177204132 0.000000000000000
-12.239109992980957 -18.910453796386719 0.257742136716843 0.003921568859369
-12.139731407165527 -18.606050491333008 -0.268330782651901 0.003921568859369
-10.940807342529297 -20.994829177856445 0.545735895633698 0.003921568859369
-12.900092124938965 -19.733650207519531 0.269877582788467 0.003921568859369
-10.135835647583008 -19.511716842651367 2.714334964752197 0.003921568859369
-12.845792770385742 -21.891548156738281 2.080522537231445 0.003921568859369
-9.997115135192871 -17.193958282470703 3.657281398773193 0.003921568859369
-11.214330673217773 -19.043655395507812 -0.657455384731293 0.003921568859369
-12.503732681274414 -19.001995086669922 -0.274542301893234 0.003921568859369
-12.516822814941406 -19.022237777709961 0.260756492614746 0.003921568859369
-10.528868675231934 -20.077705383300781 6.117442607879639 0.003921568859369
-10.253917694091797 -17.479936599731445 3.726141452789307 0.003921568859369
-12.416494369506836 -18.746784210205078 -0.271392047405243 0.003921568859369
-11.178022384643555 -21.097761154174805 0.550584793090820 0.003921568859369
-13.132342338562012 -19.793409347534180 0.272104561328888 0.003921568859369
-2.901811599731445 -5.396279335021973 -0.521346271038055 0.000000000000000
-10.558388710021973 -19.982242584228516 6.098900794982910 0.003921568859369
-12.813425064086914 -19.182567596435547 -0.278213560581207 0.003921568859369
-12.445116043090820 -18.649585723876953 0.256927996873856 0.003921568859369
-11.632494926452637 -24.269426345825195 0.145874932408333 0.003921568859369
-11.095091819763184 -20.598081588745117 1.364891409873962 0.003921568859369
-11.907487869262695 -19.728693008422852 4.232977867126465 0.003921568859369
-4.779322147369385 -8.247720718383789 -0.288581043481827 0.000000000000000
-12.858952522277832 -21.070201873779297 -0.153037980198860 0.003921568859369
-11.910488128662109 -19.573492050170898 4.209418773651123 0.003921568859369
-12.984365463256836 -21.120691299438477 -0.736202418804169 0.003921568859369
-10.432940483093262 -21.486427307128906 0.690055191516876 0.003921568859369
-9.533463478088379 -17.531850814819336 5.392851829528809 0.003921568859369
-9.934289932250977 -20.313667297363281 0.653545737266541 0.003921568859369
-13.235396385192871 -21.348375320434570 2.060392379760742 0.003921568859369
-9.497811317443848 -17.320869445800781 5.339147090911865 0.003921568859369
-11.917124748229980 -23.995651245117188 0.145619854331017 0.003921568859369
-12.968576431274414 -20.771106719970703 2.009196758270264 0.003921568859369
-9.531148910522461 -17.239288330078125 5.324738502502441 0.003921568859369
-11.923771858215332 -19.154369354248047 4.146602630615234 0.003921568859369
-12.919016838073730 -20.549922943115234 -0.721151828765869 0.003921568859369
-13.175689697265625 -20.950662612915039 2.030804872512817 0.003921568859369
-13.011757850646973 -20.527648925781250 -0.721992790699005 0.003921568859369
-11.936800956726074 -18.886487960815430 -0.138765290379524 0.003921568859369
-11.990097045898438 -17.084924697875977 0.239706337451935 0.003921568859369
-10.708101272583008 -21.291908264160156 0.688829541206360 0.003921568859369
-13.004181861877441 -20.377204895019531 -0.149718731641769 0.003921568859369
-13.604634284973145 -19.179691314697266 0.270145416259766 0.003921568859369
-10.612778663635254 -20.949077606201172 0.678894400596619 0.003921568859369
-11.773666381835938 -20.641426086425781 1.387213230133057 0.003921568859369
-10.438181877136230 -20.444351196289062 0.663784980773926 0.003921568859369
-16.238334655761719 -24.893623352050781 -0.880597293376923 0.003921568859369
-13.214955329895020 -18.368713378906250 -0.272525101900101 0.003921568859369
-10.607489585876465 -20.580593109130859 0.669631481170654 0.003921568859369
-10.134445190429688 -17.588283538818359 5.488286495208740 0.003921568859369
-12.373001098632812 -17.110704421997070 0.242874383926392 0.003921568859369
-10.888409614562988 -20.928859710693359 0.682384610176086 0.003921568859369
-13.897946357727051 -19.016653060913086 -0.283288896083832 0.003921568859369
-12.410839080810547 -18.897296905517578 -0.139981985092163 0.003921568859369
-11.666728973388672 -19.821622848510742 0.531754672527313 0.003921568859369
-13.928792953491211 -19.058612823486328 0.271610587835312 0.003921568859369
-11.095484733581543 -21.144016265869141 0.690760135650635 0.003921568859369
-11.165637016296387 -18.998094558715820 -0.526108026504517 0.003921568859369
-12.339913368225098 -18.645490646362305 -0.138402998447418 0.003921568859369
-10.882400512695312 -18.384040832519531 0.494183748960495 0.003921568859369
-10.882088661193848 -20.572551727294922 0.673460602760315 0.003921568859369
-13.077672958374023 -19.727096557617188 1.944119095802307 0.003921568859369
-11.747559547424316 -17.788040161132812 3.922731637954712 0.003921568859369
-11.669997215270996 -19.519174575805664 0.526034057140350 0.003921568859369
-13.932779312133789 -18.789505004882812 0.269352465867996 0.003921568859369
-12.113205909729004 -20.232160568237305 -0.562322497367859 0.003921568859369
-12.759493827819824 -17.123662948608398 0.246008530259132 0.003921568859369
-17.212303161621094 -22.740812301635742 -0.341423988342285 0.003921568859369
-16.258247375488281 -21.511857986450195 0.310717731714249 0.003921568859369
-13.255214691162109 -21.569597244262695 0.585723996162415 0.003921568859369
-12.312007904052734 -16.311616897583008 0.235617205500603 0.003921568859369
-13.060736656188965 -18.996068954467773 -0.142373576760292 0.003921568859369
-13.118724822998047 -21.201602935791016 0.576830506324768 0.003921568859369
-12.963754653930664 -20.964256286621094 3.045940876007080 0.003921568859369
-12.914319992065430 -20.727088928222656 3.018302440643311 0.003921568859369
-13.119175910949707 -18.804855346679688 -0.681308567523956 0.003921568859369
-14.811584472656250 -19.112630844116211 0.278977751731873 0.003921568859369
-13.131699562072754 -20.908712387084961 1.442969560623169 0.003921568859369
-12.803232192993164 -20.412836074829102 6.509815216064453 0.003921568859369
-11.792238235473633 -18.840240478515625 -0.530448079109192 0.003921568859369
-12.499744415283203 -17.808332443237305 -0.134379774332047 0.003921568859369
-13.423164367675781 -21.185710906982422 0.580626904964447 0.003921568859369
-13.136112213134766 -20.748567581176758 1.435425758361816 0.003921568859369
-11.279735565185547 -17.919019699096680 5.727882385253906 0.003921568859369
-12.749925613403320 -20.154027938842773 -0.568489372730255 0.003921568859369
-14.060119628906250 -17.905162811279297 -0.273442357778549 0.003921568859369
-11.997391700744629 -16.991518020629883 -0.128585025668144 0.003921568859369
-16.120573043823242 -20.451854705810547 0.300680547952652 0.003921568859369
-12.822612762451172 -20.118696212768555 2.949975728988647 0.003921568859369
-14.036656379699707 -19.787927627563477 4.462368011474609 0.003921568859369
-12.144698143005371 -21.109926223754883 0.133433952927589 0.003921568859369
-12.616625785827637 -17.707962036132812 -0.134135395288467 0.003921568859369
-11.836022377014160 -18.477640151977539 1.284075736999512 0.003921568859369
-13.925917625427246 -19.493322372436523 4.407265663146973 0.003921568859369
-13.313817024230957 -16.748737335205078 -0.257208138704300 0.003921568859369
-12.124046325683594 -20.917207717895508 0.132546976208687 0.003921568859369
-13.673990249633789 -19.010494232177734 -0.144048064947128 0.003921568859369
-11.679673194885254 -18.111549377441406 1.261448264122009 0.003921568859369
-13.300842285156250 -16.614334106445312 -0.255808383226395 0.003921568859369
-12.252887725830078 -20.965650558471680 0.133241117000580 0.003921568859369
-12.382023811340332 -19.016185760498047 0.526039600372314 0.003921568859369
-11.429603576660156 -17.607065200805664 2.599360942840576 0.003921568859369
-13.912206649780273 -19.199655532836914 4.363003730773926 0.003921568859369
-16.900394439697266 -23.020902633666992 -0.174497514963150 0.003921568859369
-12.140016555786133 -18.518815994262695 1.296151041984558 0.003921568859369
-13.404184341430664 -20.384040832519531 3.017023086547852 0.003921568859369
-11.396571159362793 -17.432550430297852 5.637258529663086 0.003921568859369
-14.184999465942383 -19.423007965087891 4.425469398498535 0.003921568859369
-13.298282623291016 -16.377069473266602 -0.253480494022369 0.003921568859369
-12.521138191223145 -17.080183029174805 -0.130460903048515 0.003921568859369
-12.790748596191406 -19.331768035888672 1.356500744819641 0.003921568859369
-13.524549484252930 -20.407707214355469 3.027826547622681 0.003921568859369
-12.160823822021484 -18.407247543334961 -0.526175975799561 0.003921568859369
-14.585578918457031 -19.658281326293945 -0.726172924041748 0.003921568859369
-11.504904747009277 -19.270891189575195 0.123304896056652 0.003921568859369
-12.584980964660645 -18.887535095214844 0.526492774486542 0.003921568859369
-12.819621086120605 -19.229591369628906 1.352651715278625 0.003921568859369
-14.375130653381348 -21.490041732788086 3.196328163146973 0.003921568859369
-11.500412940979004 -17.324060440063477 5.629146575927734 0.003921568859369
-14.668890953063965 -19.777105331420898 4.530333995819092 0.003921568859369
-16.493921279907227 -24.556385040283203 -0.702555298805237 0.003921568859369
-13.025693893432617 -17.494081497192383 1.795942068099976 0.003921568859369
-13.321459770202637 -19.671068191528320 0.551130950450897 0.003921568859369
-17.543516159057617 -20.999336242675781 0.316857248544693 0.003921568859369
-13.058572769165039 -19.296945571899414 1.364004731178284 0.003921568859369
-14.524616241455078 -19.316602706909180 4.448646068572998 0.003921568859369
-13.599495887756348 -16.277624130249023 -0.254693895578384 0.003921568859369
-13.377033233642578 -16.020580291748047 0.241844683885574 0.003921568859369
-12.212615966796875 -17.953832626342773 1.272065401077271 0.003921568859369
-12.627680778503418 -16.742853164672852 1.728060364723206 0.003921568859369
-13.258085250854492 -19.447393417358398 6.365829944610596 0.003921568859369
-14.918755531311035 -19.683074951171875 4.545537948608398 0.003921568859369
-13.763105392456055 -16.358243942260742 0.247807398438454 0.003921568859369
-12.309051513671875 -17.963884353637695 1.275859236717224 0.003921568859369
-15.313024520874023 -22.200189590454102 3.334293365478516 0.003921568859369
-14.084763526916504 -18.483074188232422 1.913050413131714 0.003921568859369
-12.217302322387695 -16.110557556152344 3.729696035385132 0.003921568859369
-17.868886947631836 -20.945188522338867 -0.328532695770264 0.003921568859369
-11.713111877441406 -18.888967514038086 0.122357167303562 0.003921568859369
-13.814638137817383 -16.308046340942383 0.247845247387886 0.003921568859369
-12.484642982482910 -18.083950042724609 1.287536740303040 0.003921568859369
-15.432711601257324 -22.212427139282227 3.344133615493774 0.003921568859369
-14.197917938232422 -18.500459671020508 1.919966101646423 0.003921568859369
-12.292617797851562 -16.096263885498047 3.736228227615356 0.003921568859369
-13.083611488342285 -18.918249130249023 -0.548149943351746 0.003921568859369
-13.333335876464844 -17.272636413574219 -0.648395299911499 0.003921568859369
-17.961389541625977 -20.895959854125977 -0.328694015741348 0.003921568859369
-14.265516281127930 -16.699958801269531 0.254796028137207 0.003921568859369
-12.642740249633789 -20.172206878662109 0.691241383552551 0.003921568859369
-15.590568542480469 -22.260412216186523 3.360313892364502 0.003921568859369
-14.280529022216797 -18.465385437011719 1.922016978263855 0.003921568859369
-15.213773727416992 -19.640792846679688 4.573084831237793 0.003921568859369
-18.939170837402344 -21.852037429809570 -0.344530731439590 0.003921568859369
-13.949538230895996 -16.226575851440430 0.248351290822029 0.003921568859369
-16.122776031494141 -22.830982208251953 3.455353975296021 0.003921568859369
-13.317797660827637 -17.008201599121094 -0.641908764839172 0.003921568859369
-19.148542404174805 -21.933420181274414 -0.346749216318130 0.003921568859369
-14.000760078430176 -16.170282363891602 0.248347297310829 0.003921568859369
-13.232518196105957 -18.706165313720703 1.342541098594666 0.003921568859369
-13.980449676513672 -19.725547790527344 -0.575505256652832 0.003921568859369
-13.417047500610352 -17.015195846557617 -0.643809080123901 0.003921568859369
-14.985326766967773 -17.156970977783203 -0.272592425346375 0.003921568859369
-15.129275321960449 -17.318031311035156 0.267078161239624 0.003921568859369
-13.232935905456543 -16.669948577880859 -0.632511198520660 0.003921568859369
-15.010222434997559 -17.064481735229492 -0.271890550851822 0.003921568859369
-11.988893508911133 -16.762529373168945 0.479339748620987 0.003921568859369
-14.169546127319336 -16.136850357055664 0.249541088938713 0.003921568859369
-12.588238716125488 -17.575117111206055 2.679634094238281 0.003921568859369
-15.078856468200684 -18.930042266845703 4.457321166992188 0.003921568859369
-14.808072090148926 -16.718566894531250 0.259614527225494 0.003921568859369
-12.849764823913574 -17.791250228881836 2.720138311386108 0.003921568859369
-14.229789733886719 -17.756908416748047 1.875036478042603 0.003921568859369
-13.403869628906250 -18.539581298828125 6.192768096923828 0.003921568859369
-13.633214950561523 -16.909744262695312 -0.645170092582703 0.003921568859369
-12.452753067016602 -18.994604110717773 0.125776097178459 0.003921568859369
-18.524276733398438 -20.647953033447266 0.322486609220505 0.003921568859369
-11.953840255737305 -18.257440567016602 -0.906440198421478 0.003921568859369
-12.476110458374023 -18.894971847534180 0.658516049385071 0.003921568859369
-13.390279769897461 -16.510559082031250 1.753301382064819 0.003921568859369
-12.715093612670898 -19.104320526123047 0.667433977127075 0.003921568859369
-13.365415573120117 -18.092943191528320 2.788427352905273 0.003921568859369
-14.214911460876465 -17.373817443847656 1.850823879241943 0.003921568859369
-13.836048126220703 -18.716194152832031 6.301545143127441 0.003921568859369
-13.509291648864746 -16.429162979125977 -0.130038753151894 0.003921568859369
-13.528312683105469 -18.184658050537109 1.329352498054504 0.003921568859369
-13.373797416687012 -17.986492156982422 2.778774976730347 0.003921568859369
-14.470713615417480 -17.564685821533203 1.876271486282349 0.003921568859369
-13.819931983947754 -16.668298721313477 1.786307930946350 0.003921568859369
-13.313534736633301 -16.080631256103516 3.853951692581177 0.003921568859369
-14.701076507568359 -19.426736831665039 0.566960394382477 0.003921568859369
-13.128063201904297 -15.759497642517090 1.693390369415283 0.003921568859369
-15.836878776550293 -18.908832550048828 4.544694900512695 0.003921568859369
-13.160187721252441 -17.448602676391602 -0.520779013633728 0.003921568859369
-13.786332130432129 -20.060253143310547 0.135377287864685 0.003921568859369
-14.863281250000000 -17.638980865478516 -0.140341028571129 0.003921568859369
-15.940571784973145 -17.115108489990234 0.272627323865891 0.003921568859369
-12.718107223510742 -18.555805206298828 0.654865741729736 0.003921568859369
-12.432754516601562 -18.018936157226562 0.121690832078457 0.003921568859369
-13.669065475463867 -16.148920059204102 -0.129036217927933 0.003921568859369
-13.452541351318359 -17.564897537231445 0.515425384044647 0.003921568859369
-16.030752182006836 -17.089473724365234 0.273239582777023 0.003921568859369
-12.329423904418945 -17.875429153442383 0.632409811019897 0.003921568859369
-15.255627632141113 -17.837917327880859 -0.142538532614708 0.003921568859369
-15.853465080261230 -16.787940979003906 0.269381225109100 0.003921568859369
-17.669576644897461 -22.736066818237305 3.562864303588867 0.003921568859369
-13.874515533447266 -16.272478103637695 1.765208363533020 0.003921568859369
-14.749617576599121 -17.148117065429688 -0.137446194887161 0.003921568859369
-17.710079193115234 -22.632503509521484 3.556162118911743 0.003921568859369
-13.623011589050293 -15.884121894836426 3.864430904388428 0.003921568859369
-15.791380882263184 -18.194271087646484 -0.713951349258423 0.003921568859369
-12.927857398986816 -16.547843933105469 -0.005362615920603 0.003921568859369
-12.086741447448730 -17.158618927001953 0.116883382201195 0.003921568859369
-14.918579101562500 -17.217327117919922 -0.138310670852661 0.003921568859369
-13.988459587097168 -17.862619400024414 1.331884145736694 0.003921568859369
-13.387586593627930 -15.508942604064941 3.784902572631836 0.003921568859369
-13.306767463684082 -17.015668869018555 -0.514517784118652 0.003921568859369
-18.664304733276367 -19.280437469482422 -0.318706244230270 0.003921568859369
-13.813119888305664 -19.379638671875000 0.132858321070671 0.003921568859369
-18.211151123046875 -20.760334014892578 -0.166535973548889 0.003921568859369
-13.448500633239746 -17.070758819580078 0.506811738014221 0.003921568859369
-12.020161628723145 -16.943979263305664 0.605696201324463 0.003921568859369
-13.359303474426270 -16.965335845947266 2.680176258087158 0.003921568859369
-13.429193496704102 -17.045087814331055 -0.516762495040894 0.003921568859369
-15.051661491394043 -17.117315292358398 -0.675986766815186 0.003921568859369
-18.830928802490234 -19.306495666503906 -0.320166438817978 0.003921568859369
-15.682042121887207 -17.695240020751953 -0.700710177421570 0.003921568859369
-18.792764663696289 -19.140911102294922 -0.318383932113647 0.003921568859369
-19.140974044799805 -19.488426208496094 0.319232285022736 0.003921568859369
-13.507713317871094 -16.905267715454102 2.686205625534058 0.003921568859369
-14.649005889892578 -16.570413589477539 4.082858562469482 0.003921568859369
-18.864255905151367 -19.078638076782227 -0.318424552679062 0.003921568859369
-12.345000267028809 -17.011663436889648 0.117317125201225 0.003921568859369
-14.774604797363281 -16.585872650146484 -0.134718239307404 0.003921568859369
-14.595895767211914 -16.394826889038086 1.812855482101440 0.003921568859369
-13.215495109558105 -16.315635681152344 -0.005022534169257 0.003921568859369
-18.950717926025391 -19.030700683593750 -0.318631380796432 0.003921568859369
-19.050092697143555 -19.129272460937500 0.315812021493912 0.003921568859369
-14.704207420349121 -18.095163345336914 1.369412302970886 0.003921568859369
-17.858282089233398 -19.679559707641602 -0.786072611808777 0.003921568859369
-13.148075103759766 -16.131937026977539 -0.004923900589347 0.003921568859369
-19.726522445678711 -19.667535781860352 -0.330127775669098 0.003921568859369
-14.565469741821289 -16.141895294189453 -0.131801337003708 0.003921568859369
-13.303772926330566 -16.317550659179688 0.491676986217499 0.003921568859369
-19.130144119262695 -19.087440490722656 0.316246062517166 0.003921568859369
-12.410622596740723 -16.865917205810547 0.611079812049866 0.003921568859369
-14.606543540954590 -17.864261627197266 1.355571269989014 0.003921568859369
-14.341711044311523 -17.552993774414062 2.813512802124023 0.003921568859369
-16.095289230346680 -17.794376373291016 4.426695823669434 0.003921568859369
-19.465005874633789 -19.270841598510742 -0.324617415666580 0.003921568859369
-19.286201477050781 -19.098970413208008 0.317773103713989 0.003921568859369
-12.601480484008789 -16.986673355102539 0.617313742637634 0.003921568859369
-15.064840316772461 -18.271570205688477 1.390978336334229 0.003921568859369
-12.801151275634766 -17.121404647827148 0.119747057557106 0.003921568859369
-19.659370422363281 -19.195569992065430 -0.325402110815048 0.003921568859369
-12.252900123596191 -16.301300048828125 0.114246517419815 0.003921568859369
-14.693053245544434 -17.592643737792969 2.845479965209961 0.003921568859369
-14.384696960449219 -17.240806579589844 6.089900970458984 0.003921568859369
-15.043224334716797 -17.992721557617188 -0.557381391525269 0.003921568859369
-17.730760574340820 -23.153066635131836 0.164209678769112 0.003921568859369
-13.952359199523926 -16.604711532592773 0.506898820400238 0.003921568859369
-13.821290016174316 -16.455093383789062 1.263995051383972 0.003921568859369
-14.200703620910645 -16.895179748535156 2.741322278976440 0.003921568859369
-9.549724578857422 -10.453516960144043 1.177853465080261 0.000000000000000
-14.392079353332520 -17.122064590454102 6.067234516143799 0.003921568859369
-13.815519332885742 -16.331485748291016 0.500126779079437 0.003921568859369
-9.583380699157715 -10.415661811828613 1.177590966224670 0.000000000000000
-15.701866149902344 -16.768712997436523 4.242122173309326 0.003921568859369
-14.634778976440430 -17.267091751098633 -0.538136601448059 0.003921568859369
-18.374219894409180 -17.597091674804688 0.298512339591980 0.003921568859369
-13.294728279113770 -15.631915092468262 1.207956910133362 0.003921568859369
-18.360834121704102 -21.395280838012695 3.493335962295532 0.003921568859369
-14.482728004455566 -16.991561889648438 6.057076454162598 0.003921568859369
-14.760629653930664 -17.295026779174805 -0.540467262268066 0.003921568859369
-16.129323959350586 -18.722520828247070 1.452007889747620 0.003921568859369
-15.073562622070312 -17.284431457519531 0.536441862583160 0.003921568859369
-6.821104526519775 -8.097016334533691 -0.510645568370819 0.000000000000000
-19.687622070312500 -20.191673278808594 -0.832718849182129 0.003921568859369
-19.551105499267578 -20.056068420410156 -0.167259529232979 0.003921568859369
-13.141355514526367 -16.598398208618164 0.619067251682281 0.003921568859369
-13.332308769226074 -16.828332901000977 -0.891919553279877 0.003921568859369
-14.996212959289551 -17.083843231201172 -0.540240585803986 0.003921568859369
-19.796974182128906 -20.167062759399414 -0.834341108798981 0.003921568859369
-15.051789283752441 -17.033449172973633 0.532008230686188 0.003921568859369
-13.393126487731934 -16.788669586181641 -0.892153501510620 0.003921568859369
-19.841655731201172 -20.070934295654297 -0.833166897296906 0.003921568859369
-19.112560272216797 -19.351339340209961 -0.162341505289078 0.003921568859369
-14.029960632324219 -15.800358772277832 0.494940042495728 0.003921568859369
-15.142224311828613 -15.429671287536621 1.788766503334045 0.003921568859369
-18.947658538818359 -19.047031402587891 -0.793635249137878 0.003921568859369
-19.057895660400391 -17.367887496948242 -0.304815977811813 0.003921568859369
-19.131958007812500 -19.229042053222656 -0.161796122789383 0.003921568859369
-16.035682678222656 -17.738666534423828 1.406900882720947 0.003921568859369
-16.097702026367188 -16.151597976684570 4.215010166168213 0.003921568859369
-19.884101867675781 -19.695940017700195 -0.826044380664825 0.003921568859369
-19.216411590576172 -19.050716400146484 -0.161187082529068 0.003921568859369
-20.242252349853516 -18.171806335449219 0.320411354303360 0.003921568859369
-13.198393821716309 -16.092649459838867 0.609330832958221 0.003921568859369
-14.719020843505859 -16.209091186523438 1.289604067802429 0.003921568859369
-13.835700988769531 -16.840402603149414 -0.904979109764099 0.003921568859369
-19.599975585937500 -19.286851882934570 -0.163599655032158 0.003921568859369
-13.368795394897461 -16.178594589233398 0.614531934261322 0.003921568859369
-13.956267356872559 -15.289902687072754 2.576691389083862 0.003921568859369
-13.937577247619629 -16.724401473999023 0.123433388769627 0.003921568859369
-19.545658111572266 -19.100708007812500 -0.162507683038712 0.003921568859369
-13.516477584838867 -16.236276626586914 0.618689894676208 0.003921568859369
-17.139488220214844 -16.811698913574219 4.435651779174805 0.003921568859369
-16.076175689697266 -15.677533149719238 -0.665059864521027 0.003921568859369
-14.827542304992676 -15.984688758850098 0.511333048343658 0.003921568859369
-14.799580574035645 -15.956889152526855 1.282461643218994 0.003921568859369
-20.022735595703125 -19.290222167968750 -0.820318281650543 0.003921568859369
-14.708387374877930 -15.756604194641113 1.270462632179260 0.003921568859369
-14.753007888793945 -17.313940048217773 0.129358604550362 0.003921568859369
-15.542731285095215 -16.511785507202148 0.531904041767120 0.003921568859369
-13.949296951293945 -16.400312423706055 0.630813360214233 0.003921568859369
-9.818206787109375 -9.619217872619629 1.146886587142944 0.000000000000000
-19.097644805908203 -16.453994750976562 -0.297352761030197 0.003921568859369
-14.296957015991211 -16.665472030639648 0.124934472143650 0.003921568859369
-11.139337539672852 -9.759818077087402 0.175270423293114 0.000000000000000
-19.979772567749023 -17.080436706542969 -0.309648364782333 0.003921568859369
-14.779236793518066 -17.097438812255859 0.128681093454361 0.003921568859369
-18.800436019897461 -16.096361160278320 0.292577892541885 0.003921568859369
-13.926295280456543 -16.142036437988281 0.625006437301636 0.003921568859369
-21.717010498046875 -18.406967163085938 -0.334630399942398 0.003921568859369
-14.036863327026367 -16.156847000122070 0.121883325278759 0.003921568859369
-13.945013999938965 -16.055534362792969 0.623590826988220 0.003921568859369
-20.098773956298828 -16.949537277221680 -0.309508115053177 0.003921568859369
-19.456172943115234 -16.421003341674805 0.301194459199905 0.003921568859369
-14.234089851379395 -16.268692016601562 0.633911132812500 0.003921568859369
-15.275982856750488 -15.806715011596680 5.974887371063232 0.003921568859369
-19.325660705566406 -19.857028961181641 -0.655041396617889 0.003921568859369
-20.021610260009766 -16.766197204589844 -0.307365000247955 0.003921568859369
-18.395084381103516 -20.725666046142578 0.158540993928909 0.003921568859369
-16.274599075317383 -16.681526184082031 0.547289729118347 0.003921568859369
-20.196056365966797 -18.676132202148438 5.077557563781738 0.003921568859369
-19.309818267822266 -16.063135147094727 -0.295805543661118 0.003921568859369
-15.448532104492188 -15.742702484130859 0.518329143524170 0.003921568859369
-19.324777603149414 -16.076284408569336 0.297659665346146 0.003921568859369
-18.936298370361328 -17.404190063476562 2.127070903778076 0.003921568859369
-18.471738815307617 -16.992069244384766 4.638359546661377 0.003921568859369
-18.864440917968750 -19.118780136108398 -0.635078132152557 0.003921568859369
-3.835123777389526 -4.228318214416504 -0.003111683763564 0.000000000000000
-18.998735427856445 -15.703647613525391 -0.290324985980988 0.003921568859369
-15.720289230346680 -15.905631065368652 0.525604188442230 0.003921568859369
-19.272129058837891 -15.925175666809082 0.296164631843567 0.003921568859369
-16.180913925170898 -14.833608627319336 1.819239020347595 0.003921568859369
-17.426296234130859 -15.947398185729980 4.369266033172607 0.003921568859369
-19.168941497802734 -15.728114128112793 -0.291907966136932 0.003921568859369
-14.708699226379395 -16.328639984130859 0.125737652182579 0.003921568859369
-19.212089538574219 -15.763656616210938 0.294532388448715 0.003921568859369
-15.400320053100586 -15.484210014343262 1.288763642311096 0.003921568859369
-15.267592430114746 -15.357320785522461 2.697252988815308 0.003921568859369
-19.084154129028320 -17.298107147216797 2.130563735961914 0.003921568859369
-16.777523040771484 -15.261570930480957 4.197798252105713 0.003921568859369
-19.978813171386719 -19.947345733642578 -0.666784167289734 0.003921568859369
-6.393690109252930 -7.328440666198730 -0.178732633590698 0.000000000000000
-18.884620666503906 -15.385279655456543 0.288839101791382 0.003921568859369
-19.524860382080078 -17.557781219482422 2.171753883361816 0.003921568859369
-19.222175598144531 -15.551950454711914 -0.290904283523560 0.003921568859369
-19.168258666992188 -15.510341644287109 0.292487442493439 0.003921568859369
-15.131482124328613 -15.018551826477051 2.656485319137573 0.003921568859369
-20.316923141479492 -18.142868041992188 5.030090332031250 0.003921568859369
-19.347858428955078 -15.528039932250977 -0.291740387678146 0.003921568859369
-17.887836456298828 -15.898882865905762 4.427148818969727 0.003921568859369
-19.851646423339844 -19.405416488647461 -0.655522048473358 0.003921568859369
-18.150758743286133 -16.008897781372070 2.004250764846802 0.003921568859369
-17.609058380126953 -15.547321319580078 4.346847057342529 0.003921568859369
-20.042409896850586 -17.518377304077148 -0.784803986549377 0.003921568859369
-19.450403213500977 -15.396275520324707 -0.291521936655045 0.003921568859369
-20.551944732666016 -19.811744689941406 0.670680880546570 0.003921568859369
-20.601739883422852 -16.287195205688477 0.311862111091614 0.003921568859369
-18.191852569580078 -15.942557334899902 2.003374099731445 0.003921568859369
-19.315090179443359 -16.906709671020508 4.744711399078369 0.003921568859369
-19.281915664672852 -16.744060516357422 -0.753465116024017 0.003921568859369
-20.317993164062500 -15.945117950439453 -0.303061634302139 0.003921568859369
-16.036308288574219 -15.447415351867676 2.774432420730591 0.003921568859369
-21.563549041748047 -18.683307647705078 2.359225273132324 0.003921568859369
-9.697381019592285 -9.521076202392578 3.730805158615112 0.003921568859369
-19.531679153442383 -16.965553283691406 4.782945632934570 0.003921568859369
-20.231174468994141 -15.775492668151855 -0.300985097885132 0.003921568859369
-21.413209915161133 -18.433570861816406 -0.165597096085548 0.003921568859369
-18.654996871948242 -16.119134902954102 4.561180591583252 0.003921568859369
-19.767259597778320 -16.806272506713867 -0.765032470226288 0.003921568859369
-21.082817077636719 -17.899600982666016 -0.161955446004868 0.003921568859369
-20.151496887207031 -15.489423751831055 0.302540302276611 0.003921568859369
-19.222345352172852 -16.239110946655273 -0.147737175226212 0.003921568859369
-20.170160293579102 -15.391033172607422 0.302138894796371 0.003921568859369
-19.181451797485352 -16.083724975585938 -0.738397479057312 0.003921568859369
-21.583993911743164 -16.318483352661133 -0.316558301448822 0.003921568859369
-18.949968338012695 -19.353143692016602 0.156796693801880 0.003921568859369
-21.080327987670898 -17.638498306274414 -0.160735964775085 0.003921568859369
-21.978876113891602 -16.611663818359375 0.328144341707230 0.003921568859369
-15.313088417053223 -15.730893135070801 0.645872712135315 0.003921568859369
-19.883850097656250 -16.663499832153320 2.148578405380249 0.003921568859369
-21.694284439086914 -18.150260925292969 5.225202560424805 0.003921568859369
-20.075748443603516 -16.707929611206055 -0.769757091999054 0.003921568859369
-22.708419799804688 -17.037826538085938 -0.331636786460876 0.003921568859369
-20.059564590454102 -20.330444335937500 0.165545403957367 0.003921568859369
-21.225631713867188 -17.643871307373047 -0.161272540688515 0.003921568859369
-16.474472045898438 -15.226398468017578 6.103913307189941 0.003921568859369
-21.769487380981445 -18.095413208007812 5.229632854461670 0.003921568859369
-22.089178085327148 -16.461772918701172 -0.321924507617950 0.003921568859369
-15.620837211608887 -15.825186729431152 0.128669723868370 0.003921568859369
-20.037319183349609 -16.563161849975586 2.153379917144775 0.003921568859369
-18.737556457519531 -15.518013000488281 4.503711700439453 0.003921568859369
-16.070911407470703 -16.148824691772461 0.131992161273956 0.003921568859369
-20.039648056030273 -18.153221130371094 0.637042522430420 0.003921568859369
-21.675140380859375 -17.751853942871094 2.318877220153809 0.003921568859369
-19.362297058105469 -15.902790069580078 4.636696338653564 0.003921568859369
-19.261705398559570 -15.701140403747559 -0.145402610301971 0.003921568859369
-19.390981674194336 -15.807798385620117 2.073718547821045 0.003921568859369
-20.295145034790039 -16.531814575195312 4.841500759124756 0.003921568859369
-20.857835769653320 -16.855623245239258 -0.156359106302261 0.003921568859369
-20.921583175659180 -15.270289421081543 0.309229791164398 0.003921568859369
-17.083822250366211 -15.330133438110352 2.861367464065552 0.003921568859369
-19.823093414306641 -15.922300338745117 -0.749252021312714 0.003921568859369
-19.454236984252930 -19.054044723510742 0.158456400036812 0.003921568859369
-21.539680480957031 -17.269863128662109 -0.160682290792465 0.003921568859369
-19.727981567382812 -14.312319755554199 0.291171193122864 0.003921568859369
-17.047218322753906 -15.190721511840820 2.846838235855103 0.003921568859369
-19.351594924926758 -15.561581611633301 4.596827983856201 0.003921568859369
-20.745033264160156 -16.525608062744141 -0.780930221080780 0.003921568859369
-20.454421997070312 -14.715957641601562 -0.294511169195175 0.003921568859369
-16.271598815917969 -15.901994705200195 0.670264661312103 0.003921568859369
-20.138051986694336 -17.744413375854492 3.340364694595337 0.003921568859369
-19.409841537475586 -15.491100311279297 2.059803009033203 0.003921568859369
-21.223791122436523 -18.686298370361328 7.674863815307617 0.003921568859369
-18.575496673583984 -14.845648765563965 4.405971527099609 0.003921568859369
-20.581457138061523 -16.286386489868164 -0.772835671901703 0.003921568859369
-23.989702224731445 -17.079719543457031 -0.342720478773117 0.003921568859369
-19.497686386108398 -15.449493408203125 -0.145051971077919 0.003921568859369
-15.844215393066406 -15.393784523010254 0.651123762130737 0.003921568859369
-20.928922653198242 -14.832751274108887 -0.299453109502792 0.003921568859369
-21.677938461303711 -15.352647781372070 0.317872643470764 0.003921568859369
-15.991243362426758 -15.424139976501465 0.654966413974762 0.003921568859369
-19.748798370361328 -15.534993171691895 2.084186792373657 0.003921568859369
-18.956935882568359 -14.931272506713867 4.470846652984619 0.003921568859369
-9.913955688476562 -9.660545349121094 -0.911833882331848 0.000000000000000
-19.082609176635742 -14.909811973571777 2.009912729263306 0.003921568859369
-21.012123107910156 -14.669395446777344 -0.298932105302811 0.003921568859369
-20.758850097656250 -16.072055816650391 -0.152399763464928 0.003921568859369
-19.056032180786133 -16.345365524291992 0.593168914318085 0.003921568859369
-19.720039367675781 -15.289917945861816 2.070399761199951 0.003921568859369
-18.321176528930664 -15.741489410400391 6.571168422698975 0.003921568859369
-20.168157577514648 -15.633559226989746 4.724661350250244 0.003921568859369
-19.314889907836914 -16.559732437133789 -0.600083827972412 0.003921568859369
-19.244457244873047 -16.390884399414062 3.149677038192749 0.003921568859369
-23.160732269287109 -17.629962921142578 -0.854959547519684 0.003921568859369
-21.219614028930664 -14.590973854064941 0.308738857507706 0.003921568859369
-21.596004486083984 -18.211450576782227 1.667918682098389 0.003921568859369
-21.597843170166016 -14.738162994384766 -0.304506987333298 0.003921568859369
-22.113428115844727 -18.512666702270508 1.702568769454956 0.003921568859369
-21.381769180297852 -14.484885215759277 0.309889703989029 0.003921568859369
-19.028152465820312 -14.351717948913574 4.418384552001953 0.003921568859369
-21.077051162719727 -17.534149169921875 -0.645305931568146 0.003921568859369
-21.637145996093750 -16.137374877929688 -0.155900031328201 0.003921568859369
-22.060876846313477 -18.199787139892578 0.675834536552429 0.003921568859369
-17.076457977294922 -15.652906417846680 0.683652043342590 0.003921568859369
-20.521507263183594 -16.961854934692383 3.316158056259155 0.003921568859369
-18.716129302978516 -15.510356903076172 6.614237308502197 0.003921568859369
-19.160062789916992 -14.338094711303711 4.436467647552490 0.003921568859369
-18.745155334472656 -15.520992279052734 -0.574067294597626 0.003921568859369
-21.797859191894531 -14.536738395690918 -0.304762572050095 0.003921568859369
-20.895093917846680 -15.491596221923828 2.158288717269897 0.003921568859369
-19.162881851196289 -14.240532875061035 4.426519870758057 0.003921568859369
-21.804813385009766 -14.430625915527344 -0.304047822952271 0.003921568859369
-19.795515060424805 -16.145858764648438 1.510885834693909 0.003921568859369
-21.157060623168945 -17.240165710449219 7.415301322937012 0.003921568859369
-20.157888412475586 -14.852132797241211 4.639307975769043 0.003921568859369
-19.013046264648438 -15.519268035888672 -0.578633904457092 0.003921568859369
-21.557661056518555 -14.160722732543945 -0.299804598093033 0.003921568859369
-22.400854110717773 -18.089160919189453 1.701282739639282 0.003921568859369
-20.158128738403320 -16.320007324218750 3.233140468597412 0.003921568859369
-21.732500076293945 -15.867076873779297 4.982298374176025 0.003921568859369
-19.097225189208984 -15.474912643432617 -0.579449772834778 0.003921568859369
-21.523551940917969 -14.035926818847656 -0.298598945140839 0.003921568859369
-21.698291778564453 -14.148346900939941 0.311743974685669 0.003921568859369
-21.711090087890625 -17.428110122680664 3.467644929885864 0.003921568859369
-21.947126388549805 -17.620864868164062 7.646706581115723 0.003921568859369
-22.141286849975586 -16.045898437500000 5.062185764312744 0.003921568859369
-19.323917388916016 -15.438242912292480 0.586120128631592 0.003921568859369
-24.468410491943359 -15.792373657226562 0.350475966930389 0.003921568859369
-21.194198608398438 -16.897172927856445 1.603071212768555 0.003921568859369
-20.099607467651367 -16.047283172607422 3.207025766372681 0.003921568859369
-21.539697647094727 -13.830874443054199 -0.297261714935303 0.003921568859369
-22.583539962768555 -16.109514236450195 -0.159172728657722 0.003921568859369
-19.358699798583984 -15.354305267333984 0.585681021213531 0.003921568859369
-20.712955474853516 -16.403553009033203 1.563293337821960 0.003921568859369
-19.910573959350586 -15.785799026489258 3.169065237045288 0.003921568859369
-20.410102844238281 -16.165401458740234 -0.612734973430634 0.003921568859369
-21.757585525512695 -13.859636306762695 -0.299392282962799 0.003921568859369
-7.768840312957764 -6.344987392425537 1.277318835258484 0.000000000000000
-19.585741043090820 -13.916254043579102 1.997516989707947 0.003921568859369
-24.559661865234375 -15.496152877807617 -0.335867732763290 0.003921568859369
-18.988557815551758 -16.427354812622070 0.148417294025421 0.003921568859369
-21.411478042602539 -15.076171875000000 -0.150346294045448 0.003921568859369
-19.030441284179688 -16.346422195434570 0.148424595594406 0.003921568859369
-24.411018371582031 -15.164884567260742 -0.332201808691025 0.003921568859369
-18.940113067626953 -14.616401672363281 2.987385988235474 0.003921568859369
-23.209615707397461 -16.075464248657227 2.342824697494507 0.003921568859369
-19.282251358032227 -13.415707588195801 4.360130786895752 0.003921568859369
-25.066312789916992 -15.441914558410645 -0.339991271495819 0.003921568859369
-21.043828964233398 -14.493144989013672 -0.146477729082108 0.003921568859369
-21.858259201049805 -16.684778213500977 0.652002096176147 0.003921568859369
-20.681045532226562 -15.817332267761230 7.083986282348633 0.003921568859369
-21.894100189208984 -14.951075553894043 -0.778545081615448 0.003921568859369
-20.883371353149414 -17.520566940307617 0.161832228302956 0.003921568859369
-21.323541641235352 -16.049640655517578 0.633279025554657 0.003921568859369
-19.897909164428711 -13.519674301147461 2.001162528991699 0.003921568859369
-19.065307617187500 -14.287448883056641 2.976142168045044 0.003921568859369
-19.944963455200195 -13.448424339294434 2.001281738281250 0.003921568859369
-18.882884979248047 -14.055955886840820 2.942167520523071 0.003921568859369
-19.847753524780273 -13.287624359130859 1.988151311874390 0.003921568859369
-20.194538116455078 -13.518359184265137 4.511086463928223 0.003921568859369
-21.435874938964844 -14.210902214050293 -0.755304515361786 0.003921568859369
-18.878742218017578 -15.435907363891602 0.145244345068932 0.003921568859369
-24.639894485473633 -16.287946701049805 -0.167531430721283 0.003921568859369
-19.170238494873047 -14.159860610961914 2.978441715240479 0.003921568859369
-22.851367950439453 -15.133238792419434 2.277185678482056 0.003921568859369
-20.304309844970703 -13.486705780029297 4.524868011474609 0.003921568859369
-20.090881347656250 -13.242306709289551 2.003102064132690 0.003921568859369
-21.085037231445312 -15.431138038635254 7.112876892089844 0.003921568859369
-19.190874099731445 -13.967066764831543 2.966959714889526 0.003921568859369
-22.627098083496094 -14.759663581848145 2.245430469512939 0.003921568859369
-21.082033157348633 -15.315432548522949 7.094356536865234 0.003921568859369
-19.992286682128906 -12.981698989868164 4.427471160888672 0.003921568859369
-21.102764129638672 -15.098768234252930 0.617200732231140 0.003921568859369
-23.159004211425781 -14.873512268066406 2.287540674209595 0.003921568859369
-19.782056808471680 -12.754461288452148 4.372949123382568 0.003921568859369
-21.902044296264648 -13.969494819641113 -0.762242734432220 0.003921568859369
-21.194261550903320 -16.676139831542969 0.161495432257652 0.003921568859369
-24.425418853759766 -15.544293403625488 -0.163634836673737 0.003921568859369
-23.203998565673828 -14.786623954772949 2.287025928497314 0.003921568859369
-21.397178649902344 -15.202517509460449 7.146570682525635 0.003921568859369
-19.689567565917969 -12.598174095153809 4.343592166900635 0.003921568859369
-24.287599563598633 -15.326472282409668 -0.162212416529655 0.003921568859369
-19.638097763061523 -13.860643386840820 3.005079984664917 0.003921568859369
-20.611114501953125 -13.060915946960449 4.531366825103760 0.003921568859369
-23.367715835571289 -14.543829917907715 2.288422822952271 0.003921568859369
-20.569562911987305 -12.842784881591797 4.504280090332031 0.003921568859369
-19.826723098754883 -13.689351081848145 3.012767076492310 0.003921568859369
-23.445619583129883 -14.476924896240234 2.291177272796631 0.003921568859369
-21.273651123046875 -14.560252189636230 7.022856712341309 0.003921568859369
-21.831224441528320 -16.438663482666016 0.164709717035294 0.003921568859369
-21.242980957031250 -14.435121536254883 6.999306201934814 0.003921568859369
-21.504117965698242 -16.079801559448242 0.161958277225494 0.003921568859369
-21.395185470581055 -14.414986610412598 0.615212261676788 0.003921568859369
-20.412481307983398 -13.769708633422852 1.463115572929382 0.003921568859369
-21.661006927490234 -14.601371765136719 7.117611885070801 0.003921568859369
-20.371765136718750 -15.141031265258789 0.153163194656372 0.003921568859369
-21.804300308227539 -14.574548721313477 1.557289242744446 0.003921568859369
-5.124213218688965 -3.297415256500244 0.531362593173981 0.000000000000000
-21.097410202026367 -14.122239112854004 6.920790672302246 0.003921568859369
-24.796070098876953 -14.824317932128906 5.355086326599121 0.003921568859369
-22.327465057373047 -14.802871704101562 1.590414762496948 0.003921568859369
-21.814332962036133 -14.362782478332520 3.264462232589722 0.003921568859369
-21.858083724975586 -14.281703948974609 0.623208165168762 0.003921568859369
-22.653156280517578 -14.791120529174805 1.606364488601685 0.003921568859369
-22.364667892456055 -14.616754531860352 7.278833389282227 0.003921568859369
-20.419441223144531 -13.264639854431152 3.047149658203125 0.003921568859369
-20.872808456420898 -14.947703361511230 0.155632361769676 0.003921568859369
-21.096130371093750 -13.585299491882324 1.491729021072388 0.003921568859369
-23.671463012695312 -15.208116531372070 3.513741016387939 0.003921568859369
-21.345464706420898 -15.164907455444336 0.158899366855621 0.003921568859369
-23.162919998168945 -14.655534744262695 1.627992987632751 0.003921568859369
-23.588006973266602 -14.921889305114746 3.486648321151733 0.003921568859369
-21.334899902343750 -13.532865524291992 6.890604496002197 0.003921568859369
-21.064477920532227 -14.747858047485352 0.156305342912674 0.003921568859369
-23.281976699829102 -14.614627838134766 1.632816791534424 0.003921568859369
-22.418664932250977 -14.093880653381348 7.217319011688232 0.003921568859369
-23.414665222167969 -14.581393241882324 1.638577818870544 0.003921568859369
-23.847486495971680 -14.848376274108887 3.509432554244995 0.003921568859369
-21.956485748291016 -13.701920509338379 7.056752681732178 0.003921568859369
-21.958942413330078 -13.690348625183105 -0.605572044849396 0.003921568859369
-23.571006774902344 -14.565973281860352 1.646667003631592 0.003921568859369
-24.822687149047852 -15.318793296813965 -0.680655956268311 0.003921568859369
-22.372114181518555 -13.741730690002441 7.159873485565186 0.003921568859369
-24.941158294677734 -15.269355773925781 -0.682238459587097 0.003921568859369
-5.746891021728516 -3.696916103363037 0.422427624464035 0.000000000000000
-5.069899082183838 -2.940570354461670 1.149334430694580 0.000000000000000
-24.623085021972656 -16.181035995483398 0.180801987648010 0.003921568859369
-24.689519882202148 -16.099664688110352 0.181032791733742 0.003921568859369
-24.432237625122070 -15.691199302673340 0.178644627332687 0.003921568859369
-5.757985115051270 -3.501195669174194 0.417531967163086 0.000000000000000
-9.987984657287598 -5.819171428680420 3.218282699584961 0.000000000000000
-14.915762901306152 -7.587285041809082 3.139976978302002 0.003921568859369
-9.980679512023926 -5.771379470825195 3.212177038192749 0.000000000000000
-15.557690620422363 -7.692365646362305 -0.512523353099823 0.000000000000000
-12.809007644653320 -6.209475994110107 -0.423307478427887 0.000000000000000
-6.190446376800537 -3.388548135757446 0.922812640666962 0.000000000000000
-4.694908618927002 -2.282608747482300 0.464582145214081 0.000000000000000
-10.397263526916504 -4.632981300354004 -0.065349966287613 0.000000000000000
-1.340428113937378 -0.785516440868378 0.032541118562222 0.000000000000000
-13.878771781921387 -5.996375083923340 -0.447859793901443 0.000000000000000
-16.429531097412109 -7.064266681671143 3.357181549072266 0.003921568859369
-11.211737632751465 -4.696545124053955 0.519520461559296 0.000000000000000
-6.868001461029053 -3.353715896606445 0.189766585826874 0.000000000000000
-1.368909597396851 -0.852266550064087 0.118105992674828 0.000000000000000
-17.822780609130859 -6.109768390655518 -0.664740860462189 0.003921568859369
-10.647376060485840 -4.298438549041748 2.188284397125244 0.000000000000000
-18.049390792846680 -6.042114734649658 -0.216347172856331 0.003921568859369
-9.811927795410156 -3.934165716171265 0.907175540924072 0.000000000000000
-18.186159133911133 -6.007892131805420 0.240184873342514 0.003921568859369
-12.707833290100098 -5.627660751342773 3.860614061355591 0.000000000000000
-6.857960224151611 -3.049561023712158 0.466766089200974 0.000000000000000
-13.435835838317871 -4.982048988342285 2.710999250411987 0.000000000000000
-18.652095794677734 -7.835000514984131 0.492020249366760 0.003921568859369
-12.761046409606934 -5.430252075195312 0.841798245906830 0.000000000000000
-9.007807731628418 -3.365591287612915 1.848018884658813 0.000000000000000
-6.393073081970215 -2.412600994110107 -0.212056785821915 0.000000000000000
-9.255038261413574 -3.960144758224487 2.832426071166992 0.000000000000000
-20.411531448364258 -6.089660644531250 -0.240043133497238 0.003921568859369
