# This PCD file was generated using the MATLAB® pcwrite function
# from Computer Vision Toolbox®.
# .PCD v.7 - Point Cloud Data file format
VERSION .7
FIELDS x y z intensity
SIZE 8 8 8 8
TYPE F F F F
COUNT 1 1 1 1
WIDTH 626
HEIGHT 1
VIEWPOINT 0 0 0 1 0 0 0
POINTS 626
DATA ascii
-10.574025154113770 -23.287384033203125 -0.153551936149597 0.003921568859369
-11.647089004516602 -22.626642227172852 0.294677883386612 0.003921568859369
-9.499748229980469 -23.981441497802734 1.507133603096008 0.003921568859369
-8.161422729492188 -20.742494583129883 2.751775026321411 0.003921568859369
-10.523651123046875 -22.972261428833008 -0.744305789470673 0.003921568859369
-9.503437042236328 -23.755073547363281 1.495052814483643 0.003921568859369
-9.811497688293457 -24.493747711181641 3.254764795303345 0.003921568859369
-10.483263015747070 -22.887933731079102 2.065369606018066 0.003921568859369
-10.238949775695801 -22.375013351440430 4.514061927795410 0.003921568859369
-10.683390617370605 -23.099760055541992 -0.749654471874237 0.003921568859369
-9.499470710754395 -23.514251708984375 1.482042193412781 0.003921568859369
-1.939296603202820 -5.571785926818848 0.738875806331635 0.000000000000000
-10.504424095153809 -22.727584838867188 2.054313898086548 0.003921568859369
-10.359575271606445 -22.426399230957031 4.532004356384277 0.003921568859369
-10.885981559753418 -23.312780380249023 -0.757797300815582 0.003921568859369
-12.054039001464844 -22.811552047729492 0.298839747905731 0.003921568859369
-9.354292869567871 -22.945873260498047 3.057874679565430 0.003921568859369
-9.329694747924805 -22.888824462890625 6.661138534545898 0.003921568859369
-10.442937850952148 -22.399295806884766 4.534163475036621 0.003921568859369
-11.581655502319336 -21.765953063964844 0.285545796155930 0.003921568859369
-9.962439537048340 -24.140974044799805 3.222132444381714 0.003921568859369
-7.715833663940430 -18.910734176635742 -0.482809662818909 0.003921568859369
-11.134455680847168 -23.407861709594727 -0.155566319823265 0.003921568859369
-9.960179328918457 -23.904735565185547 0.602349758148193 0.003921568859369
-12.189688682556152 -22.682035446166992 0.298296988010406 0.003921568859369
-9.707030296325684 -23.321285247802734 1.476485013961792 0.003921568859369
-1.427206754684448 -4.232008457183838 0.562932729721069 0.000000000000000
-10.767987251281738 -22.466526031494141 -0.734139084815979 0.003921568859369
-9.664115905761719 -23.002397537231445 3.079341650009155 0.003921568859369
-10.712376594543457 -22.355258941650391 2.034494638442993 0.003921568859369
-10.589274406433105 -22.108263015747070 4.498314857482910 0.003921568859369
-11.661487579345703 -21.377950668334961 -0.289544433355331 0.003921568859369
-11.870354652404785 -24.468509674072266 2.231037616729736 0.003921568859369
-9.796727180480957 -23.086334228515625 6.759510993957520 0.003921568859369
-10.967896461486816 -22.473571777343750 -0.736918628215790 0.003921568859369
-13.744298934936523 -24.863895416259766 -0.336851090192795 0.003921568859369
-11.397010803222656 -23.321393966674805 -0.155776515603065 0.003921568859369
-9.795333862304688 -22.866258621215820 3.070582866668701 0.003921568859369
-10.828558921813965 -22.198823928833008 2.027350664138794 0.003921568859369
-11.270988464355469 -22.873926162719727 -0.153111129999161 0.003921568859369
-11.529709815979004 -20.804048538208008 0.275535255670547 0.003921568859369
-9.667583465576172 -22.369489669799805 1.424905300140381 0.003921568859369
-12.209478378295898 -24.712408065795898 2.261315345764160 0.003921568859369
-11.625694274902344 -23.376770019531250 -0.769037961959839 0.003921568859369
-13.923229217529297 -24.784297943115234 -0.337067633867264 0.003921568859369
-10.317062377929688 -23.601877212524414 0.599319040775299 0.003921568859369
-11.684729576110840 -20.913234710693359 0.277542203664780 0.003921568859369
-10.093598365783691 -23.110309600830078 1.474429249763489 0.003921568859369
-11.455278396606445 -26.107158660888672 3.517053127288818 0.003921568859369
-11.433752059936523 -23.004438400268555 2.108388185501099 0.003921568859369
-10.105837821960449 -23.138315200805664 6.806116580963135 0.003921568859369
-12.042117118835449 -24.186754226684570 4.956052303314209 0.003921568859369
-11.305749893188477 -22.575237274169922 -0.744103908538818 0.003921568859369
-14.129309654235840 -24.951847076416016 0.332506626844406 0.003921568859369
-11.504373550415039 -25.989789962768555 3.506841421127319 0.003921568859369
-11.765805244445801 -23.461851119995117 2.154289722442627 0.003921568859369
-10.971476554870605 -21.932394027709961 4.501947879791260 0.003921568859369
-12.063338279724121 -23.830575942993164 -0.786704599857330 0.003921568859369
-11.524693489074707 -22.802049636840820 -0.153403118252754 0.003921568859369
-13.881981849670410 -24.331928253173828 0.324838370084763 0.003921568859369
-9.940670967102051 -22.373901367187500 3.023342132568359 0.003921568859369
-11.425968170166016 -22.613927841186523 2.080105543136597 0.003921568859369
-10.182004928588867 -22.896026611328125 6.756450653076172 0.003921568859369
-10.717566490173340 -21.261524200439453 4.372102260589600 0.003921568859369
-10.439185142517090 -23.450147628784180 -0.605219244956970 0.003921568859369
-14.382699012756348 -24.983873367309570 -0.341775536537170 0.003921568859369
-10.160402297973633 -22.640449523925781 0.577594399452209 0.003921568859369
-7.472639083862305 -19.292402267456055 0.602690994739532 0.003921568859369
-10.517116546630859 -23.404270172119141 1.500499606132507 0.003921568859369
-11.640159606933594 -25.808816909790039 3.493698358535767 0.003921568859369
-10.983554840087891 -21.585351943969727 1.988999605178833 0.003921568859369
-10.557826042175293 -23.492511749267578 6.943830966949463 0.003921568859369
-8.092294692993164 -18.212953567504883 -0.471581071615219 0.003921568859369
-12.216249465942383 -23.718173980712891 -0.785873651504517 0.003921568859369
-13.938779830932617 -24.042604446411133 -0.329697549343109 0.003921568859369
-11.792647361755371 -22.922904968261719 -0.154739081859589 0.003921568859369
-11.155001640319824 -24.545824050903320 0.627534270286560 0.003921568859369
-13.700893402099609 -23.644264221191406 0.316898882389069 0.003921568859369
-11.055061340332031 -24.333995819091797 1.562813997268677 0.003921568859369
-12.411867141723633 -24.086032867431641 2.223950147628784 0.003921568859369
-10.671065330505371 -23.520465850830078 6.963508129119873 0.003921568859369
-10.483280181884766 -23.120592117309570 -0.598685383796692 0.003921568859369
-11.228590011596680 -24.480005264282227 0.626891434192657 0.003921568859369
-13.847275733947754 -23.701082229614258 0.318349629640579 0.003921568859369
-11.419295310974121 -24.881481170654297 3.379173994064331 0.003921568859369
-11.531979560852051 -22.246334075927734 2.057675361633301 0.003921568859369
-8.149255752563477 -18.007131576538086 5.339269161224365 0.003921568859369
-11.271010398864746 -21.760860443115234 4.499825000762939 0.003921568859369
-10.520977973937988 -22.992124557495117 -0.596349775791168 0.003921568859369
-9.202697753906250 -15.857330322265625 -0.219525367021561 0.003921568859369
-11.294938087463379 -24.399549484252930 0.625876605510712 0.003921568859369
-14.448491096496582 -24.506109237670898 0.329990893602371 0.003921568859369
-10.530078887939453 -22.806085586547852 1.469369053840637 0.003921568859369
-8.194087982177734 -17.939100265502930 2.439452171325684 0.003921568859369
-8.186985969543457 -17.924873352050781 5.323747634887695 0.003921568859369
-10.691148757934570 -23.141275405883789 -0.601184427738190 0.003921568859369
-14.659157752990723 -24.658796310424805 -0.340156257152557 0.003921568859369
-11.399204254150391 -24.398118972778320 0.626907527446747 0.003921568859369
-10.388586997985840 -22.311300277709961 1.439850091934204 0.003921568859369
-9.202740669250488 -15.733216285705566 -0.647565662860870 0.003921568859369
-14.497568130493164 -24.204204559326172 -0.334649384021759 0.003921568859369
-10.673294067382812 -22.696750640869141 0.583954751491547 0.003921568859369
-12.754008293151855 -21.374462127685547 0.288639366626740 0.003921568859369
-11.495368003845215 -24.379568099975586 1.576330542564392 0.003921568859369
-11.043081283569336 -23.454139709472656 3.201292276382446 0.003921568859369
-11.814278602600098 -22.210800170898438 2.066158533096313 0.003921568859369
-13.216814994812012 -21.953546524047852 -0.304494917392731 0.003921568859369
-11.162620544433594 -23.490058898925781 0.605535984039307 0.003921568859369
-11.658077239990234 -24.495437622070312 1.586568236351013 0.003921568859369
-12.263229370117188 -22.837583541870117 4.758847236633301 0.003921568859369
-14.774397850036621 -24.272417068481445 -0.337008446455002 0.003921568859369
-12.596314430236816 -23.245084762573242 -0.158582180738449 0.003921568859369
-10.573636054992676 -22.100397109985352 1.433594822883606 0.003921568859369
-11.760971069335938 -24.487831115722656 -0.640261709690094 0.003921568859369
-12.764415740966797 -20.906101226806641 -0.291341036558151 0.003921568859369
-12.352982521057129 -22.633943557739258 -0.154778093099594 0.003921568859369
-11.662790298461914 -24.089906692504883 0.623219728469849 0.003921568859369
-10.841804504394531 -22.453639984130859 6.726497173309326 0.003921568859369
-11.743752479553223 -21.379261016845703 -0.146665364503860 0.003921568859369
-11.826218605041504 -24.204612731933594 0.627319514751434 0.003921568859369
-8.416972160339355 -17.463905334472656 1.136012911796570 0.003921568859369
-11.690844535827637 -21.126808166503906 -0.712456822395325 0.003921568859369
-11.723584175109863 -21.184005737304688 -0.145622551441193 0.003921568859369
-8.456180572509766 -17.404504776000977 1.134158372879028 0.003921568859369
-12.175519943237305 -24.695569992065430 3.400213718414307 0.003921568859369
-10.761086463928223 -21.923618316650391 6.590907096862793 0.003921568859369
-12.518820762634277 -22.571826934814453 4.740239143371582 0.003921568859369
-11.707275390625000 -23.776950836181641 -0.624954044818878 0.003921568859369
-14.013516426086426 -24.975269317626953 -0.843276143074036 0.003921568859369
-14.177471160888672 -25.259035110473633 -0.173294320702553 0.003921568859369
-12.406708717346191 -24.932830810546875 0.648648023605347 0.003921568859369
-11.756242752075195 -23.668880462646484 1.546399831771851 0.003921568859369
-11.509604454040527 -20.643840789794922 1.942880272865295 0.003921568859369
-10.901184082031250 -22.008119583129883 6.628182888031006 0.003921568859369
-11.997062683105469 -21.314641952514648 -0.721636950969696 0.003921568859369
-12.943160057067871 -20.559112548828125 0.281909584999084 0.003921568859369
-11.222574234008789 -22.438873291015625 1.468517541885376 0.003921568859369
-12.903570175170898 -25.678285598754883 3.548408985137939 0.003921568859369
-12.069313049316406 -21.439115524291992 2.021966218948364 0.003921568859369
-11.011748313903809 -22.033622741699219 6.647859573364258 0.003921568859369
-14.219921112060547 -24.929042816162109 -0.845120787620544 0.003921568859369
-10.113163948059082 -22.771917343139648 0.141940832138062 0.003921568859369
-13.396212577819824 -21.094488143920898 0.290017157793045 0.003921568859369
-12.467462539672852 -24.626964569091797 1.615006446838379 0.003921568859369
-11.744292259216309 -20.714729309082031 1.957539200782776 0.003921568859369
-12.161443710327148 -24.041889190673828 -0.635263741016388 0.003921568859369
-10.481964111328125 -23.354759216308594 0.145913124084473 0.003921568859369
-13.587318420410156 -23.662611007690430 -0.163515046238899 0.003921568859369
-14.943860054016113 -23.279289245605469 0.321169137954712 0.003921568859369
-12.560805320739746 -24.595945358276367 1.615944862365723 0.003921568859369
-11.334833145141602 -22.274440765380859 6.745186805725098 0.003921568859369
-12.140748977661133 -23.799776077270508 -0.630042016506195 0.003921568859369
-10.686176300048828 -23.577075958251953 0.147590354084969 0.003921568859369
-4.408189296722412 -7.263095378875732 0.098041415214539 0.000000000000000
-11.417962074279785 -22.243490219116211 6.748300075531006 0.003921568859369
-14.098551750183105 -24.332836151123047 5.162856101989746 0.003921568859369
-12.233146667480469 -23.773422241210938 -0.630499243736267 0.003921568859369
-8.702034950256348 -16.997148513793945 -0.003700387198478 0.003921568859369
-10.584636688232422 -23.151624679565430 0.145117118954659 0.003921568859369
-11.224987983703613 -21.697078704833984 1.430416107177734 0.003921568859369
-11.977972030639648 -23.100742340087891 7.021609783172607 0.003921568859369
-12.171258926391602 -20.936883926391602 4.451153755187988 0.003921568859369
-11.359158515930176 -24.559232711791992 0.154423698782921 0.003921568859369
-14.305094718933105 -24.291023254394531 -0.168772548437119 0.003921568859369
-11.977995872497559 -22.907363891601562 0.602379739284515 0.003921568859369
-14.078342437744141 -23.917922973632812 5.096150398254395 0.003921568859369
-9.207109451293945 -15.758294105529785 -0.541078090667725 0.000000000000000
-1.347978830337524 -3.243726968765259 -0.003531440859661 0.000000000000000
-11.460500717163086 -24.550357818603516 0.154640659689903 0.003921568859369
-14.646342277526855 -24.659276962280273 -0.171626180410385 0.003921568859369
-13.182572364807129 -24.924325942993164 0.656985819339752 0.003921568859369
-14.098137855529785 -23.763059616088867 5.073917865753174 0.003921568859369
-12.729109764099121 -21.353984832763672 -0.149394825100899 0.003921568859369
-14.501722335815430 -24.053108215332031 -0.168165177106857 0.003921568859369
-13.942487716674805 -20.809017181396484 0.290862470865250 0.003921568859369
-11.249907493591309 -21.042057037353516 1.397660851478577 0.003921568859369
-12.378386497497559 -23.076663970947266 3.236517667770386 0.003921568859369
-14.695642471313477 -21.737237930297852 -0.311766147613525 0.003921568859369
-14.736168861389160 -24.241659164428711 -0.169808492064476 0.003921568859369
-10.524701118469238 -22.035589218139648 0.712267696857452 0.003921568859369
-11.476307868957520 -21.275053024291992 2.989393234252930 0.003921568859369
-12.296651840209961 -22.741125106811523 -0.610063910484314 0.003921568859369
-12.457326889038086 -22.855028152465820 7.026848316192627 0.003921568859369
-12.516433715820312 -20.544294357299805 4.423947334289551 0.003921568859369
-11.680997848510742 -21.302986145019531 0.566532731056213 0.003921568859369
-14.458113670349121 -23.443233489990234 2.263545989990234 0.003921568859369
-4.875450134277344 -10.403992652893066 0.336237192153931 0.000000000000000
-12.779870986938477 -23.049438476562500 7.114860534667969 0.003921568859369
-11.128766059875488 -22.472803115844727 0.143086403608322 0.003921568859369
-11.666108131408691 -20.935396194458008 1.404450893402100 0.003921568859369
-15.187520027160645 -24.216533660888672 2.348831415176392 0.003921568859369
-13.700059890747070 -24.455308914184570 -0.660930573940277 0.003921568859369
-11.350812911987305 -22.709264755249023 0.144904434680939 0.003921568859369
-15.684713363647461 -24.797018051147461 2.410676479339600 0.003921568859369
-13.956418037414551 -24.699556350708008 -0.668833196163177 0.003921568859369
-11.381801605224609 -22.575855255126953 0.144308909773827 0.003921568859369
-11.876164436340332 -20.960662841796875 6.509260654449463 0.003921568859369
-12.500073432922363 -19.745674133300781 4.299861907958984 0.003921568859369
-11.693440437316895 -20.485321044921875 6.374684810638428 0.003921568859369
-12.211054801940918 -21.190221786499023 3.026023626327515 0.003921568859369
-14.243898391723633 -22.070550918579102 2.160102605819702 0.003921568859369
-14.410956382751465 -24.877237319946289 -0.677741408348083 0.003921568859369
-14.231776237487793 -24.383256912231445 0.658411562442780 0.003921568859369
-12.533443450927734 -23.956621170043945 0.154554635286331 0.003921568859369
-13.612772941589355 -23.170438766479492 1.574250102043152 0.003921568859369
-15.523642539978027 -21.171964645385742 -0.312030971050262 0.003921568859369
-11.425395965576172 -21.745409011840820 0.140215232968330 0.003921568859369
-15.376770019531250 -20.977138519287109 0.302384227514267 0.003921568859369
-12.836521148681641 -21.735546112060547 3.123050689697266 0.003921568859369
-13.050399780273438 -19.836902618408203 1.954435348510742 0.003921568859369
-14.510297775268555 -19.676670074462891 -0.291031301021576 0.003921568859369
-11.537785530090332 -21.761390686035156 0.140617966651917 0.003921568859369
-15.059301376342773 -20.399818420410156 0.294799387454987 0.003921568859369
-11.336356163024902 -21.395223617553711 0.706900060176849 0.003921568859369
-12.769496917724609 -19.271583557128906 4.255422592163086 0.003921568859369
-14.973972320556641 -20.157659530639648 -0.298779845237732 0.003921568859369
-12.846340179443359 -19.256608963012695 1.906293034553528 0.003921568859369
-14.759666442871094 -24.511005401611328 -0.674698173999786 0.003921568859369
-14.764992713928223 -21.865785598754883 -0.158257350325584 0.003921568859369
-13.114698410034180 -21.680597305297852 3.135763645172119 0.003921568859369
-12.651494026184082 -23.220317840576172 0.151221200823784 0.003921568859369
-14.639290809631348 -21.524278640747070 -0.156204566359520 0.003921568859369
-16.002925872802734 -21.187667846679688 0.308866620063782 0.003921568859369
-14.305774688720703 -21.048471450805664 2.094431877136230 0.003921568859369
-13.213975906372070 -19.490064620971680 4.335096359252930 0.003921568859369
-15.070900917053223 -19.850214004516602 0.289908766746521 0.003921568859369
-11.682288169860840 -21.335248947143555 0.710430860519409 0.003921568859369
-12.828118324279785 -20.903902053833008 1.438272476196289 0.003921568859369
-12.649714469909668 -18.552845001220703 1.850007891654968 0.003921568859369
-12.728656768798828 -20.748033523559570 6.580781459808350 0.003921568859369
-11.714692115783691 -21.210893630981445 0.707763016223907 0.003921568859369
-15.647818565368652 -20.302207946777344 -0.304881989955902 0.003921568859369
-14.522468566894531 -23.222858428955078 0.639248430728912 0.003921568859369
-15.151016235351562 -19.675224304199219 0.288898974657059 0.003921568859369
-14.823340415954590 -23.690095901489258 1.637589931488037 0.003921568859369
-13.037869453430176 -18.829692840576172 1.886800765991211 0.003921568859369
-14.217816352844238 -25.181049346923828 0.165659025311470 0.003921568859369
-12.904393196105957 -20.545167922973633 0.566487848758698 0.003921568859369
-14.072787284851074 -22.344606399536133 1.548063874244690 0.003921568859369
-12.928376197814941 -20.583097457885742 6.572522640228271 0.003921568859369
-15.833811759948730 -20.230501174926758 -0.305562824010849 0.003921568859369
-13.384785652160645 -21.115112304687500 0.583711504936218 0.003921568859369
-12.942362785339355 -20.440217971801758 6.542507171630859 0.003921568859369
-15.371299743652344 -19.529556274414062 0.289202183485031 0.003921568859369
-13.782850265502930 -21.575147628784180 1.501335382461548 0.003921568859369
-13.272284507751465 -20.801343917846680 6.671924591064453 0.003921568859369
-14.887293815612793 -23.075016021728516 0.641051352024078 0.003921568859369
-12.855126380920410 -20.015146255493164 1.395759820938110 0.003921568859369
-13.252163887023926 -18.575525283813477 1.880320191383362 0.003921568859369
-12.906641006469727 -20.093538284301758 6.459699630737305 0.003921568859369
-15.354969978332520 -19.233247756958008 0.286421447992325 0.003921568859369
-12.414140701293945 -19.205307006835938 1.342277646064758 0.003921568859369
-13.150145530700684 -20.305486679077148 2.996414422988892 0.003921568859369
-15.413853645324707 -21.352792739868164 4.845299243927002 0.003921568859369
-15.326704978942871 -19.049207687377930 0.284565657377243 0.003921568859369
-14.585681915283203 -22.266029357910156 7.193732261657715 0.003921568859369
-15.422793388366699 -19.051837921142578 0.285381495952606 0.003921568859369
-13.851592063903809 -21.045747756958008 6.813805580139160 0.003921568859369
-13.863701820373535 -20.905189514160156 0.586007177829742 0.003921568859369
-15.949295997619629 -19.544879913330078 0.293734401464462 0.003921568859369
-12.554328918457031 -18.992429733276367 2.822413682937622 0.003921568859369
-15.380151748657227 -20.856727600097656 2.133922338485718 0.003921568859369
-13.525637626647949 -20.412225723266602 6.624354839324951 0.003921568859369
-13.372200965881348 -18.210544586181641 4.164423465728760 0.003921568859369
-15.093874931335449 -20.323932647705078 -0.152048945426941 0.003921568859369
-13.756303787231445 -20.585973739624023 0.578476548194885 0.003921568859369
-15.894326210021973 -19.334964752197266 0.291458398103714 0.003921568859369
-16.020662307739258 -21.536544799804688 2.209771871566772 0.003921568859369
-15.094344139099121 -22.526777267456055 7.329400539398193 0.003921568859369
-14.169012069702148 -21.034683227539062 0.592538595199585 0.003921568859369
-13.711891174316406 -20.377656936645508 6.645076274871826 0.003921568859369
-13.419789314270020 -18.010734558105469 4.140759944915771 0.003921568859369
-15.144867897033691 -22.265823364257812 7.279723644256592 0.003921568859369
-16.206136703491211 -21.467269897460938 4.950127124786377 0.003921568859369
-15.087862014770508 -22.036725997924805 7.220718860626221 0.003921568859369
-14.253976821899414 -18.827896118164062 4.351724147796631 0.003921568859369
-13.211334228515625 -19.075260162353516 2.877058744430542 0.003921568859369
-16.094404220581055 -20.867845535278320 2.170429229736328 0.003921568859369
-14.542806625366211 -20.935777664184570 6.895651817321777 0.003921568859369
-15.981406211853027 -20.591615676879883 -0.769893765449524 0.003921568859369
-15.246480941772461 -21.773315429687500 3.291933536529541 0.003921568859369
-2.151015996932983 -3.253351926803589 0.336215585470200 0.000000000000000
-14.642384529113770 -20.935615539550781 6.911188602447510 0.003921568859369
-14.878256797790527 -23.434337615966797 0.159212350845337 0.003921568859369
-17.278976440429688 -19.977081298828125 0.307740896940231 0.003921568859369
-15.208103179931641 -21.560979843139648 3.268054246902466 0.003921568859369
-16.364778518676758 -20.922422409057617 2.187697172164917 0.003921568859369
-14.660897254943848 -20.807779312133789 6.886349678039551 0.003921568859369
-14.899368286132812 -18.955360412597656 -0.145048275589943 0.003921568859369
-16.776365280151367 -19.267822265625000 0.297677218914032 0.003921568859369
-16.559236526489258 -21.006317138671875 2.203004837036133 0.003921568859369
-14.343424797058105 -18.269182205200195 4.282162189483643 0.003921568859369
-13.861680984497070 -21.541427612304688 0.146784871816635 0.003921568859369
-15.816033363342285 -18.065988540649414 0.279778182506561 0.003921568859369
-15.185343742370605 -21.208709716796875 3.231508255004883 0.003921568859369
-16.395669937133789 -20.656368255615234 2.172415494918823 0.003921568859369
-13.631338119506836 -17.265838623046875 4.058301925659180 0.003921568859369
-17.026145935058594 -19.289466857910156 0.299905091524124 0.003921568859369
-13.148579597473145 -20.331951141357422 0.708407223224640 0.003921568859369
-15.822740554809570 -21.930482864379883 1.587096214294434 0.003921568859369
-13.638875961303711 -17.167348861694336 4.046120643615723 0.003921568859369
-15.141534805297852 -17.089187622070312 0.266142517328262 0.003921568859369
-1.906376719474792 -2.852050304412842 0.147186771035194 0.000000000000000
-13.994555473327637 -17.475959777832031 4.130797386169434 0.003921568859369
-15.604661941528320 -17.467735290527344 0.273053824901581 0.003921568859369
-15.810228347778320 -21.589324951171875 3.315406084060669 0.003921568859369
-15.866575241088867 -21.664735794067383 7.264299869537354 0.003921568859369
-17.045150756835938 -21.009162902832031 4.981805801391602 0.003921568859369
-15.412722587585449 -18.920370101928711 -0.146756306290627 0.003921568859369
-15.366407394409180 -17.094398498535156 0.267976403236389 0.003921568859369
-16.192813873291016 -21.946054458618164 7.377158164978027 0.003921568859369
-16.442344665527344 -22.113288879394531 0.644239425659180 0.003921568859369
-15.239462852478027 -18.457002639770508 -0.708279252052307 0.003921568859369
-15.624044418334961 -18.909467697143555 -0.147482708096504 0.003921568859369
-17.621393203735352 -21.259712219238281 5.084439277648926 0.003921568859369
-14.714491844177246 -21.676393508911133 0.150327593088150 0.003921568859369
-15.684648513793945 -17.076082229614258 0.270377665758133 0.003921568859369
-15.088303565979004 -18.144720077514648 4.352554798126221 0.003921568859369
-16.238883972167969 -19.357210159301758 -0.151754707098007 0.003921568859369
-1.590397238731384 -2.616156101226807 0.073626071214676 0.000000000000000
-15.699838638305664 -16.979009628295898 0.269684940576553 0.003921568859369
-14.425519943237305 -19.062971115112305 -0.566023588180542 0.003921568859369
-16.492252349853516 -17.687923431396484 -0.288264453411102 0.003921568859369
-16.455831527709961 -19.470991134643555 -0.153067618608475 0.003921568859369
-14.865034103393555 -19.485717773437500 0.573420941829681 0.003921568859369
-15.839244842529297 -17.006292343139648 0.271045297384262 0.003921568859369
-14.521707534790039 -19.049287796020508 2.971748352050781 0.003921568859369
-13.417894363403320 -17.645448684692383 6.010569572448730 0.003921568859369
-14.864356040954590 -19.338531494140625 0.570729136466980 0.003921568859369
-16.584701538085938 -17.654504776000977 0.282530158758163 0.003921568859369
-19.211118698120117 -22.327312469482422 -0.176016241312027 0.003921568859369
-16.668237686157227 -17.623735427856445 0.282957404851913 0.003921568859369
-18.156629562377930 -19.015951156616211 -0.312777787446976 0.003921568859369
-16.083486557006836 -18.637598037719727 -0.147991031408310 0.003921568859369
-15.513056755065918 -16.314455032348633 0.262622863054276 0.003921568859369
-16.658723831176758 -19.286664962768555 4.697733879089355 0.003921568859369
-16.277173995971680 -18.731893539428711 -0.149146899580956 0.003921568859369
-18.479551315307617 -19.218713760375977 0.311131715774536 0.003921568859369
-14.132669448852539 -18.033308029174805 6.212501049041748 0.003921568859369
-16.852458953857422 -19.376474380493164 4.734356880187988 0.003921568859369
-16.405300140380859 -17.000486373901367 -0.281843423843384 0.003921568859369
-15.743309974670410 -16.333192825317383 0.264750719070435 0.003921568859369
-16.568004608154297 -20.900217056274414 1.566760659217834 0.003921568859369
-17.084630966186523 -19.368587493896484 -0.763656497001648 0.003921568859369
-20.622585296630859 -21.104139328002930 -0.350175946950912 0.003921568859369
-15.706147193908691 -17.846727371215820 -0.143109768629074 0.003921568859369
-16.521871566772461 -20.695875167846680 3.283840179443359 0.003921568859369
-19.124464035034180 -21.469606399536133 -0.848759651184082 0.003921568859369
-17.744169235229492 -19.956403732299805 -0.160076960921288 0.003921568859369
-16.980587005615234 -21.104055404663086 1.591204047203064 0.003921568859369
-16.348699569702148 -20.339611053466797 3.236556529998779 0.003921568859369
-17.252607345581055 -19.418149948120117 4.788916587829590 0.003921568859369
-15.148475646972656 -16.991092681884766 -0.137258842587471 0.003921568859369
-16.599472045898438 -20.496704101562500 1.549804925918579 0.003921568859369
-17.557994842529297 -19.477336883544922 -0.775258421897888 0.003921568859369
-15.854125022888184 -17.635370254516602 -0.142762497067451 0.003921568859369
-15.886214256286621 -19.500677108764648 0.588874757289886 0.003921568859369
-16.372503280639648 -16.500188827514648 0.271360814571381 0.003921568859369
-15.111336708068848 -18.576293945312500 1.408374309539795 0.003921568859369
-14.040020942687988 -17.298782348632812 6.044811725616455 0.003921568859369
-15.500920295715332 -17.139144897460938 -0.139258906245232 0.003921568859369
-15.072422981262207 -18.405536651611328 1.399309158325195 0.003921568859369
-15.301395416259766 -16.925140380859375 1.884830594062805 0.003921568859369
-16.998435974121094 -18.748022079467773 4.667672157287598 0.003921568859369
-16.570684432983398 -16.462905883789062 0.272729277610779 0.003921568859369
-18.222776412963867 -21.975360870361328 3.538386344909668 0.003921568859369
-16.088836669921875 -17.640720367431641 1.971435308456421 0.003921568859369
-16.506910324096680 -16.286994934082031 -0.276820331811905 0.003921568859369
-15.735835075378418 -18.915317535400391 0.576233625411987 0.003921568859369
-16.555915832519531 -16.334108352661133 0.271569758653641 0.003921568859369
-18.185773849487305 -19.606639862060547 -0.790455758571625 0.003921568859369
-16.673715591430664 -16.338298797607422 -0.278624862432480 0.003921568859369
-15.882019996643066 -18.958438873291016 0.579221427440643 0.003921568859369
-16.517366409301758 -16.189262390136719 0.270083069801331 0.003921568859369
-16.179391860961914 -19.303579330444336 1.480987429618835 0.003921568859369
-16.131612777709961 -17.446779251098633 1.962334752082825 0.003921568859369
-15.276414871215820 -18.255647659301758 -0.564040720462799 0.003921568859369
-18.493202209472656 -17.953876495361328 -0.306858420372009 0.003921568859369
-17.926328659057617 -19.205942153930664 -0.157563701272011 0.003921568859369
-15.795407295227051 -18.731986999511719 0.573920488357544 0.003921568859369
-16.858415603637695 -16.405210494995117 0.274711400270462 0.003921568859369
-18.550949096679688 -21.908073425292969 3.558402776718140 0.003921568859369
-16.125965118408203 -17.325428009033203 1.954854130744934 0.003921568859369
-16.595008850097656 -16.037473678588867 0.269537568092346 0.003921568859369
-2.422123908996582 -2.987090349197388 -0.221095025539398 0.000000000000000
-19.117120742797852 -22.394231796264648 3.649098873138428 0.003921568859369
-18.729677200317383 -19.899337768554688 5.037263870239258 0.003921568859369
-18.000125885009766 -17.244516372680664 -0.297067970037460 0.003921568859369
-16.373683929443359 -19.128461837768555 0.589881598949432 0.003921568859369
-17.038333892822266 -16.346389770507812 0.275864094495773 0.003921568859369
-18.915147781372070 -22.015840530395508 3.598429203033447 0.003921568859369
-16.342781066894531 -17.188953399658203 -0.702745020389557 0.003921568859369
-18.189245223999023 -17.299623489379883 -0.299103140830994 0.003921568859369
-16.835617065429688 -19.515422821044922 0.603768646717072 0.003921568859369
-16.553993225097656 -19.197881698608398 1.491042852401733 0.003921568859369
-19.155160903930664 -22.132247924804688 3.628668069839478 0.003921568859369
-16.626890182495117 -17.363922119140625 -0.712153851985931 0.003921568859369
-18.190620422363281 -17.186174392700195 -0.298213303089142 0.003921568859369
-14.339336395263672 -16.589263916015625 5.954811573028564 0.003921568859369
-18.026447296142578 -18.786441802978516 4.803381443023682 0.003921568859369
-16.242649078369141 -18.720960617065430 -0.587040305137634 0.003921568859369
-14.822814941406250 -18.773294448852539 0.137459591031075 0.003921568859369
-16.573423385620117 -17.183237075805664 -0.143687903881073 0.003921568859369
-18.445297241210938 -17.293146133422852 0.295452356338501 0.003921568859369
-18.203243255615234 -18.827512741088867 4.831376075744629 0.003921568859369
-16.686183929443359 -18.956756591796875 0.591776788234711 0.003921568859369
-17.963748931884766 -16.746784210205078 0.287007361650467 0.003921568859369
-14.977901458740234 -16.937509536743164 0.530212998390198 0.003921568859369
-15.722722053527832 -17.754714965820312 2.947076320648193 0.003921568859369
-16.554876327514648 -16.808696746826172 -0.699219286441803 0.003921568859369
-16.735355377197266 -16.987003326416016 -0.143525987863541 0.003921568859369
-17.130311965942383 -19.163364410400391 0.602320373058319 0.003921568859369
-16.008998870849609 -16.269931793212891 1.887212276458740 0.003921568859369
-15.965153694152832 -17.895223617553711 6.506694316864014 0.003921568859369
-17.619951248168945 -19.696456909179688 -0.625304043292999 0.003921568859369
-16.693294525146484 -16.833360671997070 -0.702583134174347 0.003921568859369
-21.637708663940430 -19.659715652465820 -0.347108304500580 0.003921568859369
-15.835116386413574 -17.635360717773438 2.945628643035889 0.003921568859369
-16.583656311035156 -16.726135253906250 1.946799874305725 0.003921568859369
-16.757743835449219 -16.773145675659180 -0.702691376209259 0.003921568859369
-15.056649208068848 -18.395275115966797 0.697278141975403 0.003921568859369
-16.270299911499023 -17.973560333251953 3.012435197830200 0.003921568859369
-17.373147964477539 -17.372817993164062 2.029830217361450 0.003921568859369
-16.409152984619141 -16.325046539306641 -0.139479428529739 0.003921568859369
-16.153480529785156 -17.729518890380859 0.562381029129028 0.003921568859369
-19.110097885131836 -17.168312072753906 0.300310462713242 0.003921568859369
-19.139747619628906 -17.073606491088867 0.299851536750793 0.003921568859369
-16.599807739257812 -16.286006927490234 -0.689534366130829 0.003921568859369
-15.616566658020020 -18.671920776367188 0.140042260289192 0.003921568859369
-16.932083129882812 -18.308883666992188 1.467858672142029 0.003921568859369
-19.244768142700195 -18.810914993286133 4.964916229248047 0.003921568859369
-15.606930732727051 -18.531282424926758 0.139436796307564 0.003921568859369
-16.734611511230469 -16.301492691040039 -0.140735730528831 0.003921568859369
-20.188510894775391 -21.584339141845703 0.692392468452454 0.003921568859369
-16.252227783203125 -15.844751358032227 1.877828836441040 0.003921568859369
-16.261087417602539 -19.149726867675781 0.144674673676491 0.003921568859369
-16.540863037109375 -16.005622863769531 -0.138740584254265 0.003921568859369
-22.097591400146484 -19.121694564819336 -0.347013741731644 0.003921568859369
-16.220788955688477 -18.982915878295898 0.143794924020767 0.003921568859369
-16.725473403930664 -16.077745437622070 -0.139796987175941 0.003921568859369
-15.786219596862793 -18.488826751708984 0.713411152362823 0.003921568859369
-16.600805282592773 -17.601926803588867 6.567860126495361 0.003921568859369
-18.074272155761719 -17.217748641967773 -0.149980664253235 0.003921568859369
-15.960207939147949 -16.822824478149414 0.544182062149048 0.003921568859369
-22.268209457397461 -19.130363464355469 0.343363583087921 0.003921568859369
-16.876703262329102 -17.761400222778320 3.045663118362427 0.003921568859369
-16.390628814697266 -17.263313293457031 -0.564613640308380 0.003921568859369
-20.996473312377930 -19.784442901611328 -0.852424800395966 0.003921568859369
-22.362737655639648 -19.067394256591797 0.343747049570084 0.003921568859369
-19.383203506469727 -18.298133850097656 2.201501131057739 0.003921568859369
-16.688388824462891 -17.440738677978516 6.553380966186523 0.003921568859369
-16.969968795776367 -19.414070129394531 0.148607462644577 0.003921568859369
-3.014323711395264 -3.190881967544556 0.078912883996964 0.000000000000000
-17.946996688842773 -16.856069564819336 2.035454511642456 0.003921568859369
-16.893297195434570 -17.526184082031250 6.608264923095703 0.003921568859369
-22.655700683593750 -19.046239852905273 -0.351385444402695 0.003921568859369
-15.021916389465332 -17.131221771240234 0.131100118160248 0.003921568859369
-16.238704681396484 -16.753406524658203 1.375094652175903 0.003921568859369
-15.327056884765625 -17.340421676635742 0.133210003376007 0.003921568859369
-17.941650390625000 -16.616191864013672 -0.147037148475647 0.003921568859369
-18.851146697998047 -15.794734001159668 0.287797659635544 0.003921568859369
-17.695394515991211 -18.080747604370117 1.489814758300781 0.003921568859369
-18.425855636596680 -17.053699493408203 4.638493537902832 0.003921568859369
-19.903079986572266 -16.536256790161133 0.302804619073868 0.003921568859369
-17.697916030883789 -16.281801223754883 1.988917231559753 0.003921568859369
-22.663867950439453 -18.649909973144531 0.343418747186661 0.003921568859369
-16.238023757934570 -17.958793640136719 0.139493197202682 0.003921568859369
-21.579618453979492 -17.642955780029297 0.326185315847397 0.003921568859369
-17.051549911499023 -17.078466415405273 1.422127962112427 0.003921568859369
-18.307088851928711 -16.592735290527344 2.042982578277588 0.003921568859369
-18.405502319335938 -18.397710800170898 -0.616317093372345 0.003921568859369
-19.938467025756836 -19.754270553588867 7.608510971069336 0.003921568859369
-16.505046844482422 -16.328826904296875 0.545290827751160 0.003921568859369
-20.041217803955078 -19.729312896728516 7.625114440917969 0.003921568859369
-19.799224853515625 -17.673460006713867 4.901925563812256 0.003921568859369
-16.836666107177734 -16.647497177124023 -0.561925351619720 0.003921568859369
-16.741275787353516 -16.440641403198242 0.551076531410217 0.003921568859369
-22.376384735107422 -17.903291702270508 0.335494339466095 0.003921568859369
-17.079654693603516 -16.763996124267578 2.977982521057129 0.003921568859369
-21.762191772460938 -19.248020172119141 5.360501766204834 0.003921568859369
-15.896229743957520 -17.119686126708984 0.134633421897888 0.003921568859369
-22.419795989990234 -17.808670043945312 0.335222780704498 0.003921568859369
-15.798319816589355 -17.017408370971680 0.682306110858917 0.003921568859369
-18.254749298095703 -16.098377227783203 2.013728380203247 0.003921568859369
-15.678238868713379 -16.780040740966797 0.132326662540436 0.003921568859369
-15.777010917663574 -16.882688522338867 0.679051756858826 0.003921568859369
-22.638866424560547 -17.721332550048828 -0.341613143682480 0.003921568859369
-16.962162017822266 -16.305822372436523 0.552683830261230 0.003921568859369
-19.113273620605469 -16.600017547607422 4.679491996765137 0.003921568859369
-19.012954711914062 -18.222875595092773 -0.623769879341125 0.003921568859369
-22.439449310302734 -19.287237167358398 -0.176670268177986 0.003921568859369
-18.108402252197266 -15.642763137817383 1.980537772178650 0.003921568859369
-16.876716613769531 -17.650911331176758 0.140882655978203 0.003921568859369
-22.316329956054688 -19.048103332519531 -0.175229892134666 0.003921568859369
-22.069583892822266 -18.842222213745117 2.396367311477661 0.003921568859369
-18.417930603027344 -17.305553436279297 0.593435943126678 0.003921568859369
-18.898750305175781 -17.745718002319336 -0.614268720149994 0.003921568859369
-18.791431427001953 -15.762915611267090 -0.727333843708038 0.003921568859369
-16.122482299804688 -16.533927917480469 0.133167102932930 0.003921568859369
-17.532154083251953 -16.264667510986328 0.561855614185333 0.003921568859369
-17.865127563476562 -16.565645217895508 3.032171249389648 0.003921568859369
-19.348426818847656 -16.219141006469727 4.668048858642578 0.003921568859369
-18.478546142578125 -16.999795913696289 3.123853445053101 0.003921568859369
-18.986454010009766 -15.809941291809082 4.569739818572998 0.003921568859369
-22.981140136718750 -17.096408843994141 -0.340392231941223 0.003921568859369
-22.231143951416016 -16.549938201904297 0.324688613414764 0.003921568859369
-18.309459686279297 -16.730218887329102 3.086313962936401 0.003921568859369
-19.182359695434570 -15.747660636901855 -0.736003816127777 0.003921568859369
-22.578176498413086 -18.466516494750977 -0.174220144748688 0.003921568859369
-21.763856887817383 -19.673418045043945 1.727138757705688 0.003921568859369
-16.071573257446289 -16.036146163940430 0.130990043282509 0.003921568859369
-22.839756011962891 -18.542699813842773 -0.175663903355598 0.003921568859369
-17.918594360351562 -16.159332275390625 0.567124843597412 0.003921568859369
-12.738527297973633 -10.513222694396973 1.376224756240845 0.003921568859369
-21.127513885498047 -17.182197570800781 5.031954765319824 0.003921568859369
-23.239948272705078 -16.918941497802734 -0.341633647680283 0.003921568859369
-18.294559478759766 -16.379442214965820 0.577106952667236 0.003921568859369
-23.891201019287109 -17.383407592773438 0.346255391836166 0.003921568859369
-21.144224166870117 -17.078723907470703 5.022633552551270 0.003921568859369
-21.903238296508789 -19.396253585815430 0.686743915081024 0.003921568859369
-16.543626785278320 -16.275876998901367 0.682652950286865 0.003921568859369
-17.893337249755859 -15.922632217407227 1.413451910018921 0.003921568859369
-20.388750076293945 -18.084604263305664 3.388705730438232 0.003921568859369
-21.361763000488281 -17.133161544799805 5.059959888458252 0.003921568859369
-16.508602142333984 -16.123559951782227 0.133211761713028 0.003921568859369
-16.629274368286133 -16.238113403320312 0.683709621429443 0.003921568859369
-18.329109191894531 -17.726276397705078 0.147401079535484 0.003921568859369
-22.855821609497070 -18.035884857177734 -0.173898160457611 0.003921568859369
-20.733371734619141 -16.396518707275391 4.887021541595459 0.003921568859369
-16.962577819824219 -16.330013275146484 0.135988116264343 0.003921568859369
-3.770120620727539 -3.983886003494263 -0.241188138723373 0.000000000000000
-16.641353607177734 -15.912026405334473 0.132953584194183 0.003921568859369
-23.280296325683594 -18.100284576416016 -0.176047220826149 0.003921568859369
-17.062023162841797 -16.302894592285156 0.694219172000885 0.003921568859369
-20.602844238281250 -17.754425048828125 3.382401704788208 0.003921568859369
-18.222045898437500 -15.750565528869629 6.550520896911621 0.003921568859369
-22.298145294189453 -15.549703598022461 0.318757981061935 0.003921568859369
-18.593856811523438 -15.961004257202148 3.051781177520752 0.003921568859369
-22.078714370727539 -17.073734283447266 2.307621717453003 0.003921568859369
-22.046783447265625 -17.049886703491211 5.149710655212402 0.003921568859369
-18.381782531738281 -15.666119575500488 0.567931771278381 0.003921568859369
-22.619939804077148 -15.645483016967773 0.322508692741394 0.003921568859369
-18.216629028320312 -15.529099464416504 1.413032412528992 0.003921568859369
-23.739580154418945 -16.274396896362305 0.337486118078232 0.003921568859369
-18.375122070312500 -15.544242858886719 1.420720577239990 0.003921568859369
-18.593927383422852 -15.724747657775879 3.033266782760620 0.003921568859369
-21.589490890502930 -16.450481414794922 2.245114326477051 0.003921568859369
-18.699028015136719 -15.811782836914062 6.659265995025635 0.003921568859369
-17.289279937744141 -16.057418823242188 0.136354640126228 0.003921568859369
-18.657917022705078 -15.665591239929199 3.034737586975098 0.003921568859369
-21.682033538818359 -16.399398803710938 2.248704910278320 0.003921568859369
-19.174987792968750 -17.655399322509766 0.150876075029373 0.003921568859369
-22.886226654052734 -17.181867599487305 -0.171016171574593 0.003921568859369
-22.705093383789062 -18.861448287963867 0.693292617797852 0.003921568859369
-23.916490554809570 -16.164157867431641 0.338610291481018 0.003921568859369
-18.752557754516602 -15.648037910461426 1.441934108734131 0.003921568859369
-18.702920913696289 -15.607867240905762 3.035252094268799 0.003921568859369
-21.787286758422852 -16.374530792236328 2.254927635192871 0.003921568859369
-23.410078048706055 -15.697052001953125 -0.335204571485519 0.003921568859369
-23.306373596191406 -15.629017829895020 0.329214930534363 0.003921568859369
-22.769447326660156 -16.847120285034180 -0.838320910930634 0.003921568859369
-23.643535614013672 -15.742044448852539 -0.337745487689972 0.003921568859369
-22.705156326293945 -18.593984603881836 0.689395070075989 0.003921568859369
-21.091388702392578 -15.632492065429688 4.856976985931396 0.003921568859369
-22.552162170410156 -16.567432403564453 -0.828439414501190 0.003921568859369
-23.025905609130859 -16.908067703247070 -0.170713230967522 0.003921568859369
-22.932632446289062 -18.642372131347656 0.694253206253052 0.003921568859369
-23.379289627075195 -15.451259613037109 0.328809738159180 0.003921568859369
-20.142103195190430 -16.422029495239258 3.235707759857178 0.003921568859369
-21.088312149047852 -15.515696525573730 4.844066619873047 0.003921568859369
-21.938938140869141 -16.002214431762695 -0.804387450218201 0.003921568859369
-22.865316390991211 -16.663682937622070 5.229471683502197 0.003921568859369
-19.220167160034180 -17.084150314331055 0.148903727531433 0.003921568859369
-13.103252410888672 -9.631540298461914 -0.099844597280025 0.003921568859369
-19.434314727783203 -15.632610321044922 1.472463607788086 0.003921568859369
-23.051990509033203 -18.331459045410156 1.735483884811401 0.003921568859369
-8.942444801330566 -7.299396038055420 3.193640708923340 0.000000000000000
-24.820707321166992 -15.770340919494629 0.345090061426163 0.003921568859369
-24.207441329956055 -15.149866104125977 -0.339531689882278 0.003921568859369
-23.959167480468750 -16.563253402709961 -0.861819624900818 0.003921568859369
-22.429103851318359 -19.039186477661133 0.170700699090958 0.003921568859369
-23.584884643554688 -16.309801101684570 -0.171311214566231 0.003921568859369
-22.270929336547852 -15.308896064758301 -0.800926327705383 0.003921568859369
-23.972450256347656 -14.770185470581055 -0.334944248199463 0.003921568859369
-23.504188537597656 -16.138608932495117 5.271915435791016 0.003921568859369
-23.182241439819336 -17.660589218139648 -0.689808785915375 0.003921568859369
-24.401269912719727 -14.910711288452148 0.335804164409637 0.003921568859369
-20.070058822631836 -15.228807449340820 3.140225887298584 0.003921568859369
-22.530221939086914 -17.049604415893555 -0.669190049171448 0.003921568859369
-24.388689041137695 -14.791265487670898 0.334969401359558 0.003921568859369
-20.478708267211914 -15.423887252807617 3.194854974746704 0.003921568859369
-22.763460159301758 -15.411434173583984 2.275915622711182 0.003921568859369
-23.195583343505859 -17.420806884765625 -0.686727523803711 0.003921568859369
-21.353420257568359 -17.641935348510742 0.160733833909035 0.003921568859369
-23.976911544799805 -16.086246490478516 -0.172441959381104 0.003921568859369
-23.932561874389648 -16.057361602783203 2.384705781936646 0.003921568859369
-24.915222167968750 -14.859033584594727 -0.344822019338608 0.003921568859369
-22.759773254394531 -15.170374870300293 -0.163689240813255 0.003921568859369
-23.730833053588867 -17.548727035522461 0.693939805030823 0.003921568859369
-24.497350692749023 -14.614797592163086 0.335033208131790 0.003921568859369
-20.820055007934570 -15.441026687622070 3.229985475540161 0.003921568859369
-22.461349487304688 -16.629226684570312 -0.662108421325684 0.003921568859369
-24.895164489746094 -14.734521865844727 -0.343887835741043 0.003921568859369
-23.047393798828125 -15.247133255004883 2.287991046905518 0.003921568859369
-22.948165893554688 -16.863508224487305 -0.674446761608124 0.003921568859369
-24.887201309204102 -14.499820709228516 -0.342436015605927 0.003921568859369
-13.072903633117676 -9.622296333312988 0.384195923805237 0.003921568859369
-24.505178451538086 -15.950505256652832 2.419263601303101 0.003921568859369
-13.095814704895020 -9.638454437255859 -0.390837311744690 0.003921568859369
-24.589658737182617 -14.213950157165527 -0.337797075510025 0.003921568859369
-24.840162277221680 -14.355924606323242 0.337031811475754 0.003921568859369
-22.404790878295898 -14.498495101928711 2.210824966430664 0.003921568859369
-22.990129470825195 -14.748951911926270 5.055242061614990 0.003921568859369
-23.259582519531250 -18.115180969238281 0.171313390135765 0.003921568859369
-24.104228973388672 -15.209449768066406 -0.170280337333679 0.003921568859369
-22.856752395629883 -15.951775550842285 1.645388245582581 0.003921568859369
-23.167200088500977 -16.164354324340820 7.679500579833984 0.003921568859369
-22.569194793701172 -14.154429435729980 4.933999061584473 0.003921568859369
-24.871297836303711 -13.792386054992676 -0.338280528783798 0.003921568859369
-22.318323135375977 -15.468230247497559 7.386460781097412 0.003921568859369
-24.158058166503906 -15.010710716247559 5.262726306915283 0.003921568859369
-22.260583877563477 -15.428272247314453 -0.642326056957245 0.003921568859369
-22.570295333862305 -15.526840209960938 0.644989788532257 0.003921568859369
-23.088655471801758 -14.252632141113281 2.248356342315674 0.003921568859369
-23.781461715698242 -16.341556549072266 -0.683433353900909 0.003921568859369
-24.623502731323242 -15.059959411621094 -0.172353893518448 0.003921568859369
