# This PCD file was generated using the MATLAB® pcwrite function
# from Computer Vision Toolbox®.
# .PCD v.7 - Point Cloud Data file format
VERSION .7
FIELDS x y z intensity
SIZE 8 8 8 8
TYPE F F F F
COUNT 1 1 1 1
WIDTH 643
HEIGHT 1
VIEWPOINT 0 0 0 1 0 0 0
POINTS 643
DATA ascii
12.311090469360352 11.748845100402832 -0.994414508342743 0.003921568859369
12.305214881896973 11.175062179565430 -0.971158146858215 0.003921568859369
12.382791519165039 11.166451454162598 -0.974181354045868 0.003921568859369
12.576766014099121 12.162854194641113 -0.919652044773102 0.003921568859369
12.902925491333008 11.234500885009766 -0.999530315399170 0.003921568859369
12.917836189270020 11.168317794799805 -0.997669875621796 0.003921568859369
12.807705879211426 12.203793525695801 -0.826024234294891 0.000000000000000
12.706418037414551 12.031762123107910 -0.817090213298798 0.000000000000000
12.684159278869629 11.927063941955566 -0.812995374202728 0.000000000000000
12.675967216491699 11.836265563964844 -0.809831202030182 0.000000000000000
13.100714683532715 11.083648681640625 -0.901647269725800 0.003921568859369
12.684911727905273 11.761930465698242 -0.807783782482147 0.000000000000000
13.222057342529297 11.106839179992676 -0.907299578189850 0.003921568859369
12.678754806518555 11.674188613891602 -0.804805815219879 0.000000000000000
13.306833267211914 11.098703384399414 -0.910439729690552 0.003921568859369
12.683971405029297 11.597379684448242 -0.802572250366211 0.000000000000000
13.388644218444824 11.087561607360840 -0.913370668888092 0.003921568859369
12.699706077575684 11.526497840881348 -0.800897061824799 0.000000000000000
13.429188728332520 11.038207054138184 -0.913370668888092 0.003921568859369
12.725968360900879 11.473450660705566 -0.800152599811554 0.000000000000000
13.698189735412598 11.182395935058594 -0.929071605205536 0.003921568859369
12.759979248046875 11.423437118530273 -0.799780368804932 0.000000000000000
13.727817535400391 11.126779556274414 -0.928443551063538 0.003921568859369
12.765847206115723 11.344614028930664 -0.797546803951263 0.000000000000000
13.824619293212891 11.121136665344238 -0.932211756706238 0.003921568859369
13.897914886474609 11.102401733398438 -0.934304833412170 0.003921568859369
14.001199722290039 11.100728988647461 -0.938491761684418 0.003921568859369
14.096441268920898 11.095986366271973 -0.942259967327118 0.003921568859369
14.208790779113770 11.107921600341797 -0.947284221649170 0.003921568859369
5.589620113372803 4.854389667510986 1.993943929672241 0.000000000000000
14.339109420776367 11.128952026367188 -0.953355312347412 0.003921568859369
7.975236892700195 5.851195812225342 -0.520218789577484 0.000000000000000
2.648768901824951 1.921513199806213 -0.173333287239075 0.000000000000000
8.989713668823242 6.307919025421143 2.950537443161011 0.000000000000000
7.800147056579590 5.154259681701660 2.511580705642700 0.000000000000000
7.146241664886475 5.091361999511719 -0.563848912715912 0.000000000000000
20.436254501342773 11.512284278869629 4.281173229217529 0.003921568859369
20.435079574584961 11.417763710021973 4.272563457489014 0.003921568859369
20.499195098876953 11.355870246887207 4.276151657104492 0.003921568859369
20.814172744750977 10.971243858337402 4.293370723724365 0.003921568859369
2.308699369430542 1.075241088867188 -0.089620009064674 0.000000000000000
20.901184082031250 10.923939704895020 4.303415298461914 0.003921568859369
20.942674636840820 10.852661132812500 4.304132461547852 0.003921568859369
21.095962524414062 10.838706970214844 4.327809333801270 0.003921568859369
3.377338409423828 1.511132359504700 -0.043303154408932 0.000000000000000
18.370326995849609 10.435088157653809 5.666064739227295 0.003921568859369
20.598011016845703 11.135605812072754 2.876602888107300 0.003921568859369
11.689570426940918 5.552343845367432 -0.678902208805084 0.000000000000000
20.675252914428711 11.084204673767090 2.881964921951294 0.003921568859369
11.967082977294922 5.683995246887207 2.417892217636108 0.000000000000000
20.720825195312500 11.015657424926758 2.882940053939819 0.003921568859369
20.741588592529297 10.933953285217285 2.880502700805664 0.003921568859369
20.825382232666016 10.885325431823730 2.886839866638184 0.003921568859369
5.150849342346191 2.384447574615479 0.464429289102554 0.000000000000000
3.848060607910156 1.766709685325623 0.074138872325420 0.000000000000000
20.870298385620117 10.816169738769531 2.887814760208130 0.003921568859369
20.932651519775391 10.755890846252441 2.891227006912231 0.003921568859369
20.991384506225586 10.689993858337402 2.893177509307861 0.003921568859369
6.426987648010254 2.493050813674927 -0.401856571435928 0.000000000000000
21.071102142333984 10.638099670410156 2.899027347564697 0.003921568859369
21.100872039794922 10.570042610168457 2.898539781570435 0.003921568859369
13.292993545532227 5.866029739379883 2.650354146957397 0.000000000000000
21.175035476684570 10.510260581970215 2.903414487838745 0.003921568859369
21.213329315185547 10.441716194152832 2.903902053833008 0.003921568859369
21.333976745605469 10.312052726745605 2.910239219665527 0.003921568859369
21.528839111328125 10.134014129638672 2.922426223754883 0.003921568859369
8.036507606506348 3.643834590911865 -0.000000000000039 0.003921568859369
10.803637504577637 3.591796875000000 -0.397575050592422 0.000000000000000
22.111413955688477 6.680044174194336 -0.268909037113190 0.003921568859369
22.152042388916016 6.526071548461914 0.268769949674606 0.003921568859369
22.156606674194336 6.439284801483154 0.268537104129791 0.003921568859369
22.162466049194336 6.361378669738770 0.268350839614868 0.003921568859369
22.146049499511719 6.273103237152100 0.267885178327560 0.003921568859369
6.984435558319092 2.350842714309692 1.342396140098572 0.000000000000000
22.161190032958984 6.189760684967041 0.267792075872421 0.003921568859369
5.606701374053955 2.173052787780762 -0.139765366911888 0.000000000000000
22.159526824951172 6.106018066406250 0.267512679100037 0.003921568859369
22.161407470703125 6.023402214050293 0.267279863357544 0.003921568859369
22.158079147338867 5.943687915802002 0.267000466585159 0.003921568859369
4.761856555938721 1.151201128959656 -0.170589759945869 0.000000000000000
27.283000946044922 6.506560802459717 0.326371103525162 0.003921568859369
1.842870593070984 0.623546481132507 0.517636716365814 0.003921568859369
12.216947555541992 3.413995981216431 2.310270786285400 0.000000000000000
5.716410636901855 1.856042981147766 1.606747865676880 0.000000000000000
16.633865356445312 4.336656093597412 3.130346298217773 0.003921568859369
22.383348464965820 5.754270553588867 -0.671989619731903 0.003921568859369
7.444391250610352 1.882480502128601 1.396206140518188 0.000000000000000
6.299901485443115 1.923142313957214 -0.152793511748314 0.000000000000000
22.091701507568359 6.676222801208496 -0.536539316177368 0.003921568859369
27.282102584838867 6.514793872833252 -0.815696060657501 0.003921568859369
18.291135787963867 4.097334384918213 3.413749217987061 0.003921568859369
6.342033386230469 1.722040176391602 0.804336547851562 0.000000000000000
18.624443054199219 4.034398078918457 0.775230646133423 0.003921568859369
15.043731689453125 4.034712791442871 4.165952205657959 0.003921568859369
12.324736595153809 3.212213277816772 1.560415029525757 0.000000000000000
10.829350471496582 2.225058794021606 -0.320927470922470 0.000000000000000
8.105282783508301 2.506397008895874 0.246104761958122 0.000000000000000
18.685743331909180 3.310154676437378 0.771973967552185 0.003921568859369
9.716480255126953 2.172903060913086 0.230862289667130 0.000000000000000
7.239698410034180 1.250910401344299 1.333067297935486 0.000000000000000
5.949599742889404 1.305719256401062 -0.000002255094842 0.000000000000000
25.793550491333008 5.687223911285400 3.238803625106812 0.003921568859369
5.971426963806152 1.288828015327454 0.353715568780899 0.000000000000000
25.762809753417969 5.586332321166992 3.232466459274292 0.003921568859369
25.839431762695312 5.513425350189209 3.239778518676758 0.003921568859369
25.881830215454102 5.428222179412842 3.242703437805176 0.003921568859369
11.260386466979980 1.790036439895630 0.927879631519318 0.000000000000000
6.198780536651611 0.961885273456573 -0.181527227163315 0.000000000000000
26.152414321899414 5.394693851470947 3.274389505386353 0.003921568859369
28.807832717895508 4.382679939270020 -0.846996068954468 0.003921568859369
6.466093540191650 1.303668737411499 0.382087528705597 0.000000000000000
28.898094177246094 4.293418407440186 -0.849206924438477 0.003921568859369
28.829813003540039 4.180572986602783 -0.846763432025909 0.003921568859369
28.855394363403320 4.086741924285889 -0.847112476825714 0.003921568859369
8.565390586853027 1.209519982337952 0.150368258357048 0.000000000000000
28.873439788818359 3.986685991287231 -0.847228825092316 0.003921568859369
28.827747344970703 3.877986907958984 -0.845483481884003 0.003921568859369
11.778665542602539 1.581636309623718 2.160317659378052 0.000000000000000
28.915700912475586 3.786398172378540 -0.847460865974426 0.003921568859369
28.944604873657227 3.687620878219604 -0.847926318645477 0.003921568859369
28.977142333984375 3.589167356491089 -0.848508179187775 0.003921568859369
19.387298583984375 3.366083383560181 1.143480181694031 0.000000000000000
29.040489196777344 3.499432802200317 -0.850020885467529 0.003921568859369
9.498286247253418 2.092900753021240 0.281827628612518 0.000000000000000
29.001491546630859 3.387083292007446 -0.848508238792419 0.003921568859369
11.023224830627441 1.284277439117432 0.450384110212326 0.000000000000000
29.291238784790039 3.317529678344727 -0.856653511524200 0.003921568859369
17.731624603271484 3.782788515090942 0.526423752307892 0.003921568859369
10.327435493469238 0.986873328685760 0.420911729335785 0.000000000000000
8.970263481140137 0.386848330497742 -0.104026883840561 0.000000000000000
11.054110527038574 0.980412900447845 0.901842296123505 0.000000000000000
11.923139572143555 2.196511745452881 -0.210756123065948 0.000000000000000
4.874286651611328 0.395038485527039 0.197182238101959 0.000000000000000
5.903321743011475 0.479304730892181 0.479396015405655 0.000000000000000
8.894546508789062 1.130064487457275 -0.000002259795565 0.003921568859369
4.162416458129883 0.322299659252167 0.168035566806793 0.000000000000000
10.726107597351074 0.277974247932434 0.124324791133404 0.000000000000000
10.651025772094727 0.795487165451050 0.185552194714546 0.000000000000000
6.082660198211670 0.432567447423935 -0.316950023174286 0.000000000000000
16.215003967285156 1.102420330047607 1.322661042213440 0.000000000000000
7.133962631225586 1.185578942298889 -0.292606800794601 0.000000000000000
8.317891120910645 0.533407688140869 -0.434181809425354 0.000000000000000
10.398073196411133 1.657704710960388 0.304983586072922 0.000000000000000
10.393942832946777 1.142212629318237 0.606039404869080 0.000000000000000
14.854256629943848 0.905827939510345 2.704164743423462 0.000000000000000
12.942306518554688 0.743683695793152 0.526099860668182 0.000000000000000
8.707114219665527 0.440279692411423 -0.050380256026983 0.000000000000000
11.087855339050293 1.611443877220154 0.324416100978851 0.000000000000000
19.333917617797852 0.912993490695953 3.518500804901123 0.003921568859369
7.545434474945068 0.325850516557693 0.130819797515869 0.000000000000000
21.882785797119141 0.804747223854065 3.981990814208984 0.003921568859369
12.321809768676758 1.612808823585510 -0.503957211971283 0.000000000000000
7.057794094085693 0.527795493602753 -0.000003534367579 0.000000000000000
7.356543540954590 0.550319373607635 0.426271915435791 0.000000000000000
8.721715927124023 0.137885451316833 1.579877853393555 0.000000000000000
11.681605339050293 1.204971313476562 0.339892119169235 0.000000000000000
5.869340419769287 0.581623136997223 0.169767901301384 0.000000000000000
8.416093826293945 0.836803793907166 -0.341944456100464 0.000000000000000
17.400558471679688 -0.029669828712940 -0.100755237042904 0.000000000000000
10.300125122070312 -0.017507938668132 1.866150736808777 0.000000000000000
19.828931808471680 1.834121584892273 -0.346463114023209 0.003921568859369
10.652656555175781 -0.573047280311584 -0.123445048928261 0.000000000000000
12.128507614135742 -0.062752746045589 -0.070117063820362 0.000000000000000
5.932907104492188 0.256418377161026 -0.273607581853867 0.000000000000000
9.848507881164551 0.842534720897675 0.285782754421234 0.000000000000000
5.019316673278809 0.408386379480362 -0.086778260767460 0.000000000000000
7.620666027069092 0.252241164445877 -0.000003875097264 0.000000000000000
7.671399116516113 -0.143127709627151 -0.044221092015505 0.000000000000000
9.734575271606445 0.764754831790924 0.282291799783707 0.000000000000000
8.014858245849609 0.517170310020447 -0.139064356684685 0.000000000000000
3.935052633285522 0.251779854297638 0.112865842878819 0.000000000000000
17.964225769042969 0.288033157587051 1.042549490928650 0.000000000000000
7.406880378723145 -0.264820694923401 0.599163293838501 0.000000000000000
16.904493331909180 0.744376957416534 0.490350335836411 0.003921568859369
10.534235954284668 -0.048902511596680 0.609293878078461 0.000000000000000
12.892349243164062 -0.734237790107727 1.048297524452209 0.000000000000000
13.245788574218750 -0.245551511645317 -0.000001944478754 0.000000000000000
9.293680191040039 0.214454278349876 0.268443912267685 0.000000000000000
8.669857025146484 -0.220303401350975 2.304520845413208 0.000000000000000
13.024264335632324 -1.692201972007751 -0.151989117264748 0.000000000000000
8.351857185363770 -0.672505497932434 -0.048243802040815 0.000000000000000
6.307975292205811 -0.858483552932739 -0.073205210268497 0.000000000000000
21.345296859741211 0.205006837844849 0.618932545185089 0.003921568859369
19.220687866210938 -0.751289069652557 2.352078914642334 0.003921568859369
12.566964149475098 -0.533788442611694 3.349115848541260 0.000000000000000
8.394020080566406 -0.006900483742356 -0.145138710737228 0.000000000000000
9.831648826599121 -1.448380470275879 -0.114785708487034 0.000000000000000
25.404224395751953 -2.504419088363647 4.639916896820068 0.003921568859369
12.721692085266113 -0.187042891979218 0.073483474552631 0.000000000000000
8.255867958068848 -0.924022376537323 0.671739995479584 0.000000000000000
9.531681060791016 -0.236997678875923 -0.384932488203049 0.000000000000000
11.578351974487305 -0.408814549446106 0.334654152393341 0.000000000000000
7.694807529449463 -1.674980998039246 0.090607278048992 0.000000000000000
4.856023788452148 -0.402158260345459 -0.083430245518684 0.000000000000000
10.092933654785156 -1.374552726745605 -0.234869912266731 0.000000000000000
3.999518394470215 -0.371054917573929 -0.068491488695145 0.000000000000000
6.631968498229980 -1.343823313713074 -0.038761742413044 0.000000000000000
15.992391586303711 -3.440803527832031 -0.094505086541176 0.000000000000000
28.428960800170898 -4.698360919952393 7.694176673889160 0.003921568859369
10.980656623840332 -2.395447731018066 2.031167030334473 0.000000000000000
8.909135818481445 -1.177915573120117 -0.155123263597488 0.000000000000000
10.706281661987305 -2.569035530090332 1.989553332328796 0.000000000000000
7.051232814788818 -1.426102638244629 0.412723571062088 0.000000000000000
27.187332153320312 -8.593740463256836 -0.330738812685013 0.003921568859369
7.370247840881348 -1.624248147010803 1.993877887725830 0.000000000000000
18.712495803833008 -5.127065181732178 3.518486499786377 0.003921568859369
26.195625305175781 -8.681776046752930 0.320078432559967 0.003921568859369
20.900678634643555 -4.799373626708984 5.717847824096680 0.003921568859369
20.883800506591797 -4.871923446655273 5.717846393585205 0.003921568859369
6.669052600860596 -1.608173847198486 -0.000140898991958 0.000000000000000
6.554159164428711 -1.606216669082642 -0.000143334880704 0.000000000000000
27.322778701782227 -9.692022323608398 0.336214065551758 0.003921568859369
9.143462181091309 -2.282305479049683 -0.000114918628242 0.003921568859369
27.341123580932617 -9.795051574707031 0.336815476417542 0.003921568859369
27.219633102416992 -8.280268669128418 5.167288303375244 0.003921568859369
27.282377243041992 -8.512313842773438 2.324116468429565 0.003921568859369
6.505378723144531 -1.380073428153992 0.190117165446281 0.000000000000000
20.160705566406250 -6.663424491882324 3.851351022720337 0.003921568859369
12.632912635803223 -2.889279365539551 0.373807668685913 0.000000000000000
6.352283477783203 -1.855626583099365 -0.000236766834860 0.000000000000000
3.318780899047852 -1.124766230583191 0.617455661296844 0.000000000000000
15.912519454956055 -5.618821144104004 3.055568456649780 0.003921568859369
20.772050857543945 -6.304668903350830 5.785080909729004 0.003921568859369
7.958299636840820 -2.817607879638672 1.517933368682861 0.000000000000000
27.212341308593750 -8.581545829772949 -0.661205410957336 0.003921568859369
12.393851280212402 -3.282890081405640 0.369554907083511 0.000000000000000
11.200673103332520 -4.159110546112061 2.157226085662842 0.000000000000000
27.478296279907227 -9.404865264892578 0.672932863235474 0.003921568859369
4.476973056793213 -1.545179367065430 0.566076874732971 0.000000000000000
9.407102584838867 -3.855715513229370 1.831364512443542 0.000000000000000
7.618628501892090 -2.780276298522949 0.980466544628143 0.000000000000000
10.315410614013672 -3.781658172607422 2.910892724990845 0.000000000000000
4.869589805603027 -2.122723579406738 0.945128321647644 0.000000000000000
11.446734428405762 -5.263830661773682 2.273921966552734 0.000000000000000
4.754432678222656 -1.898140549659729 -0.000486770528369 0.000000000000000
8.939310073852539 -4.132354259490967 1.772388577461243 0.000000000000000
7.557199478149414 -3.548393726348877 0.670912206172943 0.000000000000000
6.244791030883789 -2.287813425064087 -0.114254787564278 0.000000000000000
14.462386131286621 -6.540125846862793 4.217182159423828 0.003921568859369
6.041178703308105 -3.049917936325073 1.209734797477722 0.000000000000000
7.466780662536621 -3.881727218627930 1.510345339775085 0.000000000000000
10.470686912536621 -5.563047409057617 2.136573314666748 0.000000000000000
10.052220344543457 -4.985703468322754 1.360304713249207 0.000000000000000
8.966247558593750 -5.033525943756104 0.827792108058929 0.000000000000000
16.226320266723633 -9.179773330688477 3.374123573303223 0.003921568859369
23.832302093505859 -16.044918060302734 0.331426799297333 0.003921568859369
10.174961090087891 -5.671564102172852 3.083144187927246 0.000000000000000
5.997622966766357 -3.722135782241821 -0.041222386062145 0.000000000000000
10.084641456604004 -5.666265010833740 3.061396598815918 0.000000000000000
5.917289257049561 -3.699253797531128 -0.040760647505522 0.000000000000000
10.094943046569824 -5.718224048614502 3.070705890655518 0.000000000000000
24.877090454101562 -15.880865097045898 5.355284690856934 0.003921568859369
24.884189605712891 -16.006952285766602 2.403074979782104 0.003921568859369
23.786869049072266 -16.111457824707031 -0.833820879459381 0.003921568859369
9.720919609069824 -5.276148319244385 -0.191541433334351 0.000000000000000
5.622175216674805 -3.035190105438232 -0.109981186687946 0.000000000000000
10.023111343383789 -5.483629703521729 0.327216833829880 0.000000000000000
7.064753532409668 -4.057367324829102 0.231544762849808 0.000000000000000
8.423759460449219 -6.058260917663574 1.864696025848389 0.000000000000000
13.195421218872070 -9.280558586120605 4.281156539916992 0.003921568859369
5.410827159881592 -4.149640560150146 0.153551593422890 0.000000000000000
8.408496856689453 -6.579305171966553 2.819241523742676 0.000000000000000
9.419155120849609 -8.391078948974609 2.272179126739502 0.000000000000000
11.535054206848145 -9.472372055053711 3.956496715545654 0.000000000000000
9.518403053283691 -9.085673332214355 2.370825767517090 0.000000000000000
18.706834793090820 -16.697355270385742 3.057490587234497 0.003921568859369
7.442677974700928 -6.537597656250000 2.612935781478882 0.000000000000000
18.561622619628906 -16.676565170288086 3.041614532470703 0.003921568859369
4.553820133209229 -4.358954429626465 1.120715618133545 0.000000000000000
18.482793807983398 -16.721792221069336 3.038176298141479 0.003921568859369
6.771477699279785 -6.626740932464600 1.698663949966431 0.000000000000000
3.960226535797119 -5.083535671234131 -0.592058956623077 0.000000000000000
13.848586082458496 -17.336198806762695 4.015485763549805 0.003921568859369
7.091884136199951 -7.223904609680176 0.287235021591187 0.000000000000000
1.959871292114258 -2.020158767700195 0.153251439332962 0.000000000000000
13.722613334655762 -17.299924850463867 3.996103525161743 0.003921568859369
13.654903411865234 -17.328430175781250 3.991446018218994 0.003921568859369
13.401387214660645 -17.374061584472656 3.969857215881348 0.003921568859369
9.430664062500000 -11.059128761291504 3.851251363754272 0.000000000000000
13.319361686706543 -17.391656875610352 3.963377714157104 0.003921568859369
1.540655136108398 -1.442133069038391 -0.127196222543716 0.003921568859369
11.586767196655273 -15.424020767211914 3.487365484237671 0.003921568859369
3.549779891967773 -4.372153759002686 -0.594125926494598 0.000000000000000
7.497430324554443 -10.695174217224121 1.050853610038757 0.000000000000000
11.301486968994141 -16.296304702758789 3.585669755935669 0.003921568859369
5.959127902984619 -9.531311035156250 0.124984629452229 0.000000000000000
4.162091732025146 -5.870948314666748 0.573303997516632 0.000000000000000
4.257441520690918 -6.061828136444092 1.323149919509888 0.000000000000000
10.189355850219727 -15.108651161193848 3.293176889419556 0.003921568859369
2.640313863754272 -3.727296352386475 0.358866184949875 0.000000000000000
5.611971378326416 -7.558907985687256 2.480682849884033 0.000000000000000
3.590301036834717 -5.360398292541504 -0.187478065490723 0.000000000000000
5.214548587799072 -7.155216217041016 -0.613292038440704 0.000000000000000
3.140254974365234 -4.237684249877930 1.372736454010010 0.000000000000000
8.905551910400391 -13.043689727783203 0.358868718147278 0.000000000000000
5.920318603515625 -9.529884338378906 0.188931360840797 0.000000000000000
6.266372680664062 -9.122890472412109 0.631788969039917 0.000000000000000
7.570854663848877 -11.188180923461914 -0.005315237678587 0.000000000000000
12.515664100646973 -21.081445693969727 1.982681512832642 0.003921568859369
6.284529685974121 -9.510635375976562 0.257249176502228 0.000000000000000
3.080861091613770 -4.533889770507812 -0.127863451838493 0.000000000000000
7.370565891265869 -14.470184326171875 -0.946065783500671 0.003921568859369
7.701379776000977 -13.548581123352051 -0.096176996827126 0.000000000000000
7.301520347595215 -14.450670242309570 -0.943282127380371 0.003921568859369
7.812932014465332 -12.289701461791992 0.834722638130188 0.000000000000000
7.238859176635742 -14.450045585632324 -0.941667795181274 0.003921568859369
3.523638725280762 -6.005888938903809 0.554499030113220 0.000000000000000
7.188376903533936 -14.474364280700684 -0.941689491271973 0.003921568859369
2.851847410202026 -3.877832412719727 -0.084850110113621 0.000000000000000
7.110805511474609 -14.426385879516602 -0.937376558780670 0.003921568859369
7.169057369232178 -14.674613952636719 -0.573739290237427 0.003921568859369
4.424017906188965 -8.934395790100098 -0.120080187916756 0.000000000000000
7.332757949829102 -15.305443763732910 -0.203812584280968 0.003921568859369
5.068579673767090 -7.352009773254395 0.046641513705254 0.000000000000000
7.078379154205322 -14.754719734191895 -0.954043984413147 0.003921568859369
4.884181499481201 -7.887819766998291 2.445780515670776 0.000000000000000
3.871864080429077 -6.971015930175781 0.315418124198914 0.000000000000000
6.628572463989258 -12.283022880554199 1.123368024826050 0.000000000000000
7.374884605407715 -15.531113624572754 -0.604231297969818 0.003921568859369
11.853506088256836 -20.066907882690430 0.530741095542908 0.003921568859369
7.255261421203613 -15.411605834960938 -0.993368864059448 0.003921568859369
6.945308685302734 -14.729695320129395 -0.572280943393707 0.003921568859369
3.663435459136963 -5.948533058166504 -0.004127998370677 0.000000000000000
7.198729038238525 -15.437161445617676 -0.993393599987030 0.003921568859369
6.891278743743896 -14.754120826721191 -0.572304606437683 0.003921568859369
6.727030277252197 -14.523948669433594 -0.933324337005615 0.000000000000000
7.856801509857178 -17.059267044067383 -0.660369038581848 0.003921568859369
7.093489646911621 -15.484073638916016 -0.993439376354218 0.003921568859369
6.769700050354004 -14.751419067382812 -0.570517063140869 0.003921568859369
6.666434764862061 -14.655468940734863 -0.938979268074036 0.003921568859369
5.159187316894531 -7.840594768524170 -0.381419777870178 0.000000000000000
7.085119247436523 -15.612737655639648 -0.602800309658051 0.003921568859369
5.040348529815674 -8.553510665893555 -0.233054831624031 0.000000000000000
8.220529556274414 -18.383092880249023 0.224560633301735 0.003921568859369
6.618414402008057 -14.685091018676758 -0.939469099044800 0.003921568859369
7.005145549774170 -15.577800750732422 -0.600569725036621 0.003921568859369
6.576567649841309 -14.729233741760254 -0.940894126892090 0.003921568859369
7.322337150573730 -14.472084045410156 -0.851197779178619 0.003921568859369
3.330475330352783 -5.589982032775879 0.779332458972931 0.000000000000000
6.982265949249268 -15.674739837646484 -0.603410780429840 0.003921568859369
6.491772174835205 -14.655677795410156 -0.935187578201294 0.000000000000000
7.259909152984619 -14.457136154174805 -0.849243402481079 0.003921568859369
4.715513706207275 -10.477823257446289 -0.403786271810532 0.000000000000000
11.571243286132812 -23.368906021118164 4.722551822662354 0.003921568859369
3.858693122863770 -6.645087718963623 -0.004606860689819 0.000000000000000
6.366202354431152 -14.500683784484863 -0.923982322216034 0.000000000000000
7.202489852905273 -14.467072486877441 -0.848424732685089 0.003921568859369
6.884598255157471 -15.732400894165039 -0.604250669479370 0.003921568859369
3.401267766952515 -5.217896938323975 0.173176229000092 0.000000000000000
6.873942375183105 -15.853895187377930 -0.608079969882965 0.003921568859369
3.637430906295776 -6.395845413208008 0.416616111993790 0.000000000000000
7.074964523315430 -11.507116317749023 -0.550947010517120 0.000000000000000
6.154157638549805 -14.562294006347656 -0.922668099403381 0.000000000000000
6.436858654022217 -15.416246414184570 -0.201462328433990 0.003921568859369
7.622979640960693 -16.056888580322266 -0.110801607370377 0.000000000000000
6.121110439300537 -14.627253532409668 -0.925497531890869 0.000000000000000
6.885685443878174 -14.448026657104492 -0.840538203716278 0.000000000000000
5.951611518859863 -12.414049148559570 2.482815504074097 0.000000000000000
6.993494987487793 -14.819866180419922 -0.481418877840042 0.000000000000000
6.096512317657471 -14.714434623718262 -0.929730892181396 0.000000000000000
5.689614772796631 -11.950566291809082 0.528061270713806 0.000000000000000
7.350678920745850 -15.605731964111328 -0.906287670135498 0.003921568859369
6.608199119567871 -16.005147933959961 -0.609612584114075 0.003921568859369
6.922973632812500 -14.794716835021973 -0.479911535978317 0.000000000000000
6.271554470062256 -10.477937698364258 0.345699906349182 0.000000000000000
6.011191844940186 -14.640782356262207 -0.923902928829193 0.000000000000000
7.243126392364502 -15.505318641662598 -0.899148702621460 0.003921568859369
6.613540172576904 -16.174938201904297 -0.615275561809540 0.003921568859369
6.873877525329590 -14.816724777221680 -0.479933977127075 0.000000000000000
5.959715843200684 -14.652325630187988 -0.923455953598022 0.000000000000000
7.198184013366699 -15.542973518371582 -0.900014996528625 0.003921568859369
1.224215865135193 -1.902637839317322 0.258768171072006 0.000000000000000
6.559869289398193 -16.195913314819336 -0.615298628807068 0.003921568859369
4.302396297454834 -7.985111713409424 2.392567634582520 0.000000000000000
5.796253204345703 -12.525959014892578 0.232112228870392 0.000000000000000
7.184895515441895 -15.668882369995117 0.689822256565094 0.003921568859369
7.129864692687988 -15.542718887329102 -0.898566186428070 0.003921568859369
1.793637871742249 -2.715170383453369 -0.130259156227112 0.000000000000000
7.276945114135742 -18.237344741821289 -0.691611826419830 0.003921568859369
6.229668617248535 -10.661542892456055 -0.219195798039436 0.000000000000000
5.856140613555908 -14.696456909179688 -0.923734724521637 0.000000000000000
7.094792842864990 -15.610510826110840 -0.901118993759155 0.003921568859369
6.133764266967773 -15.426130294799805 -0.584606289863586 0.003921568859369
7.215626716613770 -16.022850036621094 -0.110097102820873 0.000000000000000
1.234403729438782 -2.564363241195679 0.028427792713046 0.000000000000000
5.823335170745850 -14.745800018310547 -0.925988793373108 0.000000000000000
7.045936584472656 -15.630617141723633 -0.901298820972443 0.003921568859369
7.159655570983887 -16.047000885009766 -0.110123388469219 0.000000000000000
5.831798076629639 -14.925992965698242 -0.936075687408447 0.000000000000000
6.996062755584717 -15.665185928344727 -0.901956677436829 0.003921568859369
6.592260360717773 -14.727280616760254 1.300224781036377 0.000000000000000
6.044359683990479 -15.496736526489258 -0.586154222488403 0.003921568859369
6.639285564422607 -14.978830337524414 -0.481939017772675 0.000000000000000
7.116125106811523 -16.100400924682617 -0.110346935689449 0.000000000000000
5.792097091674805 -14.979036331176758 -0.938205122947693 0.000000000000000
7.273434162139893 -14.463729858398438 -0.756404280662537 0.000000000000000
6.931959629058838 -15.666518211364746 -0.900717616081238 0.003921568859369
5.990231990814209 -15.516799926757812 -0.586178064346313 0.003921568859369
6.556470870971680 -14.914033889770508 -0.479251861572266 0.000000000000000
7.077943325042725 -16.151321411132812 -0.110567905008793 0.000000000000000
5.705287933349609 -14.887539863586426 -0.931437909603119 0.000000000000000
7.215847969055176 -14.460453033447266 -0.755114555358887 0.000000000000000
6.881156921386719 -15.683693885803223 -0.900529861450195 0.003921568859369
5.977108955383301 -15.632328033447266 -0.589868128299713 0.003921568859369
5.797422885894775 -11.512252807617188 3.414859533309937 0.000000000000000
6.514551162719727 -14.974967956542969 -0.480456322431564 0.000000000000000
6.991240501403809 -16.118282318115234 -0.110201776027679 0.000000000000000
2.913540840148926 -6.341926574707031 0.115024618804455 0.000000000000000
5.648084163665771 -14.908304214477539 -0.931462824344635 0.000000000000000
1.585159063339233 -2.767830848693848 -0.146237179636955 0.000000000000000
6.870094776153564 -15.826937675476074 -0.907302558422089 0.003921568859369
5.900594711303711 -13.504809379577637 1.186742305755615 0.000000000000000
6.089359760284424 -16.131679534912109 -0.607815504074097 0.003921568859369
6.462241172790527 -14.996680259704590 -0.480480462312698 0.000000000000000
2.844452142715454 -6.237294673919678 -0.044093038886786 0.000000000000000
4.190546512603760 -8.319895744323730 0.208460673689842 0.000000000000000
5.813454627990723 -15.536239624023438 -0.969405293464661 0.003921568859369
6.833106517791748 -15.894190788269043 -0.909857451915741 0.003921568859369
6.039731025695801 -16.170719146728516 -0.608545482158661 0.003921568859369
2.587622165679932 -5.616703510284424 1.103149294853210 0.000000000000000
8.029154777526855 -18.978054046630859 -0.606557130813599 0.003921568859369
3.399482965469360 -7.656840801239014 -0.053510807454586 0.000000000000000
6.750369071960449 -15.850456237792969 -0.906088769435883 0.003921568859369
5.992563247680664 -16.217153549194336 -0.609557747840881 0.003921568859369
7.211649417877197 -14.861989974975586 -0.389726042747498 0.000000000000000
6.362643718719482 -15.037426948547363 -0.480526119470596 0.000000000000000
5.887521743774414 -16.080333709716797 -0.603793382644653 0.003921568859369
6.304859638214111 -15.060715675354004 -0.480552464723587 0.000000000000000
5.115271091461182 -12.093054771423340 -0.082908399403095 0.000000000000000
4.465601921081543 -9.150958061218262 0.580372869968414 0.000000000000000
6.952331066131592 -14.570936203002930 -0.754678308963776 0.000000000000000
6.630636692047119 -15.873072624206543 -0.904874563217163 0.003921568859369
5.555770874023438 -15.319581985473633 -0.574605047702789 0.003921568859369
6.234558105468750 -15.037094116210938 -0.479162395000458 0.000000000000000
6.835299491882324 -14.448672294616699 -0.747202754020691 0.000000000000000
6.576664924621582 -15.898894309997559 -0.905110538005829 0.003921568859369
6.470256805419922 -15.635207176208496 3.057893753051758 0.003921568859369
6.994420528411865 -14.799177169799805 -0.386307597160339 0.000000000000000
6.184957504272461 -15.065271377563477 -0.479421824216843 0.000000000000000
7.283548355102539 -15.579063415527344 -0.804229259490967 0.000000000000000
6.524050712585449 -15.928253173828125 -0.905557215213776 0.003921568859369
6.970634460449219 -14.884552955627441 -0.387937873601913 0.000000000000000
6.152098178863525 -15.121045112609863 -0.480621427297592 0.000000000000000
7.224795818328857 -15.579135894775391 -0.803127586841583 0.000000000000000
6.439214706420898 -15.858484268188477 -0.900520205497742 0.003921568859369
6.909167289733887 -14.872673988342285 -0.387110263109207 0.000000000000000
2.032359361648560 -4.563947200775146 -0.146750256419182 0.000000000000000
5.297154903411865 -15.226276397705078 -0.942786753177643 0.003921568859369
7.152305126190186 -15.553378105163574 -0.800893068313599 0.000000000000000
1.489456534385681 -2.745758533477783 0.364887654781342 0.000000000000000
5.569653511047363 -13.756411552429199 1.194976329803467 0.000000000000000
3.202775239944458 -7.606971263885498 1.480193734169006 0.000000000000000
6.934788703918457 -17.483089447021484 -0.554260373115540 0.000000000000000
2.468305110931396 -6.727673053741455 -0.087812677025795 0.000000000000000
3.070357084274292 -6.381538867950439 0.156996861100197 0.000000000000000
7.088353633880615 -15.555326461791992 -0.799794435501099 0.000000000000000
5.927635669708252 -14.838390350341797 -0.840846955776215 0.000000000000000
3.212619066238403 -7.712766170501709 1.498796105384827 0.000000000000000
6.517038345336914 -16.551092147827148 -0.524218320846558 0.000000000000000
5.226467609405518 -15.362718582153320 -0.949155092239380 0.003921568859369
7.043097972869873 -15.592491149902344 -0.800570249557495 0.000000000000000
6.755558967590332 -14.930411338806152 -0.387255311012268 0.000000000000000
6.224427223205566 -15.951977729797363 -0.504670917987823 0.000000000000000
6.993787765502930 -15.635547637939453 -0.801536262035370 0.000000000000000
6.702370643615723 -14.957736015319824 -0.387376695871353 0.000000000000000
6.945428371429443 -15.673604965209961 -0.802313327789307 0.000000000000000
5.921268463134766 -15.301486968994141 -0.863696932792664 0.003921568859369
6.648555278778076 -14.976396560668945 -0.387307643890381 0.000000000000000
3.001844167709351 -5.677262783050537 0.178515091538429 0.000000000000000
6.918605804443359 -15.763066291809082 -0.805716931819916 0.000000000000000
5.989711284637451 -15.655055046081543 -0.882492899894714 0.003921568859369
2.771598339080811 -6.839294433593750 0.588869214057922 0.000000000000000
6.593133449554443 -14.991179466247559 -0.387143999338150 0.000000000000000
6.234918594360352 -16.506040573120117 -0.520197749137878 0.000000000000000
6.078783035278320 -16.074567794799805 0.288993507623672 0.003921568859369
6.882007122039795 -15.830404281616211 -0.807995021343231 0.000000000000000
6.503805637359619 -14.924567222595215 -0.384900212287903 0.000000000000000
6.055044174194336 -16.175548553466797 -0.509253382682800 0.000000000000000
6.840162277221680 -15.878072738647461 -0.809333682060242 0.000000000000000
6.852333545684814 -18.412298202514648 3.554114818572998 0.003921568859369
6.461920738220215 -14.963616371154785 -0.385396838188171 0.000000000000000
5.991723537445068 -16.185312271118164 -0.508926272392273 0.000000000000000
5.213924407958984 -13.986886978149414 2.695709466934204 0.000000000000000
6.422176361083984 -15.023200035095215 -0.386368721723557 0.000000000000000
5.914458274841309 -16.127702713012695 -0.506589949131012 0.000000000000000
4.710932731628418 -12.687300682067871 1.089199662208557 0.000000000000000
6.376454353332520 -15.046138763427734 -0.386485874652863 0.000000000000000
5.605913639068604 -15.426465034484863 -0.484084993600845 0.000000000000000
2.523596286773682 -7.706820964813232 0.087523363530636 0.000000000000000
3.638960123062134 -9.734333992004395 0.173079386353493 0.000000000000000
5.817514419555664 -16.038368225097656 -0.898647010326385 0.003921568859369
7.403287410736084 -15.523981094360352 -0.704596698284149 0.003921568859369
3.579335927963257 -9.563912391662598 1.838021397590637 0.000000000000000
6.321267127990723 -15.068398475646973 -0.386512130498886 0.000000000000000
3.881704092025757 -10.556495666503906 0.447416007518768 0.000000000000000
5.441247463226318 -15.120185852050781 -0.846355974674225 0.003921568859369
3.294390678405762 -7.602015495300293 0.998532474040985 0.000000000000000
6.907192230224609 -14.577446937561035 -0.660764992237091 0.003921568859369
6.268633365631104 -15.089407920837402 -0.386537045240402 0.000000000000000
4.712706565856934 -13.110815048217773 1.121187806129456 0.000000000000000
6.866081237792969 -14.599373817443848 -0.661134779453278 0.003921568859369
1.206966519355774 -3.249560594558716 -0.122107237577438 0.000000000000000
6.212650299072266 -15.075726509094238 -0.386072456836700 0.000000000000000
5.345359802246094 -15.163467407226562 -0.847199261188507 0.003921568859369
7.255745887756348 -15.616028785705566 -0.705862820148468 0.003921568859369
6.164605617523193 -15.115990638732910 -0.386572748422623 0.000000000000000
6.318250179290771 -15.672038078308105 -0.791689276695251 0.000000000000000
7.193109512329102 -15.621996879577637 -0.705069303512573 0.003921568859369
6.111806392669678 -15.136428833007812 -0.386598438024521 0.000000000000000
7.158917427062988 -15.685087203979492 -0.706903934478760 0.003921568859369
6.065854549407959 -15.166882514953613 -0.386906743049622 0.000000000000000
7.502666473388672 -19.137794494628906 1.180209636688232 0.003921568859369
6.176173686981201 -15.619292259216309 -0.787047326564789 0.003921568859369
5.204885482788086 -15.264207839965820 -0.850014030933380 0.003921568859369
7.073881149291992 -15.639339447021484 -0.703809261322021 0.003921568859369
6.026994705200195 -15.224389076232910 -0.387879043817520 0.000000000000000
9.209741592407227 -28.020063400268555 -0.871090292930603 0.003921568859369
5.144298076629639 -15.258460044860840 -0.848771750926971 0.003921568859369
7.022406101226807 -15.670289993286133 -0.704165816307068 0.003921568859369
5.972418308258057 -15.240599632263184 -0.387809932231903 0.000000000000000
9.008647918701172 -27.723062515258789 -0.860979318618774 0.003921568859369
5.799693584442139 -12.952812194824219 0.401621967554092 0.000000000000000
6.007460117340088 -15.498882293701172 -0.779026210308075 0.000000000000000
1.316075086593628 -2.797590255737305 0.362222254276276 0.000000000000000
7.027180671691895 -15.833443641662598 -0.710439801216125 0.003921568859369
5.924726486206055 -15.275369644165039 -0.388214111328125 0.000000000000000
8.685094833374023 -27.024118423461914 -0.838468194007874 0.003921568859369
6.023258686065674 -15.710169792175293 -0.788627803325653 0.000000000000000
6.971869945526123 -15.856886863708496 -0.710467815399170 0.003921568859369
5.875488281250000 -15.306238174438477 -0.388523578643799 0.000000000000000
8.884332656860352 -27.992015838623047 -0.867558479309082 0.003921568859369
2.783784389495850 -5.984298229217529 0.183560028672218 0.000000000000000
6.926956653594971 -15.897416114807129 -0.711316287517548 0.003921568859369
5.824701786041260 -15.324696540832520 -0.388547629117966 0.000000000000000
8.701613426208496 -27.759342193603516 -0.859455168247223 0.003921568859369
3.513677120208740 -7.811270713806152 0.240030407905579 0.000000000000000
6.894613742828369 -15.984441757202148 -0.714140176773071 0.003921568859369
5.771189689636230 -15.352434158325195 -0.388763576745987 0.000000000000000
8.678070068359375 -28.033693313598633 -0.867056488990784 0.003921568859369
6.227401256561279 -19.853458404541016 1.680047631263733 0.003921568859369
6.796366214752197 -15.903867721557617 -0.709564924240112 0.003921568859369
5.730896949768066 -15.409202575683594 -0.389735847711563 0.000000000000000
6.737810134887695 -15.919096946716309 -0.709263801574707 0.003921568859369
1.128735303878784 -2.861163616180420 0.539886713027954 0.000000000000000
5.682355880737305 -15.443221092224121 -0.390139847993851 0.000000000000000
3.170054912567139 -9.860377311706543 -0.067144222557545 0.000000000000000
5.845755577087402 -16.060001373291016 -0.801726698875427 0.000000000000000
6.690771102905273 -15.936720848083496 -0.709502458572388 0.003921568859369
5.638387203216553 -15.461061477661133 -0.390542000532150 0.000000000000000
3.024827957153320 -9.486026763916016 -0.064652010798454 0.000000000000000
3.755774974822998 -10.133523941040039 0.241767287254333 0.000000000000000
5.476753711700439 -15.164393424987793 -0.756290197372437 0.000000000000000
6.638054370880127 -15.966390609741211 -0.709859967231750 0.003921568859369
2.712707281112671 -8.515466690063477 0.353842616081238 0.000000000000000
6.602772235870361 -16.040515899658203 -0.712191224098206 0.003921568859369
5.374560356140137 -15.211598396301270 -0.756904602050781 0.003921568859369
6.538038730621338 -16.040105819702148 -0.711232781410217 0.003921568859369
2.161951303482056 -6.669248580932617 1.256806731224060 0.000000000000000
6.492074012756348 -16.087919235229492 -0.712412655353546 0.003921568859369
7.941687583923340 -28.394821166992188 -0.872278630733490 0.003921568859369
6.166476249694824 -15.566221237182617 -0.687627732753754 0.003921568859369
3.652692794799805 -10.426651000976562 2.927387237548828 0.000000000000000
7.791183471679688 -28.228145599365234 -0.866410791873932 0.003921568859369
2.838929891586304 -9.591464042663574 -0.065067045390606 0.000000000000000
3.297299146652222 -9.435092926025391 1.208599448204041 0.000000000000000
9.375010490417480 -28.499141693115234 -0.712111711502075 0.003921568859369
7.743269920349121 -28.447540283203125 -0.872365593910217 0.003921568859369
2.381697654724121 -6.641161918640137 0.156133592128754 0.000000000000000
9.023225784301758 -27.729696273803711 -0.692241966724396 0.003921568859369
6.025096416473389 -15.678446769714355 -0.690011024475098 0.003921568859369
8.760071754455566 -27.208683013916016 -0.678626954555511 0.003921568859369
6.047899723052979 -15.904066085815430 -0.699086368083954 0.003921568859369
8.683911323547363 -27.282485961914062 -0.679806947708130 0.003921568859369
3.385409116744995 -12.331705093383789 0.509194672107697 0.000000000000000
6.095953941345215 -16.222328186035156 -0.712114036083221 0.003921568859369
8.575722694396973 -27.286281585693359 -0.679189026355743 0.003921568859369
2.343062162399292 -6.823443412780762 0.868320226669312 0.000000000000000
6.037222862243652 -16.216135025024414 -0.711379289627075 0.003921568859369
8.498006820678711 -27.349527359008789 -0.680688381195068 0.003921568859369
3.957735776901245 -10.457965850830078 0.314598321914673 0.000000000000000
5.959456443786621 -16.175712585449219 -0.708773851394653 0.003921568859369
8.401353836059570 -27.374151229858398 -0.680638730525970 0.003921568859369
5.594519615173340 -15.295577049255371 -0.669618725776672 0.003921568859369
8.290330886840820 -27.331783294677734 -0.678972482681274 0.003921568859369
3.295560121536255 -12.681247711181641 -0.388556599617004 0.000000000000000
2.990271806716919 -7.864934444427490 0.235291793942451 0.000000000000000
2.971946716308594 -9.266231536865234 0.554178059101105 0.000000000000000
5.515205383300781 -15.238350868225098 -0.666352748870850 0.003921568859369
2.861806869506836 -11.029145240783691 0.915798008441925 0.000000000000000
7.811532974243164 -27.483848571777344 -0.679577052593231 0.003921568859369
4.632527351379395 -13.413216590881348 0.072568908333778 0.000000000000000
7.773103713989258 -27.684907913208008 -0.683985888957977 0.003921568859369
1.209663867950439 -3.425154924392700 -0.004580194130540 0.000000000000000
2.481888771057129 -6.840114116668701 0.035547181963921 0.000000000000000
7.666133880615234 -27.672185897827148 -0.683080136775970 0.003921568859369
1.888583183288574 -7.555429458618164 -0.231471762061119 0.000000000000000
2.362789869308472 -12.907525062561035 0.142428010702133 0.000000000000000
2.577083826065063 -8.695726394653320 0.516251742839813 0.000000000000000
7.592277526855469 -27.824054718017578 -0.686168253421783 0.003921568859369
2.907915830612183 -12.783661842346191 0.521613061428070 0.000000000000000
3.607855319976807 -13.141242027282715 0.779204368591309 0.000000000000000
3.313561916351318 -15.929246902465820 2.943651199340820 0.003921568859369
0.863872528076172 -3.012667179107666 0.048864897340536 0.000000000000000
3.302147150039673 -13.085866928100586 -0.322298169136047 0.000000000000000
3.388711214065552 -11.265289306640625 0.331097573041916 0.000000000000000
1.541798233985901 -7.231300830841064 1.330433845520020 0.000000000000000
2.132070064544678 -8.373270034790039 0.191966742277145 0.000000000000000
1.078153014183044 -2.863438606262207 -0.125271782279015 0.000000000000000
1.615448236465454 -8.121905326843262 1.491803288459778 0.000000000000000
4.030872344970703 -14.358610153198242 0.075367897748947 0.000000000000000
1.804098963737488 -9.738983154296875 0.392704457044601 0.000000000000000
1.853622317314148 -7.568600654602051 -0.367077291011810 0.000000000000000
1.329083204269409 -6.795899868011475 0.112947434186935 0.000000000000000
1.673733353614807 -9.101074218750000 0.742843687534332 0.000000000000000
3.410352706909180 -12.501099586486816 0.364927351474762 0.000000000000000
0.701007425785065 -1.593530774116516 -0.032562501728535 0.003921568859369
3.091203212738037 -11.557201385498047 -0.216863214969635 0.000000000000000
2.212860107421875 -8.160775184631348 -0.153803423047066 0.000000000000000
2.984985113143921 -11.660195350646973 -0.218288213014603 0.000000000000000
2.733288049697876 -13.578832626342773 0.310171723365784 0.000000000000000
1.548981904983521 -9.646295547485352 1.764188289642334 0.000000000000000
1.449786543846130 -9.371584892272949 -0.283285617828369 0.000000000000000
3.623172044754028 -14.911138534545898 0.433192431926727 0.000000000000000
3.427914381027222 -18.521846771240234 2.291669607162476 0.003921568859369
1.713238835334778 -6.962330818176270 0.034058570861816 0.000000000000000
1.647793173789978 -10.057058334350586 2.708374261856079 0.000000000000000
1.166787505149841 -6.586277961730957 -0.007145697716624 0.000000000000000
1.275222778320312 -8.016626358032227 0.982944965362549 0.000000000000000
1.651533722877502 -22.658334732055664 4.120180130004883 0.003921568859369
0.969651877880096 -11.695175170898438 2.124613046646118 0.000000000000000
0.261749744415283 -14.931270599365234 -0.186764046549797 0.000000000000000
0.261772572994232 -14.899497985839844 0.160533562302589 0.000000000000000
2.419964075088501 -14.617444038391113 0.417717099189758 0.000000000000000
1.250284433364868 -7.729157924652100 -0.143769010901451 0.000000000000000
0.460903346538544 -6.270723819732666 0.504709661006927 0.000000000000000
0.437548875808716 -6.183428287506104 0.497598558664322 0.000000000000000
0.653871655464172 -19.156318664550781 3.477111101150513 0.003921568859369
1.275653243064880 -14.325531005859375 -0.346264302730560 0.000000000000000
0.587013244628906 -19.157321929931641 3.477087974548340 0.003921568859369
0.519958376884460 -19.138416290283203 3.473490715026855 0.003921568859369
0.453038632869720 -19.119276046752930 3.469893217086792 0.003921568859369
0.386278480291367 -19.107770919799805 3.467725515365601 0.003921568859369
0.979341685771942 -13.390780448913574 0.768994331359863 0.000000000000000
