# This PCD file was generated using the MATLAB® pcwrite function
# from Computer Vision Toolbox®.
# .PCD v.7 - Point Cloud Data file format
VERSION .7
FIELDS x y z intensity
SIZE 8 8 8 8
TYPE F F F F
COUNT 1 1 1 1
WIDTH 646
HEIGHT 1
VIEWPOINT 0 0 0 1 0 0 0
POINTS 646
DATA ascii
-2.796418905258179 6.615296363830566 -0.124262772500515 0.000000000000000
-6.039487361907959 15.248896598815918 -0.288708776235580 0.003921568859369
-6.040526390075684 18.725797653198242 -0.005077472422272 0.003921568859369
-3.601598024368286 9.298112869262695 -0.174072355031967 0.000000000000000
-1.342865467071533 3.071231603622437 0.095549896359444 0.000000000000000
-2.896280288696289 7.581267833709717 0.232604414224625 0.000000000000000
-2.900881290435791 7.973387718200684 0.047795981168747 0.000000000000000
-2.782069683074951 12.803412437438965 2.376834630966187 0.000000000000000
-1.680266618728638 4.787254810333252 0.145565897226334 0.000000000000000
-2.026751756668091 8.846149444580078 2.416400671005249 0.000000000000000
-1.434435367584229 8.063869476318359 1.485311150550842 0.000000000000000
-3.964585781097412 25.971866607666016 4.777448177337646 0.003921568859369
-0.963623344898224 3.034524679183960 0.091639295220375 0.000000000000000
-1.413070201873779 5.004430770874023 -0.089472748339176 0.000000000000000
-1.316332340240479 8.083300590515137 1.486072421073914 0.000000000000000
-0.862270772457123 5.384304046630859 0.221094131469727 0.000000000000000
-1.972381114959717 11.218893051147461 1.392153501510620 0.000000000000000
-0.612578809261322 2.147034168243408 -0.036872375756502 0.000000000000000
-1.693684577941895 12.667778968811035 3.414625883102417 0.000000000000000
-0.767487525939941 6.210393905639648 0.363122254610062 0.000000000000000
-0.592262923717499 11.972730636596680 3.208142757415771 0.000000000000000
0.067216187715530 11.291004180908203 2.058314085006714 0.000000000000000
-0.324334144592285 16.402278900146484 4.392634391784668 0.003921568859369
0.045450329780579 6.141678333282471 1.121025562286377 0.000000000000000
5.717065334320068 25.199068069458008 0.299139559268951 0.003921568859369
4.591983318328857 28.868600845336914 3.589631319046021 0.003921568859369
5.724736690521240 25.200275421142578 -0.152511432766914 0.003921568859369
4.515909194946289 25.089885711669922 3.131749153137207 0.003921568859369
7.478258132934570 26.698322296142578 2.265401840209961 0.003921568859369
7.612276077270508 26.829805374145508 2.278753042221069 0.003921568859369
8.098129272460938 28.137426376342773 2.392213344573975 0.003921568859369
7.029444217681885 28.927602767944336 1.733783841133118 0.003921568859369
7.851385593414307 26.609418869018555 2.267132282257080 0.003921568859369
8.379524230957031 28.007354736328125 2.388722419738770 0.003921568859369
7.089435100555420 27.523035049438477 1.655681490898132 0.003921568859369
5.824646949768066 25.177803039550781 0.148665428161621 0.003921568859369
9.160475730895996 27.738405227661133 3.591370344161987 0.003921568859369
8.998285293579102 27.258869171142578 7.703231334686279 0.003921568859369
9.109934806823730 27.306814193725586 7.724988937377930 0.003921568859369
9.368722915649414 27.747360229492188 3.600676774978638 0.003921568859369
10.360980033874512 25.307384490966797 2.236527919769287 0.003921568859369
10.050085067749023 26.914396286010742 7.710853576660156 0.003921568859369
7.467358589172363 12.098972320556641 -0.831233859062195 0.000000000000000
7.507442474365234 12.073701858520508 -0.831222176551819 0.000000000000000
7.472177505493164 11.921059608459473 -0.822602868080139 0.000000000000000
7.459764003753662 11.810464859008789 -0.816775619983673 0.000000000000000
7.456140995025635 11.703485488891602 -0.811194837093353 0.000000000000000
7.468574523925781 11.633477210998535 -0.808159768581390 0.000000000000000
7.500527858734131 11.598224639892578 -0.807451069355011 0.000000000000000
7.507686614990234 11.516942977905273 -0.803717851638794 0.000000000000000
13.449789047241211 25.602846145629883 1.687837958335876 0.003921568859369
7.536756992340088 11.473623275756836 -0.802543580532074 0.000000000000000
7.552478790283203 11.415016174316406 -0.800207018852234 0.000000000000000
7.572108268737793 11.358400344848633 -0.798102498054504 0.000000000000000
13.687912940979004 25.416088104248047 1.684886336326599 0.003921568859369
7.586942672729492 11.295185089111328 -0.795533001422882 0.000000000000000
7.000015735626221 12.168821334838867 -0.985100388526917 0.000000000000000
7.068793296813965 12.188586235046387 -0.988717615604401 0.000000000000000
6.970629692077637 11.926745414733887 -0.969449520111084 0.000000000000000
7.001914501190186 11.894147872924805 -0.968602597713470 0.000000000000000
6.944446086883545 11.705225944519043 -0.955195784568787 0.000000000000000
6.993518829345703 11.689492225646973 -0.956021904945374 0.000000000000000
7.073347091674805 11.546644210815430 -0.950408577919006 0.000000000000000
7.161094188690186 11.496189117431641 -0.950437009334564 0.000000000000000
7.156142711639404 11.400075912475586 -0.944566845893860 0.000000000000000
7.094530582427979 11.216848373413086 -0.931441366672516 0.000000000000000
7.098950862884521 11.138032913208008 -0.926966726779938 0.000000000000000
9.259860992431641 11.289029121398926 -0.853263437747955 0.000000000000000
7.555913448333740 11.236757278442383 -0.950338184833527 0.000000000000000
9.347283363342285 11.309749603271484 -0.857436895370483 0.000000000000000
7.600437164306641 11.211303710937500 -0.950385570526123 0.000000000000000
9.397183418273926 11.284472465515137 -0.857968509197235 0.000000000000000
7.451015949249268 10.912037849426270 -0.927217125892639 0.000000000000000
6.897952556610107 8.257231712341309 -0.629429757595062 0.000000000000000
7.717415332794189 11.130023002624512 -0.950357794761658 0.000000000000000
7.774297237396240 11.124081611633301 -0.952301204204559 0.000000000000000
7.801495075225830 11.080272674560547 -0.950896859169006 0.000000000000000
7.842455863952637 11.055851936340332 -0.951166570186615 0.000000000000000
7.921177864074707 11.087633132934570 -0.956179857254028 0.000000000000000
7.954715728759766 11.048470497131348 -0.955333054065704 0.000000000000000
7.950704574584961 10.962396621704102 -0.950301706790924 0.000000000000000
8.015951156616211 10.978746414184570 -0.953920364379883 0.000000000000000
3.709519624710083 4.891025543212891 -0.432497948408127 0.000000000000000
1.792531728744507 2.688469171524048 -0.209776788949966 0.000000000000000
8.607220649719238 11.105861663818359 -0.985719203948975 0.000000000000000
1.799596667289734 2.678604364395142 -0.209518879652023 0.000000000000000
7.856298923492432 11.151007652282715 -0.876953482627869 0.000000000000000
7.902544975280762 11.137547492980957 -0.877968490123749 0.000000000000000
8.745490074157715 11.042148590087891 -0.988203227519989 0.000000000000000
8.002204895019531 11.193652153015137 -0.884611010551453 0.000000000000000
8.045932769775391 11.171766281127930 -0.885113894939423 0.000000000000000
4.923046588897705 6.179286003112793 -0.555779755115509 0.000000000000000
8.127399444580078 11.201200485229492 -0.889709830284119 0.000000000000000
4.539190769195557 5.168790340423584 -0.362915456295013 0.000000000000000
8.223597526550293 11.239859580993652 -0.895136833190918 0.000000000000000
8.267975807189941 11.221841812133789 -0.895896494388580 0.000000000000000
8.340193748474121 11.232648849487305 -0.899213433265686 0.000000000000000
8.377397537231445 11.204634666442871 -0.899205625057220 0.000000000000000
8.392285346984863 11.143247604370117 -0.896639406681061 0.000000000000000
9.884145736694336 9.740904808044434 -0.810701549053192 0.000000000000000
13.264338493347168 15.871939659118652 -0.965140759944916 0.003921568859369
3.071212053298950 4.121715545654297 -0.332083880901337 0.000000000000000
13.242159843444824 15.733785629272461 -0.959546864032745 0.003921568859369
8.518661499023438 11.146966934204102 -0.901739001274109 0.000000000000000
13.252911567687988 15.635481834411621 -0.956371843814850 0.003921568859369
8.601126670837402 11.168907165527344 -0.906078875064850 0.000000000000000
13.237195968627930 15.501642227172852 -0.951149761676788 0.003921568859369
8.647966384887695 11.152599334716797 -0.907094240188599 0.000000000000000
13.259769439697266 15.424129486083984 -0.949091851711273 0.003921568859369
8.704154014587402 11.143970489501953 -0.908876478672028 0.000000000000000
13.261027336120605 15.317193031311035 -0.945358991622925 0.003921568859369
8.800118446350098 11.185091018676758 -0.914751291275024 0.000000000000000
13.277510643005371 15.228463172912598 -0.942742526531219 0.003921568859369
8.829128265380859 11.141534805297852 -0.913719832897186 0.000000000000000
13.304122924804688 15.151782035827637 -0.940870404243469 0.003921568859369
8.927891731262207 11.175636291503906 -0.919155597686768 0.000000000000000
13.342975616455078 15.081118583679199 -0.939462542533875 0.003921568859369
8.979423522949219 11.159617424011230 -0.920426785945892 0.000000000000000
13.382197380065918 15.019292831420898 -0.938521564006805 0.003921568859369
13.423838615417480 14.960340499877930 -0.937766611576080 0.003921568859369
13.475974082946777 14.913110733032227 -0.937755942344666 0.003921568859369
13.552233695983887 14.892219543457031 -0.939419686794281 0.003921568859369
13.663722038269043 14.909164428710938 -0.943501770496368 0.003921568859369
13.762121200561523 14.921569824218750 -0.947026848793030 0.003921568859369
13.735009193420410 14.788496017456055 -0.941620945930481 0.003921568859369
13.923447608947754 14.885684013366699 -0.950911939144135 0.003921568859369
7.715689182281494 8.229536056518555 -0.791797935962677 0.000000000000000
13.975325584411621 14.836706161499023 -0.950901150703430 0.003921568859369
14.027027130126953 14.787552833557129 -0.950890302658081 0.003921568859369
7.443975448608398 7.832488059997559 -0.758593380451202 0.000000000000000
14.147768020629883 14.810246467590332 -0.955530226230621 0.003921568859369
14.195561408996582 14.749066352844238 -0.954879999160767 0.003921568859369
6.685142993927002 6.937496662139893 -0.450349718332291 0.000000000000000
14.418508529663086 14.771737098693848 -0.962859630584717 0.003921568859369
6.435739994049072 6.588847637176514 -0.430621355772018 0.000000000000000
14.724181175231934 14.874150276184082 -0.976233720779419 0.003921568859369
6.536922931671143 6.645282745361328 2.512402772903442 0.000000000000000
14.956998825073242 15.003066062927246 -0.988129198551178 0.003921568859369
15.061379432678223 14.897759437561035 -0.988108873367310 0.003921568859369
15.073279380798340 14.805748939514160 -0.985494494438171 0.003921568859369
6.680671691894531 6.024019718170166 2.424381017684937 0.000000000000000
6.601926803588867 5.660561561584473 0.509791791439056 0.000000000000000
7.277055263519287 4.573819160461426 -0.300920933485031 0.000000000000000
3.928252935409546 2.366088151931763 0.054346557706594 0.000000000000000
25.010816574096680 16.382112503051758 -0.869904637336731 0.003921568859369
24.896795272827148 16.183553695678711 -0.863968491554260 0.003921568859369
9.740093231201172 6.061659812927246 -0.535234510898590 0.000000000000000
6.515343666076660 3.507788658142090 1.354303836822510 0.000000000000000
12.542873382568359 5.544794082641602 -0.799586474895477 0.000000000000000
11.545965194702148 7.228326797485352 -0.555330753326416 0.000000000000000
10.580880165100098 5.877156257629395 -0.564297616481781 0.000000000000000
8.446338653564453 4.540734291076660 2.575094699859619 0.000000000000000
5.595514297485352 2.889464378356934 -0.293958842754364 0.000000000000000
10.418169975280762 4.475755214691162 -0.594667375087738 0.000000000000000
8.914913177490234 3.757265090942383 -0.281680613756180 0.000000000000000
18.797122955322266 6.635597229003906 -0.696148455142975 0.003921568859369
8.970811843872070 3.523922443389893 1.758667349815369 0.000000000000000
13.302085876464844 5.063718795776367 0.580332636833191 0.000000000000000
2.439900398254395 1.030241370201111 0.061866894364357 0.000000000000000
18.814435958862305 6.642890453338623 -0.115782745182514 0.000000000000000
11.549044609069824 4.677845001220703 3.338765859603882 0.000000000000000
5.880203723907471 2.697136163711548 0.188273936510086 0.000000000000000
24.065170288085938 6.556403160095215 -0.290375173091888 0.003921568859369
7.864156246185303 2.561289310455322 0.144366309046745 0.000000000000000
5.341744899749756 2.181282520294189 -0.100699774920940 0.000000000000000
12.711495399475098 3.748691558837891 2.414846181869507 0.000000000000000
8.303637504577637 2.385219573974609 -0.251362293958664 0.000000000000000
22.835115432739258 6.563051223754883 4.330412387847900 0.003921568859369
22.827600479125977 6.474740505218506 4.324671745300293 0.003921568859369
6.892469406127930 1.928863763809204 -0.374849379062653 0.000000000000000
22.856523513793945 6.401156425476074 4.326105594635010 0.003921568859369
22.786602020263672 6.300170421600342 4.308886528015137 0.003921568859369
24.058616638183594 6.557199954986572 2.034804344177246 0.003921568859369
22.786762237548828 6.210421562194824 4.304581165313721 0.003921568859369
7.980757236480713 2.569210767745972 1.028446078300476 0.000000000000000
22.776826858520508 6.126683712005615 4.298840522766113 0.003921568859369
24.107662200927734 6.390152931213379 2.035127878189087 0.003921568859369
22.818153381347656 6.048214912414551 4.302426338195801 0.003921568859369
20.763191223144531 6.442618370056152 5.820864677429199 0.003921568859369
24.311996459960938 6.170878887176514 2.045900106430054 0.003921568859369
11.861083984375000 3.633119821548462 3.319796800613403 0.000000000000000
24.253917694091797 6.075135707855225 2.039390802383423 0.003921568859369
7.314653873443604 1.801188111305237 0.130982816219330 0.000000000000000
24.322473526000977 5.997709274291992 2.043293476104736 0.003921568859369
18.838132858276367 6.577298641204834 -0.812801957130432 0.003921568859369
8.970349311828613 2.077499866485596 0.750213086605072 0.000000000000000
22.905801773071289 5.230252265930176 4.280614376068115 0.003921568859369
22.923919677734375 5.150310039520264 4.280612468719482 0.003921568859369
15.057510375976562 3.324007749557495 0.268494218587875 0.000000000000000
22.984910964965820 5.075654506683350 4.288502216339111 0.003921568859369
23.032377243041992 5.006138801574707 4.294239521026611 0.003921568859369
23.091745376586914 4.933218002319336 4.300408840179443 0.003921568859369
1.773624539375305 0.551251292228699 -0.117910251021385 0.003921568859369
23.162738800048828 4.863996982574463 4.310449123382568 0.003921568859369
1.798409342765808 0.552244246006012 -0.119446061551571 0.003921568859369
23.256652832031250 4.799106121063232 4.324793815612793 0.003921568859369
9.307348251342773 1.850424408912659 -0.055483561009169 0.000000000000000
9.286487579345703 1.846260309219360 0.164434611797333 0.000000000000000
22.612897872924805 5.578295707702637 2.856280326843262 0.003921568859369
22.497213363647461 5.466569423675537 2.839219808578491 0.003921568859369
3.646410226821899 0.868806421756744 0.086439818143845 0.000000000000000
12.384433746337891 2.963468551635742 1.560367107391357 0.000000000000000
6.365706920623779 0.878059685230255 -0.224014416337013 0.000000000000000
7.173587322235107 1.687978625297546 -0.000386882980820 0.000000000000000
22.673009872436523 5.346293449401855 2.856760263442993 0.003921568859369
22.753408432006836 5.281565189361572 2.864555597305298 0.003921568859369
22.806535720825195 5.210155487060547 2.868939161300659 0.003921568859369
22.863321304321289 5.139301300048828 2.873810529708862 0.003921568859369
9.373695373535156 2.104150533676147 -0.223499581217766 0.000000000000000
22.915622711181641 5.065615653991699 2.876937150955200 0.003921568859369
22.952562332153320 4.989924907684326 2.879370450973511 0.003921568859369
8.698128700256348 1.855338215827942 0.515694260597229 0.000000000000000
23.028076171875000 4.922336101531982 2.886676788330078 0.003921568859369
6.281149864196777 0.999195396900177 0.110011912882328 0.000000000000000
23.083971023559570 4.850204944610596 2.891546964645386 0.003921568859369
23.169912338256836 4.788201808929443 2.900315284729004 0.003921568859369
7.275262355804443 1.472949385643005 0.171526983380318 0.000000000000000
9.303595542907715 0.956878423690796 0.107904903590679 0.000000000000000
23.237060546875000 4.717684268951416 2.906647443771362 0.003921568859369
6.726774215698242 1.681090116500854 0.200461953878403 0.000000000000000
6.483561992645264 1.620067238807678 -0.426955163478851 0.000000000000000
23.327360153198242 4.651419639587402 2.915903329849243 0.003921568859369
23.389410018920898 4.583302497863770 2.921747922897339 0.003921568859369
17.014120101928711 2.354004621505737 1.398849010467529 0.000000000000000
5.925121784210205 1.414420723915100 -0.247479021549225 0.000000000000000
11.835824966430664 1.469847202301025 0.206623524427414 0.000000000000000
4.589592933654785 0.993558228015900 0.026559207588434 0.000000000000000
18.537775039672852 2.176964282989502 0.757670283317566 0.003921568859369
8.131521224975586 1.327037215232849 2.197177410125732 0.000000000000000
8.284745216369629 0.880127727985382 0.144044652581215 0.000000000000000
12.691714286804199 1.305748105049133 0.221088364720345 0.000000000000000
17.081674575805664 2.605469465255737 1.003001332283020 0.000000000000000
8.920745849609375 1.357882857322693 2.407294750213623 0.000000000000000
3.852647781372070 0.763219296932220 -0.068416021764278 0.000000000000000
14.229782104492188 1.419421672821045 -0.083960786461830 0.000000000000000
2.900165081024170 0.428461164236069 0.066920056939125 0.000000000000000
8.356451988220215 1.664070844650269 0.246207013726234 0.000000000000000
9.267280578613281 1.312084674835205 2.497341871261597 0.000000000000000
10.472722053527832 0.346200227737427 -0.608733475208282 0.000000000000000
15.421037673950195 1.264487862586975 1.258161425590515 0.000000000000000
9.996710777282715 1.808920264244080 -0.413082391023636 0.000000000000000
9.222437858581543 1.208543419837952 -0.216353952884674 0.000000000000000
10.770776748657227 1.912861824035645 0.062316536903381 0.000000000000000
14.586693763732910 1.147261738777161 2.658372640609741 0.000000000000000
9.356136322021484 1.161682724952698 0.545558094978333 0.000000000000000
9.428859710693359 1.170798778533936 -0.221022561192513 0.000000000000000
9.883605003356934 1.683873534202576 -0.175204858183861 0.000000000000000
20.335657119750977 2.459611654281616 -0.001641441835091 0.003921568859369
11.287237167358398 1.924106836318970 -0.465759396553040 0.000000000000000
16.336112976074219 1.914241313934326 -0.001392549253069 0.003921568859369
6.244648933410645 0.422806680202484 0.252429246902466 0.000000000000000
15.758688926696777 1.022001624107361 1.284163355827332 0.000000000000000
3.861883163452148 0.626601576805115 -0.158215180039406 0.000000000000000
10.294765472412109 0.594853639602661 -0.060716968029737 0.000000000000000
14.327401161193848 2.188494682312012 0.419291377067566 0.000000000000000
10.334415435791016 0.525113284587860 -0.300911515951157 0.000000000000000
3.326182365417480 0.328771680593491 0.191517382860184 0.000000000000000
8.058830261230469 0.774703443050385 -0.000877970480360 0.003921568859369
8.462644577026367 0.813749492168427 -0.197710037231445 0.000000000000000
8.617349624633789 1.220806002616882 0.250763297080994 0.000000000000000
5.572285175323486 0.513131856918335 1.484781861305237 0.000000000000000
6.906232357025146 0.614317595958710 0.159202575683594 0.000000000000000
4.411910057067871 0.161484301090240 0.075396247208118 0.000000000000000
20.424613952636719 1.682715535163879 -0.477650314569473 0.003921568859369
10.467041969299316 0.823629975318909 -0.001214817864820 0.003921568859369
9.621098518371582 1.195557951927185 0.279539227485657 0.000000000000000
7.903604984283447 0.208527818322182 0.136062636971474 0.000000000000000
6.504080772399902 0.783263206481934 0.036878202110529 0.000000000000000
8.708508491516113 0.199637845158577 0.705786168575287 0.000000000000000
6.443084716796875 0.754360854625702 0.036509521305561 0.000000000000000
13.687621116638184 0.269254893064499 1.111887574195862 0.000000000000000
8.814167022705078 1.003228902816772 0.050188817083836 0.000000000000000
9.076770782470703 1.033282279968262 0.263283133506775 0.000000000000000
8.889058113098145 0.143660470843315 0.153153166174889 0.000000000000000
6.647172927856445 0.060006856918335 -0.039286356419325 0.000000000000000
8.345965385437012 0.075465224683285 0.143698811531067 0.000000000000000
5.967358589172363 0.034198995679617 -0.035281170159578 0.000000000000000
26.287263870239258 1.435193538665771 3.223676204681396 0.003921568859369
24.189580917358398 0.139449164271355 4.398641109466553 0.003921568859369
15.037319183349609 1.503384470939636 0.436339616775513 0.000000000000000
26.370874404907227 1.347331285476685 3.232087612152100 0.003921568859369
9.366203308105469 0.476457715034485 2.495776891708374 0.000000000000000
11.965566635131836 1.151039123535156 -0.210305318236351 0.000000000000000
6.537937641143799 -0.008893069811165 0.112010523676872 0.000000000000000
26.502542495727539 1.256923317909241 3.247668981552124 0.003921568859369
26.538499832153320 1.166001558303833 3.251559734344482 0.003921568859369
26.669164657592773 1.083360314369202 3.267141819000244 0.003921568859369
3.387719154357910 0.123853832483292 0.076728858053684 0.000000000000000
26.720392227172852 0.992232501506805 3.272980928421021 0.003921568859369
9.943140029907227 0.333264648914337 1.212934851646423 0.000000000000000
4.460186004638672 0.364271044731140 -0.180793106555939 0.000000000000000
4.509241580963135 0.352698206901550 -0.182752311229706 0.000000000000000
12.820973396301270 0.966652572154999 0.370880365371704 0.000000000000000
3.921069145202637 -0.099044464528561 0.066589117050171 0.000000000000000
18.240531921386719 0.365461647510529 1.056930780410767 0.000000000000000
13.638330459594727 0.272881895303726 1.665946364402771 0.000000000000000
6.812878131866455 0.419182747602463 -0.119196929037571 0.000000000000000
10.472432136535645 0.136572271585464 0.605073928833008 0.000000000000000
10.595808982849121 0.616657614707947 0.305373340845108 0.000000000000000
9.026745796203613 0.086251474916935 0.520389795303345 0.000000000000000
19.807983398437500 0.190227881073952 -0.461970865726471 0.000000000000000
5.291020870208740 0.032000735402107 0.640435516834259 0.000000000000000
8.953403472900391 0.489386171102524 -0.364050209522247 0.000000000000000
6.699936389923096 0.342055618762970 -0.271829932928085 0.000000000000000
7.299991130828857 -0.031419441103935 0.886887431144714 0.000000000000000
3.603690385818481 0.120509333908558 -0.062686011195183 0.000000000000000
3.210107803344727 -0.069085583090782 -0.147357448935509 0.000000000000000
6.302064895629883 -0.221792384982109 1.668559074401855 0.000000000000000
6.243298053741455 -0.241152554750443 0.142336919903755 0.000000000000000
11.463863372802734 -1.608474850654602 -0.135962128639221 0.000000000000000
10.509281158447266 0.065930061042309 0.058852542191744 0.000000000000000
12.178740501403809 -1.152505993843079 2.214910507202148 0.000000000000000
4.592682838439941 -0.050358474254608 -0.080016829073429 0.000000000000000
14.173442840576172 -1.541154623031616 -0.084784381091595 0.000000000000000
11.692042350769043 -1.270089507102966 2.128859758377075 0.000000000000000
23.050189971923828 -2.831771373748779 4.215658664703369 0.003921568859369
5.432531833648682 -0.452043086290359 0.123583585023880 0.000000000000000
21.924680709838867 -3.158567190170288 1.798033952713013 0.003921568859369
21.925746917724609 -3.314573526382446 1.799973011016846 0.003921568859369
21.925863265991211 -3.392640352249146 1.800942420959473 0.003921568859369
21.937515258789062 -3.472624778747559 1.802886724472046 0.003921568859369
11.191820144653320 -0.665470421314240 -0.455609619617462 0.000000000000000
28.688907623291016 -6.095126152038574 -0.345335274934769 0.003921568859369
21.937065124511719 -3.550814628601074 1.803856492042542 0.003921568859369
21.944375991821289 -3.625157356262207 1.804484605789185 0.003921568859369
9.359493255615234 -2.177533388137817 0.108653068542480 0.000000000000000
10.866363525390625 -1.022138118743896 -0.191288203001022 0.000000000000000
28.694488525390625 -6.087729454040527 -0.175625279545784 0.003921568859369
11.462566375732422 -2.419752359390259 0.945970475673676 0.000000000000000
13.409223556518555 -2.882689714431763 0.234694406390190 0.000000000000000
8.254363059997559 -1.353251695632935 0.479472309350967 0.000000000000000
4.108697414398193 -0.896864950656891 -0.025385379791260 0.000000000000000
9.505289077758789 -1.728430151939392 2.560967206954956 0.000000000000000
29.294857025146484 -5.990571975708008 0.687314093112946 0.003921568859369
22.341670989990234 -4.563882827758789 2.782535552978516 0.003921568859369
29.022193908691406 -6.045158386230469 0.681395411491394 0.003921568859369
7.765704154968262 -1.601995944976807 2.095232725143433 0.000000000000000
28.587142944335938 -6.052763462066650 -0.683618247509003 0.003921568859369
5.956716060638428 -1.569376707077026 1.102963328361511 0.000000000000000
28.517866134643555 -6.146976470947266 -0.682501316070557 0.003921568859369
4.221075057983398 -0.906037867069244 0.516099572181702 0.000000000000000
12.640746116638184 -2.799583196640015 0.744995415210724 0.000000000000000
10.944780349731445 -2.421078443527222 2.973590612411499 0.000000000000000
21.326862335205078 -4.825051784515381 5.826981067657471 0.003921568859369
5.192312240600586 -1.175682783126831 0.302398949861526 0.000000000000000
5.545961856842041 -1.257401466369629 0.684031546115875 0.000000000000000
6.972505569458008 -1.612144947052002 -0.002113312948495 0.000000000000000
23.864814758300781 -8.550531387329102 0.288056135177612 0.003921568859369
4.137286186218262 -1.231014132499695 0.765979230403900 0.000000000000000
29.124029159545898 -6.059469699859619 0.165846541523933 0.003921568859369
2.098300695419312 -0.525188982486725 -0.001297923852690 0.000000000000000
23.807619094848633 -8.811285972595215 -0.300213575363159 0.003921568859369
28.848386764526367 -6.106668472290039 0.164375007152557 0.003921568859369
23.236028671264648 -6.625535964965820 2.948106288909912 0.003921568859369
16.376613616943359 -5.591129302978516 3.130159139633179 0.003921568859369
21.404224395751953 -6.255905151367188 5.939113616943359 0.003921568859369
16.252927780151367 -5.611650466918945 3.110088109970093 0.003921568859369
23.823579788208008 -8.342121124267578 4.575665473937988 0.003921568859369
23.885484695434570 -8.639587402343750 -0.742173552513123 0.003921568859369
21.124366760253906 -7.719375610351562 4.074695587158203 0.003921568859369
23.546958923339844 -7.511868953704834 3.014921426773071 0.003921568859369
8.551953315734863 -2.769270181655884 0.514196932315826 0.000000000000000
7.835828781127930 -3.049348115921021 1.508892655372620 0.000000000000000
7.970086574554443 -2.305450677871704 0.235213443636894 0.000000000000000
5.029719352722168 -1.998228549957275 -0.032956887036562 0.000000000000000
23.988525390625000 -8.575544357299805 1.470228791236877 0.003921568859369
23.053941726684570 -8.602962493896484 0.563514769077301 0.003921568859369
17.969728469848633 -8.003882408142090 3.558813571929932 0.003921568859369
24.041437149047852 -9.730787277221680 0.593656599521637 0.003921568859369
7.059021472930908 -2.431974649429321 0.210911437869072 0.000000000000000
3.519452095031738 -1.378596305847168 0.447056293487549 0.000000000000000
23.920547485351562 -9.783368110656738 0.591530978679657 0.003921568859369
21.500234603881836 -10.666789054870605 4.345945358276367 0.003921568859369
11.663366317749023 -6.164904117584229 1.062502503395081 0.000000000000000
14.172424316406250 -7.507278919219971 2.896420240402222 0.003921568859369
8.010770797729492 -3.790590047836304 0.504960656166077 0.000000000000000
3.805792570114136 -2.021861076354980 -0.026554167270660 0.000000000000000
5.918922901153564 -3.215943574905396 0.112437017261982 0.000000000000000
6.568276882171631 -3.235992908477783 0.879799067974091 0.000000000000000
15.586704254150391 -8.252544403076172 4.682829856872559 0.003921568859369
14.557912826538086 -7.767163276672363 4.378760337829590 0.003921568859369
23.580804824829102 -15.995360374450684 -0.339227497577667 0.003921568859369
10.398562431335449 -5.661138534545898 3.131463050842285 0.000000000000000
10.355113983154297 -5.683693885803223 3.124221086502075 0.000000000000000
10.284683227539062 -5.690876483917236 3.108705759048462 0.000000000000000
8.101296424865723 -5.067641258239746 0.765579581260681 0.000000000000000
16.409952163696289 -10.366061210632324 3.508425235748291 0.003921568859369
22.739076614379883 -16.118396759033203 0.314176976680756 0.003921568859369
5.686061859130859 -3.553332328796387 0.533652782440186 0.000000000000000
2.816718339920044 -1.737192273139954 -0.094610698521137 0.000000000000000
11.763036727905273 -6.790365695953369 0.308059930801392 0.000000000000000
11.943109512329102 -6.895725250244141 0.790409505367279 0.000000000000000
13.665855407714844 -7.903619766235352 4.188430786132812 0.003921568859369
9.491726875305176 -5.543001651763916 -0.004353228956461 0.003921568859369
3.670890331268311 -2.323956012725830 0.168971240520477 0.000000000000000
8.340435981750488 -4.859085559844971 1.164020538330078 0.000000000000000
18.311319351196289 -11.041524887084961 -0.007297091186047 0.003921568859369
7.661601543426514 -4.562703132629395 1.074039816856384 0.000000000000000
23.463771820068359 -16.023855209350586 -0.173712655901909 0.003921568859369
4.836112499237061 -2.888626575469971 0.125008031725883 0.000000000000000
8.174452781677246 -5.510023117065430 0.392100632190704 0.000000000000000
22.625408172607422 -15.913904190063477 2.238136768341064 0.003921568859369
1.797703981399536 -1.042843103408813 0.517867505550385 0.000000000000000
14.156882286071777 -9.988162994384766 3.128449440002441 0.003921568859369
21.778972625732422 -15.870988845825195 4.878836631774902 0.003921568859369
6.173326492309570 -4.035394668579102 0.884695708751678 0.000000000000000
21.732011795043945 -16.075180053710938 2.186185359954834 0.003921568859369
20.861572265625000 -15.646591186523438 4.720523834228516 0.003921568859369
10.221110343933105 -6.907125949859619 -0.004962430335581 0.000000000000000
23.208398818969727 -15.955870628356934 0.642452836036682 0.003921568859369
3.801316022872925 -2.261268615722656 0.121901281177998 0.000000000000000
20.649892807006836 -15.826309204101562 4.709773063659668 0.003921568859369
23.279708862304688 -16.118850708007812 -0.665356218814850 0.003921568859369
22.877866744995117 -15.962707519531250 1.606910228729248 0.003921568859369
20.523900985717773 -15.945446968078613 2.100855350494385 0.003921568859369
22.546543121337891 -16.065248489379883 0.630948007106781 0.003921568859369
20.821228027343750 -16.768152236938477 2.161476135253906 0.003921568859369
5.973351955413818 -3.922467470169067 -0.125721737742424 0.000000000000000
21.017812728881836 -15.868027687072754 7.008626461029053 0.003921568859369
20.730850219726562 -15.763057708740234 3.170879364013672 0.003921568859369
20.661546707153320 -15.823673248291016 3.167601823806763 0.003921568859369
15.581735610961914 -13.148297309875488 3.683426856994629 0.003921568859369
22.850765228271484 -16.039621353149414 0.151041448116302 0.003921568859369
20.537750244140625 -15.950440406799316 3.165166616439819 0.003921568859369
18.435317993164062 -16.246631622314453 4.445466041564941 0.003921568859369
19.972480773925781 -16.066970825195312 3.119940042495728 0.003921568859369
18.328683853149414 -16.265581130981445 4.433290481567383 0.003921568859369
18.222143173217773 -16.283987045288086 4.421114921569824 0.003921568859369
20.870786666870117 -17.043340682983398 1.550825119018555 0.003921568859369
17.994878768920898 -16.311639785766602 4.393898487091064 0.003921568859369
17.882825851440430 -16.317256927490234 4.379574775695801 0.003921568859369
17.801500320434570 -16.349458694458008 4.371356010437012 0.003921568859369
17.686832427978516 -16.357076644897461 4.357032775878906 0.003921568859369
6.576070308685303 -5.723533630371094 2.292898178100586 0.000000000000000
2.756966829299927 -2.711384534835815 -0.307160168886185 0.000000000000000
17.357711791992188 -16.840688705444336 6.431594848632812 0.003921568859369
15.982487678527832 -17.082826614379883 4.230676651000977 0.003921568859369
17.290586471557617 -16.892326354980469 6.428494453430176 0.003921568859369
11.306237220764160 -13.239975929260254 3.140964269638062 0.003921568859369
7.175142765045166 -8.368432044982910 1.978853106498718 0.000000000000000
17.668470382690430 -21.139104843139648 4.986175060272217 0.003921568859369
7.841536998748779 -8.662398338317871 3.086433172225952 0.000000000000000
3.161392927169800 -4.112386703491211 0.084603153169155 0.000000000000000
5.947787284851074 -8.814796447753906 1.909828424453735 0.000000000000000
3.152304649353027 -4.669911384582520 0.999725937843323 0.000000000000000
6.946797847747803 -9.805723190307617 3.176891326904297 0.000000000000000
3.781059265136719 -6.829428672790527 -0.273551374673843 0.000000000000000
6.814496517181396 -11.387973785400391 -0.083621844649315 0.000000000000000
4.761601924896240 -7.068887710571289 1.024713635444641 0.000000000000000
4.712890148162842 -7.872444152832031 0.363259702920914 0.000000000000000
7.272308826446533 -14.414089202880859 -0.942178964614868 0.003921568859369
7.180243492126465 -14.352252006530762 -0.936552047729492 0.000000000000000
7.118806838989258 -14.346372604370117 -0.934671700000763 0.000000000000000
3.352786540985107 -5.797994613647461 0.110302761197090 0.000000000000000
7.053266525268555 -14.337823867797852 -0.932556688785553 0.000000000000000
4.144176959991455 -7.273390769958496 0.331038951873779 0.000000000000000
7.199719905853271 -11.654067039489746 0.308111041784286 0.000000000000000
3.383120775222778 -5.890023708343506 0.111738584935665 0.000000000000000
7.013999462127686 -14.368708610534668 -0.933260858058929 0.000000000000000
6.976477146148682 -14.425974845886230 -0.935359895229340 0.000000000000000
6.574193477630615 -10.693724632263184 1.518182635307312 0.000000000000000
6.923575878143311 -14.437326431274414 -0.934649586677551 0.000000000000000
8.583532333374023 -15.933708190917969 3.268807411193848 0.003921568859369
6.871476650238037 -14.456902503967285 -0.934407114982605 0.000000000000000
8.978971481323242 -16.832609176635742 3.447065591812134 0.003921568859369
6.825043201446533 -14.495619773864746 -0.935335040092468 0.000000000000000
10.468867301940918 -17.700290679931641 1.179773926734924 0.003921568859369
6.820232391357422 -14.620466232299805 -0.941883146762848 0.003921568859369
5.188180446624756 -8.760530471801758 -0.006125230342150 0.003921568859369
5.636685848236084 -12.330174446105957 -0.163989186286926 0.000000000000000
3.564882516860962 -6.074898242950439 -0.004815331660211 0.000000000000000
6.127305030822754 -12.147371292114258 0.228097379207611 0.000000000000000
3.993047714233398 -6.859377384185791 0.954171597957611 0.000000000000000
4.718940258026123 -8.600041389465332 -0.006103004328907 0.003921568859369
4.437543392181396 -9.214592933654785 1.838421344757080 0.000000000000000
8.268792152404785 -15.723659515380859 1.018223524093628 0.000000000000000
3.961221456527710 -8.311174392700195 0.153040379285812 0.000000000000000
6.194281101226807 -11.743036270141602 0.758724510669708 0.000000000000000
5.962493896484375 -13.052505493164062 0.572436809539795 0.000000000000000
4.677955627441406 -8.021080970764160 -0.165866568684578 0.000000000000000
4.002976894378662 -8.712815284729004 1.722317814826965 0.000000000000000
5.647151947021484 -11.229134559631348 -0.007417825981975 0.000000000000000
3.575324058532715 -7.871935367584229 -0.702803671360016 0.000000000000000
4.008528709411621 -8.901413917541504 0.782115638256073 0.000000000000000
4.051258087158203 -7.970785617828369 -0.005856351926923 0.003921568859369
2.996289253234863 -7.582866191864014 -0.099221952259541 0.000000000000000
4.525874614715576 -10.328396797180176 -0.592304289340973 0.000000000000000
4.411261558532715 -7.857889652252197 0.252622097730637 0.000000000000000
3.401113033294678 -5.996725559234619 -0.123129159212112 0.000000000000000
2.326160669326782 -4.459014415740967 -0.004171812906861 0.000000000000000
1.838869690895081 -3.404928445816040 -0.265960276126862 0.000000000000000
3.886828184127808 -10.513275146484375 0.122823335230350 0.000000000000000
3.651456356048584 -8.463260650634766 -0.483610779047012 0.000000000000000
5.031939983367920 -9.193161964416504 -0.428454190492630 0.000000000000000
2.087690830230713 -3.542283773422241 -0.073329977691174 0.000000000000000
3.601304292678833 -7.345251083374023 -0.381296187639236 0.000000000000000
2.619806051254272 -5.999993324279785 -0.192339137196541 0.000000000000000
3.725575685501099 -8.817389488220215 -0.061076596379280 0.000000000000000
2.104748249053955 -4.088208675384521 -0.108293354511261 0.000000000000000
2.605412960052490 -4.629562377929688 -0.094859004020691 0.000000000000000
7.211174964904785 -13.740373611450195 -0.995464801788330 0.000000000000000
7.163170337677002 -13.764536857604980 -0.995457351207733 0.000000000000000
1.183851122856140 -2.084526300430298 -0.248159661889076 0.000000000000000
7.104737758636475 -13.752756118774414 -0.993112862110138 0.000000000000000
3.682089328765869 -6.920762538909912 -0.140207946300507 0.000000000000000
3.991287231445312 -7.548474311828613 -0.545144855976105 0.000000000000000
2.078814506530762 -4.168776988983154 -0.215730398893356 0.000000000000000
6.331716060638428 -13.982258796691895 1.862180113792419 0.000000000000000
3.456424713134766 -7.422220230102539 -0.005638426635414 0.003921568859369
6.989302158355713 -13.760660171508789 -0.990263819694519 0.000000000000000
3.061069011688232 -8.888477325439453 -0.114445731043816 0.000000000000000
6.925579547882080 -13.751686096191406 -0.987937510013580 0.000000000000000
4.919310092926025 -12.616882324218750 0.539913594722748 0.000000000000000
4.196433067321777 -10.770104408264160 0.193080812692642 0.000000000000000
6.879263401031494 -13.778423309326172 -0.988187134265900 0.000000000000000
3.647431373596191 -7.101922035217285 -0.142839878797531 0.000000000000000
6.827701091766357 -13.794193267822266 -0.987663924694061 0.000000000000000
3.276204109191895 -8.334404945373535 0.717284440994263 0.000000000000000
6.778518676757812 -13.808632850646973 -0.987141072750092 0.000000000000000
4.384689331054688 -8.727899551391602 -0.399445056915283 0.000000000000000
6.721112251281738 -13.817919731140137 -0.986102044582367 0.000000000000000
2.982517242431641 -7.686868667602539 1.480319976806641 0.000000000000000
6.560528755187988 -21.339553833007812 -0.270271837711334 0.003921568859369
6.679538249969482 -13.854839324951172 -0.987124145030975 0.000000000000000
2.173509597778320 -4.701069831848145 -0.122305445373058 0.000000000000000
6.638549804687500 -13.886897087097168 -0.987888932228088 0.000000000000000
7.025821685791016 -16.859733581542969 1.047723174095154 0.000000000000000
3.913686275482178 -10.557270050048828 0.904777109622955 0.000000000000000
6.583434581756592 -13.894497871398926 -0.986850202083588 0.000000000000000
3.091296672821045 -7.109102249145508 0.439929753541946 0.000000000000000
6.526705741882324 -13.898241043090820 -0.985553741455078 0.000000000000000
2.371764183044434 -5.382603645324707 0.129640534520149 0.000000000000000
6.504251003265381 -13.955335617065430 -0.988357245922089 0.000000000000000
1.896598339080811 -4.849082946777344 0.412850707769394 0.000000000000000
5.306781291961670 -15.075591087341309 2.888142824172974 0.003921568859369
5.304632663726807 -18.194023132324219 0.209646925330162 0.003921568859369
6.574300289154053 -14.245246887207031 0.444068729877472 0.000000000000000
6.471633434295654 -14.013489723205566 -0.990924656391144 0.000000000000000
2.200369358062744 -5.900961875915527 -0.185441732406616 0.000000000000000
6.431428909301758 -14.061690330505371 -0.992718577384949 0.000000000000000
2.711136341094971 -6.390477180480957 0.834250688552856 0.000000000000000
5.094235420227051 -17.685302734375000 -0.649902760982513 0.003921568859369
5.052820205688477 -17.777404785156250 -0.224152743816376 0.003921568859369
5.174313068389893 -18.229513168334961 0.209678217768669 0.003921568859369
2.763255119323730 -7.721625804901123 0.135915428400040 0.000000000000000
6.387067317962646 -14.094066619873047 -0.993482351303101 0.000000000000000
4.915341854095459 -17.265729904174805 -0.633924961090088 0.003921568859369
4.863806724548340 -17.314514160156250 -0.218157321214676 0.003921568859369
5.112701416015625 -18.254219055175781 0.209783434867859 0.003921568859369
6.353576660156250 -14.151981353759766 -0.996049284934998 0.000000000000000
4.741486549377441 -16.852863311767578 -0.618230283260345 0.003921568859369
4.684139728546143 -16.873741149902344 -0.212451964616776 0.003921568859369
5.049961566925049 -18.274847030639648 0.209843829274178 0.003921568859369
6.310384273529053 -14.187792778015137 -0.997070491313934 0.000000000000000
4.504272460937500 -16.185369491577148 -0.983313441276550 0.003921568859369
2.999681949615479 -7.380477905273438 0.960072338581085 0.000000000000000
4.557442188262939 -16.388711929321289 -0.600699901580811 0.003921568859369
4.524443626403809 -16.485422134399414 -0.207423105835915 0.003921568859369
5.002304077148438 -18.340921401977539 0.210442453622818 0.003921568859369
4.005532264709473 -14.470733642578125 -0.878607690334320 0.000000000000000
2.858450174331665 -10.015251159667969 -0.367615371942520 0.000000000000000
4.238152503967285 -10.850846290588379 3.087219476699829 0.000000000000000
3.346434593200684 -7.353220939636230 -0.144787609577179 0.000000000000000
4.374395847320557 -16.135715484619141 -0.202876359224319 0.003921568859369
4.926446437835693 -18.310770034790039 0.209919273853302 0.003921568859369
3.953031301498413 -14.475912094116211 -0.878126919269562 0.000000000000000
3.284776210784912 -9.804420471191406 0.830532550811768 0.000000000000000
4.229482173919678 -15.565017700195312 -0.569597125053406 0.003921568859369
4.234608173370361 -15.816210746765137 -0.198715865612030 0.003921568859369
3.844240427017212 -14.470184326171875 -0.876228213310242 0.000000000000000
3.973193883895874 -15.221528053283691 -0.190974891185760 0.003921568859369
3.793709754943848 -14.482539176940918 -0.876215577125549 0.000000000000000
3.931483745574951 -15.050000190734863 -0.549358963966370 0.003921568859369
4.667249202728271 -10.948030471801758 -0.213266149163246 0.000000000000000
3.600357770919800 -14.537966728210449 -0.876853346824646 0.000000000000000
3.814589738845825 -15.477573394775391 -0.563236057758331 0.003921568859369
5.370698928833008 -18.406953811645508 -0.566198825836182 0.000000000000000
4.427829265594482 -18.464588165283203 0.210143610835075 0.003921568859369
3.526874542236328 -14.448139190673828 -0.870750248432159 0.000000000000000
3.564616680145264 -14.616048812866211 -0.531577765941620 0.000000000000000
3.503084897994995 -14.580241203308105 -0.877997756004333 0.000000000000000
3.513578653335571 -14.627400398254395 -0.531564354896545 0.000000000000000
2.459891080856323 -7.974060535430908 1.500907897949219 0.000000000000000
5.177812576293945 -18.202423095703125 -0.119858540594578 0.000000000000000
4.696341037750244 -13.700592041015625 0.326328724622726 0.000000000000000
2.879960298538208 -11.953363418579102 -0.719653367996216 0.000000000000000
4.934587955474854 -17.297935485839844 -0.948612332344055 0.003921568859369
3.462498426437378 -14.638574600219727 -0.531550884246826 0.000000000000000
2.198160171508789 -7.111258029937744 1.336998820304871 0.000000000000000
4.863252639770508 -17.260255813598633 -0.529550254344940 0.000000000000000
3.398762702941895 -14.578363418579102 -0.876566290855408 0.000000000000000
4.764600753784180 -16.888538360595703 -0.925382554531097 0.003921568859369
5.176208496093750 -15.365062713623047 1.970329403877258 0.003921568859369
3.413937330245972 -14.649024009704590 -0.531538069248199 0.000000000000000
4.700765609741211 -16.873052597045898 -0.517256975173950 0.000000000000000
4.818095684051514 -17.321205139160156 -0.113939471542835 0.000000000000000
3.343020200729370 -14.553430557250977 -0.874445497989655 0.000000000000000
4.583232402801514 -16.424104690551758 -0.899198651313782 0.003921568859369
3.646292686462402 -15.997279167175293 -0.579834103584290 0.003921568859369
4.525164127349854 -16.447732925415039 -0.503782212734222 0.000000000000000
3.196019411087036 -7.970669746398926 0.240880265831947 0.000000000000000
3.308202505111694 -14.654486656188965 -0.879818022251129 0.000000000000000
4.439288139343262 -16.114822387695312 -0.881456017494202 0.003921568859369
3.587637901306152 -16.009483337402344 -0.579818427562714 0.003921568859369
4.369312763214111 -16.074901580810547 -0.491961717605591 0.000000000000000
4.499094009399414 -16.585565567016602 -0.108968913555145 0.003921568859369
3.260198354721069 -14.680597305297852 -0.880741059780121 0.000000000000000
3.966157913208008 -14.487683296203613 -0.791960418224335 0.000000000000000
3.530146121978760 -16.013072967529297 -0.579520940780640 0.003921568859369
2.998373508453369 -7.589322566986084 -0.146505132317543 0.000000000000000
4.203321933746338 -15.638445854187012 -0.478253573179245 0.000000000000000
4.366339206695557 -16.289030075073242 -0.106959529221058 0.003921568859369
4.216492176055908 -10.998747825622559 0.332440525293350 0.000000000000000
3.209161758422852 -14.678626060485840 -0.880025267601013 0.000000000000000
3.477808952331543 -16.027660369873047 -0.579647779464722 0.003921568859369
4.227056503295898 -15.969192504882812 -0.104800231754780 0.000000000000000
3.149481058120728 -14.645628929138184 -0.877435266971588 0.000000000000000
3.859805822372437 -14.481366157531738 -0.790247201919556 0.000000000000000
3.424142837524414 -16.050468444824219 -0.580056309700012 0.003921568859369
2.352787494659424 -5.894325733184814 -0.114121161401272 0.000000000000000
3.878325700759888 -18.698825836181641 0.211339190602303 0.003921568859369
3.070126295089722 -14.483452796936035 -0.867332041263580 0.000000000000000
3.956443786621094 -15.080477714538574 -0.822327494621277 0.000000000000000
3.358418703079224 -15.987255096435547 -0.577589213848114 0.003921568859369
3.845957517623901 -14.850967407226562 -0.453292191028595 0.000000000000000
3.696246862411499 -18.090147018432617 0.204265385866165 0.003921568859369
3.800662994384766 -14.661945343017578 -0.798884809017181 0.000000000000000
2.327931880950928 -6.975875854492188 0.886553168296814 0.000000000000000
3.312936782836914 -16.052854537963867 -0.579551458358765 0.003921568859369
1.733790636062622 -6.017131328582764 1.122894287109375 0.000000000000000
2.838771104812622 -7.452782630920410 -0.143335878849030 0.000000000000000
3.999160051345825 -15.733790397644043 -0.103221297264099 0.000000000000000
3.580124378204346 -17.814769744873047 0.201006129384041 0.003921568859369
3.260509490966797 -16.082948684692383 -0.580242097377777 0.003921568859369
3.982215642929077 -15.897950172424316 -0.104181386530399 0.000000000000000
3.475439548492432 -17.573675155639648 0.198149576783180 0.003921568859369
3.602868795394897 -14.261777877807617 0.587835609912872 0.000000000000000
3.323920249938965 -16.737804412841797 -0.603394925594330 0.003921568859369
3.360057592391968 -17.297716140747070 0.194890275597572 0.003921568859369
3.162109851837158 -16.181985855102539 -0.583035588264465 0.003921568859369
4.561069488525391 -19.010990142822266 -0.577690303325653 0.000000000000000
3.259973287582397 -17.079744338989258 0.192303150892258 0.003921568859369
3.780162572860718 -15.531841278076172 -0.843363583087921 0.000000000000000
2.543446540832520 -8.136344909667969 1.030352234840393 0.000000000000000
3.099451065063477 -16.156452178955078 -0.581748187541962 0.003921568859369
3.533657789230347 -14.672528266906738 -0.446020901203156 0.000000000000000
