# This PCD file was generated using the MATLAB® pcwrite function
# from Computer Vision Toolbox®.
# .PCD v.7 - Point Cloud Data file format
VERSION .7
FIELDS x y z intensity
SIZE 8 8 8 8
TYPE F F F F
COUNT 1 1 1 1
WIDTH 645
HEIGHT 1
VIEWPOINT 0 0 0 1 0 0 0
POINTS 645
DATA ascii
-26.952384948730469 3.159332036972046 -0.318782985210419 0.003921568859369
-6.738740444183350 0.458995461463928 -0.181847035884857 0.000000000000000
-26.933254241943359 3.250713586807251 -0.318668425083160 0.003921568859369
-11.953707695007324 0.842852652072906 0.198755875229836 0.000000000000000
-26.926292419433594 3.338880062103271 -0.318699598312378 0.003921568859369
-26.874814987182617 3.425994157791138 -0.318198055028915 0.003921568859369
-16.047798156738281 1.250833630561829 -0.094434872269630 0.000000000000000
-8.187251091003418 0.618250131607056 0.314427495002747 0.000000000000000
-6.534909248352051 0.485259979963303 0.495612263679504 0.000000000000000
-26.885860443115234 3.525848150253296 -0.318468838930130 0.003921568859369
-6.205258369445801 0.199598461389542 -0.132360652089119 0.000000000000000
-26.944713592529297 3.627748727798462 -0.319320261478424 0.003921568859369
-28.901027679443359 2.585582733154297 -0.839861154556274 0.003921568859369
-26.992439270019531 3.724905252456665 -0.320013850927353 0.003921568859369
-8.599734306335449 0.737467706203461 1.485555291175842 0.000000000000000
-27.872364044189453 2.593209028244019 -0.809600532054901 0.003921568859369
-27.057779312133789 3.833467245101929 -0.320960581302643 0.003921568859369
-13.492477416992188 1.231144905090332 -0.078460924327374 0.000000000000000
-26.948852539062500 2.589656352996826 -0.782414853572845 0.003921568859369
-27.140569686889648 3.930945158004761 -0.322102993726730 0.003921568859369
-18.993515014648438 2.729178667068481 0.212998539209366 0.003921568859369
-8.783238410949707 0.403468489646912 0.483484029769897 0.000000000000000
-11.823279380798340 1.108831763267517 0.928395807743073 0.000000000000000
-26.561292648315430 2.648253679275513 -0.771175205707550 0.003921568859369
-27.260438919067383 4.048961162567139 -0.323725312948227 0.003921568859369
-8.955183029174805 0.859632968902588 -0.049977388232946 0.000000000000000
-14.703702926635742 1.443534731864929 0.246462613344193 0.000000000000000
-25.693454742431641 2.644586086273193 -0.745644152164459 0.003921568859369
-19.919933319091797 2.110002279281616 3.559082269668579 0.003921568859369
-27.124666213989258 2.982959270477295 -0.788726449012756 0.003921568859369
-14.511919021606445 0.879121124744415 0.815573036670685 0.000000000000000
-27.006847381591797 3.063549518585205 -0.785519957542419 0.003921568859369
-8.069650650024414 0.501463532447815 0.933393836021423 0.000000000000000
-26.908645629882812 3.145717620849609 -0.782904028892517 0.003921568859369
-26.897502899169922 3.237943410873413 -0.782886624336243 0.003921568859369
-28.846261978149414 3.572406291961670 -0.841217100620270 0.003921568859369
-6.377874374389648 0.450278311967850 1.584615111351013 0.000000000000000
-28.864696502685547 3.680462360382080 -0.842142045497894 0.003921568859369
-10.736799240112305 0.822160720825195 0.597760796546936 0.000000000000000
-28.860099792480469 3.781599283218384 -0.842472732067108 0.003921568859369
-8.182454109191895 1.412167310714722 -0.091283924877644 0.000000000000000
-28.026723861694336 3.768469333648682 -0.818011581897736 0.003921568859369
-5.392803668975830 0.428375124931335 0.001067139673978 0.000000000000000
-27.222166061401367 3.748791694641113 -0.794378697872162 0.003921568859369
-12.686243057250977 1.105993509292603 0.283163398504257 0.000000000000000
-12.602988243103027 1.699069142341614 0.496886879205704 0.000000000000000
-7.259896755218506 0.281062215566635 -0.276440948247910 0.000000000000000
-28.731647491455078 2.560847997665405 -0.669394791126251 0.003921568859369
-7.638719558715820 1.028769254684448 -0.210484072566032 0.000000000000000
-7.484361171722412 1.358871817588806 0.083361037075520 0.000000000000000
-27.822769165039062 2.574721574783325 -0.647953093051910 0.003921568859369
-26.723947525024414 3.870664119720459 -0.780291080474854 0.003921568859369
-26.957475662231445 2.591181755065918 -0.627554297447205 0.003921568859369
-26.383777618408203 2.621794223785400 -0.614078044891357 0.003921568859369
-12.329802513122559 1.240569829940796 1.461449742317200 0.000000000000000
-25.789833068847656 2.650969743728638 -0.600127577781677 0.003921568859369
-27.211652755737305 2.894302606582642 -0.634236574172974 0.003921568859369
-3.341449260711670 0.178333550691605 -0.048162993043661 0.000000000000000
-27.058832168579102 4.295356273651123 -0.791907131671906 0.003921568859369
-27.161638259887695 2.983169317245483 -0.633271992206573 0.003921568859369
-26.022710800170898 4.214879035949707 -0.761312305927277 0.003921568859369
-27.060226440429688 3.061124563217163 -0.631075978279114 0.003921568859369
-25.929733276367188 4.286293506622314 -0.758933901786804 0.003921568859369
-26.982418060302734 3.141265153884888 -0.629448592662811 0.003921568859369
-2.887030363082886 0.175278618931770 -0.096346698701382 0.000000000000000
-28.228404998779297 3.397082090377808 -0.659475326538086 0.003921568859369
-2.934797286987305 0.187555268406868 -0.098684713244438 0.000000000000000
-28.923604965209961 3.674808979034424 -0.676662027835846 0.003921568859369
-8.914496421813965 1.975557208061218 -0.303255796432495 0.000000000000000
-13.901034355163574 2.456713438034058 2.487155675888062 0.000000000000000
-28.933725357055664 3.782241582870483 -0.677211403846741 0.003921568859369
-28.207160949707031 3.784256219863892 -0.660138785839081 0.003921568859369
-11.407239913940430 0.988831818103790 0.062278740108013 0.000000000000000
-27.088867187500000 3.726363897323608 -0.633687257766724 0.003921568859369
-15.674791336059570 2.946663618087769 0.267160952091217 0.000000000000000
-27.012363433837891 3.810173511505127 -0.632153928279877 0.003921568859369
-6.301833152770996 1.450340747833252 -0.069218620657921 0.000000000000000
-26.801082611083984 3.873695850372314 -0.627399444580078 0.003921568859369
-27.006277084350586 3.989114284515381 -0.632594168186188 0.003921568859369
-7.515640258789062 1.111327171325684 0.876182675361633 0.000000000000000
-26.924968719482422 4.175430774688721 -0.631325125694275 0.003921568859369
-18.739027023315430 2.032362937927246 0.102158293128014 0.000000000000000
-13.403501510620117 2.082433700561523 0.760706543922424 0.000000000000000
-26.027366638183594 4.116079330444336 -0.610089719295502 0.003921568859369
-8.971970558166504 1.829868793487549 0.151464089751244 0.000000000000000
-3.889982700347900 0.912764787673950 -0.121911332011223 0.000000000000000
-5.392377376556396 0.809866130352020 -0.115037739276886 0.000000000000000
-9.546208381652832 1.563302278518677 1.131261944770813 0.000000000000000
-7.291087150573730 1.646413445472717 0.286590307950974 0.000000000000000
-6.966835975646973 1.235315680503845 0.813541412353516 0.000000000000000
-4.415755271911621 0.564782977104187 -0.068274691700935 0.000000000000000
-12.417989730834961 1.709321141242981 0.349629640579224 0.000000000000000
-12.929356575012207 1.827007651329041 -0.222080245614052 0.000000000000000
-3.617675304412842 0.632756054401398 0.001822735415772 0.000000000000000
-10.656341552734375 2.082417011260986 1.276594281196594 0.000000000000000
-3.255006790161133 0.747189342975616 -0.014897934161127 0.000000000000000
-3.202186584472656 0.743374943733215 -0.014573385007679 0.000000000000000
-4.720837593078613 0.933411777019501 0.255762666463852 0.000000000000000
-4.783803939819336 0.773601830005646 -0.075490057468414 0.000000000000000
-3.410521984100342 0.843699038028717 0.055584397166967 0.000000000000000
-19.138809204101562 4.360891342163086 1.112960696220398 0.000000000000000
-8.563350677490234 2.782337903976440 -0.800529837608337 0.000000000000000
-13.659471511840820 3.130584478378296 0.313568264245987 0.000000000000000
-3.369138240814209 0.842898428440094 0.054904047399759 0.000000000000000
-23.366275787353516 5.431790351867676 2.885059118270874 0.003921568859369
-8.505163192749023 2.792250394821167 -0.795670568943024 0.000000000000000
-8.494871139526367 2.821744918823242 -0.795662701129913 0.000000000000000
-8.458697319030762 2.840474605560303 -0.793042480945587 0.000000000000000
-6.438220500946045 1.506847023963928 0.000672492664307 0.000000000000000
-8.388754844665527 2.846879720687866 -0.787063121795654 0.000000000000000
-8.330655097961426 2.858253002166748 -0.782961189746857 0.000000000000000
-8.267777442932129 2.867933750152588 -0.777728438377380 0.000000000000000
-8.232079505920410 2.884171724319458 -0.775109112262726 0.000000000000000
-8.207043647766113 2.905747890472412 -0.773608982563019 0.000000000000000
-6.338460922241211 1.882801532745361 1.128607749938965 0.000000000000000
-12.913373947143555 2.724353075027466 -0.224723070859909 0.000000000000000
-8.115662574768066 2.540127992630005 -0.046904865652323 0.000000000000000
-8.157608032226562 2.979688644409180 -0.771720886230469 0.000000000000000
-8.124897956848145 2.997898817062378 -0.769474267959595 0.000000000000000
-14.151154518127441 3.908347606658936 -0.002353336196393 0.000000000000000
-8.100090980529785 3.017504215240479 -0.767974317073822 0.000000000000000
-8.078940391540527 3.038452148437500 -0.766847789287567 0.000000000000000
-5.963162422180176 1.304323077201843 0.165832221508026 0.000000000000000
-8.108391761779785 3.082762956619263 -0.770944833755493 0.000000000000000
-8.175173759460449 2.262205362319946 0.187406897544861 0.000000000000000
-8.071754455566406 3.098995208740234 -0.768325030803680 0.000000000000000
-7.832231521606445 2.619114160537720 -0.998360872268677 0.000000000000000
-8.031909942626953 3.115202903747559 -0.766092598438263 0.000000000000000
-8.647451400756836 2.907296895980835 1.587631940841675 0.000000000000000
-11.170060157775879 3.220864772796631 -0.261894732713699 0.000000000000000
-7.748335361480713 2.618145465850830 -0.988224446773529 0.000000000000000
-9.063982009887695 2.621638298034668 -0.971502244472504 0.000000000000000
-7.998911857604980 3.132544994354248 -0.763846278190613 0.000000000000000
-7.701384067535400 2.631400108337402 -0.983152687549591 0.000000000000000
-8.031458854675293 3.178693056106567 -0.768316268920898 0.000000000000000
-7.640453338623047 2.636371612548828 -0.976055681705475 0.000000000000000
-8.009868621826172 3.199205875396729 -0.767189741134644 0.000000000000000
-7.549340248107910 2.631196022033691 -0.964906573295593 0.000000000000000
-7.984000205993652 3.219363927841187 -0.765689611434937 0.000000000000000
-3.671609401702881 1.019114375114441 0.199174538254738 0.000000000000000
-7.502485752105713 2.643333435058594 -0.959834933280945 0.000000000000000
-7.994089603424072 3.256459712982178 -0.767920434474945 0.000000000000000
-7.379083633422852 2.622030973434448 -0.944128453731537 0.000000000000000
-7.965559959411621 3.272239446640015 -0.766047954559326 0.000000000000000
-7.354137420654297 2.642995834350586 -0.942095398902893 0.000000000000000
-7.978458404541016 3.312333822250366 -0.768651485443115 0.000000000000000
-2.627167224884033 0.606943249702454 -0.037525478750467 0.000000000000000
-7.337463378906250 2.664262294769287 -0.941075980663300 0.000000000000000
-7.966847419738770 3.338634729385376 -0.768643796443939 0.000000000000000
-7.342903614044189 2.694100856781006 -0.943095386028290 0.000000000000000
-8.376017570495605 2.658306837081909 -0.901811838150024 0.000000000000000
-7.944240093231201 3.360012531280518 -0.767516672611237 0.000000000000000
-8.291357994079590 2.660470962524414 -0.893208503723145 0.000000000000000
-7.961495876312256 3.399315595626831 -0.770493924617767 0.000000000000000
-8.200186729431152 2.656788825988770 -0.883746325969696 0.000000000000000
-7.947152137756348 3.421283006668091 -0.770113766193390 0.000000000000000
-10.677662849426270 2.995444297790527 0.061069134622812 0.000000000000000
-8.145856857299805 2.670858383178711 -0.879452586174011 0.000000000000000
-7.934970855712891 3.450808048248291 -0.770868122577667 0.000000000000000
-8.019203186035156 2.659672975540161 -0.866121530532837 0.000000000000000
-7.932497024536133 3.484631776809692 -0.771978974342346 0.000000000000000
-10.393183708190918 2.953937053680420 -0.424221962690353 0.000000000000000
-10.643585205078125 4.191801548004150 -0.065004654228687 0.000000000000000
-7.987380027770996 2.678173065185547 -0.863536238670349 0.000000000000000
-7.945526123046875 3.522631883621216 -0.774582803249359 0.000000000000000
-15.357359886169434 6.126155853271484 2.939070701599121 0.003921568859369
-7.926509857177734 2.683131217956543 -0.857513248920441 0.000000000000000
-7.934419631958008 3.546223640441895 -0.774575829505920 0.000000000000000
-4.609301567077637 1.512492179870605 0.001362763694488 0.000000000000000
-7.864273071289062 2.691627264022827 -0.851489305496216 0.000000000000000
-7.924962043762207 3.575419664382935 -0.774940669536591 0.000000000000000
-7.799285888671875 2.695760965347290 -0.845036387443542 0.000000000000000
-7.923829078674316 3.605432748794556 -0.776052415370941 0.000000000000000
-9.098211288452148 3.170937538146973 -0.215076640248299 0.000000000000000
-9.531616210937500 3.367359399795532 -0.000469198450446 0.003921568859369
-7.684926033020020 2.684097766876221 -0.832995653152466 0.000000000000000
-7.946381568908691 3.650274991989136 -0.779774844646454 0.000000000000000
-10.711022377014160 3.242305755615234 0.312745302915573 0.000000000000000
-7.642928123474121 2.694344282150269 -0.829121887683868 0.000000000000000
-7.970643043518066 3.691383123397827 -0.783498287200928 0.000000000000000
-4.934545516967773 2.224959850311279 -0.057182073593140 0.000000000000000
-7.592080116271973 2.705298423767090 -0.824387550354004 0.000000000000000
-7.985621452331543 3.733112812042236 -0.786474406719208 0.000000000000000
-8.627066612243652 3.562431097030640 1.629309773445129 0.000000000000000
-7.590020179748535 2.733118057250977 -0.825240612030029 0.000000000000000
-7.976104736328125 3.761239290237427 -0.786839306354523 0.000000000000000
-7.584144592285156 2.759522676467896 -0.825663864612579 0.000000000000000
-7.959370613098145 3.785764217376709 -0.786458134651184 0.000000000000000
-7.570759773254395 2.783033609390259 -0.825227558612823 0.000000000000000
-4.211493968963623 1.472967505455017 0.499724209308624 0.000000000000000
-7.535570621490479 2.799416780471802 -0.823088467121124 0.000000000000000
-11.435788154602051 4.968409061431885 2.201560974121094 0.000000000000000
-7.529447555541992 2.825698375701904 -0.823511779308319 0.000000000000000
-18.180040359497070 8.086458206176758 3.553736209869385 0.003921568859369
-10.103022575378418 3.849168777465820 -0.243062585592270 0.000000000000000
-7.519040584564209 2.851723670959473 -0.823504984378815 0.000000000000000
-7.488210201263428 3.278731822967529 -0.991117775440216 0.000000000000000
-7.501671314239502 2.873482942581177 -0.822639048099518 0.000000000000000
-7.409022331237793 3.270172834396362 -0.981490254402161 0.000000000000000
-7.510499000549316 2.904483079910278 -0.824781477451324 0.000000000000000
-7.318638324737549 3.257243633270264 -0.970343351364136 0.000000000000000
-7.503989696502686 2.930724382400513 -0.825204610824585 0.000000000000000
-7.310803413391113 3.283003091812134 -0.970842719078064 0.000000000000000
-7.482706546783447 2.950823307037354 -0.823908925056458 0.000000000000000
-2.585523843765259 0.903071880340576 0.056616801768541 0.000000000000000
-7.780473232269287 3.506204366683960 1.486136674880981 0.000000000000000
-7.302875518798828 3.308745861053467 -0.971342027187347 0.000000000000000
-7.483350276947021 2.980088233947754 -0.825191378593445 0.000000000000000
-7.302571296691895 3.336738109588623 -0.972854316234589 0.000000000000000
-7.488060951232910 3.009721279144287 -0.826903939247131 0.000000000000000
-7.372847557067871 3.400853157043457 -0.984493076801300 0.000000000000000
-7.462897777557373 3.028074502944946 -0.825178384780884 0.000000000000000
-7.407180786132812 3.447931289672852 -0.991068243980408 0.000000000000000
-7.455929756164551 3.054214477539062 -0.825601339340210 0.000000000000000
-7.394493579864502 3.473506212234497 -0.991060554981232 0.000000000000000
-7.444684505462646 3.079970359802246 -0.825594246387482 0.000000000000000
-7.434275150299072 3.106463432312012 -0.826465070247650 0.000000000000000
-7.434278011322021 3.135813713073730 -0.827747523784637 0.000000000000000
-7.430536746978760 3.163564682006836 -0.828600108623505 0.000000000000000
-13.582657814025879 5.937450408935547 3.868009805679321 0.000000000000000
-7.437546730041504 3.196270227432251 -0.830741763114929 0.000000000000000
-7.404662609100342 3.210798025131226 -0.828157007694244 0.000000000000000
-7.418663501739502 3.246887207031250 -0.831157863140106 0.000000000000000
-7.414487361907959 3.274685621261597 -0.832010269165039 0.000000000000000
-7.413799285888672 3.304189443588257 -0.833292424678802 0.000000000000000
-7.616719245910645 2.978733301162720 0.227029353380203 0.000000000000000
-1.242764472961426 0.344300806522369 -0.013112072832882 0.003921568859369
-7.403382778167725 3.326156854629517 -0.833286166191101 0.000000000000000
-1.178849220275879 0.320905297994614 -0.011902102269232 0.003921568859369
-7.394725799560547 3.353470325469971 -0.833708524703979 0.000000000000000
-7.386552810668945 3.379546165466309 -0.834131181240082 0.000000000000000
-4.582098484039307 1.773578047752380 -0.183153003454208 0.000000000000000
-7.393167495727539 3.411380529403687 -0.836272776126862 0.000000000000000
-7.377353191375732 3.437480211257935 -0.836715102195740 0.000000000000000
-7.972313880920410 4.202000617980957 0.352717190980911 0.000000000000000
-9.023520469665527 4.785986900329590 0.804365873336792 0.000000000000000
-7.390231132507324 3.474190473556519 -0.839715540409088 0.000000000000000
-9.644881248474121 4.045788288116455 0.292989015579224 0.000000000000000
-10.057617187500000 4.801338672637939 0.627099633216858 0.000000000000000
-11.090207099914551 5.983218193054199 0.998615205287933 0.000000000000000
-7.385166168212891 3.502110004425049 -0.840567767620087 0.000000000000000
-7.228569507598877 3.883166313171387 -0.998580276966095 0.000000000000000
-7.390635490417480 3.535426855087280 -0.842708885669708 0.000000000000000
-7.208088874816895 3.902998924255371 -0.997560203075409 0.000000000000000
-7.392415523529053 3.567015647888184 -0.844420254230499 0.000000000000000
-11.569162368774414 6.405591487884521 2.345129728317261 0.000000000000000
-7.200603961944580 3.931870937347412 -0.998564898967743 0.000000000000000
-7.389897346496582 3.598054885864258 -0.845701694488525 0.000000000000000
-13.415394783020020 7.528880119323730 2.738403558731079 0.000000000000000
-7.409683704376221 3.637692689895630 -0.849561274051666 0.000000000000000
-7.387011528015137 3.655353307723999 -0.848265647888184 0.000000000000000
-7.402336120605469 3.694554805755615 -0.851695239543915 0.000000000000000
-7.410451889038086 3.730169057846069 -0.854265511035919 0.000000000000000
-7.421908378601074 3.767764091491699 -0.857265293598175 0.000000000000000
-8.234069824218750 4.709881782531738 1.665396332740784 0.000000000000000
-7.419200897216797 3.797907114028931 -0.858546674251556 0.000000000000000
-7.422913551330566 3.835711240768433 -0.861567556858063 0.000000000000000
-7.433861255645752 3.873630285263062 -0.864567160606384 0.000000000000000
-14.854349136352539 9.118228912353516 0.296244800090790 0.003921568859369
-5.649473190307617 2.724204063415527 0.173035174608231 0.000000000000000
-13.597470283508301 8.580974578857422 2.868286848068237 0.003921568859369
-2.323031902313232 1.312154173851013 0.427508294582367 0.000000000000000
-2.367121934890747 1.352260351181030 0.438257068395615 0.000000000000000
-11.376480102539062 6.925897121429443 0.301226913928986 0.000000000000000
-12.000668525695801 8.258973121643066 2.596220016479492 0.000000000000000
-7.632516384124756 5.186736583709717 1.624004006385803 0.000000000000000
-6.222778320312500 3.880679130554199 1.878741502761841 0.000000000000000
-7.915074825286865 5.761253356933594 0.774207293987274 0.000000000000000
-17.445154190063477 13.150334358215332 -0.127882957458496 0.003921568859369
-10.537996292114258 7.825315952301025 0.223195195198059 0.000000000000000
-16.294424057006836 11.149597167968750 2.382804393768311 0.003921568859369
-13.503501892089844 8.394156455993652 0.451629459857941 0.000000000000000
-19.722988128662109 15.224669456481934 4.483713626861572 0.003921568859369
-13.659187316894531 9.583460807800293 2.009270668029785 0.003921568859369
-5.240510463714600 3.967155456542969 -0.327796906232834 0.000000000000000
-3.823721885681152 2.559419393539429 0.001495276344940 0.000000000000000
-10.190275192260742 7.503170967102051 -0.000462075695395 0.000000000000000
-13.723836898803711 10.283094406127930 0.979608535766602 0.000000000000000
-7.247398376464844 5.932150363922119 -0.263646930456161 0.000000000000000
-4.948424816131592 4.353803157806396 -0.219208106398582 0.000000000000000
-10.292634010314941 7.811885356903076 -0.000498722074553 0.000000000000000
-11.199279785156250 9.550756454467773 2.631714582443237 0.000000000000000
-7.957357406616211 7.427906990051270 -0.370461970567703 0.000000000000000
-15.024560928344727 10.727209091186523 0.526526629924774 0.003921568859369
-9.184952735900879 7.292841434478760 -0.000138277187943 0.003921568859369
-10.414345741271973 10.115878105163574 -0.166338190436363 0.000000000000000
-6.470828533172607 5.570310115814209 0.675062537193298 0.000000000000000
-8.495030403137207 6.866392612457275 0.247598931193352 0.000000000000000
-8.381238937377930 6.125173091888428 0.293533831834793 0.000000000000000
-9.182950973510742 7.447487354278564 1.416482567787170 0.000000000000000
-8.964437484741211 8.129377365112305 -0.344465702772141 0.000000000000000
-2.685457706451416 1.799318790435791 -0.117919094860554 0.000000000000000
-2.713488101959229 1.834881663322449 -0.119717761874199 0.000000000000000
-6.525012969970703 5.907030105590820 0.697484016418457 0.000000000000000
-4.459800243377686 3.584523916244507 0.669584631919861 0.000000000000000
-6.381031990051270 5.809415340423584 0.683533549308777 0.000000000000000
-12.820157051086426 11.134367942810059 4.475341796875000 0.003921568859369
-6.070409297943115 5.783597469329834 0.331861883401871 0.000000000000000
-2.549241781234741 2.229957103729248 -0.089042738080025 0.000000000000000
-2.117507457733154 2.038600683212280 -0.092165529727936 0.000000000000000
-7.069873809814453 7.193289279937744 -0.285837292671204 0.000000000000000
-7.225458621978760 7.515813350677490 0.831715404987335 0.000000000000000
-5.393424987792969 5.549825191497803 0.612868726253510 0.000000000000000
-5.885778427124023 5.563176155090332 0.000839028740302 0.000000000000000
-7.658804893493652 7.405831813812256 1.277980327606201 0.000000000000000
-5.671254158020020 5.989522457122803 -0.419050037860870 0.000000000000000
-11.101828575134277 12.181279182434082 2.961864233016968 0.003921568859369
-8.705998420715332 8.701198577880859 0.280760854482651 0.000000000000000
-8.114292144775391 8.919124603271484 0.206660494208336 0.000000000000000
-7.280490398406982 6.592877864837646 -0.166600570082664 0.000000000000000
-14.862073898315430 15.220625877380371 5.633317470550537 0.003921568859369
-5.956193923950195 5.919926643371582 0.475673139095306 0.000000000000000
-5.473113536834717 5.968265533447266 1.435192823410034 0.000000000000000
-5.716467857360840 5.748432636260986 0.966557681560516 0.000000000000000
-7.661820411682129 7.943070411682129 0.251573234796524 0.000000000000000
-6.069509983062744 6.857501506805420 0.156692951917648 0.000000000000000
-7.949059963226318 8.254932403564453 0.653734564781189 0.000000000000000
-5.042001247406006 5.172837734222412 1.873872756958008 0.000000000000000
-6.145929336547852 7.051763057708740 1.666051387786865 0.000000000000000
-6.600463390350342 7.659361839294434 -0.287208527326584 0.000000000000000
-10.807618141174316 12.806879997253418 3.015089750289917 0.003921568859369
-8.510482788085938 10.074473381042480 2.364961385726929 0.000000000000000
-5.938489437103271 6.951681613922119 1.628089547157288 0.000000000000000
-3.555107355117798 3.640122413635254 0.001473662327044 0.000000000000000
-7.577895641326904 9.053483963012695 0.472624301910400 0.000000000000000
-7.247821807861328 7.878787517547607 1.286918163299561 0.000000000000000
-6.546390533447266 7.126441478729248 0.220542952418327 0.000000000000000
-11.712966918945312 14.426506042480469 3.348501443862915 0.003921568859369
-6.689087867736816 8.114291191101074 0.180496662855148 0.000000000000000
-4.171173572540283 4.458920001983643 0.343634277582169 0.000000000000000
-5.273725986480713 6.440540313720703 -0.235047951340675 0.000000000000000
-5.396549224853516 7.367537975311279 -0.102963313460350 0.000000000000000
-5.310726165771484 6.592834472656250 0.675394773483276 0.000000000000000
-5.674547672271729 7.126040458679199 1.624600052833557 0.000000000000000
-5.540299415588379 6.322756290435791 1.006619334220886 0.000000000000000
-13.674077987670898 14.991403579711914 0.582716286182404 0.003921568859369
-5.132235527038574 6.587305068969727 1.486997604370117 0.000000000000000
-2.452695608139038 2.930513143539429 0.661164939403534 0.000000000000000
-5.282354831695557 6.230091571807861 0.977940082550049 0.000000000000000
-5.630070686340332 7.434258937835693 -0.264669328927994 0.000000000000000
-7.627355575561523 10.318044662475586 -0.072966113686562 0.000000000000000
-2.521883487701416 2.546034097671509 -0.135016441345215 0.000000000000000
-5.832679748535156 7.832806110382080 1.745839834213257 0.000000000000000
-9.011173248291016 12.459650039672852 -0.088121689856052 0.000000000000000
-6.023778915405273 8.169342994689941 0.406501233577728 0.000000000000000
-2.551429271697998 2.599654436111450 -0.137465849518776 0.000000000000000
-6.585934162139893 9.054603576660156 -0.063224658370018 0.000000000000000
-6.313832759857178 8.661200523376465 -0.551007807254791 0.000000000000000
-6.929072856903076 8.618377685546875 -0.252025127410889 0.000000000000000
-4.871524810791016 5.973167419433594 -0.173501163721085 0.000000000000000
-5.038727760314941 6.968091011047363 0.687874138355255 0.000000000000000
-4.590063095092773 6.304080486297607 1.388869643211365 0.000000000000000
-8.441985130310059 12.184379577636719 0.596745312213898 0.000000000000000
-3.659941196441650 5.621175289154053 -0.074538469314575 0.000000000000000
-7.186400413513184 9.350117683410645 0.270419239997864 0.000000000000000
-4.891385078430176 6.359132766723633 2.098643064498901 0.000000000000000
-5.001896858215332 5.969660282135010 -0.131244763731956 0.000000000000000
-2.536409378051758 3.124136447906494 0.090837948024273 0.000000000000000
-3.758857011795044 5.445581912994385 -0.185955941677094 0.000000000000000
-2.541656732559204 3.164165258407593 0.091768011450768 0.000000000000000
-6.981674194335938 9.558971405029297 0.000646749511361 0.003921568859369
-5.126543998718262 7.670211791992188 0.369974821805954 0.000000000000000
-11.080975532531738 15.556108474731445 1.101218223571777 0.000000000000000
-6.563010215759277 10.119344711303711 -0.345241487026215 0.000000000000000
-9.090947151184082 12.773825645446777 1.902739882469177 0.000000000000000
-3.270976066589355 4.362997531890869 0.001607347978279 0.000000000000000
-5.044472694396973 6.985267639160156 -0.195091828703880 0.000000000000000
-3.874600410461426 5.898936271667480 -0.038542598485947 0.000000000000000
-8.522820472717285 12.307201385498047 0.861668705940247 0.000000000000000
-9.207215309143066 14.858880043029785 1.413657188415527 0.000000000000000
-4.655358314514160 5.903258323669434 0.214402064681053 0.000000000000000
-3.565476894378662 5.467837333679199 -0.331705421209335 0.000000000000000
-7.098960876464844 11.603613853454590 1.097840666770935 0.000000000000000
-3.618439435958862 5.099931240081787 0.142878308892250 0.000000000000000
-4.148791313171387 6.672361850738525 1.404821753501892 0.000000000000000
-6.004299163818359 10.228678703308105 0.477939873933792 0.000000000000000
-3.906244516372681 6.514649391174316 -0.215037137269974 0.000000000000000
-5.817600250244141 8.014700889587402 0.283944725990295 0.000000000000000
-6.442849636077881 8.985647201538086 -0.189086690545082 0.000000000000000
-7.561334133148193 13.238368034362793 0.264118343591690 0.000000000000000
-3.355994462966919 6.267119884490967 -0.241634696722031 0.000000000000000
-6.532192707061768 11.454000473022461 -0.378436654806137 0.000000000000000
-8.556635856628418 13.557507514953613 0.000338828889653 0.000000000000000
-7.757287502288818 10.994269371032715 0.386903345584869 0.000000000000000
-2.160394668579102 3.402732372283936 0.159708723425865 0.000000000000000
-7.766390800476074 13.724657058715820 2.848274946212769 0.000000000000000
-2.084818840026855 3.293657779693604 0.154354736208916 0.000000000000000
-6.451435089111328 11.504623413085938 1.065506815910339 0.000000000000000
-4.957656860351562 7.765069484710693 2.425844907760620 0.000000000000000
-9.646368026733398 17.623834609985352 3.636365175247192 0.003921568859369
-3.671833515167236 5.701668262481689 0.814171135425568 0.000000000000000
-2.812881231307983 4.244203567504883 -0.112886436283588 0.000000000000000
-3.396300554275513 5.292814254760742 0.754280507564545 0.000000000000000
-3.112985610961914 5.441232681274414 0.501622676849365 0.000000000000000
-6.512635231018066 10.793617248535156 0.000872540753335 0.000000000000000
-3.334819316864014 6.771971225738525 -0.084657698869705 0.000000000000000
-2.074404001235962 2.776772260665894 -0.209139704704285 0.000000000000000
-3.520339250564575 5.635718822479248 0.379496425390244 0.000000000000000
-3.495625972747803 6.345281600952148 0.125622838735580 0.000000000000000
-9.689697265625000 16.590070724487305 2.340504884719849 0.003921568859369
-5.467283248901367 10.265210151672363 2.096223831176758 0.000000000000000
-5.121137142181396 8.798562049865723 0.585411012172699 0.000000000000000
-4.737344741821289 10.486118316650391 -0.396120727062225 0.000000000000000
-3.655086755752563 5.552277565002441 0.190282002091408 0.000000000000000
-6.726136684417725 13.588186264038086 -0.436447918415070 0.000000000000000
-8.049921989440918 16.554300308227539 -0.531331419944763 0.000000000000000
-7.264122009277344 17.317380905151367 0.218299999833107 0.003921568859369
-3.714300632476807 5.940838813781738 -0.437716960906982 0.000000000000000
-6.923598289489746 13.049667358398438 3.922486066818237 0.000000000000000
-8.421821594238281 14.351101875305176 0.096277177333832 0.000000000000000
-6.880454540252686 13.200095176696777 0.859944880008698 0.000000000000000
-2.778430700302124 4.454348087310791 -0.087231434881687 0.000000000000000
-3.737838506698608 7.905236721038818 1.573634743690491 0.000000000000000
-6.145695686340332 10.587419509887695 0.071284778416157 0.000000000000000
-3.595647573471069 6.726248741149902 2.009028434753418 0.000000000000000
-5.522717475891113 9.541845321655273 0.317756772041321 0.000000000000000
-6.368414402008057 11.472510337829590 0.076419368386269 0.000000000000000
-4.902287960052490 9.836853981018066 2.912557125091553 0.000000000000000
-6.174683094024658 11.292176246643066 -0.221261143684387 0.000000000000000
-5.976827621459961 12.349346160888672 0.317517518997192 0.000000000000000
-4.697852611541748 9.571489334106445 0.615130066871643 0.000000000000000
-3.468914985656738 6.151771545410156 0.203176423907280 0.000000000000000
-3.977976322174072 9.254606246948242 0.814958930015564 0.000000000000000
-4.496995449066162 8.215552330017090 -0.159714505076408 0.000000000000000
-4.654640674591064 11.070611000061035 0.973005056381226 0.000000000000000
-3.594263076782227 6.452618122100830 -0.293760299682617 0.000000000000000
-3.574223756790161 8.885529518127441 0.387821972370148 0.000000000000000
-1.962032437324524 4.682885169982910 0.408233702182770 0.000000000000000
-3.220882892608643 6.433259963989258 0.207580327987671 0.000000000000000
-4.193197250366211 8.642444610595703 -0.164056807756424 0.000000000000000
-3.430528879165649 7.972487926483154 0.001751343370415 0.003921568859369
-1.690171718597412 3.168872833251953 0.022224683314562 0.000000000000000
-1.834051728248596 3.492804527282715 0.113280810415745 0.000000000000000
-2.559987306594849 5.127828121185303 -0.226726695895195 0.000000000000000
-5.238454818725586 13.102958679199219 0.001428307965398 0.000000000000000
-4.781095981597900 10.339581489562988 0.329685151576996 0.000000000000000
-3.077451944351196 7.395513057708740 2.121047735214233 0.000000000000000
-5.004212379455566 12.751840591430664 0.793573737144470 0.000000000000000
-1.516830205917358 3.347659111022949 -0.080959439277649 0.000000000000000
-2.343838930130005 5.699683189392090 0.001989467302337 0.000000000000000
-5.737615108489990 13.281878471374512 -0.249416396021843 0.000000000000000
-3.596826791763306 11.614743232727051 2.204548358917236 0.000000000000000
-1.550347328186035 3.956796407699585 0.002158394316211 0.000000000000000
-3.136967420578003 7.901383876800537 -0.144895359873772 0.000000000000000
-1.821282744407654 4.870698928833008 -0.087169229984283 0.000000000000000
-3.345273017883301 11.869062423706055 1.507813572883606 0.000000000000000
-2.932372808456421 9.357962608337402 -0.167923420667648 0.000000000000000
-1.078436493873596 2.920607089996338 -0.050728015601635 0.000000000000000
-2.001395225524902 7.834469318389893 0.987901151180267 0.000000000000000
-1.696467995643616 10.091584205627441 1.861429214477539 0.000000000000000
-0.798301100730896 3.491256237030029 0.949660778045654 0.000000000000000
-1.190984725952148 12.350454330444336 2.261359214782715 0.000000000000000
-0.535324871540070 4.822140216827393 0.883604168891907 0.000000000000000
2.419126033782959 25.192228317260742 0.299572169780731 0.003921568859369
1.919173240661621 29.256381988525391 2.399457693099976 0.003921568859369
2.032184839248657 29.323907852172852 2.405683279037476 0.003921568859369
2.297830581665039 28.882230758666992 2.371574878692627 0.003921568859369
2.395380020141602 28.893610000610352 2.373235702514648 0.003921568859369
3.089469909667969 27.763870239257812 2.287484169006348 0.003921568859369
1.350183010101318 12.007435798645020 -0.984837174415588 0.000000000000000
1.360084533691406 11.760869026184082 -0.964994668960571 0.000000000000000
3.472622394561768 27.683580398559570 2.285005092620850 0.003921568859369
1.382274150848389 11.617091178894043 -0.953604280948639 0.000000000000000
1.407356262207031 11.500939369201660 -0.944489479064941 0.000000000000000
1.464372634887695 11.641853332519531 -0.956504285335541 0.000000000000000
1.507397174835205 11.588354110717773 -0.952588379383087 0.000000000000000
1.486594915390015 11.188393592834473 -0.920071959495544 0.000000000000000
1.525775909423828 11.170338630676270 -0.919083416461945 0.000000000000000
3.978542089462280 26.555988311767578 2.199841499328613 0.003921568859369
4.118903160095215 26.808168411254883 2.222034215927124 0.003921568859369
1.835075497627258 11.118325233459473 -0.918982028961182 0.000000000000000
1.866831898689270 11.084098815917969 -0.916695058345795 0.000000000000000
3.581732273101807 27.821208953857422 3.452656507492065 0.003921568859369
1.922177314758301 11.115662574768066 -0.919930338859558 0.000000000000000
1.976861953735352 11.190434455871582 -0.926742315292358 0.000000000000000
3.552428483963013 26.146766662597656 3.248298168182373 0.003921568859369
2.184838056564331 12.051610946655273 -0.998875617980957 0.000000000000000
2.036535263061523 11.093359947204590 -0.919893026351929 0.000000000000000
2.430591583251953 25.195449829101562 0.151906847953796 0.003921568859369
2.517227172851562 25.174228668212891 0.151865124702454 0.003921568859369
1.656399607658386 11.726613998413086 -0.826438128948212 0.003921568859369
2.113925218582153 11.077571868896484 -0.919867813587189 0.000000000000000
2.152583837509155 11.069474220275879 -0.919855237007141 0.000000000000000
4.390993118286133 28.488950729370117 3.548510551452637 0.003921568859369
2.191208362579346 11.061243057250977 -0.919842660427094 0.000000000000000
2.237234115600586 11.096143722534180 -0.923405289649963 0.000000000000000
2.274436950683594 11.071615219116211 -0.922092258930206 0.000000000000000
5.577154159545898 25.940130233764648 4.850893974304199 0.003921568859369
2.316577911376953 11.078516006469727 -0.923379540443420 0.000000000000000
5.802444934844971 26.512722015380859 2.224861860275269 0.003921568859369
2.358807325363159 11.085253715515137 -0.924666762351990 0.000000000000000
2.393821954727173 11.037948608398438 -0.921404123306274 0.000000000000000
2.452544927597046 11.114249229431152 -0.928540170192719 0.000000000000000
2.465228796005249 10.996459960937500 -0.919429659843445 0.000000000000000
2.503596782684326 10.987161636352539 -0.919417202472687 0.000000000000000
2.569749116897583 11.089953422546387 -0.928827464580536 0.000000000000000
2.580239534378052 10.968167304992676 -0.919392466545105 0.000000000000000
2.667817592620850 11.151614189147949 -0.935625553131104 0.000000000000000
2.694735765457153 11.095295906066895 -0.931714177131653 0.000000000000000
2.694953203201294 10.938671112060547 -0.919355452060699 0.000000000000000
2.731205701828003 10.929081916809082 -0.919343769550323 0.000000000000000
5.871920108795166 27.757747650146484 3.494370222091675 0.003921568859369
2.957454919815063 11.282736778259277 -0.951794564723969 0.000000000000000
2.998785972595215 11.271193504333496 -0.951781272888184 0.000000000000000
7.289083480834961 26.531280517578125 5.031587123870850 0.003921568859369
3.038110017776489 11.260059356689453 -0.951768696308136 0.000000000000000
1.960849404335022 11.722690582275391 -0.759889066219330 0.000000000000000
3.004673719406128 11.004207611083984 -0.930965006351471 0.000000000000000
1.987348198890686 11.648829460144043 -0.755535185337067 0.000000000000000
3.114689588546753 11.237948417663574 -0.951744079589844 0.000000000000000
2.016884088516235 11.582385063171387 -0.751691460609436 0.000000000000000
3.095350265502930 11.035850524902344 -0.935489118099213 0.000000000000000
2.046229600906372 11.528024673461914 -0.748614668846130 0.000000000000000
3.152962446212769 11.081082344055176 -0.940348982810974 0.000000000000000
2.082317352294922 11.488482475280762 -0.746558010578156 0.000000000000000
7.382673740386963 25.182971954345703 2.152740478515625 0.003921568859369
3.186595439910889 11.045936584472656 -0.938386857509613 0.000000000000000
2.115796327590942 11.437087059020996 -0.743735551834106 0.000000000000000
3.233007431030273 11.073438644409180 -0.941624283790588 0.000000000000000
2.146159410476685 11.402460098266602 -0.741936445236206 0.000000000000000
3.302785634994507 11.147826194763184 -0.949082136154175 0.000000000000000
2.183442115783691 11.362205505371094 -0.739879429340363 0.000000000000000
8.396910667419434 27.499732971191406 5.258737087249756 0.003921568859369
3.351273775100708 11.166047096252441 -0.951668381690979 0.000000000000000
3.390233516693115 11.153681755065918 -0.951655924320221 0.000000000000000
3.436458826065063 11.141210556030273 -0.951642155647278 0.000000000000000
3.471446514129639 11.129842758178711 -0.951631009578705 0.000000000000000
3.512214422225952 11.116443634033203 -0.951618015766144 0.000000000000000
3.551000595092773 11.103541374206543 -0.951605677604675 0.000000000000000
7.013730049133301 24.890058517456055 3.186993360519409 0.003921568859369
8.917543411254883 25.381504058837891 2.207618713378906 0.003921568859369
8.096091270446777 26.525835037231445 3.418026924133301 0.003921568859369
3.507762432098389 11.474083900451660 -0.767571628093719 0.003921568859369
11.150991439819336 26.268278121948242 2.342181921005249 0.003921568859369
3.561720371246338 11.511282920837402 -0.770877122879028 0.003921568859369
11.403152465820312 26.358705520629883 2.357242822647095 0.003921568859369
7.723121166229248 15.272872924804688 -0.994787514209747 0.003921568859369
11.707318305969238 26.056932449340820 2.344960927963257 0.003921568859369
7.728492736816406 15.153182029724121 -0.988746166229248 0.003921568859369
11.816501617431641 26.055233001708984 2.348577737808228 0.003921568859369
4.271655082702637 9.537743568420410 -0.853815436363220 0.000000000000000
7.757237911224365 15.079614639282227 -0.985717356204987 0.003921568859369
7.783502578735352 14.988441467285156 -0.981528759002686 0.003921568859369
7.818860054016113 14.928973197937012 -0.979427158832550 0.003921568859369
7.861474037170410 14.883506774902344 -0.978252649307251 0.003921568859369
7.928603172302246 14.883563041687012 -0.980090379714966 0.003921568859369
7.921123504638672 14.746682167053223 -0.972891330718994 0.003921568859369
8.027141571044922 14.829708099365234 -0.980060219764709 0.003921568859369
8.092434883117676 14.825536727905273 -0.981666326522827 0.003921568859369
8.157792091369629 14.821093559265137 -0.983272433280945 0.003921568859369
8.231078147888184 14.830279350280762 -0.985805392265320 0.003921568859369
8.282786369323730 14.800967216491699 -0.985789597034454 0.003921568859369
8.346330642700195 14.792246818542480 -0.987164020538330 0.003921568859369
8.409916877746582 14.783265113830566 -0.988538444042206 0.003921568859369
8.478814125061035 14.770637512207031 -0.989679932594299 0.003921568859369
13.471276283264160 25.766263961791992 2.387194871902466 0.003921568859369
8.685726165771484 14.773734092712402 -0.995888948440552 0.003921568859369
13.752681732177734 25.860301971435547 2.404869556427002 0.003921568859369
13.725174903869629 25.594308853149414 2.384667158126831 0.003921568859369
6.198917865753174 10.360396385192871 -0.702092885971069 0.000000000000000
8.329127311706543 15.498944282531738 -0.919393539428711 0.003921568859369
8.373550415039062 15.451810836791992 -0.918334543704987 0.003921568859369
13.836579322814941 25.376951217651367 5.290578842163086 0.003921568859369
8.411913871765137 15.394083023071289 -0.916649997234344 0.003921568859369
12.589072227478027 25.817459106445312 3.542340040206909 0.003921568859369
8.449992179870605 15.336269378662109 -0.914965689182281 0.003921568859369
8.470105171203613 15.247070312500000 -0.911405086517334 0.003921568859369
8.531173706054688 15.230826377868652 -0.912222743034363 0.003921568859369
14.074807167053223 24.976160049438477 2.354482650756836 0.003921568859369
8.587604522705078 15.193618774414062 -0.911788463592529 0.003921568859369
8.624588012695312 15.135442733764648 -0.910104572772980 0.003921568859369
8.635121345520020 15.032331466674805 -0.905710577964783 0.003921568859369
8.679451942443848 14.987874031066895 -0.904860734939575 0.003921568859369
14.362731933593750 24.661985397338867 2.343820571899414 0.003921568859369
5.025850772857666 7.803803443908691 -0.540075659751892 0.000000000000000
8.733750343322754 14.960479736328125 -0.905053317546844 0.003921568859369
15.031781196594238 25.595729827880859 2.437504768371582 0.003921568859369
8.803788185119629 14.965312957763672 -0.907122850418091 0.003921568859369
8.880686759948730 14.975120544433594 -0.909608483314514 0.003921568859369
15.226218223571777 25.526098251342773 2.440820932388306 0.003921568859369
7.003156661987305 10.560080528259277 -0.736695408821106 0.000000000000000
8.982598304748535 15.025569915771484 -0.914595603942871 0.003921568859369
9.051661491394043 15.020943641662598 -0.916247308254242 0.003921568859369
15.370786666870117 25.363857269287109 2.435653448104858 0.003921568859369
9.570326805114746 15.871876716613770 3.398060083389282 0.003921568859369
9.116604804992676 15.009220123291016 -0.917482197284698 0.003921568859369
9.613288879394531 15.817822456359863 3.393766641616821 0.003921568859369
9.173159599304199 14.983650207519531 -0.917883276939392 0.003921568859369
9.267780303955078 15.018820762634277 -0.922036290168762 0.003921568859369
13.919004440307617 25.108943939208984 7.718237876892090 0.003921568859369
8.944045066833496 16.067384719848633 -0.853295207023621 0.000000000000000
9.338277816772461 15.002845764160156 -0.923375368118286 0.003921568859369
9.758682250976562 15.671684265136719 3.384156227111816 0.003921568859369
9.397015571594238 14.979856491088867 -0.923985898494720 0.003921568859369
9.470784187316895 14.980188369750977 -0.926055610179901 0.003921568859369
9.857239723205566 15.585762023925781 3.380595684051514 0.003921568859369
9.549008369445801 14.986896514892578 -0.928542375564575 0.003921568859369
9.883861541748047 15.507846832275391 3.371272802352905 0.003921568859369
9.620863914489746 14.983192443847656 -0.930403590202332 0.003921568859369
15.967524528503418 24.747407913208008 2.418444395065308 0.003921568859369
9.933650016784668 15.466225624084473 3.369851827621460 0.003921568859369
9.690614700317383 14.975833892822266 -0.932056486606598 0.003921568859369
9.991886138916016 15.437618255615234 3.371303796768188 0.003921568859369
9.766620635986328 14.983233451843262 -0.934543848037720 0.003921568859369
10.040855407714844 15.400716781616211 3.370599985122681 0.003921568859369
15.089494705200195 25.497060775756836 1.737567186355591 0.003921568859369
8.901263236999512 15.122170448303223 -0.814273059368134 0.000000000000000
9.843195915222168 14.985218048095703 -0.936821937561035 0.003921568859369
10.085845947265625 15.352039337158203 3.367742300033569 0.003921568859369
8.949873924255371 15.083745002746582 -0.813887298107147 0.000000000000000
9.924343109130859 14.993494987487793 -0.939516961574554 0.003921568859369
14.469643592834473 24.265899658203125 3.484937429428101 0.003921568859369
10.130611419677734 15.303242683410645 3.364883899688721 0.003921568859369
8.994193077087402 15.038322448730469 -0.813130974769592 0.000000000000000
10.007908821105957 15.004692077636719 -0.942420363426208 0.003921568859369
10.164162635803223 15.238007545471191 3.358434200286865 0.003921568859369
9.063301086425781 15.033694267272949 -0.814598143100739 0.000000000000000
10.082694053649902 15.002278327941895 -0.944490015506744 0.003921568859369
10.219510078430176 15.205260276794434 3.359167575836182 0.003921568859369
9.124091148376465 15.015164375305176 -0.815324068069458 0.000000000000000
10.137249946594238 14.969875335693359 -0.944683611392975 0.003921568859369
14.918984413146973 24.432174682617188 7.696362495422363 0.003921568859369
10.245827674865723 15.130125999450684 3.350562095642090 0.003921568859369
9.205056190490723 15.016753196716309 -0.817538917064667 0.000000000000000
10.206058502197266 14.947123527526855 -0.945899605751038 0.003921568859369
10.306205749511719 15.093853950500488 3.350177764892578 0.003921568859369
5.938029289245605 8.699260711669922 -0.860673964023590 0.000000000000000
9.278601646423340 15.018018722534180 -0.819378018379211 0.000000000000000
10.290102005004883 14.956929206848145 -0.948804676532745 0.003921568859369
10.367816925048828 15.070316314697266 3.353064775466919 0.003921568859369
6.050565719604492 9.779508590698242 -0.803857028484344 0.000000000000000
9.354406356811523 15.022331237792969 -0.821402430534363 0.000000000000000
10.402299880981445 15.007851600646973 3.347332239151001 0.003921568859369
9.412256240844727 15.009386062622070 -0.822316288948059 0.000000000000000
9.508590698242188 15.033278465270996 -0.825636386871338 0.000000000000000
17.032455444335938 24.110195159912109 2.423717737197876 0.003921568859369
9.555770874023438 15.002981185913086 -0.825623691082001 0.000000000000000
9.645527839660645 15.021057128906250 -0.828573882579803 0.000000000000000
9.728107452392578 15.038765907287598 -0.831340074539185 0.000000000000000
9.804729461669922 15.041027069091797 -0.833364307880402 0.000000000000000
9.877481460571289 15.031202316284180 -0.834831953048706 0.000000000000000
17.046209335327148 22.930686950683594 2.346529483795166 0.003921568859369
10.151566505432129 15.092769622802734 -0.844451010227203 0.000000000000000
10.123270034790039 14.933103561401367 -0.837579786777496 0.000000000000000
10.274828910827637 15.047115325927734 -0.845907568931580 0.000000000000000
