# This PCD file was generated using the MATLAB® pcwrite function
# from Computer Vision Toolbox®.
# .PCD v.7 - Point Cloud Data file format
VERSION .7
FIELDS x y z intensity
SIZE 8 8 8 8
TYPE F F F F
COUNT 1 1 1 1
WIDTH 639
HEIGHT 1
VIEWPOINT 0 0 0 1 0 0 0
POINTS 639
DATA ascii
24.049613952636719 -6.050613880157471 1.438999652862549 0.003921568859369
15.647839546203613 -4.745239734649658 2.962189674377441 0.003921568859369
28.195486068725586 -8.685483932495117 -0.169355511665344 0.003921568859369
26.724344253540039 -6.825659275054932 1.601310968399048 0.003921568859369
23.447938919067383 -5.985238075256348 2.959072351455688 0.003921568859369
15.665011405944824 -4.809904575347900 2.968650341033936 0.003921568859369
27.085887908935547 -7.013786315917969 3.423448801040649 0.003921568859369
27.424121856689453 -7.101686000823975 7.563042163848877 0.003921568859369
15.705309867858887 -4.879081249237061 2.979417562484741 0.003921568859369
5.689978122711182 -1.182814717292786 0.165544033050537 0.000000000000000
22.957508087158203 -6.025468826293945 2.902002811431885 0.003921568859369
28.559963226318359 -9.010799407958984 2.437580585479736 0.003921568859369
27.376747131347656 -7.191068172454834 7.556829929351807 0.003921568859369
15.703186035156250 -4.938233852386475 2.982289314270020 0.003921568859369
22.770862579345703 -6.065167427062988 1.367047071456909 0.003921568859369
15.722452163696289 -5.007364749908447 2.989467859268188 0.003921568859369
2.652595043182373 -0.689174592494965 -0.000625533983111 0.000000000000000
22.460552215576172 -6.145429611206055 0.540325164794922 0.003921568859369
23.157381057739258 -6.336987972259521 6.405268192291260 0.003921568859369
15.781469345092773 -5.144189357757568 3.007412910461426 0.003921568859369
22.192272186279297 -6.152392864227295 0.534113883972168 0.003921568859369
27.357551574707031 -7.592218399047852 1.648083686828613 0.003921568859369
15.808300971984863 -5.211146831512451 3.014533281326294 0.003921568859369
15.827311515808105 -5.278413295745850 3.021711587905884 0.003921568859369
27.709608078002930 -8.107175827026367 0.670538902282715 0.003921568859369
28.098171234130859 -8.428627967834473 3.589271545410156 0.003921568859369
23.890300750732422 -6.087810039520264 0.715160071849823 0.003921568859369
25.521324157714844 -7.846098899841309 7.124963283538818 0.003921568859369
13.472573280334473 -4.226595401763916 3.753088474273682 0.000000000000000
28.576238632202148 -9.117333412170410 1.741714596748352 0.003921568859369
28.262758255004883 -9.016918182373047 -0.686187863349915 0.003921568859369
22.525453567504883 -6.070636749267578 0.676259934902191 0.003921568859369
25.416830062866211 -8.199824333190918 7.124926567077637 0.003921568859369
25.443117141723633 -8.306119918823242 7.140461921691895 0.003921568859369
22.300067901611328 -6.171869277954102 0.134648099541664 0.003921568859369
22.083137512207031 -6.190004348754883 0.133446991443634 0.003921568859369
7.202920913696289 -2.485141992568970 0.436355113983154 0.000000000000000
22.238790512084961 -9.003133773803711 4.353908061981201 0.003921568859369
27.931711196899414 -8.365496635437012 0.170139387249947 0.003921568859369
22.001354217529297 -8.991130828857422 4.312993526458740 0.003921568859369
23.061996459960938 -8.236522674560547 2.993153095245361 0.003921568859369
21.953720092773438 -9.065205574035645 4.310123443603516 0.003921568859369
22.995782852172852 -8.302978515625000 2.988275766372681 0.003921568859369
21.849359512329102 -9.110896110534668 4.295767307281494 0.003921568859369
22.918207168579102 -8.364968299865723 2.981935262680054 0.003921568859369
21.824670791625977 -9.189734458923340 4.297204017639160 0.003921568859369
22.859201431274414 -8.430516242980957 2.977015733718872 0.003921568859369
21.767454147338867 -9.251345634460449 4.290702819824219 0.003921568859369
22.799140930175781 -8.489329338073730 2.972626209259033 0.003921568859369
21.694925308227539 -9.300555229187012 4.282090187072754 0.003921568859369
4.048005580902100 -1.482534527778625 0.513062238693237 0.000000000000000
21.731195449829102 -9.414725303649902 4.296446800231934 0.003921568859369
17.176662445068359 -8.666076660156250 0.223124608397484 0.003921568859369
6.291803836822510 -2.406892538070679 1.770825982093811 0.000000000000000
6.338119029998779 -2.447496175765991 1.786360144615173 0.000000000000000
15.082705497741699 -6.759868144989014 2.991465806961060 0.003921568859369
17.095987319946289 -8.921489715576172 -0.668681204319000 0.003921568859369
24.859638214111328 -10.263854026794434 1.560248494148254 0.003921568859369
24.719839096069336 -10.602097511291504 3.287734031677246 0.003921568859369
3.762204885482788 -1.369894266128540 0.111792765557766 0.000000000000000
17.277055740356445 -8.555661201477051 3.492455959320068 0.003921568859369
17.261495590209961 -8.622690200805664 1.565306305885315 0.000000000000000
17.220541000366211 -8.676936149597168 0.780944108963013 0.003921568859369
17.166667938232422 -8.720720291137695 -0.556174576282501 0.000000000000000
15.709321975708008 -8.181047439575195 3.206764698028564 0.003921568859369
4.912011146545410 -1.974465131759644 -0.090793862938881 0.000000000000000
15.486083984375000 -8.265752792358398 1.422555208206177 0.000000000000000
23.889778137207031 -13.112643241882324 -0.788102805614471 0.003921568859369
5.061197280883789 -2.136515855789185 0.030338531360030 0.000000000000000
24.292846679687500 -12.044539451599121 0.628987729549408 0.003921568859369
17.242628097534180 -8.527108192443848 5.118857860565186 0.003921568859369
6.469231605529785 -3.606138229370117 1.326000213623047 0.000000000000000
24.659872055053711 -11.073831558227539 0.157461687922478 0.003921568859369
10.410743713378906 -5.298859119415283 3.094212532043457 0.000000000000000
6.106765270233154 -3.939420223236084 0.082375958561897 0.000000000000000
16.244409561157227 -8.522328376770020 1.060549855232239 0.003921568859369
16.302093505859375 -8.617957115173340 1.066140532493591 0.000000000000000
10.829166412353516 -5.696331977844238 3.241211891174316 0.000000000000000
10.750388145446777 -5.704265117645264 3.223606348037720 0.000000000000000
11.373869895935059 -6.141453266143799 1.569991707801819 0.000000000000000
12.415523529052734 -7.627845764160156 2.632400512695312 0.000000000000000
11.058683395385742 -6.836371898651123 2.345982074737549 0.000000000000000
5.625095367431641 -3.093499898910522 1.682584166526794 0.000000000000000
7.311067581176758 -5.061625480651855 0.101478137075901 0.000000000000000
5.602127075195312 -3.907061576843262 0.077141545712948 0.000000000000000
7.054736137390137 -4.022982120513916 0.463960647583008 0.000000000000000
7.448296070098877 -4.744547843933105 1.584286332130432 0.000000000000000
8.943282127380371 -5.854810714721680 -0.061766915023327 0.000000000000000
16.304016113281250 -8.618463516235352 0.532761514186859 0.003921568859369
16.186349868774414 -8.768835067749023 0.531829416751862 0.003921568859369
6.230037212371826 -4.165410995483398 0.299024611711502 0.000000000000000
7.526216983795166 -5.129820823669434 0.364961355924606 0.000000000000000
16.526393890380859 -11.402429580688477 3.636620521545410 0.003921568859369
11.881530761718750 -7.394146919250488 0.806323587894440 0.000000000000000
17.321762084960938 -9.774862289428711 0.574867010116577 0.003921568859369
4.710696697235107 -2.932412147521973 0.662452042102814 0.000000000000000
16.224744796752930 -11.608228683471680 1.617604017257690 0.000000000000000
6.200135707855225 -4.016943454742432 0.421032130718231 0.000000000000000
11.752328872680664 -8.622607231140137 2.632295846939087 0.000000000000000
17.831344604492188 -13.633909225463867 4.067266464233398 0.003921568859369
6.070891380310059 -4.614092350006104 0.610014677047729 0.000000000000000
4.866621017456055 -3.362588644027710 1.544625997543335 0.000000000000000
7.343200683593750 -4.698270320892334 -0.150294601917267 0.000000000000000
6.325796127319336 -4.509605884552002 0.443094044923782 0.000000000000000
6.423693180084229 -4.220949172973633 0.218477755784988 0.000000000000000
7.634536266326904 -5.072442531585693 -0.158063724637032 0.000000000000000
5.220255374908447 -3.427787542343140 0.176137268543243 0.000000000000000
9.796298027038574 -7.256807327270508 1.478049516677856 0.000000000000000
6.286227703094482 -4.185188770294189 0.214321956038475 0.000000000000000
14.213828086853027 -12.048357963562012 3.371608018875122 0.003921568859369
2.975031137466431 -2.427947521209717 0.149289295077324 0.000000000000000
12.372424125671387 -8.736900329589844 -0.261883437633514 0.000000000000000
1.291047453880310 -0.796554446220398 -0.088805168867111 0.003921568859369
7.529564380645752 -5.869582176208496 2.518085956573486 0.000000000000000
16.584314346313477 -16.080652236938477 0.268009006977081 0.003921568859369
6.628359794616699 -4.854829311370850 0.045898452401161 0.000000000000000
5.238233089447021 -4.809189319610596 1.269586205482483 0.000000000000000
2.384657382965088 -1.905671596527100 0.167579680681229 0.000000000000000
7.532298564910889 -6.434695720672607 2.614340305328369 0.000000000000000
16.723249435424805 -16.090942382812500 -0.133444949984550 0.003921568859369
11.123712539672852 -11.164488792419434 2.847455263137817 0.000000000000000
16.501911163330078 -16.077917098999023 0.533189117908478 0.003921568859369
16.239189147949219 -16.041078567504883 1.321217656135559 0.003921568859369
4.197385787963867 -4.557632446289062 1.102888822555542 0.000000000000000
15.477306365966797 -16.142932891845703 1.294159412384033 0.003921568859369
13.794985771179199 -15.959688186645508 3.820850372314453 0.003921568859369
16.649660110473633 -16.097663879394531 0.134242996573448 0.003921568859369
16.487089157104492 -16.055686950683594 0.665771186351776 0.003921568859369
14.680123329162598 -15.956212043762207 5.770998001098633 0.003921568859369
6.975931167602539 -7.561398983001709 2.716684818267822 0.000000000000000
4.526629924774170 -5.507391929626465 1.272892117500305 0.000000000000000
12.897235870361328 -16.315769195556641 5.534777164459229 0.003921568859369
11.274090766906738 -16.606643676757812 3.636239767074585 0.003921568859369
3.385423421859741 -5.945766925811768 0.076666444540024 0.000000000000000
15.010615348815918 -24.943553924560547 5.286002159118652 0.003921568859369
6.234171867370605 -12.568742752075195 0.161222174763680 0.000000000000000
6.871721267700195 -14.169576644897461 0.181446582078934 0.000000000000000
3.219547033309937 -5.809788703918457 0.112157329916954 0.000000000000000
3.779882192611694 -6.965095520019531 0.134720727801323 0.000000000000000
9.081924438476562 -17.595865249633789 1.606998324394226 0.000000000000000
6.936121940612793 -14.142880439758301 0.636495292186737 0.000000000000000
2.857276439666748 -5.550772190093994 -0.037441715598106 0.000000000000000
4.282125473022461 -8.922234535217285 0.169441640377045 0.000000000000000
2.857697486877441 -5.081354618072510 0.330452412366867 0.000000000000000
2.317339420318604 -5.280066013336182 -0.331897228956223 0.000000000000000
4.923267364501953 -9.271104812622070 1.272431015968323 0.000000000000000
6.338877677917480 -12.197877883911133 0.792545318603516 0.000000000000000
6.142883777618408 -13.409490585327148 0.595606565475464 0.000000000000000
3.155542850494385 -5.901983737945557 0.151051521301270 0.000000000000000
5.893136024475098 -13.087326049804688 2.596370935440063 0.000000000000000
4.659498691558838 -9.058817863464355 0.584881901741028 0.000000000000000
5.206999778747559 -13.381003379821777 -0.499009728431702 0.000000000000000
10.655955314636230 -21.608594894409180 2.944242238998413 0.003921568859369
12.652532577514648 -26.018083572387695 1.679098486900330 0.003921568859369
9.003362655639648 -18.350225448608398 2.495298147201538 0.003921568859369
7.072601795196533 -16.301324844360352 3.220275163650513 0.003921568859369
6.212653160095215 -12.948866844177246 -0.000874814577401 0.000000000000000
3.455005168914795 -8.022638320922852 -0.252827316522598 0.000000000000000
3.807499408721924 -8.910708427429199 -0.057208199054003 0.000000000000000
2.740215063095093 -6.221906661987305 0.115020811557770 0.000000000000000
5.357110500335693 -12.927007675170898 0.241450801491737 0.000000000000000
5.083833217620850 -10.758520126342773 0.685033559799194 0.000000000000000
1.967185258865356 -3.362680435180664 0.019612818956375 0.000000000000000
3.209247589111328 -7.692127227783203 -0.241306886076927 0.000000000000000
4.614392280578613 -11.379891395568848 2.219366073608398 0.000000000000000
3.729686737060547 -7.877863407135010 -0.201807186007500 0.000000000000000
2.454247713088989 -4.410774230957031 -0.087979853153229 0.000000000000000
4.311517238616943 -9.383608818054199 0.593430995941162 0.000000000000000
3.752405166625977 -9.514855384826660 0.825503051280975 0.000000000000000
3.932732343673706 -10.008857727050781 1.941503882408142 0.000000000000000
4.210146903991699 -8.409286499023438 0.268638759851456 0.000000000000000
5.475234031677246 -12.697428703308105 1.683711886405945 0.000000000000000
4.715588092803955 -12.700131416320801 0.233760237693787 0.000000000000000
2.548637390136719 -5.603056907653809 0.740441858768463 0.000000000000000
3.401217699050903 -9.007502555847168 -0.279033035039902 0.000000000000000
9.989439010620117 -24.163452148437500 3.197907447814941 0.003921568859369
3.690536737442017 -9.962168693542480 0.858033597469330 0.000000000000000
4.510584354400635 -10.742113113403320 -0.001344739808701 0.003921568859369
1.404830932617188 -2.504342794418335 0.013468328863382 0.000000000000000
5.208722114562988 -11.015908241271973 0.349928855895996 0.000000000000000
4.219028949737549 -10.204259872436523 0.253071755170822 0.000000000000000
8.697921752929688 -25.466897964477539 4.890870571136475 0.003921568859369
4.710897922515869 -13.563217163085938 -0.083960168063641 0.000000000000000
1.372305393218994 -3.453138828277588 0.145138323307037 0.000000000000000
2.033544540405273 -6.768846511840820 -0.246139332652092 0.000000000000000
1.433065533638000 -3.688985109329224 0.702205896377563 0.000000000000000
2.314368724822998 -5.610682010650635 0.730602800846100 0.000000000000000
3.529886007308960 -10.559091567993164 0.900389850139618 0.000000000000000
2.322654962539673 -6.713459968566895 0.570844471454620 0.000000000000000
1.879563570022583 -4.482543468475342 0.274669706821442 0.000000000000000
2.793742656707764 -8.452828407287598 -0.053036268800497 0.000000000000000
2.373297452926636 -7.031740665435791 0.296803176403046 0.000000000000000
2.109052658081055 -7.575787067413330 -0.274031698703766 0.000000000000000
5.625785827636719 -18.733308792114258 3.551059246063232 0.003921568859369
4.173400878906250 -11.603487968444824 -0.001335813198239 0.000000000000000
2.823365688323975 -11.236960411071777 0.132604867219925 0.000000000000000
3.921303272247314 -9.407378196716309 0.291873127222061 0.000000000000000
3.522857427597046 -11.653969764709473 0.209713280200958 0.000000000000000
2.687466382980347 -7.244233608245850 0.934995055198669 0.000000000000000
2.288645744323730 -7.401218891143799 0.623898565769196 0.000000000000000
2.521573066711426 -5.963361740112305 -0.113224722445011 0.000000000000000
2.183590650558472 -5.927250862121582 -0.146912887692451 0.000000000000000
3.631541252136230 -10.594518661499023 0.257006734609604 0.000000000000000
4.284756183624268 -12.668056488037109 3.558067321777344 0.000000000000000
2.519377470016479 -8.614714622497559 0.153519615530968 0.000000000000000
5.282650947570801 -19.307584762573242 3.635750293731689 0.003921568859369
3.977300643920898 -11.835628509521484 -0.289792388677597 0.000000000000000
5.162980556488037 -19.075431823730469 1.606635212898254 0.000000000000000
4.595395088195801 -16.849264144897461 3.169751644134521 0.003921568859369
3.857660055160522 -10.038743972778320 -0.435524672269821 0.000000000000000
2.587982892990112 -9.376051902770996 0.391455739736557 0.000000000000000
3.298913002014160 -10.246493339538574 0.246835529804230 0.000000000000000
2.124012947082520 -6.574930667877197 -0.002125950763002 0.000000000000000
2.388627767562866 -9.265259742736816 0.163990408182144 0.000000000000000
3.223799467086792 -13.835380554199219 0.574816763401031 0.000000000000000
5.230867862701416 -23.359869003295898 4.352910041809082 0.003921568859369
2.906865596771240 -12.526367187500000 0.221871316432953 0.000000000000000
2.055759429931641 -8.423951148986816 -0.452917456626892 0.000000000000000
1.822792530059814 -5.848737716674805 1.616870164871216 0.000000000000000
1.757455110549927 -4.711055278778076 0.141038745641708 0.000000000000000
5.355763912200928 -20.094863891601562 2.543776512145996 0.003921568859369
4.017876148223877 -12.523187637329102 -0.229342937469482 0.000000000000000
1.741029739379883 -8.193441390991211 0.143157511949539 0.000000000000000
2.532173156738281 -9.852463722229004 -0.236836075782776 0.000000000000000
1.767117261886597 -8.517693519592285 0.148850962519646 0.000000000000000
3.812756061553955 -12.950957298278809 0.076611652970314 0.000000000000000
2.636006116867065 -13.850314140319824 0.570811748504639 0.000000000000000
1.424014568328857 -5.161386013031006 -0.002487795893103 0.000000000000000
1.924168109893799 -7.490185260772705 0.176117330789566 0.000000000000000
3.940285205841064 -13.602379798889160 0.408437430858612 0.000000000000000
1.715584754943848 -6.519080162048340 0.386065363883972 0.000000000000000
1.165766596794128 -5.295937538146973 -0.283645778894424 0.000000000000000
0.773610234260559 -4.279376506805420 -0.253347188234329 0.000000000000000
2.274144411087036 -12.491910934448242 0.513630270957947 0.000000000000000
2.215147256851196 -9.327609062194824 -0.001931661623530 0.003921568859369
3.680786132812500 -22.982524871826172 4.235041141510010 0.003921568859369
0.821199655532837 -2.618621826171875 0.324746131896973 0.000000000000000
4.064433574676514 -15.589432716369629 -0.654303133487701 0.003921568859369
2.028122663497925 -9.221394538879395 -0.001961801201105 0.003921568859369
4.268415451049805 -16.694141387939453 0.498424261808395 0.003921568859369
1.308742046356201 -7.523470878601074 0.306986123323441 0.000000000000000
2.668480873107910 -17.823627471923828 3.277236938476562 0.003921568859369
1.901922464370728 -8.878582000732422 1.105535268783569 0.000000000000000
2.559148311614990 -17.441047668457031 3.205434799194336 0.003921568859369
2.084320068359375 -10.059236526489258 0.235741212964058 0.000000000000000
2.505849838256836 -17.448734283447266 3.205398321151733 0.003921568859369
1.800682544708252 -12.155359268188477 0.497214317321777 0.000000000000000
2.462018728256226 -17.596870422363281 3.231240749359131 0.003921568859369
0.930851936340332 -5.150525569915771 0.087935470044613 0.000000000000000
1.581140279769897 -7.493244647979736 0.440286815166473 0.000000000000000
2.392735958099365 -17.537801742553711 3.219030141830444 0.003921568859369
1.286374330520630 -8.414795875549316 0.145670011639595 0.000000000000000
2.330604791641235 -17.537099838256836 3.217588901519775 0.003921568859369
1.093544483184814 -3.646477222442627 0.018896803259850 0.000000000000000
2.269807338714600 -17.547912597656250 3.218301773071289 0.003921568859369
3.638739824295044 -21.097072601318359 -0.995293498039246 0.003921568859369
2.206855773925781 -17.538955688476562 3.215425014495850 0.003921568859369
0.609641790390015 -2.759797334671021 0.045526172965765 0.000000000000000
0.796238541603088 -3.081634759902954 0.178760722279549 0.000000000000000
2.384521722793579 -13.423474311828613 1.666172504425049 0.000000000000000
2.152122974395752 -17.608051300048828 3.226907253265381 0.003921568859369
0.589282274246216 -2.649312257766724 0.043556459248066 0.000000000000000
2.095687389373779 -17.633596420288086 3.230492353439331 0.003921568859369
3.204729080200195 -14.631751060485840 -0.261585593223572 0.000000000000000
2.032219409942627 -17.620098114013672 3.226897239685059 0.003921568859369
1.682002425193787 -9.499727249145508 0.221306025981903 0.000000000000000
1.970331907272339 -17.622037887573242 3.226174116134644 0.003921568859369
1.361502170562744 -11.542776107788086 0.470395386219025 0.000000000000000
1.905278563499451 -17.588491439819336 3.218989133834839 0.003921568859369
1.846582293510437 -17.625274658203125 3.224727630615234 0.003921568859369
0.989531993865967 -3.614904880523682 -0.067008696496487 0.000000000000000
1.479817152023315 -8.693386077880859 1.074671626091003 0.000000000000000
1.789881348609924 -17.634595870971680 3.225476741790771 0.003921568859369
1.729520320892334 -17.615804672241211 3.221163511276245 0.003921568859369
0.546476364135742 -8.027285575866699 -0.282794743776321 0.000000000000000
1.671888351440430 -17.671590805053711 3.230492115020752 0.003921568859369
1.257456302642822 -12.801321029663086 -0.076273046433926 0.000000000000000
2.205132007598877 -15.397091865539551 0.359700053930283 0.000000000000000
0.769415855407715 -6.062887191772461 0.493755877017975 0.000000000000000
1.609905242919922 -17.672243118286133 3.229768514633179 0.003921568859369
0.844284176826477 -7.456580162048340 -0.612618267536163 0.000000000000000
0.932723402976990 -8.740969657897949 0.150738567113876 0.000000000000000
2.409149169921875 -17.587194442749023 4.744750976562500 0.003921568859369
1.547665834426880 -17.668752670288086 3.228327274322510 0.003921568859369
3.905812263488770 -21.732763290405273 -0.897636592388153 0.003921568859369
1.485207438468933 -17.661113739013672 3.226167440414429 0.003921568859369
2.235607624053955 -17.141498565673828 -0.001028339145705 0.003921568859369
3.788649082183838 -21.488622665405273 -0.887094974517822 0.003921568859369
1.271193027496338 -8.466095924377441 2.280568838119507 0.000000000000000
1.425004839897156 -17.688606262207031 3.230469703674316 0.003921568859369
1.395568132400513 -9.898965835571289 1.220570564270020 0.000000000000000
3.701813936233521 -21.425548553466797 -0.884017825126648 0.003921568859369
1.363479375839233 -17.696245193481445 3.231182098388672 0.003921568859369
3.638745784759521 -21.463685989379883 -0.885159134864807 0.003921568859369
1.307874917984009 -17.699403762817383 3.231176853179932 0.003921568859369
3.567964553833008 -21.502769470214844 -0.886300981044769 0.003921568859369
1.246284365653992 -17.706638336181641 3.231889009475708 0.003921568859369
3.495207548141479 -21.529754638671875 -0.886956095695496 0.003921568859369
1.184276461601257 -17.705799102783203 3.231165409088135 0.003921568859369
0.896222829818726 -12.645088195800781 -0.370129257440567 0.000000000000000
3.424006462097168 -21.568365097045898 -0.888098061084747 0.003921568859369
1.123518347740173 -17.732261657714844 3.235467672348022 0.003921568859369
3.353561162948608 -21.559194564819336 -0.887107372283936 0.003921568859369
1.069210290908813 -17.734827041625977 3.235585927963257 0.003921568859369
2.078329563140869 -12.766997337341309 -0.226457655429840 0.000000000000000
3.258852481842041 -21.427024841308594 -0.881273746490479 0.003921568859369
1.007593035697937 -17.745138168334961 3.237015962600708 0.003921568859369
0.593729197978973 -7.466503620147705 -0.045848235487938 0.000000000000000
2.684112548828125 -17.672319412231445 0.518072128295898 0.003921568859369
0.631850123405457 -8.581303596496582 0.698773622512817 0.000000000000000
0.945775985717773 -17.751302719116211 3.237728118896484 0.003921568859369
2.214355945587158 -14.522018432617188 0.083836607635021 0.000000000000000
0.883924007415771 -17.757249832153320 3.238440036773682 0.003921568859369
0.425311326980591 -3.204468250274658 -0.096353627741337 0.000000000000000
0.821718454360962 -17.751182556152344 3.236997365951538 0.003921568859369
2.959387540817261 -21.465719223022461 -0.881299495697021 0.003921568859369
0.760027289390564 -17.764566421508789 3.239145517349243 0.003921568859369
2.937619447708130 -21.923227310180664 -0.899637877941132 0.003921568859369
0.698328197002411 -17.781669616699219 3.242011070251465 0.003921568859369
1.672559142112732 -11.601492881774902 0.338158726692200 0.000000000000000
2.856506109237671 -21.892459869384766 -0.898022353649139 0.003921568859369
0.636250853538513 -17.782819747924805 3.242004871368408 0.003921568859369
2.782562017440796 -21.888774871826172 -0.897541999816895 0.003921568859369
0.577222883701324 -17.779779434204102 3.241280794143677 0.003921568859369
2.706137657165527 -21.897174835205078 -0.897548794746399 0.003921568859369
0.515270531177521 -17.792310714721680 3.243428707122803 0.003921568859369
0.777026176452637 -4.196619510650635 -0.174804404377937 0.000000000000000
0.453182667493820 -17.796756744384766 3.244140386581421 0.003921568859369
2.545567750930786 -21.837623596191406 -0.894479990005493 0.003921568859369
0.391091525554657 -17.808856964111328 3.246287822723389 0.003921568859369
0.336499065160751 -17.828519821166992 3.249993562698364 0.003921568859369
0.274262249469757 -17.828382492065430 3.249986648559570 0.003921568859369
0.205677539110184 -17.843719482421875 3.252851724624634 0.003921568859369
0.816032528877258 -5.408197402954102 0.155296146869659 0.000000000000000
0.676759123802185 -8.739735603332520 2.341633081436157 0.000000000000000
0.149528577923775 -17.851062774658203 3.254281520843506 0.003921568859369
0.774836063385010 -12.467563629150391 -0.001655044849031 0.000000000000000
0.616272985935211 -7.864886283874512 0.455996185541153 0.000000000000000
0.086929619312286 -17.869943618774414 3.257864952087402 0.003921568859369
0.024406284093857 -17.876802444458008 3.259294033050537 0.003921568859369
0.736765146255493 -14.250923156738281 -0.998347640037537 0.000000000000000
1.631753206253052 -16.822629928588867 0.490148365497589 0.003921568859369
0.188290834426880 -7.328792572021484 0.596017241477966 0.000000000000000
-0.037914961576462 -17.871641159057617 3.258569240570068 0.003921568859369
0.685293316841125 -14.180397033691406 -0.993341505527496 0.000000000000000
-0.100988954305649 -17.897731781005859 3.263588428497314 0.003921568859369
0.632850050926208 -14.037876129150391 -0.983323931694031 0.000000000000000
-0.163017302751541 -17.880329132080078 3.260709047317505 0.003921568859369
-1.827857136726379 -26.849363327026367 -0.313362687826157 0.003921568859369
0.582962691783905 -13.986927032470703 -0.979709804058075 0.000000000000000
0.007481455802917 -10.588709831237793 0.429635971784592 0.000000000000000
-0.226438790559769 -17.909914016723633 3.266446828842163 0.003921568859369
-1.928975462913513 -26.929296493530273 -0.314385950565338 0.003921568859369
-0.472630053758621 -9.686340332031250 -0.909719467163086 0.000000000000000
0.532950043678284 -13.899892807006836 -0.973589897155762 0.000000000000000
-0.289097756147385 -17.911741256713867 3.267157793045044 0.003921568859369
-2.022615671157837 -26.917209625244141 -0.314351409673691 0.003921568859369
0.182956442236900 -4.175730228424072 -0.027273604646325 0.000000000000000
0.483428239822388 -13.800708770751953 -0.966634631156921 0.000000000000000
0.836270809173584 -8.328933715820312 0.240570321679115 0.000000000000000
-0.020205765962601 -9.396447181701660 0.765546977519989 0.000000000000000
0.718099713325500 -6.322768211364746 -0.260679423809052 0.000000000000000
-0.351776391267776 -17.913351058959961 3.267868518829346 0.003921568859369
-2.118386745452881 -27.012302398681641 -0.315328359603882 0.003921568859369
0.442493766546249 -13.745205879211426 -0.962673008441925 0.000000000000000
-0.408039510250092 -17.942173004150391 3.273725509643555 0.003921568859369
-1.408774614334106 -18.542173385620117 -0.217697039246559 0.003921568859369
-1.442493677139282 -18.896482467651367 0.220202088356018 0.003921568859369
0.394366770982742 -13.697549819946289 -0.959337949752808 0.000000000000000
0.781747341156006 -8.256237030029297 0.238340392708778 0.000000000000000
-0.471029758453369 -17.947267532348633 3.275154113769531 0.003921568859369
0.751019716262817 -8.188013076782227 -0.145421013236046 0.000000000000000
0.348931968212128 -13.725544929504395 -0.961291670799255 0.000000000000000
1.005328774452209 -13.421304702758789 0.389674842357635 0.000000000000000
0.350706756114960 -7.160972595214844 0.876883029937744 0.000000000000000
-0.529385745525360 -17.920860290527344 3.270838737487793 0.003921568859369
0.301062554121017 -13.713476181030273 -0.960462093353271 0.000000000000000
0.299438118934631 -14.060912132263184 1.725252151489258 0.000000000000000
-0.580752193927765 -17.705471038818359 3.232053279876709 0.003921568859369
0.253133833408356 -13.721191406250000 -0.961024284362793 0.000000000000000
0.326153755187988 -3.665300607681274 0.979370951652527 0.000000000000000
-0.655147314071655 -17.926050186157227 3.272977352142334 0.003921568859369
0.205707430839539 -13.676868438720703 -0.957967698574066 0.000000000000000
0.253091841936111 -9.256649971008301 1.134606003761292 0.000000000000000
-0.719128966331482 -17.945991516113281 3.277278423309326 0.003921568859369
0.157451540231705 -13.712179183959961 -0.960478603839874 0.000000000000000
-0.062365710735321 -6.568285942077637 0.265508532524109 0.000000000000000
-0.783013701438904 -17.961776733398438 3.280861139297485 0.003921568859369
-1.442385315895081 -26.907785415649414 -0.784332156181335 0.003921568859369
0.110080316662788 -13.683485031127930 -0.958535492420197 0.000000000000000
-0.851476550102234 -18.044080734252930 3.296651363372803 0.003921568859369
0.061637639999390 -13.714468002319336 -0.960768103599548 0.000000000000000
-0.907013416290283 -17.933784484863281 3.277255058288574 0.003921568859369
0.014552652835846 -13.681454658508301 -0.958546638488770 0.000000000000000
0.703113853931427 -14.501073837280273 -0.930961191654205 0.000000000000000
-0.978006839752197 -18.043081283569336 3.298071861267090 0.003921568859369
-0.033994346857071 -13.708111763000488 -0.960501015186310 0.000000000000000
0.650676608085632 -14.414405822753906 -0.925353229045868 0.000000000000000
-1.036136746406555 -17.975557327270508 3.286574363708496 0.003921568859369
-0.083616942167282 -13.762513160705566 -0.964404046535492 0.000000000000000
0.598711550235748 -14.319566726684570 -0.919234871864319 0.000000000000000
-1.104267358779907 -18.037277221679688 3.298774242401123 0.003921568859369
-0.123641312122345 -13.748906135559082 -0.963508307933807 0.000000000000000
0.555609703063965 -14.268410682678223 -0.915846943855286 0.000000000000000
0.198030352592468 -4.195711612701416 -0.003091221908107 0.000000000000000
-0.172404736280441 -13.767067909240723 -0.964905917644501 0.000000000000000
0.505312621593475 -14.221102714538574 -0.912791311740875 0.000000000000000
-0.627411246299744 -11.249033927917480 2.057222366333008 0.000000000000000
-0.243975192308426 -6.619210243225098 -0.041349295526743 0.000000000000000
-0.222143918275833 -13.804990768432617 -0.967695295810699 0.000000000000000
0.455453366041183 -14.189586639404297 -0.910756170749664 0.000000000000000
-0.271243363618851 -13.822804450988770 -0.969093084335327 0.000000000000000
0.405854254961014 -14.169872283935547 -0.909486472606659 0.000000000000000
-0.318644851446152 -13.852516174316406 -0.971325576305389 0.000000000000000
0.358863949775696 -14.145992279052734 -0.907961249351501 0.000000000000000
-2.121648073196411 -16.794170379638672 -0.593993484973907 0.003921568859369
-2.472046852111816 -18.712375640869141 0.219521954655647 0.003921568859369
-0.367415577173233 -13.858030319213867 -0.971888482570648 0.000000000000000
0.309555172920227 -14.125943183898926 -0.906691551208496 0.000000000000000
-2.169489145278931 -16.714258193969727 -0.591500580310822 0.003921568859369
-2.523880243301392 -18.615419387817383 0.218474119901657 0.003921568859369
-0.419136613607407 -13.915165901184082 -0.976069867610931 0.000000000000000
0.260299503803253 -14.117693901062012 -0.906187176704407 0.000000000000000
-2.183398723602295 -16.418960571289062 -0.968860983848572 0.003921568859369
-1.541427731513977 -18.074281692504883 -0.953338503837585 0.003921568859369
-2.195383548736572 -16.495950698852539 -0.584143877029419 0.003921568859369
-2.673383235931396 -19.138540267944336 0.224835827946663 0.003921568859369
-0.468657106161118 -13.928291320800781 -0.977189421653748 0.000000000000000
0.210974141955376 -14.121248245239258 -0.906448185443878 0.000000000000000
-2.235073804855347 -16.374486923217773 -0.966782093048096 0.003921568859369
-1.589395523071289 -17.928543090820312 -0.946043193340302 0.003921568859369
-2.234804630279541 -16.372430801391602 -0.580122232437134 0.003921568859369
-2.719053745269775 -18.997545242309570 0.223268672823906 0.003921568859369
-0.519783020019531 -13.965135574340820 -0.979979157447815 0.000000000000000
0.161792919039726 -14.112658500671387 -0.905943870544434 0.000000000000000
-2.283911466598511 -16.314081192016602 -0.963775336742401 0.003921568859369
-1.184493422508240 -13.756798744201660 0.562489032745361 0.000000000000000
-2.291941165924072 -16.363269805908203 -0.580130636692047 0.003921568859369
-2.772280693054199 -18.907760620117188 0.222315073013306 0.003921568859369
-0.571974396705627 -14.013738632202148 -0.983604073524475 0.000000000000000
0.112386018037796 -14.119859695434570 -0.906460106372833 0.000000000000000
-2.308215141296387 -16.107772827148438 -0.952187120914459 0.003921568859369
-2.349049806594849 -16.353912353515625 -0.580139040946960 0.003921568859369
0.040382862091064 -15.193215370178223 -0.266426771879196 0.000000000000000
-2.811563730239868 -18.738964080810547 0.220417782664299 0.003921568859369
-0.622003078460693 -14.026319503784180 -0.984723806381226 0.000000000000000
0.063181877136230 -14.114916801452637 -0.906211018562317 0.000000000000000
-2.377089023590088 -16.173164367675781 -0.956602275371552 0.003921568859369
-2.380102634429932 -16.190635681152344 -0.574727535247803 0.003921568859369
-2.869465589523315 -18.684425354003906 0.219888985157013 0.003921568859369
0.013517767190933 -14.129756927490234 -0.907237529754639 0.000000000000000
-2.398163557052612 -15.958897590637207 -0.944549977779388 0.003921568859369
-2.419583320617676 -16.082489013671875 -0.571261525154114 0.003921568859369
-2.911067008972168 -18.582401275634766 0.218910381197929 0.003921568859369
-0.028757512569427 -14.148374557495117 -0.908447146415710 0.000000000000000
-2.412937164306641 -15.760382652282715 -0.933343648910522 0.003921568859369
-2.464622020721436 -16.052968978881836 -0.570489645004272 0.003921568859369
-0.078773707151413 -14.166851043701172 -0.909728944301605 0.000000000000000
-2.458737850189209 -15.699485778808594 -0.930337607860565 0.000000000000000
-2.476724624633789 -15.799059867858887 -0.561884701251984 0.003921568859369
0.126758694648743 -6.885552406311035 -0.122925505042076 0.000000000000000
-0.129625678062439 -14.205099105834961 -0.912286221981049 0.000000000000000
-2.554246902465820 -15.910919189453125 -0.566200435161591 0.003921568859369
-0.181207954883575 -14.255130767822266 -0.915608763694763 0.000000000000000
-1.219744682312012 -11.577402114868164 2.128990173339844 0.000000000000000
-0.231469154357910 -14.265091896057129 -0.916380584239960 0.000000000000000
-1.432448625564575 -19.021785736083984 -0.000513957114890 0.003921568859369
-2.312948703765869 -18.587543487548828 0.327120482921600 0.003921568859369
-0.282899618148804 -14.298800468444824 -0.918682932853699 0.000000000000000
-1.088174343109131 -10.093844413757324 1.857517004013062 0.000000000000000
-0.330342054367065 -14.348517417907715 -0.922005057334900 0.000000000000000
-0.567594170570374 -6.345460414886475 -0.339038640260696 0.000000000000000
-2.140912055969238 -16.595205307006836 -0.489553779363632 0.000000000000000
-2.167145729064941 -16.769134521484375 -0.889909446239471 0.003921568859369
-2.235514640808105 -16.823425292968750 -0.496503472328186 0.000000000000000
-1.054639816284180 -9.192695617675781 -0.489909529685974 0.000000000000000
-2.236958503723145 -16.471113204956055 -0.486447513103485 0.000000000000000
-2.854953765869141 -15.444594383239746 -0.552366852760315 0.003921568859369
-2.286141395568848 -16.410610198974609 -0.484952419996262 0.000000000000000
-2.728609085083008 -14.584581375122070 -0.869887053966522 0.000000000000000
-2.908848285675049 -15.433250427246094 -0.552375674247742 0.003921568859369
-2.346275806427002 -16.400770187377930 -0.484961718320847 0.000000000000000
-2.759269714355469 -14.467750549316406 -0.863634109497070 0.000000000000000
-2.331264495849609 -16.310422897338867 -0.867617666721344 0.003921568859369
-2.395910263061523 -16.391160964965820 -0.484880566596985 0.000000000000000
-1.618360042572021 -16.727611541748047 0.980275750160217 0.000000000000000
-2.363934516906738 -16.202404022216797 -0.862321972846985 0.003921568859369
-2.900047779083252 -14.901804924011230 -0.534261286258698 0.003921568859369
-2.419096469879150 -16.184385299682617 -0.479107737541199 0.000000000000000
-1.899841427803040 -18.539649963378906 -0.000544182956219 0.003921568859369
-2.386494636535645 -15.995929718017578 -0.851899802684784 0.003921568859369
-2.438086509704590 -15.978143692016602 -0.473334193229675 0.000000000000000
-3.510571002960205 -17.122079849243164 0.203377306461334 0.003921568859369
-2.908448696136475 -14.469799995422363 -0.865683615207672 0.000000000000000
-2.439527988433838 -15.986681938171387 -0.851908504962921 0.003921568859369
-2.951866626739502 -14.660849571228027 -0.526499688625336 0.000000000000000
-2.496634483337402 -15.967723846435547 -0.473343819379807 0.000000000000000
-3.549917697906494 -17.006393432617188 0.202137947082520 0.003921568859369
-2.969547271728516 -14.492684364318848 -0.867779791355133 0.000000000000000
-2.491035938262939 -15.936940193176270 -0.849831819534302 0.003921568859369
-2.320001125335693 -14.982731819152832 2.774587631225586 0.000000000000000
-2.516281127929688 -15.760966300964355 -0.467570513486862 0.000000000000000
-2.051039695739746 -18.193649291992188 -0.000634258147329 0.003921568859369
-3.587345123291016 -16.899126052856445 0.200993686914444 0.003921568859369
-2.481775760650635 -15.573228836059570 -0.831063985824585 0.000000000000000
-1.402991890907288 -9.692005157470703 0.802243173122406 0.000000000000000
-3.624846935272217 -16.808073043823242 0.200038999319077 0.003921568859369
-3.053332328796387 -14.407422065734863 -0.864087045192719 0.000000000000000
-3.668467044830322 -16.731801986694336 0.199272811412811 0.003921568859369
-3.704969406127930 -16.615873336791992 0.198033779859543 0.003921568859369
-3.596841335296631 -16.176109313964844 -0.582949399948120 0.003921568859369
-3.738798141479492 -16.529230117797852 0.197126984596252 0.003921568859369
-3.657297134399414 -16.202341079711914 -0.584347724914551 0.003921568859369
-2.137146949768066 -16.660219192504883 -0.785845696926117 0.000000000000000
-3.707959651947021 -16.164911270141602 -0.583524227142334 0.003921568859369
-2.153553962707520 -16.768590927124023 -0.395574569702148 0.000000000000000
-2.521362304687500 -18.718715667724609 0.440202832221985 0.000000000000000
-3.825055599212646 -16.363029479980469 0.195452213287354 0.003921568859369
-3.355427265167236 -14.534264564514160 -0.875495076179504 0.000000000000000
-2.194993019104004 -16.610960006713867 -0.784002006053925 0.000000000000000
-3.784911632537842 -16.207191467285156 -0.585619449615479 0.003921568859369
-2.201415061950684 -16.652053833007812 -0.393092095851898 0.000000000000000
-3.284698486328125 -17.525125503540039 -0.521998524665833 0.000000000000000
-2.531763076782227 -18.362026214599609 -0.000661392230541 0.003921568859369
-3.862998962402344 -16.274726867675781 0.194544613361359 0.003921568859369
-3.387020587921143 -14.447728157043457 -0.871098160743713 0.000000000000000
-0.550985276699066 -5.851487636566162 -0.278987377882004 0.000000000000000
-3.792098522186279 -16.003009796142578 -0.578821778297424 0.003921568859369
-2.259528160095215 -16.642957687377930 -0.393101394176483 0.000000000000000
-3.888137578964233 -16.191680908203125 0.193765640258789 0.003921568859369
-3.424785852432251 -14.435811996459961 -0.871046781539917 0.000000000000000
-2.246519327163696 -16.277954101562500 -0.769098222255707 0.000000000000000
-2.849456787109375 -15.238403320312500 -0.817709565162659 0.000000000000000
-3.836782693862915 -15.997544288635254 -0.579030692577362 0.003921568859369
-2.258912563323975 -16.354272842407227 -0.386464178562164 0.000000000000000
-3.926772356033325 -16.098646163940430 0.192809000611305 0.003921568859369
-3.464249134063721 -14.371612548828125 -0.868042767047882 0.000000000000000
-2.299648523330688 -16.228778839111328 -0.767254590988159 0.000000000000000
-2.756044149398804 -14.535348892211914 -0.780796229839325 0.000000000000000
-3.876784563064575 -15.912461280822754 -0.576541781425476 0.003921568859369
-2.316882371902466 -16.332645416259766 -0.386197447776794 0.000000000000000
-0.696611821651459 -4.911341190338135 -0.149612113833427 0.000000000000000
-3.966880559921265 -16.013261795043945 0.191946938633919 0.003921568859369
-3.530509710311890 -14.407509803771973 -0.871066987514496 0.000000000000000
-2.352456092834473 -16.179441452026367 -0.765411198139191 0.000000000000000
-3.918316125869751 -15.835014343261719 -0.574330508708954 0.003921568859369
-2.342065811157227 -16.117603302001953 -0.381408840417862 0.000000000000000
-2.939871072769165 -14.894161224365234 -0.445509701967239 0.000000000000000
-3.988534688949585 -15.895388603210449 0.190661191940308 0.003921568859369
-3.575756549835205 -14.395143508911133 -0.871075689792633 0.000000000000000
-2.397848129272461 -16.139263153076172 -0.763936877250671 0.000000000000000
-3.958506822586060 -15.786731719970703 -0.573090016841888 0.003921568859369
-2.410346746444702 -16.211423873901367 -0.383816838264465 0.000000000000000
-2.968856573104858 -14.781088829040527 -0.442512750625610 0.000000000000000
-4.039702892303467 -15.864620208740234 0.190461426973343 0.003921568859369
-3.625985383987427 -14.381236076354980 -0.871085405349731 0.000000000000000
-2.393258333206177 -15.783153533935547 -0.747634828090668 0.000000000000000
-3.980314970016479 -15.652105331420898 -0.568794608116150 0.003921568859369
-2.466922521591187 -16.201574325561523 -0.383826494216919 0.000000000000000
-3.013826370239258 -18.903940200805664 -0.000493174884468 0.003921568859369
-3.678672552108765 -14.366445541381836 -0.871095597743988 0.000000000000000
-0.851357877254486 -6.868767261505127 0.403684645891190 0.000000000000000
-1.537433624267578 -10.687856674194336 -0.507970273494720 0.000000000000000
-2.956007719039917 -14.478423118591309 -0.780207097530365 0.000000000000000
-1.625319242477417 -8.706454277038574 1.626860260963440 0.000000000000000
-2.526289939880371 -16.191019058227539 -0.383836686611176 0.000000000000000
-1.956782579421997 -17.567245483398438 0.102366909384727 0.003921568859369
-3.760691881179810 -14.463505744934082 -0.877829551696777 0.000000000000000
-2.482364177703857 -15.633184432983398 -0.741537153720856 0.000000000000000
-3.034776210784912 -14.587243080139160 -0.786683559417725 0.000000000000000
-4.086709022521973 -15.601266860961914 -0.568121850490570 0.003921568859369
-2.582792282104492 -16.180765151977539 -0.383846431970596 0.000000000000000
-1.998045682907104 -17.412338256835938 0.101467572152615 0.003921568859369
-3.821177721023560 -14.483467102050781 -0.879926264286041 0.000000000000000
-4.250353813171387 -15.961800575256348 -0.581745743751526 0.003921568859369
-3.379711866378784 -20.126585006713867 5.486687660217285 0.003921568859369
-2.565795660018921 -15.777224540710449 -0.374626696109772 0.000000000000000
-3.862699270248413 -14.438055038452148 -0.878081202507019 0.003921568859369
-1.388839483261108 -9.299259185791016 0.549024283885956 0.000000000000000
-0.383900582790375 -3.172418594360352 0.262984812259674 0.000000000000000
-3.209491968154907 -14.662713050842285 -0.440825045108795 0.000000000000000
-0.370148897171021 -3.073189258575439 0.254828602075577 0.000000000000000
-3.245830059051514 -14.579607009887695 -0.438753426074982 0.000000000000000
-3.977019548416138 -14.462346076965332 -0.881346881389618 0.000000000000000
-1.880506515502930 -9.093384742736816 0.379358023405075 0.000000000000000
-1.172998428344727 -7.873960018157959 0.983031809329987 0.000000000000000
-3.286914348602295 -14.528083801269531 -0.437606453895569 0.000000000000000
-4.036808967590332 -14.477590560913086 -0.883211970329285 0.000000000000000
-2.131971836090088 -16.676265716552734 -0.687999486923218 0.003921568859369
-2.175197362899780 -16.619260787963867 -0.294334799051285 0.003921568859369
-3.836286544799805 -16.490451812744141 -0.496513754129410 0.000000000000000
-4.136313438415527 -14.645182609558105 -0.894293427467346 0.000000000000000
-3.745942115783691 -16.138269424438477 -0.874285638332367 0.003921568859369
-2.174626350402832 -16.616004943847656 -0.685808181762695 0.003921568859369
-2.223836421966553 -16.550945281982422 -0.293310105800629 0.003921568859369
-3.473221540451050 -14.858086585998535 -0.448200792074203 0.000000000000000
-4.173099517822266 -14.583557128906250 -0.891522049903870 0.000000000000000
-3.725852489471436 -15.829915046691895 -0.858443975448608 0.003921568859369
-2.221390008926392 -16.535884857177734 -0.682902157306671 0.003921568859369
-2.066053390502930 -11.780029296875000 3.222999334335327 0.000000000000000
-3.254120826721191 -17.482019424438477 -0.416307687759399 0.000000000000000
-2.278711795806885 -16.542184829711914 -0.293319672346115 0.003921568859369
-3.846536159515381 -16.074668884277344 -0.484974771738052 0.000000000000000
-4.235901832580566 -14.614027976989746 -0.894314348697662 0.000000000000000
-2.824386119842529 -15.169039726257324 -0.723558306694031 0.000000000000000
-2.255205869674683 -16.396926879882812 -0.677565515041351 0.003921568859369
-4.482263088226318 -15.392026901245117 -0.565222263336182 0.003921568859369
-3.351875066757202 -17.657617568969727 -0.420747220516205 0.000000000000000
-2.336443662643433 -16.532764434814453 -0.293329805135727 0.003921568859369
-3.892301082611084 -16.021152496337891 -0.483829855918884 0.000000000000000
-4.296638011932373 -14.628210067749023 -0.896179854869843 0.000000000000000
-2.766168594360352 -14.642134666442871 -0.699103355407715 0.000000000000000
-2.292917966842651 -16.269289016723633 -0.672715306282043 0.003921568859369
-4.545724868774414 -15.405381202697754 -0.566344738006592 0.003921568859369
-3.325846910476685 -17.237895965576172 -0.411162942647934 0.000000000000000
-2.339144229888916 -16.179559707641602 -0.287338197231293 0.003921568859369
-3.961466312408447 -16.043933868408203 -0.484997689723969 0.000000000000000
-4.358854293823242 -14.637520790100098 -0.897814154624939 0.000000000000000
-2.343227624893188 -16.204166412353516 -0.670457601547241 0.003921568859369
-4.567617416381836 -15.280714035034180 -0.562467694282532 0.003921568859369
-3.392437219619751 -17.239780426025391 -0.411543846130371 0.000000000000000
-2.383964300155640 -16.119180679321289 -0.286450743675232 0.003921568859369
-4.014646530151367 -16.029413223266602 -0.485008358955383 0.000000000000000
-4.407368659973145 -14.621690750122070 -0.897824466228485 0.000000000000000
-2.390169620513916 -16.155624389648438 -0.668846964836121 0.003921568859369
-4.622003555297852 -15.275584220886230 -0.562895178794861 0.003921568859369
-2.927570819854736 -14.885253906250000 -0.356191247701645 0.000000000000000
-2.443030357360840 -16.108901977539062 -0.286461263895035 0.003921568859369
-3.967085838317871 -15.631865501403809 -0.473573684692383 0.000000000000000
-4.460932254791260 -14.604006767272949 -0.897835969924927 0.000000000000000
-2.898913145065308 -14.506379127502441 -0.694313764572144 0.000000000000000
-3.721571922302246 -14.751366615295410 -0.804053246974945 0.000000000000000
-2.456292152404785 -16.184684753417969 -0.670477628707886 0.003921568859369
-1.306451201438904 -6.086106300354004 1.149170875549316 0.000000000000000
-2.496438503265381 -16.099416732788086 -0.286470800638199 0.003921568859369
-4.528409957885742 -14.644618988037109 -0.901324212551117 0.000000000000000
-2.952383279800415 -14.518752098083496 -0.695434927940369 0.000000000000000
-3.806287288665771 -14.864510536193848 -0.810947179794312 0.000000000000000
-1.734701633453369 -11.851720809936523 -0.492428272962570 0.000000000000000
