# This PCD file was generated using the MATLAB® pcwrite function
# from Computer Vision Toolbox®.
# .PCD v.7 - Point Cloud Data file format
VERSION .7
FIELDS x y z intensity
SIZE 8 8 8 8
TYPE F F F F
COUNT 1 1 1 1
WIDTH 638
HEIGHT 1
VIEWPOINT 0 0 0 1 0 0 0
POINTS 638
DATA ascii
17.161636352539062 -1.975765347480774 3.134629249572754 0.003921568859369
7.785295963287354 -1.301217675209045 -0.090955823659897 0.000000000000000
4.543588638305664 -0.140865266323090 -0.286032140254974 0.000000000000000
7.691066265106201 -0.266864210367203 0.221537679433823 0.000000000000000
6.523690223693848 -0.587157070636749 0.794085621833801 0.000000000000000
8.883264541625977 -0.986083030700684 2.370764732360840 0.000000000000000
11.851962089538574 -2.626598596572876 0.140278935432434 0.000000000000000
9.487853050231934 -1.755074381828308 -0.055579997599125 0.000000000000000
28.550006866455078 -5.423245429992676 2.365072965621948 0.003921568859369
8.852860450744629 -1.793717026710510 1.629367589950562 0.000000000000000
9.133953094482422 -1.427708506584167 -0.000019437649826 0.003921568859369
22.452760696411133 -5.814147949218750 -0.268936693668365 0.003921568859369
3.262891292572021 -0.705594599246979 0.591184258460999 0.000000000000000
24.493137359619141 -5.712309837341309 4.568137168884277 0.003921568859369
2.158179998397827 -0.518140614032745 0.172764748334885 0.000000000000000
20.351932525634766 -6.255109310150146 -0.246712192893028 0.003921568859369
20.267858505249023 -6.229133605957031 0.245658904314041 0.003921568859369
24.058437347412109 -4.903106212615967 6.551215648651123 0.003921568859369
20.071483612060547 -6.241067409515381 -0.243546247482300 0.003921568859369
22.525396347045898 -5.989989280700684 -0.675377488136292 0.003921568859369
23.695629119873047 -7.555114269256592 0.288366287946701 0.003921568859369
26.147972106933594 -5.610847949981689 3.270966529846191 0.003921568859369
7.176301956176758 -1.575087666511536 -0.000043709456804 0.000000000000000
10.685772895812988 -2.395685434341431 -0.000036761768570 0.003921568859369
18.858634948730469 -6.223234653472900 0.230011165142059 0.003921568859369
18.692712783813477 -6.240283489227295 -0.228275239467621 0.003921568859369
18.666170120239258 -6.231371879577637 0.227915525436401 0.003921568859369
18.471179962158203 -6.233750343322754 -0.225807666778564 0.003921568859369
18.446096420288086 -6.225236415863037 -0.676369488239288 0.003921568859369
23.192108154296875 -6.686727523803711 1.961569070816040 0.003921568859369
20.785434722900391 -6.067721843719482 1.758789896965027 0.003921568859369
22.732011795043945 -5.454522132873535 6.234457492828369 0.003921568859369
24.566177368164062 -8.591154098510742 0.301791161298752 0.003921568859369
24.802312850952148 -8.858508110046387 -0.305311530828476 0.003921568859369
23.293615341186523 -5.838887214660645 2.935131311416626 0.003921568859369
20.384649276733398 -6.258804321289062 -0.123291753232479 0.003921568859369
20.101430892944336 -6.240207195281982 -0.121689565479755 0.003921568859369
19.468452453613281 -6.042584419250488 1.655285835266113 0.003921568859369
19.116100311279297 -6.085809707641602 1.628921627998352 0.003921568859369
11.789349555969238 -3.119405508041382 3.238284826278687 0.000000000000000
23.825260162353516 -7.676198005676270 -0.144812047481537 0.003921568859369
18.936794281005859 -6.169971466064453 0.345771193504333 0.003921568859369
25.487058639526367 -9.815437316894531 0.316798061132431 0.003921568859369
18.830341339111328 -6.207513332366943 0.803402543067932 0.003921568859369
22.909601211547852 -6.342594623565674 2.905395746231079 0.003921568859369
18.745290756225586 -6.245238304138184 -0.114145793020725 0.000000000000000
18.532890319824219 -6.249179363250732 -0.112985737621784 0.000000000000000
4.283308982849121 -1.460655570030212 0.076814360916615 0.000000000000000
20.937976837158203 -6.260331630706787 0.505881905555725 0.003921568859369
19.783567428588867 -6.066909790039062 2.526628494262695 0.003921568859369
20.228891372680664 -6.273585319519043 0.000040324201109 0.003921568859369
25.200645446777344 -9.191620826721191 2.180692672729492 0.003921568859369
19.253002166748047 -6.115993499755859 1.169785022735596 0.003921568859369
18.962133407592773 -6.169287681579590 1.154222011566162 0.000000000000000
24.229562759399414 -7.983355045318604 1.478747129440308 0.003921568859369
18.764465332031250 -6.245321273803711 0.457397192716599 0.000000000000000
18.588489532470703 -6.258108615875244 0.000041187653551 0.003921568859369
25.813711166381836 -10.339586257934570 -0.805594503879547 0.003921568859369
24.785209655761719 -8.642953872680664 3.208262205123901 0.003921568859369
22.151006698608398 -6.618458747863770 0.133754014968872 0.003921568859369
20.510189056396484 -6.199097156524658 0.123888179659843 0.003921568859369
20.402439117431641 -6.166320800781250 0.616788268089294 0.003921568859369
20.212104797363281 -6.188944339752197 0.122209429740906 0.003921568859369
19.208694458007812 -6.240012168884277 0.584094762802124 0.003921568859369
8.305360794067383 -3.622860193252563 1.629186153411865 0.000000000000000
18.651258468627930 -6.273032188415527 -0.341167271137238 0.003921568859369
18.441175460815430 -6.269599437713623 -0.337681263685226 0.003921568859369
21.503969192504883 -10.012488365173340 1.926573395729065 0.003921568859369
21.466045379638672 -9.994698524475098 4.294994831085205 0.003921568859369
21.644882202148438 -9.521812438964844 2.887557983398438 0.003921568859369
25.565826416015625 -9.904671669006348 0.158910438418388 0.003921568859369
12.557013511657715 -5.705763816833496 3.660649776458740 0.000000000000000
12.429883003234863 -5.704571247100830 3.629588127136230 0.000000000000000
4.118827819824219 -2.087381839752197 0.818257272243500 0.000000000000000
21.142246246337891 -11.201416015625000 1.942636489868164 0.003921568859369
21.044776916503906 -11.432097434997559 1.944592237472534 0.003921568859369
8.762810707092285 -4.792135238647461 0.804293751716614 0.000000000000000
12.742610931396484 -7.064586162567139 2.632358789443970 0.000000000000000
13.769337654113770 -8.741147994995117 -0.565077066421509 0.003921568859369
7.339244842529297 -4.132387638092041 1.511422157287598 0.000000000000000
21.232515335083008 -10.962841033935547 2.917852640151978 0.003921568859369
11.161575317382812 -5.725532054901123 3.325165987014771 0.000000000000000
11.101249694824219 -5.738685607910156 3.310651779174805 0.000000000000000
10.830844879150391 -5.646837234497070 3.235064506530762 0.000000000000000
2.824325084686279 -1.632200598716736 0.254583626985550 0.000000000000000
7.539250373840332 -4.103505134582520 1.036528706550598 0.000000000000000
20.974466323852539 -11.669353485107422 1.390117883682251 0.003921568859369
5.324622154235840 -3.654001712799072 0.073237434029579 0.000000000000000
20.920246124267578 -11.830205917358398 1.391981244087219 0.003921568859369
13.778012275695801 -8.734955787658691 -0.094015285372734 0.000000000000000
21.309509277343750 -10.811811447143555 0.691656649112701 0.003921568859369
13.341796875000000 -8.841596603393555 1.295335769653320 0.000000000000000
6.102479457855225 -4.450954437255859 -0.086801357567310 0.000000000000000
12.807131767272949 -8.611385345458984 0.623131215572357 0.000000000000000
12.872552871704102 -8.721046447753906 0.627859473228455 0.000000000000000
13.968317985534668 -9.473170280456543 1.366657495498657 0.000000000000000
13.984350204467773 -8.588965415954590 4.359578609466553 0.003921568859369
12.747815132141113 -8.830663681030273 0.626229822635651 0.000000000000000
13.891152381896973 -8.726616859436035 1.996257901191711 0.003921568859369
13.788075447082520 -8.727964401245117 -0.376271307468414 0.000000000000000
17.668134689331055 -12.646985054016113 -0.627884924411774 0.003921568859369
13.756258010864258 -9.884000778198242 0.684445798397064 0.003921568859369
20.844518661499023 -12.246067047119141 0.699702501296997 0.003921568859369
13.644314765930176 -9.874639511108398 0.680532515048981 0.003921568859369
20.744037628173828 -12.479388236999512 0.140321269631386 0.003921568859369
14.127304077148438 -9.498297691345215 0.392852157354355 0.000000000000000
4.285496711730957 -3.102879285812378 0.938570499420166 0.000000000000000
12.088954925537109 -8.171702384948730 -0.000064074061811 0.000000000000000
4.539033889770508 -3.318228960037231 0.095123670995235 0.000000000000000
12.865689277648926 -8.704436302185059 0.896261930465698 0.000000000000000
12.988640785217285 -9.878195762634277 1.320429205894470 0.000000000000000
3.030478477478027 -2.212900161743164 0.062201928347349 0.000000000000000
8.164564132690430 -5.640220165252686 1.199800491333008 0.000000000000000
11.680096626281738 -8.124249458312988 3.772455692291260 0.000000000000000
3.290969610214233 -2.244940280914307 0.470151126384735 0.000000000000000
12.736538887023926 -9.335447311401367 0.911166429519653 0.000000000000000
10.690514564514160 -7.980321407318115 0.767974317073822 0.000000000000000
5.916923522949219 -4.447847843170166 -0.000579282059334 0.000000000000000
6.336715698242188 -5.349881172180176 1.485376119613647 0.000000000000000
8.268379211425781 -7.080793857574463 0.437353044748306 0.000000000000000
2.540231704711914 -1.779744267463684 0.084682159125805 0.000000000000000
6.898800849914551 -5.202522277832031 0.246387675404549 0.000000000000000
13.817284584045410 -11.683456420898438 2.203595161437988 0.003921568859369
4.030974388122559 -3.705122470855713 0.971402049064636 0.000000000000000
3.792096853256226 -3.097666740417480 -0.194001197814941 0.000000000000000
10.128704071044922 -9.851572990417480 3.745502471923828 0.000000000000000
7.240709781646729 -7.809087276458740 1.915215849876404 0.000000000000000
12.676290512084961 -16.049821853637695 1.658667922019958 0.003921568859369
8.010318756103516 -10.246544837951660 2.345860719680786 0.000000000000000
13.232891082763672 -16.170534133911133 0.000511605059728 0.003921568859369
11.834608078002930 -16.190782546997070 1.626415848731995 0.000000000000000
10.944621086120605 -15.053777694702148 3.368822574615479 0.003921568859369
12.829919815063477 -16.109678268432617 1.191425681114197 0.003921568859369
10.309314727783203 -16.229751586914062 -0.222088292241096 0.003921568859369
10.305057525634766 -16.222925186157227 0.222600281238556 0.003921568859369
4.447641372680664 -5.624832153320312 1.882251501083374 0.000000000000000
2.968347072601318 -4.109008312225342 0.401772886514664 0.000000000000000
11.419451713562012 -16.057947158813477 5.243046283721924 0.003921568859369
10.329514503479004 -16.243471145629883 0.334083855152130 0.003921568859369
3.103721380233765 -3.736282110214233 -0.302847445011139 0.000000000000000
10.382887840270996 -16.059625625610352 5.088716506958008 0.003921568859369
8.880531311035156 -16.458791732788086 3.388154745101929 0.003921568859369
3.513897180557251 -6.376030921936035 -0.042715437710285 0.000000000000000
4.874056339263916 -10.930731773376465 0.137478709220886 0.000000000000000
4.220782279968262 -8.382105827331543 0.755776286125183 0.000000000000000
4.588978290557861 -10.986465454101562 -0.138113737106323 0.000000000000000
7.319972038269043 -18.121355056762695 -0.226168513298035 0.003921568859369
3.955873489379883 -8.260991096496582 0.367694348096848 0.000000000000000
4.417550086975098 -9.824789047241211 -0.062784984707832 0.000000000000000
4.257131576538086 -8.669083595275879 0.221097409725189 0.000000000000000
2.697659015655518 -5.510297775268555 0.349028527736664 0.000000000000000
3.283304691314697 -6.974342346191406 0.175474256277084 0.000000000000000
6.531450748443604 -16.726694107055664 3.255935907363892 0.003921568859369
2.869816303253174 -7.081661224365234 -0.220728322863579 0.000000000000000
4.135646820068359 -9.219045639038086 0.231608748435974 0.000000000000000
7.498248100280762 -17.606115341186523 2.336701631546021 0.003921568859369
2.627869129180908 -8.030734062194824 -0.098621793091297 0.000000000000000
1.516344308853149 -3.086613178253174 0.888471722602844 0.000000000000000
2.955995082855225 -7.880184173583984 0.677994668483734 0.000000000000000
4.569254875183105 -9.564456939697266 0.304100692272186 0.000000000000000
1.662775993347168 -3.559085369110107 -0.001803264021873 0.000000000000000
4.663152694702148 -9.960189819335938 0.315785974264145 0.000000000000000
2.697449445724487 -5.590143203735352 0.033896494656801 0.000000000000000
1.465505838394165 -2.731103420257568 0.084667429327965 0.000000000000000
5.558715343475342 -16.714660644531250 3.195554256439209 0.003921568859369
1.802848577499390 -3.582633256912231 0.111435845494270 0.000000000000000
4.913693904876709 -12.776034355163574 0.315657138824463 0.000000000000000
4.869919776916504 -11.059618949890137 0.068874739110470 0.000000000000000
6.177023410797119 -19.380008697509766 -0.117478713393211 0.003921568859369
2.643859148025513 -7.850004196166992 -0.239818096160889 0.000000000000000
2.775850296020508 -8.359848976135254 0.354033052921295 0.000000000000000
3.361865997314453 -8.953601837158203 1.161017060279846 0.000000000000000
2.568362236022949 -7.965254306793213 -0.049470908939838 0.000000000000000
2.604974985122681 -6.812570095062256 0.165965825319290 0.000000000000000
4.542907714843750 -12.531841278076172 3.545194625854492 0.000000000000000
3.113678932189941 -10.283989906311035 -0.063004687428474 0.000000000000000
1.467841982841492 -5.364304065704346 -0.065652646124363 0.000000000000000
4.467360973358154 -12.898715019226074 3.632184982299805 0.000000000000000
4.837957382202148 -16.808877944946289 3.174665927886963 0.003921568859369
4.770242214202881 -16.802597045898438 3.170351982116699 0.003921568859369
3.084196090698242 -8.830949783325195 0.214334458112717 0.000000000000000
3.921418428421021 -9.788952827453613 0.302844583988190 0.000000000000000
7.197637557983398 -21.860582351684570 1.335735559463501 0.003921568859369
4.719492435455322 -16.836376190185547 3.173936605453491 0.003921568859369
2.348440408706665 -9.891785621643066 0.116462118923664 0.000000000000000
4.655758380889893 -16.832668304443359 3.170341014862061 0.003921568859369
3.018159866333008 -8.841624259948730 -0.001182310748845 0.003921568859369
2.276251077651978 -9.722875595092773 0.114341005682945 0.000000000000000
4.978732109069824 -12.927331924438477 0.399635672569275 0.000000000000000
4.587223529815674 -16.821844100952148 3.165309190750122 0.003921568859369
3.382202863693237 -12.227459907531738 1.028593182563782 0.000000000000000
4.548794746398926 -16.861879348754883 3.170323848724365 0.003921568859369
4.232697963714600 -13.069321632385254 -0.000634451746009 0.000000000000000
3.825862169265747 -9.928390502929688 0.305601716041565 0.000000000000000
4.484222412109375 -16.853683471679688 3.166009902954102 0.003921568859369
4.543036460876465 -17.348375320434570 -0.103951238095760 0.000000000000000
4.424427032470703 -16.864351272583008 3.165285825729370 0.003921568859369
4.358905792236328 -16.864040374755859 3.162407398223877 0.003921568859369
3.203939437866211 -10.033513069152832 0.241972491145134 0.000000000000000
2.480090141296387 -11.717897415161133 0.137763693928719 0.000000000000000
3.986596107482910 -12.741715431213379 1.627962231636047 0.000000000000000
4.298194885253906 -16.870435714721680 3.160965681076050 0.003921568859369
4.356115341186523 -14.196010589599609 0.343048363924026 0.000000000000000
0.954143404960632 -2.787806749343872 0.047863733023405 0.000000000000000
4.241332530975342 -16.879758834838867 3.160241842269897 0.003921568859369
4.182382106781006 -16.893404006958008 3.160235881805420 0.003921568859369
2.341030597686768 -9.024283409118652 0.375653922557831 0.000000000000000
2.767837285995483 -10.915088653564453 0.912515640258789 0.000000000000000
4.116968154907227 -16.892152786254883 3.157357215881348 0.003921568859369
4.065655231475830 -16.939937591552734 3.163813352584839 0.003921568859369
3.181641340255737 -8.893054962158203 0.270852565765381 0.000000000000000
4.000211238861084 -16.910032272338867 3.155909538269043 0.003921568859369
3.947292089462280 -16.965791702270508 3.163800954818726 0.003921568859369
3.063354969024658 -8.740447044372559 -0.161236703395844 0.000000000000000
1.813314914703369 -9.402038574218750 0.109546177089214 0.000000000000000
3.231076717376709 -9.271824836730957 0.281836241483688 0.000000000000000
2.895328760147095 -9.863574028015137 1.251191735267639 0.000000000000000
1.275487661361694 -3.698518514633179 1.022939085960388 0.000000000000000
3.875040531158447 -16.916801452636719 3.152306795120239 0.003921568859369
3.834132432937622 -13.590076446533203 0.326053082942963 0.000000000000000
3.832227230072021 -16.955455780029297 3.157317161560059 0.003921568859369
3.768293857574463 -16.944511413574219 3.153002738952637 0.003921568859369
3.747947454452515 -13.649093627929688 -0.000659520504996 0.000000000000000
2.233374595642090 -9.590875625610352 0.169457197189331 0.000000000000000
4.440088748931885 -16.398523330688477 0.984603404998779 0.000000000000000
3.219495296478271 -11.723195075988770 0.702545225620270 0.000000000000000
3.586175680160522 -16.956607818603516 3.148675441741943 0.003921568859369
3.662793636322021 -11.437059402465820 0.345966368913651 0.000000000000000
3.535022735595703 -17.010465621948242 3.156566381454468 0.003921568859369
3.312028408050537 -12.467638969421387 -0.299264043569565 0.000000000000000
3.528262376785278 -17.287998199462891 3.206101417541504 0.003921568859369
3.300579309463501 -17.073205947875977 3.160129785537720 0.003921568859369
3.058449029922485 -10.012630462646484 0.301049888134003 0.000000000000000
3.221972465515137 -16.955039978027344 3.136430025100708 0.003921568859369
1.598799943923950 -5.883874416351318 -0.001780593534932 0.000000000000000
3.182333230972290 -17.081521987915039 3.157962799072266 0.003921568859369
1.280218839645386 -6.109765052795410 1.126007914543152 0.000000000000000
1.544700741767883 -6.110715389251709 0.361193031072617 0.000000000000000
4.384205341339111 -16.374755859375000 0.490756779909134 0.003921568859369
2.726314783096313 -12.224248886108398 3.337783813476562 0.000000000000000
1.891459941864014 -10.990465164184570 -0.324372172355652 0.000000000000000
1.422259807586670 -5.815313816070557 -0.001876874826849 0.000000000000000
2.202590227127075 -9.928747177124023 0.587289035320282 0.000000000000000
2.260173797607422 -14.660884857177734 -0.431197494268417 0.000000000000000
1.781459689140320 -11.351024627685547 0.933180391788483 0.000000000000000
1.599252104759216 -10.217557907104492 0.178398907184601 0.000000000000000
1.695814847946167 -7.855265617370605 0.977730572223663 0.000000000000000
1.340840816497803 -8.155846595764160 0.669467568397522 0.000000000000000
2.013607501983643 -13.853617668151855 -0.732376515865326 0.000000000000000
0.911528348922729 -3.548044919967651 0.439377635717392 0.000000000000000
0.748240470886230 -1.989961147308350 0.056748099625111 0.000000000000000
2.437751531600952 -19.556629180908203 3.586450338363647 0.003921568859369
1.345706701278687 -9.757781982421875 -0.058523889631033 0.000000000000000
0.818321466445923 -5.050196170806885 0.412191480398178 0.000000000000000
1.198194384574890 -9.288178443908691 1.699561595916748 0.000000000000000
1.364565253257751 -5.460399150848389 -0.099026940762997 0.000000000000000
1.053975820541382 -5.200388908386230 -0.002065676730126 0.000000000000000
1.185760021209717 -9.916646957397461 0.811166763305664 0.000000000000000
1.130002021789551 -9.274579048156738 1.695963144302368 0.000000000000000
2.213464736938477 -10.318335533142090 -0.184420123696327 0.000000000000000
3.209875106811523 -21.719558715820312 2.690537929534912 0.003921568859369
1.538438320159912 -17.346164703369141 3.169917583465576 0.003921568859369
0.481745779514313 -10.945281028747559 -0.128963530063629 0.000000000000000
1.987707853317261 -10.471653938293457 -0.186419665813446 0.000000000000000
1.673652410507202 -12.385563850402832 0.724401533603668 0.000000000000000
0.350555330514908 -2.538781881332397 -0.032098721712828 0.000000000000000
1.382118940353394 -10.364805221557617 -0.729991555213928 0.000000000000000
0.985422432422638 -13.447019577026367 -0.079399518668652 0.000000000000000
1.032162904739380 -14.419767379760742 2.631391525268555 0.000000000000000
0.783777952194214 -3.210274219512939 0.091981641948223 0.000000000000000
2.987367391586304 -18.942319869995117 -0.779507577419281 0.003921568859369
1.048712253570557 -17.255094528198242 3.148311853408813 0.003921568859369
0.727293968200684 -10.213612556457520 0.832905530929565 0.000000000000000
0.938847661018372 -7.152143001556396 0.165129229426384 0.000000000000000
1.061887025833130 -5.416991710662842 0.156979501247406 0.000000000000000
0.500655472278595 -4.619933128356934 0.840770423412323 0.000000000000000
1.528358936309814 -9.170582771301270 0.267569869756699 0.000000000000000
2.937172889709473 -20.623428344726562 0.604950487613678 0.003921568859369
1.211891412734985 -11.956087112426758 0.277679443359375 0.000000000000000
1.704612731933594 -11.158803939819336 -0.459353357553482 0.000000000000000
0.700683176517487 -17.407850265502930 3.174107551574707 0.003921568859369
1.775828242301941 -12.426198959350586 -0.510809838771820 0.000000000000000
0.639508485794067 -17.385393142700195 3.169790983200073 0.003921568859369
2.972162723541260 -23.514207839965820 0.688961923122406 0.003921568859369
0.578061401844025 -17.331245422363281 3.159731149673462 0.003921568859369
0.518118798732758 -17.387052536010742 3.169773578643799 0.003921568859369
0.436382174491882 -14.164734840393066 -0.413414448499680 0.000000000000000
0.379696935415268 -12.020493507385254 2.190482139587402 0.000000000000000
0.336015522480011 -17.407625198364258 3.173337221145630 0.003921568859369
0.655322611331940 -6.786233425140381 0.156110897660255 0.000000000000000
1.342084884643555 -22.011116027832031 1.283160328865051 0.003921568859369
0.282792747020721 -17.415370941162109 3.174764633178711 0.003921568859369
1.123015046119690 -20.307319641113281 2.495079755783081 0.003921568859369
0.225791513919830 -11.444146156311035 0.932893097400665 0.000000000000000
0.161202475428581 -17.414484024047852 3.174746990203857 0.003921568859369
0.627783894538879 -7.307726383209229 -0.172120854258537 0.000000000000000
1.073834419250488 -8.659421920776367 -0.153399363160133 0.000000000000000
1.590893387794495 -14.838869094848633 0.085654243826866 0.000000000000000
0.099790230393410 -17.457008361816406 3.182635307312012 0.003921568859369
1.265949726104736 -11.461475372314453 0.333313941955566 0.000000000000000
0.035946696996689 -17.448110580444336 3.181190252304077 0.003921568859369
0.756154298782349 -5.564031600952148 0.030315065756440 0.000000000000000
1.579884648323059 -16.826841354370117 0.490385085344315 0.003921568859369
-0.082821190357208 -17.445575714111328 3.181172847747803 0.003921568859369
-0.205110698938370 -17.457868576049805 3.184026002883911 0.003921568859369
-0.266606301069260 -17.471561431884766 3.186888933181763 0.003921568859369
-0.328202098608017 -17.485034942626953 3.189751386642456 0.003921568859369
0.050187915563583 -6.250518321990967 0.107114598155022 0.000000000000000
0.206086829304695 -21.239542007446289 -0.989778757095337 0.003921568859369
-0.368284910917282 -12.940989494323730 -0.680727124214172 0.000000000000000
-0.625949859619141 -17.529659271240234 3.200474977493286 0.003921568859369
0.132834494113922 -21.154977798461914 -0.985890686511993 0.003921568859369
-0.687136888504028 -17.526124954223633 3.200465679168701 0.003921568859369
0.283087939023972 -5.229743480682373 -0.368027478456497 0.000000000000000
0.225124850869179 -9.317025184631348 2.495337247848511 0.000000000000000
-0.747818112373352 -17.514520645141602 3.199020385742188 0.003921568859369
0.557705521583557 -6.418880462646484 -0.114158183336258 0.000000000000000
-0.811044812202454 -17.541973114013672 3.204754352569580 0.003921568859369
0.106501251459122 -11.872154235839844 0.690157890319824 0.000000000000000
-0.000604391098022 -16.947671890258789 2.080649614334106 0.003921568859369
-0.873649120330811 -17.557416915893555 3.208334445953369 0.003921568859369
-0.935799956321716 -17.564790725708008 3.210478782653809 0.003921568859369
-0.158703774213791 -18.368503570556641 1.069489717483521 0.000000000000000
-0.247471958398819 -7.837522983551025 0.639810204505920 0.000000000000000
0.545849204063416 -10.909159660339355 0.061905413866043 0.000000000000000
-0.273185491561890 -16.538553237915039 0.962977588176727 0.000000000000000
0.112505137920380 -5.988061904907227 0.137325435876846 0.000000000000000
0.515402436256409 -21.992328643798828 -0.896256208419800 0.003921568859369
-1.240316510200500 -17.602266311645508 3.221917867660522 0.003921568859369
0.445501565933228 -21.776876449584961 -0.887499094009399 0.003921568859369
-1.297090768814087 -17.612813949584961 3.224781036376953 0.003921568859369
0.369447737932205 -21.625150680541992 -0.881340563297272 0.003921568859369
-1.358947396278381 -17.610822677612305 3.225489139556885 0.003921568859369
-0.144526064395905 -9.719179153442383 -0.455155253410339 0.000000000000000
0.290429979562759 -21.553083419799805 -0.878429651260376 0.003921568859369
-1.425873398780823 -17.627880096435547 3.229786396026611 0.003921568859369
0.181531384587288 -3.489272832870483 -0.083774082362652 0.000000000000000
0.315357685089111 -7.055807113647461 0.203374639153481 0.000000000000000
0.215966105461121 -21.440790176391602 -0.873894512653351 0.003921568859369
0.313064396381378 -4.913982868194580 -0.088054448366165 0.000000000000000
0.140497326850891 -21.500085830688477 -0.876340866088867 0.003921568859369
0.068430155515671 -21.555175781250000 -0.878624439239502 0.003921568859369
-1.613004922866821 -17.659355163574219 3.239090204238892 0.003921568859369
-0.727442979812622 -9.452429771423340 0.774995923042297 0.000000000000000
-1.675993204116821 -17.664072036743164 3.241233825683594 0.003921568859369
-1.742590188980103 -17.672109603881836 3.244095087051392 0.003921568859369
0.210691004991531 -6.343894958496094 -0.260676681995392 0.000000000000000
-1.805495262145996 -17.700176239013672 3.250546455383301 0.003921568859369
-0.339304924011230 -9.610691070556641 -0.226053759455681 0.000000000000000
-0.212581932544708 -4.566875934600830 0.185203433036804 0.000000000000000
-1.870853900909424 -17.696012496948242 3.251253843307495 0.003921568859369
-0.520812273025513 -6.882795810699463 1.263479590415955 0.000000000000000
0.157216876745224 -6.184622764587402 0.177997127175331 0.000000000000000
-2.002383232116699 -17.820817947387695 3.277078390121460 0.003921568859369
-1.111897706985474 -10.559711456298828 0.868802428245544 0.000000000000000
-0.538358390331268 -21.749990463256836 -0.887319803237915 0.003921568859369
0.230037555098534 -3.125190496444702 -0.129978358745575 0.000000000000000
-0.694982230663300 -21.998964309692383 -0.897734105587006 0.003921568859369
-0.876231849193573 -8.254220962524414 0.338113754987717 0.000000000000000
-0.856217920780182 -21.990550994873047 -0.897758483886719 0.003921568859369
-0.930010616779327 -8.220806121826172 0.677508115768433 0.000000000000000
-0.925875484943390 -21.866439819335938 -0.892898440361023 0.003921568859369
-1.232539653778076 -9.929846763610840 0.407951354980469 0.000000000000000
-2.000723123550415 -10.984971046447754 -0.132721871137619 0.000000000000000
-0.920788526535034 -10.323165893554688 1.275879740715027 0.000000000000000
-0.563370108604431 -11.257883071899414 -0.198848232626915 0.000000000000000
-5.698202610015869 -25.938745498657227 -0.310807168483734 0.003921568859369
-1.400900125503540 -13.363516807556152 1.653965234756470 0.000000000000000
-5.754448890686035 -25.773406982421875 -0.309112012386322 0.003921568859369
-0.750078201293945 -6.040895462036133 1.118415713310242 0.000000000000000
-5.853969573974609 -25.811241149902344 -0.309820413589478 0.003921568859369
-0.531294941902161 -6.495869159698486 1.755703806877136 0.000000000000000
-5.958065986633301 -25.827066421508789 -0.310299277305603 0.003921568859369
-0.529358386993408 -6.315101623535156 0.369408220052719 0.000000000000000
-6.067515850067139 -25.882408142089844 -0.311239868402481 0.003921568859369
-2.083352565765381 -12.451852798461914 0.219860732555389 0.000000000000000
-0.849540233612061 -8.333504676818848 1.032403349876404 0.000000000000000
-2.346433401107788 -13.780183792114258 2.559791564941406 0.000000000000000
-6.161525249481201 -25.912443161010742 -0.311855286359787 0.003921568859369
-0.489579409360886 -8.604083061218262 -0.354301869869232 0.000000000000000
-6.273777961730957 -25.974693298339844 -0.312888622283936 0.003921568859369
-2.253884077072144 -12.864492416381836 1.070367455482483 0.000000000000000
-6.394100666046143 -26.046909332275391 -0.314061611890793 0.003921568859369
-1.355333924293518 -10.979912757873535 0.645652472972870 0.000000000000000
-6.490633487701416 -26.062982559204102 -0.314539372920990 0.003921568859369
-6.592569351196289 -26.108406066894531 -0.315387129783630 0.003921568859369
-6.703922271728516 -26.140552520751953 -0.316097915172577 0.003921568859369
-5.371049880981445 -25.809385299682617 -0.770229458808899 0.003921568859369
-1.222137689590454 -9.334900856018066 2.536537408828735 0.000000000000000
-0.328492134809494 -3.156247377395630 0.129329338669777 0.000000000000000
-1.882873177528381 -12.914420127868652 1.608506083488464 0.000000000000000
-1.309883356094360 -8.602348327636719 0.508633673191071 0.000000000000000
-1.951095938682556 -11.422361373901367 0.677245318889618 0.000000000000000
-1.192916154861450 -6.166641712188721 0.517425298690796 0.000000000000000
-1.831741333007812 -10.684243202209473 2.922765970230103 0.000000000000000
-4.794226169586182 -18.638099670410156 -0.564452826976776 0.000000000000000
-2.025679588317871 -8.691487312316895 1.643017888069153 0.000000000000000
-1.227520465850830 -7.048388481140137 0.885951519012451 0.000000000000000
-1.387533426284790 -7.621131420135498 2.095281839370728 0.000000000000000
-5.990306377410889 -18.587690353393555 0.227261364459991 0.003921568859369
-2.892425060272217 -13.843485832214355 -0.996675193309784 0.000000000000000
-1.998307466506958 -8.257468223571777 1.565483093261719 0.000000000000000
-6.200841426849365 -18.984672546386719 0.232446521520615 0.003921568859369
-2.934184551239014 -13.804774284362793 -0.994732677936554 0.000000000000000
-6.255140781402588 -18.927574157714844 0.232012808322906 0.003921568859369
-2.966223716735840 -13.727179527282715 -0.990002989768982 0.000000000000000
-6.261671066284180 -18.747114181518555 0.230034783482552 0.003921568859369
-3.006921529769897 -13.696596145629883 -0.988617360591888 0.000000000000000
-5.553108215332031 -16.751750946044922 -0.622502148151398 0.003921568859369
-5.618312835693359 -16.761444091796875 -0.209069684147835 0.003921568859369
-0.566681504249573 -3.839819431304932 -0.429192304611206 0.000000000000000
-6.306530952453613 -18.677427291870117 0.229460835456848 0.003921568859369
-3.050498723983765 -13.687909126281738 -0.988904356956482 0.000000000000000
-5.606884956359863 -16.729846954345703 -0.622513055801392 0.003921568859369
-5.646575927734375 -16.666194915771484 -0.208153769373894 0.003921568859369
-6.349330902099609 -18.602443695068359 0.228793844580650 0.003921568859369
-3.067201614379883 -13.564273834228516 -0.980829715728760 0.000000000000000
-0.446554839611053 -2.749492645263672 -0.237610042095184 0.000000000000000
-2.600443840026855 -14.696743011474609 -0.962935864925385 0.000000000000000
-0.967429280281067 -5.353227615356445 0.319461256265640 0.000000000000000
-5.662332534790039 -16.709829330444336 -0.622523427009583 0.003921568859369
-5.688043594360352 -16.608491897583008 -0.207700982689857 0.003921568859369
-6.395838737487793 -18.538642883300781 0.228267341852188 0.003921568859369
-3.118175506591797 -13.575869560241699 -0.982509911060333 0.000000000000000
-5.404120445251465 -18.598821640014648 0.338642567396164 0.003921568859369
-2.627245664596558 -14.581180572509766 -0.956046044826508 0.000000000000000
-5.130235671997070 -17.722188949584961 -0.974564373493195 0.003921568859369
-5.615879058837891 -16.411884307861328 -0.612221837043762 0.003921568859369
-5.719676971435547 -16.507305145263672 -0.206739708781242 0.003921568859369
-6.445666313171387 -18.464849472045898 0.227646037936211 0.003921568859369
-3.177053689956665 -13.597605705261230 -0.985027134418488 0.000000000000000
-2.672409296035767 -14.530923843383789 -0.953500211238861 0.000000000000000
-4.071848869323730 -14.148168563842773 0.602780342102051 0.000000000000000
-5.168664932250977 -17.618001937866211 -0.969976782798767 0.003921568859369
-5.778847694396973 -16.667083740234375 -0.622545421123505 0.003921568859369
-3.207659006118774 -16.770624160766602 0.098340943455696 0.000000000000000
-6.479200363159180 -18.358438491821289 0.226604163646698 0.003921568859369
-3.225529193878174 -13.588883399963379 -0.985314190387726 0.000000000000000
-2.707999229431152 -14.449856758117676 -0.948909997940063 0.000000000000000
-5.209435462951660 -17.533773422241211 -0.966433823108673 0.003921568859369
-2.882691144943237 -10.262251853942871 0.877620398998260 0.000000000000000
-5.696696281433105 -16.271076202392578 -0.608620643615723 0.003921568859369
-1.716853141784668 -7.935045242309570 2.198798179626465 0.000000000000000
-0.387401938438416 -3.605523109436035 0.018938183784485 0.000000000000000
-6.507822990417480 -18.240798950195312 0.225421965122223 0.003921568859369
-3.282325983047485 -13.610804557800293 -0.987830996513367 0.000000000000000
-2.745619058609009 -14.380420684814453 -0.945086300373077 0.000000000000000
-5.250914573669434 -17.453279495239258 -0.963099837303162 0.003921568859369
-5.753458023071289 -16.249691009521484 -0.608631372451782 0.003921568859369
-0.405199766159058 -3.626172304153442 0.019077537581325 0.000000000000000
-6.538571357727051 -18.130651473999023 0.224333465099335 0.003921568859369
-3.339321851730347 -13.632492065429688 -0.990347981452942 0.000000000000000
-2.787130117416382 -14.330380439758301 -0.942539930343628 0.000000000000000
-5.284438133239746 -17.349925994873047 -0.958511292934418 0.003921568859369
-5.810146331787109 -16.228103637695312 -0.608642160892487 0.003921568859369
-6.583063125610352 -18.057817459106445 0.223713055253029 0.003921568859369
-3.391166210174561 -13.634725570678711 -0.991471290588379 0.000000000000000
-5.762548446655273 -18.588493347167969 0.340334624052048 0.003921568859369
-1.155923247337341 -6.886520862579346 -0.454805642366409 0.000000000000000
-5.324853897094727 -17.269306182861328 -0.955177307128906 0.003921568859369
-5.866759300231934 -16.206319808959961 -0.608652949333191 0.003921568859369
-2.316645383834839 -9.769817352294922 2.715531587600708 0.000000000000000
-6.254632949829102 -23.927650451660156 -0.578911364078522 0.003921568859369
-3.659730195999146 -17.682170867919922 0.104125604033470 0.000000000000000
-6.621079444885254 -17.978672027587891 0.222999706864357 0.003921568859369
-3.449347972869873 -13.668160438537598 -0.994824111461639 0.000000000000000
-2.845287084579468 -14.137156486511230 -0.931314647197723 0.000000000000000
-5.357964515686035 -17.178262710571289 -0.951215326786041 0.003921568859369
-5.847747802734375 -15.999263763427734 -0.601694881916046 0.003921568859369
-6.652967453002930 -17.875917434692383 0.222005069255829 0.003921568859369
-2.885548830032349 -14.086859703063965 -0.928768157958984 0.000000000000000
-5.392236709594727 -17.082393646240234 -0.947044789791107 0.003921568859369
-3.510446071624756 -13.513765335083008 -0.985643446445465 0.000000000000000
-2.928867340087891 -14.039761543273926 -0.926477611064911 0.000000000000000
-2.468734741210938 -9.914137840270996 1.265367746353149 0.000000000000000
-5.888029098510742 -15.768475532531738 -0.594748139381409 0.003921568859369
-2.965704202651978 -13.977596282958984 -0.923164486885071 0.000000000000000
-5.480270385742188 -16.942378997802734 -0.941631197929382 0.003921568859369
-3.003104209899902 -13.950245857238770 -0.922150433063507 0.000000000000000
-2.128907918930054 -7.228739738464355 0.623186886310577 0.000000000000000
-5.976821899414062 -15.690860748291016 -0.593514323234558 0.003921568859369
-3.677368164062500 -13.599576950073242 -0.994865894317627 0.000000000000000
-3.044995307922363 -13.931707382202148 -0.921647012233734 0.000000000000000
-2.545207023620605 -9.831139564514160 0.595806539058685 0.000000000000000
-5.001899719238281 -18.007137298583984 -0.877384126186371 0.000000000000000
-5.550217151641846 -16.805112838745117 -0.936215102672577 0.003921568859369
-3.096515655517578 -13.910597801208496 -0.921145319938660 0.000000000000000
-5.614703655242920 -16.782106399536133 -0.936227202415466 0.003921568859369
-3.236690521240234 -10.156381607055664 0.878857731819153 0.000000000000000
-5.665047168731689 -16.756395339965820 -0.520468950271606 0.000000000000000
-3.140201807022095 -13.899513244628906 -0.921153008937836 0.000000000000000
-5.599331855773926 -16.575325012207031 -0.925782203674316 0.003921568859369
-5.676875114440918 -16.598876953125000 -0.516300320625305 0.000000000000000
-1.786437392234802 -5.988081932067871 0.108905695378780 0.000000000000000
-3.188120365142822 -13.874815940856934 -0.920395314693451 0.000000000000000
-5.644920349121094 -16.511936187744141 -0.923493623733521 0.003921568859369
-5.669475555419922 -16.401321411132812 -0.510853588581085 0.000000000000000
-3.239579916000366 -13.873755455017090 -0.921170413494110 0.000000000000000
-5.648386001586914 -16.344623565673828 -0.915349483489990 0.003921568859369
-5.753341197967529 -16.451141357421875 -0.513070702552795 0.000000000000000
-3.290046215057373 -13.868647575378418 -0.921689987182617 0.000000000000000
-5.705404281616211 -16.323377609252930 -0.915360271930695 0.003921568859369
-5.756926059722900 -16.295991897583008 -0.508900582790375 0.000000000000000
-3.345393896102905 -13.890985488891602 -0.923997819423676 0.000000000000000
-4.685149669647217 -13.463625907897949 -0.756449997425079 0.000000000000000
-2.933023691177368 -8.831865310668945 1.719671487808228 0.000000000000000
-5.816616535186768 -16.273281097412109 -0.508911967277527 0.000000000000000
-3.400508165359497 -13.892527580261230 -0.925028979778290 0.000000000000000
-5.819220542907715 -16.280288696289062 -0.915381848812103 0.003921568859369
-5.873386383056641 -16.251447677612305 -0.508922755718231 0.000000000000000
-7.066495895385742 -16.840978622436523 0.212602347135544 0.003921568859369
-3.453258752822876 -13.894524574279785 -0.926059663295746 0.000000000000000
-5.803999423980713 -16.072154998779297 -0.904937088489532 0.003921568859369
-5.836977005004883 -15.991062164306641 -0.501501142978668 0.000000000000000
-5.813308238983154 -18.558160781860352 0.453957825899124 0.000000000000000
-7.112154483795166 -16.785579681396484 0.212216645479202 0.003921568859369
-3.504986286163330 -13.892485618591309 -0.926834881305695 0.000000000000000
-2.438951730728149 -7.291674613952637 -0.412694662809372 0.000000000000000
-5.887187004089355 -15.971357345581055 -0.501510739326477 0.000000000000000
-5.877999782562256 -18.557455062866211 0.454413592815399 0.000000000000000
-7.130268573760986 -16.685321807861328 0.211224287748337 0.003921568859369
-3.558466196060181 -13.914665222167969 -0.929142534732819 0.000000000000000
-5.884091854095459 -15.963701248168945 -0.901193320751190 0.003921568859369
-6.252010822296143 -14.741983413696289 -0.567003428936005 0.003921568859369
-5.986955642700195 -16.070749282836914 -0.505353868007660 0.000000000000000
-7.160559177398682 -16.606637954711914 0.210558235645294 0.003921568859369
-3.608525991439819 -13.923040390014648 -0.930684387683868 0.000000000000000
-1.137160181999207 -4.531753540039062 0.276547282934189 0.000000000000000
-5.912812232971191 -15.884868621826172 -0.898067235946655 0.003921568859369
-6.379741191864014 -14.895681381225586 -0.573844432830811 0.003921568859369
-7.182884216308594 -16.495204925537109 0.209470838308334 0.003921568859369
-3.673004388809204 -13.954159736633301 -0.933759868144989 0.000000000000000
-5.945625782012939 -15.798573493957520 -0.894523382186890 0.003921568859369
-6.882578372955322 -15.843723297119141 -0.611217200756073 0.003921568859369
-7.232986927032471 -16.467618942260742 0.209413737058640 0.003921568859369
-3.729308366775513 -13.983340263366699 -0.936578750610352 0.000000000000000
-5.954626560211182 -15.678586006164551 -0.888886570930481 0.003921568859369
-6.981159210205078 -15.925850868225098 -0.615270078182220 0.003921568859369
-6.050103664398193 -15.747602462768555 -0.497372359037399 0.000000000000000
-7.267821311950684 -16.385149002075195 0.208700433373451 0.003921568859369
-3.794320821762085 -14.013923645019531 -0.939654529094696 0.000000000000000
-6.361616134643555 -14.453370094299316 -0.931860148906708 0.000000000000000
-4.813598632812500 -14.748344421386719 0.909545719623566 0.000000000000000
-7.292465209960938 -16.289533615112305 0.207800805568695 0.003921568859369
-3.860647916793823 -14.056420326232910 -0.943496525287628 0.000000000000000
-6.434236049652100 -14.476541519165039 -0.934891223907471 0.003921568859369
-5.566605567932129 -16.687475204467773 -0.827555298805237 0.000000000000000
-7.320599079132080 -16.209733963012695 0.207088813185692 0.003921568859369
-3.927210569381714 -14.107013702392578 -0.947849273681641 0.000000000000000
-6.480485916137695 -14.450139045715332 -0.934668421745300 0.003921568859369
-5.594690799713135 -16.592409133911133 -0.823848187923431 0.000000000000000
-5.644592761993408 -16.729930877685547 -0.415811091661453 0.000000000000000
-7.360866546630859 -16.141628265380859 0.206562697887421 0.003921568859369
-6.447153568267822 -16.228322982788086 0.305678337812424 0.003921568859369
-6.512608051300049 -14.381590843200684 -0.931890547275543 0.000000000000000
-5.655470848083496 -16.570262908935547 -0.823859572410583 0.000000000000000
-2.907193183898926 -9.070437431335449 -0.227053478360176 0.000000000000000
-7.384637832641602 -16.054590225219727 0.205757349729538 0.003921568859369
-5.710388660430908 -16.550033569335938 -0.823869943618774 0.000000000000000
-6.755745887756348 -14.630216598510742 0.187566101551056 0.003921568859369
-5.646296501159668 -16.202964782714844 -0.807708978652954 0.000000000000000
-7.302525997161865 -15.745882034301758 -0.614500343799591 0.003921568859369
-3.487871170043945 -9.058472633361816 1.796387076377869 0.000000000000000
-5.769011020660400 -16.530702590942383 -0.412502825260162 0.000000000000000
-7.459300518035889 -15.924444198608398 0.204753264784813 0.003921568859369
-5.702822208404541 -16.181701660156250 -0.807719707489014 0.000000000000000
-7.359217166900635 -15.722420692443848 -0.614650905132294 0.003921568859369
-5.709273338317871 -16.198558807373047 -0.404810220003128 0.000000000000000
-7.486269950866699 -15.839589118957520 0.203994259238243 0.003921568859369
-2.541832685470581 -9.043187141418457 0.274753093719482 0.000000000000000
-5.740728378295898 -16.111721038818359 -0.805313885211945 0.000000000000000
-3.830888986587524 -11.113376617431641 1.458839654922485 0.000000000000000
-7.422977447509766 -15.713067054748535 -0.615359246730804 0.003921568859369
-5.760070800781250 -16.162130355834961 -0.404449671506882 0.000000000000000
-6.369510173797607 -15.302583694458008 -0.489209681749344 0.000000000000000
-5.769585609436035 -16.019304275512695 -0.801792621612549 0.000000000000000
-6.325777053833008 -15.204138755798340 -0.873714447021484 0.003921568859369
-7.468796253204346 -15.667749404907227 -0.614673256874084 0.003921568859369
-5.835181236267090 -16.188964843750000 -0.405667036771774 0.000000000000000
-5.842677593231201 -16.069437026977539 -0.805334210395813 0.000000000000000
-6.430575370788574 -15.320258140563965 -0.881671428680420 0.003921568859369
-7.536646366119385 -15.687863349914551 -0.616495966911316 0.003921568859369
-5.895781517028809 -16.205404281616211 -0.406604886054993 0.000000000000000
-5.901536464691162 -16.046358108520508 -0.805345475673676 0.000000000000000
-6.404445648193359 -15.113020896911621 -0.871225118637085 0.003921568859369
-7.812738895416260 -16.085559844970703 -0.633240640163422 0.003921568859369
-5.849542140960693 -15.914272308349609 -0.399932950735092 0.000000000000000
-6.373210906982422 -14.911736488342285 -0.479017138481140 0.000000000000000
-6.287208080291748 -16.860176086425781 -0.001805283827707 0.003921568859369
-5.954714775085449 -16.025291442871094 -0.805355668067932 0.000000000000000
-6.199372768402100 -14.530543327331543 -0.839025437831879 0.000000000000000
-5.955524921417236 -16.027132034301758 -0.403284788131714 0.000000000000000
-6.402747154235840 -14.832238197326660 -0.477285444736481 0.000000000000000
-2.602616071701050 -8.733279228210449 0.266794204711914 0.000000000000000
-5.917966365814209 -15.764554977416992 -0.793469190597534 0.000000000000000
-5.918704509735107 -15.766202926635742 -0.397354990243912 0.000000000000000
-6.430902004241943 -14.757550239562988 -0.475669264793396 0.000000000000000
-5.969951629638672 -15.734917640686035 -0.793108046054840 0.000000000000000
-6.303187847137451 -14.482768058776855 -0.839046180248260 0.000000000000000
-5.946605205535889 -15.677280426025391 -0.395694673061371 0.000000000000000
-6.363044261932373 -14.485698699951172 -0.840519845485687 0.003921568859369
-5.485743522644043 -16.684438705444336 -0.722880363464355 0.003921568859369
-6.031953811645508 -15.737458229064941 -0.397747039794922 0.000000000000000
-6.420402526855469 -14.476362228393555 -0.841366708278656 0.003921568859369
-5.573598861694336 -16.746482849121094 -0.726467907428741 0.003921568859369
-6.491534233093262 -14.495642662048340 -0.843886911869049 0.003921568859369
-5.617051601409912 -16.684104919433594 -0.724690496921539 0.003921568859369
-5.748187541961670 -16.861932754516602 -0.315172255039215 0.003921568859369
-5.646406173706055 -16.584096908569336 -0.721287190914154 0.003921568859369
-8.013572692871094 -15.536738395690918 -0.619654119014740 0.003921568859369
-5.686266422271729 -16.513959884643555 -0.309131115674973 0.003921568859369
-7.394083499908447 -16.097093582153320 -0.522893011569977 0.000000000000000
-4.282331466674805 -11.030578613281250 1.470463275909424 0.000000000000000
-5.694554328918457 -16.536567687988281 -0.720160007476807 0.003921568859369
-5.675231456756592 -16.308971405029297 -0.305733144283295 0.003921568859369
-6.714818000793457 -14.568904876708984 -0.474336415529251 0.000000000000000
-5.738246440887451 -16.477670669555664 -0.718545079231262 0.003921568859369
-7.878374576568604 -15.036506652832031 -0.602104544639587 0.003921568859369
-5.744848728179932 -16.321252822875977 -0.306370049715042 0.003921568859369
-7.626762866973877 -16.285846710205078 -0.530816912651062 0.000000000000000
-5.753333091735840 -16.343900680541992 -0.713678181171417 0.003921568859369
-8.022202491760254 -15.171591758728027 -0.608670473098755 0.003921568859369
-4.812188625335693 -12.037966728210449 3.515705585479736 0.000000000000000
-2.684895277023315 -6.288536548614502 1.276721954345703 0.000000000000000
-5.832746505737305 -16.400497436523438 -0.308258682489395 0.003921568859369
-6.987225532531738 -14.876520156860352 -0.485976040363312 0.000000000000000
-5.857917785644531 -16.466192245483398 0.100662134587765 0.000000000000000
-4.031791210174561 -8.950046539306641 0.172176852822304 0.000000000000000
-5.775681495666504 -16.251300811767578 -0.710599124431610 0.003921568859369
-8.057758331298828 -15.124592781066895 -0.607983589172363 0.003921568859369
-5.784831047058105 -16.106155395507812 -0.303190559148788 0.003921568859369
-7.439811229705811 -15.647044181823730 -0.511898994445801 0.000000000000000
-5.886555194854736 -16.369503021240234 0.100181572139263 0.000000000000000
-6.292113304138184 -15.169510841369629 -0.774982035160065 0.000000000000000
-5.773371219635010 -16.076662063598633 -0.703943490982056 0.003921568859369
-4.153724193572998 -9.114046096801758 1.857998728752136 0.000000000000000
-5.947098255157471 -16.356359481811523 -0.308280467987061 0.003921568859369
-7.470863819122314 -15.573118209838867 -0.510399520397186 0.000000000000000
