# This PCD file was generated using the MATLAB® pcwrite function
# from Computer Vision Toolbox®.
# .PCD v.7 - Point Cloud Data file format
VERSION .7
FIELDS x y z intensity
SIZE 8 8 8 8
TYPE F F F F
COUNT 1 1 1 1
WIDTH 646
HEIGHT 1
VIEWPOINT 0 0 0 1 0 0 0
POINTS 646
DATA ascii
0.967338144779205 11.308155059814453 -0.795555889606476 0.000000000000000
1.523459911346436 11.271131515502930 -0.931430637836456 0.000000000000000
1.006101608276367 11.316130638122559 -0.796394884586334 0.000000000000000
1.566366910934448 11.300809860229492 -0.934364259243011 0.000000000000000
0.457139015197754 11.453570365905762 -0.735870659351349 0.000000000000000
1.044715166091919 11.303925514221191 -0.795836389064789 0.000000000000000
1.604538202285767 11.286708831787109 -0.933712661266327 0.000000000000000
0.496865868568420 11.447230339050293 -0.735615193843842 0.000000000000000
1.087499022483826 11.311184883117676 -0.796675324440002 0.000000000000000
0.539852857589722 11.460535049438477 -0.736641108989716 0.000000000000000
2.834149122238159 26.673957824707031 7.190678596496582 0.003921568859369
1.126038074493408 11.298702239990234 -0.796116828918457 0.000000000000000
1.684602141380310 11.269586563110352 -0.933387279510498 0.003921568859369
0.579304933547974 11.449927330017090 -0.736129224300385 0.000000000000000
1.166908621788025 11.305894851684570 -0.796955764293671 0.000000000000000
1.724603176116943 11.266873359680176 -0.933713436126709 0.003921568859369
0.618702411651611 11.439178466796875 -0.735617339611053 0.000000000000000
1.205870985984802 11.313184738159180 -0.797794699668884 0.000000000000000
0.656039893627167 11.428442955017090 -0.735105395317078 0.000000000000000
1.246861457824707 11.320087432861328 -0.798633635044098 0.000000000000000
1.803337931632996 11.265298843383789 -0.934691667556763 0.003921568859369
0.696854650974274 11.437330245971680 -0.735874891281128 0.000000000000000
3.456552743911743 28.626457214355469 7.729817390441895 0.003921568859369
1.288870930671692 11.318670272827148 -0.798913538455963 0.000000000000000
1.847470641136169 11.273575782775879 -0.935995578765869 0.000000000000000
0.739755868911743 11.445905685424805 -0.736644506454468 0.000000000000000
1.333172321319580 11.348999023437500 -0.801429390907288 0.000000000000000
1.892612814903259 11.297726631164551 -0.938603162765503 0.000000000000000
0.779021799564362 11.434609413146973 -0.736132562160492 0.000000000000000
1.377254724502563 11.335967063903809 -0.800871372222900 0.000000000000000
1.938354611396790 11.294665336608887 -0.938929796218872 0.000000000000000
0.825896561145782 11.447217941284180 -0.737159073352814 0.000000000000000
4.628174304962158 25.563405990600586 2.121273756027222 0.003921568859369
1.416257977485657 11.326473236083984 -0.800592303276062 0.000000000000000
1.990558266639709 11.353720664978027 -0.944470643997192 0.000000000000000
0.865118324756622 11.435648918151855 -0.736647009849548 0.000000000000000
3.725339412689209 27.600460052490234 1.620924353599548 0.003921568859369
1.455783247947693 11.320795059204102 -0.800592660903931 0.000000000000000
0.905027806758881 11.431893348693848 -0.736647605895996 0.000000000000000
4.827966213226318 25.638689041137695 2.130373001098633 0.003921568859369
3.652155160903931 26.420949935913086 7.151345729827881 0.003921568859369
4.570288658142090 24.322292327880859 4.516465187072754 0.003921568859369
1.498822569847107 11.338658332824707 -0.802269935607910 0.000000000000000
0.947297990322113 11.451832771301270 -0.738185942173004 0.000000000000000
4.686697483062744 24.463708877563477 2.034175872802734 0.003921568859369
1.538389563560486 11.332691192626953 -0.802270293235779 0.000000000000000
0.986446201801300 11.439847946166992 -0.737673878669739 0.000000000000000
3.648561000823975 25.161930084228516 3.122949600219727 0.003921568859369
1.578551292419434 11.330527305603027 -0.802550017833710 0.000000000000000
1.026792287826538 11.439640045166016 -0.737930774688721 0.000000000000000
3.725336790084839 25.077764511108398 3.114182472229004 0.003921568859369
5.570569992065430 27.880451202392578 2.321466445922852 0.003921568859369
4.275569438934326 28.601079940795898 7.753611087799072 0.003921568859369
1.617904901504517 11.348556518554688 -0.804227292537689 0.000000000000000
1.063593149185181 11.443693161010742 -0.738443791866302 0.000000000000000
3.943383932113647 15.808503150939941 -0.952822566032410 0.003921568859369
3.892830133438110 25.622089385986328 3.183337688446045 0.003921568859369
1.659436583518982 11.353987693786621 -0.805066049098969 0.000000000000000
1.105330109596252 11.455110549926758 -0.739469528198242 0.000000000000000
3.945308446884155 15.593269348144531 -0.940705060958862 0.003921568859369
4.163748264312744 26.721275329589844 7.251720428466797 0.003921568859369
1.702339291572571 11.367140769958496 -0.806463837623596 0.000000000000000
1.145774245262146 11.454480171203613 -0.739726305007935 0.000000000000000
1.749998927116394 11.383386611938477 -0.808140933513641 0.000000000000000
1.191661000251770 11.465116500854492 -0.740751981735229 0.000000000000000
1.791213631629944 11.408684730529785 -0.810377120971680 0.000000000000000
1.228652000427246 11.468640327453613 -0.741264998912811 0.000000000000000
1.825449585914612 11.370265960693359 -0.808141350746155 0.000000000000000
1.271195054054260 11.483413696289062 -0.742546916007996 0.000000000000000
4.186332702636719 15.618591308593750 -0.945830345153809 0.003921568859369
1.875506401062012 11.378881454467773 -0.809260129928589 0.000000000000000
1.920285940170288 11.399095535278320 -0.811216771602631 0.000000000000000
4.097365379333496 14.873918533325195 -0.902487277984619 0.000000000000000
4.414314270019531 24.914403915405273 6.786047458648682 0.003921568859369
5.427302837371826 23.817197799682617 4.459103584289551 0.003921568859369
1.963750600814819 11.411289215087891 -0.812614381313324 0.000000000000000
2.007331132888794 11.423317909240723 -0.814012050628662 0.000000000000000
6.163857460021973 26.125371932983398 4.899350166320801 0.003921568859369
4.457065105438232 15.510786056518555 -0.566553771495819 0.003921568859369
4.686803817749023 24.925571441650391 6.802603721618652 0.003921568859369
4.479888439178467 15.391197204589844 -0.562771499156952 0.003921568859369
4.341082096099854 14.747313499450684 -0.899455666542053 0.000000000000000
4.948952674865723 25.326448440551758 6.921607971191406 0.003921568859369
6.085247993469238 24.334196090698242 2.049126863479614 0.003921568859369
4.538326740264893 15.210202217102051 -0.557307839393616 0.003921568859369
2.410027742385864 12.582719802856445 3.441498756408691 0.000000000000000
2.451550722122192 12.562246322631836 3.438394546508789 0.000000000000000
1.710712313652039 11.622401237487793 -0.755365848541260 0.000000000000000
2.491922855377197 12.526055335998535 3.431150436401367 0.000000000000000
1.756520152091980 11.647220611572266 -0.757416546344757 0.000000000000000
5.393083095550537 25.671440124511719 7.036472797393799 0.003921568859369
6.274853706359863 24.009231567382812 4.530807971954346 0.003921568859369
1.801875114440918 11.655773162841797 -0.758441984653473 0.000000000000000
4.695672512054443 14.957596778869629 -0.917395591735840 0.000000000000000
4.106684684753418 15.718605995178223 -0.855110406875610 0.003921568859369
4.777677536010742 15.025659561157227 -0.922521591186523 0.000000000000000
4.124216079711914 15.562623977661133 -0.847347319126129 0.003921568859369
7.221436023712158 26.772756576538086 2.264923334121704 0.003921568859369
5.480422496795654 25.210676193237305 6.920572757720947 0.003921568859369
4.849045276641846 15.065100669860840 -0.926016271114349 0.000000000000000
4.202209949493408 15.632143974304199 -0.851962745189667 0.003921568859369
4.887562751770020 15.005846977233887 -0.923452258110046 0.000000000000000
4.147690773010254 15.232493400573730 -0.830981194972992 0.000000000000000
4.956678390502930 15.037212371826172 -0.926480829715729 0.000000000000000
4.172356605529785 14.921982765197754 -0.815664112567902 0.000000000000000
7.113838672637939 25.017169952392578 2.124854803085327 0.003921568859369
5.033893585205078 14.921844482421875 -0.921585917472839 0.000000000000000
4.226675987243652 14.914378166198730 -0.816083312034607 0.000000000000000
4.274130344390869 14.883613586425781 -0.815243601799011 0.000000000000000
7.796474933624268 26.665452957153320 2.269477605819702 0.003921568859369
5.077324390411377 16.504302978515625 -0.909026265144348 0.003921568859369
5.157893180847168 16.543867111206055 -0.912172853946686 0.003921568859369
5.119096279144287 16.228929519653320 -0.895806908607483 0.003921568859369
4.132970333099365 15.567143440246582 -0.753495395183563 0.000000000000000
4.789289951324463 15.038125038146973 -0.830974996089935 0.000000000000000
4.873455047607422 15.107005119323730 -0.835799872875214 0.000000000000000
4.923439979553223 15.098662376403809 -0.836218833923340 0.000000000000000
4.943878650665283 14.986282348632812 -0.830972909927368 0.000000000000000
4.185224533081055 14.950094223022461 -0.726437926292419 0.000000000000000
4.996163368225098 14.968344688415527 -0.830972135066986 0.000000000000000
4.259989738464355 15.011458396911621 -0.730169355869293 0.000000000000000
5.019428730010986 14.867256164550781 -0.826355636119843 0.000000000000000
6.992782115936279 24.276170730590820 3.105419158935547 0.003921568859369
4.290634155273438 14.923167228698730 -0.726623654365540 0.000000000000000
7.970806598663330 27.241035461425781 3.488212108612061 0.003921568859369
3.829485654830933 15.064469337463379 -0.999876141548157 0.000000000000000
5.084473133087158 16.499547958374023 -0.807788074016571 0.000000000000000
5.122452735900879 16.420282363891602 -0.804802060127258 0.000000000000000
5.179742813110352 16.401739120483398 -0.804801344871521 0.000000000000000
5.273217678070068 16.493053436279297 -0.810211718082428 0.000000000000000
4.193201065063477 15.556795120239258 -0.659335911273956 0.003921568859369
4.226763248443604 15.468447685241699 -0.656232893466949 0.003921568859369
4.243194103240967 15.322438240051270 -0.650680303573608 0.000000000000000
4.268295288085938 15.219489097595215 -0.646924078464508 0.000000000000000
1.434130787849426 5.409142017364502 -0.229701384902000 0.000000000000000
4.221587657928467 14.676219940185547 -0.982700705528259 0.000000000000000
8.102303504943848 23.431577682495117 3.048454046249390 0.003921568859369
4.328711032867432 15.035016059875488 -0.640391290187836 0.000000000000000
1.416679143905640 5.000683307647705 -0.335807949304581 0.000000000000000
8.508303642272949 23.013515472412109 6.586357116699219 0.003921568859369
4.797449111938477 14.860081672668457 -0.639243006706238 0.000000000000000
4.848018646240234 14.838923454284668 -0.639078974723816 0.003921568859369
11.425657272338867 25.734663009643555 5.142491817474365 0.003921568859369
11.427531242370605 25.500612258911133 5.103774547576904 0.003921568859369
1.458107233047485 4.671880722045898 -0.316584020853043 0.000000000000000
9.921995162963867 25.158582687377930 7.259005546569824 0.003921568859369
11.450894355773926 25.316936492919922 5.075096130371094 0.003921568859369
11.373142242431641 24.232015609741211 4.889397144317627 0.003921568859369
11.640652656555176 23.738918304443359 4.829896926879883 0.003921568859369
4.424218177795410 10.353642463684082 3.031733512878418 0.000000000000000
4.439668178558350 10.296075820922852 3.019316196441650 0.000000000000000
4.475581645965576 10.280009269714355 3.019317150115967 0.000000000000000
4.518015861511230 10.273559570312500 3.022422790527344 0.000000000000000
4.548529624938965 10.229151725769043 3.014145135879517 0.000000000000000
4.575938701629639 10.199527740478516 3.010006666183472 0.000000000000000
4.613291740417480 10.182182312011719 3.010007858276367 0.000000000000000
4.642218112945557 10.151556015014648 3.005869150161743 0.000000000000000
4.669335365295410 10.117357254028320 3.000696182250977 0.000000000000000
4.697851657867432 10.090908050537109 2.997592687606812 0.000000000000000
4.724629402160645 10.056578636169434 2.992419242858887 0.000000000000000
10.604313850402832 22.011526107788086 6.560539245605469 0.003921568859369
12.712255477905273 22.792539596557617 2.133762836456299 0.003921568859369
12.922154426574707 22.778453826904297 2.140920639038086 0.003921568859369
11.599599838256836 21.333576202392578 2.987189292907715 0.003921568859369
14.590077400207520 23.747901916503906 5.091704368591309 0.003921568859369
14.989490509033203 23.091062545776367 2.250583171844482 0.003921568859369
15.068533897399902 23.053461074829102 2.251561641693115 0.003921568859369
13.017430305480957 22.049007415771484 6.875265121459961 0.003921568859369
13.063895225524902 21.952110290527344 3.142164707183838 0.003921568859369
15.019070625305176 22.624557495117188 4.961309432983398 0.003921568859369
13.491458892822266 20.973823547363281 3.067801952362061 0.003921568859369
18.400362014770508 23.041492462158203 2.410596609115601 0.003921568859369
18.474164962768555 22.976884841918945 2.410275697708130 0.003921568859369
18.455677032470703 22.627958297729492 2.387018680572510 0.003921568859369
19.273956298828125 22.159669876098633 2.401040077209473 0.003921568859369
19.201566696166992 21.768466949462891 5.302516937255859 0.003921568859369
19.872995376586914 21.296339035034180 5.320618152618408 0.003921568859369
19.932706832885742 21.218566894531250 5.317753791809082 0.003921568859369
18.652671813964844 21.303930282592773 3.482052564620972 0.003921568859369
5.290409088134766 6.241409301757812 0.239611670374870 0.003921568859369
20.271543502807617 21.426727294921875 3.627285242080688 0.003921568859369
20.702869415283203 21.122022628784180 3.636698007583618 0.003921568859369
4.522396087646484 3.811466217041016 0.104240730404854 0.000000000000000
5.224062442779541 4.544258117675781 1.867664694786072 0.000000000000000
5.475316524505615 4.660348415374756 1.939089298248291 0.000000000000000
15.764246940612793 12.585960388183594 -0.942080199718475 0.003921568859369
15.751653671264648 12.486081123352051 -0.938725054264069 0.003921568859369
15.715555191040039 12.363970756530762 -0.933879554271698 0.003921568859369
15.700732231140137 12.272631645202637 -0.930710792541504 0.000000000000000
5.661940097808838 3.586506366729736 -0.078488960862160 0.000000000000000
15.739295005798340 12.209906578063965 -0.930335879325867 0.000000000000000
15.706804275512695 12.101501464843750 -0.926049351692200 0.000000000000000
15.646173477172852 11.963740348815918 -0.919900000095367 0.000000000000000
15.631598472595215 11.870615959167480 -0.916731238365173 0.000000000000000
3.973801851272583 3.047895193099976 -0.117416687309742 0.000000000000000
10.422814369201660 6.374387264251709 -0.714299261569977 0.000000000000000
15.647383689880371 11.796596527099609 -0.915238857269287 0.000000000000000
10.451251983642578 6.391702175140381 -0.429524123668671 0.000000000000000
15.696067810058594 11.741774559020996 -0.915174663066864 0.000000000000000
15.753015518188477 11.698635101318359 -0.916103899478912 0.000000000000000
15.756317138671875 11.620139122009277 -0.914053380489349 0.000000000000000
15.767736434936523 11.543708801269531 -0.912375092506409 0.000000000000000
15.764634132385254 11.452856063842773 -0.909765541553497 0.000000000000000
9.298388481140137 6.620862960815430 3.068456172943115 0.000000000000000
4.840811252593994 3.808129072189331 -0.396994590759277 0.000000000000000
16.372922897338867 11.466228485107422 -0.933223187923431 0.003921568859369
16.422691345214844 11.415684700012207 -0.933779954910278 0.003921568859369
16.462442398071289 11.358125686645508 -0.933777928352356 0.003921568859369
10.470191955566406 6.396547794342041 0.214647904038429 0.000000000000000
10.459337234497070 6.390002727508545 2.240589618682861 0.000000000000000
16.992567062377930 11.456769943237305 -0.956431746482849 0.003921568859369
16.900445938110352 12.639083862304688 -0.861391007900238 0.003921568859369
16.992576599121094 11.370633125305176 -0.954195320606232 0.003921568859369
16.568710327148438 12.301546096801758 -0.842325925827026 0.003921568859369
16.408702850341797 12.094330787658691 -0.832059264183044 0.003921568859369
17.394710540771484 11.472693443298340 -0.972441971302032 0.003921568859369
16.424024581909180 12.026100158691406 -0.830917179584503 0.003921568859369
16.394739151000977 11.656339645385742 -0.821134448051453 0.003921568859369
16.628133773803711 11.734665870666504 -0.830745756626129 0.003921568859369
16.793479919433594 11.763413429260254 -0.836935460567474 0.003921568859369
16.825620651245117 11.693257331848145 -0.836055815219879 0.003921568859369
16.923341751098633 11.586567878723145 -0.836867511272430 0.003921568859369
17.092674255371094 11.614817619323730 -0.843219637870789 0.003921568859369
10.416271209716797 6.364107131958008 -0.284715801477432 0.000000000000000
17.243812561035156 11.633874893188477 -0.848757326602936 0.003921568859369
17.347446441650391 11.615706443786621 -0.851851105690002 0.003921568859369
7.636883735656738 4.001536846160889 0.352376252412796 0.000000000000000
8.548368453979492 4.284618377685547 0.167264446616173 0.000000000000000
9.871475219726562 5.475404262542725 -0.790789484977722 0.000000000000000
10.447934150695801 6.381282806396484 -0.214087799191475 0.000000000000000
10.445937156677246 6.380070686340332 0.071202613413334 0.000000000000000
4.066829204559326 2.077227354049683 0.266786128282547 0.000000000000000
11.182144165039062 5.648834705352783 3.360480070114136 0.000000000000000
10.619172096252441 5.649601936340332 -0.490628898143768 0.000000000000000
10.792570114135742 3.801737785339355 -0.400087356567383 0.000000000000000
9.178310394287109 4.798188686370850 0.301606357097626 0.000000000000000
5.399621963500977 2.800446987152100 0.177234694361687 0.000000000000000
14.392653465270996 5.295395851135254 2.797421455383301 0.000000000000000
4.544348239898682 1.913473606109619 1.323105573654175 0.000000000000000
4.374368190765381 2.057489633560181 -0.309810370206833 0.000000000000000
14.944677352905273 4.398458957672119 -0.544013321399689 0.003921568859369
8.978053092956543 4.036783218383789 -0.401048153638840 0.000000000000000
2.714376211166382 1.052292108535767 0.067742265760899 0.000000000000000
18.373033523559570 5.902484893798828 3.518499612808228 0.003921568859369
9.859160423278809 2.862150669097900 1.870450258255005 0.000000000000000
9.825976371765137 2.815390110015869 0.833814680576324 0.000000000000000
10.625552177429199 3.614650011062622 3.005405187606812 0.000000000000000
10.688743591308594 3.596684217453003 3.019898891448975 0.000000000000000
5.119022369384766 1.984650135040283 -0.095730200409889 0.000000000000000
10.652956008911133 3.545375347137451 3.006439924240112 0.000000000000000
10.670164108276367 3.505678653717041 3.007475137710571 0.000000000000000
13.809606552124023 3.801725625991821 2.610180139541626 0.000000000000000
10.710517883300781 3.481722593307495 3.015757083892822 0.000000000000000
10.712170600891113 3.438928127288818 3.012650966644287 0.000000000000000
10.761205673217773 3.410905599594116 3.020930051803589 0.000000000000000
10.798262596130371 3.383346319198608 3.028176784515381 0.000000000000000
12.160744667053223 2.495384454727173 0.144334912300110 0.000000000000000
2.791333675384521 0.859875977039337 0.356768578290939 0.000000000000000
7.274488925933838 2.643620967864990 -0.314775675535202 0.000000000000000
10.810590744018555 3.343798875808716 3.028176069259644 0.000000000000000
10.836976051330566 3.310619592666626 3.032316923141479 0.000000000000000
18.703573226928711 4.732405185699463 3.514947891235352 0.003921568859369
10.852163314819336 3.273943901062012 3.033351659774780 0.000000000000000
9.114574432373047 2.238422632217407 0.163536846637726 0.000000000000000
10.877773284912109 3.242407321929932 3.037492513656616 0.000000000000000
10.914967536926270 3.212117671966553 3.044739007949829 0.000000000000000
10.951525688171387 3.183516502380371 3.051985740661621 0.000000000000000
10.992280006408691 3.153854846954346 3.060267686843872 0.000000000000000
11.033502578735352 3.122030019760132 3.068549633026123 0.000000000000000
12.024433135986328 2.121931076049805 0.141954541206360 0.000000000000000
3.462319850921631 1.134687900543213 -0.147907972335815 0.000000000000000
11.660541534423828 2.437690258026123 0.207518786191940 0.000000000000000
10.768706321716309 2.250844717025757 2.001723527908325 0.000000000000000
8.035649299621582 2.061862468719482 0.192476645112038 0.000000000000000
7.784489631652832 1.997228145599365 0.466688573360443 0.000000000000000
3.313263416290283 0.834442973136902 0.416697621345520 0.000000000000000
14.136219978332520 2.751093626022339 2.621647596359253 0.000000000000000
6.062214851379395 1.464462876319885 0.144533410668373 0.000000000000000
10.489170074462891 2.969641447067261 0.316602051258087 0.000000000000000
9.869244575500488 1.742017149925232 0.407009303569794 0.000000000000000
11.079859733581543 1.916620969772339 0.195694670081139 0.000000000000000
3.989885091781616 1.093612313270569 -0.263365536928177 0.000000000000000
5.965967178344727 1.288768053054810 0.353618651628494 0.000000000000000
4.411196231842041 1.177947163581848 -0.184922516345978 0.000000000000000
7.681423664093018 1.273508787155151 1.414054632186890 0.000000000000000
14.533460617065430 1.637179970741272 0.169874399900436 0.000000000000000
12.972597122192383 2.760422229766846 3.545804262161255 0.000000000000000
6.058223724365234 0.659147024154663 -0.070707634091377 0.000000000000000
23.042854309082031 4.740700244903564 2.884988784790039 0.003921568859369
3.097012042999268 0.620575726032257 -0.145870149135590 0.000000000000000
14.525838851928711 3.624994277954102 0.434861540794373 0.000000000000000
19.055175781250000 1.811974883079529 0.222477093338966 0.003921568859369
6.240051269531250 0.877167761325836 0.511836349964142 0.000000000000000
6.049551010131836 0.828842520713806 0.495886385440826 0.000000000000000
2.812336683273315 0.502185404300690 0.164010077714920 0.000000000000000
2.841769218444824 0.496402680873871 0.165637999773026 0.000000000000000
12.522750854492188 0.930136203765869 0.145658403635025 0.000000000000000
9.511922836303711 1.646722078323364 1.180585026741028 0.000000000000000
12.675070762634277 2.148877143859863 0.746460497379303 0.000000000000000
6.264562606811523 0.748037099838257 0.511804819107056 0.000000000000000
12.651404380798340 2.600770711898804 0.374773353338242 0.000000000000000
9.513819694519043 0.471871525049210 -0.110576689243317 0.000000000000000
12.003764152526855 1.183925032615662 0.981498062610626 0.000000000000000
9.154634475708008 1.288325905799866 2.464872121810913 0.000000000000000
9.399927139282227 0.795520126819611 -0.054701108485460 0.000000000000000
12.400767326354980 1.617866754531860 3.338687896728516 0.000000000000000
12.501881599426270 1.589107990264893 3.364569664001465 0.000000000000000
11.689877510070801 2.026122331619263 0.343899130821228 0.000000000000000
12.476677894592285 1.541816473007202 3.356284856796265 0.000000000000000
12.451558113098145 1.492555499076843 3.348000526428223 0.000000000000000
5.562851905822754 0.644288778305054 0.129070848226547 0.000000000000000
6.836352348327637 0.792982757091522 0.839274466037750 0.000000000000000
12.564146041870117 1.461786508560181 3.376987934112549 0.000000000000000
4.879250049591064 0.548168659210205 1.303223609924316 0.000000000000000
16.171651840209961 0.188865572214127 -0.187851458787918 0.003921568859369
4.311012744903564 0.468691587448120 0.099647827446461 0.000000000000000
19.962854385375977 1.207986593246460 1.628888845443726 0.003921568859369
12.635254859924316 1.383294701576233 3.393549919128418 0.000000000000000
22.265220642089844 1.269881963729858 -0.129355013370514 0.003921568859369
4.553805828094482 0.257637709379196 0.078610867261887 0.000000000000000
3.301936149597168 0.346303969621658 0.190484389662743 0.000000000000000
5.192144393920898 0.784823656082153 0.151326909661293 0.000000000000000
3.172039747238159 0.321456223726273 0.182807862758636 0.000000000000000
12.872988700866699 1.227834463119507 0.749888360500336 0.000000000000000
6.346620559692383 0.272688448429108 0.109731212258339 0.000000000000000
3.597199440002441 0.140552967786789 -0.103467009961605 0.000000000000000
8.465587615966797 0.333620995283127 0.146755188703537 0.000000000000000
10.689699172973633 0.384631603956223 0.433445394039154 0.000000000000000
14.424242019653320 0.519651949405670 1.173803210258484 0.000000000000000
7.782047271728516 0.253853172063828 -0.225249394774437 0.000000000000000
9.872622489929199 0.804032862186432 -0.000156684327521 0.003921568859369
10.707395553588867 -0.170859813690186 -0.124242767691612 0.000000000000000
9.684871673583984 0.788632333278656 0.562626361846924 0.000000000000000
7.905275344848633 0.642838358879089 2.110743284225464 0.000000000000000
12.028128623962402 0.351467132568359 -0.069783098995686 0.000000000000000
6.012616157531738 0.676965534687042 0.174340441823006 0.000000000000000
7.968526363372803 0.509247422218323 -0.369647830724716 0.000000000000000
8.300003051757812 0.501653730869293 0.192058965563774 0.000000000000000
9.277997970581055 0.528430998325348 -0.000201415386982 0.003921568859369
10.038042068481445 0.571993529796600 0.232348337769508 0.000000000000000
11.991861343383789 0.642251253128052 -0.000163020114996 0.003921568859369
7.143734455108643 0.284650266170502 -0.330425024032593 0.000000000000000
12.370663642883301 0.494602441787720 1.512475728988647 0.000000000000000
12.135684013366699 1.035417556762695 0.352554142475128 0.000000000000000
13.535292625427246 -0.164374634623528 1.099858283996582 0.000000000000000
20.475011825561523 -0.249150976538658 3.722150325775146 0.003921568859369
10.422738075256348 -0.269382685422897 1.889598131179810 0.000000000000000
17.957767486572266 0.347170650959015 -0.000108875086880 0.003921568859369
7.967287063598633 -0.233163297176361 1.441866397857666 0.000000000000000
5.541051387786865 -0.199554726481438 -0.032147809863091 0.000000000000000
11.657470703125000 0.062987238168716 0.269442290067673 0.000000000000000
10.748138427734375 -0.501505315303802 0.435296565294266 0.000000000000000
16.069057464599609 -0.919433951377869 1.308114171028137 0.000000000000000
16.530616760253906 0.606903553009033 0.479286760091782 0.003921568859369
10.075571060180664 -0.646872937679291 0.408248901367188 0.000000000000000
9.501364707946777 -0.672626972198486 0.771687567234039 0.000000000000000
10.686318397521973 -0.757193267345428 1.940482974052429 0.000000000000000
19.200296401977539 -0.567196428775787 2.348972558975220 0.003921568859369
11.730383872985840 -0.382238745689392 0.678785085678101 0.000000000000000
15.182761192321777 -0.495543181896210 1.855590939521790 0.000000000000000
8.718704223632812 -0.283583730459213 2.316631793975830 0.000000000000000
19.373147964477539 -0.767733752727509 -0.000192529521883 0.003921568859369
24.337583541870117 -2.502479314804077 4.446673393249512 0.003921568859369
16.101396560668945 -0.136569038033485 -0.279924243688583 0.003921568859369
11.123165130615234 -0.903345465660095 -0.000356251694029 0.003921568859369
5.435984134674072 -0.249419406056404 0.155526474118233 0.000000000000000
9.182781219482422 -1.387121796607971 -0.053917564451694 0.000000000000000
2.966377019882202 -0.488734155893326 0.531150639057159 0.000000000000000
13.708173751831055 -2.606838464736938 -0.081060953438282 0.000000000000000
4.973921775817871 -0.689460456371307 0.114253960549831 0.000000000000000
9.532257080078125 -1.807440757751465 0.784186899662018 0.000000000000000
28.265148162841797 -5.495974063873291 2.342830181121826 0.003921568859369
17.046844482421875 -3.429165601730347 3.152052164077759 0.003921568859369
17.065608978271484 -3.494654178619385 3.157786607742310 0.003921568859369
17.130334854125977 -3.570002555847168 3.172130584716797 0.003921568859369
17.179346084594727 -3.642561912536621 3.183604478836060 0.003921568859369
17.274208068847656 -3.725518465042114 3.203688144683838 0.003921568859369
9.785712242126465 -2.638608932495117 0.116273269057274 0.000000000000000
17.330272674560547 -3.800704717636108 3.216597080230713 0.003921568859369
8.081519126892090 -1.412951350212097 0.471563488245010 0.000000000000000
19.161104202270508 -3.646317958831787 5.199678421020508 0.003921568859369
23.170936584472656 -5.677317142486572 4.330064773559570 0.003921568859369
12.662003517150879 -2.492267131805420 -0.000553176971152 0.000000000000000
8.971689224243164 -1.791894555091858 -0.000570775126107 0.003921568859369
27.474119186401367 -5.532121658325195 1.625527739524841 0.003921568859369
26.719589233398438 -5.573256015777588 1.582948803901672 0.003921568859369
23.545629501342773 -4.909064292907715 6.416107177734375 0.003921568859369
18.244787216186523 -4.801945686340332 3.420276641845703 0.003921568859369
18.364738464355469 -4.901964187622070 3.446099042892456 0.003921568859369
24.902267456054688 -5.641726016998291 3.121718883514404 0.003921568859369
7.613879680633545 -1.353097915649414 0.043773379176855 0.000000000000000
17.600074768066406 -4.044776916503906 4.810339927673340 0.003921568859369
17.646032333374023 -4.119952678680420 4.826898097991943 0.003921568859369
19.244596481323242 -5.637022018432617 3.635528802871704 0.003921568859369
17.143308639526367 -6.271286010742188 0.210497945547104 0.003921568859369
16.762191772460938 -6.263255596160889 0.206296160817146 0.003921568859369
22.036876678466797 -5.881554126739502 2.786333799362183 0.003921568859369
16.645227432250977 -6.278559207916260 -0.206641480326653 0.003921568859369
23.459064483642578 -6.342175960540771 6.481288433074951 0.003921568859369
20.334938049316406 -7.760838031768799 -0.252958983182907 0.003921568859369
19.229312896728516 -5.554401397705078 5.331110000610352 0.003921568859369
19.828399658203125 -6.861609935760498 1.702774286270142 0.003921568859369
15.390943527221680 -6.230255603790283 0.191204190254211 0.003921568859369
17.243801116943359 -6.099378585815430 1.483067393302917 0.000000000000000
15.063080787658691 -6.279730796813965 -0.189477041363716 0.003921568859369
9.718387603759766 -3.492203950881958 -0.060072943568230 0.000000000000000
17.192251205444336 -6.212136268615723 0.316366672515869 0.003921568859369
15.088174819946289 -6.290233135223389 -0.567705929279327 0.003921568859369
14.936005592346191 -6.287163734436035 -0.938005149364471 0.003921568859369
16.990118026733398 -6.205387592315674 0.731526792049408 0.003921568859369
16.973485946655273 -6.269388675689697 -0.105221256613731 0.000000000000000
16.813756942749023 -6.210010528564453 0.310139089822769 0.003921568859369
20.433887481689453 -7.557032108306885 1.768469333648682 0.003921568859369
16.673505783081055 -6.283059597015381 -0.103630222380161 0.000000000000000
20.300340652465820 -7.737557888031006 -0.126235648989677 0.003921568859369
20.631994247436523 -7.865020751953125 1.791949391365051 0.003921568859369
16.439537048339844 -6.321812152862549 -0.917423725128174 0.003921568859369
22.036046981811523 -9.839210510253906 0.278757482767105 0.003921568859369
16.514215469360352 -5.510442256927490 4.631206989288330 0.003921568859369
22.160110473632812 -9.992128372192383 0.280796021223068 0.003921568859369
17.349784851074219 -5.861804962158203 4.873464107513428 0.003921568859369
18.941694259643555 -6.472891330718994 1.157988905906677 0.000000000000000
15.589200019836426 -6.179465770721436 1.358380436897278 0.000000000000000
17.337558746337891 -5.921391010284424 4.875527858734131 0.003921568859369
21.315784454345703 -8.468814849853516 4.159217834472656 0.003921568859369
15.449143409729004 -6.250854015350342 0.288056463003159 0.003921568859369
17.468347549438477 -6.105180740356445 2.256384611129761 0.003921568859369
20.114923477172852 -7.111667633056641 2.603974103927612 0.003921568859369
15.112056732177734 -6.297069072723389 -0.095221839845181 0.000000000000000
20.409561157226562 -7.452661514282227 2.652212142944336 0.003921568859369
21.686223983764648 -9.140275955200195 1.910656690597534 0.003921568859369
21.786893844604492 -9.358518600463867 1.924708366394043 0.003921568859369
16.712627410888672 -6.288717269897461 -0.000646346132271 0.003921568859369
20.872583389282227 -7.867810249328613 5.941896438598633 0.003921568859369
8.390810012817383 -3.199397325515747 2.371049880981445 0.000000000000000
22.175670623779297 -10.083848953247070 -0.141615524888039 0.003921568859369
20.898397445678711 -8.298417091369629 0.519622266292572 0.003921568859369
22.325958251953125 -10.335767745971680 -0.713146090507507 0.003921568859369
5.982237339019775 -2.101557493209839 -0.109195373952389 0.000000000000000
17.271789550781250 -6.161054134368896 0.529311299324036 0.003921568859369
11.921750068664551 -5.640582084655762 2.381179809570312 0.000000000000000
17.071353912353516 -6.216567993164062 0.104228995740414 0.000000000000000
20.164566040039062 -7.352699756622314 0.620171725749969 0.003921568859369
15.033832550048828 -6.309635162353516 -0.753955662250519 0.003921568859369
14.994370460510254 -6.292963504791260 -0.375991344451904 0.000000000000000
16.875501632690430 -6.277477741241455 -0.312499970197678 0.003921568859369
8.413057327270508 -4.062617301940918 1.678735136985779 0.000000000000000
21.776676177978516 -9.435936927795410 1.373771786689758 0.003921568859369
18.373033523559570 -9.035840034484863 3.708544015884399 0.003921568859369
21.897096633911133 -9.578981399536133 1.383530735969543 0.003921568859369
20.871356964111328 -8.192364692687988 0.648049414157867 0.003921568859369
18.342052459716797 -9.012971878051758 5.438586711883545 0.003921568859369
18.338132858276367 -9.090229988098145 5.446859836578369 0.003921568859369
21.980894088745117 -9.698910713195801 0.694571852684021 0.003921568859369
18.020774841308594 -10.133210182189941 3.744316339492798 0.003921568859369
18.025503158569336 -10.218187332153320 1.679749608039856 0.003921568859369
22.121776580810547 -9.936415672302246 0.139543980360031 0.003921568859369
11.341062545776367 -5.734900951385498 3.367914915084839 0.000000000000000
11.346411705017090 -5.792024135589600 3.376190662384033 0.000000000000000
17.894533157348633 -10.391646385192871 3.747865438461304 0.003921568859369
6.640084266662598 -3.916188716888428 1.379396080970764 0.000000000000000
17.668291091918945 -11.337231636047363 -0.122186228632927 0.003921568859369
17.276758193969727 -12.401323318481445 0.244840651750565 0.003921568859369
17.620927810668945 -11.393556594848633 1.700487017631531 0.003921568859369
11.588962554931641 -6.684205055236816 3.544860363006592 0.000000000000000
9.905834197998047 -6.405776500701904 2.124089241027832 0.000000000000000
17.249950408935547 -12.560140609741211 0.245657280087471 0.003921568859369
17.533815383911133 -11.597839355468750 1.703709363937378 0.003921568859369
17.207757949829102 -12.717879295349121 -0.248739004135132 0.003921568859369
4.714682579040527 -2.767260313034058 0.122769705951214 0.000000000000000
17.134498596191406 -12.848600387573242 -0.248993963003159 0.003921568859369
7.989186286926270 -5.342809200286865 1.725852847099304 0.000000000000000
9.604231834411621 -6.494523525238037 2.087461233139038 0.000000000000000
17.767257690429688 -10.966302871704102 2.545151710510254 0.003921568859369
9.750157356262207 -6.691533565521240 2.129781007766724 0.000000000000000
17.707910537719727 -11.176790237426758 2.551983118057251 0.003921568859369
17.678207397460938 -11.334338188171387 -0.000958756427281 0.003921568859369
9.909721374511719 -7.155054092407227 2.201473951339722 0.000000000000000
17.236053466796875 -12.631550788879395 -0.124536767601967 0.003921568859369
17.166639328002930 -12.764760017395020 -0.124699339270592 0.003921568859369
17.457914352416992 -11.796621322631836 1.217557072639465 0.003921568859369
17.804050445556641 -10.894586563110352 0.602212607860565 0.003921568859369
17.126720428466797 -13.014583587646484 -0.623174965381622 0.003921568859369
17.434219360351562 -11.957924842834473 1.221720814704895 0.003921568859369
5.011824131011963 -3.734023809432983 -0.036731909960508 0.000000000000000
10.430083274841309 -8.818676948547363 0.156041055917740 0.000000000000000
9.601226806640625 -6.670381069183350 3.091212034225464 0.000000000000000
3.319011449813843 -2.511921644210815 0.731268107891083 0.000000000000000
9.066417694091797 -6.717342853546143 0.257932186126709 0.000000000000000
13.041296005249023 -10.820178985595703 3.061570644378662 0.003921568859369
17.156314849853516 -12.922226905822754 -0.497400104999542 0.003921568859369
7.167745590209961 -5.352732658386230 0.203353345394135 0.000000000000000
8.011627197265625 -6.631654262542725 0.835735201835632 0.000000000000000
13.021456718444824 -10.880240440368652 3.065865516662598 0.003921568859369
10.419307708740234 -8.799773216247559 0.548352420330048 0.000000000000000
10.335402488708496 -8.782983779907227 -0.391877144575119 0.000000000000000
17.354038238525391 -12.326755523681641 0.613922536373138 0.003921568859369
12.775049209594727 -11.128722190856934 3.061501026153564 0.003921568859369
12.733189582824707 -11.169965744018555 3.060773372650146 0.003921568859369
1.793044209480286 -1.301272749900818 -0.001335782115348 0.000000000000000
17.289026260375977 -12.553437232971191 0.122194252908230 0.003921568859369
12.685335159301758 -11.205797195434570 3.058611392974854 0.003921568859369
1.779204010963440 -1.299258708953857 -0.001337049994618 0.000000000000000
17.227624893188477 -12.696978569030762 0.122377991676331 0.003921568859369
12.520842552185059 -11.365793228149414 3.054980039596558 0.003921568859369
7.470651149749756 -5.537027359008789 0.264717191457748 0.000000000000000
12.460913658142090 -11.389990806579590 3.049947261810303 0.003921568859369
12.415334701538086 -11.427352905273438 3.048502206802368 0.003921568859369
9.399537086486816 -8.669533729553223 1.030551314353943 0.000000000000000
12.347594261169434 -11.447763442993164 3.042033910751343 0.003921568859369
17.138233184814453 -13.185049057006836 -0.875716149806976 0.003921568859369
12.324687957763672 -11.506357192993164 3.046328306198120 0.003921568859369
10.400264739990234 -8.829455375671387 -0.001378565677442 0.000000000000000
12.325478553771973 -11.579724311828613 3.055645704269409 0.003921568859369
17.009624481201172 -13.264918327331543 -0.873625338077545 0.003921568859369
12.307677268981934 -11.643805503845215 3.061374902725220 0.003921568859369
9.357938766479492 -8.868681907653809 0.517917573451996 0.000000000000000
12.222001075744629 -11.732257843017578 3.061352968215942 0.003921568859369
9.272727012634277 -8.915976524353027 0.516761422157288 0.000000000000000
9.213412284851074 -8.913530349731445 0.514963567256927 0.000000000000000
14.444284439086914 -12.944553375244141 -0.449211627244949 0.000000000000000
14.375416755676270 -12.972571372985840 -0.448479741811752 0.000000000000000
14.316014289855957 -13.013571739196777 -0.448120623826981 0.000000000000000
14.275713920593262 -13.063011169433594 -0.448225528001785 0.000000000000000
14.218345642089844 -13.101119041442871 -0.447865813970566 0.000000000000000
14.160264015197754 -13.133809089660645 -0.447412341833115 0.000000000000000
2.617617368698120 -2.072271347045898 -0.056953042745590 0.000000000000000
8.481471061706543 -7.111805915832520 0.316151648759842 0.000000000000000
14.091718673706055 -13.165603637695312 -0.446774005889893 0.000000000000000
10.361028671264648 -8.788789749145508 -0.235812574625015 0.000000000000000
14.028323173522949 -13.197422027587891 -0.446228057146072 0.000000000000000
13.958536148071289 -13.218246459960938 -0.445402234792709 0.000000000000000
14.298516273498535 -12.710947036743164 -0.774374186992645 0.003921568859369
9.155269622802734 -9.411931991577148 3.476873159408569 0.000000000000000
4.141341209411621 -4.746036529541016 0.500778436660767 0.000000000000000
5.862227916717529 -7.075078010559082 0.366829156875610 0.000000000000000
10.862690925598145 -12.780290603637695 4.452852725982666 0.003921568859369
10.818017959594727 -12.817333221435547 4.452840805053711 0.003921568859369
10.785467147827148 -12.869153976440430 4.458004474639893 0.003921568859369
10.540283203125000 -13.106873512268066 4.465153694152832 0.003921568859369
10.515866279602051 -13.170176506042480 4.474457740783691 0.003921568859369
7.805106163024902 -9.981214523315430 3.354335069656372 0.000000000000000
9.705503463745117 -16.142391204833984 0.215137675404549 0.003921568859369
3.771710157394409 -5.437199115753174 1.179634213447571 0.000000000000000
9.389928817749023 -16.240650177001953 -0.219747573137283 0.003921568859369
9.815561294555664 -16.180660247802734 -0.111960165202618 0.000000000000000
9.506370544433594 -16.162603378295898 0.756013333797455 0.003921568859369
9.310975074768066 -16.212347030639648 -0.110751166939735 0.000000000000000
9.265253067016602 -16.131275177001953 1.505689859390259 0.000000000000000
9.091573715209961 -16.216386795043945 0.319529682397842 0.003921568859369
10.114220619201660 -16.159639358520508 -0.884522020816803 0.000000000000000
3.756834030151367 -6.430134296417236 1.332960963249207 0.000000000000000
8.817670822143555 -16.221698760986328 0.744273602962494 0.003921568859369
2.633725404739380 -4.500275611877441 0.925476908683777 0.000000000000000
9.763167381286621 -16.188528060913086 -0.002771736588329 0.003921568859369
8.452152252197266 -16.215538024902344 1.480096817016602 0.000000000000000
5.701868534088135 -10.772427558898926 2.197843790054321 0.000000000000000
5.527529716491699 -10.783693313598633 2.184836626052856 0.000000000000000
8.995154380798340 -16.132699966430664 2.249194860458374 0.003921568859369
9.754462242126465 -16.160652160644531 0.106104366481304 0.003921568859369
9.724693298339844 -16.239089965820312 -0.768451869487762 0.003921568859369
5.134923934936523 -10.625494003295898 2.128106832504272 0.000000000000000
9.589516639709473 -16.136875152587891 0.539525449275970 0.003921568859369
9.419607162475586 -16.225820541381836 -0.328058362007141 0.003921568859369
3.436082124710083 -7.511598587036133 1.483211517333984 0.000000000000000
8.980790138244629 -16.219362258911133 0.532715380191803 0.003921568859369
6.952800750732422 -16.175415039062500 3.187202692031860 0.003921568859369
1.968793630599976 -4.143332481384277 0.179952442646027 0.000000000000000
6.920135974884033 -16.255790710449219 1.430211901664734 0.000000000000000
6.893110752105713 -16.359622955322266 -0.106021389365196 0.000000000000000
2.991776227951050 -6.371925830841064 0.847514867782593 0.000000000000000
6.446063995361328 -16.720943450927734 1.451125979423523 0.000000000000000
6.284255027770996 -16.283237457275391 3.160435914993286 0.003921568859369
3.380718469619751 -10.111181259155273 0.119922779500484 0.000000000000000
3.496019363403320 -9.308711051940918 0.398176163434982 0.000000000000000
2.309204339981079 -5.983480930328369 0.107438698410988 0.000000000000000
4.042465686798096 -11.120975494384766 0.954849958419800 0.000000000000000
5.761689662933350 -16.406774520874023 3.149470567703247 0.003921568859369
3.962787151336670 -11.140368461608887 0.201433122158051 0.000000000000000
5.664966106414795 -16.306180953979492 3.126508235931396 0.003921568859369
3.119156837463379 -8.684321403503418 1.662181377410889 0.000000000000000
1.099138975143433 -2.512472629547119 0.043618131428957 0.000000000000000
2.872721910476685 -6.854603290557861 0.896576821804047 0.000000000000000
3.660666942596436 -10.725489616394043 0.454726129770279 0.000000000000000
3.429172277450562 -10.231593132019043 0.183533191680908 0.000000000000000
4.079998970031738 -12.354896545410156 2.352688312530518 0.000000000000000
3.092218875885010 -9.360005378723145 0.167344450950623 0.000000000000000
3.039484739303589 -9.281980514526367 0.165667042136192 0.000000000000000
3.210042238235474 -8.625523567199707 -0.003120046807453 0.003921568859369
3.748379945755005 -14.880020141601562 0.173739507794380 0.000000000000000
3.170339584350586 -8.597393035888672 0.524778366088867 0.000000000000000
3.930223703384399 -11.398915290832520 0.693295001983643 0.000000000000000
3.081767082214355 -10.637420654296875 -0.067406706511974 0.000000000000000
2.952667236328125 -10.290395736694336 -0.312757700681686 0.000000000000000
1.621785759925842 -5.131748199462891 -0.033667501062155 0.000000000000000
2.066424131393433 -6.855943679809570 0.574947416782379 0.000000000000000
3.689119338989258 -11.154269218444824 0.675302624702454 0.000000000000000
3.904456377029419 -14.793719291687012 2.771788120269775 0.000000000000000
4.122346401214600 -11.037645339965820 0.336485475301743 0.000000000000000
3.991767883300781 -12.629157066345215 3.521394968032837 0.000000000000000
7.638299465179443 -21.447439193725586 0.655212044715881 0.003921568859369
4.169714450836182 -16.381168365478516 3.064297914505005 0.003921568859369
2.599455595016479 -6.786534786224365 0.038631528615952 0.000000000000000
3.191309690475464 -10.149658203125000 2.823874235153198 0.000000000000000
2.400869846343994 -9.160092353820801 0.763632833957672 0.000000000000000
2.133038282394409 -10.497221946716309 -0.127817556262016 0.000000000000000
2.009783267974854 -6.240404129028320 0.373697042465210 0.000000000000000
4.655409812927246 -19.664936065673828 3.667224168777466 0.003921568859369
3.858667850494385 -13.182353019714355 0.791260182857513 0.000000000000000
4.695507049560547 -16.520051956176758 4.575813293457031 0.003921568859369
2.204707622528076 -11.876161575317383 0.136020809412003 0.000000000000000
1.931490182876587 -7.725415229797363 0.134479045867920 0.000000000000000
4.637814521789551 -16.535280227661133 4.575797080993652 0.003921568859369
1.904900431632996 -6.161872386932373 0.778299152851105 0.000000000000000
4.575142383575439 -16.501668930053711 4.562246799468994 0.003921568859369
3.794661045074463 -16.836635589599609 3.130047321319580 0.003921568859369
1.981663584709167 -6.457964897155762 -0.158373981714249 0.000000000000000
4.510847568511963 -16.490238189697266 4.554986476898193 0.003921568859369
1.773304939270020 -7.316379547119141 -0.220498532056808 0.000000000000000
4.441978454589844 -16.459821701049805 4.542551994323730 0.003921568859369
4.052970409393311 -15.128272056579590 0.358392298221588 0.000000000000000
3.162047624588013 -14.814137458801270 0.258932977914810 0.000000000000000
3.279606103897095 -12.182728767395020 0.726339936256409 0.000000000000000
2.962681055068970 -10.881995201110840 1.371446847915649 0.000000000000000
2.194264411926270 -7.845003128051758 0.987192153930664 0.000000000000000
2.629283189773560 -12.277626037597656 2.273926496505737 0.000000000000000
2.224930524826050 -6.629591464996338 0.036966834217310 0.000000000000000
1.790711879730225 -6.356634616851807 0.148672312498093 0.000000000000000
3.225942134857178 -10.505850791931152 -0.193897485733032 0.000000000000000
1.185830473899841 -3.873701572418213 0.089515700936317 0.000000000000000
2.030794858932495 -6.195454120635986 0.184007063508034 0.000000000000000
2.032096624374390 -9.853536605834961 0.170830965042114 0.000000000000000
1.565661191940308 -7.323390007019043 0.299281895160675 0.000000000000000
3.568165063858032 -12.059021949768066 0.359720140695572 0.000000000000000
1.482973337173462 -7.100277423858643 0.122111126780510 0.000000000000000
3.202922105789185 -11.139249801635742 -0.204636961221695 0.000000000000000
4.690002441406250 -21.090620040893555 2.639309406280518 0.003921568859369
3.060879468917847 -10.589969635009766 -0.449392139911652 0.000000000000000
3.750808477401733 -16.560375213623047 4.526749134063721 0.003921568859369
3.688358545303345 -16.549533843994141 4.520524024963379 0.003921568859369
3.636004924774170 -16.603448867797852 4.531889438629150 0.003921568859369
1.660703182220459 -6.828397274017334 1.861149787902832 0.000000000000000
0.841606557369232 -2.136951446533203 -0.041118424385786 0.000000000000000
5.565576076507568 -21.521629333496094 0.123626306653023 0.003921568859369
1.465190887451172 -12.346096992492676 0.139905780553818 0.000000000000000
1.579237461090088 -6.651110172271729 0.827778697013855 0.000000000000000
