# This PCD file was generated using the MATLAB® pcwrite function
# from Computer Vision Toolbox®.
# .PCD v.7 - Point Cloud Data file format
VERSION .7
FIELDS x y z intensity
SIZE 8 8 8 8
TYPE F F F F
COUNT 1 1 1 1
WIDTH 648
HEIGHT 1
VIEWPOINT 0 0 0 1 0 0 0
POINTS 648
DATA ascii
-10.063006401062012 26.403242111206055 5.147548198699951 0.003921568859369
-1.501458168029785 3.740971565246582 -0.797402679920197 0.000000000000000
-9.965269088745117 26.423091888427734 5.144686222076416 0.003921568859369
-1.401196956634521 3.044583559036255 -0.925126254558563 0.000000000000000
-1.485022783279419 3.738702297210693 -0.795832872390747 0.000000000000000
-5.649708271026611 15.025541305541992 2.921989440917969 0.003921568859369
-1.382115602493286 3.027566671371460 -0.918656587600708 0.000000000000000
-1.471272706985474 3.739572048187256 -0.795047461986542 0.000000000000000
-3.429209709167480 7.881977081298828 2.293509960174561 0.000000000000000
-1.351725339889526 2.986011743545532 -0.904640138149261 0.000000000000000
-1.461551904678345 3.755620002746582 -0.797398805618286 0.000000000000000
-1.565069198608398 3.066267013549805 0.020862856879830 0.000000000000000
-1.333940267562866 2.972542762756348 -0.899248600006104 0.000000000000000
-1.445796966552734 3.752942323684692 -0.795829057693481 0.000000000000000
-1.326054573059082 2.979951858520508 -0.900325775146484 0.000000000000000
-1.431384086608887 3.749738216400146 -0.794259428977966 0.000000000000000
-1.314604043960571 2.984616041183472 -0.900324583053589 0.000000000000000
-1.418270349502563 3.758504152297974 -0.795042335987091 0.000000000000000
-1.403722286224365 3.766772985458374 -0.795825898647308 0.000000000000000
-1.285358071327209 2.978663921356201 -0.896010756492615 0.000000000000000
-1.389299511909485 3.767578840255737 -0.795040428638458 0.000000000000000
-1.273545503616333 2.979188203811646 -0.894931614398956 0.000000000000000
-1.377395391464233 3.775761842727661 -0.795823335647583 0.000000000000000
-3.516966581344604 8.687766075134277 2.502697229385376 0.000000000000000
-1.261742115020752 2.979666709899902 -0.893852472305298 0.000000000000000
-1.365447998046875 3.783908843994141 -0.796606361865997 0.000000000000000
-1.255145549774170 2.990480899810791 -0.896007716655731 0.000000000000000
-1.353554964065552 3.787856340408325 -0.796605229377747 0.000000000000000
-1.245024561882019 2.998483419418335 -0.897084712982178 0.000000000000000
-1.335354208946228 3.781442880630493 -0.794251143932343 0.000000000000000
-1.229117989540100 2.988033533096313 -0.892771303653717 0.000000000000000
-1.328159332275391 3.804389238357544 -0.798171043395996 0.000000000000000
-1.220025777816772 2.995555877685547 -0.893848299980164 0.000000000000000
-1.314871072769165 3.808643102645874 -0.798169791698456 0.000000000000000
-2.834392070770264 8.583189964294434 1.643807888031006 0.000000000000000
-1.209275603294373 2.995436906814575 -0.892769336700439 0.000000000000000
-1.305255532264709 3.819914340972900 -0.799737155437469 0.000000000000000
-1.196968674659729 2.995853424072266 -0.891690194606781 0.000000000000000
-1.286592364311218 3.809312343597412 -0.796598970890045 0.000000000000000
-1.156761288642883 2.885512351989746 0.001136832521297 0.000000000000000
-1.189120888710022 3.006900072097778 -0.893845260143280 0.000000000000000
-1.277889966964722 3.828419923782349 -0.799734592437744 0.000000000000000
-1.172137498855591 2.992536306381226 -0.888453900814056 0.000000000000000
-1.265655517578125 3.836252689361572 -0.800517618656158 0.000000000000000
-1.157703161239624 2.992619037628174 -0.887375414371490 0.000000000000000
-1.252927899360657 3.851561784744263 -0.802869677543640 0.000000000000000
-1.148521661758423 2.999928474426270 -0.888452529907227 0.000000000000000
-1.236142992973328 3.844276905059814 -0.800515770912170 0.000000000000000
-3.970520019531250 15.923214912414551 -0.188723474740982 0.003921568859369
-2.369995117187500 6.495032310485840 0.846158504486084 0.000000000000000
-1.139300584793091 3.007210254669189 -0.889529585838318 0.000000000000000
-1.224912285804749 3.855750083923340 -0.802083015441895 0.000000000000000
-1.596113324165344 4.328987121582031 0.267970561981201 0.000000000000000
-1.132341384887695 3.017749309539795 -0.891684830188751 0.000000000000000
-1.209534883499146 3.847957134246826 -0.799729168415070 0.000000000000000
-1.113874554634094 2.999616384506226 -0.885215282440186 0.000000000000000
-1.198640823364258 3.863316059112549 -0.802080571651459 0.000000000000000
-3.297698020935059 11.245306968688965 2.133319854736328 0.000000000000000
-5.010842323303223 12.620161056518555 -0.234673887491226 0.000000000000000
-1.105313539505005 3.010618686676025 -0.887370407581329 0.000000000000000
-1.190827012062073 3.889976501464844 -0.806784629821777 0.000000000000000
-1.086349129676819 2.988502740859985 -0.879822909832001 0.000000000000000
-1.175149679183960 3.886198997497559 -0.805214881896973 0.000000000000000
-1.078300118446350 2.999250888824463 -0.881978094577789 0.000000000000000
-1.161578297615051 3.889926910400391 -0.805213689804077 0.000000000000000
-1.071237206459045 3.009640693664551 -0.884133279323578 0.000000000000000
-1.153433203697205 3.908391475677490 -0.808349549770355 0.000000000000000
-1.636673688888550 4.761592388153076 1.341945409774780 0.000000000000000
-1.061369419097900 3.016849279403687 -0.885210335254669 0.000000000000000
-1.142121791839600 3.923598289489746 -0.810700833797455 0.000000000000000
-1.045051574707031 3.001814603805542 -0.879819035530090 0.000000000000000
-1.131400465965271 3.938594818115234 -0.813052296638489 0.000000000000000
-1.035091161727905 3.004931211471558 -0.879818081855774 0.000000000000000
-1.120294213294983 3.949588775634766 -0.814619541168213 0.000000000000000
-3.417592525482178 12.843574523925781 2.420436859130859 0.000000000000000
-1.020245790481567 3.004655122756958 -0.878739655017853 0.000000000000000
-1.104078292846680 3.957102060317993 -0.815403103828430 0.000000000000000
-2.486919164657593 9.392876625061035 1.768738508224487 0.000000000000000
-1.010869026184082 3.011544227600098 -0.879816710948944 0.000000000000000
-1.091211795806885 3.964396476745605 -0.816186130046844 0.000000000000000
-3.285579442977905 12.718764305114746 1.072255492210388 0.000000000000000
-4.160347938537598 13.395316123962402 3.752628803253174 0.000000000000000
-0.997036755084991 3.003643035888672 -0.876581549644470 0.000000000000000
-1.077368140220642 3.967840433120728 -0.816184937953949 0.000000000000000
-3.628869295120239 10.094452857971191 -0.185091495513916 0.000000000000000
-0.990350067615509 3.017690658569336 -0.879814803600311 0.000000000000000
-1.067916035652161 3.986311674118042 -0.819320559501648 0.000000000000000
-2.948782205581665 9.636274337768555 2.694339513778687 0.000000000000000
-0.974966168403625 3.006151676177979 -0.875501573085785 0.000000000000000
-2.088767051696777 8.311719894409180 1.559888482093811 0.000000000000000
-0.964468002319336 3.009196043014526 -0.875500559806824 0.000000000000000
-1.048368930816650 4.031329631805420 -0.827160120010376 0.000000000000000
-1.691266059875488 6.757006645202637 -0.362412750720978 0.000000000000000
-1.398032665252686 3.804464340209961 -0.162609353661537 0.000000000000000
-4.857485771179199 20.180074691772461 3.782728433609009 0.003921568859369
-0.952904462814331 3.008499383926392 -0.874421536922455 0.000000000000000
-1.034289956092834 4.034624099731445 -0.827158927917480 0.000000000000000
-1.386022806167603 3.812767267227173 -0.162770688533783 0.000000000000000
-3.266894578933716 13.649612426757812 2.556834459304810 0.000000000000000
-0.944478690624237 3.018883228302002 -0.876576721668243 0.000000000000000
-1.024569869041443 4.056989192962646 -0.831078767776489 0.000000000000000
-0.934462070465088 3.021675348281860 -0.876575827598572 0.000000000000000
-1.008527278900146 4.048560619354248 -0.828724980354309 0.000000000000000
-4.186492443084717 18.171485900878906 1.522764682769775 0.000000000000000
-0.919848203659058 3.009716033935547 -0.872262716293335 0.000000000000000
-1.002016782760620 4.086182594299316 -0.835781514644623 0.000000000000000
-0.912345707416534 3.023725032806396 -0.875495851039886 0.000000000000000
-4.790450096130371 28.100784301757812 0.334702402353287 0.003921568859369
-0.900795936584473 3.022828578948975 -0.874416887760162 0.000000000000000
-1.778954029083252 7.855206966400146 0.657311618328094 0.000000000000000
-0.889492571353912 3.033065557479858 -0.876572668552399 0.000000000000000
-4.466919898986816 27.354867935180664 -0.319522738456726 0.003921568859369
-0.879430711269379 3.035683631896973 -0.876571774482727 0.000000000000000
-4.452220439910889 27.855270385742188 -0.325206845998764 0.003921568859369
-4.567239761352539 28.590225219726562 0.339972555637360 0.003921568859369
-1.488669753074646 6.735480785369873 0.281666636466980 0.000000000000000
-0.866927087306976 3.030938625335693 -0.874414741992950 0.000000000000000
-4.335614204406738 27.743791580200195 -0.323718428611755 0.003921568859369
-4.431749820709229 28.372388839721680 0.337215900421143 0.003921568859369
-0.854874968528748 3.030011892318726 -0.873335778713226 0.000000000000000
-4.252177238464355 27.881784439086914 -0.325144678354263 0.003921568859369
-3.269031286239624 15.912337303161621 1.326708197593689 0.000000000000000
-0.847990095615387 3.047604084014893 -0.877646982669830 0.000000000000000
-4.107596874237061 27.571567535400391 -0.321342945098877 0.003921568859369
-0.838258862495422 3.053956985473633 -0.878724098205566 0.000000000000000
-4.213734626770020 29.011009216308594 -0.337991505861282 0.003921568859369
-4.153622150421143 28.587230682373047 0.339254945516586 0.003921568859369
-0.829025030136108 3.060151100158691 -0.879801273345947 0.000000000000000
-4.067028999328613 28.659963607788086 0.339965343475342 0.003921568859369
-5.260850429534912 27.926141738891602 -0.823543250560760 0.003921568859369
-0.816918432712555 3.059072494506836 -0.878722250461578 0.000000000000000
-1.835280179977417 7.373287200927734 0.001468411297537 0.000000000000000
-3.984401941299438 28.840810775756836 0.341941893100739 0.003921568859369
-1.200347423553467 4.683021545410156 0.592106044292450 0.000000000000000
-1.377834320068359 6.934723377227783 0.577197015285492 0.000000000000000
-5.176188468933105 28.014816284179688 -0.825624585151672 0.003921568859369
-0.807108044624329 3.065326213836670 -0.879799365997314 0.000000000000000
-3.002977848052979 10.221761703491211 0.310921728610992 0.000000000000000
-5.103553295135498 28.174102783203125 -0.829795360565186 0.003921568859369
-0.799837172031403 3.082814455032349 -0.884110569953918 0.000000000000000
-6.706290245056152 23.551109313964844 0.714414000511169 0.003921568859369
-0.789073824882507 3.085256099700928 -0.884109675884247 0.000000000000000
-0.513616740703583 2.403444528579712 0.445971399545670 0.000000000000000
-0.778837978839874 3.087541103363037 -0.884108781814575 0.000000000000000
-4.754107475280762 27.284490585327148 -0.157917112112045 0.003921568859369
-0.763719975948334 3.082381486892700 -0.881952464580536 0.000000000000000
-4.916541576385498 28.857913970947266 2.391613006591797 0.003921568859369
-0.754568874835968 3.092240095138550 -0.884107589721680 0.000000000000000
-4.583273410797119 27.454536437988281 -0.158706307411194 0.003921568859369
-1.146121501922607 4.919734001159668 0.294326871633530 0.000000000000000
-0.747740626335144 3.113379478454590 -0.889496862888336 0.000000000000000
-4.728196620941162 28.973560333251953 2.398470163345337 0.003921568859369
-0.738428771495819 3.123193502426147 -0.891652047634125 0.000000000000000
-3.069066286087036 27.899600982666016 0.329768836498260 0.003921568859369
-0.728290617465973 3.129204750061035 -0.892729163169861 0.000000000000000
-3.060281515121460 28.769256591796875 -0.333512574434280 0.003921568859369
-4.360816001892090 27.927087783813477 -0.161162227392197 0.003921568859369
-2.171517848968506 10.228210449218750 1.283264517784119 0.000000000000000
-4.607731819152832 29.541183471679688 2.442788362503052 0.003921568859369
-1.798795819282532 11.163871765136719 2.060944795608521 0.000000000000000
-0.718870937824249 3.138961553573608 -0.894884288311005 0.000000000000000
-2.936434268951416 28.544626235961914 -0.330776035785675 0.003921568859369
-4.241857528686523 28.479040145874023 -0.834484100341797 0.003921568859369
-0.706427335739136 3.133569717407227 -0.892727315425873 0.000000000000000
-0.649482071399689 3.823741674423218 0.705807685852051 0.000000000000000
-0.699124276638031 3.154607295989990 -0.898116528987885 0.000000000000000
-2.811946153640747 29.372268676757812 -0.340150296688080 0.003921568859369
-4.089516162872314 28.120744705200195 -0.162011131644249 0.003921568859369
-2.779539346694946 29.021732330322266 0.342548549175262 0.003921568859369
-0.688107967376709 3.156707048416138 -0.898115634918213 0.000000000000000
-2.677454948425293 29.023031234741211 -0.335979998111725 0.003921568859369
-0.885979175567627 4.204458713531494 0.100829370319843 0.000000000000000
-2.544423103332520 27.528991699218750 0.324883341789246 0.003921568859369
-1.507202386856079 5.897958278656006 0.177886098623276 0.000000000000000
-5.555304050445557 28.938728332519531 1.718142867088318 0.003921568859369
-0.677788615226746 3.162554979324341 -0.899192750453949 0.000000000000000
-2.561487913131714 28.860515594482422 -0.333983749151230 0.003921568859369
-2.605517387390137 29.374542236328125 0.346501410007477 0.003921568859369
-0.798503816127777 3.813884735107422 0.477501392364502 0.000000000000000
-0.669363021850586 3.175849437713623 -0.902426004409790 0.000000000000000
-2.487720727920532 29.135622024536133 -0.337075352668762 0.003921568859369
-2.419922351837158 28.310405731201172 0.333898067474365 0.003921568859369
-3.923502445220947 29.098939895629883 2.399185419082642 0.003921568859369
-3.868643760681152 29.438158035278320 -0.860559523105621 0.003921568859369
-0.661533236503601 3.192914724349976 -0.906737267971039 0.000000000000000
-2.401788949966431 29.278976440429688 -0.338640689849854 0.003921568859369
-5.136713504791260 28.289836883544922 0.671690464019775 0.003921568859369
-2.335154771804810 28.433605194091797 0.335264533758163 0.003921568859369
-0.648345828056335 3.198675632476807 -0.907814979553223 0.000000000000000
-2.322272062301636 29.625885009765625 -0.342565447092056 0.003921568859369
-5.030959606170654 28.283658981323242 0.671137332916260 0.003921568859369
-2.224628210067749 28.329589843750000 0.333957880735397 0.003921568859369
-5.236362934112549 29.458869934082031 1.744718194007874 0.003921568859369
-3.580192565917969 27.981739044189453 5.144520759582520 0.003921568859369
-0.637916803359985 3.208295822143555 -0.909970104694366 0.000000000000000
-4.884799003601074 28.052654266357422 1.660437583923340 0.003921568859369
-0.629818975925446 3.225293397903442 -0.914281249046326 0.000000000000000
-2.112117052078247 29.592864990234375 -0.341995418071747 0.003921568859369
-2.021888732910156 28.271978378295898 0.333128422498703 0.003921568859369
-4.789758205413818 28.056589126586914 1.659746646881104 0.003921568859369
-4.764062404632568 27.902318954467773 3.476769685745239 0.003921568859369
-0.623596251010895 3.261464595794678 -0.923982501029968 0.000000000000000
-4.750245094299316 28.460947036743164 0.674148797988892 0.003921568859369
-2.001627445220947 29.568092346191406 0.348279565572739 0.003921568859369
-4.673993110656738 27.994810104370117 1.655098080635071 0.003921568859369
-0.579009532928467 2.988799810409546 -0.139902308583260 0.000000000000000
-0.298506915569305 3.406666994094849 -0.317378193140030 0.000000000000000
-4.464158058166504 27.280433654785156 1.612028717994690 0.003921568859369
-1.789880990982056 29.400789260864258 -0.339522182941437 0.003921568859369
-3.188912153244019 28.953994750976562 -0.166043221950531 0.003921568859369
-4.554550647735596 28.480157852172852 0.673884272575378 0.003921568859369
-1.713488221168518 28.079030990600586 0.330664843320847 0.003921568859369
-4.602601528167725 28.785173416137695 3.580687522888184 0.003921568859369
-0.526231467723846 4.078903198242188 0.336171895265579 0.000000000000000
-1.613971471786499 28.148752212524414 -0.324948489665985 0.003921568859369
-4.486420631408691 28.733507156372070 0.679493486881256 0.003921568859369
-4.362534046173096 27.922439575195312 3.471435785293579 0.003921568859369
-3.041091680526733 28.560079574584961 2.347124099731445 0.003921568859369
-1.977968215942383 18.271474838256836 3.351553440093994 0.003921568859369
-1.468800902366638 6.902370929718018 -0.121413670480251 0.000000000000000
-3.013777256011963 29.297914505004883 -0.853650271892548 0.003921568859369
-0.589391529560089 3.344797611236572 -0.945539236068726 0.000000000000000
-4.370141029357910 28.641895294189453 0.676981091499329 0.003921568859369
-1.505636453628540 27.954118728637695 0.329084992408752 0.003921568859369
-1.752058744430542 8.319798469543457 0.248472586274147 0.000000000000000
-2.959204196929932 28.748725891113281 2.361791133880615 0.003921568859369
-4.348181724548340 28.495674133300781 -0.667360186576843 0.003921568859369
-2.764574289321899 27.731435775756836 -0.807686626911163 0.003921568859369
-0.578852653503418 3.350248575210571 -0.946616411209106 0.000000000000000
-1.879389524459839 12.253861427307129 0.001876048278064 0.000000000000000
-1.497782588005066 29.752586364746094 -0.343384355306625 0.003921568859369
-2.886684179306030 28.996812820434570 -0.166089147329330 0.003921568859369
-4.403435230255127 29.534368515014648 0.697711884975433 0.003921568859369
-1.490453839302063 29.596712112426758 0.348316162824631 0.003921568859369
-4.336196899414062 29.073467254638672 1.714280962944031 0.003921568859369
-4.189585208892822 28.068731307983398 3.486084222793579 0.003921568859369
-2.876477956771851 28.889036178588867 2.372548580169678 0.003921568859369
-2.802444219589233 29.189743041992188 -0.849921703338623 0.003921568859369
-4.154772758483887 28.527845382690430 0.673635900020599 0.003921568859369
-1.376104354858398 29.349678039550781 0.345369368791580 0.003921568859369
-2.235704898834229 11.134110450744629 0.331760615110397 0.000000000000000
-4.108949661254883 28.204713821411133 3.501212596893311 0.003921568859369
-2.770828008651733 28.846981048583984 2.368321180343628 0.003921568859369
-1.280685782432556 29.529895782470703 -0.340687930583954 0.003921568859369
-4.127800464630127 29.064699172973633 0.685966074466705 0.003921568859369
-1.224954128265381 28.147056579589844 0.331215441226959 0.003921568859369
-4.002267837524414 28.159585952758789 3.493903875350952 0.003921568859369
-4.000038623809814 28.145889282226562 -0.658154308795929 0.003921568859369
-2.582228183746338 29.076946258544922 -0.846076548099518 0.003921568859369
-0.544705331325531 3.366720199584961 -0.949847579002380 0.000000000000000
-1.182563781738281 29.809858322143555 -0.343870639801025 0.003921568859369
-0.534776270389557 3.402657508850098 -0.959549546241760 0.000000000000000
-1.027395486831665 28.358390808105469 -0.327034950256348 0.003921568859369
-1.058861732482910 29.305747985839844 0.344733506441116 0.003921568859369
-3.831758499145508 28.445693969726562 1.674028038978577 0.003921568859369
-2.458755254745483 28.850057601928711 2.366388320922852 0.003921568859369
-3.819708347320557 28.355541229248047 -0.662406384944916 0.003921568859369
-1.167645573616028 6.055257797241211 -0.105968289077282 0.000000000000000
-2.378299236297607 28.989213943481445 -0.843046367168427 0.003921568859369
-0.530463576316833 3.453716278076172 -0.973562836647034 0.000000000000000
-0.937825262546539 28.345211029052734 -0.326843827962875 0.003921568859369
-2.419935703277588 29.515329360961914 -0.168782055377960 0.003921568859369
-0.974356949329376 29.560525894165039 0.347694247961044 0.003921568859369
-3.775528669357300 28.714246749877930 3.557824373245239 0.003921568859369
-1.572271823883057 8.493672370910645 -0.148931667208672 0.000000000000000
-0.516017377376556 3.436132192611694 -0.968171834945679 0.000000000000000
-0.830384016036987 28.028142929077148 -0.323138296604156 0.003921568859369
-2.342191934585571 29.858335494995117 -0.170700669288635 0.003921568859369
-0.861399412155151 29.195600509643555 0.343387037515640 0.003921568859369
-3.460877895355225 27.011732101440430 1.588351011276245 0.003921568859369
-3.751048564910889 29.333635330200195 3.632949829101562 0.003921568859369
-2.290782928466797 29.175235748291016 2.391812562942505 0.003921568859369
-0.507449328899384 3.475995540618896 -0.978950917720795 0.000000000000000
-0.729944288730621 28.346689224243164 -0.326783239841461 0.003921568859369
-4.732217788696289 27.177253723144531 0.163191154599190 0.003921568859369
-2.196093797683716 29.427906036376953 -0.168170019984245 0.003921568859369
-2.177621603012085 29.167577743530273 2.390517950057983 0.003921568859369
-2.091006755828857 29.250955581665039 -0.849986791610718 0.003921568859369
-0.489315778017044 3.416091442108154 -0.961701989173889 0.000000000000000
-0.640723109245300 28.340572357177734 -0.326684683561325 0.003921568859369
-2.100343227386475 29.386495590209961 -0.167888164520264 0.003921568859369
-0.478701353073120 3.428956508636475 -0.964935004711151 0.000000000000000
-0.540128946304321 28.238353729248047 -0.325475931167603 0.003921568859369
-4.662633419036865 27.882425308227539 0.167230725288391 0.003921568859369
-1.923545479774475 28.251779556274414 -0.161323383450508 0.003921568859369
-0.442703485488892 28.331748962402344 -0.326532483100891 0.003921568859369
-0.189671456813812 8.182667732238770 0.096914626657963 0.000000000000000
-1.786326646804810 29.478502273559570 -0.855998039245605 0.003921568859369
-0.172707051038742 9.842844963073730 -0.112809449434280 0.000000000000000
-1.683653473854065 29.488245010375977 -0.856106698513031 0.003921568859369
-1.200105309486389 7.275072574615479 0.044275492429733 0.000000000000000
-2.943598508834839 27.645097732543945 0.649819374084473 0.003921568859369
-3.133751630783081 29.484510421752930 1.729510784149170 0.003921568859369
-3.119019746780396 29.343704223632812 -0.683212876319885 0.003921568859369
-1.518486857414246 28.071561813354492 -0.814790487289429 0.003921568859369
-1.593677639961243 29.544996261596680 -0.168584838509560 0.003921568859369
-2.967505693435669 28.760099411010742 0.675780653953552 0.003921568859369
-2.932834863662720 28.413192749023438 1.666178464889526 0.003921568859369
-1.564306616783142 28.965549468994141 2.371014118194580 0.003921568859369
-2.976183652877808 28.847757339477539 -0.671427607536316 0.003921568859369
-1.415784955024719 28.080615997314453 -0.814899206161499 0.003921568859369
-1.258077502250671 8.018658638000488 0.048658497631550 0.000000000000000
-1.478957056999207 29.414478302001953 -0.167797774076462 0.003921568859369
-2.721171617507935 27.309648513793945 0.641524255275726 0.003921568859369
-1.461907863616943 29.050416946411133 2.377537488937378 0.003921568859369
-0.806812584400177 15.207630157470703 2.778108835220337 0.000000000000000
-2.924957036972046 29.423372268676758 -0.684588968753815 0.003921568859369
-1.330353736877441 28.372688293457031 -0.823246896266937 0.003921568859369
-2.840300559997559 29.625654220581055 1.736053824424744 0.003921568859369
-2.781914472579956 28.995931625366211 3.578876018524170 0.003921568859369
-1.361009240150452 29.066986083984375 2.378521919250488 0.003921568859369
-2.793361425399780 29.122522354125977 -0.677347481250763 0.003921568859369
-1.296205520629883 29.926733016967773 -0.868263304233551 0.003921568859369
-4.045526981353760 28.477178573608398 0.170203536748886 0.003921568859369
-1.264209747314453 29.135511398315430 -0.166134640574455 0.003921568859369
-2.729228496551514 29.523267745971680 1.729539632797241 0.003921568859369
-1.272911429405212 29.345909118652344 2.401006460189819 0.003921568859369
-3.933747053146362 28.399667739868164 0.169669762253761 0.003921568859369
-1.178185224533081 29.563154220581055 -0.168557032942772 0.003921568859369
-2.582730531692505 29.028608322143555 0.681224644184113 0.003921568859369
-2.594999790191650 29.170276641845703 1.708356142044067 0.003921568859369
-3.878774404525757 28.786354064941406 0.171891376376152 0.003921568859369
-1.071428775787354 29.614940643310547 -0.168824493885040 0.003921568859369
-2.452357053756714 28.746635437011719 0.674416661262512 0.003921568859369
-2.503662347793579 29.366802215576172 3.621335029602051 0.003921568859369
-1.049878835678101 28.963184356689453 2.369094133377075 0.003921568859369
-0.564252734184265 5.825788497924805 1.567792057991028 0.000000000000000
-1.037176847457886 28.576196670532227 5.216485500335693 0.003921568859369
-0.978450298309326 29.621904373168945 -0.859075248241425 0.003921568859369
-3.741876840591431 28.437112808227539 0.169755473732948 0.003921568859369
-2.272134065628052 27.618274688720703 1.616619586944580 0.003921568859369
-2.347731590270996 28.570835113525391 3.522320032119751 0.003921568859369
-0.946199595928192 28.539714813232422 5.209313392639160 0.003921568859369
-2.305096626281738 28.036489486694336 -0.651260256767273 0.003921568859369
-0.878892242908478 29.768733978271484 -0.863245189189911 0.003921568859369
-0.878407657146454 29.748788833618164 -0.169544234871864 0.003921568859369
-2.298047065734863 29.239685058593750 3.603788375854492 0.003921568859369
-2.295065402984619 29.204437255859375 -0.678239226341248 0.003921568859369
-0.748014628887177 28.607704162597656 -0.162983059883118 0.003921568859369
-2.087224960327148 27.744081497192383 0.650441884994507 0.003921568859369
-2.104284524917603 27.979383468627930 1.636893630027771 0.003921568859369
-2.207109689712524 29.401666641235352 3.622819900512695 0.003921568859369
-2.196557044982910 29.259840011596680 -0.679344654083252 0.003921568859369
-0.639960110187531 28.445978164672852 -0.162036344408989 0.003921568859369
-1.989629864692688 27.811080932617188 0.651849865913391 0.003921568859369
-1.871649742126465 27.570465087890625 0.646068155765533 0.003921568859369
-1.901726245880127 28.033288955688477 1.639237403869629 0.003921568859369
-0.334779173135757 15.784734725952148 0.645450472831726 0.000000000000000
-1.963795781135559 28.988559722900391 3.570153951644897 0.003921568859369
-0.259581923484802 11.045655250549316 0.903724014759064 0.000000000000000
-0.443330645561218 28.217710494995117 -0.817965924739838 0.003921568859369
-0.444538742303848 28.309118270874023 -0.161221191287041 0.003921568859369
-1.732090473175049 26.717807769775391 0.625999212265015 0.003921568859369
-1.793727159500122 27.716024398803711 1.620380759239197 0.003921568859369
-1.866351604461670 28.891294479370117 3.557477712631226 0.003921568859369
-1.900380730628967 29.447992324829102 -0.683217167854309 0.003921568859369
-1.714300751686096 28.020851135253906 0.656352519989014 0.003921568859369
-1.707410931587219 27.901212692260742 1.630867123603821 0.003921568859369
-1.757886171340942 28.766542434692383 3.541387796401978 0.003921568859369
-0.180975735187531 10.468527793884277 0.856489181518555 0.000000000000000
-1.805246353149414 29.585893630981445 -0.686269879341125 0.003921568859369
-1.597944617271423 27.775392532348633 1.623189449310303 0.003921568859369
-0.134282037615776 8.977805137634277 0.734645068645477 0.000000000000000
-1.692641019821167 29.516134262084961 -0.684500217437744 0.003921568859369
-1.501202583312988 27.784492492675781 1.623429298400879 0.003921568859369
-1.559474229812622 28.924488067626953 3.559451103210449 0.003921568859369
-1.523229598999023 28.219614028930664 -0.654263317584991 0.003921568859369
-2.895184040069580 29.119743347167969 0.173262417316437 0.003921568859369
-0.072641044855118 6.279757499694824 -0.035009633749723 0.000000000000000
-1.482475757598877 29.498571395874023 0.690548539161682 0.003921568859369
-1.416182398796082 28.104631423950195 -0.651475727558136 0.003921568859369
-2.814940929412842 29.304153442382812 0.174306258559227 0.003921568859369
0.001459084451199 17.585485458374023 3.208846569061279 0.003921568859369
-1.327379703521729 28.208780288696289 -0.653787374496460 0.003921568859369
-2.724811315536499 29.448965072631836 0.175114914774895 0.003921568859369
-1.291253328323364 29.743162155151367 0.696072101593018 0.003921568859369
-0.014628827571869 8.149115562438965 1.487542629241943 0.000000000000000
-1.224049329757690 28.093088150024414 -0.650998592376709 0.003921568859369
-2.597245931625366 29.171079635620117 0.173426136374474 0.003921568859369
-1.135120987892151 28.340559005737305 0.663209617137909 0.003921568859369
0.232549056410789 4.881510257720947 -0.283489704132080 0.000000000000000
-0.966601133346558 29.490547180175781 0.689930915832520 0.003921568859369
-0.325919479131699 8.142358779907227 0.476043999195099 0.000000000000000
-0.976105391979218 29.810432434082031 -0.690570473670959 0.003921568859369
-0.202049240469933 4.514584064483643 0.264352440834045 0.000000000000000
-0.840214848518372 28.426103591918945 -0.658389091491699 0.003921568859369
0.343694984912872 14.494347572326660 2.646107673645020 0.000000000000000
0.214800700545311 9.070878982543945 -0.051004897803068 0.000000000000000
-0.316014170646667 14.457395553588867 0.844249010086060 0.000000000000000
-0.540443837642670 28.304542541503906 -0.655401647090912 0.003921568859369
-0.155117481946945 5.779927730560303 0.711208581924438 0.000000000000000
-0.160237416625023 6.177289009094238 1.656881451606750 0.000000000000000
-0.147741779685020 7.165670394897461 0.881455659866333 0.000000000000000
1.039728164672852 12.123558044433594 -0.139686107635498 0.000000000000000
-0.537854373455048 8.971972465515137 0.053898662328720 0.000000000000000
-0.098522901535034 8.757452011108398 0.205480754375458 0.000000000000000
0.268347561359406 7.441560745239258 0.305122613906860 0.000000000000000
-0.092041738331318 5.830043792724609 1.563680887222290 0.000000000000000
0.538556575775146 6.216862678527832 -0.071209758520126 0.000000000000000
1.033217787742615 22.173978805541992 1.815378785133362 0.003921568859369
-0.231691002845764 3.447006225585938 0.101659066975117 0.000000000000000
-0.031468924134970 10.405500411987305 1.279517531394958 0.000000000000000
0.684156179428101 13.348446846008301 -0.386979579925537 0.000000000000000
-1.222527742385864 28.124130249023438 0.166849002242088 0.003921568859369
0.099131226539612 15.190677642822266 0.355758517980576 0.000000000000000
0.492398053407669 9.417100906372070 0.166471675038338 0.000000000000000
0.030133128166199 9.303412437438965 0.543606102466583 0.000000000000000
0.011345528066158 7.695019245147705 -0.356862485408783 0.000000000000000
0.760598421096802 7.411980628967285 -0.085203059017658 0.000000000000000
0.039088055491447 7.842502117156982 -0.363734781742096 0.000000000000000
0.054174780845642 8.852281570434570 1.088788509368896 0.000000000000000
0.600718021392822 10.068549156188965 0.412996560335159 0.000000000000000
0.173575997352600 13.630996704101562 1.676122784614563 0.000000000000000
1.013761281967163 16.188940048217773 1.327010869979858 0.000000000000000
-0.868151068687439 29.576818466186523 0.175364419817924 0.003921568859369
-0.761463642120361 29.431434631347656 0.174499109387398 0.003921568859369
0.332863420248032 14.109856605529785 0.002176205161959 0.000000000000000
0.010799653828144 2.758405923843384 0.001196603523567 0.000000000000000
0.387852132320404 5.455317020416260 0.097017847001553 0.000000000000000
1.732220649719238 12.767539024353027 0.152278587222099 0.000000000000000
0.199635773897171 2.994721651077271 0.053725127130747 0.000000000000000
0.203779876232147 6.512816905975342 0.801963388919830 0.000000000000000
0.446175515651703 5.462852954864502 -0.030442792922258 0.000000000000000
0.347527205944061 9.114507675170898 0.533145189285278 0.000000000000000
0.122757837176323 3.512249708175659 0.206148758530617 0.000000000000000
0.348650097846985 7.502565383911133 2.015230894088745 0.000000000000000
0.475553572177887 9.120694160461426 0.214388713240623 0.000000000000000
-0.031107373535633 3.901935577392578 0.114858888089657 0.000000000000000
1.172174096107483 11.377416610717773 0.936390161514282 0.000000000000000
0.101172268390656 9.568770408630371 -0.165278002619743 0.000000000000000
0.501922190189362 8.563461303710938 -0.598466336727142 0.000000000000000
0.138427898287773 11.580936431884766 0.339049816131592 0.000000000000000
0.859642148017883 12.617752075195312 0.296502619981766 0.000000000000000
0.442710995674133 6.995555400848389 -0.488945454359055 0.000000000000000
1.369431257247925 11.355005264282227 0.468353301286697 0.000000000000000
0.861730694770813 11.517947196960449 0.001990549266338 0.003921568859369
0.767932772636414 10.362914085388184 0.243823528289795 0.000000000000000
0.468926370143890 6.680067062377930 -0.154399842023849 0.000000000000000
0.717532455921173 9.339533805847168 2.513377428054810 0.000000000000000
0.634410440921783 8.024104118347168 0.990772306919098 0.000000000000000
0.480532884597778 6.038491249084473 0.001502912258729 0.000000000000000
1.760811686515808 9.577311515808105 -0.566015183925629 0.000000000000000
0.948757588863373 10.347808837890625 0.607473790645599 0.000000000000000
0.847130656242371 6.203000068664551 0.513486564159393 0.000000000000000
0.584128677845001 6.427316188812256 0.377818346023560 0.000000000000000
0.861096680164337 8.844223022460938 -0.205183938145638 0.000000000000000
0.411878883838654 8.069825172424316 0.236953929066658 0.000000000000000
0.948093831539154 6.419800281524658 1.186835646629333 0.000000000000000
0.466206908226013 8.479074478149414 0.248977363109589 0.000000000000000
1.508737564086914 9.723756790161133 0.403256177902222 0.000000000000000
0.925971508026123 6.142321586608887 0.509581208229065 0.000000000000000
1.260733604431152 10.794030189514160 0.001955007202923 0.003921568859369
1.969154357910156 16.075387954711914 0.946160316467285 0.000000000000000
1.914222955703735 10.996869087219238 0.914274275302887 0.000000000000000
1.066158175468445 6.175086498260498 0.111153639853001 0.000000000000000
0.824765741825104 6.190585136413574 1.677649855613708 0.000000000000000
4.108270645141602 21.435857772827148 3.985031127929688 0.003921568859369
1.073819994926453 7.911328315734863 -0.184312626719475 0.000000000000000
2.338756084442139 16.254293441772461 0.959455728530884 0.000000000000000
0.479829668998718 2.722884654998779 0.507760047912598 0.000000000000000
0.763435184955597 7.639157772064209 0.225303828716278 0.000000000000000
1.812038421630859 11.844927787780762 1.474749565124512 0.000000000000000
1.451450586318970 9.146715164184570 0.541822969913483 0.000000000000000
0.565432846546173 3.513106107711792 0.209198936820030 0.000000000000000
1.685766458511353 13.105370521545410 0.386986702680588 0.000000000000000
2.915727376937866 12.699132919311523 0.533699095249176 0.000000000000000
0.543541610240936 4.452108383178711 0.132162526249886 0.000000000000000
0.360988020896912 2.897826433181763 -0.118125475943089 0.000000000000000
1.746378660202026 11.965894699096680 0.354313284158707 0.000000000000000
2.682373285293579 12.082115173339844 1.523573160171509 0.000000000000000
0.546882629394531 3.205830335617065 0.020235840231180 0.000000000000000
0.878356635570526 3.770703792572021 -0.270436704158783 0.000000000000000
2.206782102584839 9.094015121459961 2.513451814651489 0.000000000000000
0.702559351921082 3.596268892288208 -0.148494660854340 0.000000000000000
4.647081851959229 12.389971733093262 -0.152002498507500 0.000000000000000
1.905939340591431 6.960366725921631 0.889855623245239 0.000000000000000
2.648554801940918 7.600912094116211 0.330526083707809 0.000000000000000
2.054412603378296 6.997370243072510 -0.168416380882263 0.000000000000000
2.832799673080444 8.038120269775391 1.559462308883667 0.000000000000000
3.403366327285767 9.513927459716797 1.848049759864807 0.000000000000000
0.995596349239349 3.094169855117798 0.877127230167389 0.000000000000000
4.243678569793701 10.866712570190430 2.133056163787842 0.000000000000000
2.905996322631836 7.333103656768799 0.324006497859955 0.000000000000000
2.717476367950439 7.705830574035645 1.007452487945557 0.000000000000000
2.824488639831543 7.916203022003174 1.036238431930542 0.000000000000000
2.950709342956543 8.182858467102051 1.072342514991760 0.000000000000000
2.867043733596802 6.567085266113281 -0.040076546370983 0.000000000000000
4.814192295074463 10.836659431457520 0.972053050994873 0.000000000000000
0.850948572158813 2.264809131622314 -0.055558819323778 0.000000000000000
1.349354505538940 3.409018039703369 -0.084461756050587 0.000000000000000
4.109296798706055 8.471843719482422 -0.272788584232330 0.000000000000000
1.538515686988831 3.241382598876953 -0.019661456346512 0.000000000000000
1.535543799400330 3.634574651718140 -0.275988578796387 0.000000000000000
3.855170965194702 8.869347572326660 0.001957903616130 0.003921568859369
4.039783477783203 8.180105209350586 0.161566793918610 0.000000000000000
5.105836868286133 10.217608451843262 0.936544179916382 0.000000000000000
3.020177841186523 5.984256744384766 0.119079388678074 0.000000000000000
3.203954696655273 5.645149707794189 -0.377888292074203 0.000000000000000
2.678813695907593 5.968781471252441 0.001635602791794 0.000000000000000
4.129865646362305 10.255228042602539 0.324415951967239 0.000000000000000
6.353004932403564 12.059019088745117 2.492032527923584 0.000000000000000
4.736612319946289 10.005957603454590 0.260239958763123 0.000000000000000
5.315009593963623 9.936626434326172 2.061299324035645 0.000000000000000
6.665084362030029 13.910767555236816 1.899343609809875 0.000000000000000
6.433903217315674 13.307369232177734 0.864587008953094 0.000000000000000
4.223952293395996 7.781097412109375 1.620514392852783 0.000000000000000
2.281560897827148 5.392751693725586 -0.100990608334541 0.000000000000000
3.930702447891235 9.208320617675781 0.060295455157757 0.000000000000000
4.714537143707275 8.463066101074219 -0.280663907527924 0.000000000000000
3.711890220642090 6.681827068328857 -0.042802516371012 0.000000000000000
2.141935110092163 4.974050045013428 -0.219932392239571 0.000000000000000
7.797358989715576 13.604539871215820 -0.454453319311142 0.000000000000000
2.949637651443481 5.841581344604492 0.807929515838623 0.000000000000000
7.548278808593750 12.967963218688965 1.229523539543152 0.000000000000000
6.334555149078369 10.809613227844238 1.027151823043823 0.000000000000000
6.319523334503174 11.995784759521484 1.670043826103210 0.000000000000000
2.873871803283691 4.372283458709717 0.062745347619057 0.000000000000000
6.380090713500977 10.626153945922852 1.016017556190491 0.000000000000000
4.798254489898682 7.947824954986572 0.381122827529907 0.000000000000000
4.455244541168213 7.385140895843506 1.578836441040039 0.000000000000000
1.935897469520569 3.201590061187744 0.687942802906036 0.000000000000000
2.887846231460571 4.629972457885742 0.449002355337143 0.000000000000000
2.139773607254028 4.299094676971436 -0.082768343389034 0.000000000000000
3.324246644973755 5.896319866180420 0.001629905542359 0.000000000000000
4.787181854248047 7.516187191009521 1.631244421005249 0.000000000000000
2.585885047912598 4.060417175292969 0.085901044309139 0.000000000000000
2.898641109466553 5.028853893280029 0.001531139365397 0.000000000000000
4.310995578765869 8.208615303039551 -0.376811772584915 0.000000000000000
6.366826534271240 10.603474617004395 1.523492217063904 0.000000000000000
3.096903324127197 5.194648742675781 -0.139793470501900 0.000000000000000
5.601823806762695 8.323999404907227 1.835720658302307 0.000000000000000
6.067046642303467 11.044122695922852 -0.218228355050087 0.000000000000000
3.416209220886230 5.023570537567139 -0.033986110240221 0.000000000000000
7.104350090026855 11.548512458801270 1.669852972030640 0.000000000000000
6.054434776306152 9.852254867553711 3.106791734695435 0.000000000000000
4.162973880767822 6.691413402557373 0.001640253234655 0.000000000000000
3.091913223266602 5.531715393066406 -0.257575213909149 0.000000000000000
2.430822134017944 3.488820791244507 0.781184375286102 0.000000000000000
7.877780914306641 13.640126228332520 -0.272928595542908 0.000000000000000
2.491880893707275 3.878130912780762 0.001234067138284 0.000000000000000
5.210328102111816 6.359572410583496 0.097582057118416 0.000000000000000
4.291058540344238 6.389352321624756 2.069998502731323 0.000000000000000
4.383500099182129 5.884763717651367 1.343881845474243 0.000000000000000
8.260542869567871 12.057705879211426 0.854699194431305 0.000000000000000
6.271438121795654 8.100710868835449 0.840131223201752 0.000000000000000
10.262012481689453 14.209757804870605 1.024327993392944 0.000000000000000
3.996980667114258 4.924886226654053 0.521051347255707 0.000000000000000
7.936273574829102 9.592453956604004 2.276210784912109 0.000000000000000
1.461317300796509 2.195399045944214 -0.169403359293938 0.000000000000000
6.111787796020508 7.347946643829346 1.748620748519897 0.000000000000000
3.649887800216675 5.280983448028564 0.188759922981262 0.000000000000000
3.343848705291748 3.925796031951904 0.212128683924675 0.000000000000000
6.366461753845215 7.282243251800537 0.396479129791260 0.000000000000000
8.710269927978516 10.905390739440918 1.718200564384460 0.000000000000000
5.113264560699463 5.732317924499512 1.406116247177124 0.000000000000000
9.016948699951172 9.942073822021484 -0.702903270721436 0.000000000000000
13.974385261535645 15.279583930969238 3.781978130340576 0.003921568859369
6.282497406005859 7.441318988800049 2.616447210311890 0.000000000000000
7.399519920349121 8.513820648193359 3.029633045196533 0.000000000000000
7.503818511962891 7.669301509857178 0.879166960716248 0.000000000000000
4.790198802947998 4.419158935546875 -0.379824250936508 0.000000000000000
1.867781043052673 2.117494821548462 -0.131678059697151 0.000000000000000
2.538566350936890 3.050516128540039 -0.068759247660637 0.000000000000000
9.495242118835449 9.227379798889160 2.419331789016724 0.000000000000000
11.664284706115723 10.062439918518066 0.181168913841248 0.000000000000000
6.278784751892090 5.428047657012939 -0.483532518148422 0.000000000000000
4.946705341339111 4.723913669586182 0.561137437820435 0.000000000000000
1.908094167709351 2.204423666000366 0.086181819438934 0.000000000000000
1.419917106628418 1.336680769920349 0.360162943601608 0.000000000000000
9.389313697814941 9.452245712280273 1.639858245849609 0.000000000000000
3.108971834182739 2.834001302719116 0.771336197853088 0.000000000000000
5.160765647888184 4.655977249145508 0.284900516271591 0.000000000000000
6.961336135864258 6.182524204254150 1.702196836471558 0.000000000000000
6.954136371612549 7.462582111358643 -0.177242159843445 0.000000000000000
4.674887657165527 4.131755828857422 0.255875021219254 0.000000000000000
8.892889022827148 8.646936416625977 1.526563644409180 0.000000000000000
12.760289192199707 11.238138198852539 1.391212582588196 0.000000000000000
2.858266592025757 2.776919841766357 0.000755828747060 0.000000000000000
3.617068767547607 3.411920785903931 0.291507899761200 0.000000000000000
11.714617729187012 12.125131607055664 -0.686117231845856 0.003921568859369
4.694550991058350 4.420997619628906 1.733951091766357 0.000000000000000
11.400214195251465 10.622714042663574 0.910026073455811 0.000000000000000
6.479368209838867 6.576178073883057 -0.375841438770294 0.000000000000000
4.275973320007324 3.886274814605713 1.553677797317505 0.000000000000000
7.268010616302490 5.721632957458496 0.378536432981491 0.000000000000000
5.368662357330322 4.641386032104492 0.874389290809631 0.000000000000000
9.896076202392578 7.454111099243164 0.506376981735229 0.000000000000000
13.241847991943359 10.561274528503418 4.543953895568848 0.003921568859369
11.628822326660156 10.038288116455078 -0.267320752143860 0.000000000000000
2.011553525924683 1.559772491455078 0.059999566525221 0.000000000000000
6.785469055175781 4.649584770202637 1.503050684928894 0.000000000000000
3.026355981826782 1.810951709747314 -0.123205490410328 0.000000000000000
13.281229019165039 7.849689006805420 -0.538353562355042 0.003921568859369
10.202828407287598 6.675633907318115 0.997354567050934 0.000000000000000
1.897088885307312 1.121034979820251 -0.077047236263752 0.000000000000000
6.944754123687744 5.049319744110107 2.305198192596436 0.000000000000000
11.582861900329590 8.354613304138184 0.833438515663147 0.000000000000000
11.826862335205078 9.442244529724121 -0.616195321083069 0.000000000000000
10.278950691223145 5.983427524566650 -0.415079355239868 0.000000000000000
3.389274835586548 2.090029954910278 -0.115832701325417 0.000000000000000
5.084001064300537 3.130653858184814 0.244229301810265 0.000000000000000
9.399556159973145 5.780566692352295 0.902473330497742 0.000000000000000
11.897102355957031 7.146279335021973 2.533403635025024 0.000000000000000
8.930015563964844 4.708230495452881 -0.942975819110870 0.000000000000000
8.875783920288086 4.640120506286621 -0.935543119907379 0.000000000000000
8.866559982299805 4.594372272491455 -0.932687878608704 0.000000000000000
2.317334651947021 1.677275657653809 -0.183637216687202 0.000000000000000
12.471605300903320 7.254048347473145 2.633001089096069 0.000000000000000
8.842772483825684 4.544898033142090 -0.928599715232849 0.000000000000000
5.527443885803223 3.565700054168701 1.765541434288025 0.000000000000000
8.844382286071777 4.506743431091309 -0.927113294601440 0.000000000000000
7.970085620880127 4.565825462341309 -0.481453925371170 0.000000000000000
8.860060691833496 4.475800037384033 -0.927113711833954 0.000000000000000
3.296348571777344 1.876960873603821 0.066713608801365 0.000000000000000
3.825950145721436 2.177463769912720 0.180102780461311 0.000000000000000
15.940797805786133 9.051578521728516 3.344830036163330 0.003921568859369
8.861383438110352 4.437681198120117 -0.925627350807190 0.000000000000000
8.855410575866699 4.396064281463623 -0.923397660255432 0.000000000000000
4.875056266784668 3.026441574096680 0.000373826536816 0.000000000000000
8.852830886840820 4.356300830841064 -0.921539604663849 0.000000000000000
8.821435928344727 4.302659034729004 -0.916708111763000 0.000000000000000
8.893785476684570 4.299507141113281 -0.922655403614044 0.000000000000000
8.757848739624023 4.196197032928467 -0.907045245170593 0.000000000000000
8.844416618347168 4.199687957763672 -0.914479255676270 0.000000000000000
8.884255409240723 4.180603981018066 -0.917081475257874 0.000000000000000
11.005455017089844 5.850729942321777 2.274928331375122 0.000000000000000
8.804244041442871 4.104091644287109 -0.907161295413971 0.000000000000000
8.818518638610840 4.073301315307617 -0.907161593437195 0.000000000000000
5.929498672485352 3.100560426712036 0.117225416004658 0.000000000000000
5.302076816558838 2.428189516067505 -0.067707605659962 0.000000000000000
8.832680702209473 4.042469978332520 -0.907161891460419 0.000000000000000
8.955611228942871 4.640884876251221 -0.823704659938812 0.000000000000000
8.872133255004883 4.023084640502930 -0.909764111042023 0.000000000000000
8.859993934631348 3.982190370559692 -0.907162487506866 0.000000000000000
8.873841285705566 3.951205968856812 -0.907162845134735 0.000000000000000
9.203840255737305 4.097996234893799 -0.586854696273804 0.000000000000000
8.858420372009277 3.907333850860596 -0.904189407825470 0.000000000000000
8.864705085754395 3.873168945312500 -0.903446376323700 0.000000000000000
8.885481834411621 3.845334291458130 -0.904190063476562 0.000000000000000
8.895190238952637 3.812694072723389 -0.903818666934967 0.000000000000000
8.875446319580078 3.767593860626221 -0.900473654270172 0.000000000000000
8.866510391235352 3.727308273315430 -0.898243665695190 0.000000000000000
8.875039100646973 3.693203687667847 -0.897613525390625 0.000000000000000
13.354195594787598 8.021337509155273 -0.634563863277435 0.000000000000000
8.921017646789551 3.675835132598877 -0.900959253311157 0.000000000000000
13.242812156677246 6.228842258453369 0.596730828285217 0.000000000000000
7.046890735626221 3.315826416015625 -0.408222258090973 0.000000000000000
8.915356636047363 3.637131929397583 -0.899100840091705 0.000000000000000
