# This PCD file was generated using the MATLAB® pcwrite function
# from Computer Vision Toolbox®.
# .PCD v.7 - Point Cloud Data file format
VERSION .7
FIELDS x y z intensity
SIZE 8 8 8 8
TYPE F F F F
COUNT 1 1 1 1
WIDTH 636
HEIGHT 1
VIEWPOINT 0 0 0 1 0 0 0
POINTS 636
DATA ascii
3.571333169937134 -1.154972314834595 0.444085180759430 0.000000000000000
15.128145217895508 -6.108461856842041 2.950270891189575 0.003921568859369
13.592807769775391 -6.316901206970215 0.170877546072006 0.000000000000000
15.221147537231445 -6.201406478881836 2.970980405807495 0.003921568859369
16.413124084472656 -5.840220928192139 4.630567073822021 0.003921568859369
13.255732536315918 -6.327103614807129 0.167402461171150 0.000000000000000
13.161622047424316 -6.337839603424072 -0.170743048191071 0.003921568859369
16.467166900634766 -7.049381732940674 1.449554443359375 0.000000000000000
12.953925132751465 -6.345011234283447 -0.834906339645386 0.000000000000000
14.865890502929688 -6.541818618774414 2.935837745666504 0.003921568859369
13.640668869018555 -6.275335788726807 0.257519125938416 0.000000000000000
17.302049636840820 -8.047422409057617 1.544451951980591 0.000000000000000
13.468191146850586 -6.308613777160645 -0.087900809943676 0.000000000000000
11.824394226074219 -6.245920658111572 0.152031436562538 0.000000000000000
13.307180404663086 -6.288687705993652 0.252371370792389 0.000000000000000
16.208414077758789 -6.798199176788330 2.139103412628174 0.003921568859369
11.642616271972656 -6.304393291473389 0.150504514575005 0.000000000000000
17.644462585449219 -8.663500785827637 0.338339835405350 0.003921568859369
11.509920120239258 -6.335230350494385 -0.759794056415558 0.000000000000000
17.625131607055664 -8.726231575012207 -0.116011500358582 0.000000000000000
15.328210830688477 -6.734119415283203 -0.002336550969630 0.003921568859369
17.781881332397461 -8.877671241760254 -0.117229536175728 0.000000000000000
15.604525566101074 -6.033230781555176 -0.291989058256149 0.003921568859369
13.897436141967773 -6.213896751403809 0.876021623611450 0.000000000000000
13.395500183105469 -5.986835002899170 3.891358852386475 0.000000000000000
13.294722557067871 -5.993827342987061 3.867553472518921 0.000000000000000
17.071996688842773 -7.788457870483398 2.284238815307617 0.003921568859369
18.370054244995117 -9.490702629089355 1.674175858497620 0.003921568859369
12.000897407531738 -6.227409839630127 1.090329289436340 0.000000000000000
16.810522079467773 -7.809530735015869 -0.002502442337573 0.003921568859369
13.495899200439453 -6.255294799804688 0.855812728404999 0.003921568859369
17.235168457031250 -8.081459999084473 1.097930073738098 0.000000000000000
11.779034614562988 -6.264414787292480 0.535767495632172 0.000000000000000
12.867326736450195 -6.069087505340576 3.772333145141602 0.000000000000000
11.700751304626465 -6.326649188995361 0.227598205208778 0.000000000000000
13.106552124023438 -6.348026752471924 -0.337936848402023 0.003921568859369
11.556102752685547 -6.348711013793945 -0.686132967472076 0.000000000000000
11.843834877014160 -5.779672622680664 3.491831064224243 0.000000000000000
17.675668716430664 -8.739780426025391 -0.002547368640080 0.003921568859369
12.503890037536621 -6.159859657287598 1.692209124565125 0.000000000000000
11.795928001403809 -5.806642532348633 3.483551502227783 0.000000000000000
18.037233352661133 -9.072384834289551 2.458634376525879 0.003921568859369
18.157413482666016 -9.212521553039551 2.479590654373169 0.003921568859369
13.735805511474609 -6.245938301086426 0.432426631450653 0.000000000000000
13.565472602844238 -8.018313407897949 2.845278024673462 0.000000000000000
18.529218673706055 -9.885534286499023 0.482705295085907 0.003921568859369
7.177802562713623 -3.775579690933228 2.132683753967285 0.000000000000000
11.703474998474121 -6.315908908843994 0.303849220275879 0.000000000000000
9.902998924255371 -4.727586746215820 0.312901139259338 0.000000000000000
13.264393806457520 -6.359200477600098 -0.595737695693970 0.000000000000000
13.118092536926270 -6.344147205352783 -0.254182875156403 0.003921568859369
17.624752044677734 -8.551049232482910 0.563247501850128 0.003921568859369
13.106625556945801 -6.393532752990723 -0.927286505699158 0.000000000000000
11.441896438598633 -6.371964931488037 -0.907793104648590 0.003921568859369
14.995113372802734 -8.593386650085449 4.588922500610352 0.003921568859369
14.998385429382324 -8.664576530456543 4.599276542663574 0.003921568859369
13.512466430664062 -7.981697559356689 4.163504123687744 0.003921568859369
18.613431930541992 -9.922347068786621 0.606777012348175 0.003921568859369
18.708080291748047 -10.140596389770508 0.119977645576000 0.003921568859369
11.554796218872070 -6.326849460601807 -0.229670614004135 0.000000000000000
10.329635620117188 -7.126377105712891 2.259151697158813 0.000000000000000
14.180503845214844 -11.205973625183105 0.206341847777367 0.003921568859369
2.980033397674561 -1.648886680603027 -0.058776032179594 0.000000000000000
14.453789710998535 -10.478703498840332 1.443188548088074 0.000000000000000
3.648999452590942 -2.565288305282593 0.173820525407791 0.000000000000000
14.172503471374512 -11.517244338989258 -0.213415428996086 0.003921568859369
9.317263603210449 -6.848292827606201 0.462701916694641 0.000000000000000
14.292149543762207 -10.730043411254883 3.228988170623779 0.003921568859369
14.568077087402344 -9.946930885314941 4.683085441589355 0.003921568859369
14.455735206604004 -10.937277793884277 3.275621414184570 0.003921568859369
14.331788063049316 -10.917181015014648 0.725493073463440 0.003921568859369
14.107853889465332 -10.744112014770508 3.203890085220337 0.003921568859369
5.404357910156250 -4.056325912475586 0.537426531314850 0.000000000000000
14.243791580200195 -11.165946960449219 0.310876250267029 0.003921568859369
3.924462080001831 -2.990614175796509 0.192944914102554 0.000000000000000
4.351768493652344 -3.356356859207153 0.434625774621964 0.000000000000000
14.174500465393066 -11.418453216552734 -0.107438310980797 0.000000000000000
10.911188125610352 -8.815678596496582 0.239821374416351 0.000000000000000
11.195002555847168 -9.048871994018555 2.594834566116333 0.000000000000000
13.745656967163086 -12.478856086730957 0.212040930986404 0.003921568859369
14.099890708923340 -11.685016632080078 -0.531135320663452 0.000000000000000
13.719128608703613 -12.718729019165039 0.213731780648232 0.003921568859369
13.694944381713867 -12.785139083862305 -0.218892186880112 0.003921568859369
14.006605148315430 -11.855384826660156 1.483554363250732 0.000000000000000
7.870656967163086 -6.588777542114258 1.842318296432495 0.000000000000000
13.654400825500488 -12.926180839538574 -0.219673410058022 0.003921568859369
14.222526550292969 -11.134731292724609 0.414242357015610 0.000000000000000
6.789856433868408 -5.302491188049316 0.194434598088264 0.000000000000000
13.886236190795898 -12.162191390991211 0.743428528308868 0.003921568859369
13.612517356872559 -13.146501541137695 -0.658241212368011 0.003921568859369
13.854430198669434 -12.305599212646484 0.746370792388916 0.003921568859369
8.590359687805176 -7.560710906982422 2.056784629821777 0.000000000000000
14.099131584167480 -11.427138328552246 2.206694126129150 0.003921568859369
3.391950130462646 -2.641878604888916 0.094127058982849 0.000000000000000
13.815711975097656 -12.444117546081543 0.319493085145950 0.003921568859369
14.034694671630859 -11.455322265625000 2.202800989151001 0.003921568859369
13.766631126403809 -12.574205398559570 0.320412427186966 0.003921568859369
10.269708633422852 -8.516964912414551 -0.002439750591293 0.000000000000000
5.754185676574707 -4.696937561035156 0.890729129314423 0.000000000000000
13.718191146850586 -12.705960273742676 -0.110267832875252 0.000000000000000
2.863508701324463 -2.283757686614990 -0.002256992040202 0.000000000000000
5.721687793731689 -5.225327968597412 0.307406693696976 0.000000000000000
13.681269645690918 -12.849694252014160 -0.110674560070038 0.000000000000000
14.304384231567383 -11.029782295227051 0.518475711345673 0.003921568859369
6.461346626281738 -5.967076778411865 0.350057035684586 0.000000000000000
13.608499526977539 -13.043361663818359 -0.546662747859955 0.000000000000000
13.092539787292480 -12.540529251098633 3.275713682174683 0.003921568859369
2.048088550567627 -1.802291870117188 0.207931324839592 0.000000000000000
14.205937385559082 -11.341775894165039 0.102101303637028 0.000000000000000
5.576227188110352 -4.801483154296875 0.881901443004608 0.000000000000000
1.931427717208862 -1.699171781539917 0.195240437984467 0.000000000000000
1.866096973419189 -1.646161437034607 0.188407257199287 0.000000000000000
13.843757629394531 -12.371044158935547 0.425910174846649 0.000000000000000
13.536233901977539 -13.335864067077637 -0.990513443946838 0.003921568859369
13.762112617492676 -12.383497238159180 0.424707919359207 0.000000000000000
14.124168395996094 -11.601155281066895 -0.318818718194962 0.003921568859369
13.748656272888184 -12.545763969421387 0.427046865224838 0.000000000000000
2.965804338455200 -2.330757617950439 0.102724835276604 0.000000000000000
13.670456886291504 -12.819732666015625 -0.002481470350176 0.003921568859369
13.665510177612305 -12.990902900695801 -0.437581062316895 0.000000000000000
8.991271972656250 -9.411537170410156 2.343776941299438 0.000000000000000
7.582281112670898 -7.214370250701904 1.263550877571106 0.000000000000000
5.082389831542969 -4.351203441619873 0.035488829016685 0.000000000000000
10.010578155517578 -9.728058815002441 0.801519572734833 0.000000000000000
6.015227317810059 -6.396036148071289 1.571777224540710 0.000000000000000
13.858615875244141 -12.460011482238770 0.535183370113373 0.003921568859369
13.788551330566406 -12.483192443847656 0.534143745899200 0.003921568859369
5.849953651428223 -5.785867214202881 0.467531710863113 0.000000000000000
13.704621315002441 -12.750757217407227 0.105331800878048 0.000000000000000
3.325329542160034 -2.932649135589600 -0.176405057311058 0.000000000000000
13.692969322204590 -12.910138130187988 -0.328160643577576 0.003921568859369
4.216545581817627 -4.248555183410645 1.559769988059998 0.000000000000000
11.030600547790527 -12.973381996154785 -0.493660718202591 0.000000000000000
6.888343811035156 -8.845461845397949 -0.131214737892151 0.000000000000000
6.869112968444824 -8.819881439208984 0.126285389065742 0.000000000000000
13.605916976928711 -13.199393272399902 -0.768250584602356 0.003921568859369
6.689267635345459 -9.014717102050781 -0.648091197013855 0.000000000000000
6.917753219604492 -8.742694854736328 2.004448413848877 0.000000000000000
6.893029689788818 -8.831541061401367 0.190774083137512 0.000000000000000
6.902985095977783 -8.844685554504395 0.449043452739716 0.000000000000000
6.867676258087158 -8.868726730346680 -0.582823872566223 0.003921568859369
10.880134582519531 -13.128562927246094 -0.395500123500824 0.000000000000000
10.821916580200195 -13.155006408691406 -0.395119637250900 0.000000000000000
10.765947341918945 -13.179366111755371 -0.394739598035812 0.000000000000000
10.714728355407715 -13.204801559448242 -0.394452929496765 0.003921568859369
8.944637298583984 -11.055319786071777 3.768169403076172 0.000000000000000
10.681099891662598 -13.261958122253418 -0.395001888275146 0.003921568859369
10.624599456787109 -13.275794029235840 -0.394436836242676 0.003921568859369
10.570963859558105 -13.307449340820312 -0.394242316484451 0.000000000000000
6.986654758453369 -8.755564689636230 2.959549427032471 0.000000000000000
10.512354850769043 -13.332551956176758 -0.393861919641495 0.000000000000000
10.446314811706543 -13.342920303344727 -0.393110275268555 0.000000000000000
6.898438930511475 -8.817742347717285 0.640849649906158 0.000000000000000
7.062707424163818 -9.720204353332520 0.689079761505127 0.003921568859369
8.199176788330078 -11.420921325683594 3.726847887039185 0.000000000000000
6.909533500671387 -8.880259513854980 -0.713641345500946 0.003921568859369
5.260693550109863 -7.463224887847900 2.405601501464844 0.000000000000000
6.726680755615234 -9.947565078735352 0.688877761363983 0.000000000000000
5.443015098571777 -8.270748138427734 2.612701177597046 0.000000000000000
10.890275955200195 -19.608751296997070 4.065243244171143 0.003921568859369
4.091568470001221 -7.042864799499512 2.144678592681885 0.000000000000000
6.329469680786133 -16.205263137817383 -0.202736541628838 0.003921568859369
6.201206207275391 -16.197177886962891 0.199452280998230 0.003921568859369
6.096866130828857 -16.263336181640625 -0.604514420032501 0.003921568859369
5.899482727050781 -16.213933944702148 -0.201025769114494 0.003921568859369
3.270955085754395 -8.620517730712891 0.103986270725727 0.000000000000000
5.862021446228027 -16.298732757568359 -0.201799169182777 0.003921568859369
6.592358589172363 -16.186485290527344 -0.911782920360565 0.003921568859369
5.284965991973877 -11.180281639099121 3.279797315597534 0.000000000000000
3.102074861526489 -7.225970745086670 1.411705374717712 0.000000000000000
5.660031795501709 -16.252681732177734 0.198063716292381 0.003921568859369
5.138866424560547 -11.054841041564941 3.233205556869507 0.000000000000000
6.238359928131104 -16.268941879272461 -0.909217774868011 0.003921568859369
3.262866497039795 -8.202299118041992 -0.053032256662846 0.000000000000000
6.151790142059326 -16.185115814208984 0.299194961786270 0.003921568859369
6.020136833190918 -16.173124313354492 0.697772860527039 0.003921568859369
6.163360595703125 -16.576448440551758 3.205199241638184 0.003921568859369
5.991105079650879 -16.262956619262695 -0.502754509449005 0.000000000000000
3.262390375137329 -8.472280502319336 0.730649352073669 0.000000000000000
5.822737216949463 -16.141674041748047 1.391724348068237 0.000000000000000
5.761240005493164 -16.145769119262695 1.390430212020874 0.000000000000000
1.577000260353088 -3.922634363174438 -0.026875097304583 0.000000000000000
5.608538150787354 -16.253746032714844 0.297314554452896 0.003921568859369
2.881104230880737 -7.911132812500000 0.677219986915588 0.000000000000000
2.465979814529419 -8.034173011779785 0.094633266329765 0.000000000000000
5.552526950836182 -16.255142211914062 0.297042012214661 0.003921568859369
4.241641044616699 -12.349578857421875 0.224606037139893 0.000000000000000
4.240421772003174 -12.639498710632324 1.079184532165527 0.000000000000000
5.248912811279297 -16.052753448486328 3.061751127243042 0.003921568859369
1.808256387710571 -6.078815460205078 -0.075502395629883 0.000000000000000
3.684114456176758 -13.847067832946777 -0.167328685522079 0.000000000000000
5.056873321533203 -16.232528686523438 1.379822134971619 0.000000000000000
4.199151039123535 -13.487604141235352 0.570518553256989 0.000000000000000
3.727599143981934 -10.222008705139160 0.625855505466461 0.000000000000000
3.210148334503174 -10.460669517517090 0.187592118978500 0.000000000000000
3.129190921783447 -10.308763504028320 0.184641674160957 0.000000000000000
4.064930438995361 -18.092210769653320 -0.215707302093506 0.003921568859369
6.246976375579834 -16.201118469238281 0.099080361425877 0.003921568859369
2.082423448562622 -6.840986728668213 -0.043596230447292 0.000000000000000
2.409263372421265 -6.729202270507812 0.161472886800766 0.000000000000000
4.105900287628174 -18.289949417114258 -0.652888178825378 0.003921568859369
4.028104305267334 -18.218214035034180 -0.217028811573982 0.003921568859369
3.964970350265503 -17.908533096313477 0.212195515632629 0.003921568859369
6.208780765533447 -16.264060974121094 -0.706080555915833 0.003921568859369
5.246440410614014 -16.211185455322266 0.985881209373474 0.000000000000000
4.231732368469238 -15.805171966552734 0.283221930265427 0.003921568859369
5.181769371032715 -16.201547622680664 0.984259188175201 0.000000000000000
2.824337720870972 -8.462897300720215 1.081856369972229 0.000000000000000
5.184208869934082 -17.070493698120117 1.033031225204468 0.000000000000000
3.243698835372925 -10.405319213867188 -0.001968320924789 0.003921568859369
4.208417892456055 -11.732840538024902 -0.217613384127617 0.000000000000000
5.709663867950439 -16.259958267211914 0.098470181226730 0.000000000000000
3.551747560501099 -14.297523498535156 -0.086432538926601 0.000000000000000
5.100943565368652 -14.424047470092773 0.440896004438400 0.000000000000000
4.721151351928711 -16.053966522216797 4.459986686706543 0.003921568859369
3.120890617370605 -8.654972076416016 -0.161138281226158 0.000000000000000
3.771515846252441 -12.759784698486328 -0.001569185405970 0.000000000000000
2.237457275390625 -8.771181106567383 -0.054379105567932 0.000000000000000
3.867786645889282 -13.115248680114746 0.314683645963669 0.000000000000000
2.722217798233032 -10.985309600830078 0.916317820549011 0.000000000000000
4.678990840911865 -16.109504699707031 4.471391201019287 0.003921568859369
3.719641447067261 -10.630207061767578 -0.196833565831184 0.000000000000000
2.375560522079468 -7.709022521972656 -0.002420792821795 0.000000000000000
3.061376810073853 -12.748139381408691 0.529828190803528 0.000000000000000
4.647312641143799 -16.686407089233398 -0.000881116138771 0.003921568859369
4.037779331207275 -18.211103439331055 -0.541463673114777 0.000000000000000
4.001718997955322 -18.034223556518555 -0.107513196766376 0.000000000000000
3.978060007095337 -17.918062210083008 0.318691372871399 0.003921568859369
2.529345750808716 -10.824819564819336 2.012863636016846 0.000000000000000
3.900538921356201 -17.856227874755859 0.317362040281296 0.003921568859369
3.865143775939941 -17.679477691650391 0.734102606773376 0.003921568859369
3.717752695083618 -17.256422042846680 1.435270428657532 0.000000000000000
4.091996669769287 -15.642046928405762 -0.001024101162329 0.003921568859369
1.969253778457642 -11.803134918212891 0.137222155928612 0.000000000000000
3.441618204116821 -16.428710937500000 1.364512324333191 0.000000000000000
3.368547201156616 -16.356601715087891 -0.097499556839466 0.000000000000000
2.868103504180908 -10.869494438171387 -0.001848178682849 0.003921568859369
1.364601135253906 -3.631568431854248 0.106768615543842 0.000000000000000
2.555044174194336 -9.691022872924805 0.229363188147545 0.000000000000000
3.706951618194580 -12.304848670959473 -0.224412724375725 0.000000000000000
2.408527135848999 -9.500661849975586 0.564426362514496 0.000000000000000
2.274141073226929 -8.887253761291504 1.115104794502258 0.000000000000000
3.031552314758301 -10.266696929931641 -0.187341526150703 0.000000000000000
1.294516086578369 -6.142481327056885 -0.328599900007248 0.000000000000000
2.625326156616211 -8.972702980041504 0.051621560007334 0.000000000000000
2.008075475692749 -8.214060783386230 0.486065298318863 0.000000000000000
3.908667564392090 -17.809034347534180 0.422230601310730 0.000000000000000
2.056038141250610 -12.045349121093750 0.210935562849045 0.000000000000000
1.983505368232727 -11.777986526489258 0.206074953079224 0.000000000000000
2.926087379455566 -18.503643035888672 1.525250673294067 0.000000000000000
3.387862205505371 -16.359577178955078 0.386578500270844 0.000000000000000
1.797667860984802 -10.723171234130859 0.881869733333588 0.000000000000000
3.393632888793945 -16.391197204589844 -0.388729184865952 0.000000000000000
1.407707333564758 -8.077085494995117 1.483607411384583 0.000000000000000
3.259864330291748 -13.337323188781738 0.078007839620113 0.000000000000000
1.849787354469299 -13.172762870788574 2.416679859161377 0.000000000000000
2.617911577224731 -10.949405670166016 -0.197062894701958 0.000000000000000
1.197734951972961 -5.466959953308105 -0.002835666760802 0.003921568859369
4.173900604248047 -18.407026290893555 -0.766465961933136 0.003921568859369
4.056814670562744 -18.162357330322266 -0.324031233787537 0.003921568859369
1.635565757751465 -6.351975917816162 0.186042830348015 0.000000000000000
1.698557734489441 -13.020533561706543 0.532202064990997 0.000000000000000
3.983673810958862 -18.126638412475586 0.107081726193428 0.000000000000000
2.834630966186523 -16.564859390258789 2.056565999984741 0.003921568859369
0.952939152717590 -11.883587837219238 -0.416964262723923 0.000000000000000
1.532455801963806 -12.636837959289551 0.220306545495987 0.000000000000000
1.078898310661316 -7.825859069824219 0.639482200145721 0.000000000000000
1.283125281333923 -6.715223789215088 0.155212283134460 0.000000000000000
2.900712013244629 -13.435321807861328 0.396807670593262 0.000000000000000
3.444136381149292 -16.603052139282227 0.097567386925220 0.000000000000000
0.804306864738464 -7.370254039764404 1.344311833381653 0.000000000000000
0.903555989265442 -9.480707168579102 0.163882941007614 0.000000000000000
1.771869897842407 -13.542994499206543 3.648351907730103 0.000000000000000
0.903891205787659 -11.368549346923828 -0.332686692476273 0.000000000000000
0.347938656806946 -9.898202896118164 -0.116929821670055 0.000000000000000
1.748016834259033 -9.960840225219727 0.056611038744450 0.000000000000000
0.983936727046967 -15.170553207397461 2.768239498138428 0.000000000000000
0.625735282897949 -7.226521015167236 -0.212863564491272 0.000000000000000
1.423504114151001 -12.807866096496582 0.747471213340759 0.000000000000000
1.253230810165405 -10.774777412414551 2.896143913269043 0.000000000000000
0.534202039241791 -6.571539878845215 1.196391463279724 0.000000000000000
1.348412990570068 -8.134106636047363 0.236299201846123 0.000000000000000
0.917171061038971 -5.320544719696045 -0.096253097057343 0.000000000000000
1.085001230239868 -7.422026634216309 -0.132538467645645 0.000000000000000
0.793083667755127 -8.908115386962891 -0.001930895494297 0.003921568859369
1.536465883255005 -12.019824028015137 0.350278437137604 0.000000000000000
2.022211551666260 -18.280345916748047 -0.320173352956772 0.003921568859369
-0.478128015995026 -14.954566955566406 -0.523314416408539 0.000000000000000
0.699340939521790 -9.687644004821777 1.188697338104248 0.000000000000000
0.724300503730774 -11.536949157714844 -0.001262023346499 0.003921568859369
0.792796850204468 -13.676666259765625 1.679600119590759 0.000000000000000
-0.128589272499084 -7.350422859191895 -0.259475141763687 0.000000000000000
0.976195812225342 -9.150164604187012 0.051464647054672 0.000000000000000
1.257352709770203 -14.130318641662598 0.081714138388634 0.000000000000000
-0.700327992439270 -12.718681335449219 -0.446417391300201 0.000000000000000
0.669878900051117 -5.121568679809570 0.026976389810443 0.000000000000000
0.038813322782516 -8.535345077514648 1.555765628814697 0.000000000000000
-0.350240021944046 -7.592473506927490 -0.446247845888138 0.000000000000000
-0.402642160654068 -13.785279273986816 -0.080694831907749 0.000000000000000
-0.378713995218277 -11.926725387573242 -0.348738193511963 0.000000000000000
0.623490273952484 -7.294040203094482 0.040149398148060 0.000000000000000
-0.211894184350967 -8.732466697692871 0.354808300733566 0.000000000000000
-0.597580015659332 -8.172961235046387 -0.097664110362530 0.000000000000000
-1.220174789428711 -13.423748970031738 0.157060071825981 0.000000000000000
0.810193061828613 -15.333876609802246 0.446388512849808 0.000000000000000
0.005214989185333 -4.792012691497803 0.081077814102173 0.000000000000000
-0.037425488233566 -13.220431327819824 -0.000546946655959 0.000000000000000
0.035365968942642 -10.865906715393066 -0.507638871669769 0.000000000000000
0.079554438591003 -8.527161598205566 0.495139330625534 0.000000000000000
0.216776520013809 -3.738514661788940 0.083949364721775 0.000000000000000
0.415531098842621 -10.573106765747070 -0.185902908444405 0.000000000000000
0.090515613555908 -5.825727939605713 -0.274307250976562 0.000000000000000
-0.491079449653625 -16.681875228881836 4.476986885070801 0.003921568859369
-0.547608017921448 -16.647895812988281 4.468703269958496 0.003921568859369
-1.475046157836914 -17.684522628784180 3.243132591247559 0.003921568859369
-0.908840775489807 -11.572231292724609 0.949870526790619 0.000000000000000
-1.218850374221802 -13.892122268676758 -0.733010768890381 0.000000000000000
0.038270413875580 -5.188283920288086 0.635879933834076 0.000000000000000
-0.274567574262619 -9.465534210205078 0.219341680407524 0.000000000000000
-2.304835319519043 -22.674724578857422 4.166028022766113 0.003921568859369
-0.836839079856873 -16.760463714599609 4.504104614257812 0.003921568859369
-0.350096434354782 -9.586459159851074 1.179242849349976 0.000000000000000
-1.317492604255676 -20.413267135620117 1.194757342338562 0.003921568859369
0.075435638427734 -7.399397373199463 -0.131388098001480 0.000000000000000
-0.021299272775650 -8.334277153015137 -0.341812163591385 0.000000000000000
0.007693767547607 -6.146885871887207 0.033383719623089 0.000000000000000
-1.312382459640503 -14.820033073425293 0.869116842746735 0.000000000000000
-0.704567968845367 -9.519982337951660 1.175433039665222 0.000000000000000
-1.477740764617920 -11.336271286010742 2.094327688217163 0.000000000000000
-0.273498535156250 -5.588751792907715 1.505857825279236 0.000000000000000
-1.062823295593262 -11.572188377380371 1.431517839431763 0.000000000000000
-0.674197971820831 -11.392020225524902 -0.466978192329407 0.000000000000000
-1.536927342414856 -9.459071159362793 0.787081778049469 0.000000000000000
-0.155775755643845 -5.133129119873047 0.027338970452547 0.000000000000000
-0.522090315818787 -8.262730598449707 -0.146816164255142 0.000000000000000
0.071128875017166 -2.661612272262573 -0.175365939736366 0.000000000000000
-0.914886951446533 -6.957541942596436 0.867676377296448 0.000000000000000
-0.527229905128479 -3.809936761856079 0.712307929992676 0.000000000000000
-2.640482902526855 -12.095335960388184 2.274256229400635 0.000000000000000
-2.689554929733276 -9.913438796997070 -0.363485723733902 0.000000000000000
-4.019261360168457 -17.071462631225586 3.217326402664185 0.003921568859369
-0.011273145675659 -2.576497316360474 0.072512269020081 0.000000000000000
-4.088830471038818 -17.093978881835938 3.224518060684204 0.003921568859369
-4.150563240051270 -17.098001480102539 3.228115797042847 0.003921568859369
-2.645384311676025 -11.278250694274902 -0.612724244594574 0.000000000000000
-4.210129261016846 -17.069799423217773 3.225963115692139 0.003921568859369
-1.337860703468323 -6.351497173309326 0.112866483628750 0.000000000000000
-4.282167434692383 -17.099132537841797 3.234592199325562 0.003921568859369
-4.347272396087646 -17.113836288452148 3.240346431732178 0.003921568859369
-4.411250114440918 -17.112298965454102 3.243224859237671 0.003921568859369
-6.289048671722412 -23.192478179931641 -0.698565721511841 0.003921568859369
-1.585368871688843 -5.823929309844971 -0.360815376043320 0.000000000000000
-4.540261745452881 -17.138723373413086 3.254871129989624 0.003921568859369
-2.829019546508789 -11.068556785583496 0.200976327061653 0.000000000000000
-4.610010147094727 -17.155323028564453 3.261343717575073 0.003921568859369
-1.786385655403137 -9.002624511718750 0.538594901561737 0.000000000000000
-4.672109127044678 -17.145236968994141 3.262784242630005 0.003921568859369
-6.453989028930664 -22.877166748046875 -0.691195309162140 0.003921568859369
-4.742515087127686 -17.173515319824219 3.271413326263428 0.003921568859369
-6.500096321105957 -22.742122650146484 -0.687857210636139 0.003921568859369
-4.078011512756348 -14.770767211914062 0.630021035671234 0.000000000000000
-4.816164493560791 -17.200601577758789 3.280042648315430 0.003921568859369
-6.518307209014893 -22.519136428833008 -0.681875050067902 0.003921568859369
-1.850340247154236 -8.867006301879883 -0.001201864797622 0.003921568859369
-2.118134975433350 -8.217091560363770 0.148720145225525 0.000000000000000
-6.571903705596924 -22.414649963378906 -0.679457008838654 0.003921568859369
-6.633271217346191 -22.336755752563477 -0.677843868732452 0.003921568859369
-6.677165985107422 -22.205381393432617 -0.674621343612671 0.003921568859369
-6.746033191680908 -22.153873443603516 -0.673813223838806 0.003921568859369
-6.813386917114258 -22.098350524902344 -0.672890245914459 0.003921568859369
-1.684629797935486 -6.407776832580566 -0.355385065078735 0.000000000000000
-2.613081455230713 -9.248373985290527 0.793474495410919 0.000000000000000
-6.877631187438965 -22.057834625244141 -0.672237277030945 0.003921568859369
-6.958390712738037 -22.043607711791992 -0.672579169273376 0.003921568859369
-1.996833801269531 -8.589939117431641 2.390270471572876 0.000000000000000
-7.031454563140869 -22.006362915039062 -0.672231554985046 0.003921568859369
-7.126396179199219 -22.045850753784180 -0.674182653427124 0.003921568859369
-7.217764854431152 -22.073612213134766 -0.675789117813110 0.003921568859369
-7.321077823638916 -22.109632492065430 -0.677740097045898 0.003921568859369
-5.001233577728271 -15.482051849365234 2.992653369903564 0.003921568859369
-7.409024715423584 -22.125312805175781 -0.679001986980438 0.003921568859369
-7.506237506866455 -22.141651153564453 -0.680378556251526 0.003921568859369
-1.806012392044067 -7.323234081268311 0.444146841764450 0.000000000000000
-7.589140892028809 -22.141572952270508 -0.681180894374847 0.003921568859369
-1.939209461212158 -9.259491920471191 -0.390329748392105 0.000000000000000
-2.427727699279785 -9.260481834411621 2.595539808273315 0.000000000000000
-2.663665294647217 -11.472152709960938 -0.207492277026176 0.000000000000000
-0.403602600097656 -2.149036884307861 -0.124381601810455 0.000000000000000
-6.187910079956055 -17.147129058837891 3.353692293167114 0.003921568859369
-5.795850753784180 -18.625255584716797 1.146518588066101 0.000000000000000
-1.367743492126465 -5.368163108825684 0.692789316177368 0.000000000000000
-3.421859979629517 -11.385431289672852 0.699989616870880 0.000000000000000
-1.254706144332886 -5.828227043151855 -0.249388799071312 0.000000000000000
-6.636222839355469 -17.592300415039062 3.459379434585571 0.003921568859369
-1.604357004165649 -6.773860931396484 0.204003676772118 0.000000000000000
-4.421106338500977 -11.717179298400879 1.035539031028748 0.000000000000000
-2.438659429550171 -6.786156177520752 0.599733829498291 0.000000000000000
-1.343694925308228 -5.648793697357178 -0.243552938103676 0.000000000000000
-5.977755546569824 -17.182889938354492 2.254632711410522 0.003921568859369
-3.733920574188232 -9.596678733825684 -0.061317019164562 0.000000000000000
-1.167345523834229 -4.907905578613281 -0.212900772690773 0.000000000000000
-5.979429244995117 -19.435003280639648 0.598931789398193 0.003921568859369
-6.910925388336182 -16.603445053100586 0.742157757282257 0.003921568859369
-0.392110228538513 -2.142603158950806 -0.110629871487617 0.000000000000000
-2.558547735214233 -8.757557868957520 0.268407166004181 0.000000000000000
-4.740520954132080 -13.026782989501953 1.722131609916687 0.000000000000000
-2.868072032928467 -7.124170780181885 0.318464010953903 0.000000000000000
-1.475442647933960 -4.118514537811279 0.367941677570343 0.000000000000000
-2.265038251876831 -5.769771575927734 0.109147548675537 0.000000000000000
-1.454352855682373 -4.035987377166748 0.361075043678284 0.000000000000000
-1.511212944984436 -4.631925106048584 -0.002558245090768 0.000000000000000
-0.941021680831909 -3.785969972610474 -0.261337220668793 0.000000000000000
-4.427018165588379 -10.136716842651367 0.458063423633575 0.000000000000000
-1.045619606971741 -3.491178274154663 -0.003038758644834 0.000000000000000
-2.414909362792969 -6.520515918731689 -0.001742532942444 0.000000000000000
-3.306216239929199 -8.475163459777832 0.538857817649841 0.000000000000000
-4.887509346008301 -13.844399452209473 -0.603157758712769 0.000000000000000
-2.943475008010864 -7.442863464355469 0.188961610198021 0.000000000000000
-4.143189430236816 -10.081501960754395 1.359861254692078 0.000000000000000
-13.369226455688477 -23.679981231689453 -0.313066244125366 0.003921568859369
-3.334442853927612 -8.151205062866211 0.522234141826630 0.000000000000000
-3.030609846115112 -7.495130538940430 1.013141632080078 0.000000000000000
-3.790264606475830 -9.069034576416016 1.228858947753906 0.000000000000000
-2.660385847091675 -7.531332015991211 -0.333308637142181 0.000000000000000
-2.084190130233765 -5.326140880584717 1.578664660453796 0.000000000000000
-3.812643051147461 -7.740735530853271 1.610403895378113 0.000000000000000
-3.316798448562622 -8.444830894470215 0.052886389195919 0.000000000000000
-6.014651298522949 -14.495932579040527 0.463742554187775 0.000000000000000
-13.218248367309570 -23.844104766845703 -0.793533742427826 0.003921568859369
-0.462731152772903 -2.004841566085815 0.060539752244949 0.000000000000000
-0.478121310472488 -2.019764423370361 0.061129599809647 0.000000000000000
-6.036898136138916 -11.057891845703125 1.047599077224731 0.000000000000000
-6.517988681793213 -14.942639350891113 0.097997456789017 0.000000000000000
-0.539281368255615 -2.132428169250488 0.064905345439911 0.000000000000000
-11.929127693176270 -18.627044677734375 0.264815241098404 0.003921568859369
-11.960686683654785 -18.533853530883789 0.264086335897446 0.003921568859369
-11.996222496032715 -18.447299957275391 0.263453692197800 0.003921568859369
-6.838837146759033 -15.212297439575195 0.493347465991974 0.003921568859369
-2.912591218948364 -5.557433128356934 1.183302760124207 0.000000000000000
-6.195352077484131 -13.747085571289062 0.446147829294205 0.000000000000000
-7.669130802154541 -13.300505638122559 1.274243831634521 0.000000000000000
-1.937778115272522 -4.862657070159912 0.155406072735786 0.000000000000000
-4.549891471862793 -8.070318222045898 0.165036588907242 0.000000000000000
-3.839237451553345 -8.649065971374512 -0.169242233037949 0.000000000000000
-14.198028564453125 -23.442592620849609 -0.154131069779396 0.003921568859369
-2.605529308319092 -4.821871280670166 1.039481282234192 0.000000000000000
-13.204432487487793 -23.857103347778320 -0.633051395416260 0.003921568859369
-6.247766494750977 -10.410154342651367 -0.071534313261509 0.000000000000000
-5.486696243286133 -9.229462623596191 0.896522462368011 0.000000000000000
-12.329263687133789 -17.731468200683594 0.258827120065689 0.003921568859369
-14.395966529846191 -22.699932098388672 -0.783119201660156 0.003921568859369
-12.341699600219727 -17.618757247924805 0.257807374000549 0.003921568859369
-0.887947678565979 -2.284320354461670 -0.003532562637702 0.000000000000000
-12.367693901062012 -17.525535583496094 0.257076740264893 0.003921568859369
-6.715703010559082 -10.883809089660645 1.065293788909912 0.000000000000000
-12.412177085876465 -17.458108901977539 0.256731539964676 0.003921568859369
-12.456351280212402 -17.390577316284180 0.256386220455170 0.003921568859369
-12.468431472778320 -17.286783218383789 0.255463004112244 0.003921568859369
-4.249685287475586 -7.782598972320557 0.529125452041626 0.000000000000000
-12.514258384704590 -17.222370147705078 0.255165725946426 0.003921568859369
-12.521103858947754 -17.106866836547852 0.254097491502762 0.003921568859369
-12.605035781860352 -17.093208312988281 0.254570931196213 0.003921568859369
-3.952171802520752 -5.775380611419678 -0.425181448459625 0.000000000000000
-9.704047203063965 -14.739221572875977 -0.935802042484283 0.003921568859369
-3.512410163879395 -6.412531375885010 0.925176978111267 0.000000000000000
-12.684151649475098 -17.072837829589844 0.254947900772095 0.003921568859369
-9.863583564758301 -13.410329818725586 -0.983610630035400 0.003921568859369
-9.712125778198242 -14.641313552856445 -0.931861281394958 0.003921568859369
-12.681930541992188 -16.957340240478516 0.254027307033539 0.003921568859369
-9.902546882629395 -13.374231338500977 -0.983508706092834 0.003921568859369
-9.698101043701172 -14.523927688598633 -0.926554560661316 0.003921568859369
-12.736129760742188 -16.905014038085938 0.253921866416931 0.003921568859369
-10.022927284240723 -13.432337760925293 -0.990443170070648 0.003921568859369
-9.691182136535645 -14.406728744506836 -0.921368837356567 0.003921568859369
-12.795062065124512 -16.858808517456055 0.253912746906281 0.003921568859369
-10.119141578674316 -13.458389282226562 -0.995068728923798 0.003921568859369
-9.674307823181152 -14.276739120483398 -0.915352344512939 0.003921568859369
-12.185616493225098 -19.791423797607422 2.890106201171875 0.003921568859369
-12.515598297119141 -18.274154663085938 4.092837333679199 0.003921568859369
-1.356595993041992 -2.836166858673096 -0.003250831970945 0.000000000000000
-13.646337509155273 -17.812334060668945 0.269280999898911 0.003921568859369
-9.726410865783691 -14.244482994079590 -0.915566265583038 0.003921568859369
-13.671006202697754 -17.716054916381836 0.268548041582108 0.003921568859369
-9.769066810607910 -14.199078559875488 -0.914949655532837 0.003921568859369
-14.794909477233887 -23.508975982666016 -0.645190894603729 0.003921568859369
-1.689749717712402 -2.689285755157471 -0.043441899120808 0.000000000000000
-13.709063529968262 -17.649705886840820 0.268201649188995 0.003921568859369
-9.799547195434570 -14.147439002990723 -0.913709402084351 0.003921568859369
-14.431010246276855 -22.791492462158203 -0.626923739910126 0.003921568859369
-4.443445682525635 -8.313956260681152 0.055562309920788 0.000000000000000
-3.792710781097412 -6.469137191772461 0.178917154669762 0.000000000000000
-13.748500823974609 -17.566522598266602 0.267709076404572 0.003921568859369
-9.813597679138184 -14.058112144470215 -0.910393238067627 0.003921568859369
-13.781933784484863 -17.482675552368164 0.267168730497360 0.003921568859369
-5.757577419281006 -9.378811836242676 0.655859053134918 0.000000000000000
-9.883938789367676 -14.051065444946289 -0.912269115447998 0.003921568859369
-13.825117111206055 -17.411170959472656 0.266821056604385 0.003921568859369
-13.842003822326660 -17.314342498779297 0.266040086746216 0.003921568859369
-9.964999198913574 -13.961051940917969 -0.911036133766174 0.003921568859369
-13.874663352966309 -17.224878311157227 0.265450835227966 0.003921568859369
-9.992074966430664 -13.890795707702637 -0.908966422080994 0.003921568859369
-13.916711807250977 -17.153245925903320 0.265102922916412 0.003921568859369
-10.040499687194824 -13.854187011718750 -0.908973395824432 0.003921568859369
-10.064036369323730 -13.800234794616699 -0.907620668411255 0.003921568859369
-10.087787628173828 -13.731689453125000 -0.905551552772522 0.003921568859369
-8.794743537902832 -10.823743820190430 -0.164766579866409 0.000000000000000
-10.142947196960449 -13.699177742004395 -0.905974686145782 0.003921568859369
-13.666142463684082 -18.242139816284180 4.214422225952148 0.003921568859369
-12.984358787536621 -15.603322029113770 -0.236138716340065 0.003921568859369
-9.775872230529785 -14.543262481689453 -0.826134443283081 0.000000000000000
-10.207916259765625 -13.684052467346191 -0.907435953617096 0.003921568859369
-12.551464080810547 -16.577226638793945 -0.609557688236237 0.003921568859369
-9.784509658813477 -14.458838462829590 -0.823189616203308 0.000000000000000
-10.268138885498047 -13.672390937805176 -0.908896565437317 0.003921568859369
-13.905994415283203 -18.299491882324219 4.249640464782715 0.003921568859369
-12.662196159362793 -16.586620330810547 -0.611747145652771 0.003921568859369
-9.826002120971680 -14.399826049804688 -0.822090387344360 0.000000000000000
-10.337923049926758 -13.652943611145020 -0.910358786582947 0.003921568859369
-14.022589683532715 -18.302722930908203 4.263291835784912 0.003921568859369
-12.580368041992188 -16.365627288818359 -0.605334162712097 0.003921568859369
-9.857519149780273 -14.337833404541016 -0.820621728897095 0.000000000000000
-10.432860374450684 -13.674421310424805 -0.914312422275543 0.003921568859369
-12.681793212890625 -16.386865615844727 -0.607636630535126 0.003921568859369
-9.867311477661133 -14.256778717041016 -0.817861378192902 0.000000000000000
-10.495778083801270 -13.664988517761230 -0.915980994701385 0.003921568859369
-12.738918304443359 -16.340826034545898 -0.607646346092224 0.003921568859369
-4.446213245391846 -6.736883640289307 -0.389986246824265 0.000000000000000
-10.608732223510742 -13.707346916198730 -0.921388745307922 0.003921568859369
-12.720426559448242 -16.196182250976562 -0.604101061820984 0.003921568859369
-14.356898307800293 -16.488883972167969 -0.253858536481857 0.003921568859369
-14.239106178283691 -16.357843399047852 0.260512053966522 0.003921568859369
-9.933525085449219 -14.134115219116211 -0.815109074115753 0.000000000000000
-10.742178916931152 -13.768799781799316 -0.928250730037689 0.003921568859369
-4.391749382019043 -6.610873699188232 2.199765205383301 0.000000000000000
-12.776885986328125 -16.150005340576172 -0.604110956192017 0.003921568859369
-14.274638175964355 -16.282649993896484 0.260114490985870 0.003921568859369
-8.089641571044922 -12.809765815734863 0.450463920831680 0.000000000000000
-9.963754653930664 -14.072010040283203 -0.813640654087067 0.000000000000000
-10.901686668395996 -13.865405082702637 -0.937397062778473 0.003921568859369
-3.312563419342041 -5.108753681182861 0.779408812522888 0.000000000000000
-1.265167593955994 -2.124317646026611 0.497953206300735 0.000000000000000
-12.909328460693359 -16.201503753662109 -0.607676148414612 0.003921568859369
-14.511926651000977 -16.434793472290039 -0.254600971937180 0.003921568859369
-14.301604270935059 -16.204084396362305 0.259621024131775 0.003921568859369
-10.007975578308105 -14.034099578857422 -0.813462972640991 0.000000000000000
-4.365598201751709 -6.482702255249023 0.992677628993988 0.000000000000000
-12.832910537719727 -15.998725891113281 -0.601813197135925 0.003921568859369
-14.326035499572754 -16.120391845703125 0.259268224239349 0.003921568859369
-10.058764457702637 -14.005175590515137 -0.813908815383911 0.000000000000000
-13.263122558593750 -14.859255790710449 -0.232031747698784 0.003921568859369
-14.363204956054688 -16.048036575317383 0.258917957544327 0.003921568859369
-10.088275909423828 -13.942809104919434 -0.812441170215607 0.000000000000000
-14.378183364868164 -15.957723617553711 0.258230656385422 0.003921568859369
-10.151435852050781 -13.929890632629395 -0.813739299774170 0.000000000000000
-14.409138679504395 -15.884998321533203 0.257832705974579 0.003921568859369
-10.204882621765137 -13.904035568237305 -0.814299941062927 0.000000000000000
-7.640908718109131 -9.562950134277344 2.289306163787842 0.000000000000000
-12.922238349914551 -15.661678314208984 -0.596121728420258 0.003921568859369
-14.453536033630371 -15.815750122070312 0.257578015327454 0.003921568859369
-10.282698631286621 -13.899495124816895 -0.816336691379547 0.000000000000000
-10.343476295471191 -13.882610321044922 -0.817450761795044 0.000000000000000
-14.441985130310059 -15.589675903320312 -0.247136116027832 0.003921568859369
-10.416564941406250 -13.876135826110840 -0.819302976131439 0.000000000000000
-12.636619567871094 -16.701513290405273 -0.489948213100433 0.003921568859369
-13.846467971801758 -14.858349800109863 -0.236594960093498 0.003921568859369
-10.521917343139648 -13.905001640319824 -0.823368728160858 0.000000000000000
-12.573638916015625 -16.496536254882812 -0.485391408205032 0.003921568859369
-13.895671844482422 -14.810730934143066 -0.236607000231743 0.003921568859369
-10.610313415527344 -13.921534538269043 -0.826511800289154 0.000000000000000
-3.850315570831299 -5.440307617187500 0.852774560451508 0.000000000000000
-12.752908706665039 -16.609485626220703 -0.489968031644821 0.003921568859369
-13.947283744812012 -14.760437011718750 -0.236619755625725 0.003921568859369
-12.603022575378418 -16.304346084594727 -0.482396364212036 0.003921568859369
-14.281980514526367 -14.992378234863281 -0.241125449538231 0.003921568859369
-12.871436119079590 -16.514312744140625 -0.489988833665848 0.003921568859369
-14.396398544311523 -15.008643150329590 -0.242171272635460 0.003921568859369
-12.739268302917480 -16.240461349487305 -0.483238726854324 0.003921568859369
-14.661152839660645 -15.171940803527832 -0.245511487126350 0.003921568859369
-12.760454177856445 -16.154821395874023 -0.482013046741486 0.003921568859369
-13.930534362792969 -15.820226669311523 -0.618793487548828 0.003921568859369
-14.890055656433105 -15.299283027648926 -0.248353451490402 0.003921568859369
-12.844519615173340 -16.147771835327148 -0.483119100332260 0.003921568859369
-2.823434829711914 -3.254229068756104 -0.165204957127571 0.000000000000000
-13.319018363952637 -14.839655876159668 -0.586265504360199 0.003921568859369
-13.359650611877441 -14.774338722229004 -0.585705101490021 0.003921568859369
-14.245662689208984 -15.615138053894043 -0.620692133903503 0.003921568859369
-14.319363594055176 -15.583876609802246 -0.621508121490479 0.003921568859369
-13.414296150207520 -14.529794692993164 -0.581728279590607 0.003921568859369
-3.354594945907593 -4.795596122741699 -0.109473742544651 0.000000000000000
-12.650152206420898 -16.378759384155273 -0.851309478282928 0.003921568859369
-14.480736732482910 -15.220690727233887 -0.119849838316441 0.003921568859369
-12.689396858215332 -16.320386886596680 -0.850534081459045 0.003921568859369
-14.716810226440430 -15.352952003479004 -0.121264457702637 0.003921568859369
-12.716008186340332 -16.237043380737305 -0.848612248897552 0.003921568859369
-9.358754158020020 -12.031056404113770 -0.269500285387039 0.000000000000000
-12.802720069885254 -16.233306884765625 -0.850716531276703 0.003921568859369
-13.906972885131836 -15.925368309020996 -0.495277762413025 0.003921568859369
-15.041684150695801 -15.474192619323730 -0.633867442607880 0.003921568859369
-12.785261154174805 -16.102773666381836 -0.846217334270477 0.003921568859369
-12.810981750488281 -16.014009475708008 -0.844135284423828 0.003921568859369
-12.774443626403809 -15.857112884521484 -0.838348031044006 0.003921568859369
-14.770324707031250 -14.883642196655273 -0.616483390331268 0.003921568859369
-12.922464370727539 -15.920672416687012 -0.844157934188843 0.003921568859369
-5.381617069244385 -6.322007656097412 2.313786983489990 0.000000000000000
-13.337965011596680 -14.873602867126465 -0.468846112489700 0.003921568859369
-14.883071899414062 -14.899568557739258 -0.619134366512299 0.003921568859369
-12.972416877746582 -15.878418922424316 -0.844168305397034 0.003921568859369
-14.338529586791992 -15.848804473876953 -0.500730931758881 0.003921568859369
-14.940177917480469 -14.840377807617188 -0.619150996208191 0.003921568859369
-14.327931404113770 -15.716075897216797 -0.498371452093124 0.003921568859369
-14.036725044250488 -15.299971580505371 0.004254880826920 0.003921568859369
-14.200832366943359 -15.375635147094727 0.004314818885177 0.003921568859369
-14.182168006896973 -15.243862152099609 0.004254052881151 0.003921568859369
-11.345347404479980 -11.967941284179688 -0.389576375484467 0.000000000000000
-15.032931327819824 -15.581694602966309 -0.507481455802917 0.003921568859369
-14.750110626220703 -14.981024742126465 -0.493280768394470 0.003921568859369
-14.839791297912598 -14.969424247741699 -0.494573980569839 0.003921568859369
-12.949264526367188 -10.698331832885742 -0.198030441999435 0.003921568859369
-13.254388809204102 -14.699433326721191 -0.816504240036011 0.003921568859369
-11.562561988830566 -11.613181114196777 2.059485673904419 0.003921568859369
-4.425713539123535 -3.866563558578491 -0.075326882302761 0.000000000000000
-10.804032325744629 -10.803876876831055 1.922992348670959 0.000000000000000
-6.366562366485596 -5.354781627655029 0.100254878401756 0.000000000000000
-13.325209617614746 -14.476535797119141 -0.812070488929749 0.003921568859369
-6.030257701873779 -5.472250938415527 0.695501387119293 0.000000000000000
-14.963295936584473 -14.082488059997559 -0.970799267292023 0.003921568859369
-8.375698089599609 -7.327922344207764 0.940833806991577 0.000000000000000
-8.752962112426758 -7.584634780883789 0.978116273880005 0.000000000000000
-4.463753223419189 -4.018431186676025 1.165103077888489 0.000000000000000
-6.076379776000977 -5.282232284545898 0.146124407649040 0.000000000000000
-20.397167205810547 -14.814561843872070 0.303975284099579 0.003921568859369
-4.142425060272217 -3.986049175262451 -0.002288679592311 0.000000000000000
-14.726144790649414 -14.373291015625000 -0.849534749984741 0.003921568859369
-8.329419136047363 -7.509219169616699 0.000060172751546 0.003921568859369
-14.968821525573730 -14.500215530395508 -0.860181450843811 0.003921568859369
-8.382238388061523 -7.452774047851562 0.676548421382904 0.000000000000000
