# This PCD file was generated using the MATLAB® pcwrite function
# from Computer Vision Toolbox®.
# .PCD v.7 - Point Cloud Data file format
VERSION .7
FIELDS x y z intensity
SIZE 8 8 8 8
TYPE F F F F
COUNT 1 1 1 1
WIDTH 642
HEIGHT 1
VIEWPOINT 0 0 0 1 0 0 0
POINTS 642
DATA ascii
-4.333075523376465 0.273708492517471 0.024047380313277 0.000000000000000
-8.443426132202148 0.959585309028625 2.144653320312500 0.000000000000000
-9.667358398437500 1.138887882232666 1.134642481803894 0.000000000000000
-25.734434127807617 3.130866765975952 -0.595308303833008 0.003921568859369
-25.398323059082031 4.422753810882568 -0.740410685539246 0.003921568859369
-9.298055648803711 1.564697742462158 1.629435181617737 0.000000000000000
-25.703521728515625 3.216400861740112 -0.594896852970123 0.003921568859369
-24.717849731445312 4.389169216156006 -0.720616340637207 0.003921568859369
-14.864919662475586 1.174951314926147 0.418933093547821 0.000000000000000
-4.649809360504150 0.753499686717987 0.770462036132812 0.000000000000000
-24.647369384765625 4.464783191680908 -0.719261765480042 0.003921568859369
-12.300630569458008 1.090340852737427 0.068833231925964 0.000000000000000
-6.896896839141846 0.931096553802490 0.377828717231750 0.000000000000000
-11.715238571166992 1.113609910011292 0.328236848115921 0.000000000000000
-3.357542753219604 0.306219935417175 0.085732117295265 0.000000000000000
-25.575622558593750 3.920011281967163 -0.594894945621490 0.003921568859369
-25.602670669555664 4.005096435546875 -0.595887959003448 0.003921568859369
-25.600383758544922 4.094659328460693 -0.596228122711182 0.003921568859369
-3.598959207534790 0.699138522148132 0.261569082736969 0.000000000000000
-25.461574554443359 4.340937137603760 -0.594142019748688 0.003921568859369
-24.942337036132812 4.339871406555176 -0.582336604595184 0.003921568859369
-24.805055618286133 4.403144836425781 -0.579473972320557 0.003921568859369
-5.910061359405518 1.003185868263245 0.678552329540253 0.000000000000000
-16.066656112670898 2.935479640960693 1.945036768913269 0.000000000000000
-11.630239486694336 2.791869878768921 2.093870162963867 0.000000000000000
-15.699134826660156 3.085555076599121 4.157746791839600 0.003921568859369
-8.467822074890137 2.118400096893311 0.674144744873047 0.000000000000000
-3.539089441299438 0.984802365303040 -0.185634464025497 0.000000000000000
-7.305374622344971 1.835620403289795 0.576882302761078 0.000000000000000
-9.377824783325195 2.902083158493042 0.108123317360878 0.000000000000000
-8.360862731933594 1.742423534393311 0.991598427295685 0.000000000000000
-12.510046005249023 2.657651662826538 -0.287992715835571 0.000000000000000
-13.065274238586426 3.480643510818481 0.226143360137939 0.000000000000000
-12.152681350708008 2.750650644302368 0.277945160865784 0.000000000000000
-7.819494247436523 2.169491529464722 0.311841666698456 0.000000000000000
-6.410587310791016 1.843928694725037 0.253502935171127 0.000000000000000
-19.299348831176758 5.846878051757812 1.604616761207581 0.000000000000000
-12.350165367126465 3.733512878417969 -0.074263408780098 0.000000000000000
-10.277308464050293 3.083166360855103 1.872180700302124 0.000000000000000
-6.963247776031494 1.721878767013550 0.000300006242469 0.000000000000000
-12.829069137573242 3.277045726776123 1.568485617637634 0.000000000000000
-4.187942504882812 1.402223348617554 0.047236543148756 0.000000000000000
-11.751782417297363 3.675899744033813 -0.070760563015938 0.000000000000000
-6.409359455108643 1.936722755432129 1.139590501785278 0.000000000000000
-10.450566291809082 3.368153095245361 -0.062605462968349 0.000000000000000
-13.096252441406250 4.359716415405273 1.088147044181824 0.000000000000000
-8.487460136413574 1.976621508598328 0.047894347459078 0.000000000000000
-4.478227615356445 1.447902441024780 -0.023906962946057 0.000000000000000
-11.769730567932129 2.913220167160034 0.338627755641937 0.000000000000000
-7.751646995544434 2.346132993698120 -0.000251352321357 0.000000000000000
-9.441668510437012 2.922451496124268 -0.220699682831764 0.000000000000000
-6.259660720825195 2.277407407760620 0.253878980875015 0.000000000000000
-17.444927215576172 5.793402671813965 1.040984272956848 0.000000000000000
-12.992697715759277 4.323933601379395 0.769663751125336 0.000000000000000
-7.300207138061523 2.042503356933594 -0.124583281576633 0.000000000000000
-6.966574192047119 2.658684492111206 -0.204907670617104 0.000000000000000
-12.396027565002441 3.613777160644531 0.361322015523911 0.000000000000000
-11.707977294921875 3.446262359619141 0.066795542836189 0.000000000000000
-6.881053924560547 2.392979383468628 -0.000148596940562 0.000000000000000
-8.300275802612305 2.525202512741089 0.239478364586830 0.000000000000000
-7.462795257568359 3.067933797836304 -0.223418563604355 0.000000000000000
-9.034536361694336 3.755920886993408 0.380254119634628 0.000000000000000
-7.944889068603516 2.882102727890015 0.985030293464661 0.000000000000000
-21.179571151733398 9.244447708129883 4.130613327026367 0.003921568859369
-5.500931262969971 2.021174430847168 -0.126230373978615 0.000000000000000
-8.083503723144531 3.665065765380859 1.543517351150513 0.000000000000000
-3.793996810913086 1.844002008438110 0.045223187655210 0.000000000000000
-6.083215713500977 2.100234746932983 0.175300359725952 0.000000000000000
-11.152045249938965 5.269629955291748 0.205527454614639 0.000000000000000
-10.300230979919434 4.266514778137207 1.316661596298218 0.000000000000000
-2.406904458999634 0.883470773696899 0.126929208636284 0.000000000000000
-16.603322982788086 8.239416122436523 3.301177740097046 0.003921568859369
-2.308679103851318 0.850699007511139 0.121384590864182 0.000000000000000
-4.977688312530518 2.623700141906738 -0.183164060115814 0.000000000000000
-20.239074707031250 10.267260551452637 4.059029579162598 0.003921568859369
-7.079444885253906 3.504763126373291 0.130160316824913 0.000000000000000
-7.029664516448975 2.692521572113037 -0.290540158748627 0.000000000000000
-8.873488426208496 4.007182598114014 0.542383074760437 0.000000000000000
-7.811249732971191 3.503848314285278 2.186483621597290 0.000000000000000
-3.285825490951538 1.210392117500305 0.019213300198317 0.000000000000000
-8.090307235717773 3.701008081436157 0.493877947330475 0.000000000000000
-5.083332538604736 2.837228059768677 -0.190306574106216 0.000000000000000
-9.764304161071777 5.129810810089111 1.938298583030701 0.000000000000000
-10.436987876892090 5.056481838226318 0.650489270687103 0.000000000000000
-5.848178863525391 3.080194950103760 1.136021018028259 0.000000000000000
-5.139435768127441 3.012415409088135 0.064793474972248 0.000000000000000
-5.521779537200928 2.617390155792236 0.333392679691315 0.000000000000000
-13.343235969543457 6.635761737823486 1.778643012046814 0.000000000000000
-8.831447601318359 3.881620168685913 0.267904341220856 0.000000000000000
-2.237234354019165 0.843949913978577 0.013233475387096 0.003921568859369
-8.563970565795898 4.809637546539307 -0.497375011444092 0.000000000000000
-2.241519451141357 0.853664577007294 0.013272657059133 0.000000000000000
-10.790526390075684 4.874410152435303 0.330802321434021 0.000000000000000
-2.285509109497070 0.882283508777618 0.013548432849348 0.000000000000000
-13.417588233947754 6.165416240692139 0.414686381816864 0.000000000000000
-8.717075347900391 4.979885101318359 1.760629773139954 0.000000000000000
-4.535023212432861 2.486251831054688 -0.960039794445038 0.000000000000000
-4.523842811584473 2.497102260589600 -0.959261000156403 0.000000000000000
-4.487932682037354 2.495670080184937 -0.952978610992432 0.000000000000000
-15.075515747070312 9.005825996398926 3.128697156906128 0.003921568859369
-4.448754310607910 2.491942882537842 -0.945909798145294 0.000000000000000
-16.853565216064453 11.326225280761719 -0.704552769660950 0.003921568859369
-4.425531864166260 2.501780271530151 -0.944344818592072 0.000000000000000
-12.388565063476562 6.686573505401611 0.794416725635529 0.000000000000000
-16.747056961059570 11.342314720153809 -0.702034354209900 0.003921568859369
-24.292999267578125 15.026185989379883 -0.832445740699768 0.003921568859369
-4.400177955627441 2.505301952362061 -0.940420866012573 0.000000000000000
-12.033619880676270 8.128732681274414 0.160144284367561 0.000000000000000
-16.638587951660156 11.351104736328125 -0.699091911315918 0.003921568859369
-24.196508407592773 15.081586837768555 -0.830955862998962 0.003921568859369
-4.381473064422607 2.512879371643066 -0.938069760799408 0.000000000000000
-16.559661865234375 11.380006790161133 -0.697424173355103 0.003921568859369
-24.190172195434570 15.188330650329590 -0.832540571689606 0.003921568859369
-4.330152988433838 2.498553514480591 -0.927853822708130 0.000000000000000
-16.443613052368164 11.377920150756836 -0.694054305553436 0.003921568859369
-24.139673233032227 15.267073631286621 -0.832586586475372 0.003921568859369
-4.311952114105225 2.505139350891113 -0.925502061843872 0.000000000000000
-16.275728225708008 11.337990760803223 -0.688416838645935 0.003921568859369
-26.180789947509766 14.853422164916992 -0.703625917434692 0.003921568859369
-24.083555221557617 15.353913307189941 -0.832637250423431 0.003921568859369
-4.273131847381592 2.500178337097168 -0.918432414531708 0.000000000000000
-4.600653648376465 2.431978940963745 0.593924462795258 0.000000000000000
-16.256767272949219 11.412389755249023 -0.689442038536072 0.003921568859369
-26.039752960205078 14.897492408752441 -0.701307713985443 0.003921568859369
-24.136907577514648 15.506427764892578 -0.836473464965820 0.003921568859369
-4.270947933197021 2.517904043197632 -0.920013129711151 0.000000000000000
-4.646947860717773 2.478683233261108 0.601684927940369 0.000000000000000
-16.200660705566406 11.455855369567871 -0.688764989376068 0.003921568859369
-25.732303619384766 14.837187767028809 -0.694332659244537 0.003921568859369
-24.132717132568359 15.622113227844238 -0.838297426700592 0.003921568859369
-4.265410900115967 2.533487558364868 -0.920807421207428 0.000000000000000
-7.466212749481201 4.163963317871094 -0.001455003861338 0.003921568859369
-4.076113700866699 2.409180641174316 -0.229166656732559 0.000000000000000
-16.118631362915039 11.480195999145508 -0.686954021453857 0.003921568859369
-24.161319732666016 15.760071754455566 -0.841305315494537 0.003921568859369
-4.256544113159180 2.546895027160645 -0.920815169811249 0.000000000000000
-9.622360229492188 4.888951301574707 0.058272857218981 0.000000000000000
-16.062368392944336 11.523068428039551 -0.686276614665985 0.003921568859369
-25.538776397705078 14.960337638854980 -0.691967308521271 0.003921568859369
-24.188701629638672 15.892047882080078 -0.844192504882812 0.003921568859369
-4.231775283813477 2.548705577850342 -0.916890203952789 0.000000000000000
-5.030199050903320 3.082804441452026 -0.453047454357147 0.000000000000000
-13.599556922912598 7.909919261932373 0.890134334564209 0.000000000000000
-16.033704757690430 11.582024574279785 -0.686731278896332 0.003921568859369
-25.235290527343750 14.891293525695801 -0.684986829757690 0.003921568859369
-24.163450241088867 16.001403808593750 -0.845426976680756 0.003921568859369
-4.202894210815430 2.549510717391968 -0.912179470062256 0.000000000000000
-16.013565063476562 11.655926704406738 -0.687755882740021 0.003921568859369
-25.091590881347656 14.928324699401855 -0.682570397853851 0.003921568859369
-24.163682937622070 16.122365951538086 -0.847487986087799 0.003921568859369
-4.151789665222168 2.534062862396240 -0.901962876319885 0.000000000000000
-18.496780395507812 11.024202346801758 -0.994142651557922 0.003921568859369
-6.586717128753662 4.187698364257812 -0.391969770193100 0.000000000000000
-15.988747596740723 11.722306251525879 -0.688495337963104 0.003921568859369
-25.005189895629883 14.993530273437500 -0.681670963764191 0.003921568859369
-4.135087490081787 2.547046899795532 -0.901969969272614 0.000000000000000
-15.984567642211914 11.810278892517090 -0.690509140491486 0.003921568859369
-24.791662216186523 14.984841346740723 -0.677443921566010 0.003921568859369
-4.103569030761719 2.544448137283325 -0.896471917629242 0.000000000000000
-15.943251609802246 11.864562034606934 -0.690539836883545 0.003921568859369
-24.701818466186523 15.046681404113770 -0.676448643207550 0.003921568859369
-4.068892002105713 2.539425611495972 -0.890187382698059 0.000000000000000
-4.837844371795654 2.763155221939087 -0.811768710613251 0.003921568859369
-11.485015869140625 8.520742416381836 0.157586738467216 0.000000000000000
-15.965104103088379 11.967460632324219 -0.693405568599701 0.003921568859369
-7.708323955535889 4.557015895843506 2.302763223648071 0.000000000000000
-24.496496200561523 15.036089897155762 -0.672222018241882 0.003921568859369
-4.051253795623779 2.544159412384033 -0.887834429740906 0.000000000000000
-4.815759181976318 2.768631458282471 -0.809309422969818 0.003921568859369
-18.114011764526367 11.128770828247070 -0.981870234012604 0.003921568859369
-16.012767791748047 12.082344055175781 -0.697260737419128 0.003921568859369
-24.428831100463867 15.098902702331543 -0.671696126461029 0.003921568859369
-4.019904136657715 2.541040658950806 -0.882336080074310 0.000000000000000
-4.789375305175781 2.773411273956299 -0.806234002113342 0.003921568859369
-18.051429748535156 11.175527572631836 -0.980589628219604 0.003921568859369
-5.567203044891357 3.267116308212280 0.748706936836243 0.000000000000000
-16.065057754516602 12.210486412048340 -0.701544404029846 0.003921568859369
-24.409763336181641 15.204047203063965 -0.672695577144623 0.003921568859369
-4.748720169067383 2.771048545837402 -0.800691843032837 0.000000000000000
-16.049484252929688 12.295207023620605 -0.702996015548706 0.003921568859369
-24.381534576416016 15.315454483032227 -0.673604846000671 0.003921568859369
-3.975662231445312 2.549166679382324 -0.876059055328369 0.000000000000000
-4.729052543640137 2.779751539230347 -0.798849940299988 0.003921568859369
-24.354827880859375 15.416350364685059 -0.674414098262787 0.003921568859369
-3.942173480987549 2.542017936706543 -0.869773209095001 0.000000000000000
-4.713665962219238 2.788999795913696 -0.797624051570892 0.000000000000000
-6.085016727447510 4.085668563842773 0.283601582050323 0.000000000000000
-17.671928405761719 11.190094947814941 -0.966022610664368 0.003921568859369
-24.383453369140625 15.541525840759277 -0.676644384860992 0.003921568859369
-3.933279514312744 2.554324388504028 -0.869780242443085 0.000000000000000
-4.697288036346436 2.799675703048706 -0.796399056911469 0.000000000000000
-17.545789718627930 11.193461418151855 -0.961166024208069 0.003921568859369
-24.406055450439453 15.675412178039551 -0.678879678249359 0.003921568859369
-7.984878063201904 5.536090373992920 -0.275460749864578 0.000000000000000
-3.904895544052124 2.553327322006226 -0.865068256855011 0.000000000000000
-4.677095890045166 2.808841705322266 -0.794557392597198 0.000000000000000
-17.484626770019531 11.242997169494629 -0.960073590278625 0.003921568859369
-24.355119705200195 15.767644882202148 -0.679120957851410 0.003921568859369
-3.890093088150024 2.560246706008911 -0.863501787185669 0.000000000000000
-4.651290416717529 2.812047481536865 -0.791481018066406 0.003921568859369
-24.346023559570312 15.875690460205078 -0.680403113365173 0.003921568859369
-3.886987447738647 2.577647924423218 -0.865082144737244 0.000000000000000
-4.631100654602051 2.820975542068481 -0.789639234542847 0.000000000000000
-24.384088516235352 16.027751922607422 -0.683211565017700 0.003921568859369
-3.863839626312256 2.585042476654053 -0.863515496253967 0.000000000000000
-10.778253555297852 6.989041328430176 -0.003905011573806 0.000000000000000
-4.613384723663330 2.835654258728027 -0.789647281169891 0.000000000000000
-4.218549728393555 2.570071220397949 -0.106870189309120 0.000000000000000
-3.864196777343750 2.604176521301270 -0.865882039070129 0.000000000000000
-4.596920967102051 2.845890760421753 -0.788421928882599 0.000000000000000
-11.502521514892578 8.354087829589844 1.128944277763367 0.000000000000000
-3.842584133148193 2.606761693954468 -0.862742483615875 0.000000000000000
-4.583699703216553 2.858277797698975 -0.787813365459442 0.000000000000000
-7.095312595367432 4.111691474914551 0.227172523736954 0.000000000000000
-16.885555267333984 11.270720481872559 -0.937850177288055 0.000000000000000
-10.609144210815430 7.737605094909668 1.040980577468872 0.000000000000000
-7.579469680786133 4.408813953399658 -0.344722568988800 0.000000000000000
-10.094051361083984 6.628757953643799 3.141618013381958 0.000000000000000
-3.836581945419312 2.621127843856812 -0.863535881042480 0.000000000000000
-4.570443153381348 2.870606899261475 -0.787204921245575 0.000000000000000
-16.724370956420898 11.244310379028320 -0.930920362472534 0.000000000000000
-3.843418359756470 2.644446134567261 -0.867475271224976 0.000000000000000
-4.544666290283203 2.873142004013062 -0.784128069877625 0.000000000000000
-6.886741161346436 4.498814582824707 0.181997805833817 0.000000000000000
-16.542552947998047 11.198146820068359 -0.922670960426331 0.000000000000000
-3.830603361129761 2.654630899429321 -0.866695702075958 0.000000000000000
-4.537348270416260 2.890562057495117 -0.784753680229187 0.000000000000000
-16.416271209716797 11.197685241699219 -0.917811691761017 0.000000000000000
-18.321958541870117 11.268676757812500 -0.870351970195770 0.003921568859369
-3.831059694290161 2.673213720321655 -0.869061946868896 0.000000000000000
-4.527740478515625 2.904251098632812 -0.784761548042297 0.000000000000000
-16.385583877563477 11.255322456359863 -0.918218553066254 0.000000000000000
-5.880585193634033 3.469991683959961 -0.264843374490738 0.000000000000000
-3.812456369400024 2.677891016006470 -0.866708815097809 0.000000000000000
-4.507908821105957 2.911766767501831 -0.782918810844421 0.000000000000000
-16.258213043212891 11.248615264892578 -0.913168787956238 0.000000000000000
-10.806874275207520 6.641860961914062 -0.506488561630249 0.000000000000000
-3.806163787841797 2.692205667495728 -0.867502093315125 0.000000000000000
-4.484858512878418 2.916882514953613 -0.780459165573120 0.000000000000000
-3.169161558151245 1.977024674415588 0.198614835739136 0.000000000000000
-16.127832412719727 11.238838195800781 -0.907930254936218 0.000000000000000
-11.256000518798828 8.588676452636719 1.124591350555420 0.000000000000000
-17.872220993041992 11.238512992858887 -0.854140996932983 0.003921568859369
-3.805947780609131 2.711396455764771 -0.869868636131287 0.000000000000000
-4.477859973907471 2.933417558670044 -0.781084299087524 0.000000000000000
-16.036624908447266 11.256299972534180 -0.904949963092804 0.000000000000000
-17.836238861083984 11.301595687866211 -0.854341447353363 0.003921568859369
-3.768936395645142 2.701159000396729 -0.862795591354370 0.000000000000000
-4.464398384094238 2.945297479629517 -0.780475378036499 0.000000000000000
-11.149460792541504 7.020552635192871 0.369538068771362 0.000000000000000
-15.974600791931152 11.294372558593750 -0.903663396835327 0.000000000000000
-4.439701080322266 2.636839151382446 -0.196311876177788 0.000000000000000
-3.769112586975098 2.719696521759033 -0.865161716938019 0.000000000000000
-4.448226451873779 2.954083442687988 -0.779249072074890 0.000000000000000
-15.933834075927734 11.343586921691895 -0.903504610061646 0.000000000000000
-2.521215915679932 1.393614411354065 -0.102024078369141 0.000000000000000
-9.292522430419922 7.185492038726807 2.079741716384888 0.000000000000000
-7.444862842559814 5.737916946411133 -0.267021059989929 0.000000000000000
-3.757838249206543 2.736351966857910 -0.866741061210632 0.000000000000000
-4.433231830596924 2.970493555068970 -0.779873609542847 0.000000000000000
-5.562023162841797 3.801328182220459 -0.299641907215118 0.000000000000000
-2.605084896087646 1.465025305747986 -0.106809012591839 0.000000000000000
-3.738688468933105 2.741193771362305 -0.864387929439545 0.000000000000000
-4.422317981719971 2.985269069671631 -0.779882013797760 0.000000000000000
-15.857329368591309 11.463822364807129 -0.904319286346436 0.000000000000000
-17.167221069335938 11.208425521850586 -0.829586029052734 0.003921568859369
-3.741196632385254 2.762832880020142 -0.867541074752808 0.000000000000000
-4.408707618713379 2.996939182281494 -0.779272973537445 0.000000000000000
-15.830023765563965 11.527284622192383 -0.905102908611298 0.000000000000000
-17.065004348754883 11.224487304687500 -0.826487302780151 0.003921568859369
-3.746609687805176 2.787030220031738 -0.871480822563171 0.000000000000000
-4.395064353942871 3.008550167083740 -0.778663873672485 0.000000000000000
-15.802464485168457 11.590696334838867 -0.905886471271515 0.000000000000000
-3.274953842163086 2.411298751831055 -0.108868844807148 0.000000000000000
-3.728328466415405 2.790570974349976 -0.869126975536346 0.000000000000000
-4.381916046142578 3.019407033920288 -0.778054416179657 0.000000000000000
-15.805347442626953 11.673084259033203 -0.908362865447998 0.000000000000000
-16.932121276855469 11.299355506896973 -0.823749661445618 0.003921568859369
-3.727073192596436 2.810349941253662 -0.871493697166443 0.000000000000000
-4.373966217041016 3.036390781402588 -0.778679609298706 0.000000000000000
-15.806930541992188 11.763420104980469 -0.911030590534210 0.000000000000000
-16.854393005371094 11.334945678710938 -0.821970701217651 0.003921568859369
-3.711265563964844 2.816880702972412 -0.869926810264587 0.000000000000000
-4.347676753997803 3.038213729858398 -0.775602221488953 0.000000000000000
-15.851295471191406 11.882899284362793 -0.916144609451294 0.000000000000000
-16.791736602783203 11.376381874084473 -0.820849478244781 0.003921568859369
-3.716809034347534 2.840602874755859 -0.873866200447083 0.000000000000000
-4.337581634521484 3.051299095153809 -0.775609552860260 0.000000000000000
-15.818126678466797 11.938973426818848 -0.916549921035767 0.000000000000000
-16.527877807617188 11.272731781005859 -0.809502243995667 0.003921568859369
-3.712816715240479 2.857294559478760 -0.875445842742920 0.000000000000000
-4.326907157897949 3.065037250518799 -0.775617301464081 0.000000000000000
-15.804716110229492 12.014842987060547 -0.918274879455566 0.000000000000000
-16.432874679565430 11.289861679077148 -0.806730985641479 0.003921568859369
-9.199301719665527 8.367312431335449 -0.428700149059296 0.000000000000000
-3.654213190078735 2.540882825851440 -0.095875851809978 0.000000000000000
-3.699860811233521 2.866283178329468 -0.874665558338165 0.000000000000000
-4.328618526458740 3.088501930236816 -0.778093338012695 0.000000000000000
-3.442079782485962 2.643094778060913 -0.023222960531712 0.000000000000000
-15.819246292114258 12.112976074218750 -0.921694517135620 0.000000000000000
-16.341211318969727 11.308779716491699 -0.804124414920807 0.003921568859369
-3.680976152420044 2.870056629180908 -0.872311830520630 0.000000000000000
-4.302316665649414 3.089950561523438 -0.775015592575073 0.000000000000000
-15.864616394042969 12.236145019531250 -0.926997303962708 0.000000000000000
-14.453029632568359 12.282138824462891 -0.986361742019653 0.003921568859369
-16.236600875854492 11.317900657653809 -0.800857722759247 0.003921568859369
-8.762376785278320 7.311544895172119 2.021622419357300 0.000000000000000
-3.688605785369873 2.897046089172363 -0.877038180828094 0.000000000000000
-4.291508197784424 3.103564977645874 -0.775023221969604 0.000000000000000
-15.840561866760254 12.305001258850098 -0.928157329559326 0.000000000000000
-16.171052932739258 11.354443550109863 -0.799569845199585 0.003921568859369
-5.593366622924805 4.574269771575928 1.260594248771667 0.000000000000000
-3.674086093902588 2.910524368286133 -0.877830445766449 0.000000000000000
-8.525062561035156 7.950343608856201 -0.136640280485153 0.000000000000000
-4.279531478881836 3.121381044387817 -0.776264131069183 0.000000000000000
-16.096424102783203 11.385459899902344 -0.798113763332367 0.003921568859369
-3.660470008850098 2.919936180114746 -0.877050220966339 0.000000000000000
-4.277287483215332 3.143073797225952 -0.778123378753662 0.000000000000000
-7.011823654174805 5.911288738250732 0.359062343835831 0.000000000000000
-16.061042785644531 11.447675704956055 -0.798476517200470 0.003921568859369
-8.102092742919922 6.885051727294922 1.881391286849976 0.000000000000000
-3.664845705032349 2.944444894790649 -0.880990028381348 0.000000000000000
-4.269358634948730 3.159122228622437 -0.778747916221619 0.000000000000000
-8.585153579711914 7.366615772247314 -0.067868925631046 0.000000000000000
-16.008111953735352 11.492835998535156 -0.797847807407379 0.003921568859369
-5.803193092346191 5.367125511169434 -0.268234103918076 0.000000000000000
-3.646338224411011 2.947400569915771 -0.878635704517365 0.000000000000000
-4.252748489379883 3.166964530944824 -0.777520954608917 0.000000000000000
-4.097269535064697 3.040041208267212 0.111406326293945 0.000000000000000
-15.992395401000977 11.561223030090332 -0.799031913280487 0.003921568859369
-3.632615327835083 2.956679105758667 -0.877855479717255 0.000000000000000
-4.238068103790283 3.178589105606079 -0.776911675930023 0.000000000000000
-5.623244762420654 4.771150112152100 -0.372751951217651 0.000000000000000
-15.981942176818848 11.642244338989258 -0.800713956356049 0.003921568859369
-3.636724948883057 2.981242418289185 -0.881795287132263 0.000000000000000
-4.229990482330322 3.194533109664917 -0.777536213397980 0.000000000000000
-15.969960212707520 11.718220710754395 -0.802229464054108 0.003921568859369
-3.629178285598755 2.995224237442017 -0.882588088512421 0.000000000000000
-4.224875926971436 3.212997674942017 -0.778777837753296 0.000000000000000
-15.986303329467773 11.815980911254883 -0.805229783058167 0.003921568859369
-9.281814575195312 6.786449432373047 -0.198791325092316 0.000000000000000
-3.635930538177490 3.022548437118530 -0.887314677238464 0.000000000000000
-4.219680786132812 3.231464624404907 -0.780019462108612 0.000000000000000
-15.983090400695801 11.899446487426758 -0.807240247726440 0.003921568859369
-3.631083965301514 3.039228677749634 -0.888894200325012 0.000000000000000
-4.205366611480713 3.242260217666626 -0.779409706592560 0.000000000000000
-15.982651710510254 11.985468864440918 -0.809415757656097 0.003921568859369
-3.638104915618896 3.066111326217651 -0.893620550632477 0.000000000000000
-4.197598457336426 3.257466554641724 -0.780033767223358 0.000000000000000
-9.113286972045898 6.752458095550537 0.060632839798927 0.000000000000000
-15.999715805053711 12.081141471862793 -0.812414765357971 0.003921568859369
-11.687625885009766 8.807703018188477 -0.255349010229111 0.000000000000000
-3.635914087295532 3.085538387298584 -0.895986914634705 0.000000000000000
-4.183211326599121 3.268163204193115 -0.779423952102661 0.000000000000000
-15.985822677612305 12.157670974731445 -0.813930392265320 0.003921568859369
-5.711368560791016 4.179461479187012 -0.119312398135662 0.000000000000000
-3.630792379379272 3.102276802062988 -0.897566497325897 0.000000000000000
-4.174766540527344 3.283978223800659 -0.780048370361328 0.000000000000000
-3.612102746963501 3.113551378250122 -0.897572040557861 0.000000000000000
-4.164371490478516 3.304945230484009 -0.781906545162201 0.000000000000000
-16.030738830566406 12.375210762023926 -0.821250319480896 0.003921568859369
-12.746234893798828 10.803345680236816 4.392069339752197 0.003921568859369
-3.609660148620605 3.133004426956177 -0.899938344955444 0.000000000000000
-4.149845123291016 3.315522193908691 -0.781296670436859 0.000000000000000
-16.093740463256836 12.514416694641113 -0.826891481876373 0.003921568859369
-11.025985717773438 10.330528259277344 2.697937011718750 0.000000000000000
-3.601509809494019 3.146996736526489 -0.900731027126312 0.000000000000000
-4.141208171844482 3.331279039382935 -0.781920969486237 0.000000000000000
-3.582118988037109 3.149969577789307 -0.898376762866974 0.000000000000000
-4.135457038879395 3.349646091461182 -0.783162355422974 0.000000000000000
-11.419288635253906 9.847812652587891 0.338241487741470 0.000000000000000
-4.048398494720459 3.272349596023560 -0.114677280187607 0.000000000000000
-3.593394756317139 3.183204889297485 -0.904676854610443 0.000000000000000
-4.132563591003418 3.370654106140137 -0.785021066665649 0.000000000000000
-3.573935031890869 3.186090707778931 -0.902322530746460 0.000000000000000
-4.117845535278320 3.381079196929932 -0.784411013126373 0.000000000000000
-3.563352346420288 3.196662187576294 -0.902328073978424 0.000000000000000
-4.121223926544189 3.406757354736328 -0.787503659725189 0.000000000000000
-10.405235290527344 8.271512985229492 0.070807226002216 0.000000000000000
-4.815419197082520 4.039586544036865 0.348339647054672 0.000000000000000
-9.768628120422363 9.430737495422363 2.420367717742920 0.000000000000000
-3.569283246994019 3.223927021026611 -0.907054364681244 0.000000000000000
-4.106993198394775 3.416471958160400 -0.786893129348755 0.000000000000000
-14.335899353027344 12.795352935791016 1.094119071960449 0.000000000000000
-5.558617115020752 5.236409187316895 1.340503096580505 0.000000000000000
-3.569005012512207 3.246228694915771 -0.910207509994507 0.000000000000000
-4.100853919982910 3.434819459915161 -0.788134455680847 0.000000000000000
-18.656427383422852 16.873922348022461 0.566895604133606 0.003921568859369
-3.551609754562378 3.252276897430420 -0.908639967441559 0.000000000000000
-4.102710723876953 3.461888074874878 -0.791227877140045 0.000000000000000
-3.556608200073242 3.280229330062866 -0.913366675376892 0.000000000000000
-4.087720870971680 3.472157478332520 -0.790617644786835 0.000000000000000
-3.526110887527466 3.271506547927856 -0.907864689826965 0.000000000000000
-4.084205627441406 3.493210077285767 -0.792476236820221 0.000000000000000
-7.383680820465088 6.035965442657471 -0.164195120334625 0.000000000000000
-4.061297416687012 3.503366231918335 -0.791865408420563 0.000000000000000
-8.494134902954102 7.714682579040527 1.371128320693970 0.000000000000000
-4.058230876922607 3.523771286010742 -0.793723583221436 0.000000000000000
-4.053831577301025 3.545479536056519 -0.795582473278046 0.000000000000000
-4.789838790893555 4.691817760467529 0.111061267554760 0.000000000000000
-4.050567626953125 3.565918684005737 -0.797440588474274 0.000000000000000
-4.052238464355469 3.592538356781006 -0.800533652305603 0.003921568859369
-5.328039646148682 5.887784004211426 -0.450438976287842 0.000000000000000
-9.858969688415527 10.215249061584473 2.535330772399902 0.000000000000000
-4.044684410095215 3.611541032791138 -0.801775276660919 0.003921568859369
-5.252994537353516 5.842207431793213 0.086351506412029 0.000000000000000
-4.043287754058838 3.635459899902344 -0.804251015186310 0.003921568859369
-4.030576229095459 3.648249864578247 -0.804257750511169 0.000000000000000
-10.110300064086914 9.712491035461426 0.314344614744186 0.000000000000000
-8.865187644958496 9.400579452514648 -0.078881114721298 0.000000000000000
-19.431737899780273 21.097730636596680 2.305943012237549 0.003921568859369
-9.887392044067383 10.606230735778809 -0.089047335088253 0.000000000000000
-6.376987457275391 6.115882873535156 0.496442645788193 0.000000000000000
-10.873684883117676 10.695169448852539 -0.355214953422546 0.000000000000000
-4.869353294372559 4.751257896423340 0.150877982378006 0.000000000000000
-3.528311252593994 3.730677843093872 -0.978781044483185 0.000000000000000
-3.504513740539551 3.730246543884277 -0.975639104843140 0.000000000000000
-5.072073936462402 5.068697929382324 0.401091068983078 0.000000000000000
-3.488959789276123 3.738172531127930 -0.974857628345490 0.000000000000000
-8.744671821594238 8.239463806152344 0.337568134069443 0.000000000000000
-3.487727165222168 3.790157079696655 -0.982737481594086 0.000000000000000
-4.246025085449219 4.711098670959473 0.247315108776093 0.000000000000000
-10.797809600830078 12.664276123046875 2.983411312103271 0.003921568859369
-10.779701232910156 10.456645965576172 -0.263839900493622 0.000000000000000
-2.754127502441406 2.416017293930054 -0.137939214706421 0.000000000000000
-9.252215385437012 10.274689674377441 0.785614669322968 0.000000000000000
-9.469770431518555 11.704854011535645 2.697406053543091 0.000000000000000
-10.100879669189453 11.410517692565918 -0.006659678183496 0.000000000000000
-6.114635944366455 6.743195533752441 1.085593461990356 0.000000000000000
-10.531095504760742 10.798021316528320 -0.610739231109619 0.000000000000000
-12.546665191650391 14.375382423400879 -0.886956334114075 0.000000000000000
-5.295747280120850 5.864187240600586 0.176148146390915 0.000000000000000
-5.294226169586182 5.862122058868408 -0.359218895435333 0.000000000000000
-3.613116264343262 3.867036819458008 1.353494524955750 0.000000000000000
-5.275084018707275 5.839482307434082 -0.179851412773132 0.000000000000000
-4.182979583740234 4.642718791961670 0.737277925014496 0.000000000000000
-3.845675468444824 3.834901332855225 -0.211850658059120 0.000000000000000
-15.700250625610352 20.895401000976562 4.713167667388916 0.003921568859369
-4.024495124816895 4.720770835876465 0.347109556198120 0.000000000000000
-6.142292022705078 6.781780242919922 -0.158596888184547 0.000000000000000
-2.196155309677124 2.407230854034424 0.372956603765488 0.000000000000000
-5.331287860870361 5.873760700225830 -0.315979301929474 0.000000000000000
-11.215517044067383 15.927449226379395 3.505264043807983 0.003921568859369
-5.460451126098633 6.965629100799561 1.058351874351501 0.000000000000000
-9.640146255493164 14.154172897338867 3.079202175140381 0.003921568859369
-8.250488281250000 14.942166328430176 -0.598727107048035 0.003921568859369
-8.046611785888672 11.647860527038574 3.736387968063354 0.000000000000000
-15.081954002380371 25.202747344970703 2.368021488189697 0.003921568859369
-8.181445121765137 15.181339263916016 -0.605148792266846 0.003921568859369
-9.508252143859863 14.164305686950684 4.513129711151123 0.003921568859369
-8.204983711242676 15.358056068420410 -0.611125946044922 0.003921568859369
-8.194792747497559 15.470965385437012 -0.614545464515686 0.003921568859369
-8.195545196533203 15.904846191406250 -0.628317594528198 0.003921568859369
-8.200871467590332 16.049285888671875 -0.633013546466827 0.003921568859369
-8.339257240295410 15.111738204956055 -0.505973875522614 0.000000000000000
-8.268630981445312 15.099306106567383 -0.504676282405853 0.000000000000000
-8.221420288085938 15.137575149536133 -0.505042135715485 0.000000000000000
-8.201790809631348 15.242375373840332 -0.507547199726105 0.000000000000000
-8.183265686035156 15.206394195556641 -0.905251026153564 0.003921568859369
-8.189496040344238 15.343132019042969 -0.510050773620605 0.000000000000000
-8.098175048828125 15.164832115173340 -0.901236057281494 0.003921568859369
-9.216307640075684 15.438531875610352 -0.423049777746201 0.003921568859369
-8.215903282165527 15.536581993103027 -0.515466928482056 0.000000000000000
-8.090697288513184 15.290174484252930 -0.907001972198486 0.003921568859369
-9.145324707031250 15.447036743164062 -0.422310292720795 0.000000000000000
-8.109186172485352 15.459894180297852 -0.915479958057404 0.003921568859369
-8.193026542663574 15.763025283813477 -0.521184802055359 0.000000000000000
-5.870343685150146 10.040650367736816 3.069108486175537 0.000000000000000
-8.116293907165527 16.026918411254883 -0.942616760730743 0.003921568859369
-5.786948204040527 9.971881866455078 3.042244195938110 0.000000000000000
-8.122775077819824 16.183559417724609 -0.950247824192047 0.003921568859369
-8.823132514953613 16.460765838623047 -0.871938288211823 0.000000000000000
-8.149376869201660 15.288682937622070 -0.808250427246094 0.000000000000000
-8.116825103759766 15.363617897033691 -0.810709476470947 0.000000000000000
-13.262080192565918 25.489915847778320 3.495741605758667 0.003921568859369
-8.162062644958496 15.573591232299805 -0.820517063140869 0.000000000000000
-11.416768074035645 25.233942031860352 2.236358404159546 0.003921568859369
-8.150042533874512 15.963388442993164 -0.836750507354736 0.000000000000000
-2.599019289016724 4.703224182128906 -0.244598940014839 0.000000000000000
-8.168637275695801 16.287624359130859 -0.850902199745178 0.000000000000000
-10.790357589721680 25.755670547485352 2.255983829498291 0.003921568859369
-8.874073028564453 16.426553726196289 -0.763367056846619 0.003921568859369
-12.110714912414551 25.843210220336914 1.640326142311096 0.003921568859369
-8.212399482727051 15.288582801818848 -0.709057033061981 0.003921568859369
-10.668064117431641 26.238595962524414 2.288594961166382 0.003921568859369
-8.199124336242676 15.394331932067871 -0.712698042392731 0.003921568859369
-8.217813491821289 15.564300537109375 -0.719310998916626 0.003921568859369
-8.262011528015137 16.065324783325195 -0.738654613494873 0.003921568859369
-8.246415138244629 16.175519943237305 -0.742460727691650 0.003921568859369
-9.634792327880859 26.278347015380859 2.262670040130615 0.003921568859369
-11.126401901245117 26.854684829711914 3.540748834609985 0.003921568859369
-10.963390350341797 26.719028472900391 3.517934322357178 0.003921568859369
-9.184945106506348 26.467597961425781 2.265226364135742 0.003921568859369
-8.499493598937988 26.552070617675781 2.255176305770874 0.003921568859369
-8.108564376831055 25.288721084594727 4.812888145446777 0.003921568859369
-10.301127433776855 28.158918380737305 1.725753068923950 0.003921568859369
-7.750215053558350 25.072580337524414 4.756371021270752 0.003921568859369
-9.220940589904785 27.518257141113281 7.736904144287109 0.003921568859369
-6.888139724731445 25.783422470092773 2.160098791122437 0.003921568859369
-7.505635261535645 28.192047119140625 5.291714668273926 0.003921568859369
-6.450839996337891 24.432016372680664 4.582111358642578 0.003921568859369
-7.788054943084717 25.518217086791992 1.536427497863770 0.003921568859369
-7.906485557556152 26.640592575073242 7.410726070404053 0.003921568859369
-5.687213420867920 23.809875488281250 4.439759731292725 0.003921568859369
-5.702252388000488 25.600719451904297 2.124194860458374 0.003921568859369
-5.620981216430664 25.613759994506836 2.123872518539429 0.003921568859369
-5.523073196411133 25.613668441772461 2.122256994247437 0.003921568859369
-5.260871887207031 24.335048675537109 4.517305374145508 0.003921568859369
-5.171248435974121 24.329172134399414 4.513014316558838 0.003921568859369
-5.606426715850830 26.975259780883789 5.000189304351807 0.003921568859369
-4.791525840759277 23.260957717895508 4.309134006500244 0.003921568859369
-4.895271778106689 25.749177932739258 2.123867511749268 0.003921568859369
-6.001199722290039 24.858421325683594 6.823426246643066 0.003921568859369
-5.055175304412842 25.124912261962891 6.841003417968750 0.003921568859369
-3.423182964324951 24.396383285522461 4.474290847778320 0.003921568859369
-2.790234804153442 26.854124069213867 4.906103134155273 0.003921568859369
-3.910127162933350 27.382535934448242 1.596969008445740 0.003921568859369
-3.501216173171997 28.921201705932617 3.560665130615234 0.003921568859369
-1.453107476234436 23.012775421142578 1.871919274330139 0.003921568859369
-2.454947710037231 22.519147872924805 2.769025802612305 0.003921568859369
-1.949090003967285 23.120630264282227 2.837048292160034 0.003921568859369
-0.319175183773041 11.804539680480957 -0.967463374137878 0.000000000000000
-0.277569413185120 11.705114364624023 -0.959277451038361 0.000000000000000
-0.236668601632118 11.633451461791992 -0.953382492065430 0.000000000000000
-0.196643203496933 11.438059806823730 -0.937342345714569 0.000000000000000
-1.084614157676697 23.954694747924805 2.933543443679810 0.003921568859369
-0.124546721577644 6.258782863616943 0.107998050749302 0.003921568859369
0.125294387340546 21.056301116943359 1.711151003837585 0.003921568859369
0.561371088027954 11.355287551879883 -0.932572364807129 0.000000000000000
0.608859956264496 11.352486610412598 -0.932471930980682 0.000000000000000
0.649391651153564 11.361468315124512 -0.933448016643524 0.000000000000000
0.684371709823608 11.274773597717285 -0.926573038101196 0.000000000000000
0.723725020885468 11.271567344665527 -0.926567614078522 0.000000000000000
0.761094868183136 11.268394470214844 -0.926562488079071 0.000000000000000
0.813297748565674 11.407860755920410 -0.938332974910736 0.000000000000000
0.851749300956726 11.368295669555664 -0.935383081436157 0.000000000000000
0.919614553451538 11.654157638549805 -0.959256172180176 0.000000000000000
0.930709838867188 11.396675109863281 -0.938316285610199 0.000000000000000
0.964626193046570 11.317063331604004 -0.932095170021057 0.000000000000000
1.008389472961426 11.352515220642090 -0.935360431671143 0.000000000000000
1.053301692008972 11.395724296569824 -0.939279735088348 0.000000000000000
1.130700707435608 11.632598876953125 -0.959128856658936 0.000000000000000
1.159752726554871 11.564995765686035 -0.953890860080719 0.000000000000000
1.209854960441589 11.623227119445801 -0.959117174148560 0.000000000000000
1.222136139869690 11.392743110656738 -0.940469920635223 0.000000000000000
1.378492474555969 20.860757827758789 5.597949028015137 0.003921568859369
1.261438250541687 11.399806022644043 -0.941445291042328 0.000000000000000
1.294425964355469 11.343233108520508 -0.937187731266022 0.000000000000000
1.339907884597778 11.381379127502441 -0.940778970718384 0.000000000000000
1.388786315917969 11.426963806152344 -0.945023834705353 0.000000000000000
1.437130808830261 11.480523109436035 -0.949923038482666 0.000000000000000
1.473461031913757 11.463174819946289 -0.948935925960541 0.000000000000000
2.075201272964478 23.546375274658203 6.329886913299561 0.003921568859369
3.280446052551270 23.799674987792969 4.377151012420654 0.003921568859369
1.511099815368652 11.441471099853516 -0.947621405124664 0.000000000000000
3.208131074905396 22.752132415771484 4.186726570129395 0.003921568859369
1.547996640205383 11.415706634521484 -0.945979833602905 0.000000000000000
2.193561553955078 23.087875366210938 6.211030960083008 0.003921568859369
1.614275693893433 11.527665138244629 -0.955689430236816 0.000000000000000
1.652595877647400 11.509460449218750 -0.954702198505402 0.000000000000000
1.688235282897949 11.475392341613770 -0.952406942844391 0.000000000000000
1.714411139488220 11.386175155639648 -0.945534229278564 0.000000000000000
1.762233138084412 11.426579475402832 -0.949451267719269 0.000000000000000
1.795300006866455 11.392524719238281 -0.947156250476837 0.000000000000000
3.001388549804688 22.985664367675781 2.841796875000000 0.003921568859369
3.367335319519043 22.655641555786133 2.808565855026245 0.003921568859369
3.359568119049072 22.105726242065430 5.991497516632080 0.003921568859369
3.482407093048096 22.371547698974609 6.066981792449951 0.003921568859369
6.119962692260742 28.881635665893555 2.404024600982666 0.003921568859369
1.547346591949463 12.514177322387695 -0.813069105148315 0.003921568859369
6.665180683135986 27.252605438232422 2.285549640655518 0.003921568859369
6.962327957153320 27.225675582885742 2.289492130279541 0.003921568859369
7.093866825103760 27.318735122680664 2.299558877944946 0.003921568859369
7.918383598327637 27.688070297241211 5.251061439514160 0.003921568859369
5.923309326171875 21.110364913940430 5.880940437316895 0.003921568859369
1.105956315994263 4.140943527221680 -0.674132943153381 0.003921568859369
8.097991943359375 22.852560043334961 4.424354076385498 0.003921568859369
9.655086517333984 26.862686157226562 2.327525854110718 0.003921568859369
8.239458084106445 22.733776092529297 4.412927627563477 0.003921568859369
9.427096366882324 24.097576141357422 4.722028732299805 0.003921568859369
9.498571395874023 22.435869216918945 4.447293281555176 0.003921568859369
10.675627708435059 24.932428359985352 4.949542045593262 0.003921568859369
10.399953842163086 23.617607116699219 4.710302352905273 0.003921568859369
8.807747840881348 22.776313781738281 6.551917076110840 0.003921568859369
10.181750297546387 22.701026916503906 2.030675172805786 0.003921568859369
10.148936271667480 22.422275543212891 4.493268013000488 0.003921568859369
11.686552047729492 25.532781600952148 2.291235208511353 0.003921568859369
11.763771057128906 25.466032028198242 2.288984537124634 0.003921568859369
11.019494056701660 23.448686599731445 4.729777336120605 0.003921568859369
10.815500259399414 25.976110458374023 1.635724306106567 0.003921568859369
11.294843673706055 23.794799804687500 2.149762868881226 0.003921568859369
10.302270889282227 24.521043777465820 3.266718864440918 0.003921568859369
10.726634979248047 25.272239685058594 3.371817350387573 0.003921568859369
10.069622039794922 23.540649414062500 3.145130872726440 0.003921568859369
11.753802299499512 24.121160507202148 2.190055131912231 0.003921568859369
11.103476524353027 22.213260650634766 2.027533292770386 0.003921568859369
10.415217399597168 23.435585021972656 3.150551795959473 0.003921568859369
13.112556457519531 24.254892349243164 2.250885486602783 0.003921568859369
11.480427742004395 23.761989593505859 7.081300258636475 0.003921568859369
13.521617889404297 24.393136978149414 2.276911973953247 0.003921568859369
10.662338256835938 20.971509933471680 2.891691923141479 0.003921568859369
13.587805747985840 23.538009643554688 2.219234704971313 0.003921568859369
14.952326774597168 25.658843994140625 2.424337625503540 0.003921568859369
13.527948379516602 23.050632476806641 2.182495594024658 0.003921568859369
13.070195198059082 22.278964996337891 4.716588973999023 0.003921568859369
13.393462181091309 25.170791625976562 1.658758759498596 0.003921568859369
11.959995269775391 21.949890136718750 6.709379673004150 0.003921568859369
14.134825706481934 24.870706558227539 3.515030145645142 0.003921568859369
14.016975402832031 22.089151382446289 2.136907815933228 0.003921568859369
16.550521850585938 24.498018264770508 -0.866831362247467 0.003921568859369
14.162849426269531 20.990119934082031 2.068799734115601 0.003921568859369
16.678895950317383 24.502330780029297 -0.869034886360168 0.003921568859369
14.094985008239746 20.284233093261719 4.512253284454346 0.003921568859369
17.647293090820312 23.892786026000977 2.426235437393188 0.003921568859369
13.550256729125977 19.937276840209961 6.472401618957520 0.003921568859369
16.391998291015625 21.583900451660156 2.214520692825317 0.003921568859369
16.008041381835938 20.919719696044922 2.152409076690674 0.003921568859369
16.141151428222656 20.486810684204102 2.131359577178955 0.003921568859369
16.238840103149414 20.470218658447266 2.135274410247803 0.003921568859369
16.082412719726562 22.269649505615234 7.372944355010986 0.003921568859369
16.181110382080078 21.295511245727539 3.288030624389648 0.003921568859369
18.499387741088867 21.856037139892578 5.228908061981201 0.003921568859369
9.199501991271973 11.978745460510254 4.061065673828125 0.000000000000000
3.375167846679688 3.494717121124268 -0.171884879469872 0.000000000000000
4.867322921752930 4.621802806854248 -0.078931190073490 0.000000000000000
6.531030178070068 6.037954807281494 -0.521609723567963 0.000000000000000
10.646648406982422 10.733570098876953 2.765733242034912 0.000000000000000
5.326548576354980 5.260454654693604 -0.615903496742249 0.000000000000000
18.800065994262695 20.259344100952148 3.398009538650513 0.003921568859369
5.817708492279053 5.738841056823730 1.500042676925659 0.000000000000000
18.839982986450195 20.167663574218750 3.393152236938477 0.003921568859369
7.927631855010986 7.159667491912842 1.956956267356873 0.000000000000000
4.292915344238281 4.098361968994141 1.602622747421265 0.000000000000000
8.868093490600586 8.282303810119629 1.495176434516907 0.000000000000000
6.968040943145752 6.429609775543213 0.554664790630341 0.000000000000000
8.299712181091309 7.023581504821777 2.924436807632446 0.000000000000000
1.579160213470459 1.475648283958435 -0.089470870792866 0.000000000000000
4.892832279205322 3.417134046554565 0.244830340147018 0.000000000000000
5.308111190795898 4.410128116607666 -0.444627076387405 0.000000000000000
8.484405517578125 4.585845470428467 0.112745404243469 0.000000000000000
7.740453720092773 5.064837455749512 2.485699415206909 0.000000000000000
9.478458404541016 6.105590820312500 3.028142690658569 0.000000000000000
