# This PCD file was generated using the MATLAB® pcwrite function
# from Computer Vision Toolbox®.
# .PCD v.7 - Point Cloud Data file format
VERSION .7
FIELDS x y z intensity
SIZE 8 8 8 8
TYPE F F F F
COUNT 1 1 1 1
WIDTH 644
HEIGHT 1
VIEWPOINT 0 0 0 1 0 0 0
POINTS 644
DATA ascii
-3.787896633148193 4.066261291503906 0.311586469411850 0.000000000000000
-14.085564613342285 16.298032760620117 -0.997575223445892 0.003921568859369
-2.987974166870117 3.469585180282593 -0.867483317852020 0.000000000000000
-14.038837432861328 16.358097076416016 -0.998326718807220 0.003921568859369
-2.984045982360840 3.492182016372681 -0.870627760887146 0.000000000000000
-2.959106206893921 3.494997024536133 -0.869102358818054 0.000000000000000
-2.962107419967651 3.522074699401855 -0.873819112777710 0.000000000000000
-2.962485551834106 3.551026344299316 -0.878535687923431 0.000000000000000
-2.973167896270752 3.591800451278687 -0.886397123336792 0.000000000000000
-14.129475593566895 15.472704887390137 -0.848725795745850 0.003921568859369
-2.944526672363281 3.578665494918823 -0.880893170833588 0.000000000000000
-14.109793663024902 15.559610366821289 -0.850865960121155 0.003921568859369
-2.948027849197388 3.609980821609497 -0.886395931243896 0.000000000000000
-7.049766063690186 8.422397613525391 2.881825208663940 0.000000000000000
-2.958016872406006 3.675106525421143 -0.898187637329102 0.000000000000000
-2.949683427810669 3.690583705902100 -0.899759471416473 0.000000000000000
-14.519501686096191 16.469631195068359 -0.890204846858978 0.003921568859369
-14.228352546691895 16.245422363281250 -0.875391364097595 0.003921568859369
-14.148296356201172 16.266315460205078 -0.873909890651703 0.003921568859369
-2.863031387329102 3.324341773986816 0.002476057736203 0.000000000000000
-14.083148002624512 16.424104690551758 -0.877249300479889 0.003921568859369
-2.455290555953979 2.848847866058350 -0.079697981476784 0.000000000000000
-3.734278917312622 6.149332523345947 -0.080482490360737 0.000000000000000
-1.594065904617310 1.694568514823914 -0.033494614064693 0.000000000000000
-3.736828088760376 6.163393497467041 -0.203657552599907 0.003921568859369
-3.744059085845947 6.176453590393066 -0.039758704602718 0.003921568859369
-3.732226133346558 6.169537544250488 0.001232403330505 0.003921568859369
-14.522012710571289 25.702486038208008 1.702449560165405 0.003921568859369
-3.689997673034668 6.241163730621338 1.900954246520996 0.000000000000000
-11.972248077392578 25.298906326293945 5.071744441986084 0.003921568859369
-3.725882291793823 6.116976261138916 -0.121010407805443 0.000000000000000
-5.004577159881592 12.515974998474121 -0.779343307018280 0.000000000000000
-11.894236564636230 26.836866378784180 2.378956794738770 0.003921568859369
-4.960856437683105 12.532264709472656 -0.779336512088776 0.000000000000000
-4.917084693908691 12.548400878906250 -0.779329657554626 0.000000000000000
-4.866449832916260 12.545614242553711 -0.778152644634247 0.000000000000000
-4.816390037536621 12.550933837890625 -0.777443349361420 0.000000000000000
-10.321965217590332 24.359388351440430 2.144302845001221 0.003921568859369
-12.183469772338867 26.243375778198242 3.529959917068481 0.003921568859369
-9.980385780334473 25.266973495483398 2.202716827392578 0.003921568859369
-5.261584281921387 11.378093719482422 -0.868455588817596 0.000000000000000
-4.592947959899902 11.324026107788086 -0.988911926746368 0.000000000000000
-11.931899070739746 26.698207855224609 3.568407297134399 0.003921568859369
-5.224235057830811 11.389937400817871 -0.868170261383057 0.000000000000000
-5.181306838989258 11.399692535400391 -0.867603778839111 0.000000000000000
-4.517749309539795 11.352195739746094 -0.988900363445282 0.000000000000000
-5.144598484039307 11.423979759216309 -0.868159174919128 0.000000000000000
-5.084353446960449 11.411323547363281 -0.865879118442535 0.000000000000000
-4.430400371551514 11.381282806396484 -0.988860666751862 0.000000000000000
-5.024603843688965 11.380045890808105 -0.862227976322174 0.000000000000000
-4.390649318695068 11.395630836486816 -0.988854467868805 0.000000000000000
-4.336176872253418 11.368513107299805 -0.985253095626831 0.000000000000000
-4.963586330413818 11.452592849731445 -0.865301668643951 0.000000000000000
-4.282595634460449 11.336700439453125 -0.981325209140778 0.000000000000000
-4.903685569763184 11.425196647644043 -0.861930549144745 0.000000000000000
-4.243635177612305 11.358753204345703 -0.981972217559814 0.000000000000000
-4.862294673919678 11.437491416931152 -0.861644327640533 0.000000000000000
-4.231140136718750 11.451635360717773 -0.988829195499420 0.000000000000000
-4.820878982543945 11.449634552001953 -0.861358046531677 0.000000000000000
-4.191144466400146 11.465287208557129 -0.988822758197784 0.000000000000000
-5.475527763366699 11.437711715698242 -0.805312693119049 0.000000000000000
-4.775072097778320 11.450481414794922 -0.860230505466461 0.000000000000000
-4.151095867156982 11.478801727294922 -0.988816261291504 0.000000000000000
-4.707727909088135 11.395324707031250 -0.854896724224091 0.000000000000000
-4.111006259918213 11.492174148559570 -0.988809704780579 0.000000000000000
-4.669911861419678 11.409879684448242 -0.854891061782837 0.000000000000000
-4.072872161865234 11.504749298095703 -0.988803446292877 0.000000000000000
-4.622989654541016 11.406407356262207 -0.853483080863953 0.000000000000000
-4.032691955566406 11.517848968505859 -0.988796770572662 0.000000000000000
-4.580341339111328 11.413957595825195 -0.852916181087494 0.000000000000000
-3.992460966110229 11.530810356140137 -0.988790094852448 0.000000000000000
-4.524167537689209 11.406352996826172 -0.851199865341187 0.000000000000000
-3.903896570205688 11.556282043457031 -0.988750278949738 0.000000000000000
-3.745934486389160 11.187896728515625 -0.956067025661469 0.000000000000000
-3.764996290206909 11.390550613403320 -0.972398579120636 0.000000000000000
-9.220237731933594 24.856067657470703 3.237501382827759 0.003921568859369
-8.432349205017090 23.983173370361328 3.104848861694336 0.003921568859369
-6.688326835632324 22.383373260498047 1.896440744400024 0.003921568859369
-7.255994796752930 24.368341445922852 4.615964412689209 0.003921568859369
-6.648240566253662 22.524084091186523 4.262891292572021 0.003921568859369
-3.494158029556274 11.659924507141113 -0.987373530864716 0.000000000000000
-3.465254068374634 11.744119644165039 -0.993548512458801 0.000000000000000
-3.443790912628174 11.820082664489746 -0.999095618724823 0.000000000000000
-4.308068275451660 11.583678245544434 -0.786326885223389 0.003921568859369
-7.020001411437988 24.536031723022461 3.119981765747070 0.003921568859369
-4.004470348358154 11.497658729553223 -0.774949550628662 0.003921568859369
-3.473682165145874 11.961590766906738 -0.866100549697876 0.003921568859369
-4.024007320404053 11.696866989135742 -0.787539422512054 0.000000000000000
-3.457332372665405 12.069141387939453 -0.873099029064178 0.003921568859369
-4.024465084075928 11.985624313354492 -0.805263519287109 0.000000000000000
-3.977894306182861 11.983381271362305 -0.804228484630585 0.000000000000000
-7.425333976745605 27.907651901245117 3.531940221786499 0.003921568859369
-3.936038494110107 11.996232032775879 -0.804221570491791 0.000000000000000
-5.963359832763672 22.527675628662109 2.849210262298584 0.003921568859369
-3.904508113861084 12.043334007263184 -0.806528151035309 0.000000000000000
-3.959821462631226 12.543288230895996 -0.838388621807098 0.000000000000000
-3.909271478652954 12.516465187072754 -0.835811495780945 0.000000000000000
-3.923192739486694 22.105936050415039 1.826277613639832 0.003921568859369
-4.711193084716797 22.077102661132812 2.761996984481812 0.003921568859369
-3.406598091125488 24.976877212524414 4.586466312408447 0.003921568859369
-2.475152969360352 22.676038742065430 1.857628464698792 0.003921568859369
-2.257344245910645 23.878086090087891 4.366126060485840 0.003921568859369
-2.011580467224121 23.964132308959961 1.958989977836609 0.003921568859369
-1.239290237426758 21.837112426757812 1.782689809799194 0.003921568859369
-0.314141213893890 22.198083877563477 5.946192741394043 0.003921568859369
-0.081572845578194 22.217079162597656 5.951415061950684 0.003921568859369
2.741367578506470 27.441387176513672 2.251425504684448 0.003921568859369
3.120445966720581 27.262231826782227 2.240599393844604 0.003921568859369
3.402075290679932 27.198175430297852 2.238389968872070 0.003921568859369
3.759774923324585 25.146690368652344 4.640483379364014 0.003921568859369
4.364790916442871 27.130987167358398 2.244900941848755 0.003921568859369
4.404068946838379 26.792682647705078 2.218278884887695 0.003921568859369
5.020721912384033 22.709142684936523 4.248051166534424 0.003921568859369
4.981594085693359 28.383617401123047 3.541451454162598 0.003921568859369
5.135126590728760 21.449718475341797 4.029515266418457 0.003921568859369
6.645473957061768 26.753734588623047 2.253767013549805 0.003921568859369
6.585341930389404 25.405622482299805 2.146235704421997 0.003921568859369
7.243461132049561 26.011981964111328 2.208201169967651 0.003921568859369
8.347045898437500 26.372035980224609 2.262703895568848 0.003921568859369
6.484128475189209 24.671260833740234 6.847340106964111 0.003921568859369
8.179211616516113 25.563013076782227 2.195745706558228 0.003921568859369
7.248164653778076 25.363002777099609 3.244804620742798 0.003921568859369
7.849920749664307 25.758537292480469 1.571358442306519 0.003921568859369
9.199047088623047 24.496944427490234 2.141560316085815 0.003921568859369
9.333374977111816 24.616188049316406 2.154587030410767 0.003921568859369
7.071247577667236 21.627143859863281 2.800761222839355 0.003921568859369
8.244345664978027 21.570108413696289 4.221811771392822 0.003921568859369
9.608158111572266 24.547029495239258 2.157572746276855 0.003921568859369
9.717758178710938 24.584772109985352 2.163771152496338 0.003921568859369
10.529357910156250 25.579120635986328 2.264027357101440 0.003921568859369
10.134032249450684 23.017301559448242 2.059303283691406 0.003921568859369
11.001571655273438 24.715908050537109 4.945177078247070 0.003921568859369
10.969701766967773 27.131904602050781 3.601269483566284 0.003921568859369
10.386164665222168 20.597888946533203 4.219511032104492 0.003921568859369
10.967026710510254 24.416254043579102 3.295033931732178 0.003921568859369
13.080617904663086 24.578580856323242 5.089874744415283 0.003921568859369
15.471744537353516 24.171489715576172 -0.333019495010376 0.003921568859369
15.666323661804199 24.265064239501953 -0.335058093070984 0.003921568859369
15.417449951171875 23.882999420166016 0.333788692951202 0.003921568859369
15.808120727539062 24.306192398071289 -0.336343586444855 0.003921568859369
15.573332786560059 23.948366165161133 0.335436701774597 0.003921568859369
16.375654220581055 24.981285095214844 0.350645959377289 0.003921568859369
15.667277336120605 23.550094604492188 0.332228839397430 0.003921568859369
2.215872287750244 3.897111177444458 0.831215202808380 0.000000000000000
16.201934814453125 24.164127349853516 -0.337433040142059 0.003921568859369
14.150382995605469 23.531795501708984 5.020593166351318 0.003921568859369
16.299686431884766 24.126808166503906 -0.337693691253662 0.003921568859369
14.313066482543945 23.612665176391602 2.261524915695190 0.003921568859369
14.244750022888184 23.501945495605469 5.024915695190430 0.003921568859369
4.350502490997314 7.268970012664795 1.558755397796631 0.000000000000000
14.417774200439453 23.233726501464844 2.239770889282227 0.003921568859369
12.960703849792480 23.192272186279297 3.271697282791138 0.003921568859369
15.588585853576660 24.337087631225586 -0.841166615486145 0.003921568859369
17.130565643310547 24.059278488159180 -0.342542350292206 0.003921568859369
15.432169914245605 24.094997406005859 -0.164810419082642 0.003921568859369
16.600151062011719 23.140041351318359 -0.330246925354004 0.003921568859369
15.559654235839844 24.098167419433594 -0.165210485458374 0.003921568859369
16.367015838623047 24.965461730957031 -0.171956196427345 0.003921568859369
13.720738410949707 23.367368698120117 3.336521387100220 0.003921568859369
16.039831161499023 24.285110473632812 -0.847030520439148 0.003921568859369
16.193544387817383 24.331485748291016 -0.850619256496429 0.003921568859369
16.213445663452148 24.178318023681641 -0.847228527069092 0.003921568859369
13.599057197570801 20.309659957885742 2.002851963043213 0.003921568859369
16.237003326416016 24.031904220581055 -0.844070553779602 0.003921568859369
13.739418029785156 20.363800048828125 2.012956857681274 0.003921568859369
16.892370223999023 24.449775695800781 -0.171067252755165 0.003921568859369
15.497503280639648 24.964052200317383 0.687048316001892 0.003921568859369
15.851124763488770 25.114936828613281 0.694221913814545 0.003921568859369
15.958032608032227 25.098903656005859 0.695261418819427 0.003921568859369
3.371149778366089 4.898258686065674 -0.313399106264114 0.000000000000000
15.540529251098633 24.259641647338867 -0.670087695121765 0.003921568859369
16.557464599609375 23.088409423828125 5.194355964660645 0.003921568859369
15.786439895629883 24.452926635742188 -0.676955699920654 0.003921568859369
15.433193206787109 23.728410720825195 0.661895215511322 0.003921568859369
17.417026519775391 23.923614501953125 -0.170345991849899 0.003921568859369
17.722051620483398 23.986808776855469 -0.171657845377922 0.003921568859369
14.174380302429199 18.939395904541016 4.327657222747803 0.003921568859369
16.678663253784180 24.300722122192383 1.721752762794495 0.003921568859369
17.321641921997070 22.440963745117188 2.321528196334839 0.003921568859369
15.394124031066895 24.020595550537109 0.167777076363564 0.003921568859369
8.381574630737305 10.696443557739258 2.491382360458374 0.000000000000000
4.522607803344727 6.856320858001709 0.242296040058136 0.000000000000000
17.516035079956055 23.536073684692383 1.714242339134216 0.003921568859369
16.650665283203125 24.623203277587891 0.174685031175613 0.003921568859369
2.907706260681152 3.985586881637573 1.339012145996094 0.000000000000000
7.711470127105713 9.299657821655273 2.215756654739380 0.000000000000000
9.733573913574219 11.624971389770508 2.777614831924438 0.000000000000000
8.618024826049805 10.161200523376465 2.442525148391724 0.000000000000000
9.420020103454590 11.018123626708984 2.656367063522339 0.000000000000000
18.087202072143555 22.777692794799805 1.699329853057861 0.003921568859369
5.376817226409912 6.759840488433838 -0.606745481491089 0.000000000000000
6.631272315979004 8.247525215148926 2.853760242462158 0.000000000000000
8.079536437988281 9.463055610656738 -0.872667431831360 0.000000000000000
7.048739910125732 7.177389144897461 1.846043944358826 0.000000000000000
2.655432224273682 2.699903726577759 0.702219486236572 0.000000000000000
14.383150100708008 15.407098770141602 -0.982760250568390 0.003921568859369
14.505413055419922 15.423654556274414 -0.987216293811798 0.003921568859369
14.704006195068359 15.416608810424805 -0.993338644504547 0.003921568859369
2.575665950775146 2.177348136901855 -0.318957656621933 0.000000000000000
13.308397293090820 10.765876770019531 -0.998588562011719 0.003921568859369
13.310320854187012 10.686854362487793 -0.995793521404266 0.003921568859369
13.347541809082031 10.640073776245117 -0.995787858963013 0.003921568859369
13.501242637634277 11.807438850402832 -0.941286981105804 0.003921568859369
13.581673622131348 11.793929100036621 -0.944000661373138 0.003921568859369
13.591439247131348 11.712463378906250 -0.941453158855438 0.003921568859369
13.556213378906250 11.599969863891602 -0.936217010021210 0.003921568859369
13.521412849426270 11.492819786071777 -0.931190550327301 0.003921568859369
8.457345008850098 8.711368560791016 -0.779879212379456 0.000000000000000
13.509446144104004 11.401651382446289 -0.927628397941589 0.003921568859369
13.517397880554199 11.323679924011230 -0.925321340560913 0.003921568859369
13.516833305358887 11.243096351623535 -0.922596216201782 0.003921568859369
13.513932228088379 11.165009498596191 -0.919871270656586 0.003921568859369
13.508345603942871 11.077278137207031 -0.916727483272552 0.003921568859369
13.537617683410645 11.022288322448730 -0.916094660758972 0.003921568859369
18.714290618896484 16.802116394042969 6.753666400909424 0.003921568859369
13.546085357666016 10.954582214355469 -0.914206743240356 0.003921568859369
13.568639755249023 10.894530296325684 -0.913155555725098 0.003921568859369
13.603453636169434 10.844392776489258 -0.912941038608551 0.003921568859369
13.608527183532715 10.764552116394043 -0.910399913787842 0.003921568859369
13.655463218688965 10.724164009094238 -0.911023199558258 0.003921568859369
13.765166282653809 11.858784675598145 -0.847096741199493 0.000000000000000
13.695967674255371 10.678686141967773 -0.911227941513062 0.003921568859369
13.888602256774902 11.880419731140137 -0.852114558219910 0.000000000000000
13.767963409423828 10.657436370849609 -0.913524985313416 0.003921568859369
13.818115234375000 11.741194725036621 -0.845413267612457 0.000000000000000
13.873001098632812 10.664957046508789 -0.918123662471771 0.003921568859369
14.038663864135742 10.717826843261719 -0.926697552204132 0.003921568859369
14.124357223510742 10.697304725646973 -0.929621696472168 0.003921568859369
13.780292510986328 11.462715148925781 -0.835726082324982 0.003921568859369
14.191717147827148 10.674177169799805 -0.931709587574005 0.003921568859369
13.743075370788574 11.350886344909668 -0.831070959568024 0.003921568859369
14.289793014526367 10.669662475585938 -0.935680210590363 0.003921568859369
13.751669883728027 11.277368545532227 -0.829206168651581 0.003921568859369
14.391223907470703 10.666964530944824 -0.939860105514526 0.003921568859369
13.772325515747070 11.214001655578613 -0.828085422515869 0.000000000000000
14.518580436706543 10.682585716247559 -0.945713639259338 0.003921568859369
13.755366325378418 11.120550155639648 -0.824732542037964 0.000000000000000
14.672067642211914 10.716238975524902 -0.953240931034088 0.003921568859369
13.786598205566406 11.059871673583984 -0.823982000350952 0.000000000000000
14.746634483337402 10.685892105102539 -0.955314934253693 0.003921568859369
13.825123786926270 11.011506080627441 -0.823978066444397 0.000000000000000
14.855268478393555 10.685380935668945 -0.959914088249207 0.003921568859369
13.838368415832520 10.943227767944336 -0.822485923767090 0.000000000000000
14.977089881896973 10.693513870239258 -0.965350210666656 0.003921568859369
13.825489997863770 10.862595558166504 -0.819692075252533 0.000000000000000
15.118252754211426 10.722343444824219 -0.972251296043396 0.003921568859369
13.781892776489258 10.743063926696777 -0.814665019512177 0.000000000000000
15.211638450622559 10.700723648071289 -0.975594639778137 0.003921568859369
13.879426002502441 10.741084098815918 -0.818195700645447 0.000000000000000
15.357090950012207 10.722695350646973 -0.982495248317719 0.003921568859369
13.965720176696777 10.733713150024414 -0.821168363094330 0.000000000000000
6.342669010162354 4.858218193054199 -0.560511887073517 0.000000000000000
14.084502220153809 10.742712974548340 -0.825814783573151 0.000000000000000
14.191517829895020 10.753639221191406 -0.830089688301086 0.000000000000000
14.280117988586426 10.742218017578125 -0.833062231540680 0.000000000000000
8.684149742126465 6.547314643859863 2.925621509552002 0.000000000000000
14.399542808532715 10.749248504638672 -0.837708592414856 0.000000000000000
14.494827270507812 10.741478919982910 -0.841052949428558 0.000000000000000
3.413002967834473 2.533222913742065 -0.460709184408188 0.000000000000000
14.602898597717285 10.740536689758301 -0.844963371753693 0.000000000000000
14.719702720642090 10.743222236633301 -0.849424779415131 0.000000000000000
14.847797393798828 10.757155418395996 -0.854630410671234 0.000000000000000
3.487368822097778 2.532308578491211 -0.467131346464157 0.000000000000000
14.952930450439453 10.761590003967285 -0.858720183372498 0.000000000000000
15.089920043945312 10.776088714599609 -0.864297628402710 0.000000000000000
15.225317955017090 10.792415618896484 -0.869875252246857 0.000000000000000
5.649308204650879 3.994460582733154 0.405611753463745 0.000000000000000
3.791708707809448 2.915229320526123 -0.083378486335278 0.000000000000000
8.378773689270020 5.025915622711182 -0.512852668762207 0.000000000000000
6.348900318145752 3.724423646926880 -0.214418470859528 0.000000000000000
2.807949066162109 1.792904257774353 -0.077638700604439 0.000000000000000
5.498603820800781 3.380536317825317 1.735568284988403 0.000000000000000
5.976091861724854 3.790347337722778 -0.454413950443268 0.000000000000000
7.468382835388184 3.666662454605103 1.519944906234741 0.000000000000000
12.535541534423828 5.823557376861572 -0.724761426448822 0.000000000000000
9.514575004577637 4.422003746032715 1.916022539138794 0.000000000000000
8.548919677734375 3.941323041915894 1.719421029090881 0.000000000000000
2.491746664047241 0.988437592983246 -0.031118446961045 0.000000000000000
7.145259857177734 3.536958217620850 0.979992926120758 0.000000000000000
11.698947906494141 6.151503562927246 -0.847372770309448 0.000000000000000
12.363325119018555 5.695443153381348 3.649550199508667 0.000000000000000
6.183060169219971 2.465003967285156 -0.038570325821638 0.000000000000000
5.970025539398193 2.380190849304199 0.525447726249695 0.000000000000000
11.284350395202637 3.868429183959961 -0.416637718677521 0.000000000000000
0.770984888076782 0.394872605800629 -0.055515147745609 0.003921568859369
2.258052825927734 0.881286799907684 0.197878420352936 0.000000000000000
10.605487823486328 4.974742889404297 -0.477252215147018 0.000000000000000
5.079639434814453 1.759156107902527 -0.031352203339338 0.000000000000000
13.968620300292969 4.679300308227539 0.599638938903809 0.000000000000000
5.010499954223633 1.933272838592529 0.312170714139938 0.000000000000000
12.780231475830078 4.182013511657715 1.096903681755066 0.000000000000000
6.802431106567383 2.547065019607544 -0.000166086087120 0.000000000000000
6.064476490020752 1.938668012619019 0.110834889113903 0.000000000000000
11.235227584838867 3.507647514343262 0.479002386331558 0.000000000000000
8.724022865295410 3.163746595382690 0.539813995361328 0.000000000000000
5.861242771148682 1.670540332794189 0.247339352965355 0.000000000000000
10.291777610778809 2.251788377761841 0.122060783207417 0.000000000000000
6.201915264129639 1.332913517951965 0.073330469429493 0.000000000000000
3.469843149185181 0.679744780063629 0.040450461208820 0.000000000000000
5.902119636535645 2.019339323043823 -0.253680199384689 0.000000000000000
5.315722465515137 1.757169485092163 -0.227614939212799 0.000000000000000
7.295734882354736 1.621418476104736 0.302984923124313 0.000000000000000
5.627563476562500 1.208440065383911 -0.033800855278969 0.000000000000000
17.067811965942383 4.557432174682617 1.026669383049011 0.000000000000000
10.818644523620605 2.843866348266602 2.988028764724731 0.000000000000000
11.505102157592773 2.390620946884155 2.135791063308716 0.000000000000000
17.041515350341797 4.357967376708984 1.021527886390686 0.000000000000000
6.825907230377197 0.951238095760345 -0.080559693276882 0.000000000000000
9.622900962829590 2.746526241302490 0.289554238319397 0.000000000000000
7.011439323425293 1.278460264205933 0.123140782117844 0.000000000000000
12.089233398437500 2.121792793273926 0.497865647077560 0.000000000000000
8.244806289672852 1.862875580787659 1.033203482627869 0.000000000000000
8.556018829345703 1.073905348777771 -0.300762593746185 0.000000000000000
7.880072116851807 1.692197322845459 0.983796954154968 0.000000000000000
6.739638328552246 1.421598792076111 -0.000859601888806 0.000000000000000
6.262523651123047 1.641688704490662 -0.262984901666641 0.000000000000000
7.880204200744629 0.793724179267883 -0.092665202915668 0.000000000000000
3.380904674530029 0.672337353229523 0.078563243150711 0.000000000000000
8.843223571777344 0.891223132610321 0.102022714912891 0.000000000000000
16.667474746704102 3.111984252929688 0.983812868595123 0.000000000000000
22.535478591918945 3.001849889755249 4.136096954345703 0.003921568859369
9.079239845275879 2.085249185562134 0.052956871688366 0.000000000000000
9.866458892822266 2.266860008239746 0.292477726936340 0.000000000000000
6.762931823730469 1.525563240051270 0.199346467852592 0.000000000000000
9.932603836059570 2.245827913284302 -0.414124220609665 0.000000000000000
5.869015216827393 1.279793143272400 -0.105001725256443 0.000000000000000
9.547583580017090 2.017554521560669 -0.170672714710236 0.000000000000000
9.130462646484375 1.928934693336487 0.269039243459702 0.000000000000000
8.623086929321289 1.387429475784302 -0.203252971172333 0.000000000000000
13.831867218017578 1.495279431343079 -0.082020215690136 0.000000000000000
10.509920120239258 0.619961082935333 0.120718620717525 0.000000000000000
12.862306594848633 1.890213847160339 -0.001373347127810 0.000000000000000
9.896603584289551 0.480201303958893 -0.116030007600784 0.000000000000000
15.821179389953613 0.769099771976471 0.182250440120697 0.000000000000000
6.763920307159424 1.328566789627075 0.198175936937332 0.000000000000000
16.712160110473633 2.458104848861694 0.979342818260193 0.000000000000000
6.683910846710205 0.931487500667572 -0.001045196782798 0.000000000000000
9.644629478454590 1.209748268127441 1.185109615325928 0.000000000000000
12.887390136718750 0.985312700271606 2.344503879547119 0.000000000000000
18.823963165283203 1.375497698783875 0.326423913240433 0.003921568859369
7.232193470001221 0.857071816921234 0.166885972023010 0.000000000000000
10.457156181335449 0.220039814710617 -0.607314705848694 0.000000000000000
10.226321220397949 0.177871704101562 -0.593812465667725 0.000000000000000
9.907486915588379 0.587278008460999 -0.058805603533983 0.000000000000000
18.789707183837891 1.972785592079163 1.094963312149048 0.000000000000000
16.389980316162109 0.916442811489105 2.980662584304810 0.003921568859369
15.918575286865234 2.231505632400513 -0.281502127647400 0.003921568859369
7.988607883453369 -0.053637895733118 0.090702459216118 0.000000000000000
11.897037506103516 0.498401463031769 0.480641871690750 0.000000000000000
10.003443717956543 0.836671233177185 -0.233730465173721 0.000000000000000
8.223242759704590 0.629435300827026 0.474979370832443 0.000000000000000
11.125249862670898 0.272670328617096 -0.323745161294937 0.000000000000000
9.421092033386230 0.197888270020485 1.704514980316162 0.000000000000000
12.575164794921875 0.877477169036865 -0.293669015169144 0.000000000000000
11.727568626403809 0.779115021228790 0.678897082805634 0.000000000000000
14.203382492065430 0.252245396375656 0.574077248573303 0.000000000000000
9.327179908752441 -0.319846451282501 0.106231257319450 0.000000000000000
22.450605392456055 1.417033076286316 1.303665876388550 0.003921568859369
8.469339370727539 0.531946659088135 1.032387852668762 0.000000000000000
8.251425743103027 -0.282683044672012 -0.287608921527863 0.000000000000000
6.909857749938965 0.746222734451294 0.198955446481705 0.000000000000000
7.136714458465576 0.422842919826508 0.411101639270782 0.000000000000000
8.324782371520996 0.089625172317028 1.504420042037964 0.000000000000000
15.150613784790039 0.113800011575222 0.261229276657104 0.000000000000000
10.588853836059570 0.555574178695679 0.611999511718750 0.000000000000000
6.783716678619385 0.026033349335194 0.272272020578384 0.000000000000000
13.105923652648926 0.050531458109617 1.062636852264404 0.000000000000000
10.177203178405762 0.498128950595856 -0.001897307927720 0.003921568859369
13.319661140441895 1.259730577468872 -0.234389990568161 0.000000000000000
11.912764549255371 -0.613731920719147 -0.140124469995499 0.000000000000000
13.759498596191406 1.301541447639465 0.077732421457767 0.000000000000000
4.125388622283936 -0.011865058913827 -0.024942586198449 0.000000000000000
8.803592681884766 0.799498140811920 -0.154783695936203 0.000000000000000
6.687510490417480 0.280955493450165 -0.001602320000529 0.000000000000000
2.783435821533203 0.105147749185562 -0.001268794643693 0.000000000000000
7.922594547271729 -0.079144351184368 0.318066895008087 0.000000000000000
5.158842086791992 -0.069022163748741 -0.149499058723450 0.000000000000000
5.253411769866943 0.165717765688896 -0.122078567743301 0.000000000000000
8.818626403808594 -0.178266540169716 0.712241232395172 0.000000000000000
6.529093265533447 0.183980479836464 -0.151873379945755 0.000000000000000
18.049015045166016 0.449405461549759 2.205194234848022 0.003921568859369
12.565081596374512 0.312193781137466 3.345966577529907 0.000000000000000
7.942034244537354 -0.600978255271912 0.090112902224064 0.000000000000000
8.582569122314453 -0.232837408781052 -0.447907239198685 0.000000000000000
8.830495834350586 0.555932104587555 -0.154938384890556 0.000000000000000
7.754601478576660 0.111592456698418 0.177049130201340 0.000000000000000
8.224544525146484 -0.335291385650635 1.483925461769104 0.000000000000000
9.630931854248047 -0.458271443843842 0.778337478637695 0.000000000000000
4.818803787231445 0.219482883810997 -0.305528044700623 0.000000000000000
8.231856346130371 -0.020982155576348 0.472698360681534 0.000000000000000
11.328961372375488 -0.070301756262779 3.011435508728027 0.000000000000000
11.634926795959473 0.454499989748001 -0.204072654247284 0.000000000000000
14.531979560852051 -0.191029921174049 0.839047431945801 0.000000000000000
9.391957283020020 0.332097142934799 -0.381596058607101 0.000000000000000
9.443357467651367 0.301201164722443 -0.165542289614677 0.000000000000000
8.128521919250488 -0.134461954236031 -0.001945189898834 0.003921568859369
18.708011627197266 -0.571695506572723 4.990134716033936 0.003921568859369
12.417835235595703 -0.462182611227036 0.284446477890015 0.000000000000000
4.118421077728271 -0.165139898657799 -0.001711288583465 0.000000000000000
6.158911705017090 -0.568111181259155 1.109413623809814 0.000000000000000
9.324208259582520 -0.055919546633959 -0.163453251123428 0.000000000000000
9.573898315429688 -1.021519184112549 1.736809134483337 0.000000000000000
4.444783210754395 -0.269237995147705 0.533984780311584 0.000000000000000
12.162734985351562 -0.155264332890511 -0.494480520486832 0.000000000000000
15.011320114135742 -0.246591582894325 -0.610889196395874 0.000000000000000
9.640235900878906 -0.757221162319183 1.172753334045410 0.000000000000000
6.587501525878906 -0.287525653839111 0.035589661449194 0.000000000000000
11.302271842956543 -0.496402978897095 0.323664844036102 0.000000000000000
8.540782928466797 -0.403600543737411 0.243588313460350 0.000000000000000
4.253073692321777 -0.212447449564934 -0.171391189098358 0.000000000000000
3.316461086273193 -0.209660634398460 -0.133179366588593 0.000000000000000
7.839408874511719 -1.688461542129517 -0.094760105013847 0.000000000000000
15.360767364501953 -2.175739288330078 4.125082015991211 0.000000000000000
16.774887084960938 -1.721457600593567 -0.296247035264969 0.003921568859369
6.700353145599365 -1.341263532638550 1.224444270133972 0.000000000000000
15.567178726196289 -3.368315219879150 2.879531621932983 0.003921568859369
23.647867202758789 -4.951830863952637 6.436056137084961 0.003921568859369
21.521829605102539 -5.692436695098877 4.032040119171143 0.003921568859369
4.340395450592041 -1.588770866394043 0.049892358481884 0.000000000000000
23.672460556030273 -6.429823398590088 6.533058166503906 0.003921568859369
5.521379470825195 -1.552548527717590 0.686143755912781 0.000000000000000
20.296844482421875 -5.881509304046631 2.572895288467407 0.003921568859369
12.803148269653320 -3.839562892913818 3.541765928268433 0.000000000000000
16.154714584350586 -5.723748683929443 3.096194505691528 0.003921568859369
8.960290908813477 -2.708068847656250 -0.003371817292646 0.003921568859369
16.071722030639648 -5.756886005401611 3.084007024765015 0.003921568859369
2.328269481658936 -0.825064063072205 -0.015798529610038 0.000000000000000
2.179589748382568 -0.777192056179047 -0.014865046367049 0.000000000000000
15.389864921569824 -5.807291507720947 2.970744132995605 0.003921568859369
2.184331178665161 -0.787184774875641 -0.014913180842996 0.000000000000000
15.251971244812012 -5.815270423889160 2.947804689407349 0.003921568859369
3.653540849685669 -1.391685962677002 0.151183873414993 0.000000000000000
14.616807937622070 -5.742348194122314 2.833686590194702 0.003921568859369
14.593024253845215 -5.791357994079590 2.832968235015869 0.000000000000000
8.450434684753418 -2.996909379959106 -0.003425481030717 0.003921568859369
13.633886337280273 -5.682024955749512 2.663803100585938 0.000000000000000
13.165915489196777 -5.589462280273438 0.572822868824005 0.000000000000000
11.946646690368652 -5.066021442413330 1.044132947921753 0.000000000000000
13.852684020996094 -5.941112518310547 2.718990087509155 0.000000000000000
8.619462013244629 -3.224442481994629 0.207476586103439 0.000000000000000
13.720104217529297 -5.940010070800781 2.696768760681152 0.000000000000000
13.027937889099121 -5.687067031860352 1.144337773323059 0.000000000000000
12.541143417358398 -5.472054481506348 2.464403390884399 0.000000000000000
13.477992057800293 -5.941599369049072 2.655055522918701 0.000000000000000
3.242582559585571 -1.041277289390564 0.092332765460014 0.000000000000000
5.905104637145996 -2.257576227188110 0.356715321540833 0.000000000000000
12.787973403930664 -5.686792850494385 1.126476049423218 0.000000000000000
14.911791801452637 -5.793650627136230 4.242897987365723 0.003921568859369
3.159096956253052 -1.191628932952881 -0.002504058880731 0.000000000000000
25.737028121948242 -11.623282432556152 2.286676406860352 0.003921568859369
14.884297370910645 -5.842275619506836 4.240827560424805 0.003921568859369
12.883427619934082 -5.100032806396484 0.314630180597305 0.000000000000000
26.411081314086914 -12.369070053100586 2.362000703811646 0.003921568859369
10.230257034301758 -4.199203968048096 2.920721769332886 0.000000000000000
3.973272323608398 -1.607112884521484 0.093726903200150 0.000000000000000
24.508775711059570 -11.681356430053711 2.198016881942749 0.003921568859369
24.344238281250000 -11.810859680175781 2.190544843673706 0.003921568859369
13.221624374389648 -5.711889743804932 1.745346665382385 0.000000000000000
13.216137886047363 -5.763852596282959 1.747292160987854 0.000000000000000
11.719445228576660 -5.793293952941895 2.352447986602783 0.000000000000000
11.655996322631836 -5.814293861389160 2.343846559524536 0.000000000000000
24.114175796508789 -12.216612815856934 2.187729358673096 0.003921568859369
26.326103210449219 -13.460117340087891 2.394228696823120 0.003921568859369
26.303733825683594 -13.564213752746582 2.396499872207642 0.003921568859369
6.255179882049561 -2.464488506317139 0.034978654235601 0.000000000000000
24.754365921020508 -12.869464874267578 5.053022861480713 0.003921568859369
24.698854446411133 -12.949714660644531 5.050871372222900 0.003921568859369
7.659198284149170 -3.529818534851074 0.189246863126755 0.000000000000000
12.483396530151367 -5.801409244537354 1.667462229728699 0.000000000000000
25.367231369018555 -13.409470558166504 2.323116064071655 0.003921568859369
10.911952018737793 -5.718878269195557 2.215550422668457 0.000000000000000
23.163217544555664 -12.340076446533203 2.123757600784302 0.003921568859369
23.305850982666016 -12.520832061767578 2.140964508056641 0.003921568859369
23.060182571411133 -12.486871719360352 2.121276140213013 0.003921568859369
24.120306015014648 -13.173888206481934 2.223868370056152 0.003921568859369
23.600397109985352 -12.887940406799316 4.867893695831299 0.003921568859369
22.829504013061523 -12.567078590393066 2.107962846755981 0.003921568859369
23.348787307739258 -12.855120658874512 4.824890613555908 0.003921568859369
24.712190628051758 -12.189856529235840 1.588334560394287 0.003921568859369
25.670291900634766 -14.259305953979492 5.318688869476318 0.003921568859369
26.377725601196289 -13.131428718566895 3.591198444366455 0.003921568859369
24.429042816162109 -13.676532745361328 2.265746593475342 0.003921568859369
25.397544860839844 -14.222600936889648 5.272102832794189 0.003921568859369
22.471372604370117 -12.675603866577148 2.086856842041016 0.003921568859369
24.800212860107422 -12.556817054748535 1.602466225624084 0.003921568859369
23.393833160400391 -13.415289878845215 2.181981086730957 0.003921568859369
24.455625534057617 -12.595490455627441 0.629106998443604 0.003921568859369
25.307201385498047 -13.037220954895020 3.469032287597656 0.003921568859369
25.751617431640625 -14.896653175354004 2.408594131469727 0.003921568859369
25.275615692138672 -13.132241249084473 3.470977306365967 0.003921568859369
24.403600692749023 -12.892301559448242 0.631224155426025 0.003921568859369
10.974416732788086 -5.786964893341064 3.277239084243774 0.000000000000000
26.322662353515625 -14.138010978698730 3.641085147857666 0.003921568859369
23.793577194213867 -14.303536415100098 2.246045112609863 0.003921568859369
10.922547340393066 -5.809949874877930 3.267928123474121 0.000000000000000
24.376018524169922 -13.194628715515137 0.633588969707489 0.003921568859369
23.508712768554688 -14.242539405822754 2.223644495010376 0.003921568859369
10.858100891113281 -5.823366165161133 3.254479408264160 0.000000000000000
25.219104766845703 -15.286730766296387 5.340672492980957 0.003921568859369
23.709255218505859 -14.472296714782715 2.247342586517334 0.003921568859369
25.260461807250977 -13.785123825073242 7.660343170166016 0.003921568859369
22.867485046386719 -12.578347206115723 3.177778005599976 0.003921568859369
24.906608581542969 -13.821857452392578 1.641862273216248 0.003921568859369
24.989459991455078 -13.868193626403809 3.481940746307373 0.003921568859369
23.155439376831055 -14.359285354614258 2.204165220260620 0.003921568859369
24.246726989746094 -15.041299819946289 5.166521072387695 0.003921568859369
24.196149826049805 -13.529482841491699 3.376820564270020 0.003921568859369
24.959878921508789 -13.959765434265137 7.612753391265869 0.003921568859369
24.007474899291992 -13.538461685180664 1.588328957557678 0.003921568859369
24.215610504150391 -13.767989158630371 7.414130210876465 0.003921568859369
23.423898696899414 -13.417024612426758 3.287758350372314 0.003921568859369
25.121097564697266 -14.518779754638672 3.535468578338623 0.003921568859369
25.514087677001953 -14.866165161132812 1.702571034431458 0.003921568859369
24.180099487304688 -14.083457946777344 7.448265075683594 0.003921568859369
25.453037261962891 -14.944220542907715 1.701185584068298 0.003921568859369
23.365533828735352 -13.928856849670410 3.312362194061279 0.003921568859369
23.330358505249023 -14.017907142639160 3.314307928085327 0.003921568859369
22.760948181152344 -13.883909225463867 3.246177673339844 0.003921568859369
23.620622634887695 -16.041227340698242 2.310102701187134 0.003921568859369
22.889122009277344 -15.540465354919434 5.007924079895020 0.003921568859369
22.878562927246094 -15.649857521057129 2.242258787155151 0.003921568859369
24.512886047363281 -15.078725814819336 7.660108566284180 0.003921568859369
23.287254333496094 -14.425228118896484 1.578142881393433 0.003921568859369
24.883346557617188 -15.548032760620117 1.691217899322510 0.003921568859369
23.052902221679688 -16.006801605224609 2.270501852035522 0.003921568859369
23.663295745849609 -16.434066772460938 5.216470241546631 0.003921568859369
24.525453567504883 -15.441603660583496 1.670363664627075 0.003921568859369
23.120697021484375 -16.173831939697266 2.282838106155396 0.003921568859369
21.837003707885742 -15.268486976623535 4.822316169738770 0.003921568859369
25.398063659667969 -16.112733840942383 0.687761068344116 0.003921568859369
23.911994934082031 -15.162968635559082 7.535972595214844 0.003921568859369
23.963981628417969 -17.138151168823242 2.383569717407227 0.003921568859369
23.315263748168945 -16.670366287231445 5.188302516937256 0.003921568859369
22.197624206542969 -15.981573104858398 2.211861133575439 0.003921568859369
22.285814285278320 -16.045589447021484 4.969733715057373 0.003921568859369
22.245552062988281 -16.134216308593750 4.973317623138428 0.003921568859369
23.767360687255859 -15.645295143127441 7.571959018707275 0.003921568859369
22.619346618652344 -16.516134262084961 5.069346427917480 0.003921568859369
23.509065628051758 -15.597262382507324 3.435747146606445 0.003921568859369
9.219558715820312 -6.037405490875244 2.904579639434814 0.000000000000000
22.185781478881836 -16.321453094482422 4.984786033630371 0.003921568859369
9.159982681274414 -6.042950153350830 2.892166376113892 0.000000000000000
23.835342407226562 -17.796632766723633 2.406948328018188 0.003921568859369
9.098337173461914 -6.044429779052734 2.878718852996826 0.000000000000000
9.045292854309082 -6.053653717041016 2.868374586105347 0.000000000000000
22.893054962158203 -15.648222923278809 7.378520965576172 0.003921568859369
22.743761062622070 -17.228979110717773 5.165381431579590 0.003921568859369
23.529777526855469 -16.201602935791016 7.602994441986084 0.003921568859369
23.435419082641602 -16.262643814086914 7.591617107391357 0.003921568859369
23.323154449462891 -18.051946640014648 2.386507749557495 0.003921568859369
22.046478271484375 -15.622446060180664 1.555710792541504 0.003921568859369
23.645805358886719 -16.766229629516602 7.713458538055420 0.003921568859369
22.850391387939453 -16.317203521728516 1.617103338241577 0.003921568859369
22.753236770629883 -16.247127532958984 7.438305377960205 0.003921568859369
21.788223266601562 -15.666654586791992 1.545056104660034 0.003921568859369
23.810337066650391 -17.134309768676758 3.572753906250000 0.003921568859369
22.846488952636719 -16.434680938720703 7.487957954406738 0.003921568859369
22.755613327026367 -18.238157272338867 2.359026432037354 0.003921568859369
22.003202438354492 -16.056152343750000 7.245906829833984 0.003921568859369
23.047897338867188 -18.613336563110352 5.363676071166992 0.003921568859369
22.314435958862305 -18.267631530761719 2.332742929458618 0.003921568859369
22.295392990112305 -18.651159286499023 2.351576566696167 0.003921568859369
22.656423568725586 -19.083732604980469 5.363691806793213 0.003921568859369
22.603860855102539 -19.167013168334961 5.364899635314941 0.003921568859369
22.547601699829102 -17.427209854125977 7.581883430480957 0.003921568859369
21.829330444335938 -18.360258102416992 1.642418146133423 0.003921568859369
21.889520645141602 -18.411327362060547 3.482332229614258 0.003921568859369
5.079861164093018 -4.586929321289062 0.112748272716999 0.000000000000000
21.646942138671875 -18.327987670898438 1.633155822753906 0.003921568859369
21.999155044555664 -19.290657043457031 3.563118696212769 0.003921568859369
7.531593322753906 -5.911127090454102 -0.168677285313606 0.000000000000000
6.332614898681641 -5.533639430999756 2.205008506774902 0.000000000000000
1.795744299888611 -1.438551187515259 -0.002921761013567 0.000000000000000
6.001372814178467 -6.581852912902832 -0.106376789510250 0.000000000000000
5.959440708160400 -6.004688739776611 0.333833724260330 0.000000000000000
6.706225395202637 -6.241469383239746 -0.004543541930616 0.003921568859369
15.039999008178711 -14.269837379455566 5.503496170043945 0.003921568859369
5.686996459960938 -5.706778526306152 -0.004369296599180 0.000000000000000
3.883873701095581 -3.488914251327515 0.025641327723861 0.000000000000000
4.940358161926270 -6.180599212646484 -0.094708852469921 0.000000000000000
2.968487024307251 -3.247766494750977 0.169447824358940 0.000000000000000
4.930639266967773 -6.247232437133789 -0.733440995216370 0.003921568859369
11.200837135314941 -11.966057777404785 4.340622425079346 0.003921568859369
7.105136871337891 -7.543263912200928 2.727069377899170 0.000000000000000
5.021127700805664 -6.090679645538330 1.406889319419861 0.000000000000000
5.071033954620361 -6.245931148529053 0.639989733695984 0.000000000000000
5.027973175048828 -6.267485618591309 -0.050308924168348 0.000000000000000
5.001473903656006 -6.130383014678955 0.946970701217651 0.000000000000000
5.008691310882568 -6.186504364013672 0.449586927890778 0.000000000000000
4.984040737152100 -6.199108600616455 0.176767855882645 0.000000000000000
10.592540740966797 -15.831774711608887 3.439515113830566 0.003921568859369
6.185867786407471 -9.149391174316406 1.982118010520935 0.000000000000000
5.171111106872559 -7.810037136077881 0.747807919979095 0.000000000000000
9.663316726684570 -15.082307815551758 1.443489193916321 0.000000000000000
4.965905666351318 -6.205015182495117 -0.140537619590759 0.000000000000000
10.399707794189453 -17.179000854492188 3.628607988357544 0.003921568859369
4.251988887786865 -6.792611122131348 1.430234551429749 0.000000000000000
4.044014453887939 -5.950793743133545 0.860246241092682 0.000000000000000
4.835720062255859 -7.370571613311768 2.317185878753662 0.000000000000000
4.630882740020752 -6.552105426788330 -0.142110332846642 0.003921568859369
4.627778530120850 -6.597302436828613 -0.142745062708855 0.000000000000000
3.314261913299561 -6.315134048461914 1.271774649620056 0.000000000000000
3.580002784729004 -6.242835998535156 1.885749101638794 0.000000000000000
1.734896063804626 -3.155024766921997 0.137607321143150 0.000000000000000
2.418527126312256 -3.956683397293091 0.021983874961734 0.000000000000000
2.827505111694336 -6.388744831085205 0.275301665067673 0.000000000000000
2.806646585464478 -6.401247978210449 0.275467425584793 0.000000000000000
3.108693122863770 -6.372598648071289 0.850368618965149 0.000000000000000
3.050992488861084 -6.282163143157959 1.831851005554199 0.000000000000000
1.551388502120972 -3.140089988708496 0.901002943515778 0.000000000000000
3.900062561035156 -9.843214035034180 2.800984859466553 0.000000000000000
3.543159723281860 -10.961199760437012 0.927009344100952 0.003921568859369
2.809782505035400 -6.399586677551270 0.194922909140587 0.003921568859369
3.607588529586792 -10.729069709777832 1.371772170066833 0.003921568859369
3.267025232315063 -11.616132736206055 2.178803682327271 0.000000000000000
2.854226589202881 -12.999247550964355 -0.160222694277763 0.000000000000000
2.810762882232666 -13.213356971740723 -0.475658625364304 0.000000000000000
2.748878479003906 -13.412862777709961 -0.799924492835999 0.000000000000000
3.145359516143799 -12.169916152954102 1.013570427894592 0.000000000000000
2.483240127563477 -6.452256202697754 0.193045601248741 0.003921568859369
2.998472213745117 -12.516802787780762 0.515265285968781 0.000000000000000
3.348970890045166 -11.561034202575684 -0.006032146513462 0.003921568859369
2.945525646209717 -12.691946983337402 0.220051705837250 0.000000000000000
2.934971332550049 -12.640350341796875 0.519655823707581 0.000000000000000
3.307600498199463 -11.737554550170898 -0.287816435098648 0.003921568859369
2.890032052993774 -12.847605705261230 0.222366854548454 0.000000000000000
2.827566623687744 -13.008211135864258 -0.083245724439621 0.003921568859369
3.219398736953735 -11.876741409301758 1.494287610054016 0.000000000000000
2.803259611129761 -13.117139816284180 -0.394703179597855 0.000000000000000
3.133346319198608 -12.072560310363770 1.515235781669617 0.000000000000000
1.732295155525208 -10.979459762573242 0.123232960700989 0.000000000000000
1.817809700965881 -11.972456932067871 0.134622216224670 0.000000000000000
1.728803277015686 -6.293851375579834 1.722093224525452 0.000000000000000
1.516544699668884 -10.111162185668945 -0.123900115489960 0.000000000000000
2.651038408279419 -14.197010040283203 -0.090043485164642 0.000000000000000
1.041737556457520 -6.417418956756592 0.070565819740295 0.000000000000000
2.971083641052246 -12.553872108459473 0.740743160247803 0.000000000000000
1.887024283409119 -9.725788116455078 0.395790338516235 0.000000000000000
2.959939241409302 -12.682596206665039 0.294942080974579 0.000000000000000
1.020637750625610 -4.321647644042969 0.352754533290863 0.000000000000000
2.590780735015869 -14.766524314880371 -0.093460880219936 0.000000000000000
0.978991150856018 -6.376497745513916 -0.079243309795856 0.000000000000000
2.898500204086304 -12.825586318969727 0.297909438610077 0.003921568859369
2.683023214340210 -15.723116874694824 1.290742397308350 0.000000000000000
