# This PCD file was generated using the MATLAB® pcwrite function
# from Computer Vision Toolbox®.
# .PCD v.7 - Point Cloud Data file format
VERSION .7
FIELDS x y z intensity
SIZE 8 8 8 8
TYPE F F F F
COUNT 1 1 1 1
WIDTH 644
HEIGHT 1
VIEWPOINT 0 0 0 1 0 0 0
POINTS 644
DATA ascii
5.200817108154297 6.867326736450195 1.065637469291687 0.000000000000000
8.192731857299805 10.662044525146484 -0.944771587848663 0.000000000000000
10.085515975952148 10.741457939147949 -0.862307012081146 0.000000000000000
8.194201469421387 10.579873085021973 -0.940307140350342 0.000000000000000
10.107366561889648 10.682045936584473 -0.860679030418396 0.000000000000000
8.249661445617676 10.581923484802246 -0.942818343639374 0.000000000000000
8.263524055480957 11.735733985900879 -0.923793613910675 0.000000000000000
10.271009445190430 10.785145759582520 -0.871609151363373 0.000000000000000
8.306409835815430 10.577682495117188 -0.945050477981567 0.000000000000000
8.225241661071777 11.596228599548340 -0.915095329284668 0.000000000000000
10.283578872680664 10.723053932189941 -0.869516074657440 0.000000000000000
5.142487049102783 5.975156784057617 1.450030565261841 0.000000000000000
8.385052680969238 10.596595764160156 -0.949514865875244 0.000000000000000
8.220877647399902 11.500944137573242 -0.909978628158569 0.000000000000000
8.470248222351074 10.630498886108398 -0.955095350742340 0.000000000000000
8.214282035827637 11.411987304687500 -0.905117750167847 0.000000000000000
8.660164833068848 10.784777641296387 -0.971837043762207 0.000000000000000
8.208786964416504 11.317075729370117 -0.900001108646393 0.000000000000000
8.719126701354980 10.774234771728516 -0.973511874675751 0.000000000000000
8.221114158630371 11.244566917419434 -0.896420121192932 0.000000000000000
8.746529579162598 10.731078147888184 -0.972395718097687 0.000000000000000
8.226917266845703 11.170651435852051 -0.892838478088379 0.000000000000000
6.548183441162109 8.063723564147949 1.283051252365112 0.000000000000000
8.806873321533203 10.727771759033203 -0.974906921386719 0.000000000000000
8.234709739685059 11.100021362304688 -0.889512598514557 0.000000000000000
8.836580276489258 10.687443733215332 -0.974069833755493 0.000000000000000
8.244506835937500 11.032666206359863 -0.886442542076111 0.000000000000000
8.798587799072266 10.563059806823730 -0.965698897838593 0.000000000000000
8.260703086853027 10.970257759094238 -0.883884131908417 0.000000000000000
8.923154830932617 10.635411262512207 -0.975185751914978 0.000000000000000
8.269774436950684 10.903018951416016 -0.880814135074615 0.000000000000000
8.960227012634277 10.603855133056641 -0.975185692310333 0.000000000000000
8.288255691528320 10.848477363586426 -0.878767490386963 0.000000000000000
8.897249221801758 10.463391304016113 -0.964861690998077 0.000000000000000
8.302682876586914 10.796875000000000 -0.876720786094666 0.000000000000000
4.998656749725342 5.373362541198730 0.301734447479248 0.000000000000000
9.064308166503906 10.582765579223633 -0.978812992572784 0.000000000000000
8.323087692260742 10.745491027832031 -0.874929904937744 0.000000000000000
9.103033065795898 10.549115180969238 -0.978812932968140 0.000000000000000
8.345097541809082 10.692625999450684 -0.873139023780823 0.000000000000000
5.416363239288330 6.322140693664551 1.030051231384277 0.000000000000000
9.184568405151367 10.567898750305176 -0.983556389808655 0.000000000000000
8.392312049865723 10.675583839416504 -0.874162256717682 0.000000000000000
8.442641258239746 10.666065216064453 -0.875697255134583 0.000000000000000
5.838563442230225 6.657319068908691 -0.623333394527435 0.000000000000000
8.517959594726562 10.673536300659180 -0.878768026828766 0.000000000000000
9.351583480834961 10.528263092041016 -0.988858580589294 0.000000000000000
8.577812194824219 10.671314239501953 -0.881070435047150 0.000000000000000
9.363361358642578 10.463976860046387 -0.986068308353424 0.000000000000000
8.647203445434570 10.676543235778809 -0.884140372276306 0.000000000000000
8.702865600585938 10.672162055969238 -0.886187016963959 0.000000000000000
8.747018814086914 10.646009445190430 -0.886698603630066 0.000000000000000
8.825092315673828 10.664099693298340 -0.890791833400726 0.000000000000000
8.906676292419434 10.689451217651367 -0.895396828651428 0.000000000000000
8.951672554016113 10.667124748229980 -0.896164238452911 0.000000000000000
9.035502433776855 10.690146446228027 -0.900769174098969 0.000000000000000
9.089118003845215 10.681018829345703 -0.902559936046600 0.000000000000000
9.178593635559082 10.709280014038086 -0.907676517963409 0.000000000000000
9.247385025024414 10.712980270385742 -0.910746514797211 0.000000000000000
9.315743446350098 10.702745437622070 -0.912793815135956 0.000000000000000
9.371558189392090 10.690809249877930 -0.914584696292877 0.000000000000000
9.411470413208008 10.660730361938477 -0.914840459823608 0.000000000000000
9.508056640625000 10.697551727294922 -0.920724570751190 0.000000000000000
9.569412231445312 10.690684318542480 -0.923026978969574 0.000000000000000
9.619270324707031 10.667055130004883 -0.924050271511078 0.000000000000000
9.705802917480469 10.690773010253906 -0.928911030292511 0.000000000000000
9.762003898620605 10.677084922790527 -0.930701792240143 0.000000000000000
9.837241172790527 10.683611869812012 -0.934283375740051 0.000000000000000
9.909911155700684 10.686834335327148 -0.937609136104584 0.000000000000000
9.971782684326172 10.678047180175781 -0.939911603927612 0.000000000000000
10.063922882080078 10.700828552246094 -0.945028185844421 0.000000000000000
10.142371177673340 10.700066566467285 -0.948098957538605 0.000000000000000
10.223928451538086 10.710380554199219 -0.952192246913910 0.000000000000000
10.283463478088379 10.697319030761719 -0.954238831996918 0.000000000000000
6.165449619293213 5.037691593170166 -0.560275375843048 0.000000000000000
7.790529727935791 6.121768474578857 2.666878938674927 0.000000000000000
10.852324485778809 8.205033302307129 -0.874421179294586 0.000000000000000
10.341456413269043 7.645499706268311 -0.826326131820679 0.000000000000000
9.713118553161621 5.671799182891846 0.000004747032108 0.003921568859369
9.473034858703613 4.799239158630371 1.941493391990662 0.000000000000000
9.230084419250488 5.003663539886475 -0.490062177181244 0.000000000000000
16.563560485839844 6.165756702423096 -0.617718219757080 0.003921568859369
11.239047050476074 4.409909725189209 2.202651023864746 0.000000000000000
9.553063392639160 3.147196054458618 -0.351506382226944 0.000000000000000
8.129547119140625 3.492803335189819 2.372854232788086 0.000000000000000
12.861623764038086 4.793806076049805 2.503990888595581 0.000000000000000
21.306877136230469 7.514425277709961 1.845022439956665 0.003921568859369
18.292142868041992 7.179667472839355 1.144408464431763 0.000000000000000
6.387528419494629 2.303430080413818 0.158003255724907 0.000000000000000
17.347278594970703 6.255665779113770 1.073943972587585 0.000000000000000
9.022920608520508 3.181748390197754 0.556737899780273 0.000000000000000
9.002178192138672 3.643032312393188 0.056397520005703 0.000000000000000
17.682804107666016 5.756625652313232 1.082547068595886 0.000000000000000
11.789926528930664 3.837321996688843 1.521415591239929 0.000000000000000
5.923875808715820 1.833314538002014 0.360226809978485 0.000000000000000
4.209761619567871 1.513122081756592 0.129741296172142 0.000000000000000
4.493678092956543 1.597925305366516 0.138352066278458 0.000000000000000
15.346186637878418 3.723069190979004 1.287833809852600 0.000000000000000
4.721540927886963 1.108010768890381 -0.140684410929680 0.000000000000000
11.009420394897461 2.588688135147095 2.059151649475098 0.000000000000000
7.316412448883057 2.463972091674805 0.224227204918861 0.000000000000000
11.554161071777344 3.275934934616089 1.472666382789612 0.000000000000000
16.401090621948242 5.466619968414307 0.502681434154510 0.003921568859369
15.478742599487305 3.413999557495117 0.645125865936279 0.000000000000000
15.614386558532715 3.386886119842529 0.278607010841370 0.000000000000000
6.777575969696045 1.741603136062622 -0.162287682294846 0.000000000000000
3.670943737030029 1.119121074676514 0.111005738377571 0.000000000000000
6.508275985717773 0.942563176155090 -0.228805243968964 0.000000000000000
8.377960205078125 2.062829494476318 2.305555820465088 0.000000000000000
8.559419631958008 1.637583732604980 0.151692062616348 0.000000000000000
10.426211357116699 1.473199248313904 -0.366868019104004 0.000000000000000
14.841123580932617 3.549274206161499 0.354525625705719 0.000000000000000
6.524850845336914 1.201400756835938 0.269315302371979 0.000000000000000
2.995760679244995 0.400227785110474 -0.104702301323414 0.000000000000000
6.568329811096191 1.185833573341370 0.270943552255630 0.000000000000000
5.402216434478760 0.955145061016083 0.995851874351501 0.000000000000000
8.568693161010742 1.454743385314941 0.706888914108276 0.000000000000000
6.215019702911377 1.664863705635071 -0.260857552289963 0.000000000000000
13.590574264526367 2.800698757171631 0.322141766548157 0.000000000000000
11.089445114135742 1.176083326339722 0.129442632198334 0.000000000000000
23.575477600097656 4.863277435302734 6.441480636596680 0.003921568859369
12.357689857482910 1.923786044120789 2.274390697479248 0.000000000000000
9.331686973571777 0.956302583217621 -0.544419825077057 0.000000000000000
12.876267433166504 3.219319581985474 -0.539458990097046 0.000000000000000
16.310327529907227 2.369286298751831 1.342832684516907 0.000000000000000
11.065189361572266 1.566545605659485 -0.324307382106781 0.000000000000000
3.775364398956299 0.911131381988525 -0.246881186962128 0.000000000000000
8.775623321533203 1.647523999214172 0.518129289150238 0.000000000000000
10.301605224609375 2.424002170562744 -0.429874688386917 0.000000000000000
2.350744962692261 0.420528531074524 0.137203142046928 0.000000000000000
10.590496063232422 1.386511802673340 0.869292020797729 0.000000000000000
11.507257461547852 1.506902575492859 2.110089063644409 0.000000000000000
8.670509338378906 1.534390926361084 0.510453522205353 0.000000000000000
10.544078826904297 1.342136383056641 0.864408612251282 0.000000000000000
2.431872844696045 0.538100063800812 0.071323812007904 0.000000000000000
16.948995590209961 2.945444583892822 0.999517738819122 0.000000000000000
6.797099590301514 1.176988720893860 -0.159592032432556 0.000000000000000
12.890992164611816 2.799902677536011 0.076430685818195 0.000000000000000
14.183878898620605 1.659401059150696 0.580151915550232 0.000000000000000
14.731279373168945 0.847529828548431 0.171301513910294 0.000000000000000
15.051945686340332 2.351193666458130 0.884867727756500 0.000000000000000
7.069757938385010 0.700597226619720 -0.041062463074923 0.000000000000000
5.400927066802979 0.497446626424789 0.981499612331390 0.000000000000000
19.606597900390625 3.694124460220337 0.579474747180939 0.003921568859369
10.487319946289062 1.374670863151550 2.821118593215942 0.000000000000000
8.953405380249023 1.584910631179810 -0.368490964174271 0.000000000000000
21.984004974365234 2.806921482086182 -0.514592111110687 0.003921568859369
5.876748085021973 0.725118339061737 1.573611617088318 0.000000000000000
8.654986381530762 0.618756055831909 -0.251118451356888 0.000000000000000
16.424964904785156 1.177365064620972 0.668891370296478 0.003921568859369
13.307859420776367 0.906752228736877 0.231967359781265 0.000000000000000
6.840131759643555 0.799277782440186 -0.159128308296204 0.000000000000000
4.541893959045410 0.511320590972900 0.555228769779205 0.000000000000000
4.136765956878662 0.654233634471893 0.024053528904915 0.000000000000000
17.104196548461914 1.880583167076111 4.597651004791260 0.003921568859369
12.842731475830078 0.695636093616486 2.336090087890625 0.000000000000000
2.343065738677979 0.342581838369370 -0.040497053414583 0.000000000000000
10.743122100830078 0.468929499387741 0.873192429542542 0.000000000000000
6.532474040985107 0.238891214132309 -0.037671215832233 0.000000000000000
11.515385627746582 -0.137471556663513 0.133395165205002 0.000000000000000
6.316901683807373 0.209062963724136 -0.328261107206345 0.000000000000000
3.981611490249634 0.502963781356812 -0.161209970712662 0.000000000000000
18.012598037719727 0.414541900157928 -0.522712051868439 0.000000000000000
17.995979309082031 1.292980551719666 1.047419786453247 0.000000000000000
10.022064208984375 0.230080708861351 0.406084865331650 0.000000000000000
7.220343112945557 0.844387352466583 0.209907397627831 0.000000000000000
7.619012832641602 0.518545210361481 -0.353088349103928 0.000000000000000
9.665114402770996 1.096857428550720 -0.168810188770294 0.000000000000000
9.867577552795410 0.156283989548683 -0.057037539780140 0.000000000000000
2.276785373687744 0.136679470539093 -0.000008794316273 0.000000000000000
7.905850887298584 0.099009335041046 0.319785952568054 0.000000000000000
9.684512138366699 0.087829515337944 -0.280211031436920 0.000000000000000
3.034637212753296 0.319437384605408 0.087146304547787 0.000000000000000
6.355927467346191 0.035486351698637 0.109940104186535 0.000000000000000
7.786256313323975 0.043536026030779 -0.405090808868408 0.000000000000000
4.964777946472168 0.267761945724487 0.603487491607666 0.000000000000000
14.713405609130859 0.799556076526642 3.933002233505249 0.000000000000000
15.281755447387695 0.085716649889946 2.775899887084961 0.000000000000000
10.236806869506836 1.017606616020203 -0.178445681929588 0.000000000000000
8.633499145507812 -0.011499611660838 -0.249376356601715 0.000000000000000
14.984866142272949 0.605230867862701 -0.000014101784473 0.000000000000000
7.717855453491211 0.282370716333389 0.178183838725090 0.000000000000000
13.514911651611328 0.496237218379974 1.652534723281860 0.000000000000000
14.733142852783203 1.209273576736450 0.428315341472626 0.000000000000000
5.817601680755615 -0.089038059115410 1.048937678337097 0.000000000000000
5.705439090728760 0.426395058631897 -0.362522423267365 0.000000000000000
9.785604476928711 -0.250627577304840 1.772868990898132 0.000000000000000
6.496727943420410 0.442203998565674 -0.413177073001862 0.000000000000000
8.885715484619141 0.143657222390175 1.083162546157837 0.000000000000000
5.402536392211914 0.329559355974197 -0.217876389622688 0.000000000000000
14.649039268493652 0.082255244255066 -0.000016062798750 0.000000000000000
9.887033462524414 -0.525752484798431 -0.286032766103745 0.000000000000000
10.942032814025879 0.480887979269028 0.316606998443604 0.000000000000000
16.848272323608398 -0.898723423480988 3.062885284423828 0.003921568859369
7.326147079467773 0.295556634664536 -0.126717597246170 0.000000000000000
5.794679164886475 -0.066544771194458 -0.266543060541153 0.000000000000000
23.250253677368164 0.782329142093658 0.674881517887115 0.003921568859369
7.330475330352783 -0.109757594764233 -0.168903782963753 0.000000000000000
5.315305233001709 0.140350624918938 0.030465213581920 0.000000000000000
14.960989952087402 0.346514314413071 0.086535014212132 0.000000000000000
11.658336639404297 -0.296611398458481 0.269651174545288 0.000000000000000
17.610616683959961 -1.308391809463501 3.206379652023315 0.003921568859369
16.764562606811523 -0.543620467185974 -0.000019182032702 0.003921568859369
6.023999214172363 0.078209161758423 -0.103751294314861 0.000000000000000
2.854829788208008 -0.372289389371872 -0.097731761634350 0.000000000000000
8.226015090942383 -0.290980726480484 -0.189656496047974 0.000000000000000
9.734738349914551 -0.446153134107590 0.562769591808319 0.000000000000000
6.080896854400635 -0.298251539468765 0.737538874149323 0.000000000000000
6.120308399200439 -0.110258571803570 0.035089597105980 0.000000000000000
16.200532913208008 -0.685375809669495 -0.281493365764618 0.003921568859369
8.868670463562012 -0.866333961486816 1.083157181739807 0.000000000000000
5.445221424102783 -0.284007608890533 -0.093630336225033 0.000000000000000
3.694782018661499 -0.368443608283997 -0.000014870554878 0.000000000000000
5.739778041839600 -0.339203119277954 -0.362783014774323 0.000000000000000
12.426796913146973 -0.783950090408325 -0.215800821781158 0.000000000000000
5.186754226684570 -0.591082751750946 1.372759103775024 0.000000000000000
16.299308776855469 -1.766383171081543 -0.284360408782959 0.003921568859369
11.483387947082520 -1.929497361183167 -0.000023281405447 0.003921568859369
13.812619209289551 -4.142283916473389 0.166673749685287 0.000000000000000
24.040250778198242 -4.917918682098389 6.544800281524658 0.003921568859369
23.973773956298828 -4.991122245788574 6.531341552734375 0.003921568859369
28.326868057250977 -7.462068557739258 2.382105112075806 0.003921568859369
21.726385116577148 -5.716294288635254 4.075757026672363 0.003921568859369
28.012737274169922 -7.692453384399414 2.362250566482544 0.003921568859369
27.705425262451172 -7.711452960968018 2.338492393493652 0.003921568859369
27.420204162597656 -7.724302768707275 2.316361665725708 0.003921568859369
28.408658981323242 -8.110692977905273 2.402602672576904 0.003921568859369
28.030946731567383 -8.529735565185547 2.381819486618042 0.003921568859369
28.149538040161133 -8.673068046569824 2.394509077072144 0.003921568859369
6.231986522674561 -1.590809583663940 1.691306352615356 0.000000000000000
24.100309371948242 -6.427105426788330 6.651170730590820 0.003921568859369
27.631372451782227 -8.935452461242676 2.360656738281250 0.003921568859369
27.744520187377930 -9.191232681274414 2.375947713851929 0.003921568859369
27.299835205078125 -9.138195991516113 2.340149402618408 0.003921568859369
27.313610076904297 -9.259189605712891 2.344377756118774 0.003921568859369
9.158432006835938 -2.591852664947510 2.518464088439941 0.000000000000000
28.247528076171875 -8.171072006225586 0.680533885955811 0.003921568859369
20.473970413208008 -5.912037849426270 2.600481748580933 0.003921568859369
26.879642486572266 -9.306890487670898 2.311223745346069 0.003921568859369
16.448900222778320 -5.741637706756592 3.153342962265015 0.003921568859369
28.050893783569336 -8.421379089355469 1.697552800178528 0.003921568859369
27.625028610229492 -8.408236503601074 1.673601269721985 0.003921568859369
27.809709548950195 -9.967645645141602 5.362992286682129 0.003921568859369
10.585008621215820 -3.236997842788696 -0.000578410341404 0.003921568859369
27.686006546020508 -10.031892776489258 5.345770835876465 0.003921568859369
27.854259490966797 -8.791485786437988 0.675955355167389 0.003921568859369
27.901107788085938 -8.907799720764160 0.677812397480011 0.003921568859369
26.852708816528320 -10.361867904663086 2.338853120803833 0.003921568859369
26.759740829467773 -10.424149513244629 2.332696914672852 0.003921568859369
9.970726013183594 -3.929213762283325 -0.062341552227736 0.000000000000000
28.215967178344727 -9.659008979797363 0.689781010150909 0.003921568859369
2.065596818923950 -0.670638859272003 -0.000628205656540 0.000000000000000
27.039091110229492 -10.865241050720215 2.367174863815308 0.003921568859369
26.701999664306641 -10.837085723876953 2.340815544128418 0.003921568859369
27.080724716186523 -11.090454101562500 2.377254247665405 0.003921568859369
27.164890289306641 -10.144513130187988 1.679996848106384 0.003921568859369
2.561267137527466 -1.063333272933960 0.106653660535812 0.000000000000000
13.677033424377441 -5.960067749023438 2.694412708282471 0.000000000000000
13.483554840087891 -5.930509090423584 2.659976720809937 0.000000000000000
27.457952499389648 -10.688741683959961 3.599519968032837 0.003921568859369
13.423283576965332 -5.959299087524414 2.652083158493042 0.000000000000000
27.762418746948242 -11.030837059020996 3.649709463119507 0.003921568859369
14.686076164245605 -5.807600498199463 4.193799972534180 0.003921568859369
14.658550262451172 -5.855423450469971 4.191727161407471 0.003921568859369
3.450626134872437 -1.359053373336792 -0.000834563339595 0.000000000000000
27.553831100463867 -11.500394821166992 1.729393839836121 0.003921568859369
9.806294441223145 -4.209127902984619 2.819893360137939 0.000000000000000
7.439452171325684 -3.327636241912842 -0.001160978572443 0.003921568859369
10.044798851013184 -4.728270530700684 0.637096047401428 0.000000000000000
11.073302268981934 -5.260517120361328 0.703808069229126 0.000000000000000
23.149042129516602 -12.601500511169434 2.137691736221313 0.003921568859369
24.905311584472656 -13.676905632019043 2.305531740188599 0.003921568859369
24.509635925292969 -13.804210662841797 2.282417058944702 0.003921568859369
21.214042663574219 -12.130559921264648 1.981196999549866 0.003921568859369
22.124660491943359 -12.655512809753418 4.619069099426270 0.003921568859369
21.108203887939453 -12.265131950378418 1.979234576225281 0.003921568859369
24.117237091064453 -14.128700256347656 5.068078994750977 0.003921568859369
8.980360031127930 -4.674646377563477 0.579683780670166 0.000000000000000
22.582851409912109 -13.542304992675781 4.771491050720215 0.003921568859369
24.675563812255859 -14.918041229248047 5.227665424346924 0.003921568859369
20.748598098754883 -12.630632400512695 1.968479037284851 0.003921568859369
23.389913558959961 -14.252214431762695 4.964421749114990 0.003921568859369
10.717963218688965 -5.832154750823975 3.227221965789795 0.000000000000000
9.488847732543945 -5.763888359069824 1.995663046836853 0.000000000000000
10.651316642761230 -5.840757369995117 3.212728023529053 0.000000000000000
9.412911415100098 -5.759365558624268 1.983466982841492 0.000000000000000
21.153585433959961 -13.183915138244629 4.515395641326904 0.003921568859369
20.853176116943359 -13.095854759216309 1.995774984359741 0.003921568859369
10.435250282287598 -5.862020969390869 3.165105104446411 0.000000000000000
25.140064239501953 -16.049585342407227 2.420198678970337 0.003921568859369
10.364500999450684 -5.868889331817627 3.149575710296631 0.000000000000000
10.273780822753906 -5.863698005676270 3.127836227416992 0.000000000000000
21.488361358642578 -13.807835578918457 4.627981185913086 0.003921568859369
10.196558952331543 -5.865749835968018 3.110236883163452 0.000000000000000
20.463403701782227 -11.963253974914551 1.368643522262573 0.003921568859369
20.308725357055664 -11.872166633605957 2.866563081741333 0.003921568859369
10.127785682678223 -5.867322444915771 3.092409133911133 0.000000000000000
23.513126373291016 -13.866541862487793 1.577724575996399 0.003921568859369
19.736635208129883 -12.955236434936523 1.912161231040955 0.003921568859369
10.055130958557129 -5.868692874908447 3.075845479965210 0.000000000000000
9.980530738830566 -5.873066902160645 3.059281587600708 0.000000000000000
19.845571517944336 -13.131587028503418 4.308457851409912 0.003921568859369
24.108421325683594 -14.453187942504883 3.429304838180542 0.003921568859369
9.890519142150879 -5.865286350250244 3.037542104721069 0.000000000000000
8.865273475646973 -5.843283176422119 1.906467199325562 0.000000000000000
22.527475357055664 -13.599432945251465 1.520551443099976 0.003921568859369
24.063751220703125 -14.534520149230957 3.429784536361694 0.003921568859369
24.058706283569336 -16.180770874023438 2.351490497589111 0.003921568859369
9.805005073547363 -5.857280254364014 3.016838073730469 0.000000000000000
8.816529273986816 -5.852182865142822 1.900009393692017 0.000000000000000
22.385587692260742 -13.624860763549805 1.514271259307861 0.003921568859369
20.795564651489258 -12.649382591247559 2.966900587081909 0.003921568859369
9.747248649597168 -5.870288848876953 3.005449533462524 0.000000000000000
20.280332565307617 -13.831300735473633 1.988875985145569 0.003921568859369
9.697123527526855 -5.885356426239014 2.996130704879761 0.000000000000000
23.834470748901367 -14.736442565917969 1.619959115982056 0.003921568859369
23.648756027221680 -16.264154434204102 2.327727317810059 0.003921568859369
20.856945037841797 -12.881925582885742 6.524580955505371 0.003921568859369
20.451696395874023 -12.727407455444336 1.391124606132507 0.003921568859369
20.244558334350586 -14.008877754211426 1.994716763496399 0.003921568859369
23.246387481689453 -14.482620239257812 7.294643402099609 0.003921568859369
18.880746841430664 -13.154199600219727 4.165687084197998 0.003921568859369
19.782436370849609 -12.590608596801758 2.857720851898193 0.003921568859369
21.865852355957031 -14.035693168640137 1.500646948814392 0.003921568859369
22.168155670166016 -14.232011795043945 7.012748718261719 0.003921568859369
22.909917831420898 -16.340785980224609 5.099123001098633 0.003921568859369
21.644973754882812 -15.544967651367188 4.827301979064941 0.003921568859369
20.105653762817383 -13.094216346740723 1.384957313537598 0.003921568859369
19.556118011474609 -12.733085632324219 2.842768907546997 0.003921568859369
21.503282546997070 -14.013645172119141 6.831606864929199 0.003921568859369
21.093152999877930 -15.368580818176270 2.114645004272461 0.003921568859369
21.225542068481445 -13.936453819274902 6.758113384246826 0.003921568859369
19.776899337768555 -13.069901466369629 1.368219256401062 0.003921568859369
20.582845687866211 -13.710782051086426 1.427906155586243 0.003921568859369
20.716398239135742 -12.492035865783691 0.696227848529816 0.003921568859369
23.813198089599609 -16.129373550415039 3.508726835250854 0.003921568859369
23.326410293579102 -15.797451019287109 7.503282546997070 0.003921568859369
8.950361251831055 -6.024736881256104 2.846814870834351 0.003921568859369
8.887990951538086 -6.026679515838623 2.833356857299805 0.000000000000000
20.571744918823242 -15.647881507873535 4.681653499603271 0.003921568859369
21.903804779052734 -15.155646324157715 0.612774670124054 0.003921568859369
20.701379776000977 -12.873771667480469 0.701654136180878 0.003921568859369
20.409727096557617 -14.113134384155273 3.024434804916382 0.003921568859369
8.828881263732910 -6.030472278594971 2.820933818817139 0.000000000000000
19.207401275634766 -13.372942924499512 2.851475477218628 0.003921568859369
8.785654067993164 -6.045037746429443 2.813685417175293 0.000000000000000
22.799797058105469 -17.610586166381836 5.221670150756836 0.003921568859369
21.854028701782227 -15.341647148132324 7.107525348663330 0.003921568859369
20.704271316528320 -14.634325027465820 1.463509440422058 0.003921568859369
21.794055938720703 -15.412659645080566 7.105446338653564 0.003921568859369
19.245029449462891 -13.688537597656250 1.362480401992798 0.003921568859369
22.249958038330078 -17.543542861938477 5.133778095245361 0.003921568859369
22.793663024902344 -18.098751068115234 5.274328708648682 0.003921568859369
20.609746932983398 -14.881626129150391 6.764919281005859 0.003921568859369
22.858989715576172 -18.281288146972656 5.304439544677734 0.003921568859369
19.614078521728516 -14.259808540344238 6.451318264007568 0.003921568859369
19.654861450195312 -14.399834632873535 6.482359409332275 0.003921568859369
19.481546401977539 -15.785836219787598 4.539956092834473 0.003921568859369
20.793943405151367 -17.095279693603516 2.181132316589355 0.003921568859369
18.999057769775391 -14.429071426391602 6.346741199493408 0.003921568859369
18.872861862182617 -15.939157485961914 1.999665379524231 0.003921568859369
7.747983455657959 -5.828173637390137 2.551344871520996 0.000000000000000
18.863050460815430 -14.521100044250488 6.330868244171143 0.003921568859369
22.883979797363281 -17.783882141113281 3.534122943878174 0.003921568859369
19.571922302246094 -16.777141571044922 2.087418079376221 0.003921568859369
7.684804439544678 -5.865306854248047 2.544093847274780 0.000000000000000
19.487119674682617 -15.218228340148926 3.011933803558350 0.003921568859369
22.774814605712891 -17.954133987426758 3.536538600921631 0.003921568859369
17.669298171997070 -15.343627929687500 1.893661022186279 0.003921568859369
20.600517272949219 -17.919309616088867 4.945396423339844 0.003921568859369
22.696514129638672 -18.020393371582031 3.534093141555786 0.003921568859369
18.538248062133789 -16.220821380615234 1.994098782539368 0.003921568859369
18.659074783325195 -16.431688308715820 4.500785827636719 0.003921568859369
18.859588623046875 -15.150194168090820 1.395450234413147 0.003921568859369
19.505216598510742 -15.675201416015625 6.657852172851562 0.003921568859369
18.349637985229492 -16.395874023437500 1.992124676704407 0.003921568859369
18.345611572265625 -14.944759368896484 6.293546676635742 0.003921568859369
18.693773269653320 -15.339608192443848 1.394961714744568 0.003921568859369
19.925365447998047 -18.059118270874023 4.870768547058105 0.003921568859369
21.787578582763672 -20.042461395263672 5.363700866699219 0.003921568859369
20.698097229003906 -19.163585662841797 2.284896373748779 0.003921568859369
20.662845611572266 -19.130985260009766 5.100534915924072 0.003921568859369
20.468576431274414 -19.081874847412109 2.266685724258423 0.003921568859369
22.427171707153320 -19.094621658325195 3.591570615768433 0.003921568859369
18.149894714355469 -17.129409790039062 2.019978761672974 0.003921568859369
19.480108261108398 -18.400148391723633 4.852410793304443 0.003921568859369
17.469285964965820 -16.600769042968750 1.950091600418091 0.003921568859369
21.606107711791992 -20.724874496459961 2.426230430603027 0.003921568859369
21.547904968261719 -20.813344955444336 2.427845478057861 0.003921568859369
19.435235977172852 -18.752614974975586 4.891103267669678 0.003921568859369
21.957670211791992 -19.367630004882812 1.690727472305298 0.003921568859369
21.456766128540039 -21.008539199829102 2.433676242828369 0.003921568859369
17.604734420776367 -15.698496818542480 1.359928011894226 0.003921568859369
19.183074951171875 -18.885145187377930 4.875302791595459 0.003921568859369
19.437988281250000 -17.475500106811523 1.508247852325439 0.003921568859369
19.393083572387695 -19.227622985839844 2.212001323699951 0.003921568859369
2.878924846649170 -2.682234525680542 0.063331790268421 0.000000000000000
18.589738845825195 -18.679218292236328 2.133275270462036 0.003921568859369
19.488164901733398 -17.767644882202148 7.017101287841797 0.003921568859369
20.862773895263672 -20.991224288940430 5.361729145050049 0.003921568859369
18.187824249267578 -18.392089843750000 2.093620300292969 0.003921568859369
19.457460403442383 -17.857725143432617 7.027440071105957 0.003921568859369
19.411090850830078 -18.191936492919922 3.241356372833252 0.003921568859369
19.875074386596680 -18.632379531860352 7.250931739807129 0.003921568859369
17.713647842407227 -18.543331146240234 2.075702667236328 0.003921568859369
18.994195938110352 -18.173721313476562 3.202854156494141 0.003921568859369
19.223632812500000 -18.396396636962891 7.081192970275879 0.003921568859369
18.467653274536133 -18.926069259643555 3.221369743347168 0.003921568859369
10.391836166381836 -10.619555473327637 3.933984041213989 0.000000000000000
7.607025146484375 -8.567775726318359 2.057488441467285 0.000000000000000
8.651538848876953 -10.338014602661133 2.425678253173828 0.000000000000000
4.543617248535156 -4.821805953979492 -0.003350817132741 0.000000000000000
11.321767807006836 -12.501865386962891 4.471690654754639 0.003921568859369
5.520246028900146 -6.042192935943604 2.146682500839233 0.000000000000000
10.374804496765137 -12.900134086608887 2.986254692077637 0.003921568859369
4.176120281219482 -5.109884738922119 1.171614408493042 0.000000000000000
11.580307006835938 -14.953672409057617 3.415300130844116 0.003921568859369
7.304881572723389 -9.448866844177246 2.145778894424438 0.000000000000000
3.027838706970215 -3.820581674575806 0.576068639755249 0.000000000000000
4.838653564453125 -7.215147972106934 1.553137302398682 0.000000000000000
7.772714614868164 -12.795532226562500 2.698106527328491 0.000000000000000
4.954819202423096 -8.522127151489258 1.767844200134277 0.000000000000000
4.142176151275635 -7.221450805664062 1.489055871963501 0.000000000000000
3.465848207473755 -5.432146072387695 0.362213909626007 0.000000000000000
5.104910373687744 -9.232876777648926 0.844959020614624 0.000000000000000
3.213781595230103 -5.964579105377197 0.111375436186790 0.000000000000000
5.139711856842041 -9.880518913269043 2.001879453659058 0.000000000000000
4.259810924530029 -10.454290390014648 -0.136203512549400 0.000000000000000
4.214363098144531 -10.334706306457520 0.122724913060665 0.000000000000000
6.590217590332031 -13.368432998657227 3.951802015304565 0.000000000000000
3.184673070907593 -8.968365669250488 -0.115789167582989 0.003921568859369
4.176344394683838 -10.298795700073242 0.185531765222549 0.000000000000000
4.109700202941895 -10.229777336120605 0.184016242623329 0.000000000000000
3.867342233657837 -9.671391487121582 1.872731328010559 0.000000000000000
3.241142034530640 -8.994070053100586 0.158704146742821 0.003921568859369
4.123969554901123 -10.234738349914551 0.247358515858650 0.003921568859369
4.099055767059326 -10.167907714843750 0.625106394290924 0.000000000000000
3.232763051986694 -9.044415473937988 -0.227759853005409 0.003921568859369
3.124765634536743 -8.922026634216309 -0.006628209725022 0.003921568859369
3.083257913589478 -8.789963722229004 0.207804799079895 0.000000000000000
2.386582851409912 -8.018237113952637 -0.054466266185045 0.000000000000000
2.665295362472534 -8.016928672790527 2.230635881423950 0.000000000000000
3.246548175811768 -8.948811531066895 0.267020642757416 0.000000000000000
3.202107429504395 -9.020293235778809 -0.172155857086182 0.003921568859369
3.126229524612427 -8.894682884216309 0.047314174473286 0.000000000000000
1.867879748344421 -7.164764404296875 1.956334829330444 0.000000000000000
2.474399089813232 -8.170269012451172 -0.350942224264145 0.003921568859369
2.437684059143066 -11.107226371765137 3.020089149475098 0.000000000000000
1.969461441040039 -8.788985252380371 2.387274026870728 0.000000000000000
0.810672581195831 -5.934231281280518 -0.214211657643318 0.000000000000000
1.073385715484619 -10.233535766601562 -0.127206161618233 0.000000000000000
1.329219579696655 -6.242184162139893 1.685987114906311 0.000000000000000
1.298633933067322 -6.328373908996582 0.142166048288345 0.000000000000000
1.306884407997131 -6.383644580841064 -0.156923905014992 0.000000000000000
1.272427320480347 -11.703353881835938 2.131686925888062 0.000000000000000
0.578914701938629 -8.656540870666504 -0.108299210667610 0.000000000000000
1.291772246360779 -6.379422664642334 -0.419981241226196 0.003921568859369
0.293144464492798 -12.654956817626953 -0.156271472573280 0.000000000000000
0.770248174667358 -10.167710304260254 -0.067243583500385 0.000000000000000
0.984571933746338 -7.804552555084229 2.090171575546265 0.000000000000000
0.703722715377808 -11.242422103881836 2.042073726654053 0.000000000000000
0.569418370723724 -7.600597381591797 1.378946900367737 0.000000000000000
0.890871405601501 -8.049771308898926 0.462383836507797 0.000000000000000
0.640014529228210 -17.221132278442383 1.395454406738281 0.000000000000000
0.474061399698257 -8.494173049926758 0.140755817294121 0.000000000000000
0.375993669033051 -2.691987037658691 -0.021168662235141 0.000000000000000
1.507710456848145 -22.401666641235352 1.293937802314758 0.003921568859369
0.383327573537827 -6.690165996551514 1.212810993194580 0.000000000000000
0.543473243713379 -3.635957241058350 -0.005852364003658 0.000000000000000
0.367144256830215 -2.639989614486694 -0.020848309621215 0.000000000000000
0.742957592010498 -9.240561485290527 -0.007784318644553 0.003921568859369
1.171730875968933 -21.559797286987305 0.489984869956970 0.003921568859369
0.279209285974503 -8.248692512512207 0.328647643327713 0.000000000000000
-0.360313802957535 -11.483503341674805 0.125441014766693 0.000000000000000
0.233957275748253 -9.407232284545898 0.375471204519272 0.000000000000000
-0.413138955831528 -11.668313980102539 -0.144740641117096 0.003921568859369
0.598794639110565 -9.634491920471191 2.574061632156372 0.000000000000000
0.010770142078400 -14.123211860656738 2.566293954849243 0.000000000000000
0.533330440521240 -9.646797180175781 -0.007919846102595 0.003921568859369
0.179305255413055 -6.075779438018799 0.240981280803680 0.000000000000000
0.488457292318344 -6.836101531982422 0.832483768463135 0.000000000000000
0.154974251985550 -6.816339969635010 1.236449360847473 0.000000000000000
0.461770832538605 -6.610147953033447 0.804776012897491 0.000000000000000
-0.001078337430954 -10.449395179748535 1.898152589797974 0.000000000000000
0.447635382413864 -12.843845367431641 -0.009016213938594 0.000000000000000
0.433805495500565 -10.245191574096680 0.230278104543686 0.000000000000000
-0.827720403671265 -13.023383140563965 0.143225401639938 0.000000000000000
0.435749351978302 -10.604688644409180 1.293806195259094 0.000000000000000
-0.850691437721252 -12.832394599914551 0.141103208065033 0.000000000000000
-0.345039099454880 -15.503921508789062 1.257100701332092 0.000000000000000
-0.921395063400269 -13.042394638061523 -0.161635041236877 0.000000000000000
0.371659457683563 -4.582817554473877 0.100463844835758 0.000000000000000
-0.910272598266602 -12.931058883666992 0.142281740903854 0.000000000000000
0.375983834266663 -1.972721576690674 0.109605364501476 0.003921568859369
-0.940930962562561 -13.238094329833984 -0.473692536354065 0.000000000000000
-0.999741494655609 -13.481602668762207 -0.798490166664124 0.000000000000000
0.356079608201981 -6.544978618621826 0.374309182167053 0.000000000000000
0.886878728866577 -12.351960182189941 -0.224644154310226 0.000000000000000
0.225189194083214 -2.826947450637817 0.043857108801603 0.000000000000000
-0.099745184183121 -8.490387916564941 1.542958855628967 0.000000000000000
0.234706684947014 -12.787603378295898 1.561171889305115 0.000000000000000
0.239040702581406 -12.429802894592285 3.321613788604736 0.000000000000000
-0.565591156482697 -14.801782608032227 2.694503545761108 0.000000000000000
0.267107874155045 -7.792912006378174 -0.188636153936386 0.000000000000000
-0.454133689403534 -11.784884452819824 -0.352477788925171 0.000000000000000
-0.466716825962067 -11.960883140563965 -0.637138009071350 0.000000000000000
-0.495863616466522 -11.789849281311035 -0.352711021900177 0.000000000000000
-0.565219521522522 -7.462976932525635 0.080449044704437 0.000000000000000
-0.706353724002838 -13.977847099304199 0.561830520629883 0.000000000000000
-0.612254261970520 -12.226746559143066 0.992659091949463 0.000000000000000
-0.652892529964447 -12.199345588684082 0.990717053413391 0.000000000000000
-0.232052326202393 -15.529637336730957 0.895186603069305 0.000000000000000
-0.731842696666718 -12.580016136169434 0.505647301673889 0.000000000000000
0.061060607433319 -7.582998752593994 0.169415384531021 0.000000000000000
-0.788296520709991 -12.760085105895996 0.214717045426369 0.000000000000000
-0.778324544429779 -12.652055740356445 0.508717715740204 0.000000000000000
-0.083346366882324 -5.109445095062256 0.412520706653595 0.000000000000000
-0.846448779106140 -12.984484672546387 -0.084841430187225 0.000000000000000
-0.829896569252014 -12.811637878417969 0.215675517916679 0.000000000000000
-0.814977645874023 -12.655863761901855 0.509040713310242 0.000000000000000
0.026735246181488 -7.928155899047852 0.967149317264557 0.000000000000000
-0.891264796257019 -12.951983451843262 -0.084666185081005 0.000000000000000
-0.885150194168091 -12.890635490417480 0.217115998268127 0.000000000000000
-0.145832210779190 -10.785774230957031 1.317642927169800 0.000000000000000
-0.957621574401855 -13.152842521667480 -0.393895000219345 0.000000000000000
-0.942606925964355 -13.007096290588379 -0.085032314062119 0.000000000000000
-0.185178846120834 -10.815535545349121 1.321533799171448 0.000000000000000
-0.975621461868286 -13.329594612121582 2.433858156204224 0.000000000000000
-1.010523676872253 -13.235753059387207 -0.396481931209564 0.000000000000000
-0.740985035896301 -10.699023246765137 0.430088043212891 0.000000000000000
0.053052723407745 -3.224603891372681 0.585498392581940 0.000000000000000
0.227167770266533 -2.782174348831177 0.059303257614374 0.000000000000000
-1.425448417663574 -16.590744018554688 0.669720768928528 0.003921568859369
-0.318887382745743 -11.159730911254883 2.987670183181763 0.000000000000000
0.102948576211929 -15.610800743103027 0.444431900978088 0.000000000000000
-0.363435596227646 -11.211010932922363 3.002148151397705 0.000000000000000
-0.430200487375259 -11.622700691223145 -0.008574927225709 0.003921568859369
-0.535419225692749 -11.926383018493652 1.460093379020691 0.000000000000000
-0.584143161773682 -12.010117530822754 1.470790386199951 0.000000000000000
-0.128731042146683 -14.548246383666992 -0.263696998357773 0.000000000000000
0.018449813127518 -10.464876174926758 0.296562314033508 0.000000000000000
0.048923462629318 -8.977261543273926 0.253784149885178 0.000000000000000
-1.271263360977173 -12.128474235534668 0.990755200386047 0.000000000000000
-0.758401632308960 -12.639335632324219 0.286431729793549 0.000000000000000
-0.754177331924438 -12.593687057495117 0.727603614330292 0.000000000000000
-0.805554389953613 -12.667045593261719 0.287168025970459 0.000000000000000
-0.872097969055176 -12.865481376647949 0.291847407817841 0.000000000000000
-0.901318907737732 -13.159747123718262 -0.316816717386246 0.000000000000000
-0.936981439590454 -13.055320739746094 -0.009054875932634 0.000000000000000
-0.223226726055145 -11.715044021606445 0.059570219367743 0.000000000000000
-0.954602599143982 -13.226713180541992 -0.318513065576553 0.000000000000000
-0.921219348907471 -8.506392478942871 0.343243300914764 0.000000000000000
-0.285578668117523 -6.291656017303467 1.689034819602966 0.000000000000000
-0.493614852428436 -13.287609100341797 -0.241614073514938 0.000000000000000
-1.650780677795410 -17.586730957031250 1.020561456680298 0.000000000000000
-0.871468424797058 -7.651051044464111 1.406946182250977 0.000000000000000
-1.027019143104553 -6.372934818267822 0.069285891950130 0.000000000000000
-1.416787266731262 -10.481498718261719 0.177538350224495 0.000000000000000
-0.363861322402954 -6.204720497131348 1.668361425399780 0.000000000000000
-0.855298876762390 -15.570030212402344 0.444702029228210 0.000000000000000
-0.811738610267639 -12.865718841552734 0.066117405891418 0.000000000000000
-0.806311130523682 -12.808849334716797 0.365476995706558 0.003921568859369
-0.880030632019043 -13.098326683044434 -0.238817259669304 0.000000000000000
-0.867240190505981 -12.968845367431641 0.066711276769638 0.000000000000000
-0.926151633262634 -13.097716331481934 -0.238885462284088 0.000000000000000
-0.428818851709366 -8.229719161987305 0.233341053128242 0.000000000000000
-0.988663911819458 -13.207817077636719 -0.240945965051651 0.000000000000000
-1.025595664978027 -13.555702209472656 -0.882886886596680 0.003921568859369
-0.880343794822693 -11.831727027893066 -0.216391444206238 0.000000000000000
-0.945281147956848 -6.477927684783936 0.262850970029831 0.000000000000000
-1.877940416336060 -10.929837226867676 0.903309762477875 0.000000000000000
-1.294171094894409 -10.495415687561035 0.239260897040367 0.000000000000000
-1.320606946945190 -6.450948715209961 0.070988833904266 0.000000000000000
-1.013150572776794 -6.463777542114258 0.108747735619545 0.000000000000000
-1.354189038276672 -6.427077770233154 -0.084389001131058 0.000000000000000
-0.690443634986877 -6.407870769500732 0.791708588600159 0.000000000000000
-1.079057574272156 -6.476598262786865 -0.045429125428200 0.000000000000000
-1.420039415359497 -6.488528728485107 -0.399572730064392 0.000000000000000
-1.422029733657837 -6.495617866516113 -0.242568850517273 0.000000000000000
-1.431727528572083 -10.057776451110840 0.587562799453735 0.000000000000000
-0.765023112297058 -6.319575309753418 1.715952873229980 0.000000000000000
-1.522457599639893 -6.498136043548584 -0.639920711517334 0.000000000000000
-3.485192775726318 -13.064290046691895 -0.485155373811722 0.000000000000000
-1.544080615043640 -13.233455657958984 0.380244910717010 0.000000000000000
-3.499302148818970 -15.464991569519043 2.898833513259888 0.003921568859369
-1.534300923347473 -12.591921806335449 0.361963808536530 0.000000000000000
-2.775374412536621 -12.248219490051270 1.024601936340332 0.000000000000000
-1.537920832633972 -7.505360603332520 1.407012224197388 0.000000000000000
-0.546426177024841 -4.538183689117432 -0.006140376441181 0.000000000000000
-1.697994589805603 -8.004469871520996 1.502269625663757 0.000000000000000
-0.747328758239746 -7.084100723266602 0.201974004507065 0.000000000000000
-2.284538269042969 -12.524048805236816 0.737433671951294 0.000000000000000
-0.162816047668457 -2.171992301940918 -0.070851005613804 0.000000000000000
-1.664247989654541 -9.499933242797852 0.558690190315247 0.000000000000000
-0.164015173912048 -2.146790266036987 -0.070144124329090 0.000000000000000
-1.356646537780762 -6.470145702362061 -0.045792434364557 0.000000000000000
-1.152439594268799 -7.059109687805176 0.881192266941071 0.000000000000000
-3.204469203948975 -12.991641998291016 0.226495549082756 0.000000000000000
-1.088666200637817 -6.558821678161621 -0.006821400485933 0.000000000000000
-1.963824987411499 -10.181197166442871 0.601022422313690 0.000000000000000
-1.066452622413635 -6.361910820007324 0.795633554458618 0.000000000000000
-4.089365959167480 -13.110856056213379 -0.493252336978912 0.000000000000000
-1.970083951950073 -8.033941268920898 0.677135229110718 0.000000000000000
-1.158646702766418 -6.449752807617188 -0.161342084407806 0.000000000000000
-1.207077026367188 -6.456754684448242 -0.317052274942398 0.000000000000000
-1.353122711181641 -5.750492095947266 0.484906226396561 0.000000000000000
-2.273992776870728 -7.283418655395508 -0.097511783242226 0.000000000000000
-3.547430992126465 -15.066023826599121 0.352947264909744 0.000000000000000
-3.538052797317505 -15.032298088073730 4.156284332275391 0.003921568859369
-1.959676504135132 -11.071454048156738 0.057486530393362 0.000000000000000
-0.953132987022400 -6.420576572418213 0.184403270483017 0.000000000000000
-0.972264409065247 -5.252819538116455 -0.132928609848022 0.000000000000000
-1.015732407569885 -5.340697765350342 0.673137485980988 0.000000000000000
-0.153291195631027 -2.168564558029175 -0.057635322213173 0.000000000000000
-1.367518544197083 -6.543848991394043 -0.006809778045863 0.000000000000000
-0.169359058141708 -2.197334051132202 -0.058389171957970 0.000000000000000
-3.014513969421387 -12.351664543151855 3.427322149276733 0.000000000000000
-2.615291833877563 -13.206321716308594 0.385401457548141 0.000000000000000
-2.734319925308228 -9.415608406066895 0.803283631801605 0.000000000000000
-1.433928847312927 -6.517424106597900 -0.322651982307434 0.000000000000000
-1.467507719993591 -5.525851726531982 0.470665037631989 0.000000000000000
-2.281764745712280 -7.800659656524658 0.667133688926697 0.000000000000000
-1.189322829246521 -5.343720912933350 -0.006403704173863 0.000000000000000
-1.698759675025940 -5.098253726959229 -0.328394144773483 0.000000000000000
-0.690292835235596 -3.665854215621948 0.217645570635796 0.000000000000000
-1.259175658226013 -6.447871208190918 0.187310218811035 0.000000000000000
-5.350588798522949 -15.582312583923340 1.347354650497437 0.000000000000000
-7.740494728088379 -22.009481430053711 4.269229412078857 0.003921568859369
-2.086738109588623 -8.944808006286621 0.262925058603287 0.000000000000000
-3.878886699676514 -11.032360076904297 2.152036428451538 0.000000000000000
-2.208322048187256 -7.617687702178955 0.462607085704803 0.000000000000000
-2.872330665588379 -8.209736824035645 1.606979489326477 0.000000000000000
-4.293889045715332 -13.329117774963379 -0.998488783836365 0.003921568859369
-2.696486473083496 -6.349381446838379 0.075805298984051 0.000000000000000
-4.127933025360107 -12.071582794189453 1.576641798019409 0.000000000000000
-3.437077045440674 -8.912277221679688 1.765314698219299 0.000000000000000
-2.732269287109375 -6.362833023071289 0.076127693057060 0.000000000000000
-2.758071422576904 -6.358760356903076 -0.089639171957970 0.000000000000000
-4.923583507537842 -15.993467330932617 0.481086462736130 0.003921568859369
-2.016424655914307 -6.307479858398438 1.808126688003540 0.000000000000000
-2.940592765808105 -7.483838558197021 0.327686548233032 0.000000000000000
-2.864562511444092 -6.457153320312500 -0.260248750448227 0.000000000000000
-2.153320312500000 -5.663168430328369 1.130710244178772 0.000000000000000
-2.910695314407349 -6.397367000579834 0.077469691634178 0.000000000000000
