# This PCD file was generated using the MATLAB® pcwrite function
# from Computer Vision Toolbox®.
# .PCD v.7 - Point Cloud Data file format
VERSION .7
FIELDS x y z intensity
SIZE 8 8 8 8
TYPE F F F F
COUNT 1 1 1 1
WIDTH 645
HEIGHT 1
VIEWPOINT 0 0 0 1 0 0 0
POINTS 645
DATA ascii
10.322043418884277 25.377779006958008 -0.638138294219971 0.003921568859369
4.294882297515869 10.676364898681641 -0.808386206626892 0.000000000000000
4.892352104187012 10.616918563842773 -0.959270000457764 0.000000000000000
11.450176239013672 24.186117172241211 -0.155190736055374 0.003921568859369
4.335218429565430 10.668112754821777 -0.808944582939148 0.000000000000000
10.702928543090820 22.629060745239258 2.049788475036621 0.003921568859369
12.817541122436523 26.795017242431641 -0.865658402442932 0.003921568859369
4.381802558898926 10.674395561218262 -0.810618877410889 0.000000000000000
4.983725547790527 10.617286682128906 -0.962525069713593 0.000000000000000
10.806184768676758 22.641244888305664 2.054344415664673 0.003921568859369
4.764547348022461 10.164565086364746 2.059651851654053 0.000000000000000
4.433207988739014 10.691483497619629 -0.813130140304565 0.000000000000000
4.473668098449707 10.682720184326172 -0.813688576221466 0.000000000000000
12.004404067993164 24.459459304809570 -0.794252634048462 0.003921568859369
10.713340759277344 24.837663650512695 0.631644368171692 0.003921568859369
4.523731231689453 10.695731163024902 -0.815920829772949 0.000000000000000
10.897723197937012 25.258981704711914 -0.640842378139496 0.003921568859369
4.570712566375732 10.701226234436035 -0.817595064640045 0.000000000000000
4.625920295715332 10.724739074707031 -0.820664227008820 0.000000000000000
4.661693096160889 10.704338073730469 -0.820385813713074 0.000000000000000
12.256880760192871 24.116634368896484 -0.788675308227539 0.003921568859369
4.707275867462158 10.705615997314453 -0.821781158447266 0.000000000000000
12.363103866577148 24.115732192993164 -0.790072262287140 0.003921568859369
13.451947212219238 26.212913513183594 -0.170901358127594 0.003921568859369
4.756264209747314 10.713956832885742 -0.823734462261200 0.000000000000000
12.488379478454590 24.144998550415039 -0.792729556560516 0.003921568859369
12.311740875244141 23.807508468627930 -0.155785873532295 0.003921568859369
4.806811809539795 10.712128639221191 -0.825076699256897 0.000000000000000
4.389091968536377 8.670619010925293 1.784623503684998 0.000000000000000
9.981134414672852 24.789365768432617 0.156054094433784 0.003921568859369
12.392896652221680 23.760332107543945 -0.155763432383537 0.003921568859369
5.857676506042480 11.379602432250977 2.346429824829102 0.000000000000000
14.721274375915527 24.918006896972656 0.338218808174133 0.003921568859369
12.475276947021484 26.794738769531250 -0.688817560672760 0.003921568859369
14.356653213500977 24.115346908569336 -0.327239185571671 0.003921568859369
14.808159828186035 24.865949630737305 0.338217914104462 0.003921568859369
14.339133262634277 23.896978378295898 -0.324959784746170 0.003921568859369
14.482948303222656 23.945230484008789 -0.326310217380524 0.003921568859369
7.757167339324951 16.334806442260742 4.863022327423096 0.003921568859369
11.898835182189941 24.671857833862305 -0.638496339321136 0.003921568859369
15.196075439453125 24.722661972045898 -0.338364839553833 0.003921568859369
15.176228523254395 24.499395370483398 -0.336038917303085 0.003921568859369
12.041826248168945 24.315553665161133 -0.632545292377472 0.003921568859369
2.860447406768799 5.950814247131348 1.787125825881958 0.000000000000000
15.199017524719238 23.973770141601562 -0.331015586853027 0.003921568859369
13.650189399719238 24.068086624145508 -0.160856157541275 0.003921568859369
12.174940109252930 24.158607482910156 -0.630686402320862 0.003921568859369
14.013367652893066 23.926282882690430 -0.161510258913040 0.003921568859369
15.659112930297852 23.765048980712891 -0.332179099321365 0.003921568859369
11.307802200317383 24.102596282958984 0.155151724815369 0.003921568859369
14.590123176574707 24.509120941162109 -0.166136637330055 0.003921568859369
14.790042877197266 24.453485488891602 -0.166462600231171 0.003921568859369
11.719897270202637 24.299268722534180 0.157220289111137 0.003921568859369
12.991196632385254 23.683479309082031 -0.630089402198792 0.003921568859369
14.869275093078613 24.004865646362305 -0.164487496018410 0.003921568859369
15.891792297363281 24.848587036132812 -0.860498666763306 0.003921568859369
5.292660713195801 8.291384696960449 1.806616306304932 0.000000000000000
12.548189163208008 23.831785202026367 0.156902819871902 0.003921568859369
14.947489738464355 25.279798507690430 0.684960842132568 0.003921568859369
9.978116989135742 15.104693412780762 3.314026117324829 0.003921568859369
16.150623321533203 23.962528228759766 -0.168384000658989 0.003921568859369
16.416955947875977 24.163467407226562 -0.852354288101196 0.003921568859369
14.800301551818848 24.077514648437500 -0.659276485443115 0.003921568859369
16.752849578857422 24.097021102905273 -0.170988529920578 0.003921568859369
15.705917358398438 24.379446029663086 -0.676399528980255 0.003921568859369
14.651848793029785 25.198696136474609 0.169778868556023 0.003921568859369
17.619512557983398 24.069982528686523 -0.870275735855103 0.003921568859369
15.982500076293945 24.062988281250000 -0.673794507980347 0.003921568859369
16.109146118164062 24.079080581665039 -0.675748825073242 0.003921568859369
16.633497238159180 24.670631408691406 0.693984270095825 0.003921568859369
16.743196487426758 24.625682830810547 0.694449484348297 0.003921568859369
16.318496704101562 24.005336761474609 -0.676958680152893 0.003921568859369
3.625848531723022 4.429903507232666 -0.541293025016785 0.000000000000000
3.144901514053345 5.025765419006348 -0.244066894054413 0.000000000000000
6.160464763641357 8.520458221435547 2.835631847381592 0.000000000000000
5.233545303344727 5.922941207885742 -0.556926846504211 0.000000000000000
2.967480182647705 3.354814529418945 1.216460704803467 0.000000000000000
3.690603017807007 4.121909141540527 -0.260563999414444 0.000000000000000
6.142400741577148 5.857190132141113 -0.697774589061737 0.000000000000000
7.548430919647217 6.979258537292480 2.769369363784790 0.000000000000000
8.741640090942383 7.682614803314209 3.131714344024658 0.000000000000000
7.782404422760010 6.193448066711426 2.677228212356567 0.000000000000000
3.164138555526733 2.527038574218750 0.095292635262012 0.000000000000000
16.079889297485352 12.390548706054688 -0.947747230529785 0.003921568859369
9.570964813232422 7.393015384674072 3.252840757369995 0.000000000000000
16.192949295043945 12.387434959411621 -0.951842129230499 0.003921568859369
16.544942855834961 12.378507614135742 -0.964684903621674 0.003921568859369
16.362871170043945 12.152324676513672 -0.951283574104309 0.003921568859369
16.257091522216797 11.986107826232910 -0.942721784114838 0.003921568859369
16.255716323852539 11.893297195434570 -0.940116047859192 0.003921568859369
7.330609321594238 4.315665245056152 -0.497899085283279 0.000000000000000
16.282127380371094 11.829780578613281 -0.939371645450592 0.003921568859369
16.287637710571289 11.747036933898926 -0.937324285507202 0.003921568859369
16.303737640380859 11.676547050476074 -0.936021447181702 0.003921568859369
3.489220619201660 2.777552604675293 -0.288314968347549 0.000000000000000
16.051008224487305 11.411442756652832 -0.919270038604736 0.000000000000000
16.022115707397461 11.306894302368164 -0.915361404418945 0.000000000000000
16.145355224609375 11.305092811584473 -0.920014679431915 0.000000000000000
16.414623260498047 11.407783508300781 -0.933043420314789 0.003921568859369
16.452360153198242 11.353127479553223 -0.933043479919434 0.003921568859369
3.223893642425537 2.235340595245361 0.000005780460924 0.000000000000000
16.514993667602539 11.311223983764648 -0.934346437454224 0.003921568859369
16.628725051879883 11.298305511474609 -0.938068747520447 0.003921568859369
16.746282577514648 11.288414001464844 -0.942349612712860 0.003921568859369
16.906583786010742 11.314765930175781 -0.949236333370209 0.003921568859369
17.015928268432617 11.301880836486816 -0.953144967556000 0.003921568859369
17.342025756835938 11.344120979309082 -0.966918349266052 0.003921568859369
17.502260208129883 11.361557960510254 -0.973618924617767 0.003921568859369
5.731189727783203 3.709864854812622 1.838654279708862 0.000000000000000
12.734197616577148 7.295262336730957 -0.771012902259827 0.000000000000000
7.507578372955322 4.744216442108154 0.000002852132639 0.003921568859369
2.855664014816284 1.597848534584045 0.134500846266747 0.000000000000000
9.682417869567871 5.825728416442871 -0.792153120040894 0.000000000000000
12.762707710266113 5.901174545288086 0.164046436548233 0.000000000000000
3.558911085128784 2.311180353164673 -0.074552960693836 0.000000000000000
8.240881919860840 2.837112903594971 0.101557284593582 0.000000000000000
12.856638908386230 6.495585918426514 0.083761364221573 0.000000000000000
7.882993221282959 2.995958805084229 1.538985490798950 0.000000000000000
7.914025306701660 3.395426273345947 1.058313965797424 0.000000000000000
5.414525032043457 2.324161052703857 1.580867648124695 0.000000000000000
9.567448616027832 4.062588691711426 1.277191281318665 0.000000000000000
6.228328704833984 2.621562242507935 0.830662190914154 0.000000000000000
12.793580055236816 4.659372806549072 2.483900070190430 0.000000000000000
14.835030555725098 5.343791007995605 2.876358985900879 0.003921568859369
11.137692451477051 4.593931674957275 0.702087104320526 0.000000000000000
9.598922729492188 3.420881748199463 0.832521677017212 0.000000000000000
17.993530273437500 6.409995555877686 3.484060525894165 0.003921568859369
5.711797714233398 2.214313268661499 0.752177655696869 0.000000000000000
7.686444759368896 2.525685787200928 0.141224861145020 0.000000000000000
10.740449905395508 3.491854667663574 2.059154510498047 0.000000000000000
2.181201696395874 0.648625612258911 0.039581008255482 0.000000000000000
8.564006805419922 3.016385555267334 1.113885402679443 0.000000000000000
16.343353271484375 4.876053810119629 1.391658186912537 0.000000000000000
14.732666015625000 5.133469581604004 0.908131718635559 0.000000000000000
15.676466941833496 4.558092117309570 1.332099437713623 0.000000000000000
7.408769130706787 2.551148653030396 2.097469091415405 0.000000000000000
23.644666671752930 6.782291889190674 2.007425308227539 0.003921568859369
10.871508598327637 3.655980587005615 1.407347083091736 0.000000000000000
17.114198684692383 4.654131889343262 3.232227325439453 0.003921568859369
16.882282257080078 6.349397659301758 -0.734521865844727 0.003921568859369
5.311509609222412 1.704772949218750 -0.129622966051102 0.000000000000000
10.626846313476562 3.953324317932129 -0.461620867252350 0.000000000000000
11.415901184082031 3.535430431365967 3.197967767715454 0.000000000000000
14.570671081542969 3.745235919952393 2.740039110183716 0.000000000000000
6.772679328918457 2.042489528656006 0.164236560463905 0.000000000000000
4.685245513916016 1.376810431480408 0.597645699977875 0.000000000000000
13.669297218322754 3.310739278793335 2.561387300491333 0.000000000000000
8.849132537841797 3.012174367904663 0.271588385105133 0.000000000000000
10.101689338684082 2.897756814956665 -0.244170516729355 0.000000000000000
13.132444381713867 3.669651269912720 3.649348258972168 0.000000000000000
8.541871070861816 2.808077335357666 0.052166841924191 0.000000000000000
9.067207336425781 2.028188943862915 1.691088914871216 0.000000000000000
12.262655258178711 3.986309528350830 0.374802261590958 0.000000000000000
15.024391174316406 4.827781677246094 0.458583682775497 0.000000000000000
9.041432380676270 2.390948057174683 0.543249905109406 0.000000000000000
5.398671150207520 1.709997177124023 -0.229754135012627 0.000000000000000
1.576631784439087 0.487845867872238 -0.066274777054787 0.003921568859369
5.117277145385742 1.311447143554688 0.122361809015274 0.000000000000000
5.133239746093750 1.052460432052612 0.212489739060402 0.000000000000000
15.441709518432617 3.066987752914429 0.640407621860504 0.000000000000000
3.444061994552612 1.022016525268555 -0.228714972734451 0.000000000000000
18.054002761840820 3.518025875091553 3.349176883697510 0.003921568859369
13.313652038574219 3.131888866424561 0.795109391212463 0.000000000000000
4.311751842498779 0.544723272323608 -0.150907948613167 0.000000000000000
12.114385604858398 2.140722274780273 2.238523244857788 0.000000000000000
4.995902538299561 0.843136489391327 -0.146503031253815 0.000000000000000
12.932691574096680 2.709398984909058 1.618424892425537 0.000000000000000
8.863787651062012 1.408423781394958 0.730000495910645 0.000000000000000
6.526669979095459 1.035678029060364 1.198899030685425 0.000000000000000
9.770979881286621 1.516530990600586 0.804530739784241 0.000000000000000
9.568387031555176 1.450909972190857 1.758531093597412 0.000000000000000
10.956055641174316 1.623063921928406 0.449896126985550 0.000000000000000
11.852405548095703 2.351399421691895 3.229026079177856 0.000000000000000
10.373937606811523 1.501537799835205 0.853024184703827 0.000000000000000
6.559967994689941 0.947739958763123 1.202486395835876 0.000000000000000
7.556040287017822 1.013388276100159 0.132496565580368 0.000000000000000
18.150260925292969 2.310898780822754 -0.106099829077721 0.000000000000000
8.240053176879883 1.456329584121704 -0.387885779142380 0.000000000000000
4.324755668640137 0.546630382537842 -0.226304888725281 0.000000000000000
12.075471878051758 1.535697102546692 0.990368008613586 0.000000000000000
16.238475799560547 2.815865755081177 0.000001513759344 0.003921568859369
19.477848052978516 2.407951354980469 0.341860860586166 0.003921568859369
7.623350143432617 1.318140983581543 -0.358478397130966 0.000000000000000
13.840366363525391 2.398959636688232 3.752876758575439 0.000000000000000
9.567763328552246 1.621934056282043 1.186518311500549 0.000000000000000
16.257268905639648 2.705542564392090 0.000001528619578 0.003921568859369
11.650216102600098 1.358040213584900 -0.612540721893311 0.000000000000000
11.272005081176758 1.274076700210571 0.460479944944382 0.000000000000000
14.582883834838867 1.649675846099854 2.668291807174683 0.000000000000000
3.485595226287842 0.724091827869415 -0.061437085270882 0.000000000000000
9.017250061035156 1.433263540267944 0.211506515741348 0.000000000000000
11.400490760803223 1.208392262458801 -0.332447409629822 0.000000000000000
7.207013607025146 1.480331063270569 0.212939873337746 0.000000000000000
5.323886394500732 0.543334126472473 0.433506220579147 0.000000000000000
2.558486700057983 0.383950740098953 0.682241976261139 0.000000000000000
10.723562240600586 1.591190218925476 -0.000001118886757 0.003921568859369
12.804497718811035 0.640371739864349 -0.148773118853569 0.000000000000000
9.725395202636719 0.961875736713409 0.794441282749176 0.000000000000000
3.778035163879395 0.543962419033051 -0.000004459928277 0.000000000000000
17.834999084472656 3.485253810882568 0.105383880436420 0.000000000000000
12.759893417358398 1.851423025131226 -0.299071103334427 0.000000000000000
17.723587036132812 1.631708860397339 0.309957027435303 0.003921568859369
9.224145889282227 1.270265102386475 -0.431438773870468 0.000000000000000
10.263274192810059 0.908456802368164 0.837076187133789 0.000000000000000
9.577363014221191 0.813937485218048 1.743463277816772 0.000000000000000
10.984439849853516 0.895701587200165 -0.319298863410950 0.000000000000000
10.012140274047852 1.308547258377075 -0.000001742677341 0.003921568859369
7.725683212280273 1.008234977722168 -0.180152833461761 0.000000000000000
12.938864707946777 1.647210597991943 0.756737470626831 0.000000000000000
10.815756797790527 1.914401292800903 -0.445501834154129 0.000000000000000
8.370353698730469 0.215399652719498 0.096897743642330 0.000000000000000
3.027572154998779 0.518831968307495 0.087963990867138 0.000000000000000
12.219034194946289 0.911345779895782 0.996226251125336 0.000000000000000
9.379441261291504 1.126194238662720 0.218671426177025 0.000000000000000
7.872035980224609 0.917932212352753 -0.000002973967185 0.000000000000000
8.648509025573730 0.585135817527771 0.150437250733376 0.000000000000000
14.710969924926758 0.225912719964981 0.170705929398537 0.000000000000000
10.837884902954102 1.225886106491089 0.632318794727325 0.000000000000000
9.572382926940918 0.113498538732529 0.110867753624916 0.000000000000000
7.676988124847412 1.192076444625854 0.044864870607853 0.000000000000000
18.006235122680664 0.910512149333954 3.278148412704468 0.003921568859369
6.385540485382080 -0.011763610877097 0.073660358786583 0.000000000000000
9.244969367980957 1.339145660400391 0.270190298557281 0.000000000000000
14.152962684631348 1.355513215065002 0.824644744396210 0.000000000000000
4.393629074096680 -0.022422032430768 0.050469961017370 0.000000000000000
14.869109153747559 1.374831318855286 0.866272747516632 0.000000000000000
7.680757045745850 1.058211684226990 0.044724881649017 0.000000000000000
12.776639938354492 -0.110265232622623 0.148074552416801 0.000000000000000
13.565149307250977 1.875059366226196 -0.555572688579559 0.000000000000000
2.559221029281616 0.337921828031540 0.014662208966911 0.000000000000000
2.666049480438232 0.223321527242661 -0.183047950267792 0.000000000000000
6.513515949249268 0.215673938393593 -0.338513344526291 0.000000000000000
13.779985427856445 0.458386063575745 2.503272294998169 0.000000000000000
5.914563179016113 0.173156514763832 0.238702759146690 0.000000000000000
14.288406372070312 0.420669227838516 1.162211179733276 0.000000000000000
16.236066818237305 0.427375972270966 -0.094057716429234 0.000000000000000
10.740627288818359 0.282219648361206 0.186529859900475 0.000000000000000
9.966237068176270 0.674324035644531 0.578365027904510 0.000000000000000
16.142517089843750 0.250778019428253 1.313225030899048 0.000000000000000
6.676235675811768 0.058156002312899 0.269640833139420 0.000000000000000
14.430150985717773 0.076145783066750 0.585209131240845 0.000000000000000
14.169795036315918 -0.661720514297485 0.164373189210892 0.000000000000000
10.233950614929199 -0.017067847773433 -0.295910954475403 0.000000000000000
15.688861846923828 0.737757146358490 0.000002163273166 0.000000000000000
19.752752304077148 -0.033098332583904 1.607116580009460 0.000000000000000
16.753814697265625 -0.955274045467377 0.194595500826836 0.003921568859369
12.168576240539551 1.085162043571472 0.353623926639557 0.000000000000000
13.029129981994629 -0.742043137550354 -0.453414052724838 0.000000000000000
6.359116077423096 0.233387082815170 -0.293337315320969 0.000000000000000
6.499699592590332 0.214992091059685 -0.299851536750793 0.000000000000000
16.103185653686523 0.314556658267975 0.000002522139766 0.003921568859369
14.526982307434082 0.283645689487457 0.842319488525391 0.000000000000000
11.751722335815430 0.229220137000084 3.131709575653076 0.000000000000000
12.908601760864258 0.207064881920815 0.000000032523531 0.000000000000000
3.130300998687744 0.038673572242260 -0.000008550411621 0.000000000000000
18.863336563110352 1.157108545303345 -0.766919970512390 0.003921568859369
11.754199028015137 -0.423327773809433 2.130901098251343 0.000000000000000
8.318864822387695 -0.355001777410507 1.504542112350464 0.000000000000000
13.618702888488770 0.694219768047333 -0.236723840236664 0.000000000000000
13.386390686035156 -0.064080506563187 0.000000482025825 0.000000000000000
8.994476318359375 0.393246591091156 -0.363763749599457 0.000000000000000
10.823280334472656 -0.087375827133656 0.250123530626297 0.000000000000000
3.007336378097534 -0.167299032211304 0.119670771062374 0.000000000000000
18.348697662353516 -0.148593142628670 2.243863344192505 0.003921568859369
8.148324012756348 -0.488953113555908 -0.235404670238495 0.000000000000000
9.667300224304199 -0.111460536718369 0.223230317234993 0.000000000000000
13.235489845275879 -0.797074317932129 0.537173748016357 0.000000000000000
11.173276901245117 -0.167717546224594 -0.000001455395250 0.003921568859369
9.330981254577637 -0.139867484569550 -0.215419769287109 0.000000000000000
12.112060546875000 -0.223939999938011 0.701156020164490 0.000000000000000
14.448034286499023 0.435175269842148 -0.585857868194580 0.000000000000000
6.715100765228271 -0.123509459197521 1.779634475708008 0.000000000000000
9.846903800964355 0.261750698089600 0.284502774477005 0.000000000000000
14.573317527770996 0.388316452503204 -0.590905427932739 0.000000000000000
12.745074272155762 -0.945095419883728 1.037234306335449 0.000000000000000
7.309483528137207 -0.210075050592422 0.887691020965576 0.000000000000000
10.305592536926270 -0.798311114311218 0.837075352668762 0.000000000000000
19.668539047241211 -1.660301089286804 3.583796977996826 0.003921568859369
10.269578933715820 -0.363784223794937 -0.237193450331688 0.000000000000000
14.146327018737793 -0.551414906978607 1.728108644485474 0.000000000000000
14.414319038391113 0.088706851005554 0.083297871053219 0.000000000000000
10.166527748107910 0.027235873043537 0.293462693691254 0.000000000000000
11.156380653381348 -0.589116096496582 0.645806729793549 0.000000000000000
22.109554290771484 -1.171896696090698 5.910400867462158 0.003921568859369
3.966124296188354 -0.030135000124574 -0.067793831229210 0.000000000000000
14.102849960327148 -0.794974625110626 1.724208950996399 0.000000000000000
15.294671058654785 -1.022471308708191 0.887901663780212 0.000000000000000
6.167450904846191 -0.408939003944397 -0.141911640763283 0.000000000000000
14.448416709899902 -0.359635919332504 -0.250684589147568 0.000000000000000
9.551981925964355 -0.236959114670753 0.055000443011522 0.000000000000000
7.368380546569824 -0.538828790187836 0.895977616310120 0.000000000000000
15.787312507629395 -1.936965703964233 2.883537054061890 0.003921568859369
8.175865173339844 -1.026313304901123 1.485886812210083 0.000000000000000
7.467810630798340 -0.962599396705627 0.607298791408539 0.000000000000000
8.763461112976074 -0.277797430753708 -0.353506386280060 0.000000000000000
9.716911315917969 -0.780350327491760 -0.224725216627121 0.000000000000000
8.554182052612305 -0.300667226314545 0.246450424194336 0.000000000000000
15.469748497009277 -2.061490774154663 2.829008579254150 0.000000000000000
7.347223281860352 -0.613726735115051 -0.169454559683800 0.000000000000000
12.001839637756348 -0.464817255735397 0.069277159869671 0.000000000000000
6.695281982421875 -0.257694363594055 0.192340046167374 0.000000000000000
7.668626785278320 -0.667562365531921 0.934001266956329 0.000000000000000
21.407505035400391 -2.933251380920410 3.923165321350098 0.003921568859369
8.583290100097656 -0.361078768968582 0.049396727234125 0.000000000000000
4.879550933837891 -0.675895810127258 -0.028114907443523 0.000000000000000
4.043442726135254 -0.375979483127594 0.487467974424362 0.000000000000000
13.209031105041504 -1.945246696472168 2.417892694473267 0.000000000000000
13.219206809997559 -1.523678421974182 0.000000626776455 0.000000000000000
18.415695190429688 -2.192034006118774 -0.429244697093964 0.000000000000000
12.876727104187012 -2.350705862045288 -0.075508058071136 0.000000000000000
14.276098251342773 -3.485923290252686 -0.169957697391510 0.000000000000000
11.690290451049805 -1.261114954948425 0.339077979326248 0.000000000000000
7.321326255798340 -0.836385190486908 -0.295867443084717 0.000000000000000
14.328528404235840 -4.081521511077881 0.172243908047676 0.000000000000000
24.421546936035156 -4.990919589996338 6.648543357849121 0.003921568859369
24.404861450195312 -5.071492671966553 6.648542881011963 0.003921568859369
21.839706420898438 -5.741197586059570 4.096770286560059 0.003921568859369
26.610958099365234 -8.503438949584961 0.323936194181442 0.003921568859369
26.674711227416992 -8.631397247314453 0.325099855661392 0.003921568859369
26.522832870483398 -8.684067726135254 0.323608934879303 0.003921568859369
27.443439483642578 -7.529193878173828 2.314002275466919 0.003921568859369
27.431173324584961 -7.618222713470459 2.314978361129761 0.003921568859369
26.668983459472656 -9.041338920593262 0.326541066169739 0.003921568859369
13.202292442321777 -3.753324985504150 0.237596198916435 0.000000000000000
27.310409545898438 -9.365807533264160 0.334830105304718 0.003921568859369
26.733867645263672 -7.735150337219238 5.053889751434326 0.003921568859369
26.734182357788086 -7.934531211853027 2.266765594482422 0.003921568859369
27.192466735839844 -9.629736900329590 0.334402740001678 0.003921568859369
24.693796157836914 -7.410250186920166 2.094916105270386 0.003921568859369
26.297136306762695 -7.893874645233154 4.984250545501709 0.003921568859369
28.321994781494141 -7.131746768951416 3.571233510971069 0.003921568859369
27.445901870727539 -8.349677085876465 2.332182168960571 0.003921568859369
26.249212265014648 -7.983999729156494 4.980661392211914 0.003921568859369
26.799615859985352 -9.705574035644531 0.330394238233566 0.003921568859369
25.321874618530273 -7.796824932098389 2.153172254562378 0.003921568859369
26.919485092163086 -9.855237960815430 0.332302212715149 0.003921568859369
26.999134063720703 -9.985833168029785 0.333697885274887 0.003921568859369
27.151332855224609 -10.149891853332520 0.336024969816208 0.003921568859369
24.181104660034180 -7.716152667999268 2.062362432479858 0.003921568859369
24.440479278564453 -6.508069515228271 6.744778633117676 0.003921568859369
27.073421478271484 -8.643914222717285 5.160027027130127 0.003921568859369
6.497522354125977 -1.730700135231018 -0.000111047986138 0.000000000000000
24.190578460693359 -7.816588878631592 2.065615415573120 0.003921568859369
28.666959762573242 -7.847764492034912 1.723905086517334 0.003921568859369
23.700695037841797 -7.926773071289062 2.030461072921753 0.003921568859369
27.010084152221680 -10.626968383789062 0.336327940225601 0.003921568859369
24.968671798706055 -8.441996574401855 4.782571792602539 0.003921568859369
27.001924514770508 -7.797761917114258 3.435170173645020 0.003921568859369
27.096542358398438 -10.884903907775879 0.338371992111206 0.003921568859369
20.259321212768555 -5.917205810546875 2.575715780258179 0.003921568859369
24.630123138427734 -8.522888183593750 2.117304086685181 0.003921568859369
27.821443557739258 -9.633269309997559 5.345076560974121 0.003921568859369
4.173552036285400 -1.202489733695984 -0.000185991259059 0.000000000000000
27.115495681762695 -8.030182838439941 0.655002892017365 0.003921568859369
27.071409225463867 -10.978788375854492 0.338509321212769 0.003921568859369
20.064548492431641 -5.931821823120117 2.553289175033569 0.003921568859369
24.323413848876953 -8.506213188171387 2.093216896057129 0.003921568859369
16.611608505249023 -5.794516086578369 3.184721231460571 0.003921568859369
11.929791450500488 -3.555756330490112 3.301342248916626 0.000000000000000
24.534965515136719 -8.873633384704590 2.119573593139648 0.003921568859369
24.883361816406250 -9.093366622924805 2.152443408966064 0.003921568859369
25.184946060180664 -8.025714874267578 3.229917287826538 0.003921568859369
11.263159751892090 -3.565734386444092 3.131549596786499 0.000000000000000
25.584478378295898 -9.548155784606934 4.956182479858398 0.003921568859369
26.789525985717773 -8.647546768188477 0.652007937431335 0.003921568859369
26.274080276489258 -9.916234970092773 2.282298088073730 0.003921568859369
16.896574020385742 -5.502949237823486 -0.000142579694511 0.003921568859369
25.304162979125977 -8.262976646423340 3.252824783325195 0.003921568859369
26.217311859130859 -9.999069213867188 5.093217849731445 0.003921568859369
25.360227584838867 -8.473909378051758 0.618912637233734 0.003921568859369
25.986793518066406 -8.684478759765625 1.587729692459106 0.003921568859369
26.058404922485352 -10.142821311950684 2.271814823150635 0.003921568859369
26.031936645507812 -8.800346374511719 1.592377901077271 0.003921568859369
25.401317596435547 -8.586056709289551 3.275679349899292 0.003921568859369
24.640132904052734 -8.417963981628418 0.602619647979736 0.003921568859369
25.953517913818359 -8.869285583496094 1.589351534843445 0.003921568859369
7.775408267974854 -3.521499872207642 0.097608298063278 0.000000000000000
24.532787322998047 -9.836585998535156 2.146826267242432 0.003921568859369
24.361419677734375 -8.511738777160645 1.494921565055847 0.003921568859369
24.893363952636719 -10.082595825195312 2.181648015975952 0.003921568859369
27.499639511108398 -11.255651473999023 -0.172159716486931 0.003921568859369
25.856651306152344 -9.138248443603516 3.350740909576416 0.003921568859369
25.950004577636719 -10.618300437927246 5.088112831115723 0.003921568859369
24.553695678710938 -10.143612861633301 4.819771289825439 0.003921568859369
26.875591278076172 -9.811553955078125 3.496490716934204 0.003921568859369
24.711650848388672 -9.212431907653809 0.610412836074829 0.003921568859369
5.775074481964111 -2.131589174270630 -0.000323707499774 0.000000000000000
24.695213317871094 -9.300848960876465 0.610536873340607 0.003921568859369
26.893819808959961 -11.658102035522461 2.381388902664185 0.003921568859369
26.629087448120117 -10.033953666687012 7.587285995483398 0.003921568859369
24.623153686523438 -9.366473197937012 0.609509468078613 0.003921568859369
23.475757598876953 -10.260313987731934 2.080007553100586 0.003921568859369
25.832056045532227 -11.296895980834961 5.115282058715820 0.003921568859369
26.530942916870117 -10.207759857177734 3.473014354705811 0.003921568859369
27.023097991943359 -11.938403129577637 2.400256872177124 0.003921568859369
26.129596710205078 -10.052650451660156 7.464077949523926 0.003921568859369
25.599882125854492 -11.306278228759766 5.077251911163330 0.003921568859369
27.137495040893555 -9.057631492614746 0.165247112512589 0.003921568859369
27.386281967163086 -10.648175239562988 3.590494871139526 0.003921568859369
25.624893188476562 -11.424032211303711 5.090162277221680 0.003921568859369
23.299825668334961 -10.478482246398926 2.074137449264526 0.003921568859369
13.317047119140625 -5.960044860839844 2.634951114654541 0.000000000000000
27.109268188476562 -9.252808570861816 0.165448248386383 0.003921568859369
13.132550239562988 -5.928487300872803 2.601945161819458 0.000000000000000
26.742835998535156 -10.719193458557129 7.682506561279297 0.003921568859369
13.085717201232910 -5.964499950408936 2.596920728683472 0.000000000000000
24.201099395751953 -9.782324790954590 0.603902518749237 0.003921568859369
26.726922988891602 -10.809964179992676 7.687678813934326 0.003921568859369
25.347854614257812 -10.459626197814941 3.349651575088501 0.003921568859369
25.328556060791016 -10.451799392700195 7.304615020751953 0.003921568859369
24.343675613403320 -11.458802223205566 4.880635261535645 0.003921568859369
27.351129531860352 -11.290972709655762 -0.685621559619904 0.003921568859369
22.933330535888672 -10.888246536254883 2.061096668243408 0.003921568859369
26.353778839111328 -10.984758377075195 7.613125801086426 0.003921568859369
22.704860687255859 -10.875938415527344 2.043843746185303 0.003921568859369
23.441579818725586 -10.043301582336426 3.113136529922485 0.003921568859369
23.530139923095703 -10.178413391113281 3.129706621170044 0.003921568859369
25.036899566650391 -12.313596725463867 2.265708923339844 0.003921568859369
26.101953506469727 -11.298653602600098 7.581980228424072 0.003921568859369
24.314857482910156 -10.726669311523438 7.081930160522461 0.003921568859369
25.483070373535156 -11.351399421691895 7.435990333557129 0.003921568859369
26.129728317260742 -11.750292778015137 7.637864112854004 0.003921568859369
25.251350402832031 -12.864700317382812 5.140953540802002 0.003921568859369
23.794284820556641 -10.782950401306152 1.512601017951965 0.003921568859369
24.834257125854492 -11.257714271545410 7.267230510711670 0.003921568859369
11.367974281311035 -5.843698978424072 1.031581997871399 0.000000000000000
26.272249221801758 -12.134715080261230 7.715495109558105 0.003921568859369
23.573305130004883 -10.984797477722168 1.505842566490173 0.003921568859369
25.958145141601562 -13.679518699645996 5.323886394500732 0.003921568859369
23.527599334716797 -11.063049316406250 1.505372762680054 0.003921568859369
25.018392562866211 -13.292634963989258 5.139493465423584 0.003921568859369
24.772792816162109 -11.753734588623047 1.587612867355347 0.003921568859369
26.239240646362305 -12.454335212707520 3.547345876693726 0.003921568859369
24.228439331054688 -12.973693847656250 2.231070518493652 0.003921568859369
25.649486541748047 -13.849154472351074 2.367099046707153 0.003921568859369
25.702377319335938 -13.993584632873535 2.376530647277832 0.003921568859369
25.353185653686523 -12.351095199584961 1.633175134658813 0.003921568859369
25.642908096313477 -14.076851844787598 2.375548124313354 0.003921568859369
24.214448928833008 -13.397357940673828 2.246668338775635 0.003921568859369
24.293313980102539 -11.936393737792969 7.212234497070312 0.003921568859369
6.598813056945801 -3.238465070724487 1.929255843162537 0.000000000000000
25.148450851440430 -12.680926322937012 1.631058692932129 0.003921568859369
6.687950134277344 -3.310495376586914 1.959277153015137 0.000000000000000
24.952535629272461 -12.695946693420410 1.621285557746887 0.003921568859369
25.258596420288086 -14.441781997680664 2.362825632095337 0.003921568859369
3.487087965011597 -1.714898228645325 0.217179551720619 0.000000000000000
23.900846481323242 -12.888873100280762 3.314643859863281 0.003921568859369
23.361265182495117 -12.700777053833008 3.245418548583984 0.003921568859369
25.054462432861328 -13.741368293762207 3.489139556884766 0.003921568859369
25.002876281738281 -13.826203346252441 3.488645315170288 0.003921568859369
10.723142623901367 -5.874332904815674 3.234616279602051 0.000000000000000
10.601504325866699 -5.854370594024658 3.203555583953857 0.000000000000000
10.529252052307129 -5.856665611267090 3.186989068984985 0.000000000000000
10.662095069885254 -5.982644081115723 3.234607696533203 0.000000000000000
24.847743988037109 -14.188986778259277 3.493979692459106 0.003921568859369
3.546465158462524 -1.739725589752197 0.109862767159939 0.000000000000000
24.735292434692383 -14.232905387878418 3.484711885452271 0.003921568859369
18.989120483398438 -12.168173789978027 4.084519386291504 0.003921568859369
19.862550735473633 -12.824974060058594 1.916689515113831 0.003921568859369
10.251343727111816 -5.881756782531738 3.123744964599609 0.000000000000000
10.123190879821777 -5.855864048004150 3.090613842010498 0.000000000000000
24.793888092041016 -14.602456092834473 3.512860298156738 0.003921568859369
19.127239227294922 -12.530533790588379 4.140357017517090 0.003921568859369
20.797716140747070 -13.853509902954102 2.026650428771973 0.003921568859369
19.634782791137695 -13.260112762451172 1.920881628990173 0.003921568859369
9.670887947082520 -5.901735305786133 2.993279933929443 0.000000000000000
19.566810607910156 -13.513241767883301 1.928021073341370 0.003921568859369
9.653501510620117 -5.936871051788330 2.994312047958374 0.000000000000000
19.176990509033203 -13.241704940795898 4.220664501190186 0.003921568859369
19.562822341918945 -13.616284370422363 1.932570099830627 0.003921568859369
18.032043457031250 -12.815907478332520 1.792193412780762 0.003921568859369
19.820974349975586 -14.409723281860352 1.986753225326538 0.003921568859369
20.457777023315430 -13.405193328857422 6.509812831878662 0.003921568859369
20.007699966430664 -14.547060966491699 4.480921268463135 0.003921568859369
19.620594024658203 -14.372511863708496 1.971778035163879 0.003921568859369
20.935428619384766 -13.935540199279785 6.695101261138916 0.003921568859369
18.899677276611328 -13.940779685974121 4.252772808074951 0.003921568859369
21.030206680297852 -15.630145072937012 2.125343561172485 0.003921568859369
18.403266906738281 -12.410224914550781 2.704953193664551 0.003921568859369
20.959615707397461 -15.690776824951172 2.123708724975586 0.003921568859369
20.884057998657227 -14.101099014282227 6.708544731140137 0.003921568859369
17.070516586303711 -12.752737998962402 3.856038808822632 0.003921568859369
17.814718246459961 -12.103851318359375 1.244075179100037 0.003921568859369
20.516935348510742 -13.960292816162109 6.606050491333008 0.003921568859369
20.505485534667969 -14.051795959472656 6.617430686950684 0.003921568859369
17.096662521362305 -13.057283401489258 1.742670655250549 0.003921568859369
18.457056045532227 -12.734082221984863 5.965239524841309 0.003921568859369
21.186872482299805 -14.734931945800781 6.869890213012695 0.003921568859369
19.466632843017578 -13.627820014953613 6.322259426116943 0.003921568859369
8.552674293518066 -6.040439605712891 2.761152029037476 0.000000000000000
8.475326538085938 -6.028611183166504 2.742514610290527 0.000000000000000
20.753967285156250 -16.568590164184570 4.812124252319336 0.003921568859369
17.090448379516602 -12.394614219665527 2.571226358413696 0.003921568859369
8.432426452636719 -6.041461944580078 2.735265254974365 0.000000000000000
16.452508926391602 -13.195100784301758 3.815680980682373 0.003921568859369
19.819181442260742 -14.497135162353516 1.419414281845093 0.003921568859369
8.387489318847656 -6.050360679626465 2.726980447769165 0.000000000000000
16.454730987548828 -12.192040443420410 2.493710041046143 0.003921568859369
17.341135025024414 -14.216656684875488 1.816663742065430 0.003921568859369
18.427640914916992 -15.118063926696777 4.316385746002197 0.003921568859369
16.860923767089844 -12.583252906799316 2.562425851821899 0.003921568859369
20.536151885986328 -15.359368324279785 6.827362537384033 0.003921568859369
15.211832046508789 -12.535173416137695 3.564574003219604 0.003921568859369
16.317651748657227 -12.261539459228516 2.485411405563354 0.003921568859369
15.410149574279785 -12.790899276733398 1.621113777160645 0.000000000000000
17.899387359619141 -13.465208053588867 5.957794189453125 0.003921568859369
15.556354522705078 -12.998441696166992 1.640505790710449 0.003921568859369
15.480554580688477 -13.026067733764648 1.637245297431946 0.003921568859369
19.642416000366211 -15.000136375427246 6.576697826385498 0.003921568859369
15.297726631164551 -12.870400428771973 3.614648342132568 0.003921568859369
16.586563110351562 -12.917064666748047 2.559829473495483 0.003921568859369
17.230201721191406 -13.425087928771973 5.807536602020264 0.003921568859369
16.285110473632812 -14.496787071228027 1.765692830085754 0.003921568859369
15.735712051391602 -12.864518165588379 2.474489212036133 0.003921568859369
17.324783325195312 -14.275462150573730 5.968833923339844 0.003921568859369
16.905092239379883 -12.778183937072754 0.610249936580658 0.003921568859369
17.246648788452148 -13.134258270263672 0.624424457550049 0.003921568859369
18.080053329467773 -15.225785255432129 6.287633895874023 0.003921568859369
18.150024414062500 -16.865266799926758 4.486687183380127 0.003921568859369
18.909265518188477 -16.045536041259766 6.599204063415527 0.003921568859369
15.709665298461914 -13.487645149230957 2.520611524581909 0.003921568859369
15.486905097961426 -15.075353622436523 3.910618543624878 0.003921568859369
16.847154617309570 -14.991259574890137 5.997723102569580 0.003921568859369
15.085693359375000 -14.981082916259766 1.720723867416382 0.003921568859369
15.901625633239746 -14.431252479553223 2.614470481872559 0.003921568859369
14.986976623535156 -15.191645622253418 3.860216856002808 0.003921568859369
17.327445983886719 -17.729322433471680 2.008879423141479 0.003921568859369
5.721443176269531 -5.698293685913086 1.442221879959106 0.000000000000000
18.814355850219727 -17.715574264526367 3.150955438613892 0.003921568859369
15.104003906250000 -15.745745658874512 1.766527295112610 0.003921568859369
5.684096813201904 -5.777477741241455 1.447950720787048 0.000000000000000
16.768781661987305 -17.630741119384766 4.406026840209961 0.003921568859369
5.659727096557617 -5.832725524902344 1.452248096466064 0.000000000000000
5.631315708160400 -5.842997550964355 1.450093030929565 0.000000000000000
14.629489898681641 -15.667144775390625 1.734794378280640 0.003921568859369
15.272197723388672 -16.482091903686523 4.065845966339111 0.003921568859369
14.286867141723633 -15.510240554809570 1.706480264663696 0.003921568859369
16.744892120361328 -16.524301528930664 6.257114887237549 0.003921568859369
16.895853042602539 -16.791320800781250 1.375472545623779 0.003921568859369
16.270135879516602 -17.824111938476562 4.369228363037109 0.003921568859369
15.616350173950195 -15.720199584960938 2.698497056961060 0.003921568859369
15.435992240905762 -15.536451339721680 5.822349548339844 0.003921568859369
18.422679901123047 -20.646808624267578 2.243731498718262 0.003921568859369
2.968621730804443 -2.815215826034546 1.050608754158020 0.003921568859369
17.999763488769531 -20.167261123657227 4.897814273834229 0.003921568859369
16.898498535156250 -17.263673782348633 1.395182132720947 0.003921568859369
15.616532325744629 -15.935948371887207 2.717482566833496 0.003921568859369
16.223474502563477 -16.565279006958008 6.167012691497803 0.003921568859369
16.009906768798828 -18.028730392456055 4.365601539611816 0.003921568859369
16.813011169433594 -17.301574707031250 1.393312573432922 0.003921568859369
15.527806282043457 -15.960693359375000 2.712112188339233 0.003921568859369
17.866287231445312 -20.299718856811523 4.899943351745605 0.003921568859369
17.780876159667969 -20.337226867675781 4.894911289215088 0.003921568859369
5.276773452758789 -5.886945724487305 1.411943554878235 0.000000000000000
17.228111267089844 -16.417610168457031 0.685574173927307 0.003921568859369
17.032999038696289 -17.896455764770508 1.427204847335815 0.003921568859369
14.495619773864746 -16.764566421508789 1.794537067413330 0.003921568859369
5.230694770812988 -5.874543190002441 1.404767751693726 0.000000000000000
18.352149963378906 -19.428413391113281 3.258623838424683 0.003921568859369
5.223607540130615 -5.897950172424316 1.406098961830139 0.000000000000000
15.290932655334473 -16.258520126342773 5.933911800384521 0.003921568859369
5.144824981689453 -5.845961093902588 1.389599323272705 0.000000000000000
15.011838912963867 -16.069164276123047 5.845921993255615 0.003921568859369
15.045526504516602 -16.218465805053711 2.693866491317749 0.003921568859369
14.309242248535156 -17.011165618896484 1.799543499946594 0.003921568859369
5.568025112152100 -5.835780143737793 2.115579843521118 0.000000000000000
18.495077133178711 -20.138284683227539 3.334585666656494 0.003921568859369
5.521676063537598 -5.825710773468018 2.105225801467896 0.000000000000000
17.269727706909180 -20.738554000854492 4.889631748199463 0.003921568859369
5.506477832794189 -5.849852085113525 2.107292413711548 0.000000000000000
14.657932281494141 -16.129871368408203 2.653882741928101 0.003921568859369
13.759090423583984 -16.698940277099609 1.751384973526001 0.003921568859369
14.301994323730469 -15.732231140136719 5.651293754577637 0.003921568859369
14.250973701477051 -15.896527290344238 2.599292278289795 0.003921568859369
17.216451644897461 -19.262140274047852 6.876767158508301 0.003921568859369
14.608311653137207 -16.405336380004883 1.267568349838257 0.003921568859369
15.385125160217285 -19.099794387817383 1.987121701240540 0.003921568859369
18.459463119506836 -20.950325012207031 3.406136751174927 0.003921568859369
14.647613525390625 -18.300476074218750 1.898659229278564 0.003921568859369
17.022417068481445 -19.298494338989258 6.849833965301514 0.003921568859369
14.760507583618164 -18.584119796752930 4.297133922576904 0.003921568859369
15.316363334655762 -17.573060989379883 6.199645042419434 0.003921568859369
14.504995346069336 -18.503965377807617 1.903984427452087 0.003921568859369
14.423364639282227 -18.531444549560547 1.901697516441345 0.003921568859369
5.191826343536377 -5.890039920806885 2.058510303497314 0.000000000000000
15.206202507019043 -17.944963455200195 2.865564107894897 0.003921568859369
5.152478218078613 -5.882651329040527 2.050226688385010 0.000000000000000
5.130886077880859 -5.900582313537598 2.050222873687744 0.000000000000000
14.117188453674316 -18.672353744506836 1.895800828933716 0.003921568859369
5.142139911651611 -5.956399917602539 2.063674211502075 0.000000000000000
8.545059204101562 -9.209453582763672 0.358776777982712 0.000000000000000
15.014963150024414 -18.097530364990234 2.865043640136719 0.003921568859369
14.140385627746582 -18.833744049072266 1.907496333122253 0.003921568859369
16.091569900512695 -19.417886734008789 6.711898326873779 0.003921568859369
14.422898292541504 -19.217321395874023 4.350663185119629 0.003921568859369
14.901717185974121 -18.087257385253906 2.855288743972778 0.003921568859369
16.054327011108398 -19.656970977783203 3.094004869461060 0.003921568859369
14.127990722656250 -19.242475509643555 1.933800816535950 0.003921568859369
4.799385070800781 -5.895113945007324 1.992125511169434 0.000000000000000
4.962692260742188 -6.150918006896973 -0.001843614852987 0.000000000000000
14.160645484924316 -18.177066802978516 2.806799650192261 0.003921568859369
4.776432514190674 -5.907862663269043 1.991086840629578 0.000000000000000
4.782525062561035 -5.956659793853760 2.002468347549438 0.000000000000000
4.964605331420898 -6.243370056152344 0.453487724065781 0.000000000000000
15.808375358581543 -20.778753280639648 3.183342933654785 0.003921568859369
6.334817409515381 -8.120295524597168 2.715555191040039 0.000000000000000
14.770762443542480 -19.526922225952148 2.984081983566284 0.003921568859369
6.241168498992920 -9.139752388000488 1.989510416984558 0.000000000000000
3.472962617874146 -4.508877277374268 1.480722188949585 0.000000000000000
15.420821189880371 -24.612161636352539 -0.845289289951324 0.003921568859369
5.001011848449707 -6.958812236785889 1.031381726264954 0.000000000000000
3.571788311004639 -5.538269996643066 1.173995375633240 0.000000000000000
6.045570373535156 -10.059673309326172 0.944142580032349 0.000000000000000
3.784037351608276 -6.268589019775391 0.584319889545441 0.000000000000000
3.874100208282471 -5.887559413909912 1.846917271614075 0.000000000000000
3.883584976196289 -5.949642658233643 1.862436890602112 0.000000000000000
6.864686489105225 -11.195185661315918 1.591657757759094 0.000000000000000
6.983528137207031 -12.789238929748535 2.629270792007446 0.000000000000000
10.261729240417480 -17.247955322265625 2.442981481552124 0.003921568859369
8.739172935485840 -18.066043853759766 3.632052183151245 0.003921568859369
2.624582290649414 -4.489243984222412 0.292505353689194 0.000000000000000
4.610313415527344 -9.578237533569336 1.912753462791443 0.000000000000000
2.813516378402710 -5.648561954498291 1.125533580780029 0.000000000000000
4.437956809997559 -9.172650337219238 0.583064317703247 0.000000000000000
9.245069503784180 -20.193422317504883 1.281165957450867 0.003921568859369
6.166865348815918 -13.485400199890137 0.852461218833923 0.000000000000000
3.931330442428589 -9.597935676574707 1.867222785949707 0.000000000000000
2.372968435287476 -5.772813796997070 1.115211725234985 0.000000000000000
2.351188659667969 -5.772210121154785 1.113775014877319 0.000000000000000
1.700769901275635 -6.011059761047363 1.648088335990906 0.000000000000000
3.806009292602539 -15.573275566101074 4.269482612609863 0.003921568859369
1.785775899887085 -9.940283775329590 2.686313629150391 0.000000000000000
1.302241563796997 -7.296014785766602 1.967399120330811 0.000000000000000
0.661584496498108 -10.725501060485840 -0.629820108413696 0.000000000000000
0.861069798469543 -7.115665435791016 -0.211567059159279 0.000000000000000
1.394461870193481 -14.796419143676758 2.698240756988525 0.000000000000000
0.470947682857513 -10.398704528808594 0.116189666092396 0.000000000000000
0.436194032430649 -10.354933738708496 -0.125425085425377 0.000000000000000
0.905565619468689 -11.084381103515625 2.018272161483765 0.000000000000000
1.032634258270264 -15.998826026916504 2.913129329681396 0.003921568859369
0.838612079620361 -12.370670318603516 -0.077303543686867 0.000000000000000
0.632144510746002 -6.964275836944580 1.266686201095581 0.000000000000000
0.648410439491272 -15.905007362365723 1.291844606399536 0.000000000000000
0.520574092864990 -14.015689849853516 0.564822793006897 0.000000000000000
0.446248382329941 -10.330144882202148 0.175120577216148 0.000000000000000
