# This PCD file was generated using the MATLAB® pcwrite function
# from Computer Vision Toolbox®.
# .PCD v.7 - Point Cloud Data file format
VERSION .7
FIELDS x y z intensity
SIZE 8 8 8 8
TYPE F F F F
COUNT 1 1 1 1
WIDTH 644
HEIGHT 1
VIEWPOINT 0 0 0 1 0 0 0
POINTS 644
DATA ascii
-0.634752631187439 15.414872169494629 -0.986952126026154 0.000000000000000
-0.581739425659180 15.452087402343750 -0.989247858524323 0.003921568859369
1.696262121200562 25.589286804199219 2.096845626831055 0.003921568859369
-0.481189966201782 15.577768325805664 -0.997164011001587 0.003921568859369
2.643546819686890 25.974346160888672 2.135360240936279 0.003921568859369
2.763850450515747 21.533529281616211 1.776583671569824 0.003921568859369
5.077332019805908 25.603647232055664 0.306621253490448 0.003921568859369
4.878648281097412 23.405147552490234 0.281017422676086 0.003921568859369
6.448966026306152 28.222459793090820 -0.335140079259872 0.003921568859369
5.829274654388428 25.183551788330078 0.303799092769623 0.003921568859369
6.089843273162842 25.502985000610352 -0.303502231836319 0.003921568859369
5.274055957794189 28.015207290649414 -0.163598880171776 0.003921568859369
5.551609992980957 28.380224227905273 -0.840450882911682 0.003921568859369
5.606806755065918 22.861333847045898 -0.272434085607529 0.003921568859369
6.502490043640137 26.000999450683594 0.315024137496948 0.003921568859369
4.881342887878418 24.211404800415039 -0.717884063720703 0.003921568859369
6.591191291809082 25.969665527343750 0.314939558506012 0.003921568859369
5.007655143737793 24.814483642578125 4.625607967376709 0.003921568859369
4.268519401550293 20.972772598266602 3.912244558334351 0.003921568859369
3.699102163314819 22.458757400512695 6.110113143920898 0.003921568859369
6.894573688507080 28.344223022460938 -0.847875475883484 0.003921568859369
7.849086761474609 26.572589874267578 0.325798064470291 0.003921568859369
7.308649063110352 24.496088027954102 0.300720423460007 0.003921568859369
5.720314502716064 23.327213287353516 1.967014551162720 0.003921568859369
5.953970909118652 23.555923461914062 -0.139251574873924 0.003921568859369
6.867182254791260 26.267526626586914 -0.789180397987366 0.003921568859369
5.220025539398193 24.943822860717773 0.596171081066132 0.003921568859369
7.962525844573975 25.034461975097656 0.309044510126114 0.003921568859369
8.245307922363281 25.598436355590820 -0.311238765716553 0.003921568859369
7.759317874908447 24.124559402465820 0.298193037509918 0.003921568859369
8.071353912353516 24.779626846313477 -0.301596105098724 0.003921568859369
5.183067321777344 23.579652786254883 0.564954221248627 0.003921568859369
6.792523860931396 23.667455673217773 -0.715840756893158 0.003921568859369
4.345620155334473 23.694358825683594 0.704215586185455 0.003921568859369
6.871378898620605 28.686296463012695 -0.684969127178192 0.003921568859369
9.007616996765137 25.789255142211914 -0.316134274005890 0.003921568859369
5.472659111022949 22.669357299804688 6.263526916503906 0.003921568859369
5.018432140350342 25.311994552612305 0.152409136295319 0.003921568859369
6.442570686340332 25.779832839965820 -0.617079377174377 0.003921568859369
8.321383476257324 26.759384155273438 -0.160601437091827 0.003921568859369
7.855836391448975 24.696342468261719 -0.753401815891266 0.003921568859369
8.570117950439453 26.574460983276367 -0.811684131622314 0.003921568859369
8.075125694274902 24.495689392089844 -0.147745534777641 0.003921568859369
5.282980442047119 23.620471954345703 0.707801103591919 0.003921568859369
7.674159049987793 26.990776062011719 0.656694531440735 0.003921568859369
6.186553001403809 21.883321762084961 2.800833940505981 0.003921568859369
6.740660667419434 23.784893035888672 -0.574119508266449 0.003921568859369
7.683304786682129 22.301160812377930 1.933013916015625 0.003921568859369
1.258383393287659 4.834394454956055 1.353269100189209 0.000000000000000
9.745745658874512 23.808681488037109 -0.297635614871979 0.003921568859369
6.615599155426025 22.184450149536133 2.851095438003540 0.003921568859369
7.688026428222656 25.059125900268555 -0.608693182468414 0.003921568859369
8.867362022399902 24.287137985229492 -0.751680850982666 0.003921568859369
7.789319038391113 24.775188446044922 -0.603107690811157 0.003921568859369
10.917504310607910 25.125019073486328 0.322578370571136 0.003921568859369
5.006465911865234 13.487275123596191 2.636420011520386 0.000000000000000
7.990858078002930 24.806325912475586 -0.605225563049316 0.003921568859369
10.628236770629883 24.014726638793945 -0.303821951150894 0.003921568859369
11.026192665100098 24.668767929077148 0.318245977163315 0.003921568859369
10.953953742980957 24.284122467041016 -0.308203041553497 0.003921568859369
10.987219810485840 24.356821060180664 0.314740329980850 0.003921568859369
11.331826210021973 24.646463394165039 -0.313790500164032 0.003921568859369
11.454409599304199 24.243358612060547 -0.310157299041748 0.003921568859369
11.825581550598145 24.146762847900391 -0.311005532741547 0.003921568859369
10.413131713867188 23.975664138793945 -0.149588882923126 0.003921568859369
11.816509246826172 23.721847534179688 -0.306548833847046 0.003921568859369
10.538138389587402 24.042753219604492 -0.150224566459656 0.003921568859369
11.139179229736328 24.922567367553711 -0.793664157390594 0.003921568859369
10.897448539733887 24.389944076538086 -0.152872949838638 0.003921568859369
11.260268211364746 24.928323745727539 -0.795167863368988 0.003921568859369
11.034927368164062 24.436607360839844 -0.153418883681297 0.003921568859369
11.094243049621582 23.901866912841797 -0.150754854083061 0.003921568859369
11.235970497131348 23.985273361206055 -0.151527792215347 0.003921568859369
11.278535842895508 26.956718444824219 3.598538875579834 0.003921568859369
13.082405090332031 24.094141006469727 -0.317071080207825 0.003921568859369
3.167498826980591 6.055237293243408 -0.643600285053253 0.000000000000000
12.219279289245605 24.944751739501953 -0.807516574859619 0.003921568859369
2.795399188995361 5.956717491149902 1.213922858238220 0.000000000000000
8.946381568908691 23.718896865844727 0.150232136249542 0.003921568859369
12.775232315063477 25.614349365234375 -0.832106828689575 0.003921568859369
12.594058990478516 24.606544494628906 -0.803534686565399 0.003921568859369
12.148418426513672 23.746358871459961 -0.152534902095795 0.003921568859369
12.673055648803711 24.538394927978516 -0.802830100059509 0.003921568859369
13.998991966247559 24.125654220581055 -0.322518587112427 0.003921568859369
12.861173629760742 24.688014984130859 -0.809205830097198 0.003921568859369
14.382366180419922 24.582221984863281 -0.329309582710266 0.003921568859369
10.394757270812988 24.379524230957031 0.157119691371918 0.003921568859369
13.637637138366699 24.464435577392578 -0.160125374794006 0.003921568859369
11.925276756286621 24.108020782470703 -0.624478459358215 0.003921568859369
13.619957923889160 24.244668960571289 -0.158971294760704 0.003921568859369
13.607449531555176 23.833431243896484 -0.797752737998962 0.003921568859369
14.094367027282715 24.489381790161133 -0.821303606033325 0.003921568859369
13.967637062072754 24.067972183227539 -0.808878600597382 0.003921568859369
14.297006607055664 24.629829406738281 -0.162794113159180 0.003921568859369
12.632581710815430 24.455902099609375 -0.639095902442932 0.003921568859369
14.450059890747070 24.692901611328125 -0.163543269038200 0.003921568859369
13.084279060363770 24.687301635742188 0.654761433601379 0.003921568859369
13.769171714782715 24.703552246093750 0.662611782550812 0.003921568859369
14.008269309997559 24.132843017578125 -0.647932350635529 0.003921568859369
15.797035217285156 24.196662902832031 2.368255615234375 0.003921568859369
14.368828773498535 24.560989379882812 -0.660725116729736 0.003921568859369
9.180929183959961 13.831460952758789 3.042854309082031 0.003921568859369
14.143610000610352 25.364225387573242 0.171979740262032 0.003921568859369
4.656654357910156 7.607439994812012 2.409516096115112 0.000000000000000
5.955015182495117 8.324417114257812 1.881391048431396 0.000000000000000
10.804495811462402 12.414435386657715 -0.960987091064453 0.003921568859369
10.744995117187500 12.264550209045410 -0.952158868312836 0.003921568859369
10.723848342895508 12.141286849975586 -0.945795893669128 0.003921568859369
10.720792770385742 12.052898406982422 -0.941844701766968 0.003921568859369
10.711894035339355 11.958757400512695 -0.937428951263428 0.003921568859369
10.684260368347168 11.849006652832031 -0.931619942188263 0.003921568859369
1.633197188377380 2.335983514785767 0.170665815472603 0.000000000000000
10.701257705688477 11.784775733947754 -0.929526925086975 0.003921568859369
10.696933746337891 11.701917648315430 -0.925808250904083 0.000000000000000
10.717988967895508 11.638842582702637 -0.923947513103485 0.000000000000000
6.274542331695557 8.371246337890625 2.822546482086182 0.000000000000000
10.706681251525879 11.545601844787598 -0.919532001018524 0.000000000000000
10.738699913024902 11.499056816101074 -0.918832778930664 0.000000000000000
10.757520675659180 11.442750930786133 -0.917204678058624 0.000000000000000
10.788344383239746 11.391303062438965 -0.916273057460785 0.000000000000000
17.312953948974609 24.396518707275391 0.176932051777840 0.003921568859369
10.800333976745605 11.324436187744141 -0.913948059082031 0.000000000000000
6.050311088562012 6.996894359588623 -0.759331524372101 0.000000000000000
10.821239471435547 11.262455940246582 -0.911997795104980 0.000000000000000
10.871649742126465 11.235682487487793 -0.912924706935883 0.000000000000000
7.450957298278809 9.419692993164062 3.236659288406372 0.000000000000000
10.947206497192383 11.234319686889648 -0.915942311286926 0.000000000000000
11.034122467041016 11.243919372558594 -0.919888973236084 0.000000000000000
11.090226173400879 11.221940994262695 -0.921280443668365 0.000000000000000
11.166114807128906 11.219436645507812 -0.924297988414764 0.000000000000000
11.299782752990723 11.277491569519043 -0.932193577289581 0.003921568859369
11.402632713317871 11.303987503051758 -0.937533974647522 0.003921568859369
3.299940347671509 3.685829639434814 0.205335974693298 0.000000000000000
4.875848770141602 4.853354454040527 -0.403750687837601 0.000000000000000
11.542563438415527 11.274909973144531 -0.942175090312958 0.003921568859369
11.588525772094727 11.244537353515625 -0.942869961261749 0.003921568859369
11.619975090026855 11.200194358825684 -0.942403435707092 0.003921568859369
11.898247718811035 11.374322891235352 -0.960900425910950 0.003921568859369
11.696328163146973 12.331491470336914 -0.892453789710999 0.003921568859369
11.937875747680664 11.332398414611816 -0.960898458957672 0.003921568859369
11.775314331054688 12.327672004699707 -0.895169913768768 0.003921568859369
11.975393295288086 11.292435646057129 -0.960896611213684 0.003921568859369
11.857831954956055 12.331272125244141 -0.898304224014282 0.003921568859369
12.014735221862793 11.250242233276367 -0.960894703865051 0.003921568859369
11.928699493408203 12.318066596984863 -0.900392949581146 0.003921568859369
12.082309722900391 11.230152130126953 -0.962983369827271 0.003921568859369
12.010178565979004 12.310950279235840 -0.903108894824982 0.003921568859369
12.091034889221191 11.167566299438477 -0.960891008377075 0.003921568859369
11.113272666931152 11.327258110046387 -0.833478689193726 0.000000000000000
12.233306884765625 11.219039916992188 -0.969019532203674 0.003921568859369
11.175301551818848 11.310706138610840 -0.835149466991425 0.000000000000000
12.343500137329102 11.240202903747559 -0.974592864513397 0.003921568859369
11.251498222351074 11.307959556579590 -0.837865710258484 0.003921568859369
12.430201530456543 11.239404678344727 -0.978307723999023 0.003921568859369
11.333477020263672 11.310450553894043 -0.841000139713287 0.003921568859369
12.532910346984863 11.244347572326660 -0.982951521873474 0.003921568859369
11.402474403381348 11.291680335998535 -0.842879831790924 0.003921568859369
12.622000694274902 11.252264976501465 -0.987131297588348 0.003921568859369
11.497917175292969 11.314105987548828 -0.847268939018250 0.003921568859369
12.724195480346680 11.263162612915039 -0.992007613182068 0.003921568859369
11.566025733947754 11.301375389099121 -0.849357903003693 0.003921568859369
11.676248550415039 11.316794395446777 -0.853894650936127 0.003921568859369
12.034370422363281 11.339798927307129 -0.868316411972046 0.003921568859369
12.108995437622070 11.330059051513672 -0.870823979377747 0.003921568859369
12.194422721862793 11.337759017944336 -0.874377191066742 0.003921568859369
12.283974647521973 11.340722084045410 -0.877930402755737 0.003921568859369
3.580076694488525 3.678568363189697 1.392250061035156 0.000000000000000
12.460627555847168 11.342500686645508 -0.884827554225922 0.003921568859369
12.555629730224609 11.344466209411621 -0.888589739799500 0.003921568859369
10.568323135375977 11.382057189941406 -0.997487068176270 0.000000000000000
10.599018096923828 11.331346511840820 -0.996462762355804 0.000000000000000
10.626281738281250 11.206451416015625 -0.991858243942261 0.003921568859369
3.270335197448730 3.432621002197266 -0.306518584489822 0.000000000000000
5.071609497070312 5.205204010009766 -0.468328684568405 0.000000000000000
1.847709655761719 1.883448481559753 -0.171615451574326 0.000000000000000
5.323913574218750 3.681735277175903 -0.379470020532608 0.000000000000000
8.066713333129883 6.568125724792480 -0.485894352197647 0.000000000000000
8.841757774353027 5.596179008483887 -0.611476719379425 0.000000000000000
9.210970878601074 6.385117530822754 -0.589061379432678 0.000000000000000
9.063593864440918 6.231034278869629 -0.577888309955597 0.000000000000000
9.019183158874512 6.154321193695068 -0.573703944683075 0.000000000000000
9.068570137023926 6.095288753509521 -0.574121356010437 0.003921568859369
9.170956611633301 6.071012020111084 -0.577885925769806 0.000000000000000
9.191037178039551 6.040399551391602 -0.577885508537292 0.000000000000000
5.216418743133545 3.106107711791992 0.499067544937134 0.000000000000000
9.078618049621582 6.476801395416260 -0.455141156911850 0.000000000000000
8.047358512878418 4.512529850006104 -0.053340785205364 0.000000000000000
6.349151611328125 3.862483501434326 1.999525308609009 0.000000000000000
6.004568099975586 3.209175825119019 0.278994172811508 0.000000000000000
11.816121101379395 5.519073963165283 2.382435798645020 0.000000000000000
1.923234701156616 0.760298848152161 0.024396607652307 0.000000000000000
11.074018478393555 4.984344959259033 2.217266082763672 0.000000000000000
8.053609848022461 4.438547611236572 -0.160544604063034 0.000000000000000
9.702810287475586 4.047817707061768 0.859780728816986 0.000000000000000
8.775002479553223 3.481115818023682 0.385044366121292 0.000000000000000
11.516270637512207 5.138302326202393 -0.587644696235657 0.000000000000000
6.772904396057129 2.181131124496460 0.083032444119453 0.000000000000000
6.731397151947021 2.141850471496582 -0.411755800247192 0.000000000000000
3.989479064941406 1.646789431571960 -0.000000000000040 0.000000000000000
5.559637546539307 1.982979178428650 1.076213240623474 0.000000000000000
6.480338096618652 2.973775386810303 -0.290487170219421 0.000000000000000
5.852181434631348 1.617455959320068 -0.070684663951397 0.000000000000000
11.560359954833984 4.449186801910400 1.520929574966431 0.000000000000000
6.585763931274414 2.144927740097046 0.282182902097702 0.000000000000000
9.149577140808105 4.004959106445312 -0.406910002231598 0.000000000000000
9.920256614685059 4.256453514099121 -0.439600884914398 0.000000000000000
11.641823768615723 3.654658317565918 0.496656805276871 0.000000000000000
10.744031906127930 3.920225381851196 0.265814542770386 0.000000000000000
9.878273963928223 4.076163291931152 -0.186516180634499 0.000000000000000
5.856430053710938 2.064020633697510 0.361064136028290 0.000000000000000
9.843155860900879 2.902025699615479 0.836955547332764 0.000000000000000
8.202374458312988 2.417865037918091 1.557528138160706 0.000000000000000
8.061923027038574 2.288060188293457 0.683351814746857 0.000000000000000
7.469365119934082 2.119710206985474 1.414038181304932 0.000000000000000
4.154536724090576 1.349246382713318 -0.000166862984770 0.000000000000000
10.347676277160645 3.287148475646973 0.252013564109802 0.000000000000000
17.589611053466797 5.591445922851562 1.073592424392700 0.000000000000000
9.839179992675781 2.425422906875610 1.844386935234070 0.000000000000000
16.434829711914062 3.990285158157349 1.378959417343140 0.000000000000000
8.376769065856934 2.857427120208740 -0.154434978961945 0.000000000000000
3.326843500137329 0.780660092830658 0.277461171150208 0.000000000000000
13.418769836425781 3.111451864242554 1.122865200042725 0.000000000000000
12.180185317993164 3.412180185317993 0.293353557586670 0.000000000000000
7.839502334594727 1.359711408615112 0.092016778886318 0.000000000000000
12.539497375488281 4.131585597991943 0.383105605840683 0.000000000000000
18.563919067382812 5.131023406982422 1.119679331779480 0.000000000000000
7.588261127471924 1.261662244796753 -0.268063962459564 0.000000000000000
7.782253742218018 1.266208052635193 -0.091817632317543 0.000000000000000
18.289663314819336 3.905792713165283 0.325479090213776 0.003921568859369
6.826461315155029 1.062721848487854 0.079837702214718 0.000000000000000
7.007139682769775 1.751235008239746 0.883489966392517 0.000000000000000
8.439169883728027 1.678335547447205 0.700052082538605 0.000000000000000
16.552515029907227 4.145447254180908 4.565068244934082 0.003921568859369
8.739332199096680 1.738210082054138 1.619720220565796 0.000000000000000
9.696246147155762 1.858977437019348 0.400852888822556 0.000000000000000
3.394100904464722 0.808220446109772 -0.161603018641472 0.000000000000000
14.617088317871094 2.703149318695068 2.703557252883911 0.000000000000000
4.516773700714111 1.026039719581604 0.106669828295708 0.000000000000000
16.737052917480469 3.822820663452148 0.997229158878326 0.000000000000000
8.571436882019043 1.954006671905518 1.074925661087036 0.000000000000000
12.263735771179199 2.711568117141724 0.728980183601379 0.000000000000000
7.875053405761719 1.201467752456665 -0.231289222836494 0.000000000000000
6.091184616088867 1.233645200729370 0.758620440959930 0.000000000000000
15.424188613891602 2.303163766860962 0.271003991365433 0.000000000000000
3.403370141983032 0.337039470672607 -0.197515204548836 0.000000000000000
22.011249542236328 3.210508584976196 -0.647189855575562 0.003921568859369
10.551943778991699 1.494172692298889 0.431853502988815 0.000000000000000
10.246658325195312 1.930266022682190 0.241042673587799 0.000000000000000
11.385123252868652 1.533929347991943 0.933742344379425 0.000000000000000
4.608786106109619 0.568959951400757 -0.241588860750198 0.000000000000000
11.071618080139160 1.925232052803040 1.374045491218567 0.000000000000000
7.582842826843262 1.699563980102539 -0.315440237522125 0.000000000000000
14.953266143798828 3.308799505233765 0.443727701902390 0.000000000000000
7.002401351928711 0.843723118305206 0.121873483061790 0.000000000000000
10.285141944885254 1.714351892471313 0.241043344140053 0.000000000000000
7.550728321075439 1.637331366539001 0.223120942711830 0.000000000000000
7.484804153442383 0.850833594799042 0.130235329270363 0.000000000000000
15.579854965209961 2.550343036651611 0.916179895401001 0.000000000000000
8.630049705505371 1.409629940986633 -0.405938386917114 0.000000000000000
11.539173126220703 1.845929026603699 -0.000654951028991 0.003921568859369
13.849807739257812 2.216907739639282 0.324673593044281 0.000000000000000
9.834103584289551 1.050188422203064 0.400616914033890 0.000000000000000
15.571969985961914 1.665546894073486 2.846879243850708 0.000000000000000
9.020389556884766 1.830139398574829 -0.160509064793587 0.000000000000000
10.514142990112305 0.571103930473328 0.121480308473110 0.000000000000000
5.569193840026855 0.573302268981934 1.012620210647583 0.000000000000000
16.571113586425781 2.416452169418335 -0.000982866389677 0.003921568859369
17.801446914672852 1.715987682342529 0.310258954763412 0.003921568859369
6.655776977539062 0.289801746606827 -0.617733120918274 0.000000000000000
3.759081125259399 0.528622686862946 0.217660516500473 0.000000000000000
4.880118370056152 0.672064423561096 0.283429890871048 0.000000000000000
7.752254009246826 1.071695208549500 -0.362832516431808 0.000000000000000
10.450984001159668 0.893797218799591 0.181468382477760 0.000000000000000
5.571412086486816 1.004496097564697 -0.098493747413158 0.000000000000000
7.802172660827637 0.638938665390015 0.316233903169632 0.000000000000000
6.565195560455322 0.859060227870941 0.806188106536865 0.000000000000000
10.326162338256836 0.846964359283447 1.879056096076965 0.000000000000000
5.385727882385254 0.952449023723602 -0.095135293900967 0.000000000000000
15.240500450134277 0.403537482023239 -0.177809134125710 0.000000000000000
11.062356948852539 0.832205772399902 0.449139654636383 0.000000000000000
12.160823822021484 2.118289947509766 -0.501674890518188 0.000000000000000
28.562442779541016 2.154644966125488 5.211741924285889 0.003921568859369
11.910342216491699 0.854662239551544 0.206754341721535 0.000000000000000
6.307293891906738 0.430082648992538 0.511372566223145 0.000000000000000
9.572992324829102 0.154918342828751 0.110176019370556 0.000000000000000
6.522580146789551 0.992792785167694 -0.114823244512081 0.000000000000000
6.575133323669434 0.677111804485321 0.803654789924622 0.000000000000000
8.425609588623047 1.255200982093811 0.048396885395050 0.000000000000000
6.449469089508057 0.618991255760193 -0.000676672963891 0.000000000000000
9.742881774902344 0.462155282497406 0.168398082256317 0.000000000000000
17.619365692138672 1.700758457183838 1.026248693466187 0.000000000000000
12.275943756103516 0.583033144474030 2.228979587554932 0.000000000000000
12.852286338806152 1.194018721580505 -0.299944877624512 0.000000000000000
7.248489379882812 0.645747184753418 0.167247533798218 0.000000000000000
8.890477180480957 -0.072058625519276 0.102037876844406 0.000000000000000
16.813766479492188 0.682334601879120 1.367740035057068 0.000000000000000
20.064882278442383 0.814733445644379 3.649233579635620 0.003921568859369
9.066138267517090 -0.104942433536053 -0.105646431446075 0.000000000000000
6.451622009277344 0.215718314051628 -0.037844821810722 0.000000000000000
7.613538265228271 0.974763274192810 0.220937341451645 0.000000000000000
14.673982620239258 1.885683894157410 -0.601407110691071 0.000000000000000
12.711449623107910 -0.277791053056717 -0.148272231221199 0.000000000000000
6.830050945281982 0.514171659946442 0.157311037182808 0.000000000000000
3.879869699478149 0.478822559118271 0.111495465040207 0.000000000000000
15.939210891723633 0.427505493164062 0.276189655065536 0.000000000000000
11.760234832763672 0.315046221017838 0.954636573791504 0.000000000000000
13.640000343322754 1.031218409538269 3.648348569869995 0.000000000000000
10.874912261962891 0.785192131996155 -0.000874493445735 0.003921568859369
11.556471824645996 0.794343948364258 0.670252144336700 0.000000000000000
12.099021911621094 -0.346341192722321 -0.421523511409760 0.000000000000000
9.784429550170898 0.671952009201050 2.611176967620850 0.000000000000000
12.231684684753418 1.397199153900146 0.070084378123283 0.000000000000000
8.615006446838379 0.560646533966064 0.497950762510300 0.000000000000000
14.894443511962891 0.868514239788055 0.344393312931061 0.000000000000000
7.367166519165039 0.761138141155243 -0.128922462463379 0.000000000000000
9.702212333679199 0.059317708015442 0.167241364717484 0.000000000000000
15.745542526245117 0.863461136817932 0.913163721561432 0.000000000000000
7.628297805786133 0.763028264045715 -0.133473321795464 0.000000000000000
11.103120803833008 0.031320314854383 -0.322160005569458 0.000000000000000
11.510379791259766 -0.009454948827624 0.465159326791763 0.000000000000000
9.430514335632324 0.450207740068436 2.510658502578735 0.000000000000000
18.723356246948242 -0.080650717020035 -0.109811268746853 0.000000000000000
13.671317100524902 0.606434643268585 0.791877925395966 0.000000000000000
29.250755310058594 -0.126171827316284 5.318881988525391 0.003921568859369
11.726767539978027 1.051318049430847 -0.205379083752632 0.000000000000000
8.234035491943359 0.308419913053513 -0.000859285355546 0.003921568859369
8.327894210815430 -0.091840773820877 0.673490405082703 0.000000000000000
8.319462776184082 -0.120566897094250 -0.241029039025307 0.000000000000000
10.463704109191895 0.356269896030426 1.276218175888062 0.000000000000000
17.239101409912109 0.528344333171844 0.398436069488525 0.000000000000000
15.414336204528809 -0.277921199798584 1.251798868179321 0.000000000000000
8.694172859191895 -0.186292603611946 -0.251985102891922 0.000000000000000
13.794750213623047 0.374431967735291 -0.001141381566413 0.000000000000000
13.591181755065918 0.368885427713394 0.313665777444839 0.000000000000000
6.255109310150146 0.168866351246834 0.759220063686371 0.000000000000000
13.336659431457520 -0.286612421274185 1.082340598106384 0.000000000000000
8.492400169372559 -0.211083427071571 0.145976155996323 0.000000000000000
12.438016891479492 -0.353317260742188 -0.361103355884552 0.000000000000000
20.505569458007812 0.414589405059814 1.188323378562927 0.003921568859369
12.866909027099609 -0.410222917795181 2.332011222839355 0.000000000000000
6.304965019226074 -0.242150351405144 -0.182256758213043 0.000000000000000
19.310842514038086 1.133509278297424 0.559139430522919 0.003921568859369
18.116920471191406 0.180319324135780 1.049161791801453 0.000000000000000
4.840284347534180 0.264190375804901 -0.084055766463280 0.000000000000000
13.917793273925781 -0.586712300777435 0.240544795989990 0.000000000000000
12.396001815795898 0.596682548522949 -0.216500759124756 0.000000000000000
9.067109107971191 0.404051333665848 0.051291733980179 0.000000000000000
5.566769123077393 -0.309472382068634 0.095183096826077 0.000000000000000
13.187866210937500 -0.739268004894257 1.070826530456543 0.000000000000000
12.018007278442383 -0.130682900547981 1.465157270431519 0.000000000000000
6.839279651641846 0.233039006590843 -0.119003966450691 0.000000000000000
7.782488346099854 -0.111181594431400 0.447898983955383 0.000000000000000
7.887513160705566 -0.549201250076294 0.637511312961578 0.000000000000000
9.573865890502930 -0.236304804682732 -0.001149206655100 0.003921568859369
16.916337966918945 -0.533965826034546 -0.001608044840395 0.003921568859369
16.075719833374023 0.274379760026932 0.463879436254501 0.003921568859369
11.330774307250977 -0.396008670330048 -0.263107359409332 0.000000000000000
9.138306617736816 -0.382058203220367 0.209737986326218 0.000000000000000
10.222624778747559 -0.427832752466202 0.589738190174103 0.000000000000000
7.517098903656006 -0.678498387336731 0.608245790004730 0.000000000000000
3.053809404373169 -0.428579598665237 0.034189499914646 0.000000000000000
4.587532997131348 0.014515891671181 -0.289414882659912 0.000000000000000
8.445292472839355 -0.382021009922028 1.026527047157288 0.000000000000000
17.753362655639648 -0.005258468445390 0.512534081935883 0.003921568859369
4.241299152374268 -0.408645033836365 0.169347301125526 0.000000000000000
11.817574501037598 -1.197257518768311 2.148999929428101 0.000000000000000
10.230057716369629 -0.570153295993805 0.235261738300323 0.000000000000000
6.039579391479492 -0.627544760704041 -0.314725399017334 0.000000000000000
9.775019645690918 -0.205538049340248 0.280550479888916 0.000000000000000
17.779733657836914 -0.431253373622894 0.100993677973747 0.000000000000000
6.337534904479980 -0.766189157962799 0.512543737888336 0.000000000000000
7.131582260131836 -0.196068257093430 0.203818693757057 0.000000000000000
20.218784332275391 -0.634873390197754 0.584003388881683 0.003921568859369
8.484493255615234 -0.705491900444031 1.032760381698608 0.000000000000000
8.853435516357422 -0.337464898824692 -0.154234692454338 0.000000000000000
6.504446983337402 -0.561512172222137 0.789156556129456 0.000000000000000
6.739719867706299 -0.415908932685852 -0.117253720760345 0.000000000000000
10.892244338989258 -0.717844367027283 -0.190234124660492 0.000000000000000
9.832709312438965 -1.126920938491821 -0.001379915978760 0.003921568859369
7.971496582031250 -0.575924277305603 -0.138984739780426 0.000000000000000
23.025033950805664 -2.809126138687134 2.833311080932617 0.003921568859369
5.712446689605713 -0.432202786207199 -0.230345487594604 0.000000000000000
11.957269668579102 -1.623086571693420 3.204719781875610 0.000000000000000
10.805113792419434 -1.272580027580261 -0.189568713307381 0.000000000000000
9.146327018737793 -1.075154542922974 0.051448810845613 0.000000000000000
7.866284847259521 -2.305918216705322 0.092600703239441 0.000000000000000
8.409320831298828 -1.426775336265564 0.243244007229805 0.000000000000000
11.949150085449219 -3.467028141021729 -0.073816187679768 0.000000000000000
25.381029129028320 -7.502304553985596 2.146998405456543 0.003921568859369
25.775537490844727 -6.563806056976318 7.090007781982422 0.003921568859369
25.326585769653320 -7.875291347503662 4.809934139251709 0.003921568859369
24.683626174926758 -7.768537044525146 4.692338466644287 0.003921568859369
21.725276947021484 -6.001381874084473 2.747545242309570 0.003921568859369
22.646638870239258 -7.555816173553467 4.325408458709717 0.003921568859369
23.255098342895508 -9.123383522033691 0.285493582487106 0.003921568859369
23.336467742919922 -7.868766784667969 1.996019959449768 0.003921568859369
22.939559936523438 -7.733935356140137 4.386362075805664 0.003921568859369
23.215188980102539 -9.299050331115723 0.285832047462463 0.003921568859369
23.073221206665039 -7.962732791900635 4.422943592071533 0.003921568859369
23.238157272338867 -9.402171134948730 0.286531567573547 0.003921568859369
22.863349914550781 -7.978870868682861 4.387816905975342 0.003921568859369
23.716537475585938 -8.366570472717285 2.038623809814453 0.003921568859369
15.908949851989746 -5.596111297607422 3.048414468765259 0.003921568859369
23.622623443603516 -9.750323295593262 0.292174637317657 0.003921568859369
11.085013389587402 -3.973148584365845 -0.070120461285114 0.000000000000000
22.983455657958984 -8.550317764282227 1.986452937126160 0.003921568859369
25.758115768432617 -9.588839530944824 4.981701850891113 0.003921568859369
9.324989318847656 -2.971151113510132 0.222009912133217 0.000000000000000
24.626075744628906 -9.267747879028320 2.132363557815552 0.003921568859369
22.947830200195312 -8.632143020629883 4.441114425659180 0.003921568859369
3.188528776168823 -0.996639966964722 0.072864204645157 0.000000000000000
24.239833831787109 -9.217815399169922 2.101502180099487 0.003921568859369
22.953134536743164 -8.908586502075195 1.994611024856567 0.003921568859369
23.581361770629883 -9.432984352111816 4.601768493652344 0.003921568859369
20.892892837524414 -8.435394287109375 1.824367046356201 0.003921568859369
26.929285049438477 -9.497887611389160 3.484425306320190 0.003921568859369
25.660455703735352 -9.249255180358887 0.626793861389160 0.003921568859369
21.237335205078125 -8.833939552307129 1.862736582756042 0.003921568859369
26.939397811889648 -9.809864997863770 3.497003078460693 0.003921568859369
21.955577850341797 -9.215781211853027 4.310927391052246 0.003921568859369
23.534851074218750 -11.366137504577637 -0.307514548301697 0.003921568859369
21.415472030639648 -7.875266551971436 2.779318571090698 0.003921568859369
21.402721405029297 -7.955004692077637 2.781274557113647 0.003921568859369
20.533611297607422 -8.787404060363770 1.807361483573914 0.003921568859369
5.092647552490234 -2.210757732391357 -0.033583544194698 0.000000000000000
23.514444351196289 -10.457002639770508 2.084547996520996 0.003921568859369
13.500225067138672 -5.974058628082275 2.662748575210571 0.000000000000000
22.971918106079102 -8.994551658630371 6.567057609558105 0.003921568859369
13.386047363281250 -5.978482246398926 2.644114494323730 0.000000000000000
25.650056838989258 -10.154047012329102 0.633340120315552 0.003921568859369
22.839868545532227 -9.034117698669434 6.538094520568848 0.003921568859369
25.790626525878906 -10.308664321899414 0.637697458267212 0.003921568859369
21.782634735107422 -8.696910858154297 1.352977633476257 0.003921568859369
19.753618240356445 -7.880864143371582 2.589491605758667 0.003921568859369
22.630537033081055 -9.037227630615234 6.486367702484131 0.003921568859369
23.305828094482422 -8.114572525024414 0.709016740322113 0.003921568859369
14.657675743103027 -5.893367290496826 4.191343307495117 0.003921568859369
21.021055221557617 -9.692529678344727 4.190579891204834 0.003921568859369
23.020942687988281 -9.380933761596680 0.570294201374054 0.003921568859369
25.040634155273438 -10.208672523498535 7.202422142028809 0.003921568859369
25.744199752807617 -10.593531608581543 1.606701970100403 0.003921568859369
22.057075500488281 -9.066437721252441 2.904531955718994 0.003921568859369
22.218620300292969 -9.227690696716309 6.401046752929688 0.003921568859369
23.211643218994141 -8.436992645263672 0.708864927291870 0.003921568859369
24.816556930541992 -10.415883064270020 7.165685653686523 0.003921568859369
24.433387756347656 -10.349532127380371 3.234171867370605 0.003921568859369
24.710790634155273 -10.467268943786621 7.145003318786621 0.003921568859369
19.698572158813477 -9.653039932250977 1.774224281311035 0.003921568859369
20.137577056884766 -9.869609832763672 4.057545185089111 0.003921568859369
23.167026519775391 -10.100678443908691 0.579276144504547 0.003921568859369
20.991891860961914 -9.145294189453125 2.788235902786255 0.003921568859369
20.608383178710938 -10.195639610290527 4.160790443420410 0.003921568859369
22.197011947631836 -9.756591796875000 6.451811790466309 0.003921568859369
24.491830825805664 -11.078875541687012 7.157505512237549 0.003921568859369
20.038465499877930 -10.348821640014648 1.824646472930908 0.003921568859369
21.602293014526367 -9.862618446350098 6.318382740020752 0.003921568859369
23.239156723022461 -9.359812736511230 0.138733312487602 0.003921568859369
19.667484283447266 -10.228603363037109 4.009134769439697 0.003921568859369
20.402229309082031 -9.474295616149902 2.737687587738037 0.003921568859369
24.475809097290039 -12.865584373474121 2.239020109176636 0.003921568859369
3.954337596893311 -2.002507925033569 0.778268873691559 0.000000000000000
25.515930175781250 -13.752140998840332 2.347886323928833 0.003921568859369
21.282499313354492 -10.152327537536621 6.271389961242676 0.003921568859369
19.875566482543945 -10.691246986389160 4.082304000854492 0.003921568859369
21.554653167724609 -10.370654106140137 6.362451553344727 0.003921568859369
21.873613357543945 -11.868677139282227 4.504549980163574 0.003921568859369
20.399034500122070 -9.901935577392578 6.029307365417480 0.003921568859369
24.360536575317383 -13.454483985900879 5.040798187255859 0.003921568859369
20.002971649169922 -9.880831718444824 2.715375900268555 0.003921568859369
25.637876510620117 -14.282134056091309 2.377512693405151 0.003921568859369
19.934612274169922 -9.928718566894531 2.710518836975098 0.003921568859369
24.750436782836914 -13.891791343688965 2.298914670944214 0.003921568859369
20.009618759155273 -10.053281784057617 2.725623130798340 0.003921568859369
24.777999877929688 -14.020929336547852 2.306077718734741 0.003921568859369
20.539751052856445 -10.321352005004883 6.113162517547607 0.003921568859369
20.016830444335938 -10.144156455993652 2.731477260589600 0.003921568859369
24.836072921752930 -14.168300628662109 2.316164016723633 0.003921568859369
24.657154083251953 -14.174227714538574 2.302659749984741 0.003921568859369
21.428161621093750 -11.147871971130371 2.940377235412598 0.003921568859369
22.504833221435547 -11.712029457092285 6.749032497406006 0.003921568859369
22.473310470581055 -13.122990608215332 4.710650444030762 0.003921568859369
19.199300765991211 -10.063327789306641 2.636630058288574 0.003921568859369
22.776830673217773 -13.408646583557129 2.139009714126587 0.003921568859369
19.736825942993164 -11.604283332824707 4.140781879425049 0.003921568859369
22.680912017822266 -13.452821731567383 2.134153604507446 0.003921568859369
23.467687606811523 -13.922632217407227 4.940787315368652 0.003921568859369
21.539512634277344 -11.488326072692871 2.972062587738037 0.003921568859369
20.257188796997070 -12.099081039428711 1.908098697662354 0.003921568859369
20.092853546142578 -10.709585189819336 6.052778720855713 0.003921568859369
20.355089187622070 -12.157569885253906 4.289196014404297 0.003921568859369
23.263860702514648 -12.513880729675293 7.029475212097168 0.003921568859369
20.208370208740234 -12.256278038024902 1.911376237869263 0.003921568859369
10.929802894592285 -5.876213073730469 3.278978586196899 0.000000000000000
19.638692855834961 -10.730482101440430 1.288623929023743 0.003921568859369
10.860816955566406 -5.889453411102295 3.264501571655273 0.000000000000000
19.302824020385742 -10.628125190734863 1.268694639205933 0.003921568859369
22.110416412353516 -12.389706611633301 1.460960388183594 0.003921568859369
19.460750579833984 -10.892482757568359 2.713651657104492 0.003921568859369
22.759336471557617 -12.755198478698730 6.942646980285645 0.003921568859369
20.279970169067383 -11.442935943603516 2.832964181900024 0.003921568859369
21.992042541503906 -13.870444297790527 4.705320358276367 0.003921568859369
21.807661056518555 -13.859391212463379 4.675949096679688 0.003921568859369
22.078155517578125 -12.669450759887695 6.770459175109863 0.003921568859369
22.920751571655273 -14.797892570495605 4.939057350158691 0.003921568859369
21.463201522827148 -12.613962173461914 1.434143781661987 0.003921568859369
24.270990371704102 -14.278303146362305 3.430808067321777 0.003921568859369
21.644859313964844 -14.181590080261230 4.683190822601318 0.003921568859369
20.599084854125977 -12.188096046447754 2.912889957427979 0.003921568859369
19.704801559448242 -11.933095932006836 2.802924871444702 0.003921568859369
21.355335235595703 -13.043176651000977 6.655755519866943 0.003921568859369
21.867683410644531 -13.463521957397461 6.831657409667969 0.003921568859369
21.513362884521484 -14.734528541564941 4.719859600067139 0.003921568859369
19.954648971557617 -12.462698936462402 2.861932277679443 0.003921568859369
20.226667404174805 -12.929455757141113 2.920883655548096 0.003921568859369
7.160966396331787 -4.562506198883057 2.227424144744873 0.000000000000000
21.050008773803711 -13.767196655273438 3.061613559722900 0.003921568859369
20.036548614501953 -13.297916412353516 2.926329612731934 0.003921568859369
8.191942214965820 -5.722019672393799 2.628673076629639 0.000000000000000
8.613676071166992 -6.068708419799805 2.774556398391724 0.000000000000000
16.053512573242188 -12.844045639038086 1.659710526466370 0.003921568859369
8.483815193176270 -6.063333511352539 2.745606184005737 0.000000000000000
8.400413513183594 -6.046313762664795 2.724923372268677 0.000000000000000
8.363748550415039 -6.063359260559082 2.719758987426758 0.000000000000000
8.320248603820801 -6.068548202514648 2.709160566329956 0.000000000000000
8.323693275451660 -6.115419864654541 2.717446327209473 0.000000000000000
15.988320350646973 -13.340241432189941 3.760793924331665 0.003921568859369
15.903367996215820 -13.367341995239258 3.752213239669800 0.003921568859369
15.848649024963379 -13.411216735839844 1.675738930702209 0.003921568859369
13.907818794250488 -11.913355827331543 1.476360797882080 0.000000000000000
15.568752288818359 -13.448047637939453 1.660532951354980 0.003921568859369
16.873172760009766 -14.693563461303711 1.807359337806702 0.003921568859369
16.842647552490234 -14.770159721374512 1.809654831886292 0.003921568859369
16.101600646972656 -14.211464881896973 1.734322786331177 0.003921568859369
5.395245552062988 -4.197130680084229 1.783309459686279 0.000000000000000
15.862107276916504 -14.087936401367188 1.712225556373596 0.003921568859369
15.966381072998047 -14.281732559204102 1.729135751724243 0.003921568859369
16.392316818237305 -13.476420402526855 5.633752822875977 0.003921568859369
15.418200492858887 -14.077339172363281 1.685032486915588 0.003921568859369
16.345172882080078 -13.532778739929199 5.633774280548096 0.003921568859369
14.667864799499512 -13.381406784057617 3.584373950958252 0.003921568859369
16.436519622802734 -13.706209182739258 5.682420253753662 0.003921568859369
14.020869255065918 -13.144778251647949 3.469048976898193 0.003921568859369
14.970414161682129 -12.825287818908691 2.393818616867065 0.003921568859369
16.327644348144531 -14.093459129333496 5.728049755096436 0.003921568859369
13.161916732788086 -12.578818321228027 3.284880876541138 0.003921568859369
15.571577072143555 -15.023447990417480 1.746578812599182 0.003921568859369
15.056006431579590 -14.517580032348633 3.777033329010010 0.003921568859369
13.078322410583496 -12.670225143432617 0.729441046714783 0.003921568859369
15.685791969299316 -13.818547248840332 2.539092779159546 0.003921568859369
15.044734954833984 -13.244126319885254 5.318070888519287 0.003921568859369
12.903730392456055 -12.496883392333984 3.239450454711914 0.003921568859369
16.501663208007812 -16.158390045166016 1.865499854087830 0.003921568859369
15.620784759521484 -13.950086593627930 2.544005155563354 0.003921568859369
15.715607643127441 -15.479065895080566 3.985697031021118 0.003921568859369
13.096444129943848 -12.952136039733887 0.738096594810486 0.003921568859369
16.308935165405273 -14.783452033996582 5.845794200897217 0.003921568859369
14.472300529479980 -14.538499832153320 1.655454397201538 0.003921568859369
16.319366455078125 -14.891802787780762 5.867543697357178 0.003921568859369
15.555359840393066 -14.289257049560547 5.607888221740723 0.003921568859369
15.009617805480957 -15.197057723999023 3.858918666839600 0.003921568859369
14.210713386535645 -13.119002342224121 2.347950458526611 0.003921568859369
16.928010940551758 -17.278047561645508 4.374348640441895 0.003921568859369
15.508559226989746 -14.446324348449707 5.627592086791992 0.003921568859369
16.834300994873047 -17.313627243041992 4.367210388183594 0.003921568859369
13.858893394470215 -12.978570938110352 1.090066432952881 0.000000000000000
17.728841781616211 -16.877613067626953 2.977083206176758 0.003921568859369
15.746113777160645 -15.072867393493652 5.787703514099121 0.003921568859369
14.985185623168945 -15.918948173522949 1.765112042427063 0.003921568859369
12.719368934631348 -13.572278022766113 1.499442458152771 0.000000000000000
5.463075160980225 -5.716284275054932 1.407927989959717 0.000000000000000
13.532151222229004 -14.856111526489258 3.628784656524658 0.003921568859369
16.063098907470703 -16.253238677978516 6.071393966674805 0.003921568859369
13.566968917846680 -13.786654472351074 2.348428487777710 0.003921568859369
12.257277488708496 -13.713861465454102 1.483031868934631 0.000000000000000
16.084011077880859 -16.505357742309570 2.802641630172729 0.003921568859369
13.194528579711914 -13.585506439208984 2.298027276992798 0.003921568859369
13.745226860046387 -14.462140083312988 5.294233322143555 0.003921568859369
13.846944808959961 -16.419904708862305 3.881108760833740 0.003921568859369
12.134145736694336 -13.192109107971191 1.028260827064514 0.003921568859369
11.945627212524414 -13.069135665893555 2.147816896438599 0.003921568859369
11.664426803588867 -14.082253456115723 3.299788713455200 0.003921568859369
12.500217437744141 -15.326511383056641 1.596115708351135 0.000000000000000
11.636582374572754 -14.445966720581055 1.495504498481750 0.000000000000000
11.446164131164551 -14.203058242797852 3.291012287139893 0.003921568859369
16.138813018798828 -20.304969787597656 4.693291664123535 0.003921568859369
13.575109481811523 -17.144176483154297 3.952047348022461 0.003921568859369
11.241050720214844 -14.556401252746582 0.737332820892334 0.003921568859369
12.058258056640625 -15.982871055603027 3.616733551025391 0.003921568859369
11.411127090454102 -14.239973068237305 2.214426517486572 0.003921568859369
4.421952247619629 -5.347469329833984 0.153343886137009 0.000000000000000
14.401536941528320 -20.143949508666992 2.002564907073975 0.003921568859369
12.300045967102051 -17.283756256103516 1.713406085968018 0.003921568859369
14.645838737487793 -20.650745391845703 4.581735134124756 0.003921568859369
10.976506233215332 -13.983983993530273 2.157054185867310 0.003921568859369
14.108251571655273 -20.027479171752930 4.432642936706543 0.003921568859369
12.461413383483887 -16.270721435546875 5.442460536956787 0.003921568859369
13.794188499450684 -20.018089294433594 4.399054527282715 0.003921568859369
11.508177757263184 -15.111448287963867 1.091014027595520 0.003921568859369
10.892859458923340 -15.845583915710449 1.552054405212402 0.000000000000000
11.663621902465820 -16.993169784545898 3.725116252899170 0.003921568859369
11.297458648681641 -16.684778213500977 3.640320301055908 0.003921568859369
11.738475799560547 -15.750060081481934 2.385827541351318 0.003921568859369
13.617056846618652 -20.349681854248047 4.430477619171143 0.003921568859369
13.284891128540039 -17.994152069091797 1.286657214164734 0.003921568859369
10.489281654357910 -15.820896148681641 1.531808137893677 0.003921568859369
10.398633956909180 -15.789144515991211 1.525660276412964 0.003921568859369
11.780956268310547 -16.281448364257812 2.441946268081665 0.003921568859369
10.924156188964844 -15.167947769165039 4.960275650024414 0.003921568859369
11.149005889892578 -17.220998764038086 3.707907915115356 0.003921568859369
10.479666709899902 -16.294733047485352 1.564102172851562 0.003921568859369
11.323957443237305 -17.640922546386719 3.789683580398560 0.003921568859369
13.690008163452148 -19.404664993286133 1.367379665374756 0.003921568859369
10.593176841735840 -16.604534149169922 1.590458750724792 0.000000000000000
10.766208648681641 -17.008510589599609 1.625915408134460 0.003921568859369
12.287222862243652 -19.634807586669922 1.873293280601501 0.003921568859369
11.800362586975098 -17.036472320556641 2.518815279006958 0.003921568859369
10.580505371093750 -16.963777542114258 1.614369511604309 0.000000000000000
10.408089637756348 -16.811788558959961 1.596526622772217 0.000000000000000
13.564266204833984 -19.791141510009766 6.379899501800537 0.003921568859369
10.720602035522461 -17.452585220336914 3.702162981033325 0.003921568859369
12.237421989440918 -18.081478118896484 2.655264616012573 0.003921568859369
10.825268745422363 -16.068363189697266 1.113281250000000 0.003921568859369
11.056443214416504 -18.310285568237305 3.867874145507812 0.003921568859369
10.784998893737793 -16.123313903808594 1.114703774452209 0.000000000000000
10.233947753906250 -17.187789916992188 1.615867495536804 0.000000000000000
11.532024383544922 -19.587104797363281 1.838242053985596 0.003921568859369
11.468977928161621 -19.627763748168945 1.838603138923645 0.003921568859369
11.428339004516602 -19.724170684814453 1.843844175338745 0.003921568859369
10.280755996704102 -15.957399368286133 1.090960383415222 0.000000000000000
10.476396560668945 -18.187536239624023 1.696620821952820 0.003921568859369
12.795891761779785 -19.967107772827148 6.307816028594971 0.003921568859369
10.449619293212891 -18.416986465454102 1.711420655250549 0.003921568859369
10.378368377685547 -18.437511444091797 3.826379299163818 0.003921568859369
10.283983230590820 -18.566251754760742 1.715756058692932 0.003921568859369
11.553319931030273 -18.672622680664062 5.836908340454102 0.003921568859369
8.040830612182617 -14.526020050048828 1.338996052742004 0.000000000000000
12.260322570800781 -20.010274887084961 6.241570949554443 0.003921568859369
12.208141326904297 -20.081830978393555 6.250925064086914 0.003921568859369
10.208273887634277 -18.743495941162109 3.860949993133545 0.003921568859369
12.256875991821289 -20.320550918579102 2.889345884323120 0.003921568859369
11.500286102294922 -19.032550811767578 5.912567138671875 0.003921568859369
6.549194335937500 -10.715650558471680 3.320279121398926 0.000000000000000
10.465809822082520 -19.559350967407227 4.014494419097900 0.003921568859369
11.868365287780762 -19.986522674560547 2.830009460449219 0.003921568859369
