# This PCD file was generated using the MATLAB® pcwrite function
# from Computer Vision Toolbox®.
# .PCD v.7 - Point Cloud Data file format
VERSION .7
FIELDS x y z intensity
SIZE 8 8 8 8
TYPE F F F F
COUNT 1 1 1 1
WIDTH 643
HEIGHT 1
VIEWPOINT 0 0 0 1 0 0 0
POINTS 643
DATA ascii
-7.752050876617432 10.619934082031250 -0.669119656085968 0.000000000000000
-8.395998001098633 10.489124298095703 -0.914689242839813 0.000000000000000
-6.926857471466064 10.564568519592285 -0.715613424777985 0.000000000000000
-7.700505733489990 10.616740226745605 -0.667456805706024 0.000000000000000
-16.105636596679688 22.803583145141602 2.276711940765381 0.003921568859369
-8.359333038330078 10.517046928405762 -0.914685726165771 0.000000000000000
-6.856466293334961 10.532939910888672 -0.711919605731964 0.000000000000000
-7.647604942321777 10.619161605834961 -0.666001379489899 0.000000000000000
-4.806384086608887 5.879608631134033 -0.508772730827332 0.000000000000000
-6.813651084899902 10.549798965454102 -0.711456656455994 0.000000000000000
-7.595161914825439 10.625911712646484 -0.664753437042236 0.000000000000000
-8.240848541259766 10.516369819641113 -0.909687995910645 0.000000000000000
-6.772644519805908 10.565370559692383 -0.710993826389313 0.000000000000000
-7.542389869689941 10.627856254577637 -0.663298189640045 0.000000000000000
-8.248749732971191 10.600056648254395 -0.914675533771515 0.000000000000000
-6.708783626556396 10.538592338562012 -0.707761943340302 0.000000000000000
-7.491553783416748 10.628316879272461 -0.661843121051788 0.000000000000000
-8.209838867187500 10.628836631774902 -0.914672136306763 0.000000000000000
-6.661932945251465 10.548005104064941 -0.706837594509125 0.000000000000000
-7.439286231994629 10.634354591369629 -0.660595417022705 0.000000000000000
-7.939465522766113 10.337249755859375 -0.887220501899719 0.000000000000000
-6.625072956085205 10.569876670837402 -0.706836521625519 0.000000000000000
-7.386734485626221 10.635590553283691 -0.659140408039093 0.000000000000000
-16.349777221679688 21.834716796875000 7.264808654785156 0.003921568859369
-7.969856262207031 10.466881752014160 -0.896255552768707 0.000000000000000
-6.575596809387207 10.584711074829102 -0.706536114215851 0.000000000000000
-7.338878631591797 10.656624794006348 -0.659096121788025 0.000000000000000
-8.014931678771973 10.606651306152344 -0.905957818031311 0.000000000000000
-6.530574798583984 10.592505455017090 -0.705612003803253 0.000000000000000
-7.375569343566895 10.794817924499512 -0.666152477264404 0.000000000000000
-7.891458511352539 10.508640289306641 -0.895418107509613 0.000000000000000
-6.499404907226562 10.619794845581055 -0.706072747707367 0.000000000000000
-7.376510620117188 10.875076293945312 -0.669679820537567 0.000000000000000
-3.782462358474731 4.803146839141846 -0.406834423542023 0.000000000000000
-6.470227241516113 10.654992103576660 -0.706995248794556 0.000000000000000
-7.340651512145996 10.902839660644531 -0.669885694980621 0.000000000000000
-7.742486000061035 10.457836151123047 -0.886539399623871 0.000000000000000
-6.979735374450684 10.422347068786621 -0.999490082263947 0.000000000000000
-8.520350456237793 10.438309669494629 -0.840397298336029 0.000000000000000
-6.448875427246094 10.708536148071289 -0.709071695804596 0.000000000000000
-7.710506439208984 10.490052223205566 -0.887091398239136 0.000000000000000
-6.930566787719727 10.425115585327148 -0.997546136379242 0.000000000000000
-8.491194725036621 10.476166725158691 -0.841155946254730 0.000000000000000
-6.415369987487793 10.736655235290527 -0.709532678127289 0.000000000000000
-7.317764282226562 11.040349960327148 -0.675279617309570 0.003921568859369
-7.753515243530273 10.630321502685547 -0.896793901920319 0.000000000000000
-6.868794441223145 10.407374382019043 -0.993660092353821 0.000000000000000
-8.442402839660645 10.488636970520020 -0.839881896972656 0.000000000000000
-7.742737770080566 10.686314582824707 -0.899564504623413 0.000000000000000
-6.840261459350586 10.434521675109863 -0.994306325912476 0.000000000000000
-8.409404754638672 10.513950347900391 -0.839878737926483 0.000000000000000
-6.359511375427246 10.804460525512695 -0.711378037929535 0.000000000000000
-7.694503784179688 10.700096130371094 -0.898452877998352 0.000000000000000
-6.791529655456543 10.441187858581543 -0.992686331272125 0.000000000000000
-8.380464553833008 10.556065559387207 -0.840891480445862 0.000000000000000
-5.871716499328613 10.010932922363281 -0.657600998878479 0.003921568859369
-7.510933876037598 10.506510734558105 -0.880149960517883 0.000000000000000
-6.744404792785645 10.442008972167969 -0.990742862224579 0.000000000000000
-8.333401679992676 10.566632270812988 -0.839617788791656 0.000000000000000
-6.331726074218750 10.933666229248047 -0.717147231101990 0.003921568859369
-7.529997825622559 10.614080429077148 -0.887079715728760 0.000000000000000
-6.687254905700684 10.430100440979004 -0.987504541873932 0.000000000000000
-8.272547721862793 10.562408447265625 -0.837073504924774 0.000000000000000
-6.304915428161621 10.975489616394043 -0.718531727790833 0.003921568859369
-7.293102264404297 10.340587615966797 -0.862122178077698 0.000000000000000
-6.652860641479492 10.455506324768066 -0.987827062606812 0.000000000000000
-8.128518104553223 10.445721626281738 -0.825636029243469 0.000000000000000
-7.142407417297363 11.270127296447754 -0.680668652057648 0.003921568859369
-7.445340633392334 10.665024757385254 -0.887241303920746 0.000000000000000
-6.589646816253662 10.451049804687500 -0.985397517681122 0.000000000000000
-9.580927848815918 12.508106231689453 -0.986663877964020 0.000000000000000
-7.106855392456055 11.318878173828125 -0.682290852069855 0.000000000000000
-15.380701065063477 22.611190795898438 3.347668170928955 0.003921568859369
-7.409933567047119 10.688460350036621 -0.887239456176758 0.000000000000000
-6.546835422515869 10.457921981811523 -0.984101653099060 0.000000000000000
-9.560618400573730 12.567604064941406 -0.988947689533234 0.000000000000000
-7.154695034027100 11.485589981079102 -0.691010057926178 0.000000000000000
-15.288146972656250 22.634365081787109 3.343758821487427 0.003921568859369
-7.903582096099854 11.524344444274902 -0.954625129699707 0.000000000000000
-6.508274078369141 10.476013183593750 -0.983776986598969 0.000000000000000
-9.523732185363770 12.609328269958496 -0.989706695079803 0.000000000000000
-7.213619232177734 11.678051948547363 -0.701182663440704 0.000000000000000
-7.255034446716309 10.618143081665039 -0.877252340316772 0.000000000000000
-6.451783180236816 10.467463493347168 -0.980862438678741 0.000000000000000
-7.955200672149658 10.531677246093750 -0.824011743068695 0.000000000000000
-7.769039630889893 11.497525215148926 -0.947965621948242 0.000000000000000
-6.407228946685791 10.474851608276367 -0.979566752910614 0.000000000000000
-7.888179779052734 10.515927314758301 -0.820705354213715 0.000000000000000
-14.300814628601074 24.150281906127930 2.291247367858887 0.003921568859369
-7.044984817504883 10.449687004089355 -0.859501004219055 0.000000000000000
-6.358587265014648 10.470627784729004 -0.977299869060516 0.000000000000000
-7.834763050079346 10.514799118041992 -0.818669795989990 0.000000000000000
-6.249469757080078 11.554854393005371 -0.747089028358459 0.000000000000000
-7.034127712249756 10.513383865356445 -0.862827062606812 0.000000000000000
-7.761192321777344 10.488634109497070 -0.814601242542267 0.000000000000000
-6.963356018066406 10.482593536376953 -0.858388662338257 0.000000000000000
-6.273589611053467 10.491406440734863 -0.975356161594391 0.000000000000000
-7.761166572570801 10.566723823547363 -0.818664729595184 0.000000000000000
-6.928837776184082 10.508960723876953 -0.858664512634277 0.000000000000000
-6.229151248931885 10.498061180114746 -0.974060654640198 0.000000000000000
-7.769804000854492 10.658046722412109 -0.823744714260101 0.000000000000000
-6.885798931121826 10.521651268005371 -0.857831180095673 0.000000000000000
-6.182797431945801 10.501050949096680 -0.972441494464874 0.000000000000000
-7.680407524108887 10.608276367187500 -0.817897498607635 0.000000000000000
-6.832046031951904 10.512647628784180 -0.855334103107452 0.000000000000000
-6.155627727508545 10.534272193908691 -0.973736047744751 0.003921568859369
-8.466401100158691 11.831233978271484 -0.910395979881287 0.000000000000000
-13.804203987121582 24.438964843750000 5.100863933563232 0.003921568859369
-6.795542716979980 10.539704322814941 -0.855610072612762 0.000000000000000
-6.115062713623047 10.551943778991699 -0.973411977291107 0.003921568859369
-7.543329715728760 10.566677093505859 -0.810777604579926 0.000000000000000
-7.667943000793457 15.112622261047363 -0.967771530151367 0.003921568859369
-14.290435791015625 22.816286087036133 3.296830892562866 0.003921568859369
-13.916953086853027 24.859354019165039 2.326590299606323 0.003921568859369
-6.708864688873291 10.493820190429688 -0.850224554538727 0.000000000000000
-7.513526439666748 10.614824295043945 -0.812719762325287 0.000000000000000
-7.603224277496338 15.130807876586914 -0.967514157295227 0.003921568859369
-14.294857978820801 23.017536163330078 3.318555355072021 0.003921568859369
-13.785284042358398 24.839107513427734 5.163847446441650 0.003921568859369
-6.676304817199707 10.522784233093262 -0.850778222084045 0.000000000000000
-7.436452865600586 10.580050468444824 -0.808142960071564 0.000000000000000
-7.538371562957764 15.130776405334473 -0.965898990631104 0.003921568859369
-12.846767425537109 23.297670364379883 4.834483146667480 0.003921568859369
-6.661809921264648 10.577972412109375 -0.853550672531128 0.000000000000000
-7.407951831817627 10.613461494445801 -0.808903574943542 0.000000000000000
-7.491551399230957 15.161750793457031 -0.966361701488495 0.003921568859369
-7.349223613739014 10.609257698059082 -0.806614279747009 0.000000000000000
-7.427493095397949 15.169720649719238 -0.965208649635315 0.003921568859369
-7.290279865264893 10.600219726562500 -0.804070949554443 0.000000000000000
-7.361086845397949 15.165328979492188 -0.963362812995911 0.003921568859369
-6.470534324645996 10.510052680969238 -0.842731595039368 0.000000000000000
-7.227141380310059 10.584198951721191 -0.801019310951233 0.000000000000000
-7.296469211578369 15.164287567138672 -0.961748003959656 0.003921568859369
-6.427821636199951 10.520978927612305 -0.841898858547211 0.000000000000000
-5.952731609344482 10.895030975341797 -0.992350995540619 0.000000000000000
-7.170688629150391 10.577935218811035 -0.798730313777924 0.000000000000000
-7.233592987060547 15.166613578796387 -0.960364162921906 0.003921568859369
-6.387087345123291 10.535200119018555 -0.841343522071838 0.000000000000000
-5.950865745544434 10.985562324523926 -0.998826742172241 0.000000000000000
-7.082093715667725 10.520964622497559 -0.792629063129425 0.000000000000000
-7.165867805480957 15.157765388488770 -0.958287775516510 0.003921568859369
-6.346199989318848 10.544747352600098 -0.840510964393616 0.000000000000000
-7.053585529327393 10.553335189819336 -0.793390035629272 0.000000000000000
-7.099312782287598 15.143798828125000 -0.955980598926544 0.003921568859369
-6.305429458618164 10.558655738830566 -0.839955687522888 0.000000000000000
-7.001803874969482 10.553024291992188 -0.791609585285187 0.000000000000000
-7.041565418243408 15.156301498413086 -0.955289602279663 0.003921568859369
-6.270483016967773 10.582855224609375 -0.840232491493225 0.003921568859369
-6.947995185852051 10.549091339111328 -0.789574921131134 0.000000000000000
-6.975821495056152 15.150286674499512 -0.953444302082062 0.003921568859369
-6.235435009002686 10.606940269470215 -0.840509533882141 0.003921568859369
-6.911125183105469 10.572052955627441 -0.789573609828949 0.000000000000000
-6.911781787872314 15.147665977478027 -0.951829969882965 0.003921568859369
-6.863574028015137 10.591464042663574 -0.789481520652771 0.000000000000000
-6.842513084411621 15.152098655700684 -0.950878679752350 0.003921568859369
-6.805755615234375 10.580090522766113 -0.786938548088074 0.000000000000000
-6.735676765441895 10.547962188720703 -0.782870531082153 0.000000000000000
-6.675971984863281 10.528049468994141 -0.779819309711456 0.000000000000000
-7.580339431762695 15.223262786865234 -0.873916983604431 0.003921568859369
-6.618932723999023 10.520337104797363 -0.777530789375305 0.000000000000000
-6.578104019165039 10.535305023193359 -0.777021527290344 0.000000000000000
-6.531179428100586 10.539793968200684 -0.775749742984772 0.000000000000000
-6.079185485839844 11.052989006042480 -0.863137602806091 0.000000000000000
-6.488154411315918 10.546457290649414 -0.774732351303101 0.000000000000000
-6.077071189880371 11.143909454345703 -0.868685364723206 0.000000000000000
-6.445304870605469 10.557475090026855 -0.773969113826752 0.000000000000000
-6.070773124694824 11.227840423583984 -0.873678445816040 0.000000000000000
-6.408412933349609 10.578709602355957 -0.773968517780304 0.000000000000000
-6.073136329650879 11.325106620788574 -0.879781126976013 0.000000000000000
-6.355533599853516 10.567534446716309 -0.771680295467377 0.000000000000000
-11.669573783874512 27.196172714233398 2.419816970825195 0.003921568859369
-5.757139682769775 15.366825103759766 -0.940044999122620 0.003921568859369
-5.750739574432373 15.529879570007324 -0.948825120925903 0.003921568859369
-9.425582885742188 22.472080230712891 4.432612895965576 0.003921568859369
-5.723834991455078 15.627970695495605 -0.953679025173187 0.003921568859369
-10.414292335510254 25.168272018432617 2.226835250854492 0.003921568859369
-9.586359024047852 24.577165603637695 4.801889419555664 0.003921568859369
-4.380372047424316 9.622307777404785 -0.723649144172668 0.000000000000000
-9.928330421447754 26.913084030151367 2.346500873565674 0.003921568859369
-8.672657966613770 23.641475677490234 4.583998680114746 0.003921568859369
-4.845399379730225 9.964079856872559 -0.694868564605713 0.000000000000000
-3.247164726257324 7.460839271545410 -0.555088877677917 0.000000000000000
-1.578315973281860 3.273867845535278 -0.978587627410889 0.000000000000000
-1.569047212600708 3.285666465759277 -0.980741858482361 0.003921568859369
-7.208928108215332 21.152118682861328 4.067460536956787 0.003921568859369
-1.532554864883423 3.225338220596313 -0.961359620094299 0.000000000000000
-1.505142927169800 3.186241626739502 -0.948438227176666 0.000000000000000
-8.650577545166016 22.364252090454102 6.407467365264893 0.003921568859369
-7.101479053497314 21.339643478393555 4.094051361083984 0.003921568859369
-1.487122535705566 3.168272018432617 -0.941977858543396 0.000000000000000
-6.128355979919434 13.651458740234375 -0.942814588546753 0.000000000000000
-8.932216644287109 27.395790100097656 2.357891321182251 0.003921568859369
-1.467574834823608 3.150824069976807 -0.935517609119415 0.000000000000000
-3.025028467178345 6.425518035888672 -0.441853851079941 0.000000000000000
-1.451883554458618 3.140126943588257 -0.931210935115814 0.000000000000000
-1.828927755355835 3.619981527328491 -0.247572347521782 0.000000000000000
-1.433887720108032 3.126122713088989 -0.925827443599701 0.000000000000000
-1.406291484832764 3.082777500152588 -0.911829292774200 0.000000000000000
-1.384427547454834 3.079302310943604 -0.909758448600769 0.000000000000000
-7.656278133392334 24.889867782592773 2.130655050277710 0.003921568859369
-5.808442115783691 18.630456924438477 3.551692247390747 0.003921568859369
-1.368640780448914 3.068471431732178 -0.905451655387878 0.000000000000000
-1.349741339683533 3.046449184417725 -0.897914230823517 0.000000000000000
-7.506531715393066 25.008266448974609 2.136525392532349 0.003921568859369
-1.334167242050171 3.035464286804199 -0.893607437610626 0.000000000000000
-1.322343111038208 3.035370349884033 -0.892531275749207 0.000000000000000
-1.296049594879150 2.991329431533813 -0.878532707691193 0.000000000000000
-1.289848685264587 3.009578466415405 -0.882840991020203 0.000000000000000
-1.275134086608887 2.998147964477539 -0.878534197807312 0.000000000000000
-1.258817672729492 2.983147859573364 -0.873150646686554 0.000000000000000
-1.243773221969604 2.971745729446411 -0.868843853473663 0.000000000000000
-6.172480583190918 22.421096801757812 4.236768722534180 0.003921568859369
-1.230479121208191 2.963793039321899 -0.865614056587219 0.000000000000000
-1.211697340011597 2.941370248794556 -0.858076691627502 0.000000000000000
-1.188385486602783 2.929775238037109 -0.853850305080414 0.000000000000000
-1.184187293052673 2.951155662536621 -0.859235644340515 0.000000000000000
-1.173876523971558 2.954222917556763 -0.859236478805542 0.000000000000000
-1.158726215362549 2.942611694335938 -0.854929745197296 0.000000000000000
-1.145762205123901 2.934336185455322 -0.851699769496918 0.000000000000000
-1.133403778076172 2.929858207702637 -0.849546790122986 0.000000000000000
-1.121617317199707 2.929182291030884 -0.848470747470856 0.000000000000000
-1.111895322799683 2.931889295578003 -0.848471581935883 0.000000000000000
-1.101653575897217 2.934703826904297 -0.848472476005554 0.000000000000000
-1.083388924598694 2.907724857330322 -0.839858114719391 0.000000000000000
-1.078174114227295 2.929056644439697 -0.845243573188782 0.000000000000000
-1.065014481544495 2.920573472976685 -0.842013716697693 0.000000000000000
-1.045298099517822 2.919514417648315 -0.841017425060272 0.000000000000000
-1.032250165939331 2.910926103591919 -0.837787389755249 0.000000000000000
-1.019271373748779 2.902282714843750 -0.834557414054871 0.000000000000000
-1.012827038764954 2.919764280319214 -0.838866293430328 0.000000000000000
-0.998075306415558 2.903547525405884 -0.833482444286346 0.000000000000000
-0.984848976135254 2.890888690948486 -0.829175472259521 0.000000000000000
-0.975254774093628 2.893171310424805 -0.829176425933838 0.000000000000000
-0.965009152889252 2.899526596069336 -0.830254554748535 0.000000000000000
-0.953165292739868 2.894347429275513 -0.828101575374603 0.000000000000000
-5.656002044677734 23.485841751098633 6.466551780700684 0.003921568859369
-0.943559765815735 2.896524667739868 -0.828102588653564 0.000000000000000
-0.931776404380798 2.891259908676147 -0.825949728488922 0.000000000000000
-0.924642384052277 2.904657840728760 -0.829181551933289 0.000000000000000
-4.749623775482178 20.469982147216797 5.623765468597412 0.003921568859369
-4.307664871215820 24.034368515014648 4.453834533691406 0.003921568859369
-0.901896476745605 2.888035297393799 -0.823876738548279 0.000000000000000
-0.890511512756348 2.886513710021973 -0.822800815105438 0.000000000000000
-0.880428194999695 2.888616323471069 -0.822801887989044 0.000000000000000
-0.868541598320007 2.879255056381226 -0.819571852684021 0.000000000000000
-4.086019515991211 24.889583587646484 2.066061019897461 0.003921568859369
-0.856473803520203 2.873825311660767 -0.817418992519379 0.000000000000000
-0.844955801963806 2.868247747421265 -0.815266072750092 0.000000000000000
-0.837395310401917 2.877564191818237 -0.817421078681946 0.000000000000000
-0.827556729316711 2.883361339569092 -0.818499207496643 0.000000000000000
-0.815579771995544 2.877760887145996 -0.816346406936646 0.000000000000000
-4.116272926330566 20.728254318237305 2.597702980041504 0.003921568859369
-0.804841399192810 2.875810861587524 -0.815270543098450 0.000000000000000
-0.796476006507874 2.881228446960449 -0.816348612308502 0.000000000000000
-0.786413073539734 2.883002042770386 -0.816349744796753 0.000000000000000
-0.766783118247986 2.884935140609741 -0.816429376602173 0.000000000000000
-0.753900587558746 2.863670110702515 -0.809967994689941 0.000000000000000
-0.744139671325684 2.873092651367188 -0.812123417854309 0.000000000000000
-0.733280062675476 2.863142490386963 -0.808893263339996 0.000000000000000
-0.724472522735596 2.872337818145752 -0.811048626899719 0.000000000000000
-0.711029410362244 2.854926824569702 -0.805664598941803 0.000000000000000
-0.700488626956940 2.852622270584106 -0.804588615894318 0.000000000000000
-0.692691206932068 2.865454673767090 -0.807821035385132 0.000000000000000
-0.681055665016174 2.855454921722412 -0.804591000080109 0.000000000000000
-0.670553922653198 2.853040218353271 -0.803515255451202 0.000000000000000
-0.663700044155121 2.881195306777954 -0.811056077480316 0.000000000000000
-2.446115970611572 25.396778106689453 2.091054677963257 0.003921568859369
-0.652632355690002 2.874897241592407 -0.808903157711029 0.000000000000000
-2.079622268676758 22.019519805908203 4.037632465362549 0.003921568859369
-0.632568597793579 2.860873699188232 -0.804673790931702 0.000000000000000
-0.623052537441254 2.865958690643311 -0.805752217769623 0.000000000000000
-0.614391922950745 2.882544994354248 -0.810061991214752 0.000000000000000
-0.604882299900055 2.879799365997314 -0.808986008167267 0.000000000000000
-0.590456485748291 2.842690467834473 -0.798216104507446 0.000000000000000
-0.582646369934082 2.862949609756470 -0.803603053092957 0.000000000000000
-0.572647154331207 2.864037513732910 -0.803604364395142 0.000000000000000
-0.562937498092651 2.872805595397949 -0.805760025978088 0.000000000000000
-0.552640438079834 2.866107702255249 -0.803607046604156 0.000000000000000
-0.541890621185303 2.859421968460083 -0.801454126834869 0.000000000000000
-2.511232137680054 23.291498184204102 6.279875278472900 0.003921568859369
-0.531761884689331 2.864249467849731 -0.802532672882080 0.000000000000000
-0.521415948867798 2.861322402954102 -0.801456868648529 0.000000000000000
-0.503358662128448 2.862177610397339 -0.801535487174988 0.000000000000000
-0.493177235126495 2.866898775100708 -0.802614092826843 0.000000000000000
-0.482561647891998 2.860023260116577 -0.800461173057556 0.000000000000000
-0.473074078559875 2.860754013061523 -0.800462424755096 0.000000000000000
-0.464187860488892 2.876858711242676 -0.804772436618805 0.000000000000000
-0.453616768121719 2.869875907897949 -0.802619516849518 0.000000000000000
-0.442347645759583 2.851322412490845 -0.797235071659088 0.000000000000000
-0.432627230882645 2.855795383453369 -0.798313617706299 0.000000000000000
-0.423152565956116 2.856360435485840 -0.798314988613129 0.000000000000000
-0.411425739526749 2.833868980407715 -0.791853368282318 0.000000000000000
0.817832171916962 24.709981918334961 -0.279130846261978 0.003921568859369
-0.402508616447449 2.853625535964966 -0.797240793704987 0.000000000000000
-0.393636256456375 2.877201557159424 -0.803705334663391 0.000000000000000
-1.333586931228638 22.767620086669922 6.116748332977295 0.003921568859369
-0.374190986156464 2.858441829681396 -0.798397600650787 0.000000000000000
-0.365177392959595 2.870388746261597 -0.801630616188049 0.000000000000000
1.165924906730652 24.676874160766602 -0.279260784387589 0.003921568859369
1.195775985717773 25.195827484130859 0.302465021610260 0.003921568859369
-0.355297565460205 2.874626398086548 -0.802709341049194 0.000000000000000
-0.345015525817871 2.882697105407715 -0.804865300655365 0.000000000000000
-0.335294067859650 2.894566774368286 -0.808098495006561 0.000000000000000
-0.324576497077942 2.871745347976685 -0.801636636257172 0.000000000000000
-0.314873337745667 2.864278078079224 -0.799483537673950 0.000000000000000
-0.305174142122269 2.879896640777588 -0.803794026374817 0.000000000000000
-0.295241445302963 2.887779235839844 -0.805950045585632 0.000000000000000
-0.284964799880981 2.872515678405762 -0.801642596721649 0.000000000000000
-0.274864017963409 2.864919900894165 -0.799489617347717 0.000000000000000
-0.264881491661072 2.868844985961914 -0.800568461418152 0.000000000000000
-0.246340870857239 2.888170242309570 -0.806032776832581 0.000000000000000
-0.236266329884529 2.880469083786011 -0.803879737854004 0.000000000000000
2.556079149246216 28.110458374023438 -0.319930642843246 0.003921568859369
-0.226153463125229 2.891993999481201 -0.807113170623779 0.000000000000000
1.068493604660034 24.315458297729492 -0.133357658982277 0.003921568859369
-0.216183796525002 2.876518487930298 -0.802805542945862 0.000000000000000
1.362133502960205 27.952707290649414 -0.153639927506447 0.003921568859369
-0.205865994095802 2.899528264999390 -0.809270799160004 0.000000000000000
-0.196038126945496 2.880131721496582 -0.803885996341705 0.000000000000000
2.621464252471924 25.191366195678711 -0.287002056837082 0.003921568859369
-0.186774879693985 2.891533136367798 -0.807119309902191 0.000000000000000
1.248940825462341 22.055330276489258 4.038324356079102 0.003921568859369
-0.176424711942673 2.902882099151611 -0.810352742671967 0.000000000000000
1.915678858757019 28.870599746704102 -0.833325684070587 0.003921568859369
-0.166079461574554 2.891075849533081 -0.807122588157654 0.000000000000000
0.358324438333511 23.272377014160156 6.246581077575684 0.003921568859369
-0.156044930219650 2.906215906143188 -0.811433255672455 0.000000000000000
2.927324295043945 24.860280990600586 0.299806892871857 0.003921568859369
-0.145135372877121 2.898170709609985 -0.809280455112457 0.000000000000000
-0.135890811681747 2.901706933975220 -0.810359239578247 0.000000000000000
-0.117812752723694 2.885954618453979 -0.806127727031708 0.000000000000000
-0.106745086610317 2.908631086349487 -0.812593340873718 0.000000000000000
-0.096949532628059 2.900480985641479 -0.810440301895142 0.000000000000000
2.008790969848633 23.433425903320312 1.929387450218201 0.003921568859369
-0.086630374193192 2.903840303421021 -0.811519265174866 0.000000000000000
3.348000049591064 24.064571380615234 0.290771454572678 0.003921568859369
-0.076287522912025 2.907162666320801 -0.812598288059235 0.000000000000000
-0.065261587500572 2.921986103057861 -0.816909372806549 0.000000000000000
1.180335044860840 24.784006118774414 0.585699260234833 0.003921568859369
1.221841573715210 25.510019302368164 1.496335864067078 0.003921568859369
1.382334828376770 28.333606719970703 -0.651483476161957 0.003921568859369
-0.055524334311485 2.913696527481079 -0.814756274223328 0.000000000000000
-0.045106992125511 2.916908264160156 -0.815835356712341 0.000000000000000
-0.035182073712349 2.912395477294922 -0.814759612083435 0.000000000000000
4.338012218475342 27.423137664794922 -0.315433233976364 0.003921568859369
1.614086747169495 27.353595733642578 -0.629344165325165 0.003921568859369
2.832834720611572 25.508953094482422 -0.739774584770203 0.003921568859369
-0.025523424148560 2.911727666854858 -0.814761221408844 0.000000000000000
1.436909556388855 23.561525344848633 0.557338118553162 0.003921568859369
1.537294507026672 24.981876373291016 -0.574761688709259 0.003921568859369
-0.013992741703987 2.922477006912231 -0.817995190620422 0.000000000000000
3.514516353607178 29.405054092407227 -0.853841543197632 0.003921568859369
-0.004088833928108 2.917858362197876 -0.816919565200806 0.000000000000000
4.222492694854736 25.105354309082031 -0.289190262556076 0.003921568859369
1.860003352165222 26.814479827880859 -0.617422521114349 0.003921568859369
0.015403822064400 2.932473421096802 -0.821306705474854 0.000000000000000
4.514936447143555 26.200279235839844 0.317620575428009 0.003921568859369
1.838027954101562 25.340669631958008 -0.583809435367584 0.003921568859369
0.024337038397789 2.916269063949585 -0.816998779773712 0.000000000000000
1.902961492538452 25.054109573364258 0.592852473258972 0.003921568859369
0.033162832260132 2.900038480758667 -0.812690913677216 0.000000000000000
0.044695347547531 2.914470195770264 -0.817002236843109 0.000000000000000
2.463868618011475 29.239791870117188 0.691981434822083 0.003921568859369
2.372562646865845 28.248573303222656 -0.651651442050934 0.003921568859369
0.055967420339584 2.925021409988403 -0.820236086845398 0.000000000000000
0.068074464797974 2.943196535110474 -0.825624823570251 0.000000000000000
0.078740686178207 2.945994138717651 -0.826704084873199 0.000000000000000
0.088212460279465 2.937260866165161 -0.824550986289978 0.000000000000000
1.102616906166077 23.343414306640625 0.687915384769440 0.003921568859369
0.101818889379501 2.966790437698364 -0.833172023296356 0.000000000000000
0.110878467559814 2.954154491424561 -0.829941570758820 0.000000000000000
3.967063188552856 25.174133300781250 -0.735272884368896 0.003921568859369
0.120299816131592 2.945317745208740 -0.827788591384888 0.000000000000000
1.489912986755371 25.453050613403320 0.156171023845673 0.003921568859369
0.133336156606674 2.967048883438110 -0.834254920482635 0.000000000000000
0.150829538702965 2.954346179962158 -0.831100106239319 0.000000000000000
4.373980522155762 26.427337646484375 -0.148435115814209 0.003921568859369
0.164541706442833 2.979802608489990 -0.838643968105316 0.000000000000000
0.172946944832802 2.963181972503662 -0.834335982799530 0.000000000000000
0.184828922152519 2.973264694213867 -0.837570190429688 0.000000000000000
4.416919708251953 24.653413772583008 -0.723024606704712 0.003921568859369
0.194688096642494 2.971924304962158 -0.837571918964386 0.000000000000000
0.205062672495842 2.970477104187012 -0.837573707103729 0.000000000000000
3.011050462722778 16.841672897338867 3.132113218307495 0.003921568859369
0.218190088868141 2.988056421279907 -0.842962861061096 0.000000000000000
3.621140718460083 26.487752914428711 -0.615215301513672 0.003921568859369
0.226923957467079 2.975096464157104 -0.839732289314270 0.000000000000000
0.240201756358147 2.992578983306885 -0.845121443271637 0.000000000000000
4.810991764068604 24.396520614624023 -0.718022584915161 0.003921568859369
0.251238524913788 2.994779825210571 -0.846200883388519 0.000000000000000
0.262902677059174 3.000744104385376 -0.848357737064362 0.000000000000000
0.275232493877411 3.010465383529663 -0.851592063903809 0.000000000000000
2.555276393890381 24.538862228393555 0.150800257921219 0.003921568859369
5.509429931640625 26.347145080566406 -0.777598381042480 0.003921568859369
0.297461748123169 3.027766942977905 -0.857057213783264 0.000000000000000
3.857651472091675 24.440837860107422 0.583372950553894 0.003921568859369
0.304806530475616 3.007002353668213 -0.851671576499939 0.000000000000000
0.880903542041779 4.925350666046143 0.922511458396912 0.000000000000000
0.317275643348694 3.016587257385254 -0.854905962944031 0.000000000000000
0.333175897598267 3.045087337493896 -0.863527953624725 0.000000000000000
4.178054809570312 24.763422012329102 -0.578358054161072 0.003921568859369
0.345858752727509 3.054559230804443 -0.866762459278107 0.000000000000000
2.929237365722656 24.008928298950195 0.711537420749664 0.003921568859369
0.360706031322479 3.075345039367676 -0.873229503631592 0.000000000000000
6.924261093139648 24.800777435302734 0.306909143924713 0.003921568859369
3.572384595870972 16.056089401245117 3.012572050094604 0.003921568859369
0.370017170906067 3.065776586532593 -0.871076464653015 0.000000000000000
0.385786175727844 3.090230941772461 -0.878621041774750 0.000000000000000
2.643143653869629 11.738810539245605 2.206692218780518 0.000000000000000
0.401190936565399 3.114718675613403 -0.886165618896484 0.000000000000000
0.415812313556671 3.131471872329712 -0.891555309295654 0.000000000000000
7.235352039337158 24.600713729858398 -0.292836010456085 0.003921568859369
0.431321263313293 3.151937007904053 -0.898022532463074 0.000000000000000
3.021024227142334 15.956933021545410 4.367622375488281 0.003921568859369
0.448530137538910 3.179878234863281 -0.906644821166992 0.000000000000000
0.472917616367340 3.200226545333862 -0.913188636302948 0.000000000000000
7.282930374145508 23.826995849609375 -0.284771054983139 0.003921568859369
0.488901495933533 3.220472335815430 -0.919656038284302 0.000000000000000
7.133203029632568 27.684038162231445 5.228645801544189 0.003921568859369
0.502588987350464 3.229351282119751 -0.922890841960907 0.000000000000000
7.505429267883301 23.949344635009766 -0.286915898323059 0.003921568859369
0.517175853252411 3.241935253143311 -0.927203238010406 0.000000000000000
7.310816287994385 27.575233459472656 5.217834949493408 0.003921568859369
7.155234813690186 26.282743453979492 -0.787744879722595 0.003921568859369
7.831398010253906 23.816724777221680 -0.286710411310196 0.003921568859369
4.113967418670654 23.890897750854492 0.712972044944763 0.003921568859369
7.549789905548096 27.320964813232422 5.184741973876953 0.003921568859369
7.968709945678711 23.947551727294922 -0.288655489683151 0.003921568859369
6.352777004241943 27.859981536865234 3.521229267120361 0.003921568859369
7.885276794433594 28.129571914672852 5.343439102172852 0.003921568859369
7.985633850097656 28.108745574951172 5.344855785369873 0.003921568859369
6.542090415954590 27.835224151611328 3.523635625839233 0.003921568859369
8.109475135803223 28.203691482543945 5.367819309234619 0.003921568859369
6.663032531738281 27.887439727783203 3.533380270004272 0.003921568859369
7.826673507690430 26.881481170654297 2.296832799911499 0.003921568859369
8.174453735351562 27.691537857055664 5.281599044799805 0.003921568859369
8.129576683044434 27.189638137817383 5.190841197967529 0.003921568859369
8.417695999145508 27.784404754638672 5.310032367706299 0.003921568859369
7.790749073028564 25.433744430541992 -0.769755065441132 0.003921568859369
4.790523529052734 23.795419692993164 0.147375017404556 0.003921568859369
6.776556491851807 26.701894760131836 3.394893884658813 0.003921568859369
8.573429107666016 27.587102890014648 5.284140586853027 0.003921568859369
8.896312713623047 23.905441284179688 -0.292176514863968 0.003921568859369
9.052724838256836 24.051197052001953 -0.294400900602341 0.003921568859369
9.055673599243164 24.058534622192383 0.305628269910812 0.003921568859369
7.395728111267090 27.497611999511719 3.509053230285645 0.003921568859369
8.823721885681152 27.377967834472656 5.261820316314697 0.003921568859369
7.101346492767334 26.433080673217773 -0.631723761558533 0.003921568859369
9.925642967224121 26.050733566284180 0.331226408481598 0.003921568859369
7.389048099517822 27.103916168212891 3.462171316146851 0.003921568859369
8.796136856079102 26.976739883422852 5.190707206726074 0.003921568859369
9.873386383056641 25.650365829467773 0.326583832502365 0.003921568859369
8.851313591003418 26.829610824584961 5.168426513671875 0.003921568859369
9.420773506164551 28.212039947509766 2.439536809921265 0.003921568859369
9.431866645812988 27.909029006958008 2.416362524032593 0.003921568859369
11.039021492004395 27.466243743896484 0.351211309432983 0.003921568859369
7.317496776580811 25.121282577514648 -0.604260742664337 0.003921568859369
10.378509521484375 25.354742050170898 0.325202614068985 0.003921568859369
8.361639976501465 27.922105789184570 3.591633558273315 0.003921568859369
8.721637725830078 24.433320999145508 -0.751350998878479 0.003921568859369
10.426741600036621 24.965633392333984 0.321157902479172 0.003921568859369
0.596747398376465 2.387363433837891 0.674883723258972 0.000000000000000
9.002126693725586 23.922880172729492 -0.740438461303711 0.003921568859369
11.469227790832520 26.414665222167969 -0.330577462911606 0.003921568859369
11.702894210815430 26.691738128662109 -0.334601342678070 0.003921568859369
9.124924659729004 23.733716964721680 -0.736653506755829 0.003921568859369
11.100407600402832 25.090169906616211 0.325566947460175 0.003921568859369
11.767971038818359 26.329214096069336 -0.331145882606506 0.003921568859369
10.283505439758301 26.415510177612305 2.325215816497803 0.003921568859369
3.073820829391479 9.551822662353516 2.707259178161621 0.000000000000000
9.452036857604980 24.063447952270508 -0.749180197715759 0.003921568859369
9.513950347900391 24.217952728271484 -0.146495848894119 0.003921568859369
9.402538299560547 27.173110961914062 3.543326854705811 0.003921568859369
10.175083160400391 25.104106903076172 2.221889019012451 0.003921568859369
5.721665382385254 12.412174224853516 -0.796992123126984 0.000000000000000
12.765974998474121 26.993078231811523 -0.343242645263672 0.003921568859369
8.995159149169922 24.638299942016602 -0.606476724147797 0.003921568859369
7.464293956756592 23.799945831298828 0.150551229715347 0.003921568859369
5.911627292633057 12.369157791137695 -0.799582660198212 0.003921568859369
13.144130706787109 26.826328277587891 0.353837937116623 0.003921568859369
5.964028835296631 12.361084938049316 -0.800521075725555 0.000000000000000
11.350799560546875 26.127454757690430 -0.825807750225067 0.003921568859369
10.676074028015137 24.597143173217773 -0.151216059923172 0.003921568859369
6.039319515228271 12.403865814208984 -0.804708063602448 0.000000000000000
6.066020011901855 12.354684829711914 -0.802860736846924 0.000000000000000
11.437066078186035 26.085506439208984 5.211233615875244 0.003921568859369
6.065392017364502 12.225058555603027 -0.796041369438171 0.000000000000000
3.256993293762207 8.726119995117188 2.514279127120972 0.000000000000000
13.129972457885742 25.879074096679688 -0.333952546119690 0.003921568859369
11.629208564758301 26.010688781738281 -0.161023318767548 0.003921568859369
1.852380275726318 4.404086112976074 -0.393383413553238 0.000000000000000
6.073148250579834 12.037010192871094 -0.786543309688568 0.000000000000000
11.679387092590332 25.879594802856445 2.328378200531006 0.003921568859369
12.058584213256836 26.706937789916992 5.360281467437744 0.003921568859369
9.508216857910156 24.195114135742188 -0.601451814174652 0.003921568859369
13.598398208618164 26.325492858886719 0.350617468357086 0.003921568859369
6.137570858001709 12.053001403808594 -0.789106249809265 0.000000000000000
12.197888374328613 26.510835647583008 -0.165019497275352 0.003921568859369
13.641720771789551 26.185302734375000 0.349374800920486 0.003921568859369
5.792275905609131 11.296177864074707 -0.740836381912231 0.000000000000000
13.612019538879395 25.920530319213867 -0.337030291557312 0.003921568859369
13.810100555419922 26.073240280151367 -0.339679628610611 0.003921568859369
13.781847000122070 26.020229339599609 0.348394989967346 0.003921568859369
5.887888908386230 11.290579795837402 -0.743174731731415 0.003921568859369
12.293629646301270 26.245752334594727 5.302049636840820 0.003921568859369
12.768923759460449 27.006252288818359 -0.866420984268188 0.003921568859369
14.081771850585938 26.358451843261719 0.353544741868973 0.003921568859369
5.938658714294434 11.290466308593750 -0.744576334953308 0.000000000000000
10.691960334777832 25.836809158325195 3.446149826049805 0.003921568859369
12.425972938537598 26.287288665771484 5.319260597229004 0.003921568859369
14.095875740051270 26.155197143554688 -0.342120319604874 0.003921568859369
6.002934932708740 11.310101509094238 -0.747371077537537 0.003921568859369
12.676097869873047 26.560585021972656 2.413330316543579 0.003921568859369
12.475995063781738 26.145320892333984 5.299855709075928 0.003921568859369
6.103935241699219 11.400488853454590 -0.754808068275452 0.000000000000000
12.903305053710938 26.791513442993164 2.438406705856323 0.003921568859369
12.394701004028320 25.747362136840820 5.228042602539062 0.003921568859369
10.179419517517090 24.133592605590820 -0.606198191642761 0.003921568859369
12.943400382995605 26.650480270385742 -0.859411954879761 0.003921568859369
6.164933681488037 11.421560287475586 -0.757602214813232 0.000000000000000
11.261006355285645 26.415180206298828 -0.664612412452698 0.003921568859369
11.646117210388184 27.045551300048828 0.691887795925140 0.003921568859369
6.220335483551025 11.427294731140137 -0.759468317031860 0.000000000000000
13.265423774719238 26.825437545776367 -0.169642657041550 0.003921568859369
6.311748504638672 11.486168861389160 -0.764941513538361 0.000000000000000
12.756394386291504 25.805614471435547 5.265813827514648 0.003921568859369
11.384437561035156 26.190542221069336 -0.661177694797516 0.003921568859369
13.592403411865234 24.211050033569336 0.328311175107956 0.003921568859369
6.389297485351562 11.524897575378418 -0.769129812717438 0.000000000000000
12.735437393188477 25.530626296997070 2.339354038238525 0.003921568859369
14.551095962524414 25.690280914306641 0.348954737186432 0.003921568859369
5.354926109313965 12.266229629516602 -0.937335431575775 0.000000000000000
6.427503108978271 11.498518943786621 -0.768906533718109 0.000000000000000
12.724972724914551 25.290092468261719 2.321411132812500 0.003921568859369
11.664947509765625 26.315229415893555 -0.666492283344269 0.003921568859369
13.099845886230469 25.815504074096680 -0.840029060840607 0.003921568859369
5.326401710510254 12.095241546630859 -0.925644040107727 0.000000000000000
6.463601112365723 11.473173141479492 -0.768682897090912 0.000000000000000
12.799660682678223 25.229513168334961 2.319764137268066 0.003921568859369
13.473940849304199 26.306375503540039 -0.857671201229095 0.003921568859369
5.322556018829346 11.969842910766602 -0.917574763298035 0.000000000000000
6.509629249572754 11.455740928649902 -0.769156694412231 0.000000000000000
11.442808151245117 25.344673156738281 1.627880454063416 0.003921568859369
5.325828552246094 11.867330551147461 -0.911176145076752 0.000000000000000
6.569774150848389 11.466857910156250 -0.771487355232239 0.000000000000000
5.357111930847168 11.826424598693848 -0.909513115882874 0.000000000000000
6.609765052795410 11.443313598632812 -0.771496415138245 0.000000000000000
13.719732284545898 26.118738174438477 -0.856221854686737 0.003921568859369
13.652274131774902 25.991462707519531 -0.166562527418137 0.003921568859369
5.386119365692139 11.786414146423340 -0.907849729061127 0.000000000000000
6.621117591857910 11.376215934753418 -0.768486738204956 0.000000000000000
13.952411651611328 26.334489822387695 -0.864937424659729 0.003921568859369
10.914613723754883 26.621364593505859 0.172502964735031 0.003921568859369
13.765577316284180 25.985422134399414 -0.166856065392494 0.003921568859369
5.391315460205078 11.691292762756348 -0.902008116245270 0.000000000000000
6.716277122497559 11.444935798645020 -0.774764537811279 0.000000000000000
10.871209144592285 26.258016586303711 0.170396208763123 0.003921568859369
13.772562980651855 25.781822204589844 -0.165871053934097 0.003921568859369
5.378695011138916 11.560282707214355 -0.893380641937256 0.000000000000000
6.772727489471436 11.448213577270508 -0.776631057262421 0.000000000000000
14.061320304870605 26.098432540893555 -0.860455274581909 0.003921568859369
14.797963142395020 24.517805099487305 -0.330242633819580 0.003921568859369
5.387774467468262 11.476222991943359 -0.888374567031860 0.000000000000000
6.825115203857422 11.444424629211426 -0.778033375740051 0.000000000000000
14.870897293090820 24.445014953613281 -0.329985141754150 0.003921568859369
10.360002517700195 24.558801651000977 0.159895464777946 0.003921568859369
5.378868103027344 11.356365203857422 -0.880582571029663 0.000000000000000
6.896391868591309 11.471021652221680 -0.781525373458862 0.000000000000000
12.735161781311035 26.454456329345703 -0.680086791515350 0.003921568859369
10.525506019592285 24.687274932861328 0.160725057125092 0.003921568859369
12.798953056335449 26.333814620971680 0.687250971794128 0.003921568859369
5.414667129516602 11.311976432800293 -0.878768026828766 0.000000000000000
7.005959987640381 11.455467224121094 -0.783988833427429 0.000000000000000
14.501401901245117 26.019464492797852 -0.864812493324280 0.003921568859369
10.997552871704102 25.293016433715820 0.165099814534187 0.003921568859369
13.052261352539062 26.382276535034180 0.690859138965607 0.003921568859369
15.330522537231445 24.597803115844727 0.342173755168915 0.003921568859369
7.041656017303467 11.423669815063477 -0.783533334732056 0.000000000000000
11.461239814758301 26.098222732543945 0.170556321740150 0.003921568859369
7.057965755462646 11.361414909362793 -0.780987977981567 0.000000000000000
4.750933647155762 8.626884460449219 1.811040759086609 0.000000000000000
14.623118400573730 25.812467575073242 -0.861371636390686 0.003921568859369
7.104030609130859 11.346296310424805 -0.781693577766418 0.000000000000000
7.145758152008057 11.324275016784668 -0.781934738159180 0.000000000000000
1.130193591117859 2.211625099182129 0.105636790394783 0.000000000000000
14.210373878479004 24.887908935546875 2.349592208862305 0.003921568859369
13.247288703918457 26.086334228515625 -0.678018033504486 0.003921568859369
5.655858039855957 11.203675270080566 -0.879651784896851 0.000000000000000
7.202630519866943 11.325554847717285 -0.783801555633545 0.000000000000000
4.128886222839355 7.350513935089111 1.552599668502808 0.000000000000000
14.945339202880859 25.746067047119141 -0.169369563460350 0.003921568859369
5.711560726165771 11.215186119079590 -0.882167458534241 0.000000000000000
5.553552150726318 12.347756385803223 -0.868774712085724 0.003921568859369
7.266160488128662 11.336599349975586 -0.786365091800690 0.000000000000000
14.617729187011719 24.997018814086914 -0.840916514396667 0.003921568859369
13.740776062011719 26.374958038330078 0.697943449020386 0.003921568859369
5.793331623077393 11.280441284179688 -0.888862133026123 0.000000000000000
5.496744155883789 12.118895530700684 -0.853969812393188 0.000000000000000
7.321281433105469 11.338638305664062 -0.788231551647186 0.000000000000000
13.563633918762207 26.039041519165039 -0.680482149124146 0.003921568859369
13.777555465698242 26.233388900756836 0.695402145385742 0.003921568859369
5.825098991394043 11.250107765197754 -0.888033986091614 0.000000000000000
5.474123477935791 11.966425895690918 -0.844528019428253 0.000000000000000
13.302977561950684 25.338811874389648 1.674883246421814 0.003921568859369
14.021850585937500 23.806278228759766 2.265458106994629 0.003921568859369
13.783000946044922 26.012962341308594 0.690896689891815 0.003921568859369
5.894544601440430 11.280916213989258 -0.892222106456757 0.000000000000000
5.476901054382324 11.859180450439453 -0.838406980037689 0.000000000000000
14.314145088195801 24.096038818359375 2.298020362854004 0.003921568859369
10.723511695861816 18.111703872680664 3.854650974273682 0.003921568859369
5.933885097503662 11.259761810302734 -0.892230331897736 0.000000000000000
5.485531330108643 11.771061897277832 -0.833562493324280 0.000000000000000
13.394776344299316 25.076786041259766 1.663897037506104 0.003921568859369
14.897477149963379 24.870948791503906 2.376848459243774 0.003921568859369
14.054050445556641 26.298709869384766 -0.691194772720337 0.003921568859369
5.974025726318359 11.224518775939941 -0.891266047954559 0.000000000000000
5.505589962005615 11.690281867980957 -0.829377830028534 0.000000000000000
14.093727111816406 26.136489868164062 3.658140182495117 0.003921568859369
6.018892288208008 11.218186378479004 -0.892388224601746 0.000000000000000
5.521612644195557 11.624846458435059 -0.826064586639404 0.000000000000000
6.048371315002441 11.174600601196289 -0.890724420547485 0.000000000000000
5.530735492706299 11.535957336425781 -0.821219444274902 0.000000000000000
12.571841239929199 25.651176452636719 0.170480668544769 0.003921568859369
6.116502285003662 11.209780693054199 -0.895190596580505 0.000000000000000
5.547698497772217 11.474171638488770 -0.818161427974701 0.000000000000000
14.430591583251953 25.899457931518555 0.695407032966614 0.003921568859369
6.151685237884521 11.180922508239746 -0.894641101360321 0.000000000000000
5.577013492584229 11.432832717895508 -0.816636443138123 0.000000000000000
14.557865142822266 26.126239776611328 -0.693565368652344 0.003921568859369
5.168813228607178 9.353023529052734 -0.749739706516266 0.000000000000000
5.600899696350098 11.376170158386230 -0.814090132713318 0.000000000000000
3.454219579696655 6.279346466064453 -0.503954946994781 0.000000000000000
5.627909660339355 11.331164360046387 -0.812309682369232 0.003921568859369
14.584777832031250 25.739686965942383 3.644859075546265 0.003921568859369
14.658586502075195 25.682247161865234 0.693578243255615 0.003921568859369
6.276446819305420 11.132860183715820 -0.896057903766632 0.000000000000000
14.661602020263672 25.686433792114258 3.643867015838623 0.003921568859369
6.393340110778809 11.235796928405762 -0.906377792358398 0.000000000000000
5.772835731506348 9.111370086669922 1.982361435890198 0.000000000000000
6.378051757812500 11.119976997375488 -0.898861467838287 0.000000000000000
17.546398162841797 24.191337585449219 -0.345550090074539 0.003921568859369
15.041372299194336 25.699687957763672 0.698377668857574 0.003921568859369
6.573075294494629 11.361723899841309 -0.920328140258789 0.000000000000000
