# This PCD file was generated using the MATLAB® pcwrite function
# from Computer Vision Toolbox®.
# .PCD v.7 - Point Cloud Data file format
VERSION .7
FIELDS x y z intensity
SIZE 8 8 8 8
TYPE F F F F
COUNT 1 1 1 1
WIDTH 646
HEIGHT 1
VIEWPOINT 0 0 0 1 0 0 0
POINTS 646
DATA ascii
1.219095468521118 2.838064193725586 -0.880792975425720 0.000000000000000
14.511174201965332 23.960031509399414 -0.323207110166550 0.003921568859369
13.909258842468262 25.719625473022461 -0.166875332593918 0.003921568859369
1.237463116645813 2.850539207458496 -0.886180579662323 0.000000000000000
11.598565101623535 27.329854965209961 0.175603583455086 0.003921568859369
3.735410451889038 7.060455322265625 1.472708344459534 0.000000000000000
1.259488940238953 2.852586269378662 -0.888414025306702 0.000000000000000
14.688714981079102 23.860563278198242 -0.323316812515259 0.003921568859369
4.631041049957275 8.597992897033691 1.796287178993225 0.000000000000000
1.283179998397827 2.875234603881836 -0.897036194801331 0.000000000000000
1.300128102302551 2.883984804153442 -0.901345610618591 0.000000000000000
8.309489250183105 14.967351913452148 3.137604713439941 0.003921568859369
1.325860977172852 2.909831285476685 -0.911045849323273 0.000000000000000
1.355300307273865 2.942391157150269 -0.922902345657349 0.000000000000000
1.369093775749207 2.943969726562500 -0.925055265426636 0.000000000000000
15.322175979614258 23.937242507934570 -0.327851057052612 0.003921568859369
1.395359992980957 2.969408273696899 -0.934755325317383 0.000000000000000
14.014480590820312 24.087705612182617 -0.158822700381279 0.003921568859369
14.578574180603027 24.651176452636719 -0.832029342651367 0.003921568859369
11.525473594665527 24.747747421264648 0.161858156323433 0.003921568859369
14.773860931396484 24.781150817871094 -0.838155686855316 0.003921568859369
16.018999099731445 24.100933074951172 -0.333727151155472 0.003921568859369
14.894557952880859 24.577569961547852 -0.834899067878723 0.003921568859369
12.411813735961914 25.902061462402344 0.170090675354004 0.003921568859369
15.003351211547852 24.562374114990234 -0.836148202419281 0.003921568859369
16.765069961547852 24.455316543579102 -0.341988861560822 0.003921568859369
15.055611610412598 24.266288757324219 -0.829587340354919 0.003921568859369
16.514305114746094 23.913677215576172 -0.335155963897705 0.003921568859369
16.559839248657227 23.979391098022461 0.344316333532333 0.003921568859369
15.219187736511230 24.338203430175781 -0.833855986595154 0.003921568859369
14.937061309814453 23.891504287719727 -0.160509839653969 0.003921568859369
17.009752273559570 24.083307266235352 -0.339975476264954 0.003921568859369
13.943805694580078 24.537281036376953 -0.654992878437042 0.003921568859369
15.845449447631836 24.573226928710938 -0.849303603172302 0.003921568859369
14.365937232971191 24.680543899536133 -0.662710070610046 0.003921568859369
14.551815986633301 24.393758773803711 -0.659222364425659 0.003921568859369
16.085477828979492 24.002258300781250 -0.164621949195862 0.003921568859369
17.506246566772461 23.538757324218750 0.346575736999512 0.003921568859369
16.872676849365234 24.607522964477539 -0.866626620292664 0.003921568859369
14.956379890441895 24.291681289672852 -0.661994814872742 0.003921568859369
16.905933380126953 24.472537994384766 -0.863928854465485 0.003921568859369
17.050863265991211 24.498231887817383 -0.169981583952904 0.003921568859369
14.772162437438965 25.151639938354492 0.172969102859497 0.003921568859369
2.174341678619385 2.833242416381836 0.044570207595825 0.000000000000000
19.214586257934570 22.533988952636719 0.350052952766418 0.003921568859369
16.879983901977539 24.072540283203125 0.689467310905457 0.003921568859369
19.120525360107422 22.266614913940430 0.346981495618820 0.003921568859369
17.785869598388672 22.894582748413086 2.376903057098389 0.003921568859369
19.472467422485352 22.189958572387695 0.348709076642990 0.003921568859369
18.336986541748047 23.085838317871094 2.416429042816162 0.003921568859369
18.430942535400391 23.046260833740234 2.418731212615967 0.003921568859369
19.707101821899414 22.142013549804688 -0.341784596443176 0.003921568859369
18.372180938720703 22.801607131958008 2.400187492370605 0.003921568859369
19.869966506958008 22.167758941650391 -0.343241095542908 0.003921568859369
19.328836441040039 21.567718505859375 0.342210441827774 0.003921568859369
18.454175949096680 22.740028381347656 2.400536060333252 0.003921568859369
19.627155303955078 21.745510101318359 0.346125870943069 0.003921568859369
20.106590270996094 22.125755310058594 0.353230535984039 0.003921568859369
19.977998733520508 21.831312179565430 -0.341140508651733 0.003921568859369
20.168277740478516 21.884250640869141 -0.343058913946152 0.003921568859369
20.184509277343750 21.748981475830078 -0.342019677162170 0.003921568859369
20.202777862548828 21.616794586181641 -0.341026782989502 0.003921568859369
16.802417755126953 24.137605667114258 0.174697145819664 0.003921568859369
19.158788681030273 22.309568405151367 2.410815715789795 0.003921568859369
19.062677383422852 21.877704620361328 2.378297567367554 0.003921568859369
17.945234298706055 22.271772384643555 0.670593678951263 0.003921568859369
18.115575790405273 22.322540283203125 1.681655406951904 0.003921568859369
19.643819808959961 21.915954589843750 2.412259817123413 0.003921568859369
18.203531265258789 22.271133422851562 1.682607293128967 0.003921568859369
18.561370849609375 22.707031250000000 3.612874031066895 0.003921568859369
19.010990142822266 23.104660034179688 0.701452732086182 0.003921568859369
18.177066802978516 22.097663879394531 3.525097131729126 0.003921568859369
18.344369888305664 22.134187698364258 3.541702508926392 0.003921568859369
20.006505966186523 21.564252853393555 -0.167410194873810 0.003921568859369
18.484355926513672 21.995956420898438 3.539791584014893 0.003921568859369
18.048559188842773 23.055389404296875 0.173693463206291 0.003921568859369
18.086690902709961 22.938617706298828 0.173313543200493 0.003921568859369
18.662242889404297 23.153984069824219 0.176473841071129 0.003921568859369
19.668142318725586 22.095508575439453 1.730036616325378 0.003921568859369
7.097818374633789 7.881308555603027 2.861643075942993 0.000000000000000
19.415781021118164 21.811029434204102 0.173250302672386 0.003921568859369
19.426446914672852 21.677858352661133 0.172725945711136 0.003921568859369
19.492057800292969 21.440195083618164 0.171985074877739 0.003921568859369
3.393008708953857 3.751533508300781 -0.206774413585663 0.000000000000000
19.963207244873047 21.497951507568359 0.173799514770508 0.003921568859369
20.018959045410156 21.407451629638672 0.173650458455086 0.003921568859369
4.979054450988770 3.998961687088013 0.151052013039589 0.000000000000000
3.375745296478271 2.445072889328003 -0.219856247305870 0.000000000000000
16.625705718994141 11.957146644592285 -0.953922629356384 0.003921568859369
16.745475769042969 11.954454421997070 -0.958377361297607 0.003921568859369
16.632863998413086 11.795526504516602 -0.949820935726166 0.003921568859369
16.684686660766602 11.734394073486328 -0.950151026248932 0.003921568859369
7.068510532379150 4.952066421508789 -0.402608036994934 0.000000000000000
16.545961380004883 11.465126037597656 -0.937683761119843 0.003921568859369
16.501529693603516 11.353524208068848 -0.933030784130096 0.003921568859369
16.050901412963867 10.957756042480469 -0.905323565006256 0.000000000000000
12.618456840515137 7.505793571472168 -0.769949853420258 0.000000000000000
5.446368694305420 2.827400684356689 -0.070868059992790 0.000000000000000
6.207580089569092 4.036383152008057 1.994994759559631 0.000000000000000
16.891078948974609 12.059290885925293 -0.845354378223419 0.003921568859369
10.062080383300781 5.798893451690674 2.124066829681396 0.000000000000000
16.847288131713867 11.851264953613281 -0.839001655578613 0.003921568859369
17.218374252319336 10.805658340454102 -0.946892917156219 0.003921568859369
16.785665512084961 11.716216087341309 -0.833791851997375 0.003921568859369
17.318584442138672 10.788470268249512 -0.950422167778015 0.003921568859369
16.755392074584961 11.612632751464844 -0.830371856689453 0.003921568859369
10.134106636047363 6.270433902740479 -0.555462598800659 0.000000000000000
8.934930801391602 4.943214893341064 -0.535754859447479 0.000000000000000
17.395341873168945 10.664013862609863 -0.950413763523102 0.003921568859369
17.772134780883789 10.813544273376465 -0.969004631042480 0.003921568859369
5.246343135833740 3.180713653564453 -0.286390990018845 0.000000000000000
10.323221206665039 5.567670822143555 -0.615227878093719 0.000000000000000
17.905502319335938 10.723814964294434 -0.972157418727875 0.003921568859369
5.895469188690186 3.162491321563721 1.226291298866272 0.000000000000000
18.155900955200195 10.787500381469727 -0.983681857585907 0.003921568859369
14.467195510864258 7.470778465270996 1.332106471061707 0.000000000000000
20.349035263061523 11.233702659606934 6.235642910003662 0.003921568859369
5.900641918182373 2.769673109054565 0.533852398395538 0.000000000000000
18.527067184448242 10.914560317993164 -0.875923693180084 0.003921568859369
12.091712951660156 6.298103332519531 -0.635210752487183 0.000000000000000
18.699651718139648 10.928365707397461 -0.882268369197845 0.003921568859369
12.717984199523926 5.798387527465820 1.142975330352783 0.000000000000000
9.949196815490723 5.100122451782227 1.375219941139221 0.000000000000000
7.481770038604736 3.385990381240845 1.500713467597961 0.000000000000000
10.514390945434570 4.711025238037109 0.942432820796967 0.000000000000000
7.479176044464111 3.353363037109375 1.497843980789185 0.000000000000000
6.526163101196289 3.289588451385498 -0.340724885463715 0.000000000000000
10.017363548278809 5.044720172882080 1.379610180854797 0.000000000000000
21.156526565551758 9.202173233032227 4.210287570953369 0.003921568859369
13.686274528503418 5.845038890838623 2.717012166976929 0.000000000000000
3.443477630615234 1.416540145874023 -0.304447829723358 0.000000000000000
4.302388191223145 2.226068019866943 -0.197484493255615 0.000000000000000
3.605187892913818 1.631734848022461 0.231110349297523 0.000000000000000
5.856704235076904 2.648326158523560 0.790414512157440 0.000000000000000
4.407893657684326 1.651283979415894 0.082501128315926 0.000000000000000
19.610912322998047 6.952298164367676 1.698564887046814 0.003921568859369
6.279249191284180 2.917394399642944 0.040241692215204 0.000000000000000
8.271681785583496 3.362144947052002 0.519995450973511 0.000000000000000
4.324079036712646 1.989769220352173 0.027664711698890 0.000000000000000
10.777278900146484 4.249630451202393 0.269573271274567 0.000000000000000
7.055840969085693 2.251754760742188 1.348617434501648 0.000000000000000
10.949658393859863 3.795112609863281 0.674120426177979 0.000000000000000
18.373128890991211 5.380662918090820 1.561790704727173 0.000000000000000
6.934824466705322 2.760467529296875 0.043102525174618 0.000000000000000
8.444467544555664 2.827513217926025 0.517878830432892 0.000000000000000
8.610797882080078 2.422826528549194 1.629125237464905 0.000000000000000
4.038830757141113 1.554189562797546 -0.276676207780838 0.000000000000000
7.776159763336182 2.967515945434570 -0.145482182502747 0.000000000000000
3.104995012283325 0.846433699131012 0.130068942904472 0.000000000000000
9.531155586242676 2.572440147399902 0.803980171680450 0.000000000000000
15.812298774719238 4.211673259735107 2.979650497436523 0.003921568859369
4.201044082641602 1.101507902145386 -0.227110296487808 0.000000000000000
10.128663063049316 3.710314750671387 -0.188554748892784 0.000000000000000
12.253628730773926 3.176027774810791 0.514392614364624 0.000000000000000
26.668691635131836 6.917516231536865 5.019101142883301 0.003921568859369
8.491312980651855 2.167939901351929 0.152151688933372 0.000000000000000
5.660933494567871 2.048558473587036 -0.385196626186371 0.000000000000000
6.767761230468750 2.083205699920654 -0.329533040523529 0.000000000000000
7.513831138610840 2.313418865203857 0.962768256664276 0.000000000000000
3.461725950241089 1.236661076545715 -0.064240030944347 0.000000000000000
4.105563640594482 1.030712366104126 -0.024891613051295 0.000000000000000
9.647971153259277 2.428068876266479 0.404072761535645 0.000000000000000
17.622468948364258 4.243047237396240 0.736975431442261 0.003921568859369
12.678422927856445 3.666492700576782 1.617780923843384 0.000000000000000
6.175776004791260 1.436832904815674 0.109549425542355 0.000000000000000
9.929768562316895 3.362021207809448 -0.671108067035675 0.000000000000000
7.716431140899658 1.768510699272156 0.136982798576355 0.000000000000000
4.132732868194580 0.929306328296661 -0.123115666210651 0.000000000000000
7.706244468688965 2.547529935836792 -0.519303917884827 0.000000000000000
8.906237602233887 1.946075320243835 0.157868891954422 0.000000000000000
19.199930191040039 4.201834201812744 3.577481508255005 0.003921568859369
9.526286125183105 2.538526535034180 2.633949756622314 0.000000000000000
19.241456985473633 5.062817096710205 2.438552856445312 0.003921568859369
12.072492599487305 3.084184169769287 1.525832533836365 0.000000000000000
13.047316551208496 3.237094163894653 0.780395328998566 0.000000000000000
6.436069488525391 1.593545436859131 -0.308353960514069 0.000000000000000
6.477647304534912 1.272840023040771 1.198203086853027 0.000000000000000
9.210278511047363 1.778729557991028 0.162457719445229 0.000000000000000
6.159813880920410 0.879638493061066 -0.217066779732704 0.000000000000000
4.175699710845947 0.772064924240112 -0.025268277153373 0.000000000000000
11.621338844299316 3.357676744461060 0.349840015172958 0.000000000000000
9.400794029235840 1.746194958686829 1.735891938209534 0.000000000000000
9.335120201110840 1.666900157928467 0.383814424276352 0.000000000000000
9.031684875488281 1.065091013908386 -0.106576837599277 0.000000000000000
9.810210227966309 1.157245755195618 0.113436050713062 0.000000000000000
13.531977653503418 2.955484390258789 0.803280293941498 0.000000000000000
6.519792079925537 0.747082352638245 -0.076940283179283 0.000000000000000
9.847480773925781 2.587332010269165 0.294202476739883 0.000000000000000
6.369721889495850 1.343180060386658 0.794153749942780 0.000000000000000
12.000525474548340 1.931806445121765 2.208537817001343 0.000000000000000
6.405464649200439 1.327537775039673 0.798050761222839 0.000000000000000
11.719317436218262 2.950374603271484 0.349473893642426 0.000000000000000
7.059993267059326 1.745718479156494 -0.295755773782730 0.000000000000000
1.235617160797119 0.292176097631454 -0.050741668790579 0.003921568859369
14.928783416748047 2.084439516067505 1.225125670433044 0.000000000000000
1.248284697532654 0.290827721357346 -0.051231265068054 0.003921568859369
10.589634895324707 1.476775169372559 1.939984321594238 0.000000000000000
7.821330070495605 1.061521053314209 0.318512469530106 0.000000000000000
23.699413299560547 3.228353738784790 4.350369453430176 0.003921568859369
14.571875572204590 1.931202769279480 -0.087004944682121 0.000000000000000
4.008605480194092 0.711420655250549 -0.000973589194473 0.000000000000000
2.949737310409546 0.658764481544495 -0.052894134074450 0.000000000000000
8.925753593444824 1.087756037712097 -0.261794775724411 0.000000000000000
24.896265029907227 4.284296989440918 6.754627227783203 0.003921568859369
9.172257423400879 1.117860317230225 1.675344109535217 0.000000000000000
24.903450012207031 4.196228504180908 6.752552986145020 0.003921568859369
7.491192340850830 1.607749342918396 -0.134225949645042 0.000000000000000
11.940747261047363 2.568255901336670 0.352623194456100 0.000000000000000
9.684488296508789 0.601828992366791 -0.113908745348454 0.000000000000000
7.640534877777100 1.226588726043701 0.446872144937515 0.000000000000000
8.350052833557129 1.341173887252808 -0.197102189064026 0.000000000000000
13.575930595397949 2.138898134231567 -0.001734854769893 0.000000000000000
11.811267852783203 1.232247710227966 -0.346020638942719 0.000000000000000
11.501764297485352 1.768802523612976 0.267687469720840 0.000000000000000
12.968137741088867 1.353337168693542 2.365618944168091 0.000000000000000
17.469730377197266 2.628503561019897 1.023348212242126 0.000000000000000
4.756294250488281 0.676375508308411 0.275496661663055 0.000000000000000
21.032789230346680 1.976436734199524 3.839238405227661 0.003921568859369
4.384641647338867 0.180303692817688 -0.051702324301004 0.000000000000000
3.984940052032471 0.523512959480286 0.091135211288929 0.000000000000000
8.395998001098633 1.110606789588928 1.031855344772339 0.000000000000000
13.028959274291992 0.449163854122162 -0.455505371093750 0.000000000000000
6.591213226318359 0.824008822441101 0.151925474405289 0.000000000000000
7.190242767333984 0.850188732147217 -0.001484769396484 0.000000000000000
9.822010040283203 1.651044607162476 0.055864125490189 0.000000000000000
11.112120628356934 0.771882534027100 0.191627576947212 0.000000000000000
4.882270812988281 0.337152034044266 -0.254995644092560 0.000000000000000
13.208226203918457 0.869676232337952 1.074196219444275 0.000000000000000
9.527647018432617 0.626350164413452 1.729538321495056 0.000000000000000
6.388463973999023 0.086507737636566 0.071992807090282 0.000000000000000
8.080648422241211 0.871578156948090 0.467926740646362 0.000000000000000
9.419819831848145 1.017072319984436 1.153820753097534 0.000000000000000
14.777846336364746 2.278921842575073 0.083986744284630 0.000000000000000
10.949955940246582 0.569305419921875 -0.319508522748947 0.000000000000000
9.512405395507812 0.494148343801498 -0.057026535272598 0.000000000000000
9.648543357849121 0.501221656799316 0.781664371490479 0.000000000000000
6.732127189636230 1.008061051368713 -0.276526778936386 0.000000000000000
9.570064544677734 0.964685559272766 -0.224403917789459 0.000000000000000
4.363676071166992 0.210702762007713 0.073757670819759 0.000000000000000
7.454316616058350 0.725239455699921 0.910301089286804 0.000000000000000
9.380705833435059 0.456189721822739 1.699125409126282 0.000000000000000
9.125185966491699 0.855660736560822 -0.001960632391274 0.003921568859369
13.188591957092285 1.192901611328125 1.615999698638916 0.000000000000000
8.968136787414551 0.372178912162781 0.725760161876678 0.000000000000000
9.043554306030273 0.786248564720154 1.105107069015503 0.000000000000000
7.754253387451172 0.295922547578812 0.626635372638702 0.000000000000000
11.740422248840332 0.449137330055237 2.128614425659180 0.000000000000000
5.206117630004883 0.179071471095085 0.208195731043816 0.000000000000000
15.009182929992676 1.944713473320007 0.436078697443008 0.000000000000000
4.878339767456055 0.152527540922165 0.082629919052124 0.000000000000000
7.235963821411133 0.227112621068954 0.290675401687622 0.000000000000000
9.432562828063965 0.756056964397430 1.152345061302185 0.000000000000000
9.070848464965820 -0.189808681607246 -0.106910571455956 0.000000000000000
7.200737953186035 0.901040852069855 0.040091190487146 0.000000000000000
7.353509902954102 0.920339763164520 -0.301191300153732 0.000000000000000
8.970945358276367 1.092829942703247 0.259301245212555 0.000000000000000
18.819026947021484 0.455842703580856 3.417799472808838 0.003921568859369
15.467015266418457 1.834081411361694 -0.273698002099991 0.000000000000000
6.483803272247314 0.447761744260788 0.372510403394699 0.000000000000000
10.511381149291992 0.217471122741699 0.423012316226959 0.000000000000000
10.027403831481934 1.154432415962219 0.055911753326654 0.000000000000000
9.299871444702148 0.582854270935059 -0.002278005238622 0.003921568859369
9.248465538024902 0.579576671123505 0.533305466175079 0.000000000000000
6.622213840484619 0.711084306240082 -0.424285739660263 0.000000000000000
13.141186714172363 0.774905323982239 1.604913949966431 0.000000000000000
5.647720813751221 0.311206609010696 0.684081673622131 0.000000000000000
14.829869270324707 0.776889443397522 0.340907961130142 0.000000000000000
11.662333488464355 1.180243015289307 -0.749334454536438 0.000000000000000
8.294102668762207 0.000509450386744 -0.049969322979450 0.000000000000000
12.769217491149902 0.000585321045946 2.312517404556274 0.000000000000000
9.767864227294922 0.440908521413803 0.562995493412018 0.000000000000000
21.587928771972656 -0.074213609099388 3.919186115264893 0.003921568859369
7.133954048156738 -0.048853799700737 -0.043073479086161 0.000000000000000
7.564944744110107 -0.051852226257324 0.128746807575226 0.000000000000000
7.680789947509766 -0.052719101309776 1.385505437850952 0.000000000000000
7.264792442321777 -0.073631547391415 0.123550482094288 0.000000000000000
11.276502609252930 -0.114805519580841 0.912281751632690 0.000000000000000
6.870162963867188 -0.402341753244400 -0.239875629544258 0.000000000000000
18.749681472778320 -0.256612181663513 0.322484493255615 0.003921568859369
2.460424661636353 0.075361728668213 0.054264348000288 0.000000000000000
8.090152740478516 0.252480179071426 0.983060240745544 0.000000000000000
10.543751716613770 0.807743132114410 0.058263041079044 0.000000000000000
6.708935260772705 -0.207848340272903 -0.195259958505630 0.000000000000000
21.320203781127930 -0.666301488876343 -0.127974763512611 0.003921568859369
8.443652153015137 0.146556153893471 0.484746932983398 0.000000000000000
9.095171928405762 -0.282749623060226 0.364923596382141 0.000000000000000
7.957036972045898 -0.247053593397141 0.641023337841034 0.000000000000000
7.650324821472168 -0.287659913301468 -0.222868949174881 0.000000000000000
14.305574417114258 -0.540742337703705 1.158822536468506 0.000000000000000
7.864659309387207 0.029031913727522 0.953566253185272 0.000000000000000
15.092385292053223 -0.678352832794189 2.736523866653442 0.000000000000000
23.646800994873047 -1.147409319877625 4.297142028808594 0.003921568859369
3.604727983474731 -0.183811530470848 -0.104490265250206 0.000000000000000
5.347454071044922 -0.034552320837975 0.644884049892426 0.000000000000000
13.248236656188965 0.557413458824158 -0.540174365043640 0.000000000000000
7.306562900543213 0.280691266059875 0.208221390843391 0.000000000000000
5.181207180023193 -0.068916834890842 0.623238801956177 0.000000000000000
6.585111618041992 0.184296026825905 0.035362042486668 0.000000000000000
7.320368289947510 -0.148401021957397 0.165771320462227 0.000000000000000
13.478414535522461 -0.977695941925049 -0.394396871328354 0.000000000000000
12.137128829956055 -0.289436638355255 0.277078032493591 0.000000000000000
6.772507190704346 -0.488005578517914 0.270574390888214 0.000000000000000
7.038638114929199 -0.507492482662201 1.268112778663635 0.000000000000000
5.158424854278564 0.108462803065777 -0.208809748291969 0.000000000000000
9.832599639892578 -0.778170645236969 -0.287530392408371 0.000000000000000
12.769289970397949 -1.012806892395020 1.035000801086426 0.000000000000000
2.055308818817139 0.028798040002584 -0.036007501184940 0.003921568859369
12.911578178405762 -1.069298744201660 2.342581748962402 0.000000000000000
13.327131271362305 -0.500837802886963 1.623115420341492 0.000000000000000
9.249555587768555 -0.378506064414978 0.210468560457230 0.000000000000000
5.083521842956543 -0.486748963594437 0.407546460628510 0.000000000000000
7.425242424011230 -0.354408890008926 -0.173529237508774 0.000000000000000
7.444713115692139 -0.021251633763313 0.211532741785049 0.000000000000000
16.554054260253906 -1.836207985877991 3.014487981796265 0.003921568859369
9.101329803466797 -0.183143690228462 -0.160360768437386 0.000000000000000
7.766270637512207 -0.585437357425690 -0.002930110786110 0.000000000000000
13.252661705017090 -0.359549164772034 -0.540128588676453 0.000000000000000
5.729072570800781 -0.172519236803055 -0.100884743034840 0.000000000000000
4.387131690979004 -0.553723335266113 -0.128204673528671 0.000000000000000
6.585067272186279 -0.516911804676056 0.376360386610031 0.000000000000000
6.840895652770996 -0.537379741668701 1.810013651847839 0.000000000000000
6.969336032867432 -0.570478677749634 0.398843199014664 0.000000000000000
10.337186813354492 -1.356541275978088 1.879911661148071 0.000000000000000
3.776357650756836 -0.164091423153877 -0.066454701125622 0.000000000000000
4.919057846069336 -0.231510639190674 -0.086713597178459 0.000000000000000
4.531090259552002 -0.649868905544281 0.362617194652557 0.000000000000000
12.080787658691406 -1.207127332687378 3.220767736434937 0.000000000000000
7.318313121795654 -0.397513866424561 0.038893800228834 0.000000000000000
7.985326766967773 -1.213555335998535 1.450315952301025 0.000000000000000
14.971610069274902 -0.871594429016113 0.081873752176762 0.000000000000000
11.778678894042969 -0.725243628025055 0.063956506550312 0.000000000000000
7.633739948272705 -0.891749918460846 2.028018712997437 0.000000000000000
13.575760841369629 -0.978611767292023 -0.240150049328804 0.000000000000000
8.496832847595215 -0.724509775638580 -0.150374278426170 0.000000000000000
14.015249252319336 -1.300535202026367 -0.248598068952560 0.000000000000000
24.295478820800781 -3.461366415023804 6.537689685821533 0.003921568859369
16.585590362548828 -3.304913282394409 3.057279348373413 0.003921568859369
24.078832626342773 -6.217913627624512 -0.295742511749268 0.003921568859369
9.467732429504395 -1.638253688812256 -0.003923540469259 0.003921568859369
6.183173656463623 -0.844491600990295 -0.252587735652924 0.000000000000000
9.470395088195801 -1.335994005203247 -0.168917238712311 0.000000000000000
7.277824401855469 -1.072305798530579 -0.129854083061218 0.000000000000000
17.564409255981445 -5.373958587646484 -0.218788042664528 0.003921568859369
26.454763412475586 -5.369536399841309 7.191982746124268 0.003921568859369
10.054747581481934 -3.096124172210693 0.116728439927101 0.000000000000000
24.174722671508789 -7.868305683135986 -0.302668839693069 0.003921568859369
26.673435211181641 -8.785420417785645 0.316771566867828 0.003921568859369
7.008625984191895 -1.576775312423706 1.886862516403198 0.000000000000000
4.965659141540527 -1.143828988075256 0.286256551742554 0.000000000000000
9.917682647705078 -1.886924386024475 -0.178214743733406 0.000000000000000
24.452548980712891 -8.806293487548828 0.292928308248520 0.003921568859369
10.935663223266602 -3.995260953903198 0.129437148571014 0.000000000000000
25.387058258056641 -7.960453510284424 2.153346776962280 0.003921568859369
26.057983398437500 -8.271533966064453 2.213049173355103 0.003921568859369
25.633146286010742 -8.329559326171875 2.180920600891113 0.003921568859369
22.369266510009766 -6.162275791168213 2.824750661849976 0.003921568859369
24.983127593994141 -8.213250160217285 2.127705574035645 0.003921568859369
17.944955825805664 -6.943218231201172 0.215942516922951 0.003921568859369
26.792978286743164 -8.920144081115723 5.115456104278564 0.003921568859369
26.889993667602539 -9.051361083984375 5.139816284179688 0.003921568859369
27.712987899780273 -9.658158302307129 -0.178830668330193 0.003921568859369
25.903085708618164 -9.024186134338379 2.219852685928345 0.003921568859369
8.337480545043945 -2.900086641311646 0.705848813056946 0.000000000000000
26.728570938110352 -9.511782646179199 2.296427965164185 0.003921568859369
3.006058216094971 -1.036288022994995 0.050611406564713 0.000000000000000
26.497159957885742 -8.100576400756836 3.376916885375977 0.003921568859369
7.554077148437500 -2.736701250076294 0.134022995829582 0.000000000000000
25.925703048706055 -9.526891708374023 2.234773874282837 0.003921568859369
3.756515264511108 -1.348164796829224 0.064441762864590 0.000000000000000
11.572393417358398 -4.449986457824707 -0.076110787689686 0.000000000000000
27.527784347534180 -9.681344985961914 0.666757762432098 0.003921568859369
12.126715660095215 -4.235299587249756 3.399022340774536 0.000000000000000
11.264611244201660 -3.413309574127197 0.062838114798069 0.000000000000000
6.782118320465088 -2.446811437606812 0.160751685500145 0.000000000000000
27.943965911865234 -10.712707519531250 0.683785736560822 0.003921568859369
7.895121574401855 -3.013991117477417 -0.003885118989274 0.003921568859369
26.087163925170898 -11.589889526367188 2.309736490249634 0.003921568859369
7.326067924499512 -3.665518283843994 0.089923091232777 0.000000000000000
27.769815444946289 -10.867580413818359 3.634255886077881 0.003921568859369
13.588961601257324 -6.113373279571533 2.685065031051636 0.000000000000000
26.565015792846680 -10.601542472839355 1.648345351219177 0.003921568859369
13.449531555175781 -6.106004238128662 2.661421298980713 0.000000000000000
15.083050727844238 -6.049400806427002 4.309225082397461 0.003921568859369
16.542716979980469 -7.592902183532715 3.286217212677002 0.003921568859369
7.336592674255371 -2.993789434432983 2.078184604644775 0.000000000000000
18.107168197631836 -8.697276115417480 1.620879888534546 0.003921568859369
8.141688346862793 -3.007614850997925 0.045598261058331 0.000000000000000
15.969303131103516 -7.797536849975586 3.206690788269043 0.003921568859369
7.790274143218994 -3.340678453445435 -0.003890602383763 0.003921568859369
17.465469360351562 -8.611065864562988 1.570914626121521 0.000000000000000
15.610686302185059 -6.767621517181396 4.511953830718994 0.003921568859369
19.195672988891602 -9.555307388305664 3.875198602676392 0.003921568859369
5.630125522613525 -2.439685106277466 -0.003314257366583 0.000000000000000
24.100147247314453 -10.687642097473145 1.518208503723145 0.003921568859369
5.763794898986816 -2.522849082946777 -0.003352314233780 0.000000000000000
16.356517791748047 -8.271659851074219 3.308441877365112 0.003921568859369
17.794733047485352 -8.082723617553711 5.187369823455811 0.003921568859369
24.939567565917969 -11.465283393859863 1.580736637115479 0.003921568859369
24.935573577880859 -11.568561553955078 1.583054184913635 0.003921568859369
18.982694625854492 -9.933983802795410 3.870908975601196 0.003921568859369
17.574020385742188 -8.203137397766113 2.355257987976074 0.003921568859369
18.905084609985352 -10.145331382751465 1.731875419616699 0.003921568859369
18.813571929931641 -10.180069923400879 1.726686239242554 0.003921568859369
17.927623748779297 -8.598150253295898 5.278398513793945 0.003921568859369
17.374597549438477 -9.629227638244629 3.587186098098755 0.003921568859369
17.344306945800781 -9.691136360168457 3.587905168533325 0.003921568859369
15.224828720092773 -7.740661621093750 4.526449680328369 0.003921568859369
17.364952087402344 -10.012669563293457 1.616703391075134 0.003921568859369
7.895004749298096 -5.052294731140137 -0.111396990716457 0.000000000000000
16.244150161743164 -8.407667160034180 2.219539165496826 0.003921568859369
16.738897323608398 -9.803282737731934 1.564141750335693 0.000000000000000
15.005304336547852 -8.846783638000488 0.295263051986694 0.003921568859369
7.802393436431885 -4.124868392944336 -0.003963991068304 0.003921568859369
17.825790405273438 -9.551893234252930 1.161615133285522 0.003921568859369
14.843853950500488 -7.937319755554199 2.040998697280884 0.003921568859369
15.957081794738770 -8.611292839050293 4.808835506439209 0.003921568859369
14.658997535705566 -8.916522979736328 0.290799170732498 0.003921568859369
17.625341415405273 -9.684892654418945 1.155138254165649 0.000000000000000
4.922166347503662 -2.355379343032837 0.027610557153821 0.000000000000000
15.657610893249512 -9.681330680847168 0.312352776527405 0.003921568859369
15.652862548828125 -9.678292274475098 1.483363747596741 0.000000000000000
15.636968612670898 -9.809740066528320 0.739166140556335 0.003921568859369
14.799998283386230 -8.441169738769531 0.386635273694992 0.000000000000000
19.198066711425781 -10.982661247253418 1.271172523498535 0.003921568859369
16.122283935546875 -10.274775505065918 0.765880584716797 0.003921568859369
13.513103485107422 -8.591788291931152 1.288350462913513 0.000000000000000
7.070214748382568 -3.568358898162842 0.221761956810951 0.000000000000000
15.513503074645996 -9.958033561706543 0.312710106372833 0.003921568859369
15.903552055358887 -10.289741516113281 0.321457117795944 0.003921568859369
15.857524871826172 -10.337912559509277 0.321254104375839 0.003921568859369
18.002985000610352 -10.542310714721680 2.534345149993896 0.003921568859369
15.194060325622559 -9.975214004516602 3.278424501419067 0.003921568859369
16.489765167236328 -10.919028282165527 3.570056438446045 0.003921568859369
17.824964523315430 -9.622377395629883 0.577849984169006 0.003921568859369
17.526935577392578 -11.878803253173828 3.824437618255615 0.003921568859369
16.687673568725586 -10.230727195739746 1.123444914817810 0.000000000000000
15.201287269592285 -10.356133460998535 3.317132711410522 0.003921568859369
17.016191482543945 -11.696039199829102 3.727711439132690 0.003921568859369
15.698565483093262 -9.767477035522461 0.419996857643127 0.003921568859369
17.797742843627930 -11.090408325195312 2.547018527984619 0.003921568859369
17.837974548339844 -12.359385490417480 1.751128196716309 0.003921568859369
15.178874015808105 -9.513167381286621 -0.006135029718280 0.003921568859369
16.110019683837891 -10.104458808898926 2.307654142379761 0.003921568859369
12.853962898254395 -8.932725906372070 1.258855223655701 0.000000000000000
13.638877868652344 -8.534770011901855 4.259643077850342 0.003921568859369
13.005572319030762 -9.039643287658691 2.852111816406250 0.000000000000000
16.859580993652344 -11.843481063842773 3.719842195510864 0.003921568859369
12.882623672485352 -9.082982063293457 0.629953622817993 0.003921568859369
14.159431457519531 -9.068439483642578 4.454108238220215 0.003921568859369
15.809787750244141 -11.512726783752441 -0.119182467460632 0.000000000000000
8.751378059387207 -6.306429386138916 0.862970590591431 0.000000000000000
18.375211715698242 -12.171563148498535 5.853595733642578 0.003921568859369
14.081531524658203 -10.388314247131348 0.700394392013550 0.003921568859369
12.475911140441895 -8.339500427246094 1.815804481506348 0.000000000000000
14.764207839965820 -9.098615646362305 0.493538439273834 0.003921568859369
16.603904724121094 -11.569535255432129 2.457067728042603 0.003921568859369
16.457597732543945 -13.162509918212891 1.700278520584106 0.003921568859369
14.668986320495605 -10.586614608764648 4.795498847961426 0.003921568859369
12.506950378417969 -10.026256561279297 0.640866756439209 0.000000000000000
12.979159355163574 -10.482150077819824 0.667095720767975 0.003921568859369
13.030566215515137 -10.595729827880859 0.671633303165436 0.003921568859369
13.035418510437012 -9.654798507690430 4.293847084045410 0.003921568859369
11.956640243530273 -9.776550292968750 2.779822587966919 0.003921568859369
16.927387237548828 -14.015702247619629 3.969317674636841 0.003921568859369
12.688083648681641 -10.538047790527344 0.659505009651184 0.003921568859369
14.157564163208008 -11.947635650634766 1.492620348930359 0.003921568859369
8.147017478942871 -6.150011062622070 2.684388637542725 0.003921568859369
8.129624366760254 -6.178645610809326 2.685425043106079 0.000000000000000
12.347337722778320 -10.465818405151367 2.915275335311890 0.003921568859369
14.392751693725586 -12.321915626525879 1.527032375335693 0.000000000000000
8.055304527282715 -6.166978836059570 2.667843580245972 0.000000000000000
8.001496315002441 -6.166537761688232 2.656468152999878 0.000000000000000
12.579531669616699 -9.938570976257324 4.244233608245850 0.003921568859369
7.865172386169434 -6.180665969848633 2.628544807434082 0.000000000000000
13.100134849548340 -10.491368293762207 4.443873405456543 0.003921568859369
14.007415771484375 -12.495443344116211 1.512459635734558 0.000000000000000
16.752267837524414 -13.670955657958984 2.626491308212280 0.003921568859369
11.871030807495117 -10.930745124816895 1.298285722732544 0.003921568859369
15.464872360229492 -13.060163497924805 5.370712757110596 0.003921568859369
14.661321640014648 -13.736165046691895 1.620253086090088 0.000000000000000
15.109410285949707 -14.261631965637207 3.751601934432983 0.003921568859369
21.308526992797852 -20.350957870483398 5.333829402923584 0.003921568859369
20.594324111938477 -19.790628433227539 5.168305873870850 0.003921568859369
16.317895889282227 -14.273323059082031 2.633363008499146 0.003921568859369
13.457370758056641 -12.943093299865723 1.504410386085510 0.000000000000000
13.173556327819824 -11.644801139831543 4.658057689666748 0.003921568859369
12.965147018432617 -12.805203437805176 1.468084454536438 0.000000000000000
12.503903388977051 -12.340960502624512 3.166908502578735 0.003921568859369
20.482990264892578 -20.517261505126953 5.247190475463867 0.003921568859369
21.703895568847656 -19.858783721923828 3.582217454910278 0.003921568859369
11.941451072692871 -10.907752037048340 4.281565189361572 0.003921568859369
13.837413787841797 -13.976892471313477 3.549590826034546 0.003921568859369
12.812823295593262 -13.010350227355957 1.471356272697449 0.003921568859369
12.661642074584961 -13.039403915405273 1.464553952217102 0.003921568859369
11.225941658020020 -10.523349761962891 1.862209677696228 0.003921568859369
12.491986274719238 -12.941985130310059 3.242911100387573 0.003921568859369
11.422041893005371 -11.010894775390625 1.921106934547424 0.000000000000000
11.313070297241211 -10.979942321777344 1.908947825431824 0.000000000000000
12.197922706604004 -11.936258316040039 4.520564556121826 0.003921568859369
20.416757583618164 -20.427076339721680 3.516655206680298 0.003921568859369
12.064035415649414 -13.571981430053711 3.274522781372070 0.003921568859369
12.275218963623047 -12.694502830505371 4.678877353668213 0.003921568859369
19.066490173339844 -22.073944091796875 2.359579801559448 0.003921568859369
12.128282546997070 -12.715991020202637 4.656133651733398 0.003921568859369
11.730878829956055 -13.562308311462402 3.233704566955566 0.003921568859369
18.720840454101562 -22.291482925415039 2.355084180831909 0.003921568859369
11.984043121337891 -12.828233718872070 4.652015686035156 0.003921568859369
18.072052001953125 -21.972719192504883 2.301560878753662 0.003921568859369
6.233684062957764 -7.726021766662598 2.611181974411011 0.000000000000000
10.195459365844727 -16.697891235351562 3.534405946731567 0.003921568859369
8.373794555664062 -14.296793937683105 1.335896730422974 0.003921568859369
9.467865943908691 -16.363588333129883 3.415501594543457 0.003921568859369
5.451403617858887 -8.287147521972656 2.611310720443726 0.000000000000000
2.429608821868896 -3.482102632522583 1.091602444648743 0.000000000000000
9.351788520812988 -14.897054672241211 4.665898323059082 0.003921568859369
8.005774497985840 -14.322522163391113 1.322960257530212 0.000000000000000
7.078611373901367 -12.705645561218262 2.621405839920044 0.000000000000000
7.025012493133545 -12.711853027343750 2.617830276489258 0.000000000000000
9.137028694152832 -15.012036323547363 4.662832260131836 0.003921568859369
7.324430465698242 -13.390338897705078 2.752587795257568 0.000000000000000
10.095195770263672 -16.765939712524414 5.197697162628174 0.003921568859369
10.065955162048340 -18.764503479003906 3.851380825042725 0.003921568859369
9.824357032775879 -16.427337646484375 5.082873344421387 0.003921568859369
7.847271919250488 -14.747947692871094 1.347694635391235 0.000000000000000
6.984219074249268 -13.180652618408203 2.690263986587524 0.003921568859369
8.240206718444824 -14.366807937622070 2.010265111923218 0.003921568859369
6.237317085266113 -12.429768562316895 2.506826877593994 0.003921568859369
6.566811084747314 -13.244788169860840 2.666677236557007 0.000000000000000
7.772900581359863 -14.454466819763184 1.992815971374512 0.003921568859369
5.750638961791992 -12.039352416992188 2.404372692108154 0.003921568859369
9.347328186035156 -17.941944122314453 5.376869201660156 0.003921568859369
6.765823841094971 -14.696306228637695 1.305637717247009 0.000000000000000
8.158546447753906 -15.856506347656250 2.167122125625610 0.003921568859369
7.547226905822754 -14.750225067138672 2.012340545654297 0.003921568859369
8.288919448852539 -16.407222747802734 2.234803676605225 0.003921568859369
5.899775981903076 -13.215840339660645 1.166994810104370 0.000000000000000
6.362277984619141 -12.559775352478027 3.730898618698120 0.003921568859369
7.663393497467041 -17.387266159057617 3.436634302139282 0.003921568859369
7.762852668762207 -16.460643768310547 2.212983369827271 0.003921568859369
7.564631938934326 -18.562650680541992 1.621463775634766 0.000000000000000
8.950119972229004 -19.456928253173828 2.607795000076294 0.003921568859369
8.354434013366699 -18.112352371215820 5.303578376770020 0.003921568859369
8.390898704528809 -18.713493347167969 2.496843338012695 0.003921568859369
9.245382308959961 -21.917434692382812 -0.556444406509399 0.003921568859369
9.040327072143555 -22.072824478149414 -0.557992517948151 0.003921568859369
5.596928119659424 -14.200904846191406 4.053937911987305 0.000000000000000
4.371567249298096 -13.748970985412598 1.165671467781067 0.000000000000000
6.285758018493652 -20.541273117065430 1.740704298019409 0.003921568859369
5.202701091766357 -17.226873397827148 1.456789970397949 0.000000000000000
4.965185642242432 -13.771525382995605 3.888475656509399 0.000000000000000
5.137189865112305 -17.224540710449219 1.455177903175354 0.000000000000000
5.064521312713623 -17.207408905029297 1.452267050743103 0.000000000000000
5.729716300964355 -16.634498596191406 1.013776779174805 0.000000000000000
4.858747482299805 -16.907938003540039 1.424350976943970 0.003921568859369
2.764035940170288 -11.401549339294434 -0.139140248298645 0.000000000000000
4.812522888183594 -16.938991546630859 1.425660252571106 0.000000000000000
2.018430709838867 -6.429069995880127 0.113103084266186 0.000000000000000
4.109021663665771 -14.901275634765625 1.250576496124268 0.000000000000000
4.405493259429932 -13.640876770019531 0.824806630611420 0.000000000000000
3.597762584686279 -13.893209457397461 1.160954833030701 0.003921568859369
4.217204570770264 -17.064359664916992 1.424159407615662 0.000000000000000
3.811110258102417 -15.743546485900879 1.311757922172546 0.003921568859369
5.642526626586914 -24.501113891601562 -0.734720349311829 0.003921568859369
0.764430403709412 -2.469922065734863 0.026928139850497 0.000000000000000
3.409598112106323 -14.149994850158691 0.585928678512573 0.000000000000000
3.743521451950073 -15.697052001953125 1.306895613670349 0.000000000000000
3.737993955612183 -16.219879150390625 1.348510265350342 0.000000000000000
3.559754133224487 -15.637918472290039 1.299131989479065 0.000000000000000
7.202636241912842 -26.712673187255859 -0.647486865520477 0.003921568859369
2.220493316650391 -9.264480590820312 0.161817252635956 0.000000000000000
7.084866046905518 -26.639474868774414 -0.645127058029175 0.003921568859369
3.993648529052734 -14.833724975585938 1.871293544769287 0.003921568859369
3.153681039810181 -14.422081947326660 1.195509433746338 0.000000000000000
3.089437484741211 -14.357158660888672 2.660921096801758 0.000000000000000
2.040570974349976 -7.082083225250244 -0.002913129515946 0.000000000000000
5.073931217193604 -19.837575912475586 2.498971223831177 0.003921568859369
4.142986774444580 -16.174236297607422 0.963251292705536 0.000000000000000
3.533289909362793 -13.786420822143555 0.820110738277435 0.000000000000000
3.102984905242920 -15.564165115356445 1.286224842071533 0.000000000000000
1.740851163864136 -8.144779205322266 0.671412110328674 0.000000000000000
3.492404222488403 -14.480727195739746 0.858896493911743 0.000000000000000
3.425622701644897 -18.511362075805664 3.416703701019287 0.003921568859369
3.600554227828979 -15.239724159240723 0.358555763959885 0.000000000000000
2.989656686782837 -16.226051330566406 2.992973327636719 0.003921568859369
1.972023963928223 -7.700409412384033 0.455183953046799 0.000000000000000
2.357139110565186 -12.887243270874023 1.061085104942322 0.000000000000000
3.429231643676758 -15.213755607604980 1.901613831520081 0.000000000000000
2.906753540039062 -16.832271575927734 1.385750651359558 0.000000000000000
1.578664541244507 -6.250840187072754 -0.002735958667472 0.000000000000000
3.143549919128418 -14.311755180358887 0.845270633697510 0.000000000000000
2.620011568069458 -15.673647880554199 1.288930177688599 0.000000000000000
2.551437616348267 -15.582718849182129 1.280817508697510 0.000000000000000
3.048425436019897 -14.080991744995117 3.837124824523926 0.003921568859369
3.113508701324463 -19.586023330688477 3.601791620254517 0.003921568859369
2.846576929092407 -13.277659416198730 -0.003634095191956 0.000000000000000
2.491674661636353 -9.038847923278809 0.267005234956741 0.000000000000000
2.278747081756592 -10.601754188537598 -0.003273271489888 0.003921568859369
3.382720947265625 -16.743829727172852 2.084783554077148 0.003921568859369
2.918564319610596 -19.625402450561523 3.603985548019409 0.003921568859369
2.398735284805298 -17.014610290527344 1.394964456558228 0.000000000000000
3.538468837738037 -19.142284393310547 2.378002405166626 0.003921568859369
2.298631429672241 -16.669092178344727 1.366051435470581 0.000000000000000
2.487493038177490 -19.462741851806641 3.565355300903320 0.003921568859369
1.118235111236572 -4.810268878936768 -0.002506682416424 0.000000000000000
3.165754556655884 -18.908868789672852 5.117317199707031 0.003921568859369
2.807145833969116 -16.887777328491211 4.567842483520508 0.003921568859369
2.623322010040283 -16.363004684448242 2.024002313613892 0.003921568859369
1.571560025215149 -9.976908683776855 -0.003099193330854 0.003921568859369
1.428480982780457 -9.043862342834473 0.527243793010712 0.000000000000000
1.957593798637390 -13.613672256469727 3.668617248535156 0.000000000000000
1.771006345748901 -12.768238067626953 -0.003389935474843 0.000000000000000
1.877169251441956 -16.954936981201172 2.085775136947632 0.003921568859369
1.135918617248535 -6.057810306549072 0.032644454389811 0.000000000000000
-1.072432637214661 -15.463264465332031 4.158896446228027 0.003921568859369
-4.351124763488770 -29.102483749389648 2.402988910675049 0.003921568859369
-0.986670792102814 -6.288200855255127 -0.078084647655487 0.000000000000000
-3.656966924667358 -29.345216751098633 3.633028745651245 0.003921568859369
-3.670641660690308 -28.781949996948242 3.564857482910156 0.003921568859369
-1.880139827728271 -11.767970085144043 0.205950602889061 0.000000000000000
-0.849490821361542 -8.570097923278809 2.318768024444580 0.000000000000000
-0.782606422901154 -4.804951190948486 0.054699286818504 0.000000000000000
-2.487266778945923 -13.872835159301758 -0.086042366921902 0.000000000000000
-1.603122472763062 -9.372977256774902 0.164122477173805 0.000000000000000
-0.872356235980988 -7.386448383331299 2.007157087326050 0.000000000000000
-1.315119266510010 -9.481575012207031 -0.003468113485724 0.003921568859369
-2.562641620635986 -12.323997497558594 0.218038335442543 0.000000000000000
-0.943740308284760 -5.638522148132324 -0.172304674983025 0.000000000000000
-2.596734046936035 -12.313436508178711 0.217901036143303 0.000000000000000
-1.619065046310425 -6.814897060394287 0.079790972173214 0.000000000000000
-1.892800569534302 -9.195476531982422 0.162291035056114 0.000000000000000
-2.582016468048096 -13.240347862243652 0.312430530786514 0.000000000000000
-4.655282974243164 -17.499494552612305 0.739197731018066 0.003921568859369
-1.453332424163818 -9.944487571716309 0.055071581155062 0.000000000000000
-1.226069688796997 -8.602009773254395 -0.156708925962448 0.000000000000000
-1.508941769599915 -7.742362499237061 0.182468488812447 0.000000000000000
-1.367592692375183 -8.687500953674316 -0.158620402216911 0.000000000000000
-1.449345350265503 -9.076205253601074 0.050244078040123 0.000000000000000
-1.811749339103699 -10.797980308532715 0.317385107278824 0.000000000000000
-2.440482139587402 -8.317365646362305 0.355742126703262 0.000000000000000
-2.149419069290161 -7.412375926971436 1.430237531661987 0.000000000000000
-2.733363389968872 -10.698919296264648 -0.263432145118713 0.000000000000000
-2.026252746582031 -8.233106613159180 -0.003453386481851 0.003921568859369
-2.325450658798218 -8.671771049499512 -0.003396979533136 0.003921568859369
-3.049638032913208 -10.788524627685547 -0.267503261566162 0.000000000000000
-2.060712814331055 -8.929180145263672 0.266509860754013 0.000000000000000
-2.080353736877441 -7.326828956604004 0.949596405029297 0.000000000000000
