# This PCD file was generated using the MATLAB® pcwrite function
# from Computer Vision Toolbox®.
# .PCD v.7 - Point Cloud Data file format
VERSION .7
FIELDS x y z intensity
SIZE 8 8 8 8
TYPE F F F F
COUNT 1 1 1 1
WIDTH 647
HEIGHT 1
VIEWPOINT 0 0 0 1 0 0 0
POINTS 647
DATA ascii
0.886662900447845 2.871675014495850 -0.855376183986664 0.000000000000000
10.221441268920898 24.145046234130859 -0.765249133110046 0.003921568859369
0.898879110813141 2.875350952148438 -0.857533514499664 0.000000000000000
0.902104198932648 2.853564739227295 -0.852140367031097 0.000000000000000
8.460743904113770 26.743299484252930 0.163011327385902 0.003921568859369
0.911181390285492 2.845995426177979 -0.851061642169952 0.000000000000000
0.932695806026459 2.849383592605591 -0.853311359882355 0.000000000000000
0.937446892261505 2.835146665573120 -0.850075483322144 0.000000000000000
6.721157550811768 15.408129692077637 3.077972888946533 0.003921568859369
0.948749244213104 2.834857225418091 -0.851154029369354 0.000000000000000
6.904393196105957 15.670941352844238 3.135347604751587 0.003921568859369
0.952943027019501 2.816628217697144 -0.846839606761932 0.000000000000000
11.100979804992676 24.501394271850586 -0.784914135932922 0.003921568859369
0.976190865039825 2.844667434692383 -0.856546938419342 0.000000000000000
0.977418601512909 2.819246053695679 -0.850075244903564 0.000000000000000
10.977186203002930 24.011133193969727 -0.153865411877632 0.003921568859369
0.982380211353302 2.804742097854614 -0.846839368343353 0.000000000000000
12.694659233093262 24.304475784301758 -0.320202469825745 0.003921568859369
10.985522270202637 23.821891784667969 -0.152875155210495 0.003921568859369
11.342429161071777 24.362377166748047 -0.784211039543152 0.003921568859369
0.993638336658478 2.804270267486572 -0.847917914390564 0.000000000000000
10.570016860961914 25.937799453735352 1.634723305702209 0.003921568859369
1.003420233726501 2.800201177597046 -0.847917854785919 0.000000000000000
12.680165290832520 23.872449874877930 -0.315653383731842 0.003921568859369
1.012178540229797 2.792342424392700 -0.846839129924774 0.000000000000000
1.023429632186890 2.791751861572266 -0.847917675971985 0.000000000000000
1.024028539657593 2.766351461410522 -0.841445982456207 0.000000000000000
3.966334581375122 8.438464164733887 -0.765805006027222 0.000000000000000
10.454751014709473 24.666675567626953 -0.624990344047546 0.003921568859369
1.051231026649475 2.783596754074097 -0.848009467124939 0.000000000000000
1.053685188293457 2.761509180068970 -0.842616558074951 0.000000000000000
1.070636391639709 2.775083541870117 -0.848009169101715 0.000000000000000
13.599464416503906 24.329362869262695 -0.325291991233826 0.003921568859369
12.200485229492188 24.373920440673828 -0.795219600200653 0.003921568859369
1.077171921730042 2.763743162155151 -0.845851838588715 0.000000000000000
10.753582000732422 24.408418655395508 -0.622016489505768 0.003921568859369
1.083162784576416 2.752608299255371 -0.843694627285004 0.000000000000000
1.089573264122009 2.741246223449707 -0.841537415981293 0.000000000000000
1.105568528175354 2.750872611999512 -0.845851421356201 0.000000000000000
12.448574066162109 24.241065979003906 -0.158683702349663 0.003921568859369
1.118884801864624 2.753209829330444 -0.848008394241333 0.000000000000000
13.634397506713867 23.427267074584961 0.316656470298767 0.003921568859369
12.589859008789062 24.100198745727539 -0.793344974517822 0.003921568859369
1.123110294342041 2.738492488861084 -0.844772577285767 0.000000000000000
14.822132110595703 25.252754211425781 0.341850847005844 0.003921568859369
1.129372358322144 2.727036714553833 -0.842615365982056 0.000000000000000
14.951229095458984 25.268924713134766 -0.342740833759308 0.003921568859369
11.150562286376953 23.948728561401367 -0.616129159927368 0.003921568859369
1.137702941894531 2.718821048736572 -0.841536581516266 0.000000000000000
15.295717239379883 25.631298065185547 0.348431557416916 0.003921568859369
1.155533671379089 2.731635808944702 -0.846929192543030 0.000000000000000
1.171730041503906 2.723812580108643 -0.845941722393036 0.000000000000000
15.407520294189453 25.409610748291016 0.347080677747726 0.003921568859369
1.176151990890503 2.708804130554199 -0.842706084251404 0.000000000000000
5.475557327270508 11.493858337402344 -0.893760800361633 0.000000000000000
3.443014144897461 6.514028072357178 -0.605931341648102 0.000000000000000
11.682418823242188 24.176471710205078 -0.626024901866913 0.003921568859369
1.183892726898193 2.700706720352173 -0.841627299785614 0.000000000000000
1.195030689239502 2.699482917785645 -0.842705607414246 0.000000000000000
13.599800109863281 24.524003982543945 -0.163125053048134 0.003921568859369
1.204447031021118 2.694772481918335 -0.842705368995667 0.000000000000000
1.217328071594238 2.696900844573975 -0.844862103462219 0.000000000000000
6.940217018127441 13.988760948181152 4.203110218048096 0.003921568859369
12.252024650573730 24.469051361083984 -0.638048350811005 0.003921568859369
1.216215133666992 2.671534538269043 -0.838390886783600 0.000000000000000
14.588745117187500 22.977422714233398 0.318169206380844 0.003921568859369
1.243185520172119 2.700985908508301 -0.849175691604614 0.000000000000000
1.241943359375000 2.675603389739990 -0.842704474925995 0.000000000000000
1.251274585723877 2.670729875564575 -0.842704236507416 0.000000000000000
1.260588884353638 2.665823936462402 -0.842703998088837 0.000000000000000
1.260822534561157 2.643891811370850 -0.837311148643494 0.000000000000000
16.109764099121094 24.400876998901367 -0.341085076332092 0.003921568859369
14.938135147094727 25.232530593872070 -0.170634850859642 0.003921568859369
16.049886703491211 24.311044692993164 0.340389460325241 0.003921568859369
14.378924369812012 24.297433853149414 2.311368942260742 0.003921568859369
12.949967384338379 24.556793212890625 -0.647361934185028 0.003921568859369
1.288861393928528 2.659824609756470 -0.843874037265778 0.000000000000000
15.916465759277344 23.934627532958984 0.335971534252167 0.003921568859369
14.385651588439941 23.932312011718750 -0.814339876174927 0.003921568859369
1.290796995162964 2.641271352767944 -0.839559853076935 0.000000000000000
1.300008177757263 2.636258602142334 -0.839559614658356 0.000000000000000
1.307344198226929 2.627838850021362 -0.838480889797211 0.000000000000000
15.724950790405273 23.122018814086914 -0.325991839170456 0.003921568859369
5.592229843139648 10.403755187988281 -0.829541742801666 0.000000000000000
13.934460639953613 22.828289031982422 2.189839601516724 0.003921568859369
1.327733039855957 2.642970561981201 -0.844951450824738 0.000000000000000
11.607200622558594 23.815402984619141 0.154772639274597 0.003921568859369
14.498020172119141 23.557855606079102 2.264657974243164 0.003921568859369
1.338832378387451 2.641189098358154 -0.846029639244080 0.000000000000000
16.016275405883789 23.197778701782227 -0.328649699687958 0.003921568859369
14.539952278137207 23.442417144775391 2.258480310440063 0.003921568859369
1.346150040626526 2.632653713226318 -0.844950914382935 0.000000000000000
15.780118942260742 22.689443588256836 0.323183923959732 0.003921568859369
14.915334701538086 23.856287002563477 2.303372383117676 0.003921568859369
1.351519227027893 2.620752811431885 -0.842793762683868 0.000000000000000
15.487500190734863 22.107896804809570 0.315716803073883 0.003921568859369
14.463627815246582 22.962585449218750 2.222053527832031 0.003921568859369
1.352988958358765 2.602164745330811 -0.838479578495026 0.000000000000000
14.719646453857422 23.185859680175781 -0.159593552350998 0.003921568859369
15.573860168457031 22.066232681274414 0.315905302762985 0.003921568859369
14.739463806152344 23.216907501220703 2.251657247543335 0.003921568859369
1.367396235466003 2.607200145721436 -0.841714739799500 0.000000000000000
16.052539825439453 22.579521179199219 -0.322983473539352 0.003921568859369
1.384706854820251 2.614962339401245 -0.846028208732605 0.000000000000000
15.540071487426758 24.093992233276367 -0.166660517454147 0.003921568859369
1.384064435958862 2.593019247055054 -0.840635597705841 0.000000000000000
1.407786607742310 2.597648859024048 -0.843965649604797 0.000000000000000
15.551129341125488 23.733781814575195 -0.164925768971443 0.003921568859369
1.422318816184998 2.602449178695679 -0.847200751304626 0.000000000000000
15.598725318908691 23.635023117065430 -0.164595484733582 0.003921568859369
14.895319938659668 25.162185668945312 0.682324171066284 0.003921568859369
14.929243087768555 25.219039916992188 1.711022019386292 0.003921568859369
15.599843978881836 23.636829376220703 2.318327426910400 0.003921568859369
16.051067352294922 24.131555557250977 -0.845210909843445 0.003921568859369
1.425435423851013 2.587106704711914 -0.843965113162994 0.000000000000000
16.155668258666992 24.287567138671875 -0.169578343629837 0.003921568859369
14.931509017944336 25.023921966552734 0.680004596710205 0.003921568859369
1.428461432456970 2.571776151657104 -0.840729415416718 0.000000000000000
16.182106018066406 24.144403457641602 -0.168966963887215 0.003921568859369
15.853749275207520 23.658567428588867 2.331344842910767 0.003921568859369
1.445468544960022 2.579457521438599 -0.845043003559113 0.000000000000000
17.022481918334961 22.726369857788086 -0.331030011177063 0.003921568859369
17.053810119628906 22.767900466918945 0.332556337118149 0.003921568859369
1.462547183036804 2.587052106857300 -0.849356591701508 0.000000000000000
16.307680130004883 21.622018814086914 -0.315704077482224 0.003921568859369
16.288667678833008 23.761816024780273 -0.840189278125763 0.003921568859369
1.467504501342773 2.574925899505615 -0.847199440002441 0.000000000000000
15.564271926879883 25.269756317138672 0.692555308341980 0.003921568859369
15.948654174804688 23.270082473754883 5.157647609710693 0.003921568859369
1.482615590095520 2.579121112823486 -0.850434482097626 0.000000000000000
14.957004547119141 21.672784805297852 2.156343936920166 0.003921568859369
1.489104866981506 2.570494651794434 -0.849355816841125 0.000000000000000
16.190395355224609 23.279228210449219 -0.164810270071030 0.003921568859369
17.439701080322266 22.623544692993164 0.333960562944412 0.003921568859369
14.296187400817871 22.879425048828125 3.321635484695435 0.003921568859369
15.012763977050781 21.599777221679688 2.154069185256958 0.003921568859369
1.496001958847046 2.561569929122925 -0.848277032375336 0.000000000000000
17.962167739868164 23.129091262817383 -0.341432601213455 0.003921568859369
17.530881881713867 22.577825546264648 0.334195643663406 0.003921568859369
1.507457733154297 2.558828830718994 -0.849355220794678 0.000000000000000
15.838892936706543 24.928535461425781 1.724524974822998 0.003921568859369
14.129704475402832 22.260780334472656 3.246593713760376 0.003921568859369
1.510113120079041 2.543382167816162 -0.846119463443756 0.000000000000000
14.277582168579102 22.319597244262695 1.547674775123596 0.003921568859369
16.995576858520508 23.704288482666016 -0.850569725036621 0.003921568859369
1.533615469932556 2.547636747360229 -0.849449515342712 0.000000000000000
15.148218154907227 23.483648300170898 1.631776332855225 0.003921568859369
1.553055524826050 2.557946443557739 -0.854841470718384 0.000000000000000
15.903945922851562 22.030288696289062 -0.157878398895264 0.003921568859369
1.549238681793213 2.532794475555420 -0.848370552062988 0.000000000000000
17.978723526000977 22.325275421142578 -0.334161758422852 0.003921568859369
15.922895431518555 21.895406723022461 2.216510295867920 0.003921568859369
1.562337875366211 2.533354520797729 -0.850527107715607 0.000000000000000
14.971008300781250 25.284635543823242 0.171463012695312 0.003921568859369
14.960661888122559 22.672248840332031 3.344038963317871 0.003921568859369
1.579750299453735 2.540253400802612 -0.854840636253357 0.000000000000000
16.268060684204102 22.041980743408203 2.242866039276123 0.003921568859369
17.220573425292969 23.323001861572266 5.299677848815918 0.003921568859369
1.586452245712280 2.531101465225220 -0.853761911392212 0.000000000000000
1.595278620719910 2.525117874145508 -0.853761672973633 0.000000000000000
15.188328742980957 22.499917984008789 3.342097520828247 0.003921568859369
1.604082226753235 2.519103765487671 -0.853761374950409 0.000000000000000
16.180267333984375 21.450975418090820 -0.156108483672142 0.003921568859369
15.633680343627930 22.981353759765625 0.648808538913727 0.003921568859369
16.534173965454102 21.916734695434570 2.247753620147705 0.003921568859369
17.312929153442383 22.775770187377930 -0.834353208541870 0.003921568859369
1.621622204780579 2.525736093521118 -0.858074903488159 0.000000000000000
16.753553390502930 22.045230865478516 2.266950130462646 0.003921568859369
1.623827099800110 2.510145664215088 -0.854839265346527 0.000000000000000
16.156599044799805 23.392251968383789 1.660153031349182 0.003921568859369
1.630368709564209 2.500877857208252 -0.853760540485382 0.000000000000000
16.176265716552734 23.246995925903320 1.653880596160889 0.003921568859369
1.641311287879944 2.497887134552002 -0.854838669300079 0.000000000000000
16.380374908447266 23.364248275756836 3.512676239013672 0.003921568859369
1.656576395034790 2.488602876663208 -0.853855192661285 0.000000000000000
18.221895217895508 23.271484375000000 -0.171817377209663 0.003921568859369
1.678718924522400 2.501188755035400 -0.860325515270233 0.000000000000000
15.992013931274414 22.467699050903320 0.643682479858398 0.003921568859369
18.026891708374023 22.696233749389648 -0.845201671123505 0.003921568859369
1.673906922340393 2.476179361343384 -0.853854656219482 0.000000000000000
1.695702552795410 2.488925933837891 -0.860324978828430 0.000000000000000
17.979505538940430 22.483917236328125 5.262375354766846 0.003921568859369
1.695275187492371 2.470162391662598 -0.856011033058167 0.000000000000000
17.639347076416016 21.904003143310547 -0.163437798619270 0.003921568859369
16.398408889770508 22.540880203247070 3.431273460388184 0.003921568859369
1.722185254096985 2.488624334335327 -0.864638149738312 0.000000000000000
1.737753868103027 2.491473913192749 -0.867873191833496 0.000000000000000
16.237895965576172 24.403198242187500 0.171059995889664 0.003921568859369
1.739514708518982 2.475742816925049 -0.864637613296509 0.000000000000000
1.748145341873169 2.469256639480591 -0.864637315273285 0.000000000000000
18.810722351074219 22.694105148315430 2.412696599960327 0.003921568859369
5.499679565429688 7.443250656127930 2.499154329299927 0.000000000000000
17.888004302978516 23.867773056030273 -0.695308208465576 0.003921568859369
1.763745188713074 2.471940755844116 -0.867872357368469 0.000000000000000
19.087255477905273 22.862974166870117 2.437750101089478 0.003921568859369
17.917993545532227 23.734727859497070 -0.693255484104156 0.003921568859369
1.751295447349548 2.437839031219482 -0.858166217803955 0.000000000000000
18.025039672851562 23.703392028808594 -0.694184601306915 0.003921568859369
1.783309459686279 2.461819410324097 -0.868950247764587 0.000000000000000
17.333765029907227 22.635927200317383 -0.664642691612244 0.003921568859369
1.800669312477112 2.455208301544189 -0.869045138359070 0.000000000000000
16.722955703735352 21.675617218017578 1.598535299301147 0.003921568859369
1.821090817451477 2.463711977005005 -0.874436914920807 0.000000000000000
15.608163833618164 22.254940032958984 0.158726453781128 0.003921568859369
1.820146560668945 2.444867134094238 -0.870122969150543 0.000000000000000
15.634750366210938 22.128242492675781 0.158219933509827 0.003921568859369
1.816700458526611 2.423040866851807 -0.864730656147003 0.000000000000000
15.541820526123047 21.835809707641602 0.156534120440483 0.003921568859369
11.455819129943848 11.961586952209473 -0.968046367168427 0.003921568859369
17.423028945922852 22.095727920532227 1.642937660217285 0.003921568859369
18.345836639404297 23.259056091308594 3.645705699920654 0.003921568859369
1.850740551948547 2.450101375579834 -0.876592993736267 0.000000000000000
15.490997314453125 21.621103286743164 0.155356749892235 0.003921568859369
11.484985351562500 11.916620254516602 -0.967346847057343 0.003921568859369
1.856867432594299 2.440256357192993 -0.875514328479767 0.000000000000000
11.571217536926270 11.921738624572754 -0.971068024635315 0.003921568859369
1.875072121620178 2.445363521575928 -0.879827737808228 0.000000000000000
15.561229705810547 21.401952743530273 0.154574856162071 0.003921568859369
11.307114601135254 11.571010589599609 -0.945705950260162 0.003921568859369
1.886456608772278 2.441071987152100 -0.880905807018280 0.000000000000000
18.133152008056641 22.350807189941406 -0.670896589756012 0.003921568859369
1.894541740417480 2.434452295303345 -0.880905508995056 0.000000000000000
11.356554031372070 11.459996223449707 -0.943143427371979 0.003921568859369
1.903451204299927 2.427105188369751 -0.880905270576477 0.000000000000000
11.455163955688477 11.474170684814453 -0.947795033454895 0.003921568859369
1.916420459747314 2.426348209381104 -0.883061885833740 0.000000000000000
12.076072692871094 12.010512351989746 -0.995489478111267 0.003921568859369
1.937685966491699 2.433669567108154 -0.888453662395477 0.000000000000000
16.161041259765625 21.418710708618164 0.156736627221107 0.003921568859369
12.148559570312500 11.993704795837402 -0.997814297676086 0.003921568859369
1.954957365989685 2.426553487777710 -0.888548791408539 0.000000000000000
16.577291488647461 21.797187805175781 0.159873455762863 0.003921568859369
12.041569709777832 11.797894477844238 -0.985081970691681 0.003921568859369
1.970908284187317 2.428174018859863 -0.891783773899078 0.000000000000000
1.988977789878845 2.433000802993774 -0.896097123622894 0.000000000000000
2.000399112701416 2.428255319595337 -0.897175312042236 0.000000000000000
11.363234519958496 10.907535552978516 -0.920632719993591 0.000000000000000
2.034141540527344 2.449983358383179 -0.907958984375000 0.000000000000000
11.456381797790527 10.919578552246094 -0.925051629543304 0.000000000000000
2.052831649780273 2.454121589660645 -0.912272393703461 0.000000000000000
4.692776679992676 4.957109928131104 -0.561755001544952 0.000000000000000
2.052890777587891 2.438686847686768 -0.909036934375763 0.000000000000000
4.499890804290771 4.727658748626709 -0.537337601184845 0.000000000000000
2.079290866851807 2.451332092285156 -0.916585445404053 0.000000000000000
2.093823909759521 2.448700666427612 -0.918741941452026 0.000000000000000
2.124700546264648 2.467571735382080 -0.928447306156158 0.000000000000000
2.162194728851318 2.490797996520996 -0.940309405326843 0.000000000000000
2.188621520996094 2.503206253051758 -0.947857975959778 0.000000000000000
11.613804817199707 11.631192207336426 -0.864279687404633 0.003921568859369
5.441489219665527 6.066333770751953 2.201920270919800 0.000000000000000
2.240455865859985 2.531701087951660 -0.961971879005432 0.000000000000000
11.936307907104492 10.749269485473633 -0.938602626323700 0.003921568859369
2.296391248703003 2.574426651000977 -0.981382727622986 0.003921568859369
12.045427322387695 10.770857810974121 -0.944184660911560 0.003921568859369
2.339062452316284 2.603131055831909 -0.995401442050934 0.000000000000000
12.078082084655762 10.727924346923828 -0.943950712680817 0.003921568859369
12.165404319763184 10.725334167480469 -0.947671413421631 0.003921568859369
12.386609077453613 10.842297554016113 -0.961861073970795 0.003921568859369
12.273231506347656 10.668233871459961 -0.950227677822113 0.003921568859369
12.458245277404785 10.759324073791504 -0.961858391761780 0.003921568859369
12.591860771179199 10.793503761291504 -0.969068586826324 0.003921568859369
12.687404632568359 10.798156738281250 -0.973487257957458 0.003921568859369
12.820765495300293 10.757278442382812 -0.977904438972473 0.003921568859369
12.951732635498047 10.793340682983398 -0.985114812850952 0.003921568859369
12.999929428100586 10.745590209960938 -0.985182404518127 0.003921568859369
11.860006332397461 11.535983085632324 -0.772747874259949 0.000000000000000
11.877134323120117 11.472109794616699 -0.771257042884827 0.000000000000000
11.873711585998535 11.388961791992188 -0.768462717533112 0.000000000000000
11.873692512512207 11.313550949096680 -0.766040861606598 0.000000000000000
11.886905670166016 11.247131347656250 -0.764363884925842 0.000000000000000
11.910523414611816 11.186841011047363 -0.763245344161987 0.000000000000000
11.934842109680176 11.131344795227051 -0.762313067913055 0.000000000000000
11.939254760742188 11.053663253784180 -0.759773254394531 0.000000000000000
13.498131752014160 10.841851234436035 -0.909675657749176 0.003921568859369
13.610996246337891 10.854008674621582 -0.914700210094452 0.003921568859369
12.785859107971191 10.871116638183594 -0.783474802970886 0.003921568859369
12.930799484252930 10.916172027587891 -0.789990067481995 0.003921568859369
13.250263214111328 10.875031471252441 -0.800225913524628 0.000000000000000
3.322396993637085 2.989335536956787 -0.078159011900425 0.000000000000000
5.883689880371094 4.755697250366211 -0.531764268875122 0.000000000000000
11.951985359191895 8.358231544494629 -0.766156077384949 0.000000000000000
11.313101768493652 9.624422073364258 -0.954065978527069 0.000000000000000
7.054290294647217 5.931324958801270 -0.592763662338257 0.000000000000000
7.044214248657227 5.881011486053467 -0.590204358100891 0.000000000000000
13.841540336608887 9.388542175292969 -0.878383696079254 0.003921568859369
6.145528316497803 4.125508785247803 -0.389675706624985 0.000000000000000
4.334957122802734 2.764785528182983 -0.422297239303589 0.000000000000000
11.364678382873535 7.092368602752686 -0.703618764877319 0.000000000000000
4.789513587951660 2.912047386169434 1.029330015182495 0.000000000000000
13.114244461059570 7.674170970916748 2.776228904724121 0.000000000000000
9.234763145446777 5.366755962371826 1.953313589096069 0.000000000000000
17.332437515258789 11.140492439270020 -0.960874199867249 0.003921568859369
3.677411079406738 2.080690383911133 -0.024348814040422 0.000000000000000
6.672308444976807 4.673675060272217 -0.523586332798004 0.000000000000000
12.951956748962402 7.162883758544922 2.704488039016724 0.000000000000000
8.977941513061523 4.889296531677246 0.837429344654083 0.000000000000000
11.624653816223145 6.272473812103271 1.081179976463318 0.000000000000000
8.762143135070801 4.572821140289307 0.809029698371887 0.000000000000000
6.973010540008545 3.580031394958496 0.642079114913940 0.000000000000000
7.264342784881592 3.666647911071777 0.666487693786621 0.000000000000000
6.200587749481201 3.465707063674927 0.875299036502838 0.000000000000000
6.221371650695801 3.087662220001221 1.270929813385010 0.000000000000000
7.083946228027344 3.483112335205078 0.646636426448822 0.000000000000000
5.504517555236816 2.900287628173828 0.363440871238708 0.000000000000000
6.652492046356201 3.299339771270752 1.994127750396729 0.000000000000000
20.041036605834961 9.315176010131836 5.923924922943115 0.003921568859369
13.913365364074707 5.658755779266357 2.740124464035034 0.000000000000000
14.674096107482910 6.389615058898926 0.932084918022156 0.000000000000000
21.265535354614258 9.171591758728027 6.205445766448975 0.003921568859369
2.941974401473999 1.256680607795715 0.074442051351070 0.000000000000000
21.290311813354492 9.094274520874023 6.203374862670898 0.003921568859369
5.444337844848633 2.600317716598511 0.175590470433235 0.000000000000000
7.576778888702393 2.717356204986572 0.327937901020050 0.000000000000000
10.253446578979492 4.169753074645996 1.359086990356445 0.000000000000000
5.537467479705811 2.209227561950684 0.347206234931946 0.000000000000000
3.931236982345581 1.334475517272949 0.756936609745026 0.000000000000000
3.804123640060425 1.453132510185242 -0.000098647360574 0.000000000000000
7.092529296875000 2.683851242065430 0.930012106895447 0.000000000000000
8.285943031311035 2.148398160934448 0.099457904696465 0.000000000000000
10.112119674682617 3.117937564849854 -0.554226756095886 0.000000000000000
9.853168487548828 3.000422477722168 0.419191032648087 0.000000000000000
6.074417114257812 1.731160521507263 -0.330331146717072 0.000000000000000
19.949691772460938 5.696928024291992 3.779488563537598 0.003921568859369
12.565526962280273 3.541463375091553 -0.683483183383942 0.000000000000000
11.043105125427246 3.028838396072388 0.933225214481354 0.000000000000000
13.564149856567383 3.721386909484863 2.561203479766846 0.000000000000000
14.923282623291016 3.983061552047729 1.259339690208435 0.000000000000000
8.324775695800781 2.628956079483032 0.507247090339661 0.000000000000000
17.440681457519531 4.525677680969238 0.314034044742584 0.003921568859369
9.534643173217773 2.831889390945435 1.218991875648499 0.000000000000000
6.754707336425781 1.976583003997803 1.878734707832336 0.000000000000000
4.605938911437988 1.328005790710449 0.585162818431854 0.000000000000000
7.267012119293213 2.044988632202148 -0.350763529539108 0.000000000000000
8.957636833190918 2.931495428085327 0.273284614086151 0.000000000000000
7.442260265350342 2.038682937622070 0.447611898183823 0.000000000000000
17.995573043823242 4.939868450164795 -0.868349313735962 0.000000000000000
11.400340080261230 3.126757621765137 3.160417079925537 0.000000000000000
7.133758068084717 1.927220582962036 -0.000292196986265 0.000000000000000
17.204141616821289 3.767734527587891 3.206121921539307 0.003921568859369
17.074605941772461 4.558913707733154 0.410372644662857 0.000000000000000
5.034985542297363 1.080285906791687 0.208446890115738 0.000000000000000
6.125406265258789 1.315468430519104 0.509043753147125 0.000000000000000
19.682529449462891 3.173504114151001 0.231515154242516 0.003921568859369
9.472289085388184 2.002849340438843 0.787967264652252 0.000000000000000
11.594293594360352 2.452769994735718 2.155725955963135 0.000000000000000
10.445752143859863 2.171283245086670 0.433323621749878 0.000000000000000
11.096609115600586 2.877656221389771 1.404138803482056 0.000000000000000
11.074910163879395 1.704749464988708 -0.130442276597023 0.000000000000000
10.620320320129395 1.634606122970581 0.124496847391129 0.000000000000000
10.152133941650391 2.558704853057861 -0.000286559923552 0.003921568859369
12.419336318969727 2.494656801223755 0.514741003513336 0.000000000000000
5.908584594726562 1.161039352416992 0.243518918752670 0.000000000000000
16.344314575195312 3.223894596099854 1.356784701347351 0.000000000000000
7.406637668609619 1.808128833770752 0.176222667098045 0.000000000000000
6.181483745574951 1.507609128952026 0.776644289493561 0.000000000000000
12.898338317871094 3.107551097869873 3.545445680618286 0.000000000000000
10.830913543701172 2.568283081054688 0.257838845252991 0.000000000000000
4.961695194244385 0.638270020484924 0.057427223771811 0.000000000000000
12.700428962707520 2.274661540985107 2.345758438110352 0.000000000000000
14.073895454406738 3.133334875106812 0.334334671497345 0.000000000000000
8.624944686889648 1.917175650596619 0.512163698673248 0.000000000000000
8.231828689575195 1.383698105812073 -0.436041295528412 0.000000000000000
7.617540359497070 1.225617527961731 -0.223930314183235 0.000000000000000
16.007139205932617 2.524484872817993 1.319673538208008 0.000000000000000
7.860392570495605 0.821864247322083 -0.092003911733627 0.000000000000000
7.376463413238525 1.109241127967834 -0.043601389974356 0.000000000000000
6.831945896148682 1.026860356330872 0.559937119483948 0.000000000000000
9.865695953369141 2.449250221252441 -0.177167445421219 0.000000000000000
4.124701023101807 0.792653918266296 0.241586402058601 0.000000000000000
12.556956291198730 1.801401376724243 1.031536698341370 0.000000000000000
8.102709770202637 1.160154104232788 1.483957052230835 0.000000000000000
15.004330635070801 2.854426860809326 0.886494874954224 0.000000000000000
15.029902458190918 2.805130004882812 0.887424230575562 0.000000000000000
18.464473724365234 2.524008989334106 0.757000803947449 0.003921568859369
1.999117016792297 0.365994930267334 0.243715390563011 0.000000000000000
5.734828948974609 1.043693542480469 -0.270009130239487 0.000000000000000
7.923877716064453 1.050323486328125 0.648461759090424 0.000000000000000
14.267032623291016 2.559691190719604 0.841141819953918 0.000000000000000
7.840340614318848 1.012885332107544 0.641301095485687 0.000000000000000
10.757654190063477 2.432566881179810 -0.192246824502945 0.000000000000000
13.808017730712891 2.425046443939209 -0.000480696995510 0.000000000000000
3.802151679992676 0.826462626457214 0.021860383450985 0.000000000000000
11.530390739440918 1.370138049125671 -0.067729331552982 0.000000000000000
11.559080123901367 0.805676043033600 0.133878454566002 0.000000000000000
11.765213966369629 1.895470142364502 0.275500565767288 0.000000000000000
6.924757003784180 0.769947767257690 0.120094209909439 0.000000000000000
7.719135761260986 0.807507216930389 -0.224952369928360 0.000000000000000
14.489634513854980 1.520558595657349 2.646172285079956 0.000000000000000
15.949960708618164 1.612710118293762 0.650397717952728 0.000000000000000
16.952693939208984 2.499340295791626 2.097038984298706 0.003921568859369
4.302232265472412 0.402665078639984 0.173288613557816 0.000000000000000
6.700094223022461 1.245557785034180 -0.118645444512367 0.000000000000000
5.132525444030762 0.697005033493042 0.297994524240494 0.000000000000000
9.842372894287109 1.343239784240723 -0.460882335901260 0.000000000000000
6.557832241058350 0.868275344371796 0.805195569992065 0.000000000000000
7.428885459899902 0.984514892101288 1.993339300155640 0.000000000000000
17.773214340209961 1.488793730735779 3.241675376892090 0.003921568859369
11.924518585205078 0.955739498138428 0.484626263380051 0.000000000000000
19.298437118530273 2.500383138656616 5.199615478515625 0.003921568859369
12.981162071228027 1.040765881538391 2.364195585250854 0.000000000000000
5.554114818572998 0.424558192491531 -0.161192640662193 0.000000000000000
8.849657058715820 0.647971868515015 0.358754277229309 0.000000000000000
4.864238262176514 0.354413509368896 0.879010856151581 0.000000000000000
11.363044738769531 0.201849058270454 -0.132313102483749 0.000000000000000
8.395347595214844 0.497064769268036 -0.438243180513382 0.000000000000000
9.995948791503906 1.046457886695862 0.231742575764656 0.000000000000000
14.087934494018555 0.787369251251221 2.560677289962769 0.000000000000000
3.168807983398438 0.164137646555901 0.053591739386320 0.000000000000000
9.997551918029785 0.976485908031464 2.674449443817139 0.000000000000000
10.181380271911621 0.461862951517105 0.826272606849670 0.000000000000000
10.432168006896973 0.948005139827728 1.277948141098022 0.000000000000000
17.971942901611328 0.692159056663513 -0.104886382818222 0.000000000000000
14.709947586059570 0.466272264719009 -0.085896961390972 0.000000000000000
4.152145385742188 0.130236059427261 0.166015759110451 0.000000000000000
7.096608638763428 0.199191242456436 -0.205388352274895 0.000000000000000
8.461498260498047 0.180703505873680 0.341116458177567 0.000000000000000
7.106303691864014 0.125744059681892 -0.205622971057892 0.000000000000000
8.898696899414062 0.995510280132294 0.257752746343613 0.000000000000000
8.862777709960938 0.960404276847839 -0.361145675182343 0.000000000000000
8.680848121643066 0.065182290971279 0.149472311139107 0.000000000000000
6.353141784667969 0.025638490915298 0.255139529705048 0.000000000000000
7.861362457275391 0.412916958332062 -0.182364061474800 0.000000000000000
7.729107856750488 0.755501806735992 0.043918874114752 0.000000000000000
11.930204391479492 0.006968108005822 -0.069759979844093 0.000000000000000
10.187618255615234 0.005902966018766 1.843799471855164 0.000000000000000
6.887522697448730 0.648467063903809 0.038987960666418 0.000000000000000
3.653646707534790 0.164857089519501 0.082644991576672 0.000000000000000
8.459308624267578 0.385876357555389 0.488246053457260 0.000000000000000
10.986042022705078 0.463910967111588 0.635454952716827 0.000000000000000
6.090256690979004 -0.038477890193462 0.490612030029297 0.000000000000000
11.246881484985352 0.435929685831070 0.259448707103729 0.000000000000000
10.556296348571777 -0.103649035096169 0.182207882404327 0.000000000000000
12.915122032165527 0.455883204936981 -0.000922054518014 0.000000000000000
8.019604682922363 -0.106118395924568 -0.417111605405807 0.000000000000000
14.862166404724121 -0.197715893387794 2.694613218307495 0.000000000000000
11.937325477600098 -0.199920713901520 -0.069869928061962 0.000000000000000
6.297928810119629 0.462604910135269 0.035324335098267 0.000000000000000
2.628165960311890 0.064754478633404 -0.179226130247116 0.000000000000000
15.530167579650879 0.392139881849289 1.896824479103088 0.000000000000000
12.548967361450195 -0.338777780532837 2.273452043533325 0.000000000000000
7.904221534729004 -0.239857062697411 -0.228776946663857 0.000000000000000
9.538608551025391 -0.289973884820938 -0.055946078151464 0.000000000000000
22.565773010253906 -0.689519286155701 4.100847244262695 0.003921568859369
8.552754402160645 0.539677679538727 -0.149123415350914 0.000000000000000
8.382868766784668 0.528847634792328 0.241231799125671 0.000000000000000
12.358180999755859 -0.419339150190353 0.213507965207100 0.000000000000000
10.011717796325684 0.146270036697388 2.660765409469604 0.000000000000000
5.680984020233154 0.337162345647812 0.031694352626801 0.000000000000000
19.914377212524414 -0.809150397777557 -0.116340167820454 0.000000000000000
11.167050361633301 -0.452349096536636 2.022333145141602 0.000000000000000
5.613533496856689 0.044863283634186 -0.129715308547020 0.000000000000000
17.517551422119141 -0.778448522090912 -0.102412812411785 0.000000000000000
6.005576133728027 -0.264529824256897 0.483341634273529 0.000000000000000
11.664072990417480 0.008908377029002 0.268638819456100 0.000000000000000
4.113950252532959 0.200489863753319 -0.259825497865677 0.000000000000000
10.357667922973633 -0.494818985462189 1.875249743461609 0.000000000000000
9.703490257263184 0.444473326206207 -0.169092267751694 0.000000000000000
3.529873132705688 -0.178132355213165 -0.182018488645554 0.000000000000000
11.273080825805664 0.477496415376663 0.324791073799133 0.000000000000000
5.123769760131836 -0.048785194754601 -0.001036672852933 0.000000000000000
9.477050781250000 -0.091050431132317 1.151843667030334 0.000000000000000
11.881005287170410 -0.691503584384918 2.152800321578979 0.000000000000000
4.836258888244629 0.169548600912094 -0.083963319659233 0.000000000000000
18.237382888793945 0.647905707359314 -0.740916609764099 0.003921568859369
5.809233188629150 0.186292111873627 -0.367889910936356 0.000000000000000
15.769124984741211 0.455667257308960 0.090151362121105 0.000000000000000
19.319637298583984 -0.381249457597733 1.119168043136597 0.000000000000000
3.367805242538452 -0.064955562353134 -0.153844490647316 0.000000000000000
8.179851531982422 -0.641872584819794 0.329648613929749 0.000000000000000
5.097372531890869 -0.397320747375488 -0.264402419328690 0.000000000000000
6.780309677124023 -0.530875921249390 1.222959995269775 0.000000000000000
16.174655914306641 0.186561524868011 0.092467240989208 0.000000000000000
2.897121667861938 -0.242531239986420 0.048174027353525 0.000000000000000
9.325756072998047 -0.378361552953720 0.214088037610054 0.000000000000000
2.590868234634399 0.019903473556042 0.071809560060501 0.000000000000000
6.453701019287109 -0.593346118927002 -0.187117978930473 0.000000000000000
10.046331405639648 -1.421782135963440 -0.118192814290524 0.000000000000000
8.449694633483887 -0.368799567222595 0.486388891935349 0.000000000000000
6.932236194610596 -0.350441575050354 0.397448986768723 0.000000000000000
8.982468605041504 -0.953568279743195 1.628212094306946 0.000000000000000
18.909152984619141 -0.372776538133621 0.546440422534943 0.003921568859369
6.210896492004395 -0.440940499305725 0.751510143280029 0.000000000000000
5.486495971679688 -0.426512926816940 0.124653019011021 0.000000000000000
12.451951980590820 -0.415258109569550 -0.216939210891724 0.000000000000000
12.220829963684082 -0.407508850097656 0.351885467767715 0.000000000000000
2.873767137527466 -0.239241003990173 0.063711710274220 0.000000000000000
16.905611038208008 -1.506690979003906 0.981008887290955 0.000000000000000
2.980594158172607 -0.410393834114075 0.528239965438843 0.000000000000000
8.679468154907227 -1.254587173461914 1.578587889671326 0.000000000000000
9.904672622680664 -0.500602006912231 0.055761780589819 0.000000000000000
5.587185859680176 -0.298237055540085 0.158511027693748 0.000000000000000
6.994270324707031 -1.055924773216248 1.269364595413208 0.000000000000000
10.768834114074707 -1.825489640235901 0.187518507242203 0.000000000000000
4.472395896911621 -0.389205366373062 -0.077733464539051 0.000000000000000
9.187857627868652 -1.259716749191284 0.532082259654999 0.000000000000000
3.910791873931885 -0.527061879634857 1.025626897811890 0.000000000000000
4.626318454742432 -0.418834924697876 -0.080457381904125 0.000000000000000
28.533720016479492 -7.553498268127441 0.340662658214569 0.003921568859369
6.844442844390869 -1.124349236488342 1.826903581619263 0.000000000000000
21.018058776855469 -3.791154384613037 -0.001596002257429 0.003921568859369
28.202541351318359 -7.990100860595703 0.338094353675842 0.003921568859369
4.911253452301025 -1.112742543220520 0.399805158376694 0.000000000000000
3.331797599792480 -0.582132220268250 0.872311532497406 0.000000000000000
27.655651092529297 -7.938471317291260 0.331810235977173 0.003921568859369
9.435062408447266 -1.723201036453247 2.535952806472778 0.000000000000000
14.776229858398438 -2.767063140869141 -0.001553383888677 0.000000000000000
27.703151702880859 -8.061774253845215 0.332736074924469 0.003921568859369
27.687770843505859 -8.156592369079590 0.332871556282043 0.003921568859369
6.774452686309814 -1.278906583786011 1.813348174095154 0.000000000000000
11.349906921386719 -1.676585078239441 0.328845500946045 0.000000000000000
16.948116302490234 -3.415054559707642 -0.001581119839102 0.003921568859369
25.932518005371094 -5.426908493041992 7.065129280090332 0.003921568859369
7.496347904205322 -1.309523463249207 0.041952494531870 0.000000000000000
27.756494522094727 -7.959650039672852 2.345175981521606 0.003921568859369
26.948896408081055 -7.727073669433594 5.086640357971191 0.003921568859369
27.181282043457031 -7.896269798278809 2.298635005950928 0.003921568859369
9.853302001953125 -3.473676681518555 0.118580289185047 0.000000000000000
26.980264663696289 -8.138530731201172 2.288533926010132 0.003921568859369
4.238612174987793 -1.261187314987183 -0.026504084467888 0.000000000000000
27.245519638061523 -7.294803142547607 3.444863796234131 0.003921568859369
25.923290252685547 -7.035727024078369 7.159401416778564 0.003921568859369
23.985620498657227 -8.053956985473633 2.052947759628296 0.003921568859369
22.055147171020508 -7.402008056640625 4.215660572052002 0.003921568859369
10.958339691162109 -3.733786582946777 -0.068129017949104 0.000000000000000
22.777563095092773 -6.766935348510742 2.899353027343750 0.003921568859369
21.839948654174805 -7.659856796264648 1.876869916915894 0.003921568859369
12.755414009094238 -3.818845987319946 -0.001602494157851 0.000000000000000
24.059801101684570 -8.628363609313965 2.073486328125000 0.003921568859369
13.684274673461914 -3.586694002151489 -0.245982766151428 0.000000000000000
19.952438354492188 -8.751657485961914 0.250351101160049 0.003921568859369
26.957223892211914 -12.066140174865723 -0.343982279300690 0.003921568859369
27.036071777343750 -10.554450035095215 2.356273412704468 0.003921568859369
26.860309600830078 -12.134857177734375 0.339810580015182 0.003921568859369
22.718717575073242 -8.950670242309570 1.980370998382568 0.003921568859369
26.976537704467773 -10.747825622558594 2.357566356658936 0.003921568859369
20.889196395874023 -8.393119812011719 1.824797868728638 0.003921568859369
5.378781318664551 -2.176338911056519 -0.034557782113552 0.000000000000000
28.115602493286133 -10.193439483642578 1.731450319290161 0.003921568859369
14.135548591613770 -6.174089431762695 2.784282922744751 0.000000000000000
13.948588371276855 -6.149120330810547 2.751276254653931 0.000000000000000
9.744073867797852 -4.634029865264893 0.431736618280411 0.000000000000000
26.200662612915039 -11.488558769226074 1.655614972114563 0.003921568859369
26.925830841064453 -12.140640258789062 0.682051062583923 0.003921568859369
20.192394256591797 -8.091626167297363 -0.881156384944916 0.003921568859369
20.270425796508789 -8.369090080261230 0.124951586127281 0.003921568859369
13.488704681396484 -7.201434135437012 -0.089689321815968 0.000000000000000
7.003372669219971 -3.301989555358887 -0.001759018283337 0.000000000000000
24.838180541992188 -13.778583526611328 5.149114131927490 0.003921568859369
23.836479187011719 -13.327760696411133 4.948268890380859 0.003921568859369
24.179864883422852 -13.631836891174316 5.030061244964600 0.003921568859369
13.858663558959961 -7.828256607055664 2.871044874191284 0.003921568859369
24.160665512084961 -13.949440956115723 5.055877208709717 0.003921568859369
2.865786314010620 -1.401484012603760 0.808762252330780 0.000000000000000
25.236982345581055 -14.928982734680176 5.315602779388428 0.003921568859369
11.643797874450684 -6.141978263854980 3.481966495513916 0.000000000000000
7.041215419769287 -3.792587995529175 2.095633268356323 0.000000000000000
9.262100219726562 -5.662191867828369 0.433748006820679 0.000000000000000
25.215806961059570 -15.867729187011719 2.417225837707520 0.003921568859369
6.913761615753174 -3.814496040344238 2.068710088729858 0.000000000000000
24.100841522216797 -15.160851478576660 5.159923553466797 0.003921568859369
13.014426231384277 -7.342801570892334 3.957161188125610 0.000000000000000
22.417285919189453 -14.432744979858398 4.829845905303955 0.003921568859369
13.273671150207520 -7.668018817901611 1.859939336776733 0.000000000000000
24.728666305541992 -16.166017532348633 2.397016286849976 0.003921568859369
15.368049621582031 -9.998388290405273 3.311557531356812 0.003921568859369
11.817817687988281 -7.776022434234619 2.548107862472534 0.000000000000000
9.000984191894531 -5.329708576202393 0.597712159156799 0.000000000000000
14.785820960998535 -9.835317611694336 1.434810280799866 0.003921568859369
14.006745338439941 -9.448462486267090 1.363853216171265 0.000000000000000
22.744962692260742 -15.429743766784668 4.979111671447754 0.003921568859369
11.920713424682617 -6.487419605255127 0.388064563274384 0.000000000000000
13.589625358581543 -9.224849700927734 1.325438976287842 0.003921568859369
22.715820312500000 -15.513884544372559 4.983412265777588 0.003921568859369
24.009395599365234 -14.986730575561523 7.536317348480225 0.003921568859369
11.737239837646484 -8.073815345764160 2.565309286117554 0.003921568859369
14.691286087036133 -9.184473991394043 4.594899654388428 0.003921568859369
2.200764179229736 -1.152591228485107 0.065158255398273 0.000000000000000
24.989816665649414 -15.962375640869141 3.618484973907471 0.003921568859369
12.974497795104980 -8.287948608398438 1.867705821990967 0.000000000000000
13.805109977722168 -8.827117919921875 4.343300819396973 0.003921568859369
15.220020294189453 -9.816061019897461 2.201183080673218 0.003921568859369
14.779916763305664 -10.579518318176270 1.468642234802246 0.000000000000000
23.059368133544922 -16.588617324829102 5.147688388824463 0.003921568859369
15.444496154785156 -11.143280029296875 1.539600372314453 0.000000000000000
15.271953582763672 -11.102117538452148 1.526250481605530 0.000000000000000
14.459002494812012 -10.503310203552246 3.226851224899292 0.003921568859369
15.469158172607422 -10.357501029968262 2.262612819671631 0.003921568859369
23.036308288574219 -17.181102752685547 2.330633401870728 0.003921568859369
12.661219596862793 -9.371473312377930 2.839379310607910 0.000000000000000
13.166226387023926 -9.822528839111328 1.325402021408081 0.000000000000000
11.646967887878418 -8.670700073242188 2.614784955978394 0.000000000000000
13.473104476928711 -9.141973495483398 4.314292430877686 0.003921568859369
14.291703224182129 -10.909980773925781 1.452346086502075 0.000000000000000
13.015609741210938 -9.292568206787109 1.940794587135315 0.003921568859369
3.634486675262451 -3.069759607315063 0.051370963454247 0.000000000000000
11.487959861755371 -9.374364852905273 0.253966242074966 0.003921568859369
8.358130455017090 -6.212895393371582 2.741540670394897 0.000000000000000
10.873803138732910 -9.053933143615723 1.139472961425781 0.003921568859369
8.256761550903320 -6.180026054382324 2.714619159698486 0.000000000000000
8.232085227966309 -6.205677509307861 2.713581562042236 0.000000000000000
8.182957649230957 -6.212217807769775 2.704261302947998 0.000000000000000
13.280165672302246 -10.262478828430176 4.448832511901855 0.003921568859369
22.026371002197266 -19.056051254272461 2.362461805343628 0.003921568859369
22.130619049072266 -19.267650604248047 2.379764556884766 0.003921568859369
13.089183807373047 -10.395314216613770 4.429151535034180 0.003921568859369
10.466008186340332 -8.390574455261230 1.623334527015686 0.003921568859369
11.154589653015137 -9.022116661071777 1.737910032272339 0.003921568859369
11.055156707763672 -9.937369346618652 0.596786677837372 0.000000000000000
9.883733749389648 -8.029502868652344 1.539954185485840 0.000000000000000
10.937018394470215 -9.894555091857910 0.592059075832367 0.000000000000000
12.071929931640625 -11.487597465515137 1.344488620758057 0.003921568859369
13.555986404418945 -11.961730003356934 1.040697813034058 0.003921568859369
9.562307357788086 -8.375008583068848 3.356453418731689 0.003921568859369
11.272192955017090 -10.124771118164062 0.346547812223434 0.003921568859369
9.879361152648926 -8.846861839294434 1.604746818542480 0.003921568859369
11.279351234436035 -10.553446769714355 0.353321969509125 0.000000000000000
11.220622062683105 -9.646972656250000 0.082998737692833 0.003921568859369
11.560862541198730 -10.019863128662109 0.437934607267380 0.000000000000000
11.052953720092773 -10.556179046630859 4.045960903167725 0.000000000000000
9.347346305847168 -9.872159004211426 1.094078302383423 0.000000000000000
19.307386398315430 -23.137504577636719 -0.350832730531693 0.003921568859369
11.235378265380859 -10.005322456359863 0.430581539869308 0.003921568859369
11.818518638610840 -11.705160140991211 -0.001955443061888 0.003921568859369
10.113238334655762 -9.980405807495117 1.721218347549438 0.003921568859369
12.922155380249023 -14.427631378173828 3.498595714569092 0.003921568859369
11.306497573852539 -10.420417785644531 0.440109908580780 0.000000000000000
19.026096343994141 -21.531318664550781 5.206399917602539 0.003921568859369
18.676290512084961 -23.507995605468750 -0.349544703960419 0.003921568859369
12.892839431762695 -13.232995033264160 4.901140213012695 0.003921568859369
19.361804962158203 -22.535966873168945 2.410204648971558 0.003921568859369
10.059299468994141 -10.557155609130859 3.858496904373169 0.003921568859369
19.085018157958984 -22.534442901611328 2.395538330078125 0.003921568859369
10.048581123352051 -10.619717597961426 3.868846654891968 0.003921568859369
10.055809020996094 -10.702280998229980 3.886444330215454 0.000000000000000
10.005393028259277 -10.722131729125977 3.881263256072998 0.003921568859369
10.514646530151367 -12.798103332519531 1.336511135101318 0.000000000000000
12.970551490783691 -14.467276573181152 2.362307786941528 0.003921568859369
17.919935226440430 -20.103132247924805 7.167534828186035 0.003921568859369
12.286245346069336 -14.080203056335449 4.959044456481934 0.003921568859369
10.523530006408691 -12.100678443908691 1.945886731147766 0.003921568859369
16.031644821166992 -20.554252624511719 2.112906455993652 0.003921568859369
17.883710861206055 -20.782499313354492 7.298989295959473 0.003921568859369
17.850870132446289 -20.891172409057617 7.315547466278076 0.003921568859369
17.756711959838867 -20.919738769531250 7.305186271667480 0.003921568859369
17.573688507080078 -20.840909957885742 7.257551670074463 0.003921568859369
11.371829032897949 -14.787584304809570 3.370038509368896 0.003921568859369
9.079519271850586 -10.681998252868652 0.804116845130920 0.000000000000000
