# This PCD file was generated using the MATLAB® pcwrite function
# from Computer Vision Toolbox®.
# .PCD v.7 - Point Cloud Data file format
VERSION .7
FIELDS x y z intensity
SIZE 8 8 8 8
TYPE F F F F
COUNT 1 1 1 1
WIDTH 645
HEIGHT 1
VIEWPOINT 0 0 0 1 0 0 0
POINTS 645
DATA ascii
9.477457046508789 0.397993803024292 0.220150187611580 0.000000000000000
5.928752422332764 0.248591139912605 -0.275287836790085 0.000000000000000
16.869567871093750 0.650305211544037 -0.785276651382446 0.000000000000000
16.867282867431641 0.650217115879059 -0.392233908176422 0.000000000000000
16.697858810424805 -1.218080878257751 0.194573059678078 0.003921568859369
10.333661079406738 -0.753053128719330 -0.360875129699707 0.000000000000000
7.705207347869873 0.136826008558273 0.447193086147308 0.000000000000000
14.632716178894043 -0.604250013828278 0.255136489868164 0.000000000000000
17.419700622558594 0.920895397663116 0.506853520870209 0.003921568859369
3.974580526351929 0.194502755999565 0.022959291934967 0.000000000000000
3.190258264541626 0.155856937170029 0.092150039970875 0.000000000000000
9.388855934143066 -0.029255842790008 0.217822417616844 0.000000000000000
5.904609203338623 -0.325215160846710 0.239672407507896 0.000000000000000
10.803532600402832 0.382045388221741 0.062636055052280 0.000000000000000
3.208646535873413 -0.053740896284580 0.185104906558990 0.000000000000000
4.580307006835938 -0.092829801142216 -0.105904772877693 0.000000000000000
3.165008783340454 -0.096247076988220 -0.000009723235053 0.000000000000000
6.101318836212158 -0.207637652754784 0.745828211307526 0.000000000000000
6.463704586029053 -0.287507057189941 0.790675818920135 0.000000000000000
9.321147918701172 -0.415216684341431 2.491894721984863 0.000000000000000
4.405137062072754 -0.271109640598297 -0.000011875034033 0.000000000000000
15.803944587707520 -1.813233971595764 2.894273519515991 0.003921568859369
5.255272865295410 -0.123855464160442 -0.091184072196484 0.000000000000000
12.856229782104492 -1.245407462120056 -0.000021726998966 0.000000000000000
5.845468044281006 -0.852464735507965 0.102466106414795 0.000000000000000
4.390315532684326 -0.889624118804932 -0.051745884120464 0.000000000000000
8.071275711059570 -1.262326717376709 0.331340581178665 0.000000000000000
16.655574798583984 -1.901956915855408 0.389213204383850 0.000000000000000
12.383323669433594 -1.458880424499512 0.289279192686081 0.000000000000000
8.102063179016113 -0.555325984954834 0.235267445445061 0.000000000000000
11.174246788024902 -1.871552824974060 2.059134721755981 0.000000000000000
12.405322074890137 -1.505275726318359 -0.000021244493837 0.000000000000000
9.490193367004395 -1.622515678405762 -0.055766075849533 0.000000000000000
8.203467369079590 -1.431038022041321 1.511703848838806 0.000000000000000
6.454048156738281 -1.519683122634888 -0.230213373899460 0.000000000000000
9.408539772033691 -0.840873241424561 -0.164211899042130 0.000000000000000
28.438085556030273 -3.955125093460083 7.682744026184082 0.003921568859369
8.176079750061035 -1.571048617362976 0.144627302885056 0.000000000000000
15.658222198486328 -3.015779018402100 1.298550486564636 0.000000000000000
10.385388374328613 -1.549627423286438 -0.243446245789528 0.000000000000000
11.967418670654297 -1.831316471099854 0.702762007713318 0.000000000000000
6.426790714263916 -1.348148941993713 -0.037956438958645 0.000000000000000
19.923601150512695 -5.223403453826904 0.239309355616570 0.003921568859369
6.003869056701660 -0.978665590286255 -0.000015805626390 0.000000000000000
20.013462066650391 -5.321611881256104 0.240613058209419 0.003921568859369
11.091717720031738 -1.813544392585754 1.375152349472046 0.000000000000000
18.666481018066406 -5.032435894012451 0.224596440792084 0.003921568859369
9.101108551025391 -1.067466855049133 0.265519082546234 0.000000000000000
8.626700401306152 -2.352157831192017 -0.103670910000801 0.000000000000000
9.316263198852539 -2.059746742248535 0.165848165750504 0.000000000000000
18.102165222167969 -5.014627456665039 -0.218271240592003 0.003921568859369
7.929332256317139 -0.984909236431122 0.046150214970112 0.000000000000000
18.157705307006836 -5.098223209381104 -0.219156175851822 0.003921568859369
18.361763000488281 -5.155653476715088 0.221481606364250 0.003921568859369
4.373276233673096 -0.772816896438599 0.540090918540955 0.000000000000000
8.735329627990723 -1.993822574615479 0.728003740310669 0.000000000000000
21.383594512939453 -4.894992828369141 3.991954326629639 0.003921568859369
17.960285186767578 -5.177926540374756 -0.217200025916100 0.003921568859369
18.601984024047852 -5.363369941711426 0.224833488464355 0.003921568859369
17.368743896484375 -3.216992616653442 1.026202440261841 0.000000000000000
22.539098739624023 -4.177002429962158 6.130825042724609 0.003921568859369
19.997163772583008 -4.723858356475830 3.738689422607422 0.003921568859369
20.870948791503906 -6.097929000854492 0.252579718828201 0.003921568859369
20.581249237060547 -4.937904834747314 3.851331233978271 0.003921568859369
2.690104007720947 -0.509714186191559 -0.000029672786695 0.000000000000000
11.167284011840820 -2.711569070816040 0.199812889099121 0.000000000000000
18.435638427734375 -5.517636299133301 0.223483413457870 0.003921568859369
20.872108459472656 -6.331855297088623 0.253371149301529 0.003921568859369
20.593069076538086 -5.165158748626709 1.729731798171997 0.003921568859369
18.228006362915039 -4.570716857910156 3.418699741363525 0.003921568859369
17.944601058959961 -5.510264396667480 -0.218131527304649 0.003921568859369
18.793102264404297 -5.839576244354248 -0.228703960776329 0.003921568859369
18.859302520751953 -5.935937404632568 -0.229775160551071 0.003921568859369
6.014364242553711 -0.957400023937225 0.035112299025059 0.000000000000000
18.836416244506836 -5.928717136383057 0.229349225759506 0.003921568859369
23.390012741088867 -4.923696517944336 2.929655551910400 0.003921568859369
18.794900894165039 -4.922537326812744 1.582629561424255 0.000000000000000
20.607484817504883 -5.398352146148682 3.876442670822144 0.003921568859369
20.932596206665039 -6.662219047546387 -0.255344599485397 0.003921568859369
21.468294143676758 -4.588775634765625 2.690308809280396 0.003921568859369
18.806314468383789 -4.988595485687256 1.584907650947571 0.000000000000000
6.471905231475830 -1.051484346389771 -0.265450835227966 0.000000000000000
18.110857009887695 -4.803696632385254 3.408655166625977 0.003921568859369
2.278393030166626 -0.373855650424957 -0.145193606615067 0.000000000000000
18.898242950439453 -5.089580535888672 1.593745470046997 0.000000000000000
20.237556457519531 -4.471968650817871 2.538911342620850 0.003921568859369
19.679569244384766 -4.420337200164795 2.470671176910400 0.003921568859369
20.357330322265625 -5.628292560577393 3.842432260513306 0.003921568859369
20.122415542602539 -5.646279335021973 -0.607309043407440 0.003921568859369
19.643100738525391 -4.491256713867188 2.468233585357666 0.003921568859369
7.450236320495605 -1.696868896484375 2.035150766372681 0.000000000000000
20.369661331176758 -5.715828895568848 3.848888635635376 0.003921568859369
19.223011016845703 -6.494065284729004 -0.236068025231361 0.003921568859369
18.183523178100586 -5.169368743896484 -0.109952770173550 0.000000000000000
20.346523284912109 -4.727111816406250 2.558895587921143 0.003921568859369
20.226671218872070 -5.820301532745361 -0.611616551876068 0.003921568859369
18.201786041259766 -5.236299991607666 -0.110162615776062 0.000000000000000
20.262020111083984 -4.774437904357910 2.550121307373047 0.003921568859369
18.804607391357422 -5.410165786743164 1.593419075012207 0.000000000000000
17.775981903076172 -5.183955669403076 -0.537928819656372 0.000000000000000
21.545600891113281 -6.286145687103271 -0.130570307374001 0.003921568859369
17.462438583374023 -6.030314445495605 0.214231073856354 0.003921568859369
18.217618942260742 -5.313088893890381 0.770980238914490 0.003921568859369
20.371780395507812 -4.879082679748535 2.566206455230713 0.003921568859369
18.765518188476562 -5.473289489746094 1.591791868209839 0.000000000000000
19.898035049438477 -5.804429054260254 3.770688056945801 0.003921568859369
21.362443923950195 -6.313444137573242 -0.129592061042786 0.003921568859369
18.255210876464844 -5.393153190612793 3.462194442749023 0.003921568859369
15.256585121154785 -3.707389116287231 -0.364600151777267 0.000000000000000
19.862051010131836 -5.940603256225586 -0.602420747280121 0.003921568859369
18.541925430297852 -5.544844150543213 0.336694628000259 0.003921568859369
19.762001037597656 -4.874870777130127 1.182424902915955 0.003921568859369
18.361219406127930 -5.490673542022705 1.560552120208740 0.003921568859369
22.651977539062500 -5.589455604553223 6.239218711853027 0.003921568859369
18.464078903198242 -5.595159530639648 0.335648059844971 0.003921568859369
19.747873306274414 -4.948072910308838 1.182657122612000 0.003921568859369
18.444437026977539 -5.659416198730469 0.335647881031036 0.003921568859369
19.347396850585938 -4.919179916381836 1.159638524055481 0.000000000000000
19.784967422485352 -6.071781635284424 3.764948129653931 0.003921568859369
19.734924316406250 -6.124148845672607 -0.600442290306091 0.003921568859369
18.455783843994141 -5.726275444030762 -0.112400092184544 0.000000000000000
18.701627731323242 -6.818887710571289 0.230882853269577 0.003921568859369
20.504472732543945 -5.282583236694336 2.593988656997681 0.003921568859369
18.604450225830078 -5.772521972656250 1.586258888244629 0.000000000000000
20.161434173583984 -5.267929553985596 0.483132302761078 0.003921568859369
7.384891510009766 -2.309683561325073 -0.628175914287567 0.000000000000000
20.308851242065430 -5.306556224822998 2.570791959762573 0.003921568859369
21.454862594604492 -6.739965915679932 1.831313014030457 0.003921568859369
20.471624374389648 -7.634610652923584 -0.254502892494202 0.003921568859369
19.967155456542969 -5.298848628997803 0.478948324918747 0.003921568859369
18.778223037719727 -7.001547813415527 0.232134282588959 0.003921568859369
21.304948806762695 -5.654759407043457 1.280244588851929 0.003921568859369
20.403429031372070 -5.414927959442139 2.585413217544556 0.003921568859369
18.542299270629883 -5.901015281677246 1.584030747413635 0.000000000000000
19.794914245605469 -6.369131088256836 -0.604456424713135 0.003921568859369
18.306587219238281 -4.918538093566895 -0.000608193571679 0.003921568859369
19.130332946777344 -7.201581478118896 -0.238081455230713 0.003921568859369
20.202663421630859 -6.500658988952637 -0.123735800385475 0.003921568859369
19.985160827636719 -5.370759010314941 0.479784607887268 0.003921568859369
17.543703079223633 -6.602746963500977 0.217075794935226 0.003921568859369
19.767616271972656 -6.360348224639893 3.776855468750000 0.003921568859369
18.323163986206055 -4.994911670684814 -0.000609376351349 0.003921568859369
17.452119827270508 -6.641152858734131 0.216238975524902 0.003921568859369
19.649944305419922 -5.357591152191162 2.494270086288452 0.003921568859369
19.800281524658203 -6.450901508331299 3.787615776062012 0.003921568859369
19.407161712646484 -6.397345066070557 -0.593976736068726 0.003921568859369
17.343000411987305 -6.668758869171143 0.215169817209244 0.003921568859369
18.173603057861328 -5.989680290222168 0.777054250240326 0.003921568859369
19.695446014404297 -6.492639541625977 3.771833181381226 0.003921568859369
18.146247863769531 -5.079185485839844 -0.000606908230111 0.003921568859369
19.527210235595703 -7.585332393646240 -0.244007110595703 0.003921568859369
18.684755325317383 -6.227242946624756 3.581724405288696 0.003921568859369
18.128562927246094 -7.113422393798828 -0.679075777530670 0.003921568859369
21.395452499389648 -7.215996265411377 4.107570648193359 0.003921568859369
18.262189865112305 -6.227705478668213 1.570688605308533 0.003921568859369
18.226211547851562 -7.225216865539551 -0.683685600757599 0.003921568859369
18.340635299682617 -7.344740390777588 -0.230105310678482 0.003921568859369
18.110515594482422 -7.252338409423828 0.225951299071312 0.003921568859369
18.210197448730469 -6.280816555023193 1.568085312843323 0.000000000000000
19.749103546142578 -6.813055038452148 3.799809932708740 0.003921568859369
17.899084091186523 -5.212059020996094 -0.433298051357269 0.000000000000000
19.143730163574219 -5.647907733917236 -0.000632610986941 0.003921568859369
18.529855728149414 -7.495737075805664 -0.232811376452446 0.003921568859369
18.474847793579102 -6.444439888000488 0.794628858566284 0.003921568859369
18.086555480957031 -6.308633327484131 1.559300184249878 0.000000000000000
19.643478393554688 -6.853195190429688 3.784027099609375 0.003921568859369
19.395479202270508 -5.722370624542236 -0.470088511705399 0.003921568859369
18.499877929687500 -7.558684349060059 -0.232764944434166 0.003921568859369
19.803222656250000 -4.880418777465820 0.117624141275883 0.003921568859369
20.612716674804688 -6.160568714141846 0.498839348554611 0.003921568859369
18.095626831054688 -5.406474590301514 2.312470674514771 0.003921568859369
18.247932434082031 -7.529759883880615 -0.229919329285622 0.003921568859369
21.498010635375977 -6.507470130920410 0.520871818065643 0.003921568859369
19.127553939819336 -7.893714904785156 0.239707440137863 0.003921568859369
19.075450897216797 -5.772465705871582 1.157263994216919 0.000000000000000
20.367893218994141 -6.164583206176758 -0.989727616310120 0.003921568859369
18.509752273559570 -5.600839138031006 2.368032932281494 0.003921568859369
6.760002136230469 -1.682767629623413 -0.282205700874329 0.000000000000000
18.230005264282227 -7.591481685638428 -0.230248406529427 0.003921568859369
19.900913238525391 -5.047159671783447 0.118104703724384 0.003921568859369
18.748826980590820 -5.739981174468994 2.400410890579224 0.003921568859369
18.590908050537109 -6.698746681213379 3.592920303344727 0.003921568859369
20.088445663452148 -5.169374465942383 0.119329594075680 0.003921568859369
18.454011917114258 -7.760584831237793 0.231567621231079 0.003921568859369
18.519361495971680 -6.745862007141113 3.583594322204590 0.003921568859369
17.660066604614258 -7.501867771148682 -0.223712086677551 0.003921568859369
18.487634658813477 -5.804459571838379 2.372143268585205 0.003921568859369
17.932722091674805 -7.688192367553711 -0.227494463324547 0.003921568859369
18.432004928588867 -4.879093170166016 0.109639637172222 0.000000000000000
18.426528930664062 -6.857690334320068 -0.114895626902580 0.000000000000000
19.803966522216797 -7.371813297271729 1.720062255859375 0.003921568859369
18.409139633178711 -6.851222991943359 3.571398258209229 0.003921568859369
18.540910720825195 -6.974000453948975 -0.575979113578796 0.000000000000000
20.206567764282227 -5.425571918487549 0.606472313404083 0.003921568859369
18.618032455444336 -7.003105163574219 1.618883967399597 0.000000000000000
18.403524398803711 -6.922200679779053 3.574984788894653 0.003921568859369
18.531396865844727 -7.044188976287842 -0.576445519924164 0.003921568859369
17.717426300048828 -7.742181301116943 -0.225440531969070 0.003921568859369
18.216131210327148 -4.957778930664062 0.108551695942879 0.000000000000000
19.256029129028320 -8.416542053222656 0.243129014968872 0.003921568859369
20.118074417114258 -5.476936340332031 0.604379355907440 0.003921568859369
17.206037521362305 -6.538950443267822 0.319552987813950 0.003921568859369
18.305740356445312 -5.954449176788330 1.117235660552979 0.000000000000000
19.059499740600586 -7.245534420013428 3.707694053649902 0.003921568859369
20.814212799072266 -6.772756576538086 -0.509137332439423 0.003921568859369
18.966825485229492 -8.368611335754395 -0.241736590862274 0.003921568859369
18.409696578979492 -7.071286678314209 -0.115247413516045 0.000000000000000
19.936988830566406 -5.502158641815186 0.599496781826019 0.003921568859369
18.854156494140625 -7.242522716522217 3.672543525695801 0.003921568859369
18.682971954345703 -7.251335144042969 -0.582736670970917 0.003921568859369
18.930191040039062 -8.431318283081055 -0.241643473505974 0.003921568859369
21.285242080688477 -5.955099105834961 0.127187550067902 0.003921568859369
17.601316452026367 -5.860517978668213 2.270771741867065 0.003921568859369
19.011034011840820 -7.455332279205322 -0.593803584575653 0.003921568859369
21.095033645629883 -5.981058120727539 0.126169487833977 0.003921568859369
2.893150568008423 -1.116899371147156 -0.018123732879758 0.000000000000000
18.751161575317383 -8.429770469665527 0.237834483385086 0.003921568859369
17.441822052001953 -6.838236808776855 0.325265914201736 0.003921568859369
18.542173385620117 -7.270958423614502 0.808501183986664 0.003921568859369
19.356103897094727 -6.521540164947510 2.500801563262939 0.003921568859369
18.220857620239258 -7.144614696502686 3.558484315872192 0.003921568859369
5.850692272186279 -1.669843673706055 0.175113394856453 0.000000000000000
17.220855712890625 -6.820631504058838 0.321572422981262 0.003921568859369
18.876029968261719 -7.478235244750977 3.691910982131958 0.003921568859369
18.079025268554688 -7.234528064727783 -0.113799579441547 0.000000000000000
19.207527160644531 -6.620671272277832 0.470660269260406 0.003921568859369
19.992567062377930 -5.818447589874268 0.603562712669373 0.003921568859369
18.489652633666992 -6.372545719146729 1.135130405426025 0.003921568859369
20.172435760498047 -5.870920658111572 -0.854820549488068 0.003921568859369
17.875743865966797 -5.268320560455322 -0.325276046991348 0.003921568859369
21.046586990356445 -6.205613136291504 0.126260101795197 0.003921568859369
22.019655227661133 -6.493252277374268 0.665632545948029 0.003921568859369
18.459758758544922 -6.434227943420410 1.134665250778198 0.000000000000000
18.383535385131836 -7.431140899658203 0.804920792579651 0.003921568859369
19.886405944824219 -6.932933807373047 2.578776359558105 0.003921568859369
20.355234146118164 -8.230467796325684 1.787402510643005 0.003921568859369
18.169168472290039 -6.332677841186523 5.141320228576660 0.003921568859369
19.815240859985352 -5.908050060272217 0.598974525928497 0.003921568859369
17.176269531250000 -6.044691085815430 2.228105306625366 0.003921568859369
14.454703330993652 -5.083778858184814 4.090402603149414 0.000000000000000
19.215929031372070 -6.840142726898193 -0.001220083562657 0.003921568859369
18.019405364990234 -7.421089172363281 -0.114149816334248 0.000000000000000
20.145227432250977 -8.299347877502441 1.773110866546631 0.003921568859369
14.418676376342773 -5.127510070800781 4.085226535797119 0.000000000000000
18.502256393432617 -5.663081169128418 0.110978178679943 0.003921568859369
17.798845291137695 -7.409851074218750 -0.112932704389095 0.000000000000000
19.326595306396484 -6.963181972503662 -0.955673217773438 0.003921568859369
19.101001739501953 -6.881721496582031 5.424666404724121 0.003921568859369
18.483081817626953 -7.763682842254639 -0.583140850067139 0.003921568859369
19.047191619873047 -8.001361846923828 -0.121011279523373 0.003921568859369
21.909761428833008 -6.784428119659424 0.664624035358429 0.003921568859369
17.780466079711914 -7.467657566070557 0.334532678127289 0.003921568859369
19.349666595458984 -7.040122032165527 -0.957909286022186 0.003921568859369
20.446569442749023 -6.330159664154053 -0.871086835861206 0.003921568859369
19.570095062255859 -8.221703529357910 3.859472036361694 0.003921568859369
18.363885879516602 -7.788824081420898 -0.580227971076965 0.000000000000000
19.649909973144531 -8.335986137390137 3.880991220474243 0.003921568859369
18.762882232666016 -6.900096893310547 -0.465165048837662 0.000000000000000
20.609031677246094 -6.538267135620117 0.124087445437908 0.003921568859369
17.791040420532227 -6.682648181915283 -0.001165052526630 0.003921568859369
17.927516937255859 -7.750966072082520 -0.114409424364567 0.000000000000000
19.360492706298828 -7.274059772491455 2.531697750091553 0.003921568859369
18.677850723266602 -8.076419830322266 3.699510812759399 0.003921568859369
19.695074081420898 -8.599148750305176 -0.625209689140320 0.003921568859369
17.696582794189453 -6.717466354370117 -0.001162393600680 0.003921568859369
18.685592651367188 -8.157155036926270 3.706683397293091 0.003921568859369
19.752706527709961 -8.706444740295410 -0.628006756305695 0.003921568859369
17.682731628417969 -7.791448116302490 -0.113192565739155 0.000000000000000
18.291542053222656 -7.017014026641846 0.453464329242706 0.000000000000000
18.437025070190430 -7.072985649108887 -0.918604671955109 0.000000000000000
4.119007110595703 -1.795810461044312 -0.233353614807129 0.000000000000000
20.632848739624023 -6.783917903900146 -0.883966982364655 0.003921568859369
18.470651626586914 -7.085929393768311 -0.460319787263870 0.003921568859369
4.164031505584717 -1.832880616188049 -0.131473094224930 0.000000000000000
18.314123153686523 -8.146850585937500 0.347762316465378 0.003921568859369
18.695138931274414 -7.247124195098877 1.163430929183960 0.003921568859369
19.131549835205078 -7.416819572448730 2.511716365814209 0.003921568859369
19.775293350219727 -8.881505966186523 -0.630687773227692 0.003921568859369
18.769437789916992 -8.428464889526367 -0.120522350072861 0.003921568859369
19.220998764038086 -7.528699874877930 0.477892339229584 0.003921568859369
18.142066955566406 -8.145899772644043 0.806911289691925 0.003921568859369
18.645795822143555 -8.372797012329102 3.716007471084595 0.003921568859369
18.521226882934570 -7.253791332244873 -0.462837725877762 0.000000000000000
18.588438034057617 -8.420973777770996 -0.119539231061935 0.003921568859369
19.177343368530273 -7.584837913513184 0.477427423000336 0.003921568859369
19.882287979125977 -7.864462375640869 -0.994799196720123 0.003921568859369
17.410535812377930 -6.952688217163086 -0.001429045572877 0.003921568859369
17.710262298583984 -6.090180873870850 0.107101045548916 0.003921568859369
2.880925178527832 -1.293794631958008 -0.163286894559860 0.000000000000000
19.150451660156250 -7.649893760681152 -0.480094969272614 0.003921568859369
18.626365661621094 -8.593417167663574 3.728627204895020 0.003921568859369
17.269012451171875 -7.035806179046631 -0.001424982328899 0.003921568859369
19.092924118041992 -7.781497955322266 0.476949632167816 0.003921568859369
18.389463424682617 -8.561582565307617 3.687025070190430 0.003921568859369
19.299997329711914 -7.944652557373047 -0.001540330937132 0.003921568859369
18.370599746704102 -7.560896396636963 1.152222394943237 0.000000000000000
18.284715652465820 -8.590278625488281 3.671961784362793 0.003921568859369
18.681196212768555 -7.689134120941162 -0.470304548740387 0.003921568859369
19.305372238159180 -8.025620460510254 -0.001542768324725 0.003921568859369
17.609771728515625 -7.318539142608643 0.441017061471939 0.000000000000000
19.022251129150391 -7.907566070556641 1.194974184036255 0.003921568859369
19.398805618286133 -8.064574241638184 -0.977584898471832 0.003921568859369
18.703987121582031 -7.774856567382812 2.478775978088379 0.003921568859369
18.643171310424805 -7.749470710754395 -0.470025360584259 0.003921568859369
19.370515823364258 -7.042520046234131 -0.838949203491211 0.003921568859369
19.142549514770508 -8.036078453063965 5.546509265899658 0.003921568859369
19.164209365844727 -8.123781204223633 -0.001539129414596 0.003921568859369
19.308317184448242 -7.096059322357178 -0.837319672107697 0.003921568859369
18.618057250976562 -7.891536235809326 -0.470772504806519 0.003921568859369
19.062973022460938 -8.159197807312012 2.537734031677246 0.003921568859369
9.294153213500977 -3.964869499206543 2.691767692565918 0.000000000000000
19.096019744873047 -8.252183914184570 -0.001539569348097 0.003921568859369
19.802677154541016 -8.558524131774902 0.499136358499527 0.003921568859369
18.232191085815430 -7.877724170684814 1.151987433433533 0.000000000000000
18.643228530883789 -8.055896759033203 -0.472825229167938 0.003921568859369
17.953113555908203 -7.831046581268311 -0.001477109384723 0.003921568859369
19.084089279174805 -7.240591526031494 0.116795741021633 0.003921568859369
6.924958229064941 -3.842584848403931 0.090715594589710 0.000000000000000
19.943321228027344 -7.567617893218994 0.617604076862335 0.003921568859369
18.193607330322266 -7.936307907104492 1.151289939880371 0.000000000000000
19.273416519165039 -8.408871650695801 -0.978519201278687 0.003921568859369
18.269956588745117 -9.054162025451660 3.706388711929321 0.003921568859369
17.740434646606445 -7.807929039001465 -0.001466985791922 0.003921568859369
17.715883255004883 -6.786969661712646 0.108499988913536 0.000000000000000
18.152578353881836 -7.989944458007812 1.150359988212585 0.000000000000000
19.102874755859375 -8.409587860107422 -0.971252739429474 0.003921568859369
8.680256843566895 -3.806888580322266 2.524084806442261 0.000000000000000
19.084352493286133 -8.480891227722168 -0.971812248229980 0.003921568859369
8.912582397460938 -4.477050781250000 1.807773232460022 0.000000000000000
18.489891052246094 -8.215891838073730 -0.471054732799530 0.003921568859369
19.708137512207031 -8.839633941650391 0.499390542507172 0.003921568859369
19.558870315551758 -7.650598526000977 0.607667744159698 0.003921568859369
18.395261764526367 -8.248869895935059 -0.469570040702820 0.003921568859369
18.019121170043945 -7.118787288665771 0.110524736344814 0.000000000000000
19.450275421142578 -7.686186790466309 0.605112373828888 0.003921568859369
19.039039611816406 -8.618322372436523 -0.972666263580322 0.003921568859369
18.492774963378906 -7.530835628509521 -0.349289000034332 0.003921568859369
19.468656539916992 -7.929618358612061 0.608245313167572 0.003921568859369
7.469889640808105 -3.942574262619019 0.145385339856148 0.000000000000000
19.684137344360352 -8.097696304321289 -0.866643846035004 0.003921568859369
8.651986122131348 -5.125298500061035 -0.350450515747070 0.000000000000000
19.046424865722656 -9.105961799621582 0.488064616918564 0.003921568859369
19.093425750732422 -8.009856224060059 0.599069952964783 0.003921568859369
19.487148284912109 -8.175559997558594 -0.860448420047760 0.003921568859369
17.806873321533203 -7.541362285614014 0.559357643127441 0.003921568859369
19.395957946777344 -8.216736793518066 -0.857676744461060 0.003921568859369
11.703600883483887 -6.353501319885254 2.416514158248901 0.000000000000000
7.660563468933105 -4.179509162902832 0.706777989864349 0.000000000000000
18.939825057983398 -8.175014495849609 -0.839902877807617 0.003921568859369
9.841584205627441 -4.815037727355957 2.919284582138062 0.000000000000000
17.781337738037109 -7.819007396697998 0.110514067113400 0.000000000000000
17.386436462402344 -7.644708633422852 0.548977732658386 0.003921568859369
6.428103446960449 -2.807857751846313 -0.446796566247940 0.000000000000000
2.629434823989868 -1.445024013519287 0.239332646131516 0.000000000000000
18.893054962158203 -8.309691429138184 -0.840521991252899 0.003921568859369
18.875614166259766 -8.380573272705078 0.117562606930733 0.003921568859369
2.670823574066162 -1.316396117210388 0.357442885637283 0.000000000000000
10.497530937194824 -5.272700309753418 3.130226850509644 0.000000000000000
10.420545578002930 -5.279241561889648 3.112631797790527 0.000000000000000
19.224103927612305 -8.696650505065918 0.610147833824158 0.003921568859369
7.216300964355469 -4.130535125732422 0.335166215896606 0.000000000000000
19.187122344970703 -8.679848670959473 -0.857651054859161 0.003921568859369
10.288666725158691 -5.257037162780762 3.078476667404175 0.000000000000000
19.232570648193359 -8.785354614257812 0.120384849607944 0.003921568859369
19.137016296386719 -8.741543769836426 -0.856836199760437 0.003921568859369
12.776305198669434 -6.595403194427490 3.835059881210327 0.000000000000000
19.226696014404297 -8.940980911254883 0.120728053152561 0.003921568859369
19.309522628784180 -8.979634284973145 0.615833699703217 0.003921568859369
11.713101387023926 -6.892098426818848 2.465778589248657 0.000000000000000
19.136983871459961 -8.980319023132324 0.611306190490723 0.003921568859369
15.676901817321777 -9.311497688293457 3.312064647674561 0.003921568859369
6.178335189819336 -3.279271125793457 -0.001142798690125 0.000000000000000
5.873649597167969 -3.115791559219360 0.152232721447945 0.000000000000000
19.138025283813477 -9.062275886535645 0.612350285053253 0.003921568859369
2.777124643325806 -1.642586469650269 0.257867187261581 0.000000000000000
18.642379760742188 -8.986255645751953 0.598420143127441 0.003921568859369
2.740753412246704 -1.633335590362549 0.254940658807755 0.000000000000000
19.072443008422852 -9.272203445434570 0.613277256488800 0.003921568859369
8.579622268676758 -5.238465785980225 0.405871272087097 0.000000000000000
9.584881782531738 -5.234007358551025 1.332312107086182 0.000000000000000
19.127580642700195 -9.375647544860840 0.615647137165070 0.003921568859369
8.018223762512207 -5.482208728790283 -0.563844442367554 0.000000000000000
3.160527944564819 -1.712792515754700 0.432832986116409 0.000000000000000
7.960756778717041 -5.485363960266113 -0.898616135120392 0.000000000000000
3.185419321060181 -1.741543769836426 0.437217295169830 0.000000000000000
5.375077724456787 -2.989933252334595 0.353416293859482 0.000000000000000
3.315025329589844 -1.843095421791077 -0.001038311747834 0.000000000000000
10.407843589782715 -6.559468269348145 0.997743964195251 0.000000000000000
4.618182659149170 -2.605350255966187 -0.565777897834778 0.000000000000000
18.822139739990234 -9.556976318359375 0.610075354576111 0.003921568859369
7.197713851928711 -4.083000183105469 2.199591159820557 0.000000000000000
21.414213180541992 -13.858727455139160 4.637093067169189 0.003921568859369
4.104215145111084 -2.639473915100098 -0.614791333675385 0.000000000000000
8.052544593811035 -5.385416507720947 1.754140257835388 0.000000000000000
8.001692771911621 -5.389110565185547 0.165631145238876 0.000000000000000
8.197568893432617 -5.522249698638916 0.800204038619995 0.000000000000000
3.321799278259277 -2.630062818527222 0.047457270324230 0.000000000000000
7.035756111145020 -4.149599075317383 -0.331784516572952 0.000000000000000
3.594237804412842 -2.888731002807617 0.051620204001665 0.000000000000000
10.407163619995117 -6.914205551147461 1.524114489555359 0.000000000000000
8.067050933837891 -5.386391639709473 2.580086946487427 0.000000000000000
8.063572883605957 -5.504519462585449 -0.001898223184980 0.003921568859369
3.918838262557983 -2.474579334259033 0.131625905632973 0.000000000000000
6.914408206939697 -4.403966426849365 -0.333096802234650 0.000000000000000
10.900230407714844 -8.753871917724609 1.133628964424133 0.000000000000000
7.061979770660400 -5.770573616027832 0.737436950206757 0.000000000000000
1.783714771270752 -1.147930502891541 -0.084922775626183 0.000000000000000
3.723212242126465 -3.032496213912964 0.191591128706932 0.000000000000000
7.001960754394531 -5.761752128601074 0.733212232589722 0.000000000000000
1.802843213081360 -1.169585108757019 -0.086065672338009 0.000000000000000
4.465629100799561 -3.650474548339844 1.038708090782166 0.000000000000000
3.361254692077637 -2.771208286285400 -0.860468149185181 0.000000000000000
12.130986213684082 -9.208300590515137 1.859475135803223 0.000000000000000
20.722030639648438 -17.433967590332031 4.922194957733154 0.003921568859369
5.380050659179688 -5.042489528656006 -0.086966522037983 0.000000000000000
4.819860935211182 -4.087480068206787 0.253299623727798 0.000000000000000
10.861456871032715 -9.297712326049805 1.159637331962585 0.000000000000000
7.715014934539795 -6.766920566558838 0.413226693868637 0.000000000000000
5.790690422058105 -4.648611545562744 0.901805341243744 0.000000000000000
3.321764230728149 -2.675416469573975 0.514155864715576 0.000000000000000
8.137732505798340 -7.345114231109619 1.985012888908386 0.000000000000000
2.081126451492310 -2.023101091384888 -0.167004704475403 0.000000000000000
3.720957994461060 -3.026666641235352 0.273919790983200 0.000000000000000
2.626069784164429 -2.351410865783691 -0.183003455400467 0.000000000000000
4.687814712524414 -4.288113594055176 -0.038408912718296 0.000000000000000
4.052472591400146 -3.373474597930908 0.637854576110840 0.000000000000000
7.945165634155273 -6.134190082550049 -0.408555269241333 0.000000000000000
9.498049736022949 -8.170406341552734 0.723008215427399 0.000000000000000
7.970484733581543 -6.240236759185791 -0.177995473146439 0.000000000000000
5.697807788848877 -5.967349052429199 -0.288256525993347 0.000000000000000
5.150181770324707 -4.917513370513916 -0.371996551752090 0.000000000000000
2.016203165054321 -1.548560619354248 -0.102291963994503 0.000000000000000
11.303839683532715 -11.043313026428223 2.866700649261475 0.003921568859369
3.352317333221436 -2.935335636138916 0.100424915552139 0.000000000000000
5.349465847015381 -4.377314567565918 0.197141140699387 0.000000000000000
9.266216278076172 -8.426921844482422 3.335974931716919 0.000000000000000
2.426626443862915 -2.402018308639526 0.135007679462433 0.000000000000000
4.181360721588135 -4.230037689208984 0.100830152630806 0.000000000000000
2.830701351165771 -2.570534706115723 0.459978133440018 0.000000000000000
14.328919410705566 -12.270082473754883 0.543118894100189 0.003921568859369
6.868027687072754 -7.155432701110840 0.398918837308884 0.000000000000000
6.534919738769531 -6.208873748779297 1.096267104148865 0.000000000000000
3.458240032196045 -3.629720926284790 0.402275413274765 0.000000000000000
7.526011466979980 -8.013703346252441 1.990385532379150 0.000000000000000
4.906651020050049 -5.227259159088135 -0.043548371642828 0.000000000000000
9.878748893737793 -8.799029350280762 -0.232847109436989 0.000000000000000
9.534884452819824 -9.363336563110352 3.560316562652588 0.000000000000000
5.903542518615723 -6.396075725555420 -0.708037614822388 0.000000000000000
1.407628417015076 -1.191613316535950 -0.115358389914036 0.003921568859369
1.412103056907654 -1.204499840736389 -0.116127379238605 0.003921568859369
9.055324554443359 -10.969946861267090 -0.497901737689972 0.000000000000000
7.919529914855957 -8.677724838256836 2.128043889999390 0.000000000000000
4.531013011932373 -4.956684589385986 0.113991439342499 0.000000000000000
2.535542964935303 -2.783619642257690 -0.195954620838165 0.000000000000000
6.925750255584717 -8.602207183837891 -0.386539816856384 0.000000000000000
8.414300918579102 -8.659077644348145 3.214517593383789 0.000000000000000
5.533748626708984 -6.285174846649170 -0.438204199075699 0.000000000000000
6.318296909332275 -7.245079994201660 -0.058253049850464 0.000000000000000
6.977451801300049 -8.012272834777832 0.427473425865173 0.000000000000000
4.564088821411133 -4.716147422790527 -0.153519526124001 0.000000000000000
6.376054286956787 -7.364173889160156 -0.284467339515686 0.000000000000000
6.604858398437500 -8.434368133544922 -0.126917093992233 0.000000000000000
2.015809535980225 -2.253026008605957 0.118873007595539 0.000000000000000
1.374517917633057 -1.233899950981140 -0.074078135192394 0.003921568859369
2.548669099807739 -2.626397132873535 -0.389144957065582 0.000000000000000
5.798135280609131 -6.102810382843018 0.191807582974434 0.000000000000000
4.402259826660156 -5.086267471313477 0.541847825050354 0.000000000000000
5.734141826629639 -6.706007003784180 -0.717975735664368 0.000000000000000
11.775470733642578 -12.585333824157715 2.104471206665039 0.003921568859369
7.284338951110840 -8.548947334289551 0.908966541290283 0.000000000000000
5.615377902984619 -7.362895488739014 -0.109800904989243 0.000000000000000
6.973856925964355 -8.296763420104980 0.185230642557144 0.000000000000000
5.218176841735840 -6.179472923278809 1.461139440536499 0.000000000000000
5.303048133850098 -6.997150897979736 0.098969981074333 0.000000000000000
5.386106491088867 -6.471240997314453 -0.051143102347851 0.000000000000000
8.397467613220215 -9.197154045104980 1.518254995346069 0.000000000000000
7.807896137237549 -9.499062538146973 -0.359382420778275 0.000000000000000
6.527296543121338 -7.225290775299072 -0.679303169250488 0.000000000000000
3.286737680435181 -3.984433650970459 -0.031886685639620 0.000000000000000
7.223164558410645 -8.117711067199707 0.625948131084442 0.000000000000000
2.530095815658569 -2.771538496017456 -0.173808187246323 0.000000000000000
1.558646440505981 -1.664855241775513 0.270225018262863 0.000000000000000
4.458800315856934 -5.527253150939941 -0.207429021596909 0.000000000000000
10.987222671508789 -13.800395965576172 -0.925440192222595 0.003921568859369
11.323178291320801 -14.225754737854004 3.299774169921875 0.003921568859369
4.425648689270020 -5.522806167602539 -0.206725925207138 0.000000000000000
9.130324363708496 -11.525575637817383 -0.088778465986252 0.000000000000000
5.113955497741699 -6.401070594787598 -0.666614055633545 0.000000000000000
7.927474021911621 -9.043409347534180 1.465477705001831 0.000000000000000
3.903501987457275 -4.856469631195068 1.122619748115540 0.000000000000000
6.864389896392822 -8.762863159179688 -0.067471310496330 0.000000000000000
6.362562656402588 -7.341609001159668 0.559156417846680 0.000000000000000
4.450719833374023 -4.623510360717773 -0.261172682046890 0.000000000000000
10.605942726135254 -13.607489585876465 3.130601406097412 0.003921568859369
5.311570644378662 -6.153507232666016 -0.190372943878174 0.000000000000000
9.540774345397949 -14.055027961730957 -0.990221560001373 0.003921568859369
10.230746269226074 -11.216041564941406 -0.267838001251221 0.000000000000000
2.789875507354736 -2.998539209365845 0.021212583407760 0.000000000000000
5.642873764038086 -6.822637557983398 1.076314568519592 0.000000000000000
3.699218034744263 -5.522897720336914 -0.232756078243256 0.000000000000000
5.762403011322021 -7.120952129364014 0.208689868450165 0.000000000000000
5.145522594451904 -6.345068931579590 0.469244450330734 0.000000000000000
5.425342559814453 -6.696948528289795 1.047596693038940 0.000000000000000
11.964912414550781 -16.517898559570312 3.703152894973755 0.003921568859369
5.083753585815430 -6.312490940093994 0.465535491704941 0.000000000000000
15.955558776855469 -20.084287643432617 3.136126279830933 0.003921568859369
6.625686168670654 -7.533352375030518 -0.177133619785309 0.000000000000000
6.927767753601074 -7.882092475891113 0.057362981140614 0.000000000000000
5.756199359893799 -7.988352298736572 -0.059969339519739 0.000000000000000
7.177201271057129 -9.995526313781738 -0.645319640636444 0.000000000000000
6.303808689117432 -8.761595726013184 1.954040765762329 0.000000000000000
6.173914432525635 -7.058907032012939 0.267948269844055 0.000000000000000
6.796211242675781 -9.524109840393066 0.199842751026154 0.000000000000000
4.248365879058838 -5.899915218353271 0.586080193519592 0.000000000000000
7.708542346954346 -10.906586647033691 0.228485643863678 0.000000000000000
7.189597606658936 -11.301905632019043 -0.780561327934265 0.000000000000000
4.143436908721924 -5.839062213897705 0.286694943904877 0.000000000000000
6.628554344177246 -9.495504379272461 -0.338701754808426 0.000000000000000
8.377403259277344 -10.861773490905762 -0.003724909853190 0.000000000000000
8.849493980407715 -12.725914955139160 0.625209271907806 0.000000000000000
3.590815782546997 -5.109794139862061 1.125220417976379 0.000000000000000
4.879977226257324 -5.794083118438721 0.215612620115280 0.000000000000000
4.932349681854248 -6.525606632232666 -0.191890373826027 0.000000000000000
7.953195095062256 -10.682176589965820 -0.003858108539134 0.000000000000000
4.554259777069092 -6.721455574035645 0.655121862888336 0.000000000000000
8.609247207641602 -10.537591934204102 -0.240320920944214 0.000000000000000
1.675529837608337 -2.667123079299927 -0.038162130862474 0.000000000000000
4.311312198638916 -6.403009414672852 0.309257417917252 0.000000000000000
5.906372070312500 -8.830262184143066 1.923056960105896 0.000000000000000
4.027489662170410 -4.932846546173096 -0.112721383571625 0.000000000000000
4.872304439544678 -5.995025157928467 -0.493871688842773 0.000000000000000
6.875624179840088 -9.487096786499023 -0.003577300580218 0.003921568859369
3.030847549438477 -5.086293220520020 -0.207492128014565 0.000000000000000
4.490399837493896 -6.195515155792236 0.439195364713669 0.000000000000000
4.905618667602539 -7.537343502044678 1.626300334930420 0.000000000000000
6.151122570037842 -8.598386764526367 -0.003380337962881 0.003921568859369
5.199845314025879 -8.055194854736328 -0.058580636978149 0.000000000000000
6.666904926300049 -8.424869537353516 0.307359993457794 0.000000000000000
6.198431491851807 -7.885807514190674 -0.177284970879555 0.000000000000000
3.096877813339233 -4.803125858306885 -0.167337372899055 0.000000000000000
5.237477302551270 -8.242006301879883 1.766631007194519 0.000000000000000
6.623871326446533 -10.543530464172363 -0.653433322906494 0.000000000000000
3.317108392715454 -5.233999729156494 -0.038449492305517 0.000000000000000
5.482284069061279 -7.873872280120850 -0.447476744651794 0.000000000000000
6.201073169708252 -9.936398506164551 2.121453285217285 0.000000000000000
5.460994243621826 -8.802137374877930 0.176355570554733 0.000000000000000
9.916921615600586 -14.483611106872559 2.143051862716675 0.003921568859369
2.765706300735474 -3.953239440917969 -0.002545112511143 0.000000000000000
7.053223609924316 -10.407551765441895 -0.295056998729706 0.000000000000000
2.488866806030273 -3.595469713211060 0.248696714639664 0.000000000000000
4.857026100158691 -7.170532703399658 2.301314115524292 0.000000000000000
3.974509477615356 -5.885191440582275 0.160928383469582 0.000000000000000
8.915160179138184 -12.074584960937500 0.430594563484192 0.000000000000000
2.703184604644775 -3.582195043563843 0.023214481770992 0.000000000000000
4.372163295745850 -8.182584762573242 0.104189790785313 0.000000000000000
7.429615497589111 -10.104577064514160 0.359240055084229 0.000000000000000
7.058347702026367 -10.651005744934082 0.736770272254944 0.000000000000000
3.417257547378540 -5.703188896179199 0.535479307174683 0.000000000000000
4.455022335052490 -7.491174221038818 1.575985908508301 0.000000000000000
6.828986167907715 -9.483190536499023 0.063792124390602 0.000000000000000
6.532104492187500 -9.130197525024414 -0.198711425065994 0.000000000000000
3.849963188171387 -5.316567897796631 0.034769572317600 0.000000000000000
7.386044502258301 -12.848985671997070 0.253322660923004 0.000000000000000
9.129325866699219 -14.472187042236328 2.088829755783081 0.003921568859369
3.468752145767212 -6.075450420379639 1.262603521347046 0.000000000000000
5.652818202972412 -10.110397338867188 0.937397956848145 0.000000000000000
3.223803758621216 -6.402866363525391 -0.251640230417252 0.000000000000000
2.964198589324951 -4.211495399475098 -0.091536514461040 0.000000000000000
6.908220291137695 -12.509189605712891 1.157913804054260 0.000000000000000
3.280652046203613 -6.637271404266357 -0.431419223546982 0.000000000000000
4.285293579101562 -6.912333011627197 -0.379409760236740 0.000000000000000
4.711823463439941 -8.534560203552246 0.788016021251678 0.000000000000000
7.012905120849609 -10.416491508483887 0.068533807992935 0.000000000000000
6.194911003112793 -11.569439888000488 -0.080047771334648 0.000000000000000
3.991594552993774 -5.899295806884766 -0.455657720565796 0.000000000000000
2.890214443206787 -5.977224349975586 -0.233110889792442 0.000000000000000
4.658627033233643 -8.725628852844238 -0.289876163005829 0.000000000000000
3.396187543869019 -5.034303188323975 -0.388180434703827 0.000000000000000
5.152656555175781 -8.617627143859863 2.671571731567383 0.000000000000000
6.713816165924072 -10.195353507995605 0.349491059780121 0.000000000000000
3.336739063262939 -7.069397926330566 -0.455660611391068 0.000000000000000
6.197629451751709 -9.461741447448730 -0.724970579147339 0.000000000000000
6.187538146972656 -13.552216529846191 -0.177389353513718 0.000000000000000
4.642735481262207 -8.910999298095703 0.403535455465317 0.000000000000000
3.465543746948242 -7.548830032348633 -0.099492035806179 0.000000000000000
4.258367538452148 -7.313061714172363 0.192143678665161 0.000000000000000
4.918057441711426 -7.587490081787109 -0.369479060173035 0.000000000000000
1.499356985092163 -2.465422868728638 -0.002415881026536 0.000000000000000
4.842199802398682 -8.414584159851074 2.582439422607422 0.000000000000000
4.428763866424561 -6.921053886413574 0.043962322175503 0.000000000000000
3.627492427825928 -5.635706424713135 0.190125346183777 0.000000000000000
5.459327697753906 -10.796562194824219 -0.635438561439514 0.000000000000000
3.296418905258179 -6.427525043487549 0.582317709922791 0.000000000000000
4.023635387420654 -7.896130084991455 1.602951884269714 0.000000000000000
2.254263639450073 -3.870468139648438 0.100207760930061 0.000000000000000
4.842477321624756 -8.551282882690430 0.565368771553040 0.000000000000000
5.870038509368896 -10.409487724304199 1.456394195556641 0.000000000000000
3.461668491363525 -6.054175853729248 -0.164150059223175 0.000000000000000
4.183842182159424 -7.421286582946777 -0.003451493103057 0.003921568859369
5.805031299591064 -9.272247314453125 0.312671989202499 0.000000000000000
1.566923379898071 -2.986589908599854 0.132824808359146 0.000000000000000
2.979841470718384 -5.944068908691406 -0.348906308412552 0.000000000000000
5.492629528045654 -11.255641937255859 2.270282506942749 0.000000000000000
5.023815155029297 -10.367995262145996 -0.070605672895908 0.000000000000000
7.638240814208984 -12.642061233520508 0.080849871039391 0.000000000000000
7.122758865356445 -14.920611381530762 3.000687837600708 0.003921568859369
4.869832992553711 -11.797910690307617 0.143819987773895 0.000000000000000
2.086698770523071 -3.364382505416870 0.110708057880402 0.000000000000000
8.490837097167969 -16.057382583618164 1.049208283424377 0.000000000000000
3.407808542251587 -7.140260696411133 0.638368010520935 0.000000000000000
7.832804679870605 -13.288087844848633 0.442193537950516 0.000000000000000
2.722176313400269 -5.704663276672363 0.508807122707367 0.000000000000000
4.987905979156494 -8.388416290283203 -0.399064511060715 0.000000000000000
2.433593034744263 -5.072442531585693 1.013652801513672 0.000000000000000
3.376379489898682 -6.357290267944336 0.412705332040787 0.000000000000000
3.644251108169556 -6.933424472808838 0.449564009904861 0.000000000000000
3.355452775955200 -6.365798950195312 -0.169526502490044 0.000000000000000
8.859239578247070 -15.413249015808105 0.097559399902821 0.000000000000000
8.027830123901367 -13.947476387023926 -0.658370494842529 0.003921568859369
10.152624130249023 -17.838447570800781 0.589703261852264 0.003921568859369
5.320890903472900 -10.408659934997559 1.424619317054749 0.000000000000000
3.963556528091431 -7.693151473999023 2.300920724868774 0.000000000000000
3.571070432662964 -7.919999122619629 -0.255015462636948 0.000000000000000
3.705863237380981 -7.241387844085693 -0.191562160849571 0.000000000000000
7.410432338714600 -13.287786483764648 -0.269485205411911 0.000000000000000
3.647459268569946 -7.250269889831543 -0.003492955118418 0.003921568859369
4.305740356445312 -9.790442466735840 0.865384399890900 0.000000000000000
6.940273284912109 -15.948432922363281 3.157502412796021 0.003921568859369
2.784080743789673 -4.898880481719971 0.159269556403160 0.000000000000000
4.899280548095703 -11.286967277526855 0.209766104817390 0.000000000000000
5.923534393310547 -13.704536437988281 0.601700007915497 0.000000000000000
6.826394081115723 -13.902235984802246 1.890443563461304 0.000000000000000
3.687834024429321 -7.398108959197998 2.197479724884033 0.000000000000000
4.272226810455322 -8.769524574279785 -0.003788106609136 0.003921568859369
3.501607179641724 -6.324465274810791 0.205396398901939 0.000000000000000
2.869092226028442 -5.850628376007080 -0.003326087724417 0.000000000000000
6.729854106903076 -12.450334548950195 0.077033326029778 0.000000000000000
0.935072839260101 -2.291436433792114 -0.144137695431709 0.000000000000000
2.783225774765015 -6.536806106567383 -0.373303651809692 0.000000000000000
6.688765048980713 -14.109688758850098 1.905825495719910 0.000000000000000
2.041268348693848 -4.125635147094727 -0.108846396207809 0.000000000000000
2.127908706665039 -4.351381301879883 -0.002997195115313 0.000000000000000
4.993062973022461 -10.563374519348145 0.266370445489883 0.000000000000000
2.418670892715454 -5.753504276275635 -0.327918022871017 0.000000000000000
5.950760364532471 -12.869241714477539 0.817993998527527 0.000000000000000
