# This PCD file was generated using the MATLAB® pcwrite function
# from Computer Vision Toolbox®.
# .PCD v.7 - Point Cloud Data file format
VERSION .7
FIELDS x y z intensity
SIZE 8 8 8 8
TYPE F F F F
COUNT 1 1 1 1
WIDTH 647
HEIGHT 1
VIEWPOINT 0 0 0 1 0 0 0
POINTS 647
DATA ascii
16.881637573242188 21.775716781616211 2.254752874374390 0.003921568859369
1.715133309364319 2.578426361083984 -0.884849905967712 0.000000000000000
7.500517845153809 10.726944923400879 -0.919865906238556 0.000000000000000
6.796079635620117 10.818037033081055 -0.822696924209595 0.000000000000000
16.154382705688477 22.915922164916992 1.636284112930298 0.003921568859369
1.721882700920105 2.568886756896973 -0.883770763874054 0.000000000000000
2.511682510375977 3.317739725112915 -0.846029579639435 0.000000000000000
7.549524784088135 10.716519355773926 -0.921258687973022 0.000000000000000
6.853250980377197 10.824049949645996 -0.824997901916504 0.000000000000000
16.185493469238281 22.790779113769531 1.631409764289856 0.003921568859369
1.723637461662292 2.553402900695801 -0.880534768104553 0.000000000000000
2.525115728378296 3.312076568603516 -0.846813321113586 0.000000000000000
7.599011898040771 10.710471153259277 -0.922930777072906 0.000000000000000
6.902138233184814 10.820979118347168 -0.826531052589417 0.000000000000000
1.734801888465881 2.550085067749023 -0.881612420082092 0.000000000000000
2.536660671234131 3.302839040756226 -0.846812307834625 0.000000000000000
6.974805355072021 10.849883079528809 -0.830623865127563 0.000000000000000
1.752785444259644 2.556048393249512 -0.885925471782684 0.000000000000000
2.553108215332031 3.299659013748169 -0.848380446434021 0.000000000000000
7.010442733764648 10.821729660034180 -0.830364942550659 0.000000000000000
17.293544769287109 23.817766189575195 1.717656373977661 0.003921568859369
1.757128596305847 2.543308019638062 -0.883767902851105 0.000000000000000
2.576995134353638 3.305528640747070 -0.852302372455597 0.000000000000000
7.074656963348389 10.836705207824707 -0.833433806896210 0.000000000000000
1.759110689163208 2.527473926544189 -0.880531847476959 0.000000000000000
2.578566312789917 3.283980607986450 -0.849163055419922 0.000000000000000
7.112438201904297 10.811541557312012 -0.833430826663971 0.000000000000000
1.767923235893250 2.520914077758789 -0.880531132221222 0.000000000000000
2.597509622573853 3.283626794815063 -0.851515829563141 0.003921568859369
7.174668312072754 10.822660446166992 -0.836243629455566 0.000000000000000
1.773958086967468 2.511575937271118 -0.879451990127563 0.000000000000000
7.230690956115723 10.828153610229492 -0.838544607162476 0.000000000000000
1.780823707580566 2.501564025878906 -0.878372788429260 0.000000000000000
2.635484933853149 3.282642126083374 -0.856221258640289 0.003921568859369
7.283846855163574 10.820926666259766 -0.840077340602875 0.000000000000000
1.789544463157654 2.494929075241089 -0.878372013568878 0.000000000000000
2.644397020339966 3.270022630691528 -0.855435729026794 0.003921568859369
7.335159778594971 10.814757347106934 -0.841610193252563 0.000000000000000
1.807117104530334 2.488288164138794 -0.878405094146729 0.000000000000000
2.664665222167969 3.260397911071777 -0.855466723442078 0.000000000000000
1.820510268211365 2.487682104110718 -0.880561292171478 0.000000000000000
2.663277387619019 3.235804557800293 -0.851542890071869 0.000000000000000
16.838064193725586 21.873508453369141 1.611055374145508 0.003921568859369
1.831550836563110 2.483977317810059 -0.881638944149017 0.000000000000000
2.664309501647949 3.214234828948975 -0.848403573036194 0.000000000000000
16.933952331542969 21.839422225952148 1.612920761108398 0.003921568859369
1.842591166496277 2.480224370956421 -0.882716774940491 0.000000000000000
2.683228015899658 3.213426351547241 -0.850756406784058 0.000000000000000
1.850373506546021 2.474088430404663 -0.882716119289398 0.000000000000000
2.701051712036133 3.213507890701294 -0.853109240531921 0.000000000000000
1.849825024604797 2.454850196838379 -0.878401756286621 0.000000000000000
2.715402603149414 3.206139564514160 -0.853892862796783 0.000000000000000
19.461711883544922 22.232137680053711 2.417559623718262 0.003921568859369
18.520961761474609 23.372810363769531 -0.695841729640961 0.003921568859369
1.865617275238037 2.457015991210938 -0.881636261940002 0.000000000000000
18.660015106201172 23.379362106323242 -0.697978019714355 0.003921568859369
1.864496111869812 2.438134193420410 -0.877321958541870 0.000000000000000
2.761227607727051 3.212692022323608 -0.860952079296112 0.000000000000000
19.467779159545898 21.928419113159180 2.399352788925171 0.003921568859369
1.872570157051086 2.431584358215332 -0.877321302890778 0.000000000000000
19.561702728271484 21.887113571166992 2.401962041854858 0.003921568859369
1.881470322608948 2.424313068389893 -0.877320587635040 0.000000000000000
1.899732708930969 2.429237842559814 -0.881633460521698 0.000000000000000
1.905738234519958 2.419256925582886 -0.880554437637329 0.000000000000000
1.915637493133545 2.403385639190674 -0.877353131771088 0.000000000000000
1.925662279129028 2.399992704391479 -0.878430962562561 0.000000000000000
1.934445142745972 2.392560482025146 -0.878430306911469 0.000000000000000
1.955304861068726 2.400086641311646 -0.883821725845337 0.000000000000000
1.966183185577393 2.395825147628784 -0.884899377822876 0.000000000000000
1.961913347244263 2.374057531356812 -0.879506826400757 0.000000000000000
1.975256443023682 2.372654676437378 -0.881662905216217 0.000000000000000
1.988616228103638 2.371187210083008 -0.883819103240967 0.000000000000000
1.996881723403931 2.363888978958130 -0.883818447589874 0.000000000000000
2.004709005355835 2.356929779052734 -0.883817851543427 0.000000000000000
2.008185148239136 2.343477010726929 -0.881660342216492 0.000000000000000
2.015944957733154 2.336480617523193 -0.881659686565399 0.000000000000000
2.027774810791016 2.323419570922852 -0.879537701606750 0.000000000000000
2.046289443969727 2.327369689941406 -0.883850634098053 0.000000000000000
2.046155214309692 2.311787366867065 -0.880614936351776 0.000000000000000
2.070356130599976 2.320867061614990 -0.887084543704987 0.000000000000000
2.083712816238403 2.318937063217163 -0.889240741729736 0.000000000000000
2.088748931884766 2.308916807174683 -0.888161778450012 0.000000000000000
2.102100610733032 2.306887149810791 -0.890317976474762 0.000000000000000
2.107477188110352 2.296441793441772 -0.889238953590393 0.000000000000000
2.120825052261353 2.294308900833130 -0.891395092010498 0.000000000000000
2.134183883666992 2.292111635208130 -0.893551290035248 0.000000000000000
2.147555351257324 2.289848089218140 -0.895707368850708 0.000000000000000
4.497415065765381 3.858800411224365 -0.348726183176041 0.000000000000000
2.166338205337524 2.293012380599976 -0.900020301342010 0.000000000000000
2.183218479156494 2.285152673721313 -0.900055646896362 0.000000000000000
20.463508605957031 20.743188858032227 1.700109362602234 0.003921568859369
2.199341535568237 2.285420656204224 -0.903290212154388 0.000000000000000
2.218223571777344 2.288321733474731 -0.907603144645691 0.000000000000000
2.231676340103149 2.285701274871826 -0.909759283065796 0.000000000000000
2.220008134841919 2.259127616882324 -0.902210175991058 0.000000000000000
2.233001232147217 2.256868839263916 -0.904366433620453 0.000000000000000
2.285126447677612 2.291667938232422 -0.921619594097137 0.000000000000000
2.290733575820923 2.280313968658447 -0.920540690422058 0.000000000000000
7.049310207366943 6.216403484344482 -0.495470196008682 0.000000000000000
2.298679590225220 2.272023677825928 -0.920540094375610 0.000000000000000
2.328554630279541 2.285333633422852 -0.929166436195374 0.000000000000000
2.325700283050537 2.265925645828247 -0.924852371215820 0.000000000000000
2.333596229553223 2.257513761520386 -0.924851834774017 0.000000000000000
2.366875171661377 2.265256881713867 -0.931357979774475 0.000000000000000
2.386091947555542 2.267181158065796 -0.935670852661133 0.000000000000000
2.422791004180908 2.284175634384155 -0.946453809738159 0.000000000000000
2.415710926055908 2.263365983963013 -0.941061615943909 0.000000000000000
2.473786354064941 2.267952203750610 -0.954000234603882 0.000000000000000
2.487456321716309 2.264160633087158 -0.956156373023987 0.000000000000000
8.683164596557617 7.687735557556152 -0.746081173419952 0.000000000000000
7.132217884063721 6.277765274047852 -0.611747384071350 0.000000000000000
17.563093185424805 13.624604225158691 5.967435836791992 0.003921568859369
2.623591661453247 1.578580856323242 0.036426588892937 0.000000000000000
4.455646991729736 3.615994930267334 0.033804133534431 0.000000000000000
11.478171348571777 9.247683525085449 -0.947194039821625 0.000000000000000
13.163396835327148 9.500847816467285 4.359684467315674 0.003921568859369
2.143231630325317 1.706016540527344 -0.177606359124184 0.000000000000000
3.770682334899902 2.607257604598999 1.238383769989014 0.000000000000000
5.748367786407471 3.042882442474365 0.076252020895481 0.000000000000000
5.376189708709717 3.168534994125366 0.512104809284210 0.000000000000000
7.508181571960449 4.926885604858398 2.414408922195435 0.000000000000000
8.506605148315430 4.883953094482422 0.401041567325592 0.000000000000000
15.141775131225586 9.322178840637207 4.772756099700928 0.003921568859369
7.423438549041748 4.510022163391113 2.335736036300659 0.000000000000000
2.133316516876221 1.296267867088318 0.675123691558838 0.000000000000000
5.980836868286133 3.188738346099854 0.555355191230774 0.000000000000000
11.554198265075684 5.995019435882568 1.064696192741394 0.000000000000000
3.393812656402588 1.988307237625122 1.060245513916016 0.000000000000000
9.083669662475586 4.635746002197266 0.834599554538727 0.000000000000000
8.725549697875977 4.925384998321533 0.584996759891510 0.000000000000000
7.090377807617188 4.005187034606934 1.002861022949219 0.000000000000000
0.930918693542480 0.503773927688599 0.062642030417919 0.003921568859369
18.920156478881836 9.976179122924805 5.735509395599365 0.003921568859369
9.878894805908203 4.568587303161621 1.987495541572571 0.000000000000000
12.006123542785645 5.499746799468994 2.410807371139526 0.000000000000000
3.920642137527466 1.899581432342529 0.254226535558701 0.000000000000000
7.929929256439209 3.837721586227417 1.082730412483215 0.000000000000000
5.841128826141357 2.726619720458984 -0.150143459439278 0.000000000000000
13.984219551086426 5.480943679809570 2.740088939666748 0.000000000000000
17.718372344970703 6.872277736663818 1.552161216735840 0.000000000000000
9.845559120178223 3.663484573364258 0.857581615447998 0.000000000000000
10.005753517150879 3.643776178359985 0.869298160076141 0.000000000000000
6.067988872528076 2.855379819869995 -0.429794698953629 0.000000000000000
3.773387908935547 1.285303115844727 0.726802587509155 0.000000000000000
4.268204212188721 1.417744159698486 0.366419553756714 0.000000000000000
6.485959053039551 2.132104396820068 0.118977375328541 0.000000000000000
10.736455917358398 3.531255722045898 2.059102773666382 0.000000000000000
14.687777519226074 4.772390365600586 0.628790736198425 0.000000000000000
10.919094085693359 4.103134155273438 0.678782045841217 0.000000000000000
17.257465362548828 5.478304862976074 3.299611330032349 0.003921568859369
6.874009609222412 2.528646945953369 -0.000046985725930 0.000000000000000
9.385463714599609 2.942099332809448 0.802202463150024 0.000000000000000
14.382680892944336 5.183487415313721 0.355501264333725 0.000000000000000
10.292074203491211 3.665799140930176 0.253983587026596 0.000000000000000
14.780663490295410 4.294811725616455 -0.805880844593048 0.000000000000000
17.204603195190430 4.934966087341309 0.311996638774872 0.003921568859369
7.884682178497314 2.258888006210327 -0.429047524929047 0.000000000000000
8.323724746704102 2.384929418563843 1.575473070144653 0.000000000000000
7.569315910339355 2.141255855560303 -0.411462277173996 0.000000000000000
9.930468559265137 2.661795616149902 -0.059761833399534 0.000000000000000
12.022634506225586 3.223587036132812 0.216855034232140 0.000000000000000
19.937822341918945 5.278236865997314 1.682159304618835 0.003921568859369
14.032209396362305 5.112109184265137 0.434043049812317 0.000000000000000
2.233879089355469 0.456552326679230 -0.079104080796242 0.000000000000000
9.339001655578613 2.892632246017456 2.615004777908325 0.000000000000000
9.796313285827637 3.528340578079224 0.302442818880081 0.000000000000000
3.518269300460815 0.888415873050690 0.062944345176220 0.000000000000000
7.769077301025391 1.967253684997559 -0.419210791587830 0.000000000000000
2.215868473052979 0.444849908351898 -0.078406125307083 0.000000000000000
7.672845363616943 1.914408326148987 0.137629911303520 0.000000000000000
6.437220573425293 1.580650448799133 0.268841385841370 0.000000000000000
4.184863090515137 1.227067708969116 0.532184839248657 0.000000000000000
4.461868286132812 1.293687820434570 -0.000141589363921 0.000000000000000
12.543191909790039 2.261346340179443 0.147885829210281 0.000000000000000
10.829221725463867 3.065174818038940 0.653784573078156 0.000000000000000
6.294341564178467 1.778423309326172 0.799802243709564 0.000000000000000
8.499340057373047 1.934452295303345 0.151533603668213 0.000000000000000
7.951531410217285 1.346255183219910 -0.468303024768829 0.000000000000000
7.554362773895264 1.254463195800781 -0.089010722935200 0.000000000000000
11.523412704467773 3.704725503921509 0.351371407508850 0.000000000000000
12.111599922180176 3.251954317092896 0.728660702705383 0.000000000000000
6.908386230468750 1.495580434799194 -0.369230479001999 0.000000000000000
15.103448867797852 3.276527643203735 1.259329438209534 0.000000000000000
8.760513305664062 1.864587306976318 0.155719086527824 0.000000000000000
16.708814620971680 4.361245155334473 1.003988981246948 0.000000000000000
13.345919609069824 2.794951438903809 -0.713421165943146 0.000000000000000
14.771348953247070 3.688079118728638 0.884398221969604 0.000000000000000
7.627717494964600 1.872062563896179 -0.364455044269562 0.000000000000000
8.141802787780762 1.175578713417053 -0.286265283823013 0.000000000000000
8.239077568054199 1.545849919319153 -0.048740226775408 0.000000000000000
6.615353107452393 1.214927077293396 0.116578966379166 0.000000000000000
8.675867080688477 1.564207673072815 0.357509136199951 0.000000000000000
14.242671966552734 2.571938991546631 2.632154703140259 0.000000000000000
4.822007179260254 0.850159108638763 -0.254973113536835 0.000000000000000
7.383768081665039 1.305138587951660 0.609038710594177 0.000000000000000
6.509876728057861 1.149911999702454 1.198688745498657 0.000000000000000
14.479025840759277 3.247411727905273 0.344229310750961 0.000000000000000
7.515869617462158 1.681848049163818 0.446295559406281 0.000000000000000
6.995506763458252 1.211135268211365 0.576494932174683 0.000000000000000
15.804165840148926 3.426982641220093 0.939498126506805 0.000000000000000
18.552656173706055 3.085879087448120 0.764512121677399 0.003921568859369
3.801519632339478 0.805395841598511 0.472660958766937 0.000000000000000
13.806135177612305 2.842833042144775 0.818048954010010 0.000000000000000
7.171754837036133 1.421825051307678 0.422984600067139 0.000000000000000
4.890821933746338 1.196841955184937 0.028768980875611 0.000000000000000
8.105398178100586 1.577385544776917 0.190854474902153 0.000000000000000
16.127714157104492 3.147168159484863 0.954072356224060 0.000000000000000
17.019308090209961 2.467751026153564 3.127108573913574 0.003921568859369
9.523833274841309 1.344321727752686 1.745318174362183 0.000000000000000
6.930705547332764 0.953338325023651 -0.040680941194296 0.000000000000000
10.566285133361816 1.944764852523804 -0.000297556514852 0.003921568859369
8.980603218078613 1.651616930961609 2.434684753417969 0.000000000000000
8.357101440429688 1.506453633308411 -0.000280539592495 0.003921568859369
11.590892791748047 1.514322996139526 0.950340807437897 0.000000000000000
7.796490192413330 1.322563767433167 -0.000278093852103 0.000000000000000
4.787812232971191 0.809261262416840 0.279977351427078 0.000000000000000
7.793386936187744 1.292715549468994 2.102311372756958 0.000000000000000
2.241869449615479 0.468899607658386 -0.091458976268768 0.000000000000000
6.388190746307373 1.312148690223694 0.187961593270302 0.000000000000000
7.027323246002197 1.067400217056274 1.890084624290466 0.000000000000000
17.448535919189453 1.733862638473511 0.304668515920639 0.003921568859369
8.669897079467773 0.858855247497559 0.706533193588257 0.000000000000000
7.963674545288086 1.124718070030212 0.185576662421227 0.000000000000000
11.922530174255371 2.283959388732910 0.351395368576050 0.000000000000000
6.509416103363037 0.917945981025696 0.379437744617462 0.000000000000000
6.478968143463135 0.573755085468292 -0.338426887989044 0.000000000000000
8.137674331665039 1.122133493423462 -0.190265417098999 0.000000000000000
12.413364410400391 1.625471591949463 1.530283808708191 0.000000000000000
2.798993825912476 0.225383281707764 0.224600657820702 0.000000000000000
7.212049007415771 0.539191246032715 0.291708379983902 0.000000000000000
8.150536537170410 0.213613539934158 -0.282982051372528 0.000000000000000
15.636646270751953 1.174380660057068 2.847124814987183 0.000000000000000
10.811994552612305 1.341372966766357 -0.252522170543671 0.000000000000000
8.267580986022949 0.188035473227501 -0.095988743007183 0.000000000000000
1.774830937385559 0.207663133740425 0.100142702460289 0.003921568859369
10.090686798095703 0.721008777618408 1.832697629928589 0.000000000000000
14.646377563476562 0.992363512516022 -0.425944089889526 0.000000000000000
17.976392745971680 0.157126843929291 0.207947626709938 0.003921568859369
5.143795967102051 0.276368856430054 -0.267083555459976 0.000000000000000
6.766399383544922 1.027420163154602 -0.276702553033829 0.000000000000000
9.205656051635742 -0.015519557520747 -0.106908969581127 0.000000000000000
9.578671455383301 0.449168354272842 1.736555218696594 0.000000000000000
13.603631973266602 1.930241465568542 0.397603303194046 0.000000000000000
6.706386566162109 0.291567772626877 0.270540684461594 0.000000000000000
7.715571403503418 0.711657762527466 0.943346321582794 0.000000000000000
8.721934318542480 1.202051520347595 -0.153014153242111 0.000000000000000
12.706711769104004 0.508448004722595 -0.368792980909348 0.000000000000000
16.887441635131836 1.449090838432312 0.392413079738617 0.000000000000000
7.131125926971436 0.235833302140236 -0.041531462222338 0.000000000000000
16.467647552490234 0.547509133815765 2.990500450134277 0.003921568859369
7.003929615020752 0.208570420742035 -0.040786057710648 0.000000000000000
14.232693672180176 1.819879889488220 0.414972782135010 0.000000000000000
13.968092918395996 1.099154114723206 3.734695911407471 0.000000000000000
18.432125091552734 0.552146315574646 3.348480701446533 0.003921568859369
12.311211585998535 0.282637447118759 0.998900890350342 0.000000000000000
3.076829671859741 0.069434799253941 0.547751426696777 0.000000000000000
18.070583343505859 1.231107950210571 1.050029039382935 0.000000000000000
2.986572980880737 0.056661829352379 0.531250834465027 0.000000000000000
2.528826475143433 0.039636898785830 0.099750079214573 0.000000000000000
7.793160438537598 0.447007954120636 0.449980169534683 0.000000000000000
8.512338638305664 0.460580646991730 -0.197208285331726 0.000000000000000
14.019392013549805 1.397847175598145 0.407396227121353 0.000000000000000
15.162553787231445 0.770387113094330 4.048346996307373 0.000000000000000
9.305678367614746 -0.043025139719248 0.160658240318298 0.000000000000000
4.530052185058594 -0.036194171756506 -0.129999354481697 0.000000000000000
2.414646863937378 0.209776327013969 0.013195025734603 0.000000000000000
8.386483192443848 -0.532278358936310 0.096300110220909 0.000000000000000
17.557996749877930 -0.264560699462891 3.186226606369019 0.003921568859369
7.968959331512451 -0.174408480525017 0.137160345911980 0.000000000000000
13.894889831542969 -0.450218707323074 -0.402987420558929 0.000000000000000
7.578635692596436 -0.612075269222260 0.087002173066139 0.000000000000000
16.865285873413086 1.095221042633057 0.488815158605576 0.003921568859369
8.039963722229004 -0.287191569805145 -0.418012529611588 0.000000000000000
13.235982894897461 -1.161779046058655 -0.154496744275093 0.000000000000000
22.509685516357422 0.138222947716713 1.305372714996338 0.003921568859369
8.493339538574219 0.434062868356705 0.244617119431496 0.000000000000000
17.061414718627930 -0.073081776499748 2.083100318908691 0.003921568859369
16.408332824707031 -0.184326007962227 4.372151851654053 0.003921568859369
7.870826244354248 0.211093395948410 0.225941687822342 0.000000000000000
18.166088104248047 -0.393349200487137 1.052103638648987 0.000000000000000
8.590510368347168 -0.631210327148438 0.346637308597565 0.000000000000000
9.405324935913086 -0.235322698950768 2.496408700942993 0.000000000000000
8.666906356811523 0.114378161728382 -0.150382444262505 0.000000000000000
8.602152824401855 -0.720309853553772 0.696774125099182 0.000000000000000
8.801107406616211 -0.309723377227783 -0.203520670533180 0.000000000000000
5.541630268096924 -0.480532586574554 0.997416913509369 0.000000000000000
27.465177536010742 -2.604632377624512 5.010894775390625 0.003921568859369
16.631353378295898 -0.010365174151957 -0.289529561996460 0.003921568859369
5.510307788848877 -0.802662849426270 0.063032068312168 0.000000000000000
10.157938957214355 -0.498389422893524 1.235948562622070 0.000000000000000
12.661308288574219 -0.095585666596889 0.072191424667835 0.000000000000000
7.791471958160400 -0.137732952833176 -0.135008290410042 0.000000000000000
10.068909645080566 -0.666798293590546 0.231749594211578 0.000000000000000
17.497093200683594 -1.227710843086243 1.014775156974792 0.000000000000000
11.772243499755859 -0.331388145685196 0.339076042175293 0.000000000000000
6.552956104278564 -0.522237360477448 -0.453540474176407 0.000000000000000
9.682374954223633 -0.775555908679962 1.179886460304260 0.000000000000000
14.987288475036621 -0.578311264514923 0.085544809699059 0.000000000000000
8.866590499877930 -0.770304441452026 0.203792721033096 0.000000000000000
8.636724472045898 -0.331481814384460 0.247637510299683 0.000000000000000
5.501114368438721 -0.266167998313904 -0.346833437681198 0.000000000000000
17.374376296997070 -0.912707805633545 0.099399328231812 0.000000000000000
4.749409198760986 -0.473625898361206 0.107907429337502 0.000000000000000
8.857857704162598 -0.522255599498749 -0.153836950659752 0.000000000000000
6.914513587951660 -0.741386234760284 -0.000768043624703 0.000000000000000
7.676856517791748 -0.852513968944550 0.176466777920723 0.000000000000000
10.860275268554688 -1.783327102661133 1.986453294754028 0.000000000000000
8.058449745178223 -1.546065330505371 -0.047954156994820 0.000000000000000
21.005796432495117 -3.090653181076050 2.591433286666870 0.003921568859369
8.180432319641113 -0.848321378231049 -0.331261783838272 0.000000000000000
11.955843925476074 -1.289405107498169 -0.208929881453514 0.000000000000000
3.235901355743408 -0.339739024639130 0.090661615133286 0.000000000000000
14.353290557861328 -2.507575035095215 -0.001279732445255 0.000000000000000
8.998065948486328 -1.563927054405212 2.413242340087891 0.000000000000000
5.262632369995117 -1.185723304748535 0.960555315017700 0.000000000000000
25.846517562866211 -7.475357055664062 0.309797346591949 0.003921568859369
13.201429367065430 -2.490941047668457 -0.001237563090399 0.000000000000000
6.116306304931641 -1.206435799598694 -0.000893600401469 0.000000000000000
24.309013366699219 -7.759273052215576 0.293578833341599 0.003921568859369
25.489809036254883 -5.568098068237305 6.954123973846436 0.003921568859369
7.580803871154785 -1.339137196540833 -0.133036375045776 0.000000000000000
23.644840240478516 -7.909853458404541 0.286793321371078 0.003921568859369
24.984743118286133 -7.302136898040771 2.112497091293335 0.003921568859369
23.636554718017578 -8.361824989318848 0.288390994071960 0.003921568859369
23.763013839721680 -8.495200157165527 0.290286093950272 0.003921568859369
9.034173011779785 -2.248063802719116 2.458743095397949 0.000000000000000
23.651958465576172 -8.544538497924805 0.289167016744614 0.003921568859369
28.133125305175781 -8.763123512268066 2.392172336578369 0.003921568859369
3.554490327835083 -1.081235647201538 0.061683561652899 0.000000000000000
28.186721801757812 -8.989955902099609 2.401917934417725 0.003921568859369
28.560934066772461 -9.219431877136230 2.436712026596069 0.003921568859369
25.348859786987305 -8.470120429992676 2.168702840805054 0.003921568859369
25.467229843139648 -7.154037952423096 7.049254894256592 0.003921568859369
22.892486572265625 -8.990708351135254 0.282736271619797 0.003921568859369
23.029287338256836 -7.775228977203369 1.971282243728638 0.003921568859369
16.096607208251953 -6.369447708129883 -0.201615273952484 0.003921568859369
13.933053970336914 -4.104451656341553 3.853986501693726 0.000000000000000
22.952322006225586 -8.107056617736816 1.973537564277649 0.003921568859369
23.242816925048828 -8.750063896179199 2.013837814331055 0.003921568859369
2.318566560745239 -0.594965994358063 -0.039951454848051 0.000000000000000
25.082166671752930 -8.174198150634766 0.608445167541504 0.003921568859369
9.714759826660156 -3.736854076385498 -0.060883853584528 0.000000000000000
18.615982055664062 -7.289404869079590 -0.117156967520714 0.000000000000000
16.363798141479492 -6.469072818756104 -0.103092588484287 0.000000000000000
18.908355712890625 -8.799165725708008 0.239210873842239 0.003921568859369
24.039485931396484 -8.659419059753418 0.588997662067413 0.003921568859369
14.712491989135742 -6.222920417785645 2.884121417999268 0.003921568859369
14.655645370483398 -6.255550861358643 2.876946210861206 0.003921568859369
24.563776016235352 -10.830756187438965 2.177345037460327 0.003921568859369
20.205167770385742 -7.828273773193359 1.251368880271912 0.003921568859369
9.957569122314453 -3.472297668457031 -0.182495385408401 0.000000000000000
7.445536613464355 -2.637089490890503 0.043933946639299 0.000000000000000
22.794351577758789 -8.918353080749512 0.139249026775360 0.003921568859369
22.946744918823242 -9.065808296203613 0.140372157096863 0.003921568859369
16.051445007324219 -8.196782112121582 0.726088583469391 0.003921568859369
10.235008239746094 -4.670639991760254 0.256737649440765 0.000000000000000
19.032768249511719 -8.997682571411133 -0.001921602874063 0.003921568859369
22.956527709960938 -11.159729957580566 3.112276792526245 0.003921568859369
17.840967178344727 -8.729192733764648 1.145105123519897 0.000000000000000
17.428573608398438 -8.819356918334961 0.448800235986710 0.000000000000000
17.378364562988281 -8.873320579528809 0.448332905769348 0.000000000000000
22.274776458740234 -12.804184913635254 2.081920385360718 0.003921568859369
18.828353881835938 -8.811891555786133 0.117938861250877 0.003921568859369
17.838272094726562 -10.564374923706055 1.677369713783264 0.003921568859369
3.139102697372437 -1.779535531997681 0.059338208287954 0.000000000000000
18.621097564697266 -10.087553024291992 2.577254056930542 0.003921568859369
10.610497474670410 -6.032275199890137 -0.001411343575455 0.000000000000000
18.117580413818359 -11.678688049316406 3.898111581802368 0.003921568859369
8.652501106262207 -5.552978038787842 1.843322515487671 0.000000000000000
18.285348892211914 -10.898214340209961 5.654712200164795 0.003921568859369
3.099325656890869 -1.757873296737671 0.077978231012821 0.000000000000000
16.109006881713867 -10.840779304504395 1.569355845451355 0.000000000000000
18.504840850830078 -11.555110931396484 1.258362174034119 0.003921568859369
21.515172958374023 -15.071634292602539 4.756562709808350 0.003921568859369
9.979941368103027 -6.314178466796875 3.116841554641724 0.000000000000000
20.077392578125000 -14.469923019409180 4.479711532592773 0.003921568859369
20.946998596191406 -15.212856292724609 4.686258316040039 0.003921568859369
19.311904907226562 -14.214135169982910 4.338412761688232 0.003921568859369
20.708126068115234 -15.364620208740234 2.088620662689209 0.003921568859369
14.643177032470703 -9.754559516906738 4.665199279785156 0.003921568859369
21.335220336914062 -15.950208663940430 2.158204317092896 0.003921568859369
21.688861846923828 -14.626942634582520 6.959804058074951 0.003921568859369
21.587203979492188 -16.257965087890625 2.189742565155029 0.003921568859369
20.251968383789062 -15.242431640625000 4.587986469268799 0.003921568859369
20.900554656982422 -15.849961280822754 2.125030279159546 0.003921568859369
6.170187950134277 -4.149065017700195 0.421666711568832 0.000000000000000
20.658882141113281 -15.778369903564453 2.105842113494873 0.003921568859369
21.545799255371094 -14.969749450683594 6.980490207672119 0.003921568859369
19.069072723388672 -14.656875610351562 4.352021694183350 0.003921568859369
20.698909759521484 -16.038690567016602 2.121443986892700 0.003921568859369
19.058074951171875 -14.754142761230469 4.361342430114746 0.003921568859369
20.623371124267578 -16.083229064941406 2.118839740753174 0.003921568859369
21.603561401367188 -15.335764884948730 7.049825191497803 0.003921568859369
21.609867095947266 -15.560553550720215 3.245079994201660 0.003921568859369
8.748410224914551 -6.248893260955811 2.831150770187378 0.003921568859369
8.689246177673340 -6.251079082489014 2.818729639053345 0.000000000000000
20.996551513671875 -15.449604988098145 3.176375389099121 0.003921568859369
8.658071517944336 -6.273680210113525 2.815623283386230 0.000000000000000
22.325420379638672 -20.209550857543945 -0.351528286933899 0.003921568859369
8.552629470825195 -6.240541934967041 2.787677049636841 0.000000000000000
18.825883865356445 -15.410992622375488 4.402197837829590 0.003921568859369
22.231199264526367 -20.264909744262695 -0.351156383752823 0.003921568859369
22.403055191040039 -16.737361907958984 3.409246921539307 0.003921568859369
8.503035545349121 -6.248636722564697 2.778360605239868 0.000000000000000
18.714561462402344 -15.427937507629395 4.388568401336670 0.003921568859369
22.101669311523438 -20.287223815917969 -0.350222080945969 0.003921568859369
21.001150131225586 -15.793634414672852 3.202187061309814 0.003921568859369
19.911821365356445 -14.965815544128418 6.624412059783936 0.003921568859369
21.972249984741211 -20.308881759643555 -0.349287718534470 0.003921568859369
20.923824310302734 -15.849177360534668 3.198773384094238 0.003921568859369
18.705537796020508 -15.640548706054688 4.412230014801025 0.003921568859369
21.084217071533203 -16.198562622070312 7.074626922607422 0.003921568859369
22.245035171508789 -17.223274230957031 3.430179119110107 0.003921568859369
19.231861114501953 -14.866925239562988 6.463975429534912 0.003921568859369
11.633549690246582 -9.921500205993652 2.754089117050171 0.003921568859369
19.876565933227539 -15.697960853576660 3.085237026214600 0.003921568859369
20.154298782348633 -17.581352233886719 2.166586875915527 0.003921568859369
21.989820480346680 -17.511383056640625 3.426752805709839 0.003921568859369
21.085697174072266 -18.663856506347656 2.282013416290283 0.003921568859369
20.949348449707031 -18.672481536865234 2.274206638336182 0.003921568859369
9.213670730590820 -8.095669746398926 2.203285932540894 0.000000000000000
21.099546432495117 -18.940282821655273 2.297940254211426 0.003921568859369
8.981379508972168 -7.941846370697021 2.153082370758057 0.000000000000000
19.306522369384766 -17.680744171142578 2.120720624923706 0.003921568859369
20.390602111816406 -20.888099670410156 -0.340800195932388 0.003921568859369
19.403638839721680 -18.014928817749023 2.145102262496948 0.003921568859369
19.054470062255859 -16.029762268066406 6.622293472290039 0.003921568859369
20.285161972045898 -20.914770126342773 -0.340102136135101 0.003921568859369
20.123790740966797 -20.891904830932617 -0.338604629039764 0.003921568859369
18.634170532226562 -17.526552200317383 2.071609497070312 0.003921568859369
19.943597793579102 -20.847818374633789 -0.336778998374939 0.003921568859369
18.575756072998047 -17.593414306640625 2.071932077407837 0.003921568859369
18.560104370117188 -17.701635360717773 2.077132463455200 0.003921568859369
19.452560424804688 -18.694082260131836 2.185731887817383 0.003921568859369
20.000761032104492 -17.431669235229492 7.058007717132568 0.003921568859369
19.547613143920898 -20.862205505371094 -0.333739161491394 0.003921568859369
17.937740325927734 -17.340820312500000 2.020225524902344 0.003921568859369
19.583517074584961 -18.953496932983398 4.934995651245117 0.003921568859369
19.385356903076172 -20.832288742065430 -0.332194536924362 0.003921568859369
19.382621765136719 -20.975809097290039 -0.333415448665619 0.003921568859369
19.220649719238281 -20.944698333740234 -0.331870764493942 0.003921568859369
18.256828308105469 -18.027133941650391 2.078096151351929 0.003921568859369
17.893293380737305 -17.787139892578125 2.043302536010742 0.003921568859369
11.198623657226562 -11.119104385375977 1.272686958312988 0.000000000000000
17.671405792236328 -17.804338455200195 2.031592845916748 0.003921568859369
9.244677543640137 -9.197412490844727 2.345264196395874 0.000000000000000
7.789138793945312 -8.087673187255859 2.014638662338257 0.000000000000000
10.180021286010742 -9.727370262145996 3.723252773284912 0.000000000000000
9.698115348815918 -10.423222541809082 1.146836996078491 0.000000000000000
19.016157150268555 -18.771198272705078 7.109708309173584 0.003921568859369
9.715661048889160 -10.576328277587891 1.156587362289429 0.003921568859369
5.586417198181152 -6.033030986785889 -0.001243529841304 0.003921568859369
7.175166130065918 -9.712236404418945 0.137196153402328 0.000000000000000
10.005109786987305 -11.192906379699707 3.973686933517456 0.000000000000000
8.923473358154297 -10.166326522827148 3.576253414154053 0.003921568859369
7.783898353576660 -10.100527763366699 0.218073844909668 0.000000000000000
7.060767173767090 -9.194683074951172 2.082022666931152 0.003921568859369
7.220984458923340 -9.477407455444336 2.140829801559448 0.000000000000000
6.813691616058350 -9.056845664978027 0.453600436449051 0.003921568859369
9.483791351318359 -11.524372100830078 3.950903654098511 0.003921568859369
16.274888992309570 -22.317886352539062 2.238951683044434 0.003921568859369
8.218153953552246 -10.008304595947266 3.422032356262207 0.000000000000000
8.625965118408203 -10.751441001892090 1.669865846633911 0.000000000000000
7.685889720916748 -10.647939682006836 0.526890337467194 0.000000000000000
9.028466224670410 -12.577067375183105 2.792009353637695 0.003921568859369
14.491267204284668 -20.565795898437500 4.554790019989014 0.003921568859369
7.417703151702881 -9.450270652770996 0.273970007896423 0.000000000000000
9.540446281433105 -12.446683883666992 1.902723312377930 0.000000000000000
7.302668571472168 -10.710210800170898 0.520059227943420 0.000000000000000
6.131402969360352 -10.927618026733398 0.502985358238220 0.000000000000000
4.906802177429199 -7.874987602233887 2.441892623901367 0.003921568859369
7.303085327148438 -12.077415466308594 3.737668752670288 0.000000000000000
12.556467056274414 -23.756927490234375 4.870312213897705 0.003921568859369
12.882902145385742 -25.461034774780273 5.174386978149414 0.003921568859369
11.223931312561035 -25.861330032348633 0.323903471231461 0.003921568859369
4.620564937591553 -8.408555984497070 1.158319830894470 0.003921568859369
12.154365539550781 -26.719347000122070 -0.172830045223236 0.003921568859369
13.099153518676758 -26.330188751220703 0.678063035011292 0.003921568859369
13.053387641906738 -26.458906173706055 0.680288672447205 0.003921568859369
10.523193359375000 -23.005075454711914 3.086974143981934 0.003921568859369
4.824816226959229 -11.774609565734863 2.296432733535767 0.003921568859369
10.401727676391602 -26.912698745727539 2.342964887619019 0.003921568859369
10.618743896484375 -27.762584686279297 2.413843154907227 0.003921568859369
4.473035812377930 -9.686211585998535 2.820683717727661 0.003921568859369
10.334593772888184 -27.302175521850586 2.370600938796997 0.003921568859369
10.278602600097656 -27.445610046386719 2.380031108856201 0.003921568859369
8.957397460937500 -28.352085113525391 0.342005431652069 0.003921568859369
11.395449638366699 -26.934001922607422 0.674540400505066 0.003921568859369
8.861026763916016 -28.372852325439453 0.341914296150208 0.003921568859369
8.575095176696777 -27.790336608886719 0.334516406059265 0.003921568859369
11.140812873840332 -27.664890289306641 0.688082456588745 0.003921568859369
4.657765388488770 -13.040150642395020 2.502978801727295 0.003921568859369
8.108520507812500 -28.384977340698242 0.339658915996552 0.003921568859369
8.928327560424805 -27.858766555786133 2.376793146133423 0.003921568859369
3.874771833419800 -11.730508804321289 2.231894254684448 0.000000000000000
3.648107767105103 -11.124673843383789 2.114280462265015 0.000000000000000
3.479459762573242 -11.116120338439941 2.104242324829102 0.003921568859369
8.221235275268555 -28.302164077758789 -0.173694729804993 0.003921568859369
7.757837295532227 -28.516464233398438 2.402171373367310 0.003921568859369
8.485573768615723 -26.689388275146484 1.622012615203857 0.003921568859369
3.693478345870972 -11.232741355895996 3.138427257537842 0.000000000000000
8.545716285705566 -27.914833068847656 0.674009740352631 0.003921568859369
8.785248756408691 -26.622831344604492 0.159426882863045 0.003921568859369
3.869483947753906 -13.312306404113770 3.686965227127075 0.000000000000000
3.090690612792969 -10.488737106323242 2.902457952499390 0.000000000000000
8.738708496093750 -28.176721572875977 0.167871266603470 0.003921568859369
3.049365997314453 -28.304088592529297 -0.333762735128403 0.003921568859369
2.945122241973877 -28.253480911254883 -0.333056837320328 0.003921568859369
2.858301639556885 -28.397735595703125 -0.334647327661514 0.003921568859369
2.786846399307251 -28.737028121948242 -0.338534146547318 0.003921568859369
2.670534849166870 -28.545900344848633 -0.336187869310379 0.003921568859369
1.309267044067383 -7.360616683959961 0.604473292827606 0.000000000000000
0.759424924850464 -3.085866451263428 0.125806614756584 0.000000000000000
2.467721939086914 -17.509197235107422 3.213026762008667 0.003921568859369
0.948074340820312 -9.582109451293945 -0.113106086850166 0.000000000000000
1.878089666366577 -10.867393493652344 2.937669515609741 0.000000000000000
1.104088306427002 -8.881265640258789 0.726090431213379 0.000000000000000
1.908221960067749 -12.023565292358398 0.704242944717407 0.000000000000000
1.237469673156738 -11.522025108337402 0.941672921180725 0.000000000000000
2.141125202178955 -14.670481681823730 3.957131147384644 0.000000000000000
1.112653732299805 -6.248176574707031 0.145254060626030 0.000000000000000
1.385140895843506 -14.996623039245605 1.225215196609497 0.000000000000000
1.150607228279114 -6.910769939422607 -0.001438037026674 0.000000000000000
0.722769975662231 -5.778350353240967 -0.034957449883223 0.000000000000000
1.328190207481384 -9.136884689331055 0.533233821392059 0.000000000000000
0.963793635368347 -5.553016662597656 0.684084892272949 0.000000000000000
2.009151935577393 -15.832851409912109 4.262028217315674 0.003921568859369
1.447315335273743 -11.504344940185547 0.670922338962555 0.000000000000000
1.232644319534302 -9.515445709228516 1.171195745468140 0.000000000000000
0.622956156730652 -6.391478538513184 -0.038541723042727 0.000000000000000
1.998697638511658 -19.023410797119141 5.112740516662598 0.003921568859369
1.505739331245422 -13.735671997070312 1.689969301223755 0.000000000000000
0.952859878540039 -7.153989791870117 0.416452020406723 0.000000000000000
0.524795413017273 -5.085189342498779 0.087550409138203 0.000000000000000
0.742921292781830 -13.909078598022461 1.133800745010376 0.000000000000000
1.525711894035339 -15.956628799438477 4.283341407775879 0.003921568859369
0.662077546119690 -14.182179450988770 1.155510187149048 0.000000000000000
0.608028352260590 -13.868057250976562 1.129835367202759 0.000000000000000
1.611223101615906 -18.982999801635742 5.093634128570557 0.003921568859369
0.512687742710114 -14.068447113037109 1.146091580390930 0.000000000000000
0.455750316381454 -12.659205436706543 -0.075874447822571 0.000000000000000
1.336017727851868 -17.610883712768555 2.162504434585571 0.003921568859369
0.462467283010483 -14.406197547912598 2.624194622039795 0.003921568859369
1.276487946510315 -17.653667449951172 2.167377471923828 0.003921568859369
1.215945839881897 -17.680389404296875 2.170302629470825 0.003921568859369
1.368049144744873 -10.495536804199219 0.059147834777832 0.000000000000000
0.114170998334885 -5.299021244049072 0.060300864279270 0.000000000000000
1.141957640647888 -18.960517883300781 5.081236362457275 0.003921568859369
0.207886338233948 -19.650907516479492 3.580040216445923 0.003921568859369
0.293621838092804 -6.661531448364258 0.114657849073410 0.000000000000000
0.922736406326294 -17.810813903808594 2.184461116790771 0.003921568859369
1.394483685493469 -13.259330749511719 0.074477754533291 0.000000000000000
0.569796800613403 -6.179208755493164 0.358129441738129 0.000000000000000
0.090803474187851 -11.797285079956055 0.478294134140015 0.000000000000000
0.825065433979034 -19.210037231445312 5.144922256469727 0.003921568859369
1.104100108146667 -10.300302505493164 0.298035144805908 0.000000000000000
0.501156866550446 -4.742775440216064 0.274592250585556 0.000000000000000
-0.039653509855270 -14.663756370544434 1.194795012474060 0.000000000000000
0.254057288169861 -4.752017498016357 0.081332266330719 0.000000000000000
-0.079297930002213 -14.474982261657715 1.179524183273315 0.000000000000000
0.693421244621277 -18.922561645507812 5.067320346832275 0.003921568859369
-0.128470450639725 -14.437303543090820 1.176602602005005 0.000000000000000
-0.175941914319992 -14.243904113769531 1.161007642745972 0.000000000000000
0.423464268445969 -13.743173599243164 3.679675579071045 0.000000000000000
0.057192385196686 -6.949170112609863 0.119534783065319 0.000000000000000
-0.117886513471603 -10.331373214721680 0.842217683792114 0.000000000000000
0.307097524404526 -16.856826782226562 2.066645860671997 0.003921568859369
0.327520161867142 -13.742881774902344 3.679681301116943 0.003921568859369
0.140315115451813 -16.985845565795898 2.082279682159424 0.003921568859369
0.122742652893066 -18.041160583496094 4.830955028533936 0.003921568859369
0.679348289966583 -8.924193382263184 0.257312029600143 0.000000000000000
-0.803977191448212 -17.706020355224609 1.445261120796204 0.000000000000000
0.009337425231934 -15.362734794616699 1.883628368377686 0.003921568859369
0.047771930694580 -13.950629234313965 3.736219406127930 0.003921568859369
0.251582264900208 -5.663293838500977 0.327963739633560 0.000000000000000
0.014731884002686 -13.357075691223145 1.637737035751343 0.003921568859369
-0.052568167448044 -13.958682060241699 1.711752414703369 0.003921568859369
0.564169943332672 -12.446566581726074 0.069328680634499 0.000000000000000
0.174289762973785 -6.122361660003662 -0.002093643415719 0.000000000000000
0.451346337795258 -6.155381202697754 0.033661916851997 0.000000000000000
0.377051711082458 -5.883161544799805 0.031870923936367 0.000000000000000
-0.751393973827362 -19.108196258544922 5.125435829162598 0.003921568859369
-1.709902763366699 -14.989649772644043 2.757214307785034 0.000000000000000
0.155297040939331 -6.022114753723145 0.172887280583382 0.000000000000000
-1.171898245811462 -16.065574645996094 1.978308320045471 0.003921568859369
-2.069868564605713 -16.344583511352539 1.345758318901062 0.000000000000000
-2.009078979492188 -15.241384506225586 2.810605764389038 0.000000000000000
0.127142697572708 -4.179496765136719 0.022105559706688 0.000000000000000
-2.541475296020508 -15.797732353210449 2.927090883255005 0.003921568859369
-1.711561679840088 -15.183224678039551 1.878659725189209 0.000000000000000
-3.271254301071167 -19.316165924072266 3.581523180007935 0.003921568859369
-1.542070984840393 -13.621286392211914 3.684513568878174 0.003921568859369
-1.891796350479126 -15.626024246215820 0.915688276290894 0.003921568859369
-3.847216367721558 -20.347969055175781 3.786569833755493 0.003921568859369
-2.049620866775513 -15.259939193725586 1.894273281097412 0.003921568859369
-2.298141241073608 -13.313560485839844 3.638721227645874 0.003921568859369
-3.197310686111450 -12.875031471252441 2.436261892318726 0.003921568859369
-3.815745115280151 -14.105848312377930 1.198733091354370 0.000000000000000
-4.695987224578857 -15.474985122680664 1.326676607131958 0.003921568859369
-1.654077529907227 -5.314875125885010 0.063444703817368 0.000000000000000
-3.305237293243408 -12.629950523376465 1.614044427871704 0.003921568859369
-4.800033092498779 -14.598793983459473 1.262138366699219 0.000000000000000
-3.931485414505005 -13.554998397827148 3.814782381057739 0.000000000000000
-1.174540996551514 -4.318284511566162 -0.030152708292007 0.000000000000000
-6.111535072326660 -14.919823646545410 0.184437006711960 0.003921568859369
-4.995430469512939 -16.619163513183594 2.142723321914673 0.003921568859369
-5.148285388946533 -16.501230239868164 4.666172981262207 0.003921568859369
-5.170256137847900 -16.376274108886719 1.003068447113037 0.000000000000000
-5.222249507904053 -16.528926849365234 4.679633140563965 0.003921568859369
-5.791299819946289 -13.307234764099121 0.166201874613762 0.000000000000000
-3.546594858169556 -8.488794326782227 -0.113832823932171 0.000000000000000
-5.259188652038574 -15.772192955017090 2.055332660675049 0.003921568859369
-4.904532432556152 -12.695091247558594 2.510085821151733 0.003921568859369
-7.126936912536621 -17.399526596069336 0.325153768062592 0.003921568859369
-4.706924915313721 -13.111616134643555 3.774268627166748 0.003921568859369
-5.284126758575439 -14.159556388854980 0.884813666343689 0.000000000000000
-4.929021835327148 -11.633886337280273 0.517773211002350 0.000000000000000
-1.396027207374573 -4.033295631408691 -0.029492357745767 0.000000000000000
-4.052317142486572 -9.664756774902344 0.181612491607666 0.000000000000000
-5.928350925445557 -15.572368621826172 2.062404632568359 0.003921568859369
-1.384309649467468 -3.972454786300659 -0.029126897454262 0.000000000000000
-5.632964611053467 -12.898880958557129 0.243674337863922 0.000000000000000
-4.224750995635986 -10.905488967895508 -0.005268868524581 0.003921568859369
-7.768711566925049 -16.778505325317383 0.755628526210785 0.003921568859369
-2.916073799133301 -7.890369415283203 2.299992322921753 0.000000000000000
-3.611659049987793 -8.280456542968750 0.372226357460022 0.000000000000000
-7.727055072784424 -16.411252975463867 0.314026087522507 0.003921568859369
-6.656875133514404 -14.032649040222168 -0.097466543316841 0.000000000000000
-0.503118097782135 -1.748371124267578 -0.026737092062831 0.000000000000000
-3.943263292312622 -8.377533912658691 0.160844862461090 0.000000000000000
-4.564483165740967 -10.689121246337891 3.165588140487671 0.000000000000000
-10.885595321655273 -20.719703674316406 1.922826766967773 0.003921568859369
-3.888467550277710 -7.937703609466553 0.736386597156525 0.000000000000000
-4.183973789215088 -10.648515701293945 0.062148835510015 0.000000000000000
-1.050487995147705 -2.755166053771973 0.255318135023117 0.000000000000000
-4.617791175842285 -8.974263191223145 0.416218608617783 0.000000000000000
-3.077299594879150 -7.935066699981689 -0.157170385122299 0.000000000000000
-4.130281448364258 -8.058869361877441 1.691883325576782 0.000000000000000
-3.425349235534668 -6.782951831817627 0.315177053213120 0.000000000000000
-3.861313819885254 -7.471306324005127 -0.055142164230347 0.000000000000000
-2.945572137832642 -5.911370754241943 0.115257762372494 0.000000000000000
-3.657031059265137 -7.123714447021484 0.669648349285126 0.000000000000000
-1.541457414627075 -3.916079759597778 -0.003928087651730 0.000000000000000
-3.513064861297607 -7.653637409210205 0.196467131376266 0.000000000000000
-1.434089183807373 -4.159667491912842 0.129791408777237 0.000000000000000
-4.208077907562256 -7.935630321502686 1.679738640785217 0.000000000000000
-4.475651741027832 -10.524000167846680 0.061997629702091 0.000000000000000
