# This PCD file was generated using the MATLAB® pcwrite function
# from Computer Vision Toolbox®.
# .PCD v.7 - Point Cloud Data file format
VERSION .7
FIELDS x y z intensity
SIZE 8 8 8 8
TYPE F F F F
COUNT 1 1 1 1
WIDTH 641
HEIGHT 1
VIEWPOINT 0 0 0 1 0 0 0
POINTS 641
DATA ascii
-6.449604034423828 1.257382273674011 -0.241605222225189 0.000000000000000
-2.949592590332031 0.647713720798492 0.005458605475724 0.000000000000000
-20.940382003784180 4.399979114532471 -0.848551213741302 0.003921568859369
-12.648999214172363 2.660343647003174 0.364713072776794 0.000000000000000
-20.959253311157227 4.482462406158447 -0.850097954273224 0.003921568859369
-21.099514007568359 4.588544845581055 -0.856713652610779 0.003921568859369
-21.193328857421875 4.681451320648193 -0.861363112926483 0.003921568859369
-5.504799842834473 1.672934532165527 0.218284562230110 0.000000000000000
-12.443519592285156 3.369831562042236 3.319962024688721 0.000000000000000
-13.634570121765137 4.456269264221191 0.565758645534515 0.000000000000000
-15.156177520751953 4.298736095428467 0.002064499072731 0.000000000000000
-7.982177734375000 3.007897138595581 -0.090334862470627 0.000000000000000
-6.504934310913086 1.779681205749512 0.367422401905060 0.000000000000000
-8.589832305908203 2.836838722229004 1.561033248901367 0.000000000000000
-13.078310012817383 3.124179124832153 0.379505097866058 0.000000000000000
-12.949741363525391 4.515784740447998 2.412482500076294 0.000000000000000
-7.063479900360107 2.404709577560425 1.274384737014771 0.000000000000000
-7.067479133605957 2.801472902297974 -0.411301791667938 0.000000000000000
-7.751048564910889 2.290414810180664 0.934941411018372 0.000000000000000
-7.139481067657471 2.482572793960571 -0.037418551743031 0.000000000000000
-10.432868003845215 3.758960962295532 -0.059142678976059 0.000000000000000
-7.867330074310303 2.017878770828247 -0.306223988533020 0.000000000000000
-16.469305038452148 7.086107254028320 -0.203858807682991 0.003921568859369
-4.912681579589844 1.223495244979858 0.137510612607002 0.000000000000000
-6.907834053039551 2.120283603668213 0.395868897438049 0.000000000000000
-10.774820327758789 3.404166221618652 1.329244256019592 0.000000000000000
-16.778707504272461 4.587550163269043 0.099933542311192 0.000000000000000
-8.410378456115723 3.571971893310547 -0.098199158906937 0.000000000000000
-7.993733406066895 2.598447561264038 0.464254796504974 0.000000000000000
-8.016145706176758 2.635136365890503 0.003525300417095 0.000000000000000
-9.406180381774902 2.678471565246582 0.057429339736700 0.000000000000000
-6.564653873443604 1.845962882041931 -0.106226399540901 0.000000000000000
-17.081945419311523 6.018870353698730 2.164722681045532 0.003921568859369
-13.641240119934082 5.508583545684814 1.162973999977112 0.000000000000000
-11.163710594177246 4.599939346313477 2.116725921630859 0.000000000000000
-14.932993888854980 4.670702934265137 -0.262979596853256 0.000000000000000
-11.287964820861816 4.835431098937988 2.154525279998779 0.000000000000000
-5.952027797698975 2.148561239242554 0.003908316604793 0.000000000000000
-10.228266716003418 4.396793842315674 -0.060188267379999 0.000000000000000
-5.623618602752686 2.621548414230347 0.070309393107891 0.000000000000000
-5.237911701202393 1.623006463050842 0.033444412052631 0.000000000000000
-8.020515441894531 3.029467105865479 0.003030746942386 0.003921568859369
-13.929240226745605 6.189663887023926 1.206871390342712 0.000000000000000
-10.048305511474609 3.351982593536377 0.297146648168564 0.000000000000000
-2.851901769638062 1.093385338783264 0.110332913696766 0.000000000000000
-6.535144805908203 3.200382471084595 -0.076641708612442 0.000000000000000
-16.702322006225586 7.673077583312988 -0.105488352477551 0.000000000000000
-10.261469841003418 4.051811218261719 0.247923806309700 0.000000000000000
-4.967950820922852 2.134046316146851 0.407741576433182 0.000000000000000
-11.791513442993164 4.777302265167236 0.286608606576920 0.000000000000000
-10.825071334838867 5.751309394836426 -0.137102290987968 0.000000000000000
-10.915912628173828 5.802187919616699 0.139162942767143 0.000000000000000
-11.411811828613281 4.174129009246826 0.341872155666351 0.000000000000000
-9.119325637817383 4.378118038177490 -0.279500365257263 0.000000000000000
-8.300024032592773 3.596754074096680 0.202408909797668 0.000000000000000
-10.167520523071289 3.896271228790283 0.305651456117630 0.000000000000000
-11.488637924194336 5.732393741607666 0.216853007674217 0.000000000000000
-7.299129486083984 3.137437820434570 2.010265350341797 0.000000000000000
-1.524015307426453 0.419280141592026 -0.039886772632599 0.003921568859369
-7.444230556488037 2.881380081176758 -0.128201603889465 0.000000000000000
-8.080083847045898 3.144546270370483 -0.523375093936920 0.000000000000000
-7.999341964721680 3.550393104553223 -0.190698295831680 0.000000000000000
-23.030685424804688 12.253711700439453 -0.154713168740273 0.003921568859369
-9.435459136962891 3.820542335510254 -0.167466327548027 0.000000000000000
-9.145289421081543 4.745331764221191 1.800065159797668 0.000000000000000
-7.443738460540771 2.995537757873535 -0.129078596830368 0.000000000000000
-10.857616424560547 5.776731014251709 -0.068560734391212 0.000000000000000
-5.514750003814697 2.506850957870483 1.506662845611572 0.000000000000000
-8.077287673950195 3.890083551406860 0.498848974704742 0.000000000000000
-7.805496692657471 3.433609724044800 0.237821936607361 0.000000000000000
-9.300533294677734 4.172075271606445 0.058535687625408 0.000000000000000
-2.647329568862915 1.175344586372375 0.004608625080436 0.000000000000000
-5.961658954620361 2.659954786300659 -0.386895090341568 0.000000000000000
-9.188701629638672 4.851758003234863 -0.696112394332886 0.000000000000000
-16.848125457763672 11.341450691223145 -0.700300514698029 0.003921568859369
-16.726484298706055 11.341334342956543 -0.696811914443970 0.003921568859369
-16.667177200317383 11.384194374084473 -0.696015238761902 0.003921568859369
-16.500120162963867 11.350527763366699 -0.690541326999664 0.003921568859369
-16.384288787841797 11.347890853881836 -0.687189877033234 0.003921568859369
-16.280921936035156 11.361782073974609 -0.684551835060120 0.003921568859369
-9.845543861389160 4.878340244293213 -0.183210760354996 0.000000000000000
-14.432619094848633 9.099295616149902 -0.099574990570545 0.000000000000000
-16.165445327758789 11.357873916625977 -0.681199193000793 0.003921568859369
-6.526248455047607 3.974751472473145 -0.377366840839386 0.000000000000000
-16.067564010620117 11.370170593261719 -0.678699076175690 0.003921568859369
-15.966569900512695 11.379559516906738 -0.676056742668152 0.003921568859369
-9.617558479309082 4.881992340087891 -0.179726436734200 0.000000000000000
-15.881766319274902 11.400272369384766 -0.674122810363770 0.003921568859369
-6.926009654998779 4.333058834075928 -0.405540913343430 0.000000000000000
-15.840671539306641 11.448904037475586 -0.674029350280762 0.003921568859369
-15.782626152038574 11.493134498596191 -0.673373579978943 0.003921568859369
-11.058449745178223 5.799371719360352 -0.210481390357018 0.000000000000000
-5.154629707336426 3.545662164688110 -0.202905178070068 0.000000000000000
-15.502361297607422 11.454222679138184 -0.664953291416168 0.003921568859369
-10.878939628601074 5.793548107147217 -0.207685559988022 0.000000000000000
-10.785973548889160 5.742081165313721 0.068951323628426 0.000000000000000
-15.711915969848633 11.778695106506348 -0.677956044673920 0.003921568859369
-15.747505187988281 11.895877838134766 -0.681554555892944 0.003921568859369
-15.761457443237305 11.988404273986816 -0.684013545513153 0.003921568859369
-15.826199531555176 12.125933647155762 -0.688887059688568 0.003921568859369
-6.036676406860352 3.602529764175415 0.002260791603476 0.000000000000000
-17.814033508300781 11.218165397644043 -0.966952919960022 0.003921568859369
-15.774392127990723 12.172003746032715 -0.688511610031128 0.003921568859369
-17.727899551391602 11.248114585876465 -0.964375972747803 0.003921568859369
-15.853497505187988 12.322819709777832 -0.694095313549042 0.003921568859369
-17.608375549316406 11.255662918090820 -0.959917366504669 0.003921568859369
-17.512332916259766 11.277942657470703 -0.956774950027466 0.003921568859369
-17.472862243652344 11.337370872497559 -0.956830620765686 0.003921568859369
-15.612240791320801 12.392128944396973 -0.689136862754822 0.003921568859369
-17.149038314819336 11.211588859558105 -0.941261351108551 0.003921568859369
-15.504521369934082 12.399015426635742 -0.686612248420715 0.003921568859369
-17.053546905517578 11.231710433959961 -0.938116788864136 0.003921568859369
-15.464538574218750 11.262922286987305 -0.988035082817078 0.003921568859369
-16.981227874755859 11.267060279846191 -0.936288714408875 0.003921568859369
-15.383711814880371 11.283919334411621 -0.985333740711212 0.003921568859369
-16.796894073486328 11.225118637084961 -0.928062617778778 0.000000000000000
-16.813463211059570 11.320732116699219 -0.931314587593079 0.000000000000000
-16.571289062500000 11.228156089782715 -0.919505953788757 0.000000000000000
-15.202323913574219 11.383165359497070 -0.981030762195587 0.003921568859369
-16.584323883056641 11.321056365966797 -0.922569334506989 0.000000000000000
-15.162502288818359 11.434556961059570 -0.981078445911407 0.003921568859369
-16.668672561645508 11.464945793151855 -0.929773747920990 0.000000000000000
-15.141367912292480 11.500590324401855 -0.982395589351654 0.003921568859369
-16.482118606567383 11.417128562927246 -0.921355962753296 0.000000000000000
-15.123087882995605 11.569091796875000 -0.983924269676208 0.003921568859369
-16.094846725463867 11.223698616027832 -0.901266396045685 0.000000000000000
-15.085742950439453 11.622689247131348 -0.984183311462402 0.003921568859369
-16.049097061157227 11.273533821105957 -0.900940418243408 0.000000000000000
-15.079387664794922 11.701132774353027 -0.986558437347412 0.003921568859369
-15.954745292663574 11.287894248962402 -0.897790491580963 0.000000000000000
-15.063332557678223 11.772150039672852 -0.988298714160919 0.003921568859369
-17.611154556274414 11.254682540893555 -0.840519964694977 0.003921568859369
-15.880617141723633 11.322855949401855 -0.896324634552002 0.000000000000000
-15.066016197204590 11.865712165832520 -0.991928398609161 0.003921568859369
-17.506223678588867 11.276848793029785 -0.837765455245972 0.003921568859369
-15.600008964538574 11.198534011840820 -0.882254362106323 0.000000000000000
-15.058527946472168 11.944471359252930 -0.994303166866302 0.003921568859369
-17.413539886474609 11.300869941711426 -0.835182964801788 0.003921568859369
-15.573646545410156 11.260896682739258 -0.883056044578552 0.000000000000000
-15.050660133361816 12.023321151733398 -0.996677935123444 0.003921568859369
-17.357397079467773 11.348879814147949 -0.834413111209869 0.003921568859369
-17.036272048950195 11.217528343200684 -0.820455670356750 0.003921568859369
-15.402207374572754 11.296361923217773 -0.877692222595215 0.003921568859369
-16.997014999389648 11.275358200073242 -0.820508778095245 0.003921568859369
-16.868591308593750 11.271979331970215 -0.816110491752625 0.003921568859369
-16.827838897705078 11.324090957641602 -0.815995633602142 0.003921568859369
-15.224996566772461 11.403347969055176 -0.874255120754242 0.000000000000000
-16.716062545776367 11.330934524536133 -0.812420547008514 0.003921568859369
-15.185101509094238 11.454854011535645 -0.874302446842194 0.000000000000000
-3.767123699188232 2.328865766525269 -0.161800339818001 0.000000000000000
-15.157609939575195 11.516077995300293 -0.875103056430817 0.000000000000000
-16.577821731567383 11.402694702148438 -0.809556365013123 0.003921568859369
-15.139283180236816 11.584664344787598 -0.876468658447266 0.000000000000000
-16.306789398193359 11.294312477111816 -0.797899067401886 0.003921568859369
-15.120660781860352 11.653262138366699 -0.877834320068359 0.000000000000000
-16.218561172485352 11.314643859863281 -0.795476019382477 0.003921568859369
-15.108476638793945 11.734213829040527 -0.880127668380737 0.000000000000000
-16.108562469482422 11.324986457824707 -0.792383134365082 0.003921568859369
-15.098540306091309 11.810411453247070 -0.882057905197144 0.000000000000000
-15.097559928894043 11.894232749938965 -0.884553313255310 0.000000000000000
-15.958221435546875 11.382090568542480 -0.788853704929352 0.003921568859369
-15.102357864379883 11.983247756958008 -0.887425541877747 0.000000000000000
-15.760890007019043 11.319820404052734 -0.780820369720459 0.003921568859369
-15.094373703002930 12.062284469604492 -0.889544367790222 0.000000000000000
-15.116783142089844 12.166910171508789 -0.893547415733337 0.003921568859369
-15.537591934204102 11.318615913391113 -0.773493707180023 0.003921568859369
-15.269096374511719 12.557473182678223 -0.911022603511810 0.000000000000000
-4.359632968902588 3.342974424362183 -0.237573474645615 0.000000000000000
-20.306261062622070 19.508136749267578 5.064794540405273 0.003921568859369
-20.138027191162109 19.605596542358398 2.256941080093384 0.003921568859369
-15.172288894653320 12.390468597412109 -0.790240108966827 0.003921568859369
-20.111360549926758 20.858337402343750 2.328158855438232 0.003921568859369
-5.939276695251465 4.838034152984619 -0.469285786151886 0.000000000000000
-19.759040832519531 21.975122451782227 2.375828504562378 0.003921568859369
-17.596462249755859 19.935691833496094 2.136109590530396 0.003921568859369
-19.852163314819336 21.613643646240234 3.555130481719971 0.003921568859369
-19.765087127685547 21.678174972534180 3.554921865463257 0.003921568859369
-8.864019393920898 9.672631263732910 3.439047098159790 0.000000000000000
-17.945693969726562 22.638870239257812 2.323523759841919 0.003921568859369
-9.514500617980957 10.642848014831543 3.748807191848755 0.000000000000000
-7.569805145263672 8.547606468200684 2.985512256622314 0.000000000000000
-16.705364227294922 19.864095687866211 3.143853187561035 0.003921568859369
-16.416791915893555 21.738664627075195 2.191182613372803 0.003921568859369
-1.608997583389282 1.544404029846191 0.529444515705109 0.000000000000000
-18.138599395751953 22.903585433959961 7.747365951538086 0.003921568859369
-18.049148559570312 22.953121185302734 7.743183612823486 0.003921568859369
-17.277931213378906 24.478643417358398 -0.880797445774078 0.003921568859369
-17.140676498413086 24.471065521240234 -0.878348171710968 0.003921568859369
-15.425271987915039 21.014131546020508 3.160277366638184 0.003921568859369
-14.974918365478516 22.821554183959961 4.923981189727783 0.003921568859369
-15.312709808349609 23.539609909057617 5.066898822784424 0.003921568859369
-5.619896411895752 7.773386478424072 2.510014295578003 0.000000000000000
-14.473533630371094 23.276205062866211 4.946944236755371 0.003921568859369
-15.077039718627930 21.969125747680664 7.068636417388916 0.003921568859369
-13.040707588195801 23.822870254516602 0.299958765506744 0.003921568859369
-15.090515136718750 25.076219558715820 2.358148336410522 0.003921568859369
-13.252470016479492 24.845533370971680 0.310845494270325 0.003921568859369
-13.154693603515625 24.868980407714844 0.310547292232513 0.003921568859369
-13.407999038696289 22.577232360839844 2.114705085754395 0.003921568859369
-13.617005348205566 22.941473007202148 4.815187454223633 0.003921568859369
-13.622372627258301 23.125425338745117 2.161792993545532 0.003921568859369
-13.630846023559570 23.142345428466797 4.848033905029297 0.003921568859369
-13.358485221862793 25.694362640380859 0.319539904594421 0.003921568859369
-13.092554092407227 22.381137847900391 2.088169813156128 0.003921568859369
-14.277359962463379 24.684438705444336 5.150724411010742 0.003921568859369
-12.773925781250000 22.554157257080078 2.088389873504639 0.003921568859369
-12.063538551330566 24.188421249389648 0.298758178949356 0.003921568859369
-11.920144081115723 24.323663711547852 0.299353003501892 0.003921568859369
-12.265580177307129 22.186004638671875 2.042453050613403 0.003921568859369
-11.888830184936523 24.466781616210938 0.300594240427017 0.003921568859369
-14.738784790039062 24.092761993408203 -0.666694402694702 0.003921568859369
-11.680747985839844 24.254619598388672 -0.325628668069839 0.003921568859369
-4.621017456054688 6.497973918914795 0.225402325391769 0.000000000000000
-3.571081161499023 6.231550693511963 1.276732087135315 0.000000000000000
-12.504013061523438 24.236417770385742 -0.802589714527130 0.003921568859369
-12.759071350097656 24.962591171264648 -0.825350522994995 0.003921568859369
-10.711707115173340 23.679340362548828 0.287602633237839 0.003921568859369
-10.605144500732422 23.660274505615234 0.286917835474014 0.003921568859369
-14.063458442687988 24.913316726684570 0.647455632686615 0.003921568859369
-13.098945617675781 23.552553176879883 7.160284996032715 0.003921568859369
-2.537243366241455 4.060071468353271 1.235268235206604 0.000000000000000
-10.852567672729492 25.440229415893555 0.305812150239944 0.003921568859369
-6.174006938934326 11.024116516113281 3.334852933883667 0.000000000000000
-10.572764396667480 25.260709762573242 0.302777320146561 0.003921568859369
-11.737113952636719 24.855333328247070 2.217959403991699 0.003921568859369
-1.847870469093323 3.297592878341675 0.661784112453461 0.000000000000000
-12.904854774475098 24.614334106445312 1.595527172088623 0.003921568859369
-13.513321876525879 26.029687881469727 -0.693266630172729 0.003921568859369
-14.395727157592773 24.891296386718750 0.152382701635361 0.003921568859369
-9.351887702941895 23.678108215332031 0.282020479440689 0.003921568859369
-12.109390258789062 24.298219680786133 0.614799439907074 0.003921568859369
-9.288740158081055 24.261198043823242 0.287702292203903 0.003921568859369
-8.948234558105469 24.111917495727539 -0.311195820569992 0.003921568859369
-8.851161956787109 24.130392074584961 -0.310676276683807 0.003921568859369
-5.598046302795410 11.360299110412598 3.349309921264648 0.000000000000000
-9.292702674865723 25.958816528320312 -0.333736121654510 0.003921568859369
-8.909373283386230 24.847560882568359 0.292672514915466 0.003921568859369
-11.809076309204102 25.017992019653320 -0.653797566890717 0.003921568859369
-9.999176025390625 24.360727310180664 -0.775597512722015 0.003921568859369
-8.284630775451660 23.842634201049805 -0.305170208215714 0.003921568859369
-9.104521751403809 26.613124847412109 -0.340710043907166 0.003921568859369
-9.619034767150879 24.649044036865234 -0.779639005661011 0.003921568859369
-7.852882385253906 23.642436981201172 -0.301261067390442 0.003921568859369
-7.802547454833984 23.742233276367188 -0.302261799573898 0.003921568859369
-9.998420715332031 26.495374679565430 -0.835144281387329 0.003921568859369
-11.015926361083984 25.862722396850586 1.615953326225281 0.003921568859369
-11.712769508361816 24.365837097167969 0.143734291195869 0.003921568859369
-7.448419570922852 24.106595993041992 -0.305010437965393 0.003921568859369
-7.266877651214600 23.797206878662109 -0.300752103328705 0.003921568859369
-7.262480735778809 24.110767364501953 -0.304455101490021 0.003921568859369
-9.816177368164062 23.910104751586914 0.586254179477692 0.003921568859369
-8.875566482543945 26.236783981323242 -0.816841602325439 0.003921568859369
-6.890485763549805 24.077817916870117 -0.302897602319717 0.003921568859369
-6.846339225769043 23.916122436523438 0.276285111904144 0.003921568859369
-6.603872776031494 24.048355102539062 -0.301322609186172 0.003921568859369
-6.522295951843262 24.044729232788086 -0.301041126251221 0.003921568859369
-9.277498245239258 24.525987625122070 -0.619813740253448 0.003921568859369
-8.005435943603516 25.053962707519531 -0.775257885456085 0.003921568859369
-8.750330924987793 27.487428665161133 5.226960659027100 0.003921568859369
-9.116567611694336 24.630853652954102 -0.620905935764313 0.003921568859369
-7.340260505676270 23.770257949829102 -0.155831351876259 0.003921568859369
-8.485456466674805 27.653430938720703 5.241919040679932 0.003921568859369
-6.058449268341064 23.986867904663086 -0.299049347639084 0.003921568859369
-7.962591171264648 26.561573028564453 2.242475271224976 0.003921568859369
-8.230245590209961 27.494148254394531 5.201125621795654 0.003921568859369
-9.860795974731445 28.265647888183594 1.722494602203369 0.003921568859369
-8.237381935119629 27.885042190551758 5.269749164581299 0.003921568859369
-9.226168632507324 26.383291244506836 -0.661404669284821 0.003921568859369
-7.999930858612061 27.412239074707031 5.175348758697510 0.003921568859369
-8.964966773986816 26.196428298950195 -0.655235767364502 0.003921568859369
-9.389205932617188 27.827747344970703 3.578779458999634 0.003921568859369
-7.759762763977051 27.286695480346680 5.141707897186279 0.003921568859369
-8.908463478088379 26.694980621337891 3.429821014404297 0.003921568859369
-7.839544296264648 27.996414184570312 5.270873546600342 0.003921568859369
-6.530372142791748 23.766510009765625 -0.726332962512970 0.003921568859369
-6.423413276672363 23.695142745971680 -0.723495900630951 0.003921568859369
-8.951130867004395 27.805839538574219 3.560743570327759 0.003921568859369
-6.194105148315430 23.835449218750000 -0.725911796092987 0.003921568859369
-6.244918823242188 24.407526016235352 -0.742793679237366 0.003921568859369
-6.008022308349609 23.794254302978516 -0.723442912101746 0.003921568859369
-5.139299392700195 25.641166687011719 0.291155964136124 0.003921568859369
-7.728310108184814 25.425979614257812 1.529871821403503 0.003921568859369
-7.164759159088135 29.078874588012695 2.423924684524536 0.003921568859369
-6.698896884918213 27.103059768676758 5.062644958496094 0.003921568859369
-6.072018623352051 26.103578567504883 -0.790429472923279 0.003921568859369
-4.729858398437500 26.000986099243164 -0.319419085979462 0.003921568859369
-4.729134559631348 26.528770446777344 0.300405859947205 0.003921568859369
-7.365794181823730 26.229070663452148 3.322329282760620 0.003921568859369
-1.903358221054077 9.791496276855469 -0.928678870201111 0.000000000000000
-6.381731510162354 28.426532745361328 5.285439491271973 0.003921568859369
-4.510424613952637 26.349292755126953 -0.323215663433075 0.003921568859369
-6.250915527343750 28.297363281250000 5.257535457611084 0.003921568859369
-4.421522140502930 26.383941650390625 0.298257410526276 0.003921568859369
-7.602560043334961 28.285369873046875 3.572625398635864 0.003921568859369
-4.361340522766113 26.607337951660156 -0.326072782278061 0.003921568859369
-4.232025146484375 26.408388137817383 -0.323438435792923 0.003921568859369
-5.320656776428223 25.198251724243164 2.085363864898682 0.003921568859369
-1.730721831321716 7.285558223724365 -0.607072412967682 0.000000000000000
-3.973577499389648 26.546466827392578 -0.324686735868454 0.003921568859369
-3.690925121307373 25.148300170898438 0.283542901277542 0.003921568859369
-5.928418636322021 23.847812652587891 -0.581202089786530 0.003921568859369
-4.824971199035645 26.034130096435547 -0.780994772911072 0.003921568859369
-5.283420562744141 28.673545837402344 5.292239189147949 0.003921568859369
-4.756229400634766 26.179841995239258 -0.784919679164886 0.003921568859369
-6.384549140930176 27.537925720214844 3.449724197387695 0.003921568859369
-4.467761516571045 25.538431167602539 4.705731868743896 0.003921568859369
-4.244507312774658 25.868606567382812 -0.163948580622673 0.003921568859369
-4.196599006652832 26.138454437255859 4.805828571319580 0.003921568859369
-6.293031215667725 24.254053115844727 0.134287476539612 0.003921568859369
-4.116128921508789 26.225902557373047 4.819409370422363 0.003921568859369
-2.688091278076172 27.016513824462891 0.303677737712860 0.003921568859369
-5.153677940368652 25.810468673706055 3.213269233703613 0.003921568859369
-3.970777750015259 26.622749328613281 4.887789249420166 0.003921568859369
-2.582808017730713 26.841005325317383 0.301633745431900 0.003921568859369
-2.392025947570801 25.664562225341797 -0.311100482940674 0.003921568859369
-4.892871379852295 25.914735794067383 3.220035076141357 0.003921568859369
-2.327288866043091 27.142410278320312 0.304724007844925 0.003921568859369
-3.421358585357666 25.170751571655273 4.613089561462402 0.003921568859369
-5.159686088562012 27.922721862792969 -0.672132849693298 0.003921568859369
-2.146221876144409 25.944526672363281 0.291331410408020 0.003921568859369
-3.814372539520264 29.155725479125977 2.384053945541382 0.003921568859369
-3.378375053405762 25.552711486816406 4.681035518646240 0.003921568859369
-4.779275417327881 26.284034729003906 -0.632134675979614 0.003921568859369
-3.620414972305298 29.262845993041992 -0.184502273797989 0.003921568859369
-3.122814416885376 25.776342391967773 4.716065883636475 0.003921568859369
-3.266555547714233 28.838417053222656 -0.856835126876831 0.003921568859369
-2.997100591659546 26.233022689819336 4.796167373657227 0.003921568859369
-1.519003868103027 24.327648162841797 -0.294150084257126 0.003921568859369
-1.562265992164612 25.182821273803711 0.282489925622940 0.003921568859369
-2.911000251770020 26.297145843505859 4.806176185607910 0.003921568859369
-1.426363468170166 26.522119522094727 0.297694772481918 0.003921568859369
-4.046937465667725 26.550912857055664 -0.635373175144196 0.003921568859369
-2.554994583129883 25.519430160522461 4.659954071044922 0.003921568859369
-3.862494468688965 26.516309738159180 3.273766517639160 0.003921568859369
-2.448099374771118 25.319400787353516 4.622035503387451 0.003921568859369
-0.976530194282532 8.491232872009277 -0.697173357009888 0.000000000000000
-2.231124877929688 25.979877471923828 -0.769275605678558 0.003921568859369
-3.506265640258789 26.682010650634766 3.288301229476929 0.003921568859369
-3.349270105361938 26.188903808593750 3.226168632507324 0.003921568859369
-2.703011035919189 15.155895233154297 -0.988912642002106 0.000000000000000
-2.644708633422852 15.112585067749023 -0.985563695430756 0.000000000000000
-1.605946063995361 24.687913894653320 -0.153654292225838 0.003921568859369
-2.580624580383301 15.104945182800293 -0.984344661235809 0.000000000000000
-2.944054365158081 25.887416839599609 -0.616161406040192 0.003921568859369
-0.311055272817612 26.866521835327148 -0.323857039213181 0.003921568859369
-2.521125555038452 15.085676193237305 -0.982544064521790 0.000000000000000
-1.430502414703369 24.540615081787109 -0.152672171592712 0.003921568859369
-2.471410274505615 15.076875686645508 -0.981516361236572 0.000000000000000
-1.411764025688171 26.072101593017578 -0.770169019699097 0.003921568859369
-0.137353613972664 25.986595153808594 0.291896730661392 0.003921568859369
-2.417083024978638 15.072612762451172 -0.980746805667877 0.003921568859369
-2.361272573471069 15.076430320739746 -0.980493009090424 0.003921568859369
-1.252892613410950 24.500288009643555 1.991701841354370 0.003921568859369
-2.309669971466064 15.071415901184082 -0.979723036289215 0.000000000000000
-2.550360441207886 26.560302734375000 3.262001276016235 0.003921568859369
-1.343239068984985 29.164932250976562 2.370087146759033 0.003921568859369
-2.256001472473145 15.070528984069824 -0.979211032390594 0.000000000000000
-1.042365074157715 26.061660766601562 -0.769466221332550 0.003921568859369
-2.200747966766357 15.077707290649414 -0.979214847087860 0.000000000000000
-2.156925916671753 23.990375518798828 1.391782999038696 0.003921568859369
-2.363669157028198 26.619485855102539 3.267333030700684 0.003921568859369
-2.324261903762817 26.116447448730469 -0.620281696319580 0.003921568859369
0.313947707414627 25.684007644653320 -0.309559732675552 0.003921568859369
-2.148602008819580 15.088316917419434 -0.979476273059845 0.000000000000000
-2.096632480621338 15.078614234924316 -0.978447973728180 0.000000000000000
-2.167652845382690 26.427186965942383 3.242082595825195 0.003921568859369
-1.268688678741455 13.910741806030273 3.731897830963135 0.000000000000000
-2.042591571807861 15.073006629943848 -0.977677822113037 0.003921568859369
-3.158700942993164 25.364189147949219 0.138061091303825 0.003921568859369
-1.987782239913940 15.083369255065918 -0.977939069271088 0.000000000000000
-1.926205754280090 15.089257240295410 -0.977750480175018 0.000000000000000
-2.035815715789795 29.037601470947266 3.560054063796997 0.003921568859369
-1.874368667602539 15.102916717529297 -0.978268921375275 0.000000000000000
-0.478812217712402 25.069175720214844 2.036736726760864 0.003921568859369
-1.824279665946960 15.108182907104492 -0.978271603584290 0.000000000000000
-1.684641599655151 26.222265243530273 3.213867902755737 0.003921568859369
-1.773124217987061 15.129436492919922 -0.979305565357208 0.000000000000000
-1.721448898315430 15.146543502807617 -0.980081498622894 0.000000000000000
-1.543577909469604 27.119945526123047 3.322620630264282 0.003921568859369
-1.670780658721924 15.175397872924805 -0.981630742549896 0.000000000000000
-1.621164917945862 15.187942504882812 -0.982148647308350 0.000000000000000
-0.086505398154259 20.731889724731445 3.772052288055420 0.003921568859369
0.231457382440567 25.832509994506836 -0.762051939964294 0.003921568859369
0.604362368583679 28.996459960937500 2.356858253479004 0.003921568859369
-0.747143507003784 25.596479415893555 -0.605297148227692 0.003921568859369
-0.668593883514404 25.993803024291992 1.504179000854492 0.003921568859369
1.856979727745056 24.692781448364258 -0.297666788101196 0.003921568859369
-0.562534093856812 24.773912429809570 3.032670974731445 0.003921568859369
-0.476094543933868 24.778162002563477 1.433820247650146 0.003921568859369
-0.302513122558594 24.485967636108398 2.997220039367676 0.003921568859369
1.066189050674438 26.186822891235352 -0.162243127822876 0.003921568859369
0.359614044427872 11.357765197753906 -0.931419074535370 0.000000000000000
2.322370052337646 24.161964416503906 -0.291783869266510 0.003921568859369
0.390359789133072 11.200340270996094 -0.918652296066284 0.000000000000000
-0.028469443321228 26.585432052612305 3.254108905792236 0.003921568859369
2.378693819046021 23.898387908935547 -0.288680016994476 0.003921568859369
0.223926484584808 7.819665431976318 -0.640750110149384 0.000000000000000
-0.224339932203293 2.307240486145020 0.619424939155579 0.000000000000000
0.455994278192520 11.000645637512207 -0.902611136436462 0.000000000000000
-0.215160414576530 2.380541563034058 0.639060795307159 0.000000000000000
0.252233535051346 26.704790115356445 0.611401319503784 0.003921568859369
0.486560970544815 10.882761001586914 -0.893117487430573 0.000000000000000
2.005164623260498 27.456720352172852 5.012346267700195 0.003921568859369
-0.302488863468170 24.600025177001953 0.134271591901779 0.003921568859369
0.794910192489624 10.854296684265137 -0.892682075500488 0.000000000000000
0.829255700111389 10.814903259277344 -0.889735341072083 0.000000000000000
1.359140634536743 10.516458511352539 -0.995418846607208 0.000000000000000
0.871883034706116 10.858682632446289 -0.893660485744476 0.000000000000000
0.908940911293030 10.846796989440918 -0.893004298210144 0.000000000000000
2.469641685485840 24.723623275756836 -0.153314545750618 0.003921568859369
0.944625139236450 10.822896957397461 -0.891366422176361 0.000000000000000
2.646674394607544 25.437358856201172 -0.157440707087517 0.003921568859369
0.997607707977295 10.874144554138184 -0.895848333835602 0.000000000000000
0.235548675060272 25.351711273193359 0.138750433921814 0.003921568859369
1.032786250114441 10.846020698547363 -0.893883705139160 0.000000000000000
1.064916014671326 10.794039726257324 -0.889956176280975 0.000000000000000
1.106999397277832 10.825044631958008 -0.892898499965668 0.000000000000000
1.139238119125366 10.776799201965332 -0.889298021793365 0.000000000000000
1.178072333335876 10.795904159545898 -0.891258955001831 0.000000000000000
0.305643469095230 6.356386184692383 -0.687680900096893 0.000000000000000
1.212556362152100 10.767204284667969 -0.889294028282166 0.000000000000000
4.257759571075439 23.884233474731445 0.274927228689194 0.003921568859369
1.256669282913208 10.809481620788574 -0.893217563629150 0.000000000000000
1.288806676864624 10.764739990234375 -0.889944016933441 0.000000000000000
1.326376080513000 10.759359359741211 -0.889941751956940 0.000000000000000
1.586808323860168 9.152168273925781 -0.872807323932648 0.000000000000000
1.367441534996033 10.777506828308105 -0.891902208328247 0.000000000000000
2.382230281829834 26.439870834350586 -0.627322614192963 0.003921568859369
1.405649662017822 10.775794982910156 -0.892227053642273 0.000000000000000
1.450358510017395 10.758189201354980 -0.891148209571838 0.000000000000000
1.488526225090027 10.756214141845703 -0.891472876071930 0.000000000000000
1.526064515113831 10.750167846679688 -0.891470491886139 0.000000000000000
1.562927126884460 10.740057945251465 -0.891140997409821 0.000000000000000
2.605741024017334 24.277101516723633 -0.576501011848450 0.003921568859369
1.603076934814453 10.749473571777344 -0.892446696758270 0.000000000000000
1.634453058242798 10.707676887512207 -0.889500737190247 0.000000000000000
1.684334278106689 10.771780967712402 -0.895384848117828 0.000000000000000
1.720506787300110 10.757204055786133 -0.894728064537048 0.000000000000000
2.952193498611450 24.294694900512695 -0.577904164791107 0.003921568859369
1.755154848098755 10.734666824340820 -0.893417239189148 0.000000000000000
1.455073237419128 8.941407203674316 -0.744286477565765 0.000000000000000
1.837174892425537 10.767927169799805 -0.897336184978485 0.000000000000000
1.870166301727295 10.737188339233398 -0.895371139049530 0.000000000000000
1.927443861961365 10.784557342529297 -0.899851024150848 0.000000000000000
1.960334181785583 10.753564834594727 -0.897886514663696 0.000000000000000
2.469219684600830 24.517423629760742 0.135888502001762 0.003921568859369
6.613560199737549 25.417194366455078 0.298591703176498 0.003921568859369
6.694886684417725 25.366186141967773 0.298285067081451 0.003921568859369
5.209591865539551 24.192729949951172 -0.728896975517273 0.003921568859369
2.455108880996704 15.400732994079590 4.183700084686279 0.003921568859369
1.359220862388611 6.910809516906738 1.291407704353333 0.000000000000000
7.258337497711182 25.300312042236328 0.299757003784180 0.003921568859369
0.232693195343018 2.252511501312256 -0.246271058917046 0.000000000000000
1.699788689613342 7.519014835357666 1.413169384002686 0.000000000000000
6.248472213745117 25.087938308715820 -0.761168658733368 0.003921568859369
2.200337886810303 11.493887901306152 3.143808364868164 0.000000000000000
2.017699718475342 8.401691436767578 -0.710788726806641 0.000000000000000
0.671104192733765 4.050166130065918 -0.446114510297775 0.000000000000000
2.704524517059326 10.842631340026855 -0.918653130531311 0.000000000000000
7.650852203369141 23.857879638671875 -0.299243390560150 0.003921568859369
7.877258300781250 23.980796813964844 0.287749141454697 0.003921568859369
6.500883579254150 23.317117691040039 1.974164366722107 0.003921568859369
7.225441932678223 25.502414703369141 -0.779973328113556 0.003921568859369
5.276957511901855 22.242485046386719 6.131231307983398 0.003921568859369
6.684952259063721 22.472370147705078 1.912610292434692 0.003921568859369
7.670261383056641 21.606687545776367 -0.273372918367386 0.003921568859369
8.054240226745605 26.643133163452148 -0.169468060135841 0.003921568859369
6.081378459930420 24.439941406250000 0.580538451671600 0.003921568859369
2.168550968170166 10.936044692993164 -0.719189465045929 0.000000000000000
6.830492496490479 21.879341125488281 1.870173931121826 0.003921568859369
8.708674430847168 27.381172180175781 2.342847347259521 0.003921568859369
7.349335670471191 23.202972412109375 4.442138195037842 0.003921568859369
8.193855285644531 21.850845336914062 0.266737937927246 0.003921568859369
7.467222213745117 22.724847793579102 -0.145054295659065 0.003921568859369
7.190482139587402 21.653915405273438 1.862127780914307 0.003921568859369
6.231757164001465 22.073701858520508 2.817013502120972 0.003921568859369
7.443993568420410 22.144412994384766 1.906562089920044 0.003921568859369
8.517587661743164 21.528821945190430 -0.275663435459137 0.003921568859369
8.553567886352539 25.079864501953125 4.835820674896240 0.003921568859369
7.826324939727783 27.200086593627930 -0.666919410228729 0.003921568859369
9.279351234436035 22.950183868408203 -0.294780164957047 0.003921568859369
8.300580024719238 23.817041397094727 2.058028221130371 0.003921568859369
5.843223094940186 23.805789947509766 0.708674013614655 0.003921568859369
6.862391948699951 23.036933898925781 1.397228837013245 0.003921568859369
8.424220085144043 23.899780273437500 2.067765712738037 0.003921568859369
9.595050811767578 23.264959335327148 -0.299674749374390 0.003921568859369
11.275807380676270 27.261831283569336 0.337193131446838 0.003921568859369
9.291605949401855 22.325014114379883 -0.287926048040390 0.003921568859369
7.987610340118408 22.213088989257812 1.926719069480896 0.003921568859369
7.301469326019287 23.586605072021484 3.032492876052856 0.003921568859369
10.745832443237305 25.270017623901367 -0.327029705047607 0.003921568859369
10.764893531799316 25.314268112182617 0.314613014459610 0.003921568859369
6.851270198822021 21.929859161376953 2.822420358657837 0.003921568859369
8.084241867065430 25.769350051879883 -0.636416196823120 0.003921568859369
7.492354393005371 23.615657806396484 3.043105602264404 0.003921568859369
7.786335945129395 23.672960281372070 -0.586800932884216 0.003921568859369
7.742439270019531 23.247890472412109 3.010064125061035 0.003921568859369
10.148623466491699 22.333950042724609 -0.291669785976410 0.003921568859369
9.404808998107910 27.495954513549805 3.568455457687378 0.003921568859369
10.130848884582520 22.112886428833008 -0.289184302091599 0.003921568859369
6.615482330322266 22.796686172485352 0.132913380861282 0.003921568859369
6.863836765289307 23.317525863647461 0.703386604785919 0.003921568859369
9.762760162353516 27.604986190795898 3.595722675323486 0.003921568859369
8.039172172546387 22.818489074707031 -0.569710433483124 0.003921568859369
9.206357955932617 25.513311386108398 0.626442790031433 0.003921568859369
12.445600509643555 26.119005203247070 0.331426978111267 0.003921568859369
10.615593910217285 25.156841278076172 -0.164689093828201 0.003921568859369
10.385201454162598 24.620130538940430 2.181290149688721 0.003921568859369
9.981829643249512 23.680019378662109 4.692101478576660 0.003921568859369
11.383542060852051 26.690084457397461 -0.852433800697327 0.003921568859369
12.430822372436523 25.600997924804688 0.326466143131256 0.003921568859369
10.472666740417480 24.586786270141602 2.181624412536621 0.003921568859369
10.863759040832520 25.259336471557617 -0.807833373546600 0.003921568859369
8.182641029357910 21.993038177490234 0.542669296264648 0.003921568859369
8.864582061767578 23.541278839111328 3.090795755386353 0.003921568859369
13.198680877685547 26.469348907470703 -0.351184099912643 0.003921568859369
13.417007446289062 26.430103302001953 0.340027451515198 0.003921568859369
12.277932167053223 27.180198669433594 -0.876186311244965 0.003921568859369
8.247840881347656 24.438449859619141 0.144812703132629 0.003921568859369
10.378873825073242 26.127298355102539 0.649783134460449 0.003921568859369
8.751375198364258 22.096326828002930 -0.559286653995514 0.003921568859369
10.233523368835449 22.324197769165039 -0.721637845039368 0.003921568859369
8.823916435241699 22.053941726684570 -0.558996140956879 0.003921568859369
13.502235412597656 25.717563629150391 0.333326697349548 0.003921568859369
9.247936248779297 22.854646682739258 3.030045032501221 0.003921568859369
11.663177490234375 25.151411056518555 2.263489007949829 0.003921568859369
1.643151283264160 5.038850307464600 -0.093696683645248 0.000000000000000
10.365567207336426 22.191387176513672 -0.719740390777588 0.003921568859369
9.371891021728516 22.927932739257812 3.044162273406982 0.003921568859369
7.673646450042725 21.530433654785156 0.128865569829941 0.003921568859369
10.228360176086426 24.720863342285156 3.287343978881836 0.003921568859369
7.728034019470215 21.446645736694336 0.128537431359291 0.003921568859369
9.483182907104492 22.725496292114258 3.026545286178589 0.003921568859369
12.587283134460449 26.153795242309570 -0.174532130360603 0.003921568859369
10.165025711059570 24.109426498413086 3.215347528457642 0.003921568859369
10.553772926330566 21.982707977294922 1.991952180862427 0.003921568859369
9.688674926757812 22.996412277221680 -0.586792469024658 0.003921568859369
9.726846694946289 22.853717803955078 -0.584058880805969 0.003921568859369
11.308315277099609 26.269369125366211 -0.672458350658417 0.003921568859369
10.912144660949707 22.116922378540039 2.014701366424561 0.003921568859369
13.210601806640625 26.258649826049805 -0.863043010234833 0.003921568859369
10.628309249877930 23.801088333129883 3.203723669052124 0.003921568859369
12.053133964538574 26.222150802612305 1.679190754890442 0.003921568859369
12.879386901855469 24.759517669677734 5.096881389617920 0.003921568859369
10.154847145080566 25.024000167846680 0.152557566761971 0.003921568859369
12.309952735900879 26.500133514404297 0.676360309123993 0.003921568859369
14.280541419982910 24.224500656127930 0.323723345994949 0.003921568859369
10.635544776916504 22.940305709838867 3.108272075653076 0.003921568859369
15.281930923461914 25.498517990112305 -0.351835906505585 0.003921568859369
14.428595542907715 24.088930130004883 0.323287993669510 0.003921568859369
15.156059265136719 25.102302551269531 -0.347044706344604 0.003921568859369
13.433928489685059 24.943359375000000 -0.169797584414482 0.003921568859369
14.661341667175293 24.101427078247070 -0.333877146244049 0.003921568859369
13.513217926025391 24.881753921508789 -0.169690817594528 0.003921568859369
12.604079246520996 26.181987762451172 0.672709345817566 0.003921568859369
15.063501358032227 24.553539276123047 -0.340915679931641 0.003921568859369
12.188174247741699 25.094396591186523 0.645966172218323 0.003921568859369
11.805850982666016 24.317182540893555 1.573548316955566 0.003921568859369
2.464631795883179 5.322547912597656 1.588797926902771 0.000000000000000
14.973265647888184 24.218700408935547 -0.336976319551468 0.003921568859369
12.439208030700684 25.380737304687500 0.654463350772858 0.003921568859369
14.978875160217285 24.040660858154297 0.326186060905457 0.003921568859369
12.018215179443359 24.318809509277344 1.579129457473755 0.003921568859369
12.835939407348633 25.517015457153320 0.661412179470062 0.003921568859369
13.079504013061523 25.319002151489258 1.659076333045959 0.003921568859369
3.224205017089844 7.164744377136230 0.229655310511589 0.000000000000000
13.143473625183105 24.815376281738281 1.634992122650146 0.003921568859369
12.105877876281738 22.489330291748047 1.487555027008057 0.003921568859369
13.586720466613770 25.208423614501953 3.520087003707886 0.003921568859369
12.647428512573242 23.483131408691406 -0.626269876956940 0.003921568859369
12.754343032836914 23.483907699584961 -0.627479672431946 0.003921568859369
13.901188850402832 25.372531890869141 0.670409560203552 0.003921568859369
15.492923736572266 25.252536773681641 2.420279264450073 0.003921568859369
14.518628120422363 23.322254180908203 -0.805728495121002 0.003921568859369
14.599099159240723 23.450386047363281 -0.165009200572968 0.003921568859369
15.730249404907227 24.853666305541992 2.403110980987549 0.003921568859369
14.338403701782227 24.505737304687500 0.658287227153778 0.003921568859369
14.898442268371582 25.252243041992188 0.679734647274017 0.003921568859369
15.861763000488281 24.107849121093750 2.357956886291504 0.003921568859369
15.109948158264160 25.405357360839844 0.685288965702057 0.003921568859369
15.378589630126953 25.649679183959961 0.693338513374329 0.003921568859369
14.315811157226562 23.893013000488281 3.424576997756958 0.003921568859369
15.790532112121582 23.287487030029297 -0.824787497520447 0.003921568859369
2.292130947113037 3.178043365478516 -0.373204946517944 0.000000000000000
18.245231628417969 22.560588836669922 0.335352301597595 0.003921568859369
16.725904464721680 22.399682998657227 5.107248306274414 0.003921568859369
18.152645111083984 21.671005249023438 -0.333247631788254 0.003921568859369
16.900905609130859 21.982620239257812 2.266395092010498 0.003921568859369
2.630795717239380 3.524875879287720 -0.364843875169754 0.000000000000000
15.162344932556152 21.711936950683594 3.256782054901123 0.003921568859369
6.926216125488281 8.839728355407715 -0.923547446727753 0.000000000000000
17.770088195800781 22.450698852539062 2.340198040008545 0.003921568859369
4.718037128448486 6.717491149902344 2.217034101486206 0.000000000000000
18.000429153442383 20.301939010620117 0.314030498266220 0.003921568859369
6.448971271514893 8.123712539672852 -0.853456914424896 0.000000000000000
16.963415145874023 22.885370254516602 0.661317408084869 0.003921568859369
16.503490447998047 22.269582748413086 3.408784389495850 0.003921568859369
18.477136611938477 22.368703842163086 2.371455907821655 0.003921568859369
18.224145889282227 21.742868423461914 -0.168043896555901 0.003921568859369
17.276420593261719 22.791221618652344 0.664088428020477 0.003921568859369
2.735670328140259 3.348638296127319 -0.878583669662476 0.000000000000000
2.739695549011230 3.329749345779419 -0.876227498054504 0.000000000000000
2.755839109420776 3.326234102249146 -0.877795875072479 0.000000000000000
18.104949951171875 21.155908584594727 2.276191949844360 0.003921568859369
2.762293100357056 3.310291767120361 -0.876224517822266 0.000000000000000
18.965335845947266 22.000003814697266 5.305809497833252 0.003921568859369
2.769245386123657 3.293842792510986 -0.874653041362762 0.000000000000000
2.767201423645020 3.269557714462280 -0.870727002620697 0.000000000000000
18.029907226562500 20.627534866333008 -0.162226006388664 0.003921568859369
5.591769695281982 6.481888771057129 -0.705067157745361 0.000000000000000
17.652320861816406 22.308061599731445 3.498223781585693 0.003921568859369
2.765596389770508 3.244819402694702 -0.866800904273987 0.000000000000000
17.591001510620117 22.072469711303711 3.470960855484009 0.003921568859369
2.774296283721924 3.231842041015625 -0.866014540195465 0.000000000000000
2.793420553207397 3.230516910552979 -0.868367671966553 0.000000000000000
18.613981246948242 23.017143249511719 3.639973163604736 0.003921568859369
2.786264896392822 3.200006961822510 -0.862871766090393 0.000000000000000
19.579832077026367 21.769575119018555 -0.173347592353821 0.003921568859369
17.884067535400391 21.962699890136719 3.483164548873901 0.003921568859369
2.798453092575073 3.181211233139038 -0.860519230365753 0.000000000000000
2.803684949874878 3.165805101394653 -0.858948171138763 0.000000000000000
18.389671325683594 22.258172988891602 1.682506799697876 0.003921568859369
2.819488286972046 3.161926507949829 -0.860516548156738 0.000000000000000
6.144600391387939 7.465733528137207 -0.681093275547028 0.000000000000000
19.842388153076172 21.606918334960938 2.397748708724976 0.003921568859369
2.825168132781982 3.145974159240723 -0.858945429325104 0.000000000000000
20.018114089965820 21.645221710205078 2.409785270690918 0.003921568859369
2.825408935546875 3.124296426773071 -0.855804562568665 0.000000000000000
18.479026794433594 21.903165817260742 3.523866176605225 0.003921568859369
19.597713470458984 21.045120239257812 2.350635051727295 0.003921568859369
2.838987827301025 3.116923332214355 -0.856587946414948 0.000000000000000
2.850391626358032 3.106136083602905 -0.856586456298828 0.000000000000000
2.857967138290405 3.093503236770630 -0.855800271034241 0.000000000000000
2.857867717742920 3.071858882904053 -0.852659344673157 0.000000000000000
2.866376399993896 3.058186292648315 -0.851873040199280 0.000000000000000
2.863333225250244 3.033784866333008 -0.847947299480438 0.000000000000000
18.361497879028320 23.030195236206055 0.168842583894730 0.003921568859369
18.786277770996094 21.334642410278320 -0.665465891361237 0.003921568859369
2.873376846313477 3.023946285247803 -0.847945928573608 0.000000000000000
18.128616333007812 20.454921722412109 1.593222856521606 0.003921568859369
2.898379564285278 3.019154310226440 -0.849519968032837 0.000000000000000
