# This PCD file was generated using the MATLAB® pcwrite function
# from Computer Vision Toolbox®.
# .PCD v.7 - Point Cloud Data file format
VERSION .7
FIELDS x y z intensity
SIZE 8 8 8 8
TYPE F F F F
COUNT 1 1 1 1
WIDTH 643
HEIGHT 1
VIEWPOINT 0 0 0 1 0 0 0
POINTS 643
DATA ascii
-9.632563591003418 1.085251450538635 0.268898516893387 0.000000000000000
-4.076268196105957 0.774708628654480 0.066156312823296 0.000000000000000
-21.499546051025391 3.547710895538330 -0.988108873367310 0.003921568859369
-21.138086318969727 3.486800432205200 -0.484450876712799 0.003921568859369
-6.414913654327393 1.313271284103394 0.493376404047012 0.000000000000000
-21.089179992675781 3.553670883178711 -0.483775526285172 0.003921568859369
-6.083533287048340 1.260392546653748 0.466077744960785 0.000000000000000
-22.252061843872070 2.751471519470215 -0.889448344707489 0.003921568859369
-21.091768264770508 3.631704092025757 -0.484198361635208 0.003921568859369
-6.590299129486084 0.787852704524994 0.180468738079071 0.000000000000000
-8.821354866027832 1.492224574089050 -0.388664662837982 0.000000000000000
-21.616147994995117 2.745600223541260 -0.863707065582275 0.003921568859369
-21.106515884399414 3.708344459533691 -0.484899699687958 0.003921568859369
-21.190979003906250 2.759831905364990 -0.846612155437469 0.003921568859369
-9.322468757629395 1.614467263221741 2.392085552215576 0.000000000000000
-21.101976394653320 3.777932405471802 -0.485130876302719 0.003921568859369
-9.906412124633789 1.755450844764709 -0.440782129764557 0.000000000000000
-20.764982223510742 2.778333663940430 -0.829520046710968 0.003921568859369
-21.099779129028320 3.855443716049194 -0.485460281372070 0.003921568859369
-10.943868637084961 1.463715314865112 -0.669839143753052 0.000000000000000
-20.371768951416016 2.791297435760498 -0.813727557659149 0.003921568859369
-21.106523513793945 3.927313566207886 -0.485972285270691 0.003921568859369
-21.817050933837891 3.074312448501587 -0.873856186866760 0.003921568859369
-21.095918655395508 4.003383636474609 -0.486114501953125 0.003921568859369
-5.265260696411133 1.177177429199219 -0.138361454010010 0.000000000000000
-21.862091064453125 3.153001785278320 -0.876187562942505 0.003921568859369
-21.176671981811523 4.090155124664307 -0.488405406475067 0.003921568859369
-12.494212150573730 1.812565326690674 0.354016602039337 0.000000000000000
-21.810876846313477 3.225093364715576 -0.874605178833008 0.003921568859369
-21.212499618530273 4.176019668579102 -0.489671379327774 0.003921568859369
-11.720493316650391 2.869323492050171 -0.333774626255035 0.000000000000000
-20.571910858154297 4.111760616302490 -0.951165914535522 0.003921568859369
-21.658454895019531 3.269842863082886 -0.868769884109497 0.003921568859369
-21.226699829101562 4.246537685394287 -0.490368723869324 0.003921568859369
-20.165605545043945 4.103303432464600 -0.932541251182556 0.003921568859369
-6.384834289550781 1.522117495536804 0.494868695735931 0.000000000000000
-21.626592636108398 3.344048976898193 -0.868003368377686 0.003921568859369
-21.199253082275391 4.319828987121582 -0.490136653184891 0.003921568859369
-14.233682632446289 2.913040399551392 0.327241718769073 0.000000000000000
-20.541975021362305 4.254914760589600 -0.951258242130280 0.003921568859369
-21.575344085693359 3.411194086074829 -0.866417825222015 0.003921568859369
-7.057435989379883 1.748923420906067 1.232366204261780 0.000000000000000
-15.074742317199707 3.953067064285278 -0.086419939994812 0.000000000000000
-9.134280204772949 1.892390131950378 0.514815747737885 0.000000000000000
-11.145248413085938 2.334455251693726 -0.503513097763062 0.000000000000000
-8.899324417114258 2.303266048431396 -0.048140935599804 0.000000000000000
-20.488098144531250 4.460371494293213 -0.951313138008118 0.003921568859369
-20.502784729003906 4.540534019470215 -0.952853202819824 0.003921568859369
-20.666706085205078 4.648052215576172 -0.961485385894775 0.003921568859369
-16.941125869750977 3.015218019485474 0.486908644437790 0.003921568859369
-20.781787872314453 4.752837181091309 -0.967881679534912 0.003921568859369
-21.702554702758789 3.889569759368896 -0.875449061393738 0.003921568859369
-21.704561233520508 3.966346979141235 -0.876149177551270 0.003921568859369
-21.506778717041016 4.001289844512939 -0.868515789508820 0.003921568859369
-7.012173175811768 1.258570551872253 -0.419450581073761 0.000000000000000
-12.240109443664551 2.918766975402832 0.703888773918152 0.000000000000000
-11.108414649963379 2.132011175155640 -0.185820654034615 0.000000000000000
-11.149749755859375 3.244604349136353 -0.062856532633305 0.000000000000000
-8.067291259765625 1.906028985977173 0.955518543720245 0.000000000000000
-11.107148170471191 3.232184886932373 0.903461754322052 0.000000000000000
-15.845755577087402 5.632971763610840 0.190044403076172 0.003921568859369
-21.660234451293945 4.411752223968506 -0.878467261791229 0.003921568859369
-8.022060394287109 1.950408577919006 -0.177583172917366 0.000000000000000
-8.787491798400879 2.620124578475952 0.708944678306580 0.000000000000000
-21.683019638061523 4.497467517852783 -0.880149066448212 0.003921568859369
-13.759188652038574 4.245756149291992 0.243439823389053 0.000000000000000
-6.776618480682373 1.349595546722412 -0.406469255685806 0.000000000000000
-20.722618103027344 4.363289833068848 -0.840651571750641 0.003921568859369
-4.210383892059326 0.808536112308502 -0.238027349114418 0.000000000000000
-20.617485046386719 4.414002895355225 -0.836937069892883 0.003921568859369
-10.335822105407715 2.190533161163330 -0.406888067722321 0.000000000000000
-19.479938507080078 6.230258464813232 3.635868072509766 0.003921568859369
-11.224472999572754 3.557218551635742 2.055576324462891 0.000000000000000
-12.976306915283203 4.186779975891113 -0.075263537466526 0.000000000000000
-9.094311714172363 2.039316892623901 0.053552657365799 0.000000000000000
-5.426308155059814 1.421684741973877 0.121376588940620 0.000000000000000
-3.838980197906494 1.138446211814880 0.064032807946205 0.000000000000000
-10.217683792114258 3.372520446777344 0.838646173477173 0.000000000000000
-14.851716041564941 5.838991641998291 -0.539974927902222 0.003921568859369
-13.094874382019043 3.789493322372437 0.001280983211473 0.000000000000000
-9.604396820068359 3.301875829696655 1.763045787811279 0.000000000000000
-10.464279174804688 2.623963356018066 0.061796177178621 0.000000000000000
-20.175329208374023 5.187258720397949 0.591898322105408 0.003921568859369
-15.121374130249023 3.904705524444580 -0.262499392032623 0.000000000000000
-13.521306991577148 4.167027473449707 0.001092263497412 0.000000000000000
-7.183784008026123 1.807971715927124 0.042668893933296 0.000000000000000
-7.855175971984863 2.380540609359741 0.451047748327255 0.000000000000000
-8.499768257141113 2.618900299072266 0.197382777929306 0.000000000000000
-11.693308830261230 3.113506555557251 -0.200633883476257 0.000000000000000
-7.211661815643311 1.864204883575439 -0.442356407642365 0.000000000000000
-7.753782272338867 2.860955238342285 0.636566102504730 0.000000000000000
-8.337935447692871 2.297940254211426 0.049593728035688 0.000000000000000
-12.880347251892090 3.633713722229004 0.376223027706146 0.000000000000000
-6.020092964172363 1.912589311599731 -0.132880911231041 0.000000000000000
-14.035453796386719 4.757675170898438 0.334290236234665 0.000000000000000
-10.757890701293945 3.604660511016846 0.633804917335510 0.000000000000000
-5.732373237609863 1.896750569343567 0.131671682000160 0.000000000000000
-11.506235122680664 4.038887023925781 0.273682445287704 0.000000000000000
-18.522920608520508 5.635151863098145 0.549367845058441 0.003921568859369
-18.153444290161133 5.583819389343262 0.538694143295288 0.003921568859369
-8.005500793457031 2.811999082565308 0.001964064314961 0.003921568859369
-10.186697006225586 3.101006507873535 0.297345608472824 0.000000000000000
-6.164304256439209 2.464894533157349 1.125742673873901 0.000000000000000
-13.401433944702148 4.231031894683838 0.395805031061172 0.000000000000000
-12.128152847290039 5.808878421783447 -0.453243255615234 0.000000000000000
-7.386800765991211 3.466118812561035 0.091167144477367 0.000000000000000
-4.953735828399658 1.473770022392273 -0.187741741538048 0.000000000000000
-6.127629756927490 1.885361433029175 0.036926828324795 0.000000000000000
-10.529640197753906 3.363895654678345 0.309057325124741 0.000000000000000
-8.153161048889160 2.627907991409302 -0.327319562435150 0.000000000000000
-15.039108276367188 5.802288532257080 -0.363871067762375 0.000000000000000
-19.185346603393555 7.686250686645508 1.175420522689819 0.003921568859369
-8.115056991577148 2.734498023986816 0.237306222319603 0.000000000000000
-15.952209472656250 6.483004093170166 2.056516408920288 0.003921568859369
-7.345134735107422 2.511888265609741 0.214162752032280 0.000000000000000
-7.163466930389404 2.821798563003540 0.889667510986328 0.000000000000000
-3.319243669509888 1.055772066116333 0.020453689619899 0.000000000000000
-5.138819217681885 2.276112794876099 -0.268185287714005 0.000000000000000
-8.760451316833496 4.091280460357666 -0.052304700016975 0.000000000000000
-8.029897689819336 2.911612510681152 -0.138886913657188 0.000000000000000
-6.609413146972656 3.077306985855103 0.280260324478149 0.000000000000000
-10.473496437072754 4.429264068603516 1.340139746665955 0.000000000000000
-14.009002685546875 6.001471996307373 3.959024429321289 0.000000000000000
-23.146867752075195 11.517270088195801 -0.742369353771210 0.003921568859369
-22.991138458251953 11.532122611999512 -0.738538444042206 0.003921568859369
-6.740950584411621 2.825720548629761 0.843363404273987 0.000000000000000
-22.817321777343750 11.546516418457031 -0.734241843223572 0.003921568859369
-22.677631378173828 11.572567939758301 -0.730998933315277 0.003921568859369
-22.472814559936523 11.558581352233887 -0.725522816181183 0.003921568859369
-8.645157814025879 3.316279649734497 0.257703065872192 0.000000000000000
-22.305175781250000 11.567771911621094 -0.721339583396912 0.003921568859369
-22.130687713623047 11.572166442871094 -0.716920912265778 0.003921568859369
-22.157026290893555 11.683669090270996 -0.719194889068604 0.003921568859369
-19.480438232421875 10.242511749267578 3.930304527282715 0.003921568859369
-22.986463546752930 12.647499084472656 -0.754448771476746 0.003921568859369
-22.690444946289062 12.578169822692871 -0.745918095111847 0.003921568859369
-22.554864883422852 12.598197937011719 -0.742788374423981 0.003921568859369
-13.316052436828613 5.801481246948242 0.410098016262054 0.000000000000000
-6.403448104858398 3.135444402694702 0.157582357525826 0.000000000000000
-7.254991054534912 3.586560964584351 -0.176626801490784 0.000000000000000
-5.247722148895264 2.272989988327026 0.155762836337090 0.000000000000000
-19.258317947387695 10.116410255432129 -0.498113900423050 0.003921568859369
-7.053704738616943 3.568537473678589 0.001577415270731 0.000000000000000
-4.426428794860840 2.458334445953369 -0.241507560014725 0.000000000000000
-4.826328277587891 2.728590250015259 -0.027799624949694 0.000000000000000
-7.498713493347168 3.941431283950806 -0.185913994908333 0.000000000000000
-15.055624008178711 7.469556331634521 -0.667697131633759 0.003921568859369
-8.163336753845215 3.968596220016479 0.051654614508152 0.000000000000000
-4.758496284484863 2.286456108093262 -0.082414165139198 0.000000000000000
-11.333498954772949 7.361055374145508 -0.688012063503265 0.000000000000000
-8.533132553100586 4.453470706939697 -0.159599050879478 0.000000000000000
-8.197943687438965 4.372791767120361 -0.153767079114914 0.000000000000000
-5.766404628753662 3.480734825134277 -0.293547868728638 0.000000000000000
-6.601547241210938 3.733834981918335 -0.291222035884857 0.000000000000000
-8.867176055908203 5.779859066009521 -0.474639922380447 0.000000000000000
-8.880167007446289 5.915184974670410 -0.478803724050522 0.000000000000000
-4.181004047393799 2.886285305023193 0.139362648129463 0.000000000000000
-21.798652648925781 20.246309280395508 2.396150350570679 0.003921568859369
-20.685697555541992 19.743551254272461 2.303248167037964 0.003921568859369
-20.616662979125977 19.814123153686523 2.303213119506836 0.003921568859369
-19.299688339233398 22.859708786010742 2.414000511169434 0.003921568859369
-18.975706100463867 22.808586120605469 2.394680023193359 0.003921568859369
-17.597238540649414 24.045598983764648 -0.350918024778366 0.003921568859369
-4.364421844482422 5.933532714843750 -0.665653407573700 0.000000000000000
-18.026212692260742 22.114858627319336 3.466532230377197 0.003921568859369
-15.925655364990234 24.675239562988281 -0.346335381269455 0.003921568859369
-17.111034393310547 23.885276794433594 -0.175979837775230 0.003921568859369
-17.768312454223633 22.915338516235352 7.699639320373535 0.003921568859369
-14.991698265075684 23.949642181396484 -0.333008646965027 0.003921568859369
-7.948102474212646 11.136105537414551 2.452321290969849 0.000000000000000
-16.624500274658203 24.270341873168945 2.377130746841431 0.003921568859369
-5.766031742095947 8.102869987487793 1.772603511810303 0.000000000000000
-16.262796401977539 24.283939361572266 -0.175157740712166 0.003921568859369
-16.554636001586914 22.274959564208984 3.373489141464233 0.003921568859369
-8.075181961059570 11.849946975708008 2.573285818099976 0.000000000000000
-4.998839378356934 7.156349182128906 1.551981687545776 0.000000000000000
-16.035549163818359 24.473718643188477 -0.175453692674637 0.003921568859369
-15.584093093872070 23.969556808471680 -0.832377254962921 0.003921568859369
-16.880266189575195 23.578550338745117 3.526520252227783 0.003921568859369
-16.357742309570312 22.997531890869141 3.432362794876099 0.003921568859369
-13.587378501892090 23.854194641113281 -0.323696553707123 0.003921568859369
-15.749859809875488 25.010442733764648 -0.860977113246918 0.003921568859369
-17.118822097778320 24.824247360229492 0.690166532993317 0.003921568859369
-4.792417049407959 7.348695755004883 -0.699731707572937 0.000000000000000
-15.113141059875488 24.538715362548828 2.329980611801147 0.003921568859369
-13.182615280151367 24.508146286010742 0.315353900194168 0.003921568859369
-12.746252059936523 24.278453826904297 -0.323666661977768 0.003921568859369
-5.414372920989990 7.875908374786377 2.504149436950684 0.000000000000000
-13.815437316894531 26.624229431152344 -0.354368835687637 0.003921568859369
-16.110984802246094 25.011598587036133 -0.694075524806976 0.003921568859369
-13.848285675048828 24.131990432739258 -0.810577154159546 0.003921568859369
-13.831995010375977 24.492973327636719 -0.819678485393524 0.003921568859369
-11.732566833496094 23.500085830688477 -0.309883832931519 0.003921568859369
-15.029345512390137 24.011886596679688 -0.660695910453796 0.003921568859369
-13.119909286499023 23.774051666259766 -0.791150987148285 0.003921568859369
-13.237093925476074 24.400053024291992 -0.809077322483063 0.003921568859369
-13.483448028564453 25.079050064086914 -0.830160915851593 0.003921568859369
-11.280405044555664 23.836599349975586 -0.311337083578110 0.003921568859369
-15.927309036254883 24.150373458862305 0.161104664206505 0.003921568859369
-11.071047782897949 24.049898147583008 -0.312534511089325 0.003921568859369
-10.839249610900879 24.208675384521484 0.300973922014236 0.003921568859369
-3.243651866912842 5.855805397033691 -0.532255470752716 0.000000000000000
-13.740357398986816 24.132406234741211 -0.648030519485474 0.003921568859369
-10.765226364135742 24.257986068725586 0.301138401031494 0.003921568859369
-10.612182617187500 24.144773483276367 -0.311472088098526 0.003921568859369
-10.666863441467285 24.273868560791016 0.300848901271820 0.003921568859369
-11.268818855285645 25.942840576171875 -0.334383726119995 0.003921568859369
-11.785628318786621 23.840164184570312 -0.159582480788231 0.003921568859369
-12.842952728271484 26.269548416137695 -0.853233337402344 0.003921568859369
-5.434697628021240 10.676907539367676 -0.966198980808258 0.000000000000000
-10.236443519592285 23.942150115966797 -0.307546168565750 0.003921568859369
-3.811429977416992 8.447233200073242 -0.852178692817688 0.000000000000000
-13.402363777160645 24.719823837280273 -0.656548917293549 0.003921568859369
-5.330364704132080 10.765592575073242 -0.969445765018463 0.000000000000000
-14.017786026000977 26.347257614135742 -0.697204351425171 0.003921568859369
-11.975180625915527 25.605585098266602 -0.169814363121986 0.003921568859369
-13.907996177673340 26.588075637817383 -0.701112866401672 0.003921568859369
-2.547698497772217 5.654789447784424 -0.565662920475006 0.000000000000000
-12.022734642028809 26.195888519287109 2.334420204162598 0.003921568859369
-13.412136077880859 26.063549041748047 -0.684843122959137 0.003921568859369
-5.057932376861572 10.865696907043457 -0.967867016792297 0.000000000000000
-10.740604400634766 24.209369659423828 -0.159031808376312 0.003921568859369
-5.018727302551270 10.873913764953613 -0.967220962047577 0.000000000000000
-4.952677726745605 10.824090957641602 -0.961347162723541 0.000000000000000
-11.303798675537109 26.008716583251953 -0.827844619750977 0.003921568859369
-4.895101070404053 10.787844657897949 -0.956779837608337 0.000000000000000
-10.258951187133789 23.758775711059570 -0.754917085170746 0.003921568859369
-4.960208892822266 11.050168991088867 -0.978679358959198 0.000000000000000
-4.771009922027588 10.835561752319336 -0.956757187843323 0.000000000000000
-12.747776031494141 26.571596145629883 -0.688832044601440 0.003921568859369
-4.718212127685547 10.813991546630859 -0.953497290611267 0.000000000000000
-12.577974319458008 26.450242996215820 3.571642637252808 0.003921568859369
-9.939963340759277 23.963178634643555 -0.756904840469360 0.003921568859369
-4.686367988586426 10.843997001647949 -0.954811155796051 0.000000000000000
-1.530235767364502 2.589243173599243 0.764586687088013 0.000000000000000
-11.632246971130371 24.629077911376953 -0.636264622211456 0.003921568859369
-9.943184852600098 24.215829849243164 -0.763860285282135 0.003921568859369
-4.655832290649414 10.877620697021484 -0.956451833248138 0.000000000000000
-4.590169906616211 10.822094917297363 -0.950251281261444 0.000000000000000
-10.824816703796387 26.714477539062500 5.225217342376709 0.003921568859369
-4.557144165039062 10.843547821044922 -0.950911343097687 0.000000000000000
-11.117444038391113 24.159664154052734 -0.621231436729431 0.003921568859369
-4.464453697204590 10.721231460571289 -0.938829779624939 0.000000000000000
-10.407072067260742 26.184572219848633 2.283478498458862 0.003921568859369
-4.434089183807373 10.754182815551758 -0.940470218658447 0.000000000000000
-10.701185226440430 27.234748840332031 5.305383205413818 0.003921568859369
-9.532666206359863 24.416002273559570 -0.157471850514412 0.003921568859369
-4.399335861206055 10.775855064392090 -0.941130459308624 0.000000000000000
-12.073325157165527 27.076429367065430 3.616244316101074 0.003921568859369
-4.354742527008057 10.771265029907227 -0.939503490924835 0.000000000000000
-4.313983917236328 10.765111923217773 -0.937875747680664 0.000000000000000
-11.371339797973633 25.926033020019531 3.452831506729126 0.003921568859369
-8.650220870971680 26.822952270507812 -0.333452612161636 0.003921568859369
-4.274570465087891 10.810215950012207 -0.940452635288239 0.000000000000000
-9.219980239868164 24.647209167480469 -0.158017277717590 0.003921568859369
-4.212477207183838 10.756393432617188 -0.934578537940979 0.000000000000000
-8.255420684814453 26.161651611328125 -0.324534177780151 0.003921568859369
-4.170627117156982 10.745995521545410 -0.932624161243439 0.000000000000000
-11.116162300109863 26.102350234985352 3.461264848709106 0.003921568859369
-8.642344474792480 27.824764251708984 0.331185489892960 0.003921568859369
-4.143918991088867 10.802001953125000 -0.936224818229675 0.000000000000000
-4.109966754913330 10.813914299011230 -0.936230480670929 0.000000000000000
-10.996264457702637 26.331548690795898 3.481653928756714 0.003921568859369
-4.053981304168701 10.774268150329590 -0.931662857532501 0.000000000000000
-10.001374244689941 28.005153656005859 2.411606073379517 0.003921568859369
-9.903700828552246 23.870679855346680 -0.603866040706635 0.003921568859369
-7.959915637969971 26.532411575317383 -0.327842473983765 0.003921568859369
-4.008032798767090 10.768962860107422 -0.930035829544067 0.000000000000000
-3.952583312988281 10.728832244873047 -0.925468087196350 0.000000000000000
-3.936544179916382 10.805688858032227 -0.931028187274933 0.000000000000000
-10.077655792236328 25.336475372314453 0.625696361064911 0.003921568859369
-3.897558689117432 10.814409255981445 -0.930707633495331 0.000000000000000
-8.868309020996094 26.210226058959961 -0.808502912521362 0.003921568859369
-3.847442865371704 10.788873672485352 -0.927446484565735 0.000000000000000
-3.801215887069702 10.774502754211426 -0.925165414810181 0.000000000000000
-8.875523567199707 26.548299789428711 2.270159244537354 0.003921568859369
-8.716216087341309 26.394842147827148 -0.812193095684052 0.003921568859369
-3.763056516647339 10.813106536865234 -0.927414715290070 0.000000000000000
-3.719504356384277 10.793425559997559 -0.924806475639343 0.000000000000000
-8.544564247131348 26.808233261108398 -0.169265285134315 0.003921568859369
-7.092090606689453 27.048866271972656 -0.331048250198364 0.003921568859369
-9.692129135131836 26.533390045166016 3.448599576950073 0.003921568859369
-8.705150604248047 28.030050277709961 2.381508827209473 0.003921568859369
-7.834602832794189 25.119319915771484 4.774055004119873 0.003921568859369
-6.801025390625000 27.087120056152344 -0.330702245235443 0.003921568859369
-7.941025733947754 26.462463378906250 -0.807597756385803 0.003921568859369
-8.002719879150391 26.677160263061523 -0.167619511485100 0.003921568859369
-6.619210243225098 27.142261505126953 -0.330869019031525 0.003921568859369
-7.774996280670166 26.603216171264648 5.030411243438721 0.003921568859369
-6.135892391204834 25.898704528808594 -0.315108567476273 0.003921568859369
-6.036805152893066 25.898254394531250 -0.314668953418732 0.003921568859369
-8.897865295410156 26.326126098632812 3.393766403198242 0.003921568859369
-8.943507194519043 26.781755447387695 0.648671030998230 0.003921568859369
-9.296690940856934 27.877542495727539 -0.687902092933655 0.003921568859369
-2.432013750076294 9.896492004394531 -0.945568263530731 0.000000000000000
-8.712456703186035 26.365015029907227 3.391307592391968 0.003921568859369
-7.270055294036865 26.199966430664062 4.936031818389893 0.003921568859369
-7.478778839111328 27.785354614257812 2.335877656936646 0.003921568859369
-7.046065807342529 26.108057022094727 4.909503936767578 0.003921568859369
-5.578392982482910 25.966699600219727 -0.314387381076813 0.003921568859369
-5.704662799835205 26.590190887451172 0.309704571962357 0.003921568859369
-7.482868194580078 28.208185195922852 2.369262695312500 0.003921568859369
-6.764020442962646 25.379989624023438 4.768383979797363 0.003921568859369
-8.753075599670410 27.846755981445312 0.670649051666260 0.003921568859369
-3.038303613662720 10.871262550354004 -0.916033685207367 0.000000000000000
-6.734637260437012 25.639030456542969 4.812782287597656 0.003921568859369
-5.234390258789062 25.170593261718750 -0.304274141788483 0.003921568859369
-3.006069660186768 10.903920173645020 -0.917998611927032 0.000000000000000
-7.218461513519287 28.409439086914062 -0.176575347781181 0.003921568859369
-2.967993974685669 10.913241386413574 -0.918003499507904 0.000000000000000
-7.896347045898438 25.664459228515625 3.279862880706787 0.003921568859369
-6.598317146301270 26.255672454833984 -0.791666746139526 0.003921568859369
-2.945651054382324 10.988342285156250 -0.923561692237854 0.000000000000000
-6.721143245697021 27.188114166259766 -0.819192051887512 0.003921568859369
-2.926471948623657 11.078941345214844 -0.930426537990570 0.000000000000000
-6.533948421478271 26.396488189697266 4.938084602355957 0.003921568859369
-6.599129676818848 27.072408676147461 -0.167779192328453 0.003921568859369
-2.913153171539307 11.188502311706543 -0.938924670219421 0.003921568859369
-7.862849235534668 26.554622650146484 3.383405208587646 0.003921568859369
-6.184319972991943 25.730340957641602 -0.773735702037811 0.003921568859369
-2.891737937927246 11.314076423645020 -0.948681950569153 0.003921568859369
-9.209875106811523 27.292699813842773 0.160879924893379 0.003921568859369
-6.015453338623047 25.821653366088867 2.153096199035645 0.003921568859369
-4.692274093627930 26.299415588378906 -0.316279649734497 0.003921568859369
-4.800116062164307 26.946638107299805 0.311955094337463 0.003921568859369
-6.868504524230957 24.376140594482422 3.094210863113403 0.003921568859369
-3.819327354431152 13.048439979553223 3.618589639663696 0.000000000000000
-4.614588737487793 26.401599884033203 0.305504590272903 0.003921568859369
-6.763015270233154 24.322145462036133 3.084472894668579 0.003921568859369
-4.502262115478516 26.289886474609375 -0.315820455551147 0.003921568859369
-5.392268180847168 24.202299118041992 2.013625621795654 0.003921568859369
-5.307775020599365 24.219896316528320 2.013615846633911 0.003921568859369
-4.378898143768311 26.713935852050781 -0.320615977048874 0.003921568859369
-5.482847690582275 25.981410980224609 -0.159712031483650 0.003921568859369
-4.297951698303223 26.811264038085938 0.309504657983780 0.003921568859369
-6.932772159576416 26.443445205688477 -0.640154898166656 0.003921568859369
-5.145295619964600 24.736822128295898 -0.738916397094727 0.003921568859369
-5.470888137817383 26.403364181518555 2.190314054489136 0.003921568859369
-1.859347581863403 6.287744522094727 1.735373497009277 0.000000000000000
-6.744159698486328 26.473907470703125 0.628132641315460 0.003921568859369
-3.951306819915771 25.713773727416992 0.296607196331024 0.003921568859369
-7.277063846588135 28.665039062500000 -0.692943572998047 0.003921568859369
-6.600502014160156 26.282316207885742 0.623067677021027 0.003921568859369
-5.371288776397705 26.889337539672852 2.227584838867188 0.003921568859369
-6.474111080169678 26.154003143310547 0.619780242443085 0.003921568859369
-3.729027271270752 25.420228958129883 0.293166011571884 0.003921568859369
-6.337456226348877 25.576616287231445 3.221247911453247 0.003921568859369
-4.927488327026367 25.011554718017578 2.071155309677124 0.003921568859369
-6.240059852600098 25.562730789184570 3.216859817504883 0.003921568859369
-1.394537210464478 4.795528888702393 1.318576812744141 0.000000000000000
-4.631750106811523 25.416418075561523 2.099332332611084 0.003921568859369
-4.750240802764893 27.226863861083984 -0.808844327926636 0.003921568859369
-5.839598178863525 25.879945755004883 3.244041919708252 0.003921568859369
-4.642857074737549 27.195617675781250 -0.807444036006927 0.003921568859369
-6.284395217895508 28.942895889282227 3.622395515441895 0.003921568859369
-4.463818073272705 26.643625259399414 2.195613622665405 0.003921568859369
-5.285734653472900 24.543804168701172 -0.587894678115845 0.003921568859369
-5.508911609649658 26.134803771972656 3.266371965408325 0.003921568859369
-5.367182731628418 25.847150802612305 3.228428602218628 0.003921568859369
-4.213400363922119 26.850799560546875 2.209207296371460 0.003921568859369
-1.140154123306274 4.419167995452881 0.000741817057133 0.003921568859369
-5.184368133544922 25.916934967041016 3.232995986938477 0.003921568859369
-4.031222343444824 26.980093002319336 2.217841386795044 0.003921568859369
-2.582746505737305 26.880735397338867 -0.319810211658478 0.003921568859369
-5.076168060302734 25.888692855834961 3.227149009704590 0.003921568859369
-3.939856052398682 27.085136413574219 2.225291728973389 0.003921568859369
-2.276924371719360 24.193075180053711 -0.287564843893051 0.003921568859369
-4.956503391265869 25.692653656005859 3.200875997543335 0.003921568859369
-4.706719398498535 24.809757232666016 3.089000701904297 0.003921568859369
-3.673068523406982 27.220199584960938 2.233374595642090 0.003921568859369
-4.849262714385986 26.743190765380859 0.625693738460541 0.003921568859369
-2.582798004150391 19.019729614257812 3.489229202270508 0.003921568859369
-4.639347076416016 26.060791015625000 0.609411418437958 0.003921568859369
-1.010588884353638 6.536582946777344 1.199018955230713 0.000000000000000
-4.166174411773682 26.649141311645508 3.301193237304688 0.003921568859369
-0.822760641574860 5.850644588470459 1.071484327316284 0.000000000000000
-3.760298252105713 25.121713638305664 0.585180103778839 0.003921568859369
-4.014606952667236 26.959424972534180 3.336196422576904 0.003921568859369
-3.883026123046875 27.340669631958008 0.636114835739136 0.003921568859369
-1.928519964218140 26.977811813354492 4.922042369842529 0.003921568859369
-1.553643345832825 12.006921768188477 3.233896732330322 0.000000000000000
-1.826138973236084 26.995109558105469 4.924402713775635 0.003921568859369
-4.047104835510254 25.243066787719727 0.143567129969597 0.003921568859369
-0.640732824802399 14.044508934020996 2.559445381164551 0.000000000000000
0.696835279464722 23.959363937377930 -0.283662557601929 0.003921568859369
-1.644561529159546 23.917724609375000 -0.561844527721405 0.003921568859369
-0.426491916179657 29.657772064208984 2.415159702301025 0.003921568859369
-0.250776141881943 7.981064319610596 1.454721570014954 0.000000000000000
-0.514022409915924 6.842583656311035 1.834500551223755 0.000000000000000
1.652461409568787 23.268814086914062 0.267583966255188 0.003921568859369
2.176969528198242 26.386844635009766 0.303473055362701 0.003921568859369
2.245912075042725 24.258256912231445 0.279411047697067 0.003921568859369
2.109642267227173 22.249666213989258 0.256495237350464 0.003921568859369
1.037105917930603 13.939323425292969 2.550269126892090 0.000000000000000
2.355727672576904 24.524177551269531 -0.722100257873535 0.003921568859369
3.552547693252563 22.753461837768555 -0.272401660680771 0.003921568859369
2.352247476577759 22.187963485717773 1.819875955581665 0.003921568859369
2.513933420181274 22.224754333496094 1.824414253234863 0.003921568859369
3.866705894470215 23.141830444335938 -0.277584016323090 0.003921568859369
3.708272933959961 22.247945785522461 0.259281754493713 0.003921568859369
4.445262432098389 25.854106903076172 -0.310501575469971 0.003921568859369
2.934511661529541 22.986270904541016 -0.138740196824074 0.003921568859369
3.594657659530640 27.074916839599609 -0.800645947456360 0.003921568859369
1.892786145210266 23.152456283569336 0.537152349948883 0.003921568859369
4.066811084747314 22.026563644409180 0.257540762424469 0.003921568859369
3.156712532043457 23.389373779296875 1.925329566001892 0.003921568859369
3.551480531692505 25.485343933105469 -0.754320800304413 0.003921568859369
4.814796447753906 25.384937286376953 -0.305854409933090 0.003921568859369
3.260030031204224 23.522933959960938 4.331682682037354 0.003921568859369
3.781602859497070 26.341608047485352 -0.779924750328064 0.003921568859369
4.963866710662842 25.621990203857422 -0.308749884366989 0.003921568859369
2.298455238342285 24.636350631713867 -0.580303370952606 0.003921568859369
3.287284851074219 22.080444335937500 1.821628689765930 0.003921568859369
4.352977752685547 21.467708587646484 -0.259018331766129 0.003921568859369
5.301721096038818 25.915464401245117 0.303999364376068 0.003921568859369
1.469070196151733 23.996019363403320 0.135971590876579 0.003921568859369
3.811816692352295 23.254064559936523 -0.690710246562958 0.003921568859369
1.076722264289856 10.253774642944336 2.768507242202759 0.000000000000000
3.636074781417847 21.377716064453125 -0.129667699337006 0.003921568859369
4.845203399658203 21.895084381103516 0.258049428462982 0.003921568859369
3.925683498382568 22.980148315429688 4.253726959228516 0.003921568859369
3.956357479095459 22.239450454711914 1.843684196472168 0.003921568859369
1.892610549926758 22.150655746459961 0.644246459007263 0.003921568859369
3.242506742477417 23.888313293457031 -0.565414369106293 0.003921568859369
3.597173929214478 24.523578643798828 1.441434979438782 0.003921568859369
4.377993583679199 21.918058395385742 -0.655162215232849 0.003921568859369
5.782235145568848 22.657722473144531 -0.276524454355240 0.003921568859369
5.768198966979980 28.084962844848633 -0.171660870313644 0.003921568859369
4.670016765594482 22.931592941284180 4.271075725555420 0.003921568859369
7.617311954498291 28.774763107299805 0.342160284519196 0.003921568859369
6.714112758636475 25.111322402954102 -0.307491213083267 0.003921568859369
6.389805793762207 29.008768081665039 -0.177909985184669 0.003921568859369
4.389582157135010 26.044620513916016 -0.619711756706238 0.003921568859369
2.792882680892944 23.079013824462891 0.673788666725159 0.003921568859369
4.430285930633545 23.794851303100586 2.972907066345215 0.003921568859369
4.755128860473633 25.461803436279297 -0.607605576515198 0.003921568859369
4.497082233428955 23.696735382080078 2.962684869766235 0.003921568859369
4.206925392150879 21.836387634277344 0.515159070491791 0.003921568859369
7.047187805175781 28.608835220336914 2.404634952545166 0.003921568859369
4.257577419281006 22.087039947509766 -0.527639746665955 0.003921568859369
6.527026653289795 26.174060821533203 2.202054023742676 0.003921568859369
5.378622055053711 26.671497344970703 1.582715153694153 0.003921568859369
4.991594314575195 24.823612213134766 3.110140562057495 0.003921568859369
8.601309776306152 27.753551483154297 -0.343652725219727 0.003921568859369
6.517332077026367 25.081668853759766 -0.154937133193016 0.003921568859369
5.807115077972412 27.797220230102539 0.657296776771545 0.003921568859369
5.988820552825928 22.792333602905273 -0.140813797712326 0.003921568859369
6.054763793945312 27.948688507080078 3.512123823165894 0.003921568859369
6.453661441802979 23.811218261718750 -0.723346948623657 0.003921568859369
8.563866615295410 26.323097229003906 -0.327401965856552 0.003921568859369
6.390823364257812 28.974311828613281 0.686715245246887 0.003921568859369
6.768625736236572 24.936889648437500 2.109847545623779 0.003921568859369
9.198141098022461 26.361465454101562 0.321573257446289 0.003921568859369
9.195315361022949 25.797040939331055 0.315483480691910 0.003921568859369
10.065295219421387 27.867877960205078 -0.350309550762177 0.003921568859369
6.097347259521484 24.137712478637695 3.059192895889282 0.003921568859369
6.681732177734375 21.929931640625000 1.873001933097839 0.003921568859369
8.246329307556152 26.591272354125977 -0.816191971302032 0.003921568859369
5.406181335449219 26.325613021850586 0.152451470494270 0.003921568859369
8.536761283874512 27.505708694458008 -0.172134771943092 0.003921568859369
7.755058765411377 25.044382095336914 2.141190767288208 0.003921568859369
6.490365982055664 25.282978057861328 -0.612426578998566 0.003921568859369
8.340331077575684 26.565435409545898 -0.816309809684753 0.003921568859369
5.068798065185547 24.323865890502930 0.141052573919296 0.003921568859369
7.708712577819824 21.016180038452148 0.258248567581177 0.003921568859369
5.737082004547119 22.123296737670898 -0.536241471767426 0.003921568859369
10.218656539916992 27.396224975585938 -0.345716774463654 0.003921568859369
9.701224327087402 26.035511016845703 0.320063173770905 0.003921568859369
5.040596008300781 23.791847229003906 0.705499172210693 0.003921568859369
6.347670078277588 24.062793731689453 3.058215141296387 0.003921568859369
7.455782890319824 23.531337738037109 4.507879734039307 0.003921568859369
10.516261100769043 27.876974105834961 0.343259751796722 0.003921568859369
6.335052013397217 23.673505783081055 3.011659860610962 0.003921568859369
10.043585777282715 26.357196807861328 -0.333260327577591 0.003921568859369
10.126147270202637 26.569839477539062 0.327678412199020 0.003921568859369
6.582430839538574 24.224348068237305 -0.588799715042114 0.003921568859369
9.811782836914062 25.236536026000977 -0.319921255111694 0.003921568859369
6.200458526611328 26.783895492553711 0.156123876571655 0.003921568859369
7.272331237792969 25.652767181396484 3.276445150375366 0.003921568859369
9.466915130615234 26.532903671264648 -0.168193787336349 0.003921568859369
8.244616508483887 27.248722076416016 -0.667873561382294 0.003921568859369
10.242815971374512 24.566911697387695 0.306920826435089 0.003921568859369
8.309750556945801 27.106945037841797 1.650294423103333 0.003921568859369
2.527981042861938 6.335650444030762 -0.643701255321503 0.000000000000000
10.296512603759766 24.443964004516602 0.305867344141006 0.003921568859369
7.681372642517090 24.784431457519531 1.510736465454102 0.003921568859369
8.620841979980469 23.417926788330078 -0.731410205364227 0.003921568859369
11.219208717346191 26.345357894897461 -0.338172554969788 0.003921568859369
9.802357673645020 26.561426162719727 -0.168837204575539 0.003921568859369
10.372619628906250 24.388929367065430 0.305765509605408 0.003921568859369
10.149745941162109 27.182722091674805 -0.173052400350571 0.003921568859369
9.240732192993164 24.532678604125977 -0.156290918588638 0.003921568859369
10.019163131713867 26.015459060668945 -0.166253492236137 0.003921568859369
9.813819885253906 25.232217788696289 -0.161440774798393 0.003921568859369
8.563296318054199 25.672401428222656 7.262913227081299 0.003921568859369
10.946033477783203 24.093065261840820 0.305354803800583 0.003921568859369
7.904337882995605 23.231964111328125 1.429292082786560 0.003921568859369
8.799278259277344 25.501970291137695 0.625448822975159 0.003921568859369
12.438367843627930 26.830686569213867 0.341039866209030 0.003921568859369
11.000629425048828 26.601100921630859 -0.171715110540390 0.003921568859369
9.030271530151367 25.308834075927734 0.623044788837433 0.003921568859369
8.200538635253906 23.029035568237305 1.423955678939819 0.003921568859369
9.579980850219727 26.819253921508789 -0.668060719966888 0.003921568859369
9.330924987792969 25.567760467529297 -0.638250827789307 0.003921568859369
9.285198211669922 25.175251007080078 0.622301220893860 0.003921568859369
10.191829681396484 23.499162673950195 2.093310594558716 0.003921568859369
9.732029914855957 25.286508560180664 0.628394901752472 0.003921568859369
9.739233970642090 25.304935455322266 -0.635913610458374 0.003921568859369
10.486360549926758 23.508352279663086 -0.153328210115433 0.003921568859369
9.851128578186035 25.329868316650391 0.630334198474884 0.003921568859369
11.294084548950195 24.612771987915039 -0.793748080730438 0.003921568859369
9.303177833557129 26.937858581542969 0.162222295999527 0.003921568859369
10.945768356323242 23.865077972412109 -0.156412586569786 0.003921568859369
11.552370071411133 25.167203903198242 2.262855052947998 0.003921568859369
9.387763023376465 26.878242492675781 0.162062615156174 0.003921568859369
10.196099281311035 24.900068283081055 0.624225974082947 0.003921568859369
9.959034919738770 24.330202102661133 1.531413197517395 0.003921568859369
10.344914436340332 25.011224746704102 0.627922117710114 0.003921568859369
9.718517303466797 26.586742401123047 0.161328077316284 0.003921568859369
10.319294929504395 24.470422744750977 0.616181373596191 0.003921568859369
10.511013031005859 24.679594039916992 0.622373223304749 0.003921568859369
11.509369850158691 26.987873077392578 3.606554031372070 0.003921568859369
10.883864402770996 25.298965454101562 1.604235529899597 0.003921568859369
10.951231002807617 25.224822998046875 0.637992084026337 0.003921568859369
4.003960609436035 8.328839302062988 -0.760848402976990 0.000000000000000
7.900606632232666 21.029766082763672 0.652848005294800 0.003921568859369
9.514791488647461 24.978439331054688 0.152406454086304 0.003921568859369
9.129233360290527 20.891565322875977 2.804694652557373 0.003921568859369
12.549479484558105 25.189798355102539 5.140771389007568 0.003921568859369
12.282317161560059 24.447853088378906 2.236070394515991 0.003921568859369
12.592703819274902 25.057592391967773 5.122849941253662 0.003921568859369
9.859569549560547 25.341747283935547 0.155028223991394 0.003921568859369
13.326792716979980 25.838083267211914 2.375750064849854 0.003921568859369
10.998999595642090 23.941284179687500 1.535049080848694 0.003921568859369
11.333867073059082 24.660186767578125 -0.636230051517487 0.003921568859369
12.387236595153809 26.677658081054688 1.713201403617859 0.003921568859369
13.321929931640625 25.155374526977539 2.326227426528931 0.003921568859369
10.096912384033203 24.423730850219727 0.150872230529785 0.003921568859369
10.263811111450195 24.122261047363281 0.149666652083397 0.003921568859369
11.485433578491211 20.683399200439453 1.934755921363831 0.003921568859369
11.668758392333984 23.447401046752930 3.221113443374634 0.003921568859369
12.173473358154297 21.737083435058594 2.037090539932251 0.003921568859369
14.154123306274414 24.599943161010742 2.319575548171997 0.003921568859369
13.682650566101074 26.497165679931641 0.692068994045258 0.003921568859369
13.464941024780273 23.236560821533203 4.906677246093750 0.003921568859369
10.997871398925781 23.941705703735352 0.150571808218956 0.003921568859369
9.736042976379395 21.028638839721680 0.673705339431763 0.003921568859369
12.995731353759766 21.725265502929688 4.626355648040771 0.003921568859369
13.938389778137207 23.101295471191406 -0.160273492336273 0.003921568859369
14.247393608093262 21.203224182128906 0.295511305332184 0.003921568859369
13.922307968139648 22.894699096679688 2.190585613250732 0.003921568859369
9.865035057067871 18.232082366943359 5.570735454559326 0.003921568859369
13.668032646179199 24.972740173339844 3.500761747360229 0.003921568859369
14.018148422241211 20.258649826049805 0.285068780183792 0.003921568859369
13.716033935546875 24.641559600830078 1.643306612968445 0.003921568859369
15.063268661499023 23.805246353149414 -0.167143791913986 0.003921568859369
13.035676956176758 22.853019714355469 0.611026763916016 0.003921568859369
14.178657531738281 24.836080551147461 7.677669525146484 0.003921568859369
14.337053298950195 22.322710037231445 2.169001579284668 0.003921568859369
14.460679054260254 22.342144012451172 2.175825595855713 0.003921568859369
13.802511215209961 21.180957794189453 -0.149983748793602 0.003921568859369
13.803109169006348 21.013763427734375 2.055922985076904 0.003921568859369
13.931724548339844 21.207674026489258 4.637285232543945 0.003921568859369
12.929344177246094 21.798076629638672 3.117718458175659 0.003921568859369
13.602214813232422 22.385734558105469 0.608433663845062 0.003921568859369
16.370388031005859 24.163469314575195 2.385739803314209 0.003921568859369
13.626833915710449 22.242557525634766 3.208779811859131 0.003921568859369
13.574499130249023 21.994642257690430 3.179562091827393 0.003921568859369
14.689244270324707 23.585079193115234 0.645365178585052 0.003921568859369
14.309965133666992 22.981319427490234 7.269120216369629 0.003921568859369
16.558729171752930 23.360548019409180 5.231140613555908 0.003921568859369
14.973604202270508 23.308803558349609 0.643514215946198 0.003921568859369
14.732496261596680 20.650930404663086 4.636031150817871 0.003921568859369
15.074556350708008 23.286085128784180 0.644347548484802 0.003921568859369
15.659467697143555 21.627071380615234 -0.158227041363716 0.003921568859369
15.404026031494141 21.277189254760742 4.800225734710693 0.003921568859369
15.218417167663574 20.861915588378906 4.719205379486084 0.003921568859369
15.796898841857910 23.843351364135742 1.666909337043762 0.003921568859369
13.762519836425781 20.797159194946289 3.068220138549805 0.003921568859369
15.735033988952637 21.105470657348633 4.810984134674072 0.003921568859369
14.281810760498047 20.930875778198242 3.117095232009888 0.003921568859369
15.270440101623535 20.180706024169922 4.624739646911621 0.003921568859369
16.832881927490234 22.069509506225586 2.269163131713867 0.003921568859369
16.942422866821289 21.894039154052734 2.263314723968506 0.003921568859369
17.988546371459961 23.070020675659180 2.391371011734009 0.003921568859369
14.835823059082031 23.269039154052734 0.158229023218155 0.003921568859369
14.638173103332520 20.515142440795898 3.100539445877075 0.003921568859369
17.068948745727539 21.586313247680664 2.249993085861206 0.003921568859369
17.957996368408203 22.237239837646484 2.336775064468384 0.003921568859369
16.859233856201172 22.594404220581055 3.466990709304810 0.003921568859369
18.866014480590820 22.850467681884766 2.422142744064331 0.003921568859369
17.974891662597656 23.897071838378906 0.694774091243744 0.003921568859369
19.026899337768555 22.559303283691406 2.412395954132080 0.003921568859369
17.041578292846680 21.875837326049805 1.616490364074707 0.003921568859369
19.289495468139648 22.397230148315430 2.416301012039185 0.003921568859369
17.112890243530273 21.809566497802734 1.616027116775513 0.003921568859369
16.976676940917969 21.637096405029297 3.382735013961792 0.003921568859369
17.756603240966797 22.624885559082031 7.721758365631104 0.003921568859369
19.305757522583008 22.086750030517578 2.398101806640625 0.003921568859369
17.137298583984375 21.514381408691406 3.383224248886108 0.003921568859369
4.149373531341553 4.776411533355713 0.260570079088211 0.000000000000000
16.763374328613281 20.898004531860352 3.295553445816040 0.003921568859369
16.756332397460938 20.755542755126953 3.281429529190063 0.003921568859369
16.765687942504883 20.601545333862305 3.267001867294312 0.003921568859369
19.346103668212891 21.374145507812500 2.356704711914062 0.003921568859369
19.189352035522461 20.465229034423828 2.293647050857544 0.003921568859369
19.808891296386719 21.122631072998047 5.289881706237793 0.003921568859369
20.215944290161133 20.967544555664062 2.381103038787842 0.003921568859369
19.451986312866211 20.179149627685547 5.120651721954346 0.003921568859369
19.157814025878906 21.777843475341797 1.690771222114563 0.003921568859369
19.598484039306641 20.195894241333008 5.141449451446533 0.003921568859369
20.464138031005859 20.637586593627930 2.375785589218140 0.003921568859369
20.516294479370117 20.546001434326172 2.373511791229248 0.003921568859369
19.967252731323242 21.900932312011719 1.727439761161804 0.003921568859369
20.050491333007812 21.838270187377930 0.689208447933197 0.003921568859369
3.347391843795776 3.356661319732666 -0.960933327674866 0.000000000000000
3.353208780288696 3.316858291625977 -0.956223964691162 0.000000000000000
3.348333835601807 3.287949800491333 -0.951514780521393 0.000000000000000
3.337034225463867 3.254321575164795 -0.945236027240753 0.000000000000000
3.342100143432617 3.237556219100952 -0.943666100502014 0.000000000000000
3.353822231292725 3.217540979385376 -0.941316902637482 0.000000000000000
3.350672245025635 3.192174673080444 -0.937392771244049 0.000000000000000
3.361794471740723 3.180173873901367 -0.937392413616180 0.000000000000000
3.367094755172729 3.162832498550415 -0.935822606086731 0.000000000000000
20.703056335449219 21.022260665893555 3.627912759780884 0.003921568859369
3.372313976287842 3.145493984222412 -0.934252738952637 0.000000000000000
3.377454757690430 3.128156185150146 -0.932682812213898 0.000000000000000
3.370841979980469 3.100341796875000 -0.927973926067352 0.000000000000000
3.378716707229614 3.085660219192505 -0.927188813686371 0.000000000000000
3.386531352996826 3.070962667465210 -0.926403701305389 0.000000000000000
3.397229194641113 3.058838844299316 -0.926403343677521 0.000000000000000
3.395006418228149 3.037572622299194 -0.923263967037201 0.000000000000000
3.381888389587402 3.004854440689087 -0.916985511779785 0.000000000000000
3.413261175155640 3.003018617630005 -0.920130968093872 0.000000000000000
3.414779901504517 2.983184099197388 -0.917776465415955 0.000000000000000
3.416203737258911 2.963376283645630 -0.915421903133392 0.000000000000000
3.426525831222534 2.951181173324585 -0.915421605110168 0.000000000000000
3.409744024276733 2.916284084320068 -0.908358693122864 0.000000000000000
3.431966304779053 2.914142131805420 -0.911497294902802 0.000000000000000
3.439092397689819 2.899394989013672 -0.910712122917175 0.000000000000000
3.455259323120117 2.892092227935791 -0.912281274795532 0.000000000000000
3.456205368041992 2.872334957122803 -0.909926772117615 0.000000000000000
3.460109710693359 2.855068445205688 -0.908356964588165 0.000000000000000
