# This PCD file was generated using the MATLAB® pcwrite function
# from Computer Vision Toolbox®.
# .PCD v.7 - Point Cloud Data file format
VERSION .7
FIELDS x y z intensity
SIZE 8 8 8 8
TYPE F F F F
COUNT 1 1 1 1
WIDTH 639
HEIGHT 1
VIEWPOINT 0 0 0 1 0 0 0
POINTS 639
DATA ascii
-15.848209381103516 -5.925392627716064 4.368511199951172 0.003921568859369
-15.919234275817871 -5.891915798187256 4.383053302764893 0.003921568859369
-18.425655364990234 -5.880652904510498 3.414890766143799 0.003921568859369
-16.531801223754883 -5.128580093383789 0.297377347946167 0.003921568859369
-11.459645271301270 -4.648567199707031 0.073167018592358 0.000000000000000
-10.996938705444336 -3.863640785217285 0.646661043167114 0.000000000000000
-9.275189399719238 -3.219453573226929 1.131569266319275 0.000000000000000
-10.832373619079590 -4.169579505920410 0.068784117698669 0.000000000000000
-12.614568710327148 -4.901632785797119 0.380630999803543 0.000000000000000
-6.661140918731689 -1.465351104736328 0.076771467924118 0.000000000000000
-11.006982803344727 -3.069852352142334 0.444817095994949 0.000000000000000
-14.900932312011719 -4.941139698028564 4.041491031646729 0.000000000000000
-12.901668548583984 -3.540991544723511 2.327125072479248 0.000000000000000
-10.604277610778809 -2.837476968765259 0.426408618688583 0.000000000000000
-16.159805297851562 -5.255565166473389 2.014184236526489 0.003921568859369
-15.125845909118652 -4.129021167755127 1.233544707298279 0.000000000000000
-8.385583877563477 -2.499729871749878 0.477118432521820 0.000000000000000
-17.784660339355469 -4.635400295257568 3.239486455917358 0.003921568859369
-5.294186115264893 -1.732688903808594 0.147926911711693 0.000000000000000
-17.199502944946289 -5.287689208984375 1.017093300819397 0.000000000000000
-8.369068145751953 -1.600311994552612 -0.085922323167324 0.000000000000000
-16.172313690185547 -4.022178649902344 2.926436424255371 0.003921568859369
-10.260128974914551 -2.385102033615112 0.812836408615112 0.000000000000000
-11.518356323242188 -3.227182149887085 1.395939588546753 0.000000000000000
-24.650045394897461 -5.783379077911377 4.507502079010010 0.003921568859369
-10.436917304992676 -2.757208824157715 0.241801202297211 0.000000000000000
-3.948162555694580 -0.720595896244049 0.141328811645508 0.000000000000000
-26.438089370727539 -5.644154071807861 2.163550615310669 0.003921568859369
-11.481511116027832 -2.813031435012817 0.266045242547989 0.000000000000000
-10.668809890747070 -3.093187808990479 0.310306131839752 0.000000000000000
-25.342411041259766 -6.324681282043457 6.837328433990479 0.003921568859369
-5.944544315338135 -1.337246298789978 0.674469053745270 0.000000000000000
-24.304241180419922 -5.880744457244873 3.000674486160278 0.003921568859369
-24.629247665405273 -5.872756958007812 3.039305925369263 0.003921568859369
-10.676274299621582 -2.944618225097656 0.066111274063587 0.000000000000000
-16.844669342041016 -4.756364822387695 0.497588425874710 0.003921568859369
-6.101163387298584 -1.316837787628174 1.505893945693970 0.000000000000000
-7.967689037322998 -2.120232343673706 0.226486742496490 0.000000000000000
-25.440477371215820 -5.614795684814453 3.129444360733032 0.003921568859369
-26.215549468994141 -5.696598052978516 3.224730491638184 0.003921568859369
-9.254953384399414 -1.020457267761230 -0.094766974449158 0.000000000000000
-5.289702415466309 -0.768432617187500 -0.132254585623741 0.000000000000000
-26.930500030517578 -5.675384521484375 3.311046838760376 0.003921568859369
-6.950058937072754 -1.641110658645630 0.194326430559158 0.000000000000000
-9.207190513610840 -0.897938072681427 -0.094218321144581 0.000000000000000
-28.412141799926758 -5.590647220611572 3.487589836120605 0.003921568859369
-28.876445770263672 -5.576519489288330 3.543331384658813 0.003921568859369
-25.332103729248047 -4.878976345062256 6.752026081085205 0.003921568859369
-7.751247406005859 -1.047511577606201 1.314788818359375 0.000000000000000
-8.667610168457031 -1.556714177131653 1.008646488189697 0.000000000000000
-10.137042999267578 -1.737881898880005 0.005822414532304 0.003921568859369
-7.667729377746582 -0.934521257877350 0.129065394401550 0.000000000000000
-15.738005638122559 -2.008152246475220 2.783522605895996 0.000000000000000
-20.089286804199219 -4.485398292541504 -0.340601325035095 0.003921568859369
-14.050136566162109 -2.412546157836914 3.656137466430664 0.000000000000000
-10.229725837707520 -1.175601124763489 -0.050103887915611 0.000000000000000
-8.344947814941406 -0.865390539169312 1.419748306274414 0.000000000000000
-7.051153182983398 -1.340172767639160 0.042976584285498 0.000000000000000
-14.083250045776367 -1.459676742553711 0.558213591575623 0.000000000000000
-6.212692260742188 -1.165037751197815 -0.227317467331886 0.000000000000000
-9.340843200683594 -1.784838438034058 0.263972014188766 0.000000000000000
-11.241780281066895 -1.112124085426331 0.192552387714386 0.000000000000000
-14.608604431152344 -1.466050505638123 2.568760871887207 0.000000000000000
-12.838799476623535 -1.197412610054016 -0.064324393868446 0.000000000000000
-6.896251201629639 -0.549169659614563 0.261263281106949 0.000000000000000
-14.429481506347656 -1.157078862190247 0.571366429328918 0.000000000000000
-16.775949478149414 -2.152573585510254 2.006857633590698 0.003921568859369
-10.004699707031250 -0.754176259040833 0.170297384262085 0.000000000000000
-7.480896949768066 -0.842829942703247 0.005229791626334 0.000000000000000
-11.007632255554199 -0.763733029365540 0.430435091257095 0.000000000000000
-8.633969306945801 -0.590139865875244 1.469398617744446 0.000000000000000
-7.972591400146484 -0.515761971473694 1.347970247268677 0.000000000000000
-9.078222274780273 -0.562465965747833 -0.240545868873596 0.000000000000000
-10.442578315734863 -0.653132259845734 -0.050861097872257 0.000000000000000
-4.738581180572510 -0.477804720401764 1.113317728042603 0.000000000000000
-7.469453811645508 -0.768794417381287 0.005267440341413 0.000000000000000
-12.592519760131836 -0.753882467746735 -0.062721222639084 0.000000000000000
-4.987936496734619 -0.707547426223755 -0.175436481833458 0.000000000000000
-8.081995964050293 -0.392021149396896 -0.037701621651649 0.000000000000000
-9.050515174865723 -0.857154786586761 0.498754382133484 0.000000000000000
-12.625975608825684 -1.180105447769165 0.708811640739441 0.000000000000000
-12.039856910705566 -0.519231498241425 -0.325544297695160 0.000000000000000
-16.497488021850586 -0.721791684627533 0.285531520843506 0.000000000000000
-7.271881103515625 -0.303289532661438 0.276410788297653 0.000000000000000
-11.816881179809570 -0.472657352685928 0.921066880226135 0.000000000000000
-5.960840225219727 -0.488592445850372 1.439823508262634 0.000000000000000
-7.980960845947266 -0.646916508674622 0.177361398935318 0.000000000000000
-13.418796539306641 -1.123143911361694 -0.292113453149796 0.000000000000000
-9.845355987548828 -1.170217037200928 0.059755831956863 0.000000000000000
-11.202636718750000 0.216858625411987 -0.362760037183762 0.000000000000000
-14.185283660888672 -0.386275500059128 2.482084751129150 0.000000000000000
-10.207160949707031 -0.674179911613464 1.186274647712708 0.000000000000000
-8.896413803100586 -0.177087485790253 1.515516757965088 0.000000000000000
-7.257200717926025 -0.466731667518616 -0.149570152163506 0.000000000000000
-11.097795486450195 -0.040796160697937 1.917358636856079 0.000000000000000
-9.310359954833984 -0.428109079599380 0.208424285054207 0.000000000000000
-16.933208465576172 -0.745847523212433 0.959614872932434 0.000000000000000
-11.052390098571777 -0.478122115135193 1.289860010147095 0.000000000000000
-15.048395156860352 -0.614473462104797 0.849107146263123 0.000000000000000
-8.126840591430664 0.125984802842140 -0.388228267431259 0.000000000000000
-4.418297290802002 0.076475724577904 0.699107229709625 0.000000000000000
-9.396983146667480 -0.219382926821709 0.210491508245468 0.000000000000000
-11.565649032592773 -0.199091315269470 1.352077245712280 0.000000000000000
-28.981298446655273 1.074215173721313 -0.152337938547134 0.003921568859369
-9.870001792907715 0.349344700574875 0.168161392211914 0.000000000000000
-10.687070846557617 0.982308804988861 -0.347025930881500 0.000000000000000
-7.400585174560547 -0.006063824519515 1.827445149421692 0.000000000000000
-22.374839782714844 1.123707175254822 1.790333986282349 0.003921568859369
-12.562486648559570 0.661056220531464 -0.062382906675339 0.000000000000000
-7.611779212951660 0.755080938339233 0.087914243340492 0.000000000000000
-8.683297157287598 0.105173602700233 0.998302698135376 0.000000000000000
-6.796018600463867 -0.222087457776070 -0.247482627630234 0.000000000000000
-4.247043132781982 -0.119383469223976 0.025563383474946 0.000000000000000
-6.912560462951660 -0.205279931426048 -0.252161175012589 0.000000000000000
-8.931846618652344 0.573653221130371 0.151880994439125 0.000000000000000
-15.387519836425781 0.349203854799271 0.869307875633240 0.000000000000000
-17.747329711914062 1.244184494018555 3.143742799758911 0.003921568859369
-6.938729763031006 0.794556081295013 0.080005183815956 0.000000000000000
-9.071076393127441 0.644199967384338 0.154472589492798 0.000000000000000
-6.931944847106934 0.816161751747131 0.079967953264713 0.000000000000000
-18.370407104492188 -0.324187785387039 0.525682806968689 0.003921568859369
-7.430087566375732 0.208089590072632 0.403383523225784 0.000000000000000
-10.973190307617188 0.825335085391998 0.856302917003632 0.000000000000000
-14.992486953735352 1.145078063011169 2.640638589859009 0.000000000000000
-12.636085510253906 0.450492978096008 0.287454247474670 0.000000000000000
-10.332372665405273 0.363840073347092 0.573956727981567 0.000000000000000
-8.133512496948242 0.309241026639938 0.005627250298858 0.000000000000000
-17.954584121704102 1.566084384918213 0.719356477260590 0.003921568859369
-12.623157501220703 1.083858132362366 2.209965467453003 0.000000000000000
-8.977273941040039 0.371783822774887 0.201219260692596 0.000000000000000
-6.208725929260254 0.248392298817635 0.332481920719147 0.000000000000000
-11.351528167724609 1.043877363204956 0.195625141263008 0.000000000000000
-20.047649383544922 2.854495286941528 -0.676323115825653 0.003921568859369
-13.378353118896484 0.031761817634106 0.379118025302887 0.000000000000000
-8.960779190063477 1.256778478622437 -0.289176881313324 0.000000000000000
-7.882663249969482 0.784122765064240 -0.207608878612518 0.000000000000000
-10.510932922363281 0.579065501689911 0.006449163891375 0.003921568859369
-16.354661941528320 1.749913215637207 -0.083446577191353 0.000000000000000
-14.548696517944336 2.244384050369263 -0.814783155918121 0.000000000000000
-19.900732040405273 2.143516540527344 0.801464378833771 0.003921568859369
-10.521493911743164 1.134966015815735 0.181192278862000 0.000000000000000
-16.203994750976562 1.015849471092224 0.919464647769928 0.000000000000000
-14.667047500610352 0.278370529413223 0.417200088500977 0.000000000000000
-19.421869277954102 2.223721504211426 0.340822875499725 0.003921568859369
-10.179618835449219 1.165400981903076 0.175245672464371 0.000000000000000
-19.042562484741211 2.376492738723755 -0.532087922096252 0.000000000000000
-7.065020561218262 0.195210561156273 0.193897798657417 0.000000000000000
-22.475204467773438 2.892543077468872 -0.631878614425659 0.003921568859369
-7.140255928039551 0.219263017177582 0.196141630411148 0.000000000000000
-7.126998901367188 1.191313028335571 -0.226614624261856 0.000000000000000
-21.941982269287109 2.897952795028687 -0.616663992404938 0.003921568859369
-10.142370223999023 1.775277614593506 0.120004504919052 0.000000000000000
-18.557199478149414 1.548322916030884 1.059715270996094 0.000000000000000
-18.784132003784180 2.467458963394165 3.358727931976318 0.003921568859369
-21.293653488159180 2.887281417846680 -0.598114907741547 0.003921568859369
-8.208303451538086 0.309969902038574 0.049889776855707 0.000000000000000
-6.623903274536133 0.840726196765900 0.503311276435852 0.000000000000000
-20.723556518554688 2.805764436721802 3.718173742294312 0.003921568859369
-10.140000343322754 0.422431796789169 -0.160859003663063 0.000000000000000
-20.954925537109375 2.912564277648926 -0.588538110256195 0.003921568859369
-12.155193328857422 1.653532743453979 0.211357295513153 0.000000000000000
-13.047711372375488 1.780224204063416 2.303536653518677 0.000000000000000
-15.323882102966309 0.701425015926361 -0.249893546104431 0.000000000000000
-19.797863006591797 2.812104701995850 -0.555164575576782 0.000000000000000
-20.609857559204102 3.006024122238159 -0.579045057296753 0.003921568859369
-13.057600975036621 2.500224590301514 -0.140141353011131 0.000000000000000
-7.217628479003906 0.664460599422455 1.792323589324951 0.000000000000000
-20.618997573852539 3.078951120376587 -0.579587757587433 0.003921568859369
-12.212331771850586 1.786172986030579 0.212766230106354 0.000000000000000
-7.922497749328613 1.126942396163940 -0.383305519819260 0.000000000000000
-20.573675155639648 3.136297225952148 -0.578524231910706 0.003921568859369
-13.514439582824707 2.027948141098022 0.236356005072594 0.000000000000000
-20.538911819458008 3.202261209487915 -0.577802538871765 0.003921568859369
-20.527608871459961 3.271896600723267 -0.577770650386810 0.003921568859369
-8.838004112243652 1.771118879318237 0.104739986360073 0.000000000000000
-18.705627441406250 2.069133996963501 1.071646213531494 0.000000000000000
-20.547023773193359 3.350271940231323 -0.578656733036041 0.003921568859369
-9.687259674072266 1.526876091957092 -0.047100175172091 0.000000000000000
-22.909439086914062 2.632405996322632 1.320070147514343 0.003921568859369
-8.607665061950684 1.345456600189209 0.337684869766235 0.000000000000000
-20.495201110839844 3.410895109176636 -0.577982544898987 0.003921568859369
-20.483171463012695 3.480408668518066 -0.577951550483704 0.003921568859369
-13.432848930358887 0.969659328460693 0.082089640200138 0.000000000000000
-20.348257064819336 3.531559944152832 -0.574355244636536 0.003921568859369
-13.797082901000977 1.699144721031189 0.317832469940186 0.000000000000000
-7.857153415679932 0.935060143470764 0.433301657438278 0.000000000000000
-22.017875671386719 2.757156848907471 -0.996805667877197 0.003921568859369
-10.649941444396973 0.830366313457489 -0.170152351260185 0.000000000000000
-20.580320358276367 3.641526460647583 -0.581453621387482 0.003921568859369
-8.431582450866699 0.647033214569092 0.235109135508537 0.000000000000000
-4.038853645324707 0.284592449665070 -0.218538194894791 0.000000000000000
-20.364648818969727 2.611216306686401 -0.920077979564667 0.000000000000000
-20.445619583129883 3.688704967498779 -0.577859222888947 0.003921568859369
-9.683854103088379 1.233211278915405 0.220193907618523 0.000000000000000
-20.197031021118164 2.658806800842285 -0.912654459476471 0.000000000000000
-10.584753990173340 1.857608437538147 -0.526803493499756 0.000000000000000
-7.545288085937500 1.292400121688843 1.298614144325256 0.000000000000000
-20.554405212402344 3.781104326248169 -0.581391930580139 0.003921568859369
-19.178443908691406 2.585986614227295 1.103414416313171 0.000000000000000
-20.278650283813477 2.739952802658081 -0.916873514652252 0.000000000000000
-14.445056915283203 1.926326036453247 3.760756969451904 0.000000000000000
-21.427347183227539 2.899547100067139 -0.479695707559586 0.003921568859369
-20.103309631347656 2.781604528427124 -0.909082770347595 0.000000000000000
-21.037549972534180 2.914525985717773 -0.470859527587891 0.003921568859369
-15.157778739929199 2.128078460693359 0.866534709930420 0.000000000000000
-19.808805465698242 2.808174848556519 -0.895747542381287 0.000000000000000
-19.761018753051758 2.800989866256714 -0.441479980945587 0.000000000000000
-20.588886260986328 4.001544952392578 -0.583485186100006 0.003921568859369
-11.895699501037598 2.262629747390747 0.208904102444649 0.000000000000000
-8.933015823364258 1.670053720474243 0.353594601154327 0.000000000000000
-21.102956771850586 3.070439338684082 -0.956693530082703 0.003921568859369
-20.894092559814453 3.038968324661255 -0.467952102422714 0.003921568859369
-20.699451446533203 4.100434303283691 -0.587130546569824 0.003921568859369
-21.091558456420898 3.145666360855103 -0.956659555435181 0.003921568859369
-20.874906539916992 3.112217903137207 -0.467735141515732 0.003921568859369
-20.486068725585938 4.125764846801758 -0.581240773200989 0.003921568859369
-21.057323455810547 3.209974527359009 -0.955520391464233 0.003921568859369
-20.817062377929688 3.172089815139771 -0.466604501008987 0.003921568859369
-20.545873641967773 4.210924148559570 -0.583393752574921 0.003921568859369
-21.077552795410156 3.286517381668091 -0.956966340541840 0.003921568859369
-8.243375778198242 1.615371227264404 1.435279965400696 0.000000000000000
-20.786121368408203 3.239567518234253 -0.466114401817322 0.003921568859369
-20.717443466186523 4.322387218475342 -0.589396953582764 0.003921568859369
-6.679185867309570 1.626461029052734 -0.068124480545521 0.000000000000000
-4.659364223480225 0.876963376998901 -0.019680095836520 0.000000000000000
-8.752961158752441 1.755151152610779 0.152317494153976 0.000000000000000
-20.997720718383789 3.348196268081665 -0.954443097114563 0.003921568859369
-20.809011459350586 3.317050218582153 -0.467369019985199 0.003921568859369
-5.576360225677490 1.092984318733215 -0.144292578101158 0.000000000000000
-21.012891769409180 3.427695035934448 -0.955703794956207 0.003921568859369
-20.721778869628906 3.378665924072266 -0.465593874454498 0.003921568859369
-21.048671722412109 3.503572702407837 -0.957891643047333 0.003921568859369
-20.698631286621094 3.443468332290649 -0.465289592742920 0.003921568859369
-13.636110305786133 2.946414709091187 -0.069913968443871 0.000000000000000
-20.725879669189453 3.520605325698853 -0.466176003217697 0.003921568859369
-10.460556983947754 1.762777924537659 0.006579463370144 0.003921568859369
-8.490893363952637 1.411180019378662 0.994507789611816 0.000000000000000
-22.082565307617188 2.758774280548096 -0.873786270618439 0.003921568859369
-20.685905456542969 3.586046218872070 -0.465503513813019 0.003921568859369
-9.861954689025879 2.165177822113037 0.173254221677780 0.000000000000000
-21.327379226684570 2.739286422729492 -0.843378186225891 0.003921568859369
-20.660818099975586 3.657621383666992 -0.465196460485458 0.003921568859369
-10.731463432312012 1.374541044235229 0.305048048496246 0.000000000000000
-20.262317657470703 3.651876688003540 1.176744937896729 0.003921568859369
-21.021135330200195 2.767903566360474 -0.831231117248535 0.003921568859369
-20.707551956176758 3.735178947448730 -0.466542929410934 0.003921568859369
-13.783308029174805 2.497947454452515 0.791269838809967 0.000000000000000
-20.512544631958008 2.769995450973511 -0.810844540596008 0.003921568859369
-20.702247619628906 3.806959867477417 -0.466695964336395 0.003921568859369
-12.672903060913086 2.950045347213745 -0.354981452226639 0.000000000000000
-20.967544555664062 3.927461385726929 -0.957522869110107 0.003921568859369
-11.684694290161133 2.708623170852661 0.941738784313202 0.000000000000000
-20.170869827270508 2.788821458816528 -0.797245919704437 0.003921568859369
-20.736627578735352 3.882786989212036 -0.467767298221588 0.003921568859369
-11.209709167480469 2.086730957031250 0.006927974056453 0.003921568859369
-7.121241569519043 1.284329175949097 0.825914442539215 0.000000000000000
-20.180784225463867 2.860131740570068 -0.798023164272308 0.003921568859369
-20.770036697387695 3.962419986724854 -0.468837052583694 0.003921568859369
-7.240655899047852 1.332323789596558 0.005543597973883 0.000000000000000
-20.724706649780273 4.026653289794922 -0.468073487281799 0.003921568859369
-20.756832122802734 4.110091686248779 -0.469141751527786 0.003921568859369
-8.074959754943848 1.942859530448914 0.141489312052727 0.000000000000000
-21.127828598022461 3.219799280166626 -0.838590800762177 0.003921568859369
-20.769268035888672 4.184164047241211 -0.470224618911743 0.003921568859369
-18.926778793334961 5.790264606475830 0.234664008021355 0.003921568859369
-21.128301620483398 3.293482065200806 -0.839044630527496 0.003921568859369
-20.817148208618164 4.267885208129883 -0.471662372350693 0.003921568859369
-19.961410522460938 4.158565998077393 -0.914579689502716 0.000000000000000
-21.195560455322266 3.378196001052856 -0.842244803905487 0.003921568859369
-20.806030273437500 4.339428901672363 -0.471724599599838 0.003921568859369
-4.510058879852295 1.065385222434998 -0.019180722534657 0.000000000000000
-21.305370330810547 4.522490978240967 -0.978847622871399 0.003921568859369
-15.634175300598145 4.065421104431152 2.856446504592896 0.000000000000000
-14.449385643005371 2.375463724136353 0.089624620974064 0.000000000000000
-21.093612670898438 4.555233478546143 -0.969578504562378 0.003921568859369
-9.497050285339355 1.981677651405334 1.130899786949158 0.000000000000000
-15.005303382873535 4.008081436157227 -0.078552134335041 0.000000000000000
-3.726119518280029 0.552274048328400 0.097861655056477 0.000000000000000
-3.457395792007446 0.803675651550293 0.056808184832335 0.000000000000000
-20.044654846191406 4.393940925598145 -0.920590817928314 0.003921568859369
-10.392384529113770 1.750680446624756 -0.633940517902374 0.000000000000000
-20.010501861572266 4.454081535339355 -0.919640481472015 0.000000000000000
-7.548593521118164 1.599969029426575 -0.161308497190475 0.000000000000000
-5.378674030303955 1.120719552040100 0.004865857772529 0.000000000000000
-8.217397689819336 1.781041264533997 0.464013934135437 0.000000000000000
-20.127149581909180 4.552759647369385 -0.925893545150757 0.003921568859369
-22.293478012084961 3.948701620101929 -0.889739990234375 0.003921568859369
-11.270377159118652 2.491698265075684 -0.249020203948021 0.000000000000000
-20.138355255126953 4.627478122711182 -0.927158594131470 0.003921568859369
-10.709702491760254 2.928684473037720 0.869822680950165 0.000000000000000
-22.189170837402344 4.007800102233887 -0.885993003845215 0.003921568859369
-6.353191375732422 1.368162751197815 1.601619362831116 0.000000000000000
-6.864292621612549 1.512894272804260 0.005417584441602 0.000000000000000
-20.211441040039062 4.717259883880615 -0.931379139423370 0.003921568859369
-21.267848968505859 3.911884784698486 -0.848652541637421 0.003921568859369
-12.011203765869141 2.790145397186279 1.455098986625671 0.000000000000000
-21.064945220947266 4.014605522155762 -0.841327190399170 0.003921568859369
-9.520533561706543 2.248968601226807 0.006269654259086 0.003921568859369
-5.519488811492920 1.507451295852661 -0.267376810312271 0.000000000000000
-20.979013442993164 4.073494434356689 -0.839001119136810 0.003921568859369
-15.993616104125977 4.744197368621826 -0.084970571100712 0.000000000000000
-7.667666435241699 2.186164140701294 0.309314280748367 0.000000000000000
-21.003831863403320 4.152740955352783 -0.840587198734283 0.003921568859369
-18.958913803100586 5.796182155609131 -0.102057091891766 0.000000000000000
-19.127975463867188 5.849242687225342 0.350243330001831 0.003921568859369
-21.314603805541992 4.367038249969482 -0.854581475257874 0.003921568859369
-8.794356346130371 2.627119064331055 0.358958274126053 0.000000000000000
-21.232788085937500 4.425283432006836 -0.851806044578552 0.003921568859369
-18.899217605590820 5.918695926666260 -0.551036715507507 0.000000000000000
-6.324902057647705 1.862255811691284 0.501005887985229 0.000000000000000
-21.232833862304688 4.500864982604980 -0.852422833442688 0.003921568859369
-9.908010482788086 3.054198026657104 0.407941460609436 0.000000000000000
-20.268730163574219 4.363190174102783 -0.813147425651550 0.003921568859369
-20.183187484741211 4.416211128234863 -0.810212552547455 0.003921568859369
-6.789958953857422 2.060232877731323 1.204436182975769 0.000000000000000
-8.427578926086426 1.800238966941833 0.241088807582855 0.000000000000000
-6.514012336730957 1.992242813110352 1.152681231498718 0.000000000000000
-8.770359039306641 2.306807279586792 -0.192642405629158 0.000000000000000
-5.960610389709473 1.828695058822632 0.238077163696289 0.000000000000000
-8.101729393005371 2.971361637115479 -0.277260243892670 0.000000000000000
-15.663665771484375 4.352846145629883 -0.357376456260681 0.000000000000000
-14.093831062316895 5.555033683776855 -0.161928504705429 0.000000000000000
-3.314106941223145 0.981113970279694 0.124145209789276 0.000000000000000
-13.839694976806641 4.751985073089600 2.583957195281982 0.000000000000000
-6.381631374359131 1.792702674865723 0.361244261264801 0.000000000000000
-4.915965557098389 1.598153591156006 -0.239523977041245 0.000000000000000
-10.988571166992188 3.816071748733521 0.915506362915039 0.000000000000000
-8.749763488769531 2.550430059432983 2.310603618621826 0.000000000000000
-4.163150310516357 1.322803854942322 0.708329558372498 0.000000000000000
-18.933576583862305 5.858152866363525 -0.439384102821350 0.000000000000000
-18.867137908935547 5.907207489013672 0.458021700382233 0.000000000000000
-10.648807525634766 2.720527410507202 0.311339020729065 0.000000000000000
-18.879165649414062 5.911588191986084 -0.887793362140656 0.000000000000000
-18.882394790649414 6.053832530975342 0.459486454725266 0.000000000000000
-12.520206451416016 4.614318847656250 0.531028449535370 0.000000000000000
-18.881345748901367 6.195837497711182 0.460573166608810 0.000000000000000
-21.600105285644531 7.113517761230469 2.740915536880493 0.003921568859369
-18.865697860717773 6.264865398406982 0.460683584213257 0.000000000000000
-8.443049430847168 3.175075292587280 -0.242063462734222 0.000000000000000
-11.122216224670410 3.089789390563965 0.070823341608047 0.000000000000000
-18.851266860961914 6.331455230712891 0.460895538330078 0.000000000000000
-9.672480583190918 3.158697843551636 1.194380164146423 0.000000000000000
-7.424687862396240 2.766083478927612 0.612390935420990 0.000000000000000
-18.841491699218750 6.396134376525879 0.461200743913651 0.000000000000000
-8.143123626708984 2.658659934997559 0.475610285997391 0.000000000000000
-11.359697341918945 4.386529922485352 2.138201475143433 0.000000000000000
-2.449368000030518 0.785193383693695 -0.008273584768176 0.000000000000000
-18.840541839599609 6.471210002899170 0.461791545152664 0.000000000000000
-18.851726531982422 6.547205924987793 0.462664544582367 0.000000000000000
-10.044170379638672 2.883610248565674 0.295751333236694 0.000000000000000
-18.814268112182617 6.534141540527344 -0.442006438970566 0.000000000000000
-18.892690658569336 6.634229660034180 0.464293241500854 0.000000000000000
-10.068440437316895 2.927370548248291 0.296822875738144 0.000000000000000
-27.980510711669922 11.570805549621582 -0.852969586849213 0.003921568859369
-9.006480216979980 2.632454872131348 -0.562942981719971 0.000000000000000
-8.856178283691406 3.039129257202148 -0.200129777193069 0.000000000000000
-27.726573944091797 11.575728416442871 -0.846273660659790 0.003921568859369
-10.215907096862793 4.121796131134033 0.866469502449036 0.000000000000000
-14.435955047607422 5.974825382232666 2.768788814544678 0.000000000000000
-6.186985492706299 2.203302383422852 0.359289050102234 0.000000000000000
-18.122173309326172 7.855548381805420 3.524894714355469 0.003921568859369
-2.703785896301270 0.857215344905853 0.058433480560780 0.000000000000000
-15.036518096923828 5.703711986541748 1.923727750778198 0.000000000000000
-6.753126144409180 2.448799371719360 -0.150535315275192 0.000000000000000
-27.488492965698242 12.264698982238770 -0.848445534706116 0.003921568859369
-5.927235126495361 2.784732818603516 -0.065525680780411 0.000000000000000
-11.188282966613770 4.850673198699951 0.964114069938660 0.000000000000000
-27.492752075195312 12.380449295043945 -0.849908232688904 0.003921568859369
-2.724327087402344 0.883129477500916 0.003826880594715 0.000000000000000
-3.610045433044434 1.238335371017456 0.198113307356834 0.000000000000000
-27.503787994384766 12.499741554260254 -0.851600885391235 0.003921568859369
-13.015678405761719 5.786901950836182 2.519208669662476 0.000000000000000
-27.525186538696289 12.624334335327148 -0.853638052940369 0.003921568859369
-7.205875873565674 2.788063764572144 0.895212054252625 0.000000000000000
-7.477831840515137 2.930241107940674 0.445446103811264 0.000000000000000
-10.501320838928223 4.245311260223389 0.006868251133710 0.003921568859369
-6.243954181671143 2.433982610702515 0.367538183927536 0.000000000000000
-9.010843276977539 4.185586452484131 -0.048493884503841 0.000000000000000
-14.350329399108887 6.817379474639893 2.820545196533203 0.000000000000000
-11.888252258300781 4.979394435882568 3.335675716400146 0.000000000000000
-6.358410835266113 2.583610534667969 0.153970986604691 0.000000000000000
-6.984066963195801 3.303902626037598 -0.205945342779160 0.000000000000000
-6.496474266052246 2.447221994400024 0.042742397636175 0.000000000000000
-14.626348495483398 5.830007553100586 0.452658653259277 0.000000000000000
-8.291447639465332 3.667547941207886 1.062373399734497 0.000000000000000
-6.844170570373535 3.398702859878540 -0.203606635332108 0.000000000000000
-9.851229667663574 3.932075738906860 0.301405429840088 0.000000000000000
-6.640921115875244 3.379136562347412 -0.198553368449211 0.000000000000000
-9.870122909545898 4.616118431091309 -0.236520662903786 0.000000000000000
-7.424381256103516 3.905636548995972 -0.643175125122070 0.000000000000000
-10.878627777099609 5.202460289001465 3.117962598800659 0.000000000000000
-12.972734451293945 6.473273277282715 -0.319125592708588 0.000000000000000
-9.454200744628906 4.684420108795166 -0.228661879897118 0.000000000000000
-4.732723712921143 2.105272293090820 -0.078196324408054 0.000000000000000
-3.487994909286499 1.703177571296692 -0.076131366193295 0.000000000000000
-5.968099117279053 2.967594385147095 0.186416119337082 0.000000000000000
-5.753015995025635 2.897860288619995 -0.240229263901711 0.000000000000000
-9.058909416198730 4.757428169250488 -0.393494158983231 0.000000000000000
-5.790671825408936 3.531672716140747 0.788811147212982 0.003921568859369
-11.060450553894043 11.060401916503906 -0.885029077529907 0.000000000000000
-10.746299743652344 10.808285713195801 -0.861897885799408 0.000000000000000
-10.811132431030273 10.944976806640625 -0.870215952396393 0.000000000000000
-10.537607192993164 10.730897903442383 -0.850322663784027 0.000000000000000
-8.296772003173828 6.861597061157227 2.800207614898682 0.000000000000000
-10.636353492736816 10.911994934082031 -0.861877322196960 0.000000000000000
-10.594375610351562 10.951041221618652 -0.861869633197784 0.000000000000000
-7.854914188385010 8.050695419311523 -0.630865931510925 0.000000000000000
-10.332891464233398 10.811806678771973 -0.845670700073242 0.000000000000000
-10.210802078247070 10.760963439941406 -0.838726639747620 0.000000000000000
-10.176946640014648 10.791584968566895 -0.838720738887787 0.000000000000000
-10.137324333190918 10.827176094055176 -0.838713943958282 0.000000000000000
-10.090466499328613 10.860869407653809 -0.838961660861969 0.000000000000000
-10.052494049072266 10.894498825073242 -0.838955283164978 0.000000000000000
-10.014404296875000 10.927994728088379 -0.838948965072632 0.000000000000000
-9.944025039672852 10.920535087585449 -0.835936486721039 0.000000000000000
-9.851715087890625 10.894876480102539 -0.831304550170898 0.000000000000000
-10.814146041870117 10.885037422180176 -0.780776321887970 0.003921568859369
-9.707014083862305 10.803413391113281 -0.821816325187683 0.000000000000000
-19.850303649902344 22.310422897338867 2.426609039306641 0.003921568859369
-4.835225582122803 4.651402473449707 -0.443553715944290 0.000000000000000
-10.703641891479492 10.926446914672852 -0.691551089286804 0.000000000000000
-11.138234138488770 10.850257873535156 -0.970344901084900 0.000000000000000
-11.089112281799316 10.876207351684570 -0.969318866729736 0.000000000000000
-9.529710769653320 11.310411453247070 -0.754023313522339 0.003921568859369
-15.007481575012207 18.240423202514648 4.268846035003662 0.003921568859369
-8.119514465332031 8.838889122009277 -0.813552498817444 0.000000000000000
-9.837637901306152 10.887760162353516 -0.999673008918762 0.000000000000000
-17.354701995849609 24.141151428222656 -0.331309586763382 0.003921568859369
-9.607906341552734 10.701199531555176 -0.979387402534485 0.000000000000000
-9.539253234863281 11.735799789428711 -0.771683692932129 0.000000000000000
-17.221961975097656 24.121698379516602 -0.330259144306183 0.003921568859369
-9.608615875244141 10.774120330810547 -0.983270943164825 0.000000000000000
-7.030446529388428 8.565251350402832 1.979079246520996 0.000000000000000
-17.044399261474609 24.045312881469727 -0.328393161296844 0.003921568859369
-9.519375801086426 10.745226860046387 -0.977709174156189 0.000000000000000
-10.514143943786621 10.802251815795898 -0.940495729446411 0.000000000000000
-9.444586753845215 10.743251800537109 -0.974650144577026 0.000000000000000
-10.426671028137207 10.793441772460938 -0.936672031879425 0.000000000000000
-18.428928375244141 23.858961105346680 -0.858120143413544 0.003921568859369
-18.426538467407227 23.855678558349609 -0.161718353629112 0.003921568859369
-9.437713623046875 10.811482429504395 -0.977977931499481 0.000000000000000
-10.351057052612305 10.787245750427246 -0.933100581169128 0.000000000000000
-16.431056976318359 23.697507858276367 0.344796270132065 0.003921568859369
-9.336246490478516 10.766132354736328 -0.971027433872223 0.000000000000000
-10.361843109130859 10.874893188476562 -0.937676966190338 0.000000000000000
-9.486026763916016 10.946741104125977 -0.655386090278625 0.000000000000000
-4.335373401641846 5.234491825103760 1.197848677635193 0.000000000000000
-16.475334167480469 23.942811965942383 -0.323832750320435 0.003921568859369
-10.339928627014160 10.927289962768555 -0.939197957515717 0.000000000000000
-9.948024749755859 11.586094856262207 -0.691802680492401 0.000000000000000
-10.130576133728027 10.772200584411621 -0.922896087169647 0.000000000000000
-9.252395629882812 11.966354370117188 -0.772481858730316 0.003921568859369
-16.565801620483398 24.444799423217773 -0.329114198684692 0.003921568859369
-10.047624588012695 10.755527496337891 -0.918561220169067 0.000000000000000
-9.974748611450195 10.745679855346680 -0.914990544319153 0.000000000000000
-15.794715881347656 23.635145187377930 -0.316645711660385 0.003921568859369
-9.934459686279297 10.855858802795410 -0.918542206287384 0.000000000000000
-4.419044494628906 4.601170063018799 -0.386666029691696 0.000000000000000
-9.856681823730469 11.977825164794922 -0.703230023384094 0.003921568859369
-9.858433723449707 10.922086715698242 -0.918529808521271 0.000000000000000
-9.616642951965332 10.714164733886719 -0.898410439491272 0.000000000000000
-15.506800651550293 24.098018646240234 -0.319328546524048 0.003921568859369
-15.430252075195312 23.975812911987305 0.341186672449112 0.003921568859369
-8.791385650634766 10.862757682800293 -0.952921390533447 0.000000000000000
-9.618714332580566 10.799211502075195 -0.902990102767944 0.000000000000000
-18.591960906982422 23.552043914794922 -0.680541455745697 0.003921568859369
-17.049562454223633 24.060115814208984 -0.158110111951828 0.003921568859369
-15.411957740783691 24.133409500122070 0.342677384614944 0.003921568859369
-8.797120094299316 10.948976516723633 -0.957916319370270 0.000000000000000
-9.593866348266602 10.846547126770020 -0.904257178306580 0.000000000000000
-8.740013122558594 10.957450866699219 -0.955966770648956 0.000000000000000
-9.506238937377930 11.964293479919434 -0.693037152290344 0.000000000000000
-8.727689743041992 11.016876220703125 -0.958739757537842 0.000000000000000
-8.705940246582031 11.068221092224121 -0.960679292678833 0.000000000000000
-14.962093353271484 24.155876159667969 -0.316622465848923 0.003921568859369
-8.693474769592285 11.132342338562012 -0.963729918003082 0.000000000000000
-8.673962593078613 11.191540718078613 -0.966224849224091 0.000000000000000
-14.774575233459473 24.235374450683594 -0.316292077302933 0.003921568859369
-8.677332878112793 11.278261184692383 -0.971219837665558 0.000000000000000
-14.475127220153809 23.901277542114258 -0.311306893825531 0.003921568859369
-8.663014411926270 11.333225250244141 -0.973715484142303 0.000000000000000
-17.976190567016602 24.109117507934570 -0.682202517986298 0.003921568859369
-8.667851448059082 11.423417091369629 -0.978988230228424 0.000000000000000
-17.934129714965820 24.228633880615234 -0.683844745159149 0.003921568859369
-8.653849601745605 11.492537498474121 -0.982316553592682 0.000000000000000
-8.637141227722168 11.558454513549805 -0.985367059707642 0.000000000000000
-8.901165962219238 10.773684501647949 -0.872632384300232 0.000000000000000
-13.996046066284180 23.877710342407227 -0.308388382196426 0.003921568859369
-8.643073081970215 11.665254592895508 -0.992031335830688 0.000000000000000
-8.955451965332031 10.932065963745117 -0.883067667484283 0.000000000000000
-8.661440849304199 11.769478797912598 -0.998693346977234 0.000000000000000
-8.928418159484863 10.968365669250488 -0.883826732635498 0.000000000000000
-5.342485427856445 7.045016765594482 2.312989950180054 0.000000000000000
-8.265270233154297 10.189427375793457 -0.818649530410767 0.000000000000000
-15.222307205200195 23.851942062377930 -0.151564478874207 0.003921568859369
-8.867209434509277 11.055993080139160 -0.885852754116058 0.000000000000000
-8.830977439880371 11.088686943054199 -0.886102318763733 0.000000000000000
-8.829802513122559 11.159723281860352 -0.889661848545074 0.000000000000000
-8.829130172729492 11.240194320678711 -0.893730103969574 0.000000000000000
-8.826029777526855 11.322262763977051 -0.897798120975494 0.000000000000000
-14.615421295166016 23.782768249511719 -0.794913113117218 0.003921568859369
-8.819678306579590 11.396573066711426 -0.901357233524323 0.000000000000000
-8.822006225585938 11.479154586791992 -0.905680239200592 0.000000000000000
-17.859138488769531 23.969173431396484 0.184385493397713 0.003921568859369
-14.673820495605469 24.263275146484375 -0.151890978217125 0.003921568859369
-13.879518508911133 25.709783554077148 0.350124895572662 0.003921568859369
-8.808087348937988 11.548688888549805 -0.908730089664459 0.000000000000000
-14.290989875793457 23.802654266357422 -0.790636837482452 0.003921568859369
-14.482129096984863 24.129915237426758 -0.150721341371536 0.003921568859369
-8.788773536682129 11.607109069824219 -0.911016404628754 0.000000000000000
-14.201112747192383 23.845024108886719 -0.790519118309021 0.003921568859369
-14.425261497497559 24.231748580932617 -0.151069879531860 0.003921568859369
-8.787835121154785 11.699658393859863 -0.916105866432190 0.000000000000000
-13.056993484497070 24.775569915771484 -0.312263607978821 0.003921568859369
-13.723606109619141 26.078643798828125 0.353247463703156 0.003921568859369
-8.797931671142578 11.800428390502930 -0.921701550483704 0.000000000000000
-8.828175544738770 11.930740356445312 -0.929588317871094 0.000000000000000
-14.182594299316406 24.408462524414062 -0.804308712482452 0.003921568859369
-17.233869552612305 23.991987228393555 0.182346388697624 0.003921568859369
-13.944760322570801 24.184463500976562 -0.795328319072723 0.003921568859369
-13.170524597167969 25.667871475219727 0.345888197422028 0.003921568859369
-13.894208908081055 24.473398208618164 -0.801876246929169 0.003921568859369
-14.650539398193359 25.843021392822266 2.422253608703613 0.003921568859369
-12.880611419677734 25.965721130371094 0.347579330205917 0.003921568859369
-15.615765571594238 25.449626922607422 1.739646792411804 0.003921568859369
-16.113300323486328 23.763742446899414 0.177387416362762 0.003921568859369
-13.507405281066895 25.012840270996094 -0.810362994670868 0.003921568859369
-12.361566543579102 25.822158813476562 -0.319465190172195 0.003921568859369
-13.513540267944336 25.024194717407227 2.319352626800537 0.003921568859369
-12.198472023010254 25.967582702636719 -0.320182591676712 0.003921568859369
-13.088701248168945 24.652738571166992 -0.149528533220291 0.003921568859369
-14.152106285095215 23.785158157348633 -0.628104329109192 0.003921568859369
-13.075334548950195 24.817987442016602 -0.799649119377136 0.003921568859369
-14.114915847778320 24.087900161743164 -0.633690118789673 0.003921568859369
-2.371090173721313 4.006652832031250 -0.230589762330055 0.000000000000000
-13.468132972717285 26.491188049316406 -0.847723603248596 0.003921568859369
-15.286787986755371 23.955867767333984 0.175727978348732 0.003921568859369
-12.942586898803711 25.652900695800781 -0.154044568538666 0.003921568859369
-13.221747398376465 26.456073760986328 -0.843688726425171 0.003921568859369
-13.024648666381836 26.271577835083008 -0.836436927318573 0.003921568859369
-13.094928741455078 26.417249679565430 2.405988454818726 0.003921568859369
-13.664318084716797 24.680107116699219 0.664063632488251 0.003921568859369
-11.443164825439453 26.458677291870117 0.345991283655167 0.003921568859369
-13.579140663146973 24.522071838378906 -0.636404514312744 0.003921568859369
-11.378711700439453 26.585948944091797 -0.322921544313431 0.003921568859369
-4.402239322662354 8.539786338806152 -0.489379346370697 0.000000000000000
-11.750418663024902 24.302000045776367 2.202419519424438 0.003921568859369
-12.627539634704590 26.402032852172852 -0.835045337677002 0.003921568859369
-11.666395187377930 24.332397460937500 2.201768875122070 0.003921568859369
-12.429999351501465 26.215850830078125 -0.827794134616852 0.003921568859369
-10.641627311706543 25.547615051269531 -0.308890819549561 0.003921568859369
-10.871936798095703 26.385772705078125 0.342644542455673 0.003921568859369
-11.496248245239258 24.410699844360352 2.201774835586548 0.003921568859369
-11.710423469543457 25.123748779296875 5.038321971893311 0.003921568859369
-13.146740913391113 24.974685668945312 -0.641058206558228 0.003921568859369
-10.969178199768066 27.194606781005859 -0.327572375535965 0.003921568859369
-2.175232887268066 4.046342849731445 -0.228297218680382 0.000000000000000
-13.777991294860840 26.434810638427734 3.652316808700562 0.003921568859369
-11.891087532043457 25.763401031494141 2.316150188446045 0.003921568859369
-10.387431144714355 25.970211029052734 -0.312278956174850 0.003921568859369
-10.760336875915527 26.936458587646484 0.348298817873001 0.003921568859369
-11.510383605957031 25.374568939208984 -0.149337813258171 0.003921568859369
-11.897341728210449 26.255203247070312 5.241023540496826 0.003921568859369
-13.535099029541016 26.400360107421875 -0.674256145954132 0.003921568859369
-12.033038139343262 26.818418502807617 -0.838936507701874 0.003921568859369
-9.531390190124512 24.242046356201172 -0.290560454130173 0.003921568859369
-11.460030555725098 25.501354217529297 -0.149861678481102 0.003921568859369
-9.452320098876953 24.288877487182617 -0.290740728378296 0.003921568859369
-10.084361076354980 25.978185653686523 0.334701985120773 0.003921568859369
-11.840824127197266 26.630144119262695 2.379553794860840 0.003921568859369
-11.134333610534668 25.232725143432617 2.251461505889893 0.003921568859369
-13.155236244201660 26.579011917114258 1.730422377586365 0.003921568859369
-9.233564376831055 24.506738662719727 -0.292235374450684 0.003921568859369
-9.903746604919434 26.356748580932617 0.338243931531906 0.003921568859369
-9.786125183105469 26.318578720092773 -0.313634932041168 0.003921568859369
-12.809771537780762 26.330169677734375 3.588804483413696 0.003921568859369
-11.028712272644043 25.749345779418945 5.094403743743896 0.003921568859369
-9.441896438598633 26.219367980957031 -0.311281979084015 0.003921568859369
-10.994894027709961 26.447568893432617 2.339371204376221 0.003921568859369
-8.852465629577637 24.797950744628906 -0.293908894062042 0.003921568859369
-13.353661537170410 25.168190002441406 0.176519155502319 0.003921568859369
-11.085659980773926 26.944604873657227 -0.156382218003273 0.003921568859369
-9.144102096557617 25.649108886718750 0.327230691909790 0.003921568859369
-10.927000999450684 26.818155288696289 -0.155416041612625 0.003921568859369
-8.919776916503906 25.281856536865234 0.322202414274216 0.003921568859369
-10.845070838928223 26.610216140747070 2.347216367721558 0.003921568859369
-12.269282341003418 26.368896484375000 -0.661192595958710 0.003921568859369
-10.473402023315430 25.905717849731445 -0.797619283199310 0.003921568859369
-9.079378128051758 26.021791458129883 -0.307844221591949 0.003921568859369
-8.378342628479004 24.496814727783203 0.311235338449478 0.003921568859369
-11.975124359130859 26.427333831787109 3.557057857513428 0.003921568859369
-10.147774696350098 25.868150711059570 -0.793244719505310 0.003921568859369
-12.012836456298828 26.766527175903320 0.691608607769012 0.003921568859369
-11.993753433227539 26.722530364990234 3.591275453567505 0.003921568859369
-12.025758743286133 26.796281814575195 -0.667878627777100 0.003921568859369
-9.495331764221191 24.451004028320312 -0.140504166483879 0.003921568859369
-9.351742744445801 24.067190170288086 2.108999729156494 0.003921568859369
-9.359195709228516 24.319664001464844 2.128606796264648 0.003921568859369
-11.353256225585938 26.012882232666016 3.480324745178223 0.003921568859369
-11.276183128356934 26.084106445312500 3.484726190567017 0.003921568859369
-8.546747207641602 26.932426452636719 -0.315862357616425 0.003921568859369
-9.147168159484863 24.805116653442383 -0.754706144332886 0.003921568859369
-8.143980026245117 25.934148788452148 0.326835900545120 0.003921568859369
-10.964068412780762 25.843957901000977 3.442693948745728 0.003921568859369
-9.006528854370117 24.960391998291016 -0.757582068443298 0.003921568859369
-8.242875099182129 26.943891525268555 -0.315007150173187 0.003921568859369
-12.386097908020020 26.134576797485352 0.179316774010658 0.003921568859369
-9.455750465393066 26.255195617675781 -0.149732977151871 0.003921568859369
-11.188203811645508 26.922826766967773 3.576136350631714 0.003921568859369
-8.774044990539551 24.566886901855469 -0.744697570800781 0.003921568859369
-9.177154541015625 25.742008209228516 -0.146575734019279 0.003921568859369
-11.022700309753418 26.781366348266602 0.683035433292389 0.003921568859369
-7.749696731567383 25.591741561889648 0.321564108133316 0.003921568859369
-10.495832443237305 25.459573745727539 3.377201080322266 0.003921568859369
-9.434588432312012 26.796886444091797 2.322058916091919 0.003921568859369
-10.777284622192383 26.706249237060547 0.679263234138489 0.003921568859369
-10.313508987426758 25.518712997436523 3.375737190246582 0.003921568859369
-8.760612487792969 25.097265243530273 2.172395467758179 0.003921568859369
-12.193651199340820 26.691314697265625 0.181956976652145 0.003921568859369
-8.761468887329102 25.705396652221680 -0.145681515336037 0.003921568859369
-7.358709335327148 25.587179183959961 0.320260614156723 0.003921568859369
-2.495130777359009 6.583729743957520 1.268370985984802 0.000000000000000
-10.263494491577148 25.932909011840820 -0.634380102157593 0.003921568859369
-8.940212249755859 26.579732894897461 2.292643785476685 0.003921568859369
-11.847612380981445 26.681589126586914 0.181077063083649 0.003921568859369
-9.462680816650391 24.361389160156250 1.526302576065063 0.003921568859369
-8.834019660949707 26.567829132080078 2.289048433303833 0.003921568859369
-11.735536575317383 26.677471160888672 0.180784597992897 0.003921568859369
-9.680971145629883 25.211788177490234 0.637174010276794 0.003921568859369
-10.325407981872559 26.950668334960938 3.541437625885010 0.003921568859369
-8.696137428283691 27.095201492309570 -0.813271641731262 0.003921568859369
-3.941507101058960 9.931516647338867 2.837579011917114 0.000000000000000
-7.275844573974609 27.532306671142578 -0.318609803915024 0.003921568859369
-1.359225511550903 2.846255302429199 0.375065296888351 0.000000000000000
-8.456419944763184 26.648138046264648 2.286103248596191 0.003921568859369
-6.977275848388672 26.741163253784180 -0.309110522270203 0.003921568859369
-9.562687873840332 25.986801147460938 -0.629973113536835 0.003921568859369
-8.441589355468750 27.281229019165039 2.335443258285522 0.003921568859369
-3.696521043777466 9.567739486694336 2.723558425903320 0.000000000000000
