# This PCD file was generated using the MATLAB® pcwrite function
# from Computer Vision Toolbox®.
# .PCD v.7 - Point Cloud Data file format
VERSION .7
FIELDS x y z intensity
SIZE 8 8 8 8
TYPE F F F F
COUNT 1 1 1 1
WIDTH 639
HEIGHT 1
VIEWPOINT 0 0 0 1 0 0 0
POINTS 639
DATA ascii
-20.511499404907227 2.907675027847290 -0.577384352684021 0.003921568859369
-12.669405937194824 0.569700479507446 0.076403565704823 0.000000000000000
-21.430875778198242 0.983646750450134 0.615420818328857 0.003921568859369
-19.342596054077148 2.803905010223389 -0.543577551841736 0.000000000000000
-19.423681259155273 2.816176652908325 -0.989801704883575 0.003921568859369
-20.170572280883789 2.997671365737915 -0.567999958992004 0.000000000000000
-19.480859756469727 2.892191648483276 -0.993321180343628 0.003921568859369
-16.853067398071289 1.680656433105469 2.015313863754272 0.003921568859369
-10.097843170166016 0.548103392124176 -0.160742402076721 0.000000000000000
-20.159986495971680 3.066016674041748 -0.567977905273438 0.000000000000000
-17.470100402832031 1.804616928100586 0.402672171592712 0.000000000000000
-19.462753295898438 2.956892251968384 -0.992883265018463 0.003921568859369
-7.499358654022217 1.081638216972351 0.576356410980225 0.000000000000000
-11.397462844848633 0.657267272472382 -0.183183073997498 0.000000000000000
-20.150253295898438 3.127487182617188 -0.567958056926727 0.000000000000000
-19.421812057495117 3.011126041412354 -0.991198122501373 0.003921568859369
-20.138095855712891 3.202580690383911 -0.567933917045593 0.000000000000000
-3.918698310852051 0.214398831129074 0.101264141499996 0.000000000000000
-11.862654685974121 1.284328579902649 0.667109012603760 0.000000000000000
-19.378572463989258 3.078254699707031 -0.989508688449860 0.003921568859369
-20.103134155273438 3.266844987869263 -0.567220330238342 0.000000000000000
-10.907259941101074 1.726794600486755 -0.054678361862898 0.000000000000000
-19.296794891357422 3.131954431533813 -0.985738873481750 0.003921568859369
-20.067876815795898 3.325284957885742 -0.566743373870850 0.000000000000000
-8.243127822875977 0.546078205108643 0.228793025016785 0.000000000000000
-20.095535278320312 3.400161981582642 -0.567874372005463 0.000000000000000
-7.712862014770508 0.885231137275696 0.887973904609680 0.000000000000000
-19.867406845092773 4.340854644775391 -0.681465446949005 0.003921568859369
-19.372112274169922 1.472857117652893 0.556506156921387 0.003921568859369
-21.893375396728516 2.724120855331421 -0.992133200168610 0.003921568859369
-19.852134704589844 4.408155918121338 -0.681444704532623 0.003921568859369
-12.924398422241211 1.620840311050415 0.296296119689941 0.000000000000000
-9.583205223083496 1.632720589637756 0.378697812557220 0.000000000000000
-21.554914474487305 2.755297660827637 -0.976746320724487 0.003921568859369
-22.713750839233398 2.907414674758911 -0.510427176952362 0.003921568859369
-10.624988555908203 0.857342004776001 0.299231320619583 0.000000000000000
-13.288843154907227 1.713738203048706 0.753611803054810 0.000000000000000
-19.842447280883789 2.598698139190674 -0.897135376930237 0.000000000000000
-21.966341018676758 2.885189056396484 -0.493287384510040 0.003921568859369
-13.440924644470215 2.425717115402222 0.235414654016495 0.000000000000000
-10.569358825683594 1.382318615913391 0.593377768993378 0.000000000000000
-7.309427261352539 1.268726110458374 0.284291565418243 0.000000000000000
-19.758054733276367 2.655505895614624 -0.893596827983856 0.000000000000000
-19.411521911621094 3.552720546722412 -0.995823979377747 0.003921568859369
-21.441192626953125 2.888498544692993 -0.481301814317703 0.003921568859369
-6.650515079498291 0.861220180988312 0.362122327089310 0.000000000000000
-19.772401809692383 2.725813388824463 -0.894685447216034 0.000000000000000
-19.371543884277344 3.613158226013184 -0.994345605373383 0.003921568859369
-20.900447845458984 2.885932683944702 -0.468949526548386 0.003921568859369
-19.703943252563477 2.780822038650513 -0.891888737678528 0.000000000000000
-19.257532119750977 3.655506849288940 -0.988911986351013 0.003921568859369
-5.812766075134277 1.023216247558594 0.440257132053375 0.000000000000000
-20.487117767333984 2.894595384597778 -0.459543585777283 0.003921568859369
-19.370044708251953 2.799269676208496 -0.876691401004791 0.000000000000000
-19.326919555664062 3.737091779708862 -0.993264198303223 0.003921568859369
-19.357551574707031 2.797264099121094 -0.433486312627792 0.000000000000000
-11.002401351928711 1.071320891380310 0.310908228158951 0.000000000000000
-20.635999679565430 3.059542417526245 -0.936445772647858 0.003921568859369
-19.309841156005859 3.801715373992920 -0.993035554885864 0.003921568859369
-20.367586135864258 3.018430471420288 -0.457198768854141 0.003921568859369
-20.058080673217773 4.024335384368896 -0.569987297058105 0.000000000000000
-23.276218414306641 5.858613014221191 -0.262656569480896 0.003921568859369
-10.670207977294922 1.574456930160522 0.600909590721130 0.000000000000000
-20.633090972900391 3.130772590637207 -0.936793327331543 0.003921568859369
-19.284717559814453 3.864653587341309 -0.992390394210815 0.003921568859369
-20.364828109741211 3.088725090026855 -0.457360476255417 0.003921568859369
-20.055644989013672 4.094782352447510 -0.570311784744263 0.000000000000000
-10.051214218139648 1.511809349060059 0.229109331965446 0.000000000000000
-20.598361968994141 3.196981191635132 -0.935660421848297 0.003921568859369
-20.294687271118164 3.148317813873291 -0.455958425998688 0.000000000000000
-20.333171844482422 4.226991176605225 -0.579167008399963 0.003921568859369
-6.983820438385010 1.046283483505249 0.005052149295807 0.000000000000000
-11.711133956909180 2.382158517837524 0.470766127109528 0.000000000000000
-20.593721389770508 3.269253253936768 -0.936381816864014 0.003921568859369
-19.322368621826172 4.010880947113037 -0.996309638023376 0.003921568859369
-20.262605667114258 3.215023279190063 -0.455664098262787 0.000000000000000
-20.122943878173828 4.253446102142334 -0.573384463787079 0.003921568859369
-20.550657272338867 3.333865642547607 -0.934879004955292 0.003921568859369
-20.239427566528320 3.281768560409546 -0.455366164445877 0.000000000000000
-20.303173065185547 4.364864349365234 -0.579124331474304 0.003921568859369
-9.887320518493652 2.060286521911621 -0.049433898180723 0.000000000000000
-20.534957885742188 3.402923583984375 -0.934671640396118 0.003921568859369
-20.251497268676758 3.354444265365601 -0.455895990133286 0.000000000000000
-20.045955657958984 4.379326820373535 -0.571959793567657 0.000000000000000
-15.600689888000488 2.615134000778198 0.896053135395050 0.000000000000000
-20.581998825073242 3.482877492904663 -0.937425017356873 0.003921568859369
-20.188449859619141 3.414213180541992 -0.454678505659103 0.000000000000000
-8.191635131835938 0.971715092658997 0.228932321071625 0.000000000000000
-20.644462585449219 3.565997838973999 -0.940918385982513 0.003921568859369
-22.286571502685547 2.771490097045898 -0.883034288883209 0.003921568859369
-20.223653793334961 3.491073846817017 -0.455760240554810 0.000000000000000
-5.286668300628662 0.617775142192841 -0.300413519144058 0.000000000000000
-11.782574653625488 2.031300067901611 0.670145809650421 0.000000000000000
-7.299854755401611 1.561842203140259 0.286834985017776 0.000000000000000
-10.096532821655273 1.725480794906616 1.194918155670166 0.000000000000000
-21.547615051269531 2.751599311828613 -0.853239059448242 0.003921568859369
-20.183801651000977 3.554666996002197 -0.455094784498215 0.000000000000000
-11.243864059448242 1.974447488784790 -0.499405354261398 0.000000000000000
-12.872207641601562 2.903365135192871 1.039001584053040 0.000000000000000
-20.824438095092773 2.732250690460205 -0.824091613292694 0.003921568859369
-20.229618072509766 3.637447357177734 -0.456451267004013 0.003921568859369
-20.581678390502930 2.767092943191528 -0.814524233341217 0.003921568859369
-20.150640487670898 3.690031766891479 -0.454867601394653 0.000000000000000
-14.359243392944336 2.645026922225952 1.731408715248108 0.000000000000000
-20.113355636596680 2.768391132354736 -0.795735895633698 0.003921568859369
-20.150072097778320 3.757209062576294 -0.455122917890549 0.000000000000000
-17.317739486694336 2.431493759155273 0.500319540500641 0.003921568859369
-19.783201217651367 2.790054321289062 -0.782609760761261 0.003921568859369
-20.176080703735352 3.833213329315186 -0.456020832061768 0.000000000000000
-19.405693054199219 2.802386522293091 -0.767543137073517 0.003921568859369
-20.150808334350586 3.899288415908813 -0.455723583698273 0.000000000000000
-7.170789718627930 1.006094098091125 -0.422926068305969 0.000000000000000
-20.979637145996094 3.113167524337769 -0.832389891147614 0.003921568859369
-20.203006744384766 3.984559059143066 -0.457263946533203 0.003921568859369
-20.999017715454102 3.190390110015869 -0.833988189697266 0.003921568859369
-20.164199829101562 4.049669265747070 -0.456878632307053 0.003921568859369
-7.205028533935547 1.737702369689941 -0.194565832614899 0.000000000000000
-11.185165405273438 2.230752944946289 0.638692319393158 0.000000000000000
-14.349799156188965 2.198935031890869 -0.561886429786682 0.000000000000000
-20.185882568359375 4.122058391571045 -0.457685738801956 0.003921568859369
-13.009781837463379 3.302990913391113 0.531942903995514 0.000000000000000
-20.653366088867188 3.276669025421143 -0.820679545402527 0.003921568859369
-10.329935073852539 2.086077690124512 2.683362245559692 0.000000000000000
-20.233942031860352 4.203910827636719 -0.459135115146637 0.003921568859369
-20.712764739990234 3.358619689941406 -0.823568642139435 0.003921568859369
-12.212329864501953 2.531898021697998 -0.270783394575119 0.000000000000000
-20.515966415405273 4.410251617431641 -0.942880690097809 0.003921568859369
-8.715817451477051 1.801228523254395 1.031343102455139 0.000000000000000
-20.693033218383789 3.427609443664551 -0.823222577571869 0.003921568859369
-20.270483016967773 4.355838775634766 -0.460655122995377 0.003921568859369
-19.701255798339844 4.300280094146729 -0.904938817024231 0.000000000000000
-7.353354454040527 1.204448223114014 0.045288525521755 0.000000000000000
-19.401760101318359 4.302121639251709 -0.891415238380432 0.000000000000000
-6.213428497314453 1.310638666152954 0.004979982040823 0.000000000000000
-19.659084320068359 4.431097507476807 -0.904342830181122 0.000000000000000
-11.266366004943848 2.522787809371948 -0.505907237529755 0.000000000000000
-21.881225585937500 3.937053203582764 -0.874077975749969 0.003921568859369
-19.678194046020508 4.576422214508057 -0.906706690788269 0.000000000000000
-21.682750701904297 3.976695299148560 -0.866453409194946 0.003921568859369
-10.996530532836914 3.644353151321411 -0.121868908405304 0.000000000000000
-19.690086364746094 4.646394729614258 -0.907982051372528 0.000000000000000
-20.798042297363281 3.879613399505615 -0.830529391765594 0.003921568859369
-19.859130859375000 4.762447357177734 -0.916838645935059 0.000000000000000
-14.198104858398438 4.080876827239990 1.169886231422424 0.000000000000000
-20.826829910278320 3.962206840515137 -0.832284927368164 0.003921568859369
-13.420783996582031 3.222395181655884 1.636352062225342 0.000000000000000
-20.623447418212891 3.996838331222534 -0.824827849864960 0.003921568859369
-6.794098377227783 1.915250420570374 -0.336959093809128 0.000000000000000
-20.546695709228516 4.054170608520508 -0.822218596935272 0.003921568859369
-6.902756690979004 1.332050800323486 -0.259300589561462 0.000000000000000
-22.949676513671875 5.939282417297363 0.549449086189270 0.003921568859369
-17.205024719238281 3.555360794067383 -0.685683846473694 0.003921568859369
-23.011754989624023 5.956069469451904 -0.530499756336212 0.003921568859369
-10.461071968078613 3.734519004821777 -0.116551719605923 0.000000000000000
-9.905040740966797 3.011837482452393 -0.050745017826557 0.000000000000000
-22.986730575561523 6.033015727996826 0.550886213779449 0.003921568859369
-13.572174072265625 4.192879199981689 0.564944088459015 0.000000000000000
-20.820863723754883 4.401596069335938 -0.835876703262329 0.003921568859369
-9.932496070861816 3.056869506835938 -0.050955593585968 0.000000000000000
-5.902517318725586 1.743083119392395 0.464612573385239 0.000000000000000
-20.883426666259766 4.489565372467041 -0.839088678359985 0.003921568859369
-23.021139144897461 6.210808753967285 0.552817881107330 0.003921568859369
-6.880765914916992 2.086406707763672 0.549563229084015 0.000000000000000
-22.980064392089844 6.283813953399658 0.552369773387909 0.003921568859369
-8.276504516601562 1.761562466621399 0.236210703849792 0.000000000000000
-19.733268737792969 4.376198768615723 -0.792643308639526 0.003921568859369
-22.984916687011719 6.369723320007324 0.553052723407745 0.003921568859369
-19.694511413574219 4.437719821929932 -0.791652739048004 0.003921568859369
-22.985597610473633 6.454626083374023 0.553641378879547 0.003921568859369
-22.978282928466797 6.537377834320068 0.554041504859924 0.003921568859369
-16.617002487182617 4.682597160339355 0.983048915863037 0.000000000000000
-15.051125526428223 3.523304939270020 0.094440318644047 0.000000000000000
-22.942399978637695 6.614304542541504 0.553965926170349 0.003921568859369
-6.713316917419434 1.821205973625183 0.795467019081116 0.000000000000000
-23.030277252197266 6.725689411163330 0.556722939014435 0.003921568859369
-12.976431846618652 5.137698650360107 -0.148855805397034 0.000000000000000
-8.568191528320312 2.064545869827271 0.246968507766724 0.000000000000000
-8.655690193176270 2.548177719116211 0.501285016536713 0.000000000000000
-8.642935752868652 2.575276851654053 0.501059412956238 0.000000000000000
-14.923294067382812 5.359387874603271 1.261295437812805 0.000000000000000
-9.536856651306152 3.862334966659546 -0.335278958082199 0.000000000000000
-9.661730766296387 3.989659309387207 -0.109230101108551 0.000000000000000
-4.439295768737793 1.282757997512817 0.004587560892105 0.000000000000000
-2.926610708236694 1.052376151084900 -0.147677451372147 0.000000000000000
-12.634688377380371 4.800637245178223 1.070537447929382 0.000000000000000
-9.445626258850098 2.595448493957520 0.276317834854126 0.000000000000000
-6.248031616210938 1.706166982650757 0.178736433386803 0.000000000000000
-11.849570274353027 4.038125514984131 0.286775529384613 0.000000000000000
-11.095438003540039 3.232742071151733 0.328213393688202 0.000000000000000
-19.649467468261719 7.040907382965088 1.196391582489014 0.003921568859369
-14.731661796569824 6.032423496246338 1.268000841140747 0.000000000000000
-8.151921272277832 2.448462486267090 0.052314244210720 0.000000000000000
-14.675981521606445 4.600460052490234 0.440824896097183 0.000000000000000
-20.045013427734375 7.497661113739014 1.227568626403809 0.003921568859369
-15.851838111877441 5.951291084289551 0.008687661960721 0.003921568859369
-14.788163185119629 6.355927944183350 2.856264114379883 0.000000000000000
-6.106445312500000 2.189211845397949 0.354563415050507 0.000000000000000
-9.904917716979980 4.258950233459473 -0.053073059767485 0.000000000000000
-15.269836425781250 6.144007205963135 0.008631519973278 0.000000000000000
-9.630410194396973 4.403345108032227 1.851435065269470 0.000000000000000
-6.270986080169678 3.160312652587891 -0.223435923457146 0.000000000000000
-11.849884033203125 4.905540943145752 0.007459139917046 0.000000000000000
-7.198714733123779 2.922349452972412 -0.334106385707855 0.000000000000000
-13.578304290771484 5.764072895050049 0.008132330141962 0.000000000000000
-6.584600448608398 2.729298353195190 1.789337992668152 0.000000000000000
-5.871333599090576 2.777101516723633 0.110763892531395 0.000000000000000
-6.850542068481445 2.612081527709961 -0.273679763078690 0.000000000000000
-5.833265781402588 2.851139545440674 -0.029641410335898 0.000000000000000
-11.333278656005859 5.280482769012451 0.007477967068553 0.000000000000000
-9.872120857238770 4.013769149780273 0.303322464227676 0.000000000000000
-11.337596893310547 5.282659530639648 -0.272980749607086 0.000000000000000
-8.852018356323242 4.108140945434570 0.006530454382300 0.003921568859369
-11.832847595214844 4.948239803314209 -0.208314612507820 0.000000000000000
-11.304782867431641 4.807583808898926 -0.199053317308426 0.000000000000000
-10.879688262939453 5.328755378723145 0.007397988811135 0.003921568859369
-17.023063659667969 10.887206077575684 -0.680183589458466 0.003921568859369
-16.703517913818359 10.927584648132324 -0.672004103660583 0.003921568859369
-16.574590682983398 10.918387413024902 -0.668126285076141 0.003921568859369
-6.317399978637695 3.169905424118042 1.782187223434448 0.000000000000000
-16.415704727172852 10.895951271057129 -0.663142681121826 0.003921568859369
-7.971574306488037 4.106574535369873 2.292229652404785 0.000000000000000
-16.298585891723633 10.896988868713379 -0.659817039966583 0.003921568859369
-15.714105606079102 10.030282974243164 -0.945136249065399 0.003921568859369
-15.344106674194336 11.110001564025879 -0.637473285198212 0.003921568859369
-16.386240005493164 10.800617218017578 -0.996848285198212 0.003921568859369
-16.312347412109375 10.908591270446777 -0.996825754642487 0.003921568859369
-15.946082115173340 10.735893249511719 -0.976031184196472 0.003921568859369
-5.965574264526367 3.445055961608887 0.382647275924683 0.000000000000000
-16.074056625366211 10.901576995849609 -0.986412107944489 0.003921568859369
-15.825036048889160 10.811340332031250 -0.973099470138550 0.003921568859369
-15.669955253601074 10.781546592712402 -0.965606808662415 0.003921568859369
-10.294496536254883 7.015677452087402 -0.624141693115234 0.000000000000000
-15.371658325195312 11.788523674011230 -0.652442753314972 0.003921568859369
-15.536519050598145 10.837654113769531 -0.961637914180756 0.003921568859369
-15.409569740295410 11.895034790039062 -0.655747234821320 0.003921568859369
-15.390660285949707 10.822227478027344 -0.955397069454193 0.003921568859369
-16.470479965209961 10.693343162536621 -0.885697901248932 0.000000000000000
-16.433055877685547 10.749098777770996 -0.885686099529266 0.000000000000000
-16.408655166625977 10.813707351684570 -0.886412978172302 0.000000000000000
-16.357614517211914 10.860228538513184 -0.885662853717804 0.000000000000000
-16.265569686889648 10.874295234680176 -0.882513463497162 0.000000000000000
-14.766029357910156 10.990837097167969 -0.934536576271057 0.003921568859369
-14.686523437500000 11.008839607238770 -0.931825697422028 0.003921568859369
-14.656236648559570 11.060813903808594 -0.932232558727264 0.003921568859369
-15.841722488403320 10.901738166809082 -0.867146134376526 0.000000000000000
-14.652086257934570 11.137386322021484 -0.934508979320526 0.003921568859369
-15.612481117248535 10.825042724609375 -0.856802105903625 0.000000000000000
-14.691766738891602 11.256092071533203 -0.940322816371918 0.003921568859369
-15.506505012512207 10.828804969787598 -0.852914810180664 0.000000000000000
-14.664877891540527 11.315630912780762 -0.941144764423370 0.003921568859369
-15.329535484313965 10.780339241027832 -0.844966530799866 0.000000000000000
-14.665779113769531 11.397634506225586 -0.943836987018585 0.003921568859369
-14.666285514831543 11.479770660400391 -0.946529209613800 0.003921568859369
-17.095741271972656 10.945979118347168 -0.800339639186859 0.003921568859369
-14.638514518737793 11.539352416992188 -0.947351455688477 0.003921568859369
-16.754348754882812 10.802892684936523 -0.785645961761475 0.003921568859369
-14.659914016723633 11.639413833618164 -0.951498270034790 0.003921568859369
-14.646914482116699 11.711773872375488 -0.953359484672546 0.003921568859369
-16.562503814697266 10.838180541992188 -0.779975473880768 0.003921568859369
-14.661212921142578 11.807187080383301 -0.957090795040131 0.003921568859369
-16.438581466674805 10.835947990417480 -0.775769174098969 0.003921568859369
-14.690330505371094 11.915664672851562 -0.961861073970795 0.003921568859369
-16.324771881103516 10.839747428894043 -0.772047221660614 0.003921568859369
-6.703399181365967 4.757283210754395 -0.359068602323532 0.000000000000000
-14.727066040039062 12.027152061462402 -0.967047214508057 0.003921568859369
-16.268981933593750 10.878670692443848 -0.771068334579468 0.003921568859369
-14.825086593627930 11.035122871398926 -0.833258330821991 0.000000000000000
-14.736748695373535 12.120817184448242 -0.970570802688599 0.003921568859369
-16.099554061889648 10.842627525329590 -0.764604210853577 0.003921568859369
-14.802271842956543 11.097399711608887 -0.834171772003174 0.000000000000000
-16.032127380371094 10.876522064208984 -0.763141274452209 0.003921568859369
-14.770153045654297 11.159534454345703 -0.835090100765228 0.000000000000000
-15.851026535034180 10.836311340332031 -0.756520926952362 0.003921568859369
-14.778242111206055 11.246442794799805 -0.837849378585815 0.000000000000000
-15.751167297363281 10.846035957336426 -0.753445088863373 0.003921568859369
-14.751427650451660 11.306277275085449 -0.838578462600708 0.000000000000000
-14.739993095397949 11.378508567810059 -0.840230345726013 0.000000000000000
-14.740695953369141 11.460799217224121 -0.842620670795441 0.000000000000000
-7.247421741485596 5.446374893188477 2.339130163192749 0.000000000000000
-14.750321388244629 11.550772666931152 -0.845564782619476 0.000000000000000
-14.759489059448242 11.640950202941895 -0.848508834838867 0.000000000000000
-14.718763351440430 11.690796852111816 -0.848499894142151 0.000000000000000
-14.738465309143066 11.786345481872559 -0.851998209953308 0.000000000000000
-14.755607604980469 11.884658813476562 -0.855496048927307 0.000000000000000
-14.802875518798828 12.008879661560059 -0.860839486122131 0.000000000000000
-15.032108306884766 11.036081314086914 -0.734480738639832 0.003921568859369
-3.477423667907715 3.074453353881836 -0.145481541752815 0.000000000000000
-14.843344688415527 12.128421783447266 -0.865813851356506 0.000000000000000
-14.945831298828125 11.050515174865723 -0.732051610946655 0.003921568859369
-11.404690742492676 9.227951049804688 3.845616579055786 0.000000000000000
-14.941245079040527 11.130024909973145 -0.734143912792206 0.003921568859369
-14.928796768188477 11.205080032348633 -0.735585451126099 0.003921568859369
-14.923081398010254 11.277601242065430 -0.737189292907715 0.003921568859369
-14.913079261779785 11.355254173278809 -0.738792181015015 0.003921568859369
-14.842823028564453 11.463419914245605 -0.739257395267487 0.003921568859369
-14.837013244628906 11.541098594665527 -0.741022288799286 0.003921568859369
-6.224863529205322 5.641681194305420 1.478760838508606 0.000000000000000
-14.845295906066895 11.626414299011230 -0.743432700634003 0.003921568859369
-14.870779037475586 11.734603881835938 -0.746971189975739 0.003921568859369
-8.292793273925781 7.770135402679443 2.020934104919434 0.000000000000000
-14.855484008789062 11.797573089599609 -0.748091995716095 0.003921568859369
-14.862471580505371 11.896055221557617 -0.750823616981506 0.003921568859369
-6.070213317871094 5.574723243713379 2.129794120788574 0.000000000000000
-16.918094635009766 16.422534942626953 6.247039794921875 0.003921568859369
-5.382459163665771 5.479283332824707 1.352961063385010 0.000000000000000
-10.620831489562988 10.738347053527832 3.976421117782593 0.000000000000000
-5.153260707855225 5.647193908691406 1.348666548728943 0.000000000000000
-18.394783020019531 23.942039489746094 -0.333207547664642 0.003921568859369
-18.031240463256836 23.967893600463867 -0.330994337797165 0.003921568859369
-17.956897735595703 24.042135238647461 -0.331170618534088 0.003921568859369
-9.739254951477051 10.454309463500977 3.761672496795654 0.000000000000000
-5.233637809753418 5.960642814636230 1.403199791908264 0.000000000000000
-17.926815032958984 24.177707672119141 -0.332200855016708 0.003921568859369
-17.782062530517578 24.163747787475586 -0.331119000911713 0.003921568859369
-17.672069549560547 24.188367843627930 -0.330621629953384 0.003921568859369
-17.517784118652344 24.140989303588867 -0.329180896282196 0.003921568859369
-10.306641578674316 11.492747306823730 4.071702003479004 0.000000000000000
-17.294528961181641 24.742795944213867 -0.333619147539139 0.003921568859369
-18.300077438354492 23.993001937866211 -0.855912089347839 0.003921568859369
-17.722389221191406 24.442417144775391 -0.856579422950745 0.003921568859369
-17.381347656250000 24.678930282592773 -0.856956481933594 0.003921568859369
-18.493381500244141 23.896549224853516 -0.682627558708191 0.003921568859369
-15.757916450500488 25.227825164794922 0.358501434326172 0.003921568859369
-17.121917724609375 24.855276107788086 -0.159268647432327 0.003921568859369
-18.335670471191406 24.035072326660156 -0.682986676692963 0.003921568859369
-18.148488998413086 24.133888244628906 -0.682248592376709 0.003921568859369
-15.107570648193359 24.936710357666016 0.351468831300735 0.003921568859369
-14.091415405273438 23.778974533081055 0.333266705274582 0.003921568859369
-3.766787528991699 4.792184829711914 1.575711965560913 0.000000000000000
-14.020076751708984 24.443960189819336 0.339590072631836 0.003921568859369
-17.115423202514648 24.849395751953125 -0.682403445243835 0.003921568859369
-13.425526618957520 24.367858886718750 -0.308082997798920 0.003921568859369
-13.729042053222656 24.935512542724609 0.343089312314987 0.003921568859369
-13.407842636108398 24.540409088134766 -0.309706479310989 0.003921568859369
-13.619436264038086 24.939504623413086 0.342508912086487 0.003921568859369
-13.417035102844238 24.766233444213867 -0.312005430459976 0.003921568859369
-14.055343627929688 25.980308532714844 0.356025546789169 0.003921568859369
-17.943918228149414 24.211252212524414 0.188324227929115 0.003921568859369
-15.094141006469727 25.336719512939453 2.405816078186035 0.003921568859369
-13.334077835083008 25.264205932617188 -0.316877543926239 0.003921568859369
-13.904920578002930 26.378112792968750 0.359200567007065 0.003921568859369
-13.187836647033691 25.195140838623047 -0.315440058708191 0.003921568859369
-13.583836555480957 26.200584411621094 -0.327560931444168 0.003921568859369
-13.663825035095215 26.590024948120117 -0.331889539957047 0.003921568859369
-12.609984397888184 24.684036254882812 -0.307389289140701 0.003921568859369
-17.453420639038086 24.606496810913086 0.188337996602058 0.003921568859369
-13.133466720581055 25.741197586059570 0.348172456026077 0.003921568859369
-12.241741180419922 24.152080535888672 -0.300186276435852 0.003921568859369
-14.523144721984863 25.561395645141602 -0.155798614025116 0.003921568859369
-15.748752593994141 25.025026321411133 1.724279880523682 0.003921568859369
-12.432465553283691 24.980024337768555 -0.309519827365875 0.003921568859369
-13.518623352050781 24.141681671142578 2.257021427154541 0.003921568859369
-12.426261901855469 25.191532135009766 -0.311641812324524 0.003921568859369
-14.336349487304688 25.859409332275391 -0.156741559505463 0.003921568859369
-12.103796005249023 25.210769653320312 0.336812138557434 0.003921568859369
-13.152748107910156 24.287330627441406 2.253476381301880 0.003921568859369
-12.574522018432617 26.957435607910156 0.358225822448730 0.003921568859369
-11.989656448364258 25.905122756958008 -0.317222356796265 0.003921568859369
-13.820126533508301 26.445590972900391 -0.158587917685509 0.003921568859369
-13.079743385314941 24.989316940307617 2.301849842071533 0.003921568859369
-11.960836410522461 26.084417343139648 -0.318941444158554 0.003921568859369
-12.921281814575195 24.892103195190430 -0.148846894502640 0.003921568859369
-11.754533767700195 25.619964599609375 0.339522540569305 0.003921568859369
-12.970894813537598 24.990789413452148 2.297922134399414 0.003921568859369
-13.267179489135742 25.802137374877930 -0.825913131237030 0.003921568859369
-13.569512367248535 26.407644271850586 2.423792123794556 0.003921568859369
-14.732293128967285 25.742958068847656 -0.672082364559174 0.003921568859369
-11.924653053283691 26.754920959472656 0.352812469005585 0.003921568859369
-14.317998886108398 25.206714630126953 3.550690650939941 0.003921568859369
-13.598276138305664 24.103551864624023 1.614207386970520 0.003921568859369
-1.494331359863281 2.053783655166626 0.058064050972462 0.000000000000000
-15.700174331665039 25.355638504028320 0.186082243919373 0.003921568859369
-11.462949752807617 26.725282669067383 -0.323728948831558 0.003921568859369
-14.254900932312012 25.957725524902344 -0.671550214290619 0.003921568859369
-14.100976943969727 25.876049041748047 0.695149183273315 0.003921568859369
-13.343694686889648 24.449247360229492 1.624930620193481 0.003921568859369
-14.174370765686035 26.014226913452148 -0.671828567981720 0.003921568859369
-13.589676856994629 25.124076843261719 0.673782944679260 0.003921568859369
-12.789084434509277 26.936273574829102 -0.158902794122696 0.003921568859369
-12.159945487976074 25.572290420532227 2.311987876892090 0.003921568859369
-12.606882095336914 26.786643981933594 -0.157754153013229 0.003921568859369
-12.565979003906250 26.697486877441406 2.409729242324829 0.003921568859369
-11.967644691467285 25.623773574829102 -0.805678248405457 0.003921568859369
-13.532944679260254 25.665157318115234 3.555275440216064 0.003921568859369
-13.118046760559082 24.855937957763672 -0.637135088443756 0.003921568859369
-11.950125694274902 25.824634552001953 -0.810740113258362 0.003921568859369
-9.692193984985352 23.846940994262695 -0.286189943552017 0.003921568859369
-13.823098182678223 26.457544326782227 0.704296767711639 0.003921568859369
-13.371288299560547 25.569408416748047 3.535713672637939 0.003921568859369
-10.438928604125977 26.024188995361328 -0.312141597270966 0.003921568859369
-12.899469375610352 24.856033325195312 3.431077241897583 0.003921568859369
-13.655323028564453 26.354808807373047 -0.673319578170776 0.003921568859369
-11.914236068725586 26.233703613281250 -0.153486862778664 0.003921568859369
-12.881815910339355 25.037773132324219 0.664305448532104 0.003921568859369
-12.780678749084473 24.835708618164062 3.422271966934204 0.003921568859369
-12.267487525939941 27.036705017089844 2.425068855285645 0.003921568859369
-13.053716659545898 25.381570816040039 -0.647222518920898 0.003921568859369
-9.386676788330078 23.797416687011719 -0.284452050924301 0.003921568859369
-12.600498199462891 24.690347671508789 3.396353721618652 0.003921568859369
-13.199386596679688 25.898687362670898 -0.659316539764404 0.003921568859369
-10.240283966064453 26.326717376708984 -0.314557403326035 0.003921568859369
-13.070114135742188 25.864356994628906 -0.657306551933289 0.003921568859369
-9.339829444885254 24.182115554809570 0.312238872051239 0.003921568859369
-12.539006233215332 25.003610610961914 3.427635908126831 0.003921568859369
-13.014747619628906 25.980453491210938 -0.659143269062042 0.003921568859369
-10.063727378845215 26.439785003662109 0.340422540903091 0.003921568859369
-12.322380065917969 24.796222686767578 1.615959048271179 0.003921568859369
-12.337491035461426 24.827760696411133 3.397540569305420 0.003921568859369
-14.207624435424805 25.659406661987305 0.182605296373367 0.003921568859369
-13.143018722534180 26.735012054443359 0.702847957611084 0.003921568859369
-12.320967674255371 25.016269683837891 3.417580127716064 0.003921568859369
-5.290998458862305 11.759105682373047 2.332463979721069 0.000000000000000
-13.674398422241211 24.878850936889648 0.176798313856125 0.003921568859369
-11.649493217468262 27.182613372802734 -0.158015191555023 0.003921568859369
-12.450098037719727 25.981784820556641 1.681922435760498 0.003921568859369
-12.766862869262695 26.662702560424805 3.624369621276855 0.003921568859369
-11.079126358032227 26.565322875976562 -0.820972740650177 0.003921568859369
-12.424259185791016 26.140489578247070 0.682888031005859 0.003921568859369
-12.448449134826660 26.193307876586914 3.555428981781006 0.003921568859369
-6.934459686279297 14.247263908386230 4.213502883911133 0.003921568859369
-10.042596817016602 24.253232955932617 2.143929719924927 0.003921568859369
-12.375292778015137 26.780551910400391 3.617500305175781 0.003921568859369
-10.751768112182617 26.566389083862305 2.341672182083130 0.003921568859369
-12.225461006164551 26.682760238647461 0.692594826221466 0.003921568859369
-8.288097381591797 24.165416717529297 -0.284633308649063 0.003921568859369
-13.379632949829102 26.040147781372070 0.182294592261314 0.003921568859369
-11.573182106018066 25.467121124267578 0.660085797309875 0.003921568859369
-4.398871421813965 10.544281959533691 2.065732717514038 0.000000000000000
-12.113207817077637 26.948602676391602 3.623346805572510 0.003921568859369
-11.601679801940918 26.538398742675781 1.691408753395081 0.003921568859369
-11.760271072387695 27.189130783081055 0.698979377746582 0.003921568859369
-11.025493621826172 25.676387786865234 -0.634872019290924 0.003921568859369
-11.297853469848633 26.593187332153320 0.681774497032166 0.003921568859369
-7.059030055999756 24.446712493896484 -0.284379214048386 0.003921568859369
-10.189425468444824 25.944929122924805 -0.633929133415222 0.003921568859369
-6.634415149688721 24.220546722412109 0.301994323730469 0.003921568859369
-6.492460727691650 24.698478698730469 -0.285585612058640 0.003921568859369
-2.192201852798462 6.583597183227539 1.252236604690552 0.000000000000000
-8.118178367614746 24.256820678710938 -0.582141399383545 0.003921568859369
-6.641494750976562 24.581378936767578 -0.137015804648399 0.003921568859369
-1.840167164802551 5.003320217132568 1.404761314392090 0.000000000000000
-5.069632530212402 26.417913436889648 -0.302069753408432 0.003921568859369
-4.294064521789551 22.103187561035156 0.270545691251755 0.003921568859369
-2.136903762817383 7.869600772857666 -0.654619693756104 0.000000000000000
-1.276123762130737 4.201635837554932 -0.348238557577133 0.000000000000000
-5.532602787017822 23.702814102172852 -0.696545600891113 0.003921568859369
-4.799509525299072 27.052873611450195 0.329788476228714 0.003921568859369
-5.945759773254395 26.016738891601562 2.183571338653564 0.003921568859369
-5.576946735382080 19.880798339843750 5.519510269165039 0.003921568859369
-5.353982448577881 25.394363403320312 -0.743244826793671 0.003921568859369
-3.825815916061401 24.353237152099609 -0.277104854583740 0.003921568859369
-4.717932701110840 14.768548011779785 -0.980784654617310 0.000000000000000
-4.759420394897461 22.861188888549805 4.255883216857910 0.003921568859369
-7.395175933837891 24.065866470336914 0.155800834298134 0.003921568859369
-4.646867752075195 14.727152824401855 -0.976972401142120 0.000000000000000
-3.241358995437622 12.109178543090820 3.344737768173218 0.000000000000000
-4.582070827484131 14.696189880371094 -0.973923563957214 0.000000000000000
-5.579798698425293 22.112663269042969 2.800404787063599 0.003921568859369
-4.515697002410889 14.648876190185547 -0.969856083393097 0.000000000000000
-1.245297670364380 3.294454813003540 -0.216281905770302 0.000000000000000
-4.399350166320801 14.627884864807129 -0.966558992862701 0.000000000000000
-4.348265171051025 14.642062187194824 -0.966565370559692 0.000000000000000
-4.642688751220703 25.576204299926758 -0.745109617710114 0.003921568859369
-4.292934417724609 14.640651702880859 -0.965553462505341 0.000000000000000
-5.814724445343018 25.005987167358398 -0.585886955261230 0.003921568859369
-3.253106832504272 25.379510879516602 -0.287933707237244 0.003921568859369
-4.236642837524414 14.635177612304688 -0.964286983013153 0.000000000000000
-4.187566757202148 14.656505584716797 -0.964802682399750 0.000000000000000
-3.126451730728149 25.864645004272461 -0.293277293443680 0.003921568859369
-4.135368347167969 14.666081428527832 -0.964554667472839 0.000000000000000
-3.986177682876587 23.677703857421875 -0.688148021697998 0.003921568859369
-3.899247407913208 23.118000030517578 -0.126932010054588 0.003921568859369
-4.089695930480957 14.690277099609375 -0.965324759483337 0.000000000000000
-3.794624805450439 23.058471679687500 -0.669975638389587 0.003921568859369
-2.960760354995728 26.118434906005859 -0.296251416206360 0.003921568859369
-4.028732776641846 14.711743354797363 -0.966029286384583 0.000000000000000
-5.471360683441162 25.607772827148438 -0.598152577877045 0.003921568859369
-3.973491668701172 14.709163665771484 -0.965017557144165 0.000000000000000
-3.924977302551270 14.733519554138184 -0.965788245201111 0.000000000000000
-3.881739854812622 14.768724441528320 -0.967322587966919 0.000000000000000
-3.838301897048950 14.803808212280273 -0.968857049942017 0.000000000000000
-3.791323184967041 14.847752571105957 -0.970901489257812 0.000000000000000
-3.746662139892578 14.890953063964844 -0.972945749759674 0.000000000000000
-4.872415542602539 25.343580245971680 -0.589685797691345 0.003921568859369
-3.704413652420044 14.945695877075195 -0.975753962993622 0.000000000000000
-5.424632072448730 22.855772018432617 0.145172178745270 0.003921568859369
-3.676648378372192 15.054275512695312 -0.982126891613007 0.000000000000000
-3.342822551727295 25.415235519409180 -0.735661208629608 0.003921568859369
-3.637763261795044 15.140609741210938 -0.986972928047180 0.000000000000000
-4.774690628051758 26.951354980468750 -0.625762939453125 0.003921568859369
-1.616710305213928 8.938192367553711 2.426023244857788 0.000000000000000
-2.545452117919922 26.702527999877930 2.196930170059204 0.003921568859369
-4.016762733459473 21.939802169799805 0.655954301357269 0.003921568859369
-1.909690380096436 22.941896438598633 4.201766967773438 0.003921568859369
-2.992984294891357 23.259714126586914 -0.536741912364960 0.003921568859369
-2.518390417098999 24.398229598999023 0.578495562076569 0.003921568859369
-2.714938879013062 27.496217727661133 0.651508033275604 0.003921568859369
-2.769632577896118 28.120536804199219 3.475783109664917 0.003921568859369
0.064427733421326 26.355028152465820 -0.298517167568207 0.003921568859369
0.178356349468231 27.665384292602539 -0.313488841056824 0.003921568859369
-1.192445516586304 28.253845214843750 2.316878318786621 0.003921568859369
-2.392839670181274 28.489057540893555 3.516959667205811 0.003921568859369
-1.978457689285278 24.108734130859375 2.975701332092285 0.003921568859369
0.675921559333801 27.825010299682617 -0.315817266702652 0.003921568859369
-1.818622827529907 24.247301101684570 0.573328554630280 0.003921568859369
-2.609712123870850 22.018146514892578 0.651972413063049 0.003921568859369
-0.290650963783264 21.375541687011719 1.752059936523438 0.003921568859369
1.140252113342285 25.738496780395508 -0.292381584644318 0.003921568859369
-2.234974861145020 23.086082458496094 0.682061433792114 0.003921568859369
0.198033511638641 28.066825866699219 -0.154955163598061 0.003921568859369
1.364916920661926 24.899978637695312 0.297746866941452 0.003921568859369
1.629863739013672 27.475959777832031 -0.312859237194061 0.003921568859369
0.307214885950089 28.624916076660156 -0.158100515604019 0.003921568859369
1.655305862426758 26.495649337768555 0.316829115152359 0.003921568859369
1.679554462432861 25.591434478759766 0.306136190891266 0.003921568859369
1.786948084831238 25.811754226684570 0.308821171522141 0.003921568859369
0.478712826967239 24.384504318237305 4.455629825592041 0.003921568859369
-2.014651536941528 27.390853881835938 0.167991042137146 0.003921568859369
2.077605247497559 26.015903472900391 0.311466932296753 0.003921568859369
1.627859950065613 28.857183456420898 -0.160248979926109 0.003921568859369
2.446914434432983 23.595035552978516 0.282979428768158 0.003921568859369
1.173516035079956 21.895065307617188 1.797658920288086 0.003921568859369
0.330416232347488 29.589134216308594 0.696928381919861 0.003921568859369
0.506216406822205 25.156583786010742 1.473007798194885 0.003921568859369
1.925496578216553 24.271711349487305 1.996258139610291 0.003921568859369
3.285956621170044 24.809787750244141 -0.285176843404770 0.003921568859369
3.490398406982422 25.632833480834961 0.308340072631836 0.003921568859369
1.081328392028809 26.086114883422852 0.614870071411133 0.003921568859369
1.025555133819580 24.988023757934570 1.464015960693359 0.003921568859369
1.260795831680298 25.943490982055664 3.198012351989746 0.003921568859369
1.393059730529785 25.190811157226562 0.594235002994537 0.003921568859369
2.554336786270142 24.488960266113281 2.018724441528320 0.003921568859369
0.288266122341156 27.505430221557617 0.167411729693413 0.003921568859369
1.455206155776978 24.870370864868164 1.458559513092041 0.003921568859369
2.929322957992554 26.973896026611328 2.224238872528076 0.003921568859369
2.964750528335571 26.444311141967773 -0.148058518767357 0.003921568859369
3.115592479705811 26.935237884521484 2.222893238067627 0.003921568859369
2.861109495162964 24.179721832275391 -0.135402604937553 0.003921568859369
3.153288125991821 26.448236465454102 2.183723688125610 0.003921568859369
0.772153913974762 27.467721939086914 0.167171776294708 0.003921568859369
1.930436611175537 24.276031494140625 1.426012754440308 0.003921568859369
3.242573976516724 25.064710617065430 2.072420835494995 0.003921568859369
3.393296241760254 25.492361068725586 4.701389312744141 0.003921568859369
1.307122111320496 26.597814559936523 0.161713525652885 0.003921568859369
5.884151458740234 29.038639068603516 0.352023124694824 0.003921568859369
1.602188944816589 26.959915161132812 0.163943529129028 0.003921568859369
4.111207008361816 25.973464965820312 2.156171798706055 0.003921568859369
1.711684107780457 25.841213226318359 0.157244294881821 0.003921568859369
2.910072326660156 25.220394134521484 0.597705423831940 0.003921568859369
4.507339954376221 26.620754241943359 4.936750888824463 0.003921568859369
3.379951000213623 27.462184906005859 0.651228249073029 0.003921568859369
5.009845733642578 28.859813690185547 2.401362180709839 0.003921568859369
3.173286914825439 25.114772796630859 0.595710337162018 0.003921568859369
0.333482205867767 4.048252582550049 0.002120006363839 0.003921568859369
3.421473503112793 25.664625167846680 1.515764474868774 0.003921568859369
4.607254981994629 25.124420166015625 2.094464302062988 0.003921568859369
3.331933259963989 24.426364898681641 -0.568642497062683 0.003921568859369
5.476369380950928 28.053207397460938 2.343230724334717 0.003921568859369
4.381518363952637 21.865242004394531 4.079586982727051 0.003921568859369
4.477634429931641 21.941350936889648 4.096804141998291 0.003921568859369
4.746944904327393 22.450500488281250 4.198022365570068 0.003921568859369
4.181122779846191 24.719667434692383 1.467740654945374 0.003921568859369
4.655487060546875 26.838533401489258 3.355220556259155 0.003921568859369
5.169731140136719 28.537191390991211 1.697387695312500 0.003921568859369
6.587424755096436 28.364328384399414 2.387083053588867 0.003921568859369
5.327442646026611 28.820137023925781 1.715321779251099 0.003921568859369
6.298451900482178 26.748451232910156 2.253050327301025 0.003921568859369
6.723161697387695 28.044000625610352 2.364211320877075 0.003921568859369
5.636027812957764 22.998086929321289 1.942262411117554 0.003921568859369
5.732237815856934 27.776802062988281 0.666795313358307 0.003921568859369
4.899287700653076 23.486751556396484 2.956722497940063 0.003921568859369
6.012247085571289 22.460205078125000 4.254014015197754 0.003921568859369
6.005784988403320 21.560503005981445 -0.126184940338135 0.003921568859369
5.317853450775146 23.414218902587891 2.958833932876587 0.003921568859369
5.384881973266602 23.330194473266602 6.433757781982422 0.003921568859369
6.595944881439209 23.003185272216797 -0.693769037723541 0.003921568859369
6.270154476165771 21.900127410888672 1.868799328804016 0.003921568859369
7.321923732757568 25.129343032836914 4.788088798522949 0.003921568859369
7.518152236938477 21.604722976684570 0.271101653575897 0.003921568859369
6.064819335937500 29.271450042724609 0.179428234696388 0.003921568859369
6.141465663909912 29.181264877319336 0.178978815674782 0.003921568859369
5.791714668273926 26.673711776733398 0.163905844092369 0.003921568859369
6.252023220062256 22.397605895996094 0.546528041362762 0.003921568859369
7.293835639953613 21.924034118652344 1.895405411720276 0.003921568859369
8.122753143310547 24.346702575683594 4.695715427398682 0.003921568859369
9.346937179565430 27.631420135498047 -0.165386304259300 0.003921568859369
7.385741233825684 26.007654190063477 0.635020673274994 0.003921568859369
7.920662879943848 23.500741958618164 4.537749767303467 0.003921568859369
0.940028309822083 3.863206148147583 0.236293137073517 0.000000000000000
7.815442085266113 22.434291839599609 1.948779582977295 0.003921568859369
7.945678234100342 22.042549133300781 1.921773433685303 0.003921568859369
6.775581836700439 21.881502151489258 1.341140270233154 0.003921568859369
6.560688972473145 21.208059310913086 -0.514302253723145 0.003921568859369
7.556613445281982 23.771999359130859 3.074039936065674 0.003921568859369
7.179369449615479 22.612165451049805 6.376928329467773 0.003921568859369
8.915743827819824 27.616052627563477 0.681028366088867 0.003921568859369
8.259227752685547 25.620647430419922 7.233445167541504 0.003921568859369
8.236166954040527 25.258804321289062 0.623687386512756 0.003921568859369
7.937639713287354 24.359598159790039 6.885424613952637 0.003921568859369
8.242436408996582 24.986738204956055 0.617681860923767 0.003921568859369
9.188819885253906 25.125488281250000 7.189463138580322 0.003921568859369
6.993177413940430 22.294733047485352 0.685169696807861 0.003921568859369
10.463861465454102 23.864793777465820 2.136536598205566 0.003921568859369
10.920717239379883 27.402370452880859 0.691374003887177 0.003921568859369
10.496569633483887 25.332118988037109 0.642811536788940 0.003921568859369
11.849028587341309 24.824539184570312 -0.157476931810379 0.003921568859369
10.162740707397461 21.340383529663086 4.326070785522461 0.003921568859369
10.008690834045410 23.709260940551758 1.505763769149780 0.003921568859369
11.575599670410156 27.095293045043945 3.629611015319824 0.003921568859369
11.575543403625488 23.623323440551758 4.813360691070557 0.003921568859369
10.533629417419434 21.156742095947266 4.325973033905029 0.003921568859369
11.972359657287598 26.972040176391602 3.635368347167969 0.003921568859369
10.577009201049805 21.059654235839844 4.313751220703125 0.003921568859369
10.516303062438965 20.754280090332031 1.907748341560364 0.003921568859369
12.382888793945312 26.625452041625977 3.616953372955322 0.003921568859369
12.013679504394531 22.491893768310547 4.665791511535645 0.003921568859369
11.387005805969238 21.158966064453125 1.970144391059875 0.003921568859369
11.468482017517090 21.132482528686523 1.971427202224731 0.003921568859369
11.836273193359375 21.621582031250000 2.020908832550049 0.003921568859369
12.739207267761230 22.870592117309570 2.145922183990479 0.003921568859369
13.371273994445801 23.989515304565430 5.024524688720703 0.003921568859369
12.922535896301270 22.991914749145508 2.161309003829956 0.003921568859369
12.917136192321777 22.981176376342773 4.822612285614014 0.003921568859369
11.538032531738281 22.916225433349609 6.896036148071289 0.003921568859369
13.425995826721191 23.682985305786133 4.979756355285645 0.003921568859369
11.811095237731934 23.253700256347656 0.610697984695435 0.003921568859369
11.195187568664551 21.867677688598633 3.027316808700562 0.003921568859369
13.303720474243164 23.094610214233398 4.875654220581055 0.003921568859369
11.666853904724121 22.409782409667969 6.791372299194336 0.003921568859369
11.464535713195801 21.833749771118164 3.038963079452515 0.003921568859369
13.456472396850586 22.814630508422852 2.170624732971191 0.003921568859369
13.107320785522461 22.228254318237305 4.721299171447754 0.003921568859369
13.187052726745605 22.194269180297852 4.723432064056396 0.003921568859369
12.338809967041016 23.097295761108398 0.613092124462128 0.003921568859369
11.616506576538086 21.580497741699219 3.020372867584229 0.003921568859369
14.323437690734863 23.515192031860352 2.256172418594360 0.003921568859369
12.671542167663574 20.831285476684570 4.462154388427734 0.003921568859369
12.591646194458008 22.986167907714844 0.613588273525238 0.003921568859369
13.200790405273438 23.861642837524414 1.594154357910156 0.003921568859369
