# This PCD file was generated using the MATLAB® pcwrite function
# from Computer Vision Toolbox®.
# .PCD v.7 - Point Cloud Data file format
VERSION .7
FIELDS x y z intensity
SIZE 8 8 8 8
TYPE F F F F
COUNT 1 1 1 1
WIDTH 644
HEIGHT 1
VIEWPOINT 0 0 0 1 0 0 0
POINTS 644
DATA ascii
-19.874916076660156 3.329716920852661 -0.454098761081696 0.000000000000000
-20.299875259399414 3.474557638168335 -0.931344985961914 0.003921568859369
-19.123134613037109 4.210778713226318 -0.994078159332275 0.003921568859369
-21.942148208618164 2.695576429367065 -0.877092838287354 0.003921568859369
-8.273047447204590 1.354181647300720 -0.178850099444389 0.000000000000000
-21.396593093872070 3.742881298065186 -0.983878731727600 0.003921568859369
-19.186161041259766 4.293468952178955 -0.998197317123413 0.003921568859369
-21.322235107421875 2.690901279449463 -0.851837098598480 0.003921568859369
-19.784278869628906 3.452344417572021 -0.452361673116684 0.000000000000000
-19.094030380249023 4.336939811706543 -0.993937611579895 0.003921568859369
-20.738748550415039 2.683173656463623 -0.828061044216156 0.003921568859369
-12.720066070556641 2.840065717697144 2.277693033218384 0.000000000000000
-19.827783584594727 3.526123762130737 -0.453600347042084 0.000000000000000
-7.305343151092529 1.255039215087891 0.003252693451941 0.000000000000000
-19.098205566406250 4.406187057495117 -0.994913220405579 0.003921568859369
-20.277835845947266 2.691811561584473 -0.809352099895477 0.003921568859369
-19.866453170776367 3.602862596511841 -0.454741358757019 0.000000000000000
-19.955640792846680 2.716707944869995 -0.796366453170776 0.003921568859369
-19.822320938110352 3.664202451705933 -0.453919619321823 0.000000000000000
-3.376396417617798 0.684567093849182 0.121390722692013 0.000000000000000
-19.471321105957031 2.716042518615723 -0.776683270931244 0.003921568859369
-19.762296676635742 3.722221612930298 -0.452724456787109 0.000000000000000
-9.810163497924805 2.783187389373779 -0.108210489153862 0.000000000000000
-20.133268356323242 3.865649461746216 -0.926605820655823 0.000000000000000
-18.979341506958008 2.710868597030640 -0.756676733493805 0.003921568859369
-2.552575349807739 0.387770801782608 0.544178009033203 0.000000000000000
-19.780563354492188 3.795386075973511 -0.453397929668427 0.000000000000000
-15.668498039245605 2.275410652160645 0.446096301078796 0.000000000000000
-19.794631958007812 3.867934465408325 -0.453977674245834 0.000000000000000
-17.981559753417969 4.460391521453857 3.281565666198730 0.003921568859369
-19.854066848754883 3.951809883117676 -0.455862432718277 0.000000000000000
-16.321609497070312 4.096694946289062 0.287728160619736 0.003921568859369
-11.960299491882324 2.373043298721313 1.432316899299622 0.000000000000000
-21.526391983032227 3.312348842620850 -0.863461196422577 0.003921568859369
-6.749720573425293 1.287692666053772 -0.143571585416794 0.000000000000000
-13.559318542480469 3.425521135330200 1.100774526596069 0.000000000000000
-20.279788970947266 3.185770988464355 -0.812256276607513 0.003921568859369
-19.861196517944336 4.093859672546387 -0.456553578376770 0.000000000000000
-20.280368804931641 3.256522655487061 -0.812671005725861 0.003921568859369
-19.913228988647461 4.175538063049316 -0.458065658807755 0.000000000000000
-15.260602951049805 4.767994403839111 -0.175327479839325 0.000000000000000
-15.866778373718262 4.150336742401123 -0.088429123163223 0.000000000000000
-20.308282852172852 3.331981182098389 -0.814228773117065 0.003921568859369
-19.925868988037109 4.249057292938232 -0.458644002676010 0.000000000000000
-10.236989021301270 2.658616781234741 -0.054460823535919 0.000000000000000
-20.316207885742188 4.407631397247314 -0.940053999423981 0.003921568859369
-22.234262466430664 3.735141277313232 -0.894493699073792 0.003921568859369
-27.127285003662109 6.018970489501953 0.636101663112640 0.003921568859369
-20.231336593627930 4.457201004028320 -0.936626732349396 0.003921568859369
-22.233560562133789 3.809058904647827 -0.894904732704163 0.003921568859369
-27.148967742919922 6.121524333953857 0.637225985527039 0.003921568859369
-2.945456981658936 0.669574320316315 0.104731075465679 0.000000000000000
-19.312337875366211 4.317645549774170 -0.893317639827728 0.000000000000000
-22.216194152832031 3.883964776992798 -0.894658446311951 0.003921568859369
-27.145805358886719 6.223485469818115 0.637798666954041 0.003921568859369
-19.249694824218750 4.375397205352783 -0.891005158424377 0.000000000000000
-22.166423797607422 3.956816434860229 -0.893102049827576 0.003921568859369
-27.149450302124023 6.312507629394531 0.638448894023895 0.003921568859369
-19.189201354980469 4.422991752624512 -0.888703882694244 0.000000000000000
-21.407394409179688 3.885402679443359 -0.862012803554535 0.003921568859369
-27.137790679931641 6.412712574005127 0.638836264610291 0.003921568859369
-19.273843765258789 4.515610218048096 -0.893471598625183 0.000000000000000
-21.318407058715820 3.947566270828247 -0.858827650547028 0.003921568859369
-9.033608436584473 2.483787775039673 1.613318681716919 0.000000000000000
-27.095806121826172 6.500669479370117 0.638475358486176 0.003921568859369
-19.339452743530273 4.600874423980713 -0.897310674190521 0.000000000000000
-8.329290390014648 2.307380676269531 0.665376842021942 0.000000000000000
-20.562944412231445 3.876149892807007 -0.827902317047119 0.003921568859369
-27.145240783691406 6.613439083099365 0.640531837940216 0.003921568859369
-19.290805816650391 4.660539627075195 -0.896117866039276 0.000000000000000
-20.304832458496094 3.899393558502197 -0.818031907081604 0.003921568859369
-4.351210117340088 0.955714225769043 0.094917178153992 0.000000000000000
-20.216646194458008 3.953334331512451 -0.814855515956879 0.003921568859369
-20.136859893798828 4.004889965057373 -0.812009811401367 0.003921568859369
-20.196382522583008 4.092128276824951 -0.815030217170715 0.003921568859369
-9.513207435607910 2.832662343978882 -0.050367936491966 0.000000000000000
-9.274133682250977 1.844419479370117 0.262651175260544 0.000000000000000
-8.856229782104492 2.624469518661499 0.156194821000099 0.000000000000000
-16.237695693969727 3.321074247360229 -0.650361061096191 0.003921568859369
-9.630784988403320 1.954766750335693 0.273481845855713 0.000000000000000
-9.860199928283691 2.485269069671631 0.564700126647949 0.000000000000000
-20.417354583740234 4.283098697662354 -0.825317621231079 0.003921568859369
-20.371044158935547 4.345556259155273 -0.823935925960541 0.003921568859369
-3.702930688858032 0.861409604549408 0.003913358319551 0.000000000000000
-10.421566009521484 2.193923711776733 0.297466605901718 0.000000000000000
-18.697959899902344 5.944351196289062 1.563372731208801 0.000000000000000
-20.357288360595703 4.407784461975098 -0.823866844177246 0.003921568859369
-19.435941696166992 4.278723239898682 -0.785950720310211 0.003921568859369
-19.335199356079102 4.324857234954834 -0.782290220260620 0.003921568859369
-10.391912460327148 3.378235101699829 0.853669047355652 0.000000000000000
-12.928686141967773 3.121763229370117 0.375184953212738 0.000000000000000
-12.002626419067383 3.533997058868408 1.476413130760193 0.000000000000000
-3.925194740295410 1.066047668457031 0.004059795290232 0.000000000000000
-8.383638381958008 2.060925722122192 0.239636600017548 0.000000000000000
-11.390439033508301 2.891472578048706 0.068974830210209 0.000000000000000
-10.556763648986816 3.748538255691528 0.191486552357674 0.000000000000000
-9.512057304382324 2.864827394485474 1.160083174705505 0.000000000000000
-3.635053396224976 0.833112239837646 0.022501120343804 0.000000000000000
-18.009635925292969 7.759059906005859 0.229337498545647 0.003921568859369
-12.546846389770508 4.640557289123535 2.351370096206665 0.000000000000000
-4.485717773437500 1.538323163986206 -0.118725225329399 0.000000000000000
-16.889183044433594 5.485826015472412 0.004812842234969 0.003921568859369
-8.246187210083008 3.451761484146118 0.103514596819878 0.000000000000000
-13.703335762023926 5.140914440155029 2.581140279769897 0.000000000000000
-13.133779525756836 4.272558689117432 3.569121599197388 0.000000000000000
-7.413196563720703 2.739500284194946 0.133984655141830 0.000000000000000
-10.061566352844238 3.794954776763916 0.842158317565918 0.000000000000000
-7.996248245239258 2.156729459762573 -0.312392383813858 0.000000000000000
-15.366885185241699 5.971603393554688 2.920876979827881 0.003921568859369
-7.484046936035156 2.824101448059082 1.372343182563782 0.000000000000000
-6.206581115722656 2.659589290618896 -0.067876860499382 0.000000000000000
-9.659575462341309 3.748722791671753 -0.052177231758833 0.000000000000000
-12.883047103881836 4.428977966308594 1.615527868270874 0.000000000000000
-6.821060180664062 2.655884504318237 1.248959183692932 0.000000000000000
-16.057357788085938 6.627665996551514 3.083505630493164 0.003921568859369
-8.821312904357910 2.679895162582397 0.054895453155041 0.000000000000000
-3.828899860382080 1.641538739204407 0.047527473419905 0.000000000000000
-7.864529609680176 3.657902956008911 -0.280445039272308 0.000000000000000
-5.930944442749023 2.396496772766113 -0.029510945081711 0.000000000000000
-18.685422897338867 8.361889839172363 -0.108914077281952 0.000000000000000
-13.244256973266602 4.559077262878418 -0.230888456106186 0.000000000000000
-23.265478134155273 10.957517623901367 -0.725971341133118 0.003921568859369
-7.998095989227295 2.765692710876465 -0.134441956877708 0.000000000000000
-23.014942169189453 10.933648109436035 -0.719056248664856 0.003921568859369
-22.617681503295898 10.835946083068848 -0.707403719425201 0.003921568859369
-22.570531845092773 10.912930488586426 -0.707311332225800 0.003921568859369
-22.485795974731445 10.966617584228516 -0.705717384815216 0.003921568859369
-15.070206642150879 6.395101547241211 0.006299864500761 0.000000000000000
-22.136709213256836 10.886735916137695 -0.695573270320892 0.003921568859369
-22.018484115600586 10.916723251342773 -0.692830443382263 0.003921568859369
-5.757775783538818 2.063406705856323 0.037284534424543 0.000000000000000
-10.937625885009766 4.360537528991699 0.071058362722397 0.000000000000000
-3.885494709014893 1.604706645011902 0.091448627412319 0.000000000000000
-23.204086303710938 10.927226066589355 -0.577344357967377 0.003921568859369
-7.463358402252197 3.109964370727539 -0.127852499485016 0.000000000000000
-21.629514694213867 10.998622894287109 -0.544979155063629 0.003921568859369
-21.697187423706055 11.128073692321777 -0.547655761241913 0.003921568859369
-21.764217376708984 11.258129119873047 -0.550331592559814 0.003921568859369
-21.740438461303711 11.345384597778320 -0.550698757171631 0.003921568859369
-25.474355697631836 15.065589904785156 -0.836616873741150 0.003921568859369
-21.741277694702148 11.436610221862793 -0.551815688610077 0.003921568859369
-6.038503170013428 2.664320468902588 -0.102204687893391 0.000000000000000
-25.350639343261719 15.115468025207520 -0.834200799465179 0.003921568859369
-21.737857818603516 11.535390853881836 -0.552735209465027 0.003921568859369
-25.178419113159180 15.128966331481934 -0.830062806606293 0.003921568859369
-25.043821334838867 15.164571762084961 -0.827192902565002 0.003921568859369
-21.555284500122070 11.627300262451172 -0.549886465072632 0.003921568859369
-24.933032989501953 15.214220046997070 -0.825129926204681 0.003921568859369
-21.884887695312500 11.906972885131836 -0.559556365013123 0.003921568859369
-24.828971862792969 15.267529487609863 -0.823297977447510 0.003921568859369
-24.775526046752930 15.352360725402832 -0.823193550109863 0.003921568859369
-21.613868713378906 12.037651062011719 -0.555338144302368 0.003921568859369
-6.682958126068115 3.442991018295288 -0.282984405755997 0.000000000000000
-8.513133049011230 6.615946769714355 0.129634961485863 0.000000000000000
-14.869673728942871 8.674977302551270 -0.675803303718567 0.003921568859369
-3.106112957000732 1.642527818679810 -0.121295683085918 0.000000000000000
-3.208477020263672 1.719992399215698 -0.126455888152122 0.000000000000000
-6.372358322143555 4.550092220306396 2.004004478454590 0.000000000000000
-15.893397331237793 13.242144584655762 3.721097946166992 0.003921568859369
-10.773858070373535 8.066358566284180 3.517863273620605 0.000000000000000
-11.578697204589844 9.814789772033691 2.715059518814087 0.000000000000000
-5.693990707397461 4.848064899444580 1.308249831199646 0.000000000000000
-7.042431831359863 5.572125434875488 2.320626258850098 0.000000000000000
-4.783733844757080 4.071877479553223 1.091032028198242 0.000000000000000
-7.219315528869629 6.276408672332764 2.483844041824341 0.000000000000000
-10.875389099121094 10.814311027526855 2.752178668975830 0.000000000000000
-1.854271769523621 1.340638995170593 0.526728868484497 0.000000000000000
-7.956760883331299 7.894397258758545 1.997371792793274 0.000000000000000
-2.870306730270386 2.582950592041016 0.652387499809265 0.000000000000000
-7.948225975036621 7.514352798461914 2.857614517211914 0.000000000000000
-13.737937927246094 13.589361190795898 5.110843181610107 0.003921568859369
-18.300270080566406 23.744073867797852 0.369163751602173 0.003921568859369
-8.072226524353027 8.317385673522949 3.038446187973022 0.000000000000000
-7.687497138977051 10.220300674438477 -0.717900454998016 0.000000000000000
-5.182739734649658 6.743539810180664 -0.471213310956955 0.000000000000000
-3.310430049896240 4.193608283996582 -0.170683026313782 0.000000000000000
-9.951255798339844 14.355730056762695 -0.988009870052338 0.003921568859369
-17.728548049926758 24.017021179199219 2.440456628799438 0.003921568859369
-17.662282943725586 24.084245681762695 2.441844701766968 0.003921568859369
-16.455415725708008 25.271888732910156 0.373387008905411 0.003921568859369
-17.615482330322266 24.376697540283203 2.459401845932007 0.003921568859369
-9.550366401672363 14.518692016601562 -0.983536779880524 0.003921568859369
-10.648282051086426 14.625295639038086 -0.920199394226074 0.003921568859369
-17.497837066650391 24.589946746826172 -0.150456324219704 0.003921568859369
-9.472122192382812 14.506485939025879 -0.980504572391510 0.003921568859369
-10.537899017333984 14.575658798217773 -0.914776027202606 0.003921568859369
-9.413010597229004 14.524457931518555 -0.979540646076202 0.003921568859369
-10.464276313781738 14.578042984008789 -0.912660360336304 0.003921568859369
-16.846691131591797 24.008939743041992 -0.145928442478180 0.003921568859369
-16.051641464233398 25.428819656372070 0.372421354055405 0.003921568859369
-9.339232444763184 14.518390655517578 -0.976968646049500 0.003921568859369
-10.386240959167480 14.573508262634277 -0.910131871700287 0.003921568859369
-9.261452674865723 14.505163192749023 -0.973937630653381 0.003921568859369
-10.326327323913574 14.595031738281250 -0.909256994724274 0.003921568859369
-9.206621170043945 14.529149055480957 -0.973434031009674 0.003921568859369
-10.257442474365234 14.603072166442871 -0.907555818557739 0.003921568859369
-16.957019805908203 24.721582412719727 -0.149041518568993 0.003921568859369
-9.129117012023926 14.515273094177246 -0.970403790473938 0.003921568859369
-10.179743766784668 14.597526550292969 -0.905028283596039 0.003921568859369
-9.070207595825195 14.531906127929688 -0.969441235065460 0.003921568859369
-10.104404449462891 14.594947814941406 -0.902707815170288 0.003921568859369
-9.017394065856934 14.558617591857910 -0.969168007373810 0.003921568859369
-10.033610343933105 14.598690032958984 -0.900801002979279 0.003921568859369
-8.962478637695312 14.581690788269043 -0.968665301799774 0.003921568859369
-9.956346511840820 14.592085838317871 -0.898274660110474 0.003921568859369
-16.621093750000000 24.957471847534180 -0.148787379264832 0.003921568859369
-15.450246810913086 25.835380554199219 0.373451292514801 0.003921568859369
-8.897996902465820 14.582373619079590 -0.966786921024323 0.003921568859369
-9.888312339782715 14.593521118164062 -0.896370887756348 0.003921568859369
-16.603057861328125 24.926052093505859 2.451113224029541 0.003921568859369
-8.847031593322754 14.611925125122070 -0.966743946075439 0.003921568859369
-9.822154045104980 14.603027343750000 -0.894878327846527 0.003921568859369
-8.800470352172852 14.665655136108398 -0.968537926673889 0.003921568859369
-9.763873100280762 14.639280319213867 -0.895257830619812 0.003921568859369
-16.218566894531250 24.920070648193359 -0.147639602422714 0.003921568859369
-8.776841163635254 14.743500709533691 -0.971711933612823 0.003921568859369
-9.708430290222168 14.665132522583008 -0.894799590110779 0.003921568859369
-8.764528274536133 14.842239379882812 -0.976263821125031 0.003921568859369
-9.659304618835449 14.700926780700684 -0.894961476325989 0.003921568859369
-8.761376380920410 14.958497047424316 -0.981963813304901 0.003921568859369
-9.614277839660645 14.743322372436523 -0.895536601543427 0.003921568859369
-8.753635406494141 15.067928314208984 -0.987204194068909 0.003921568859369
-9.575380325317383 14.795776367187500 -0.896731615066528 0.003921568859369
-8.756782531738281 15.198480606079102 -0.993822157382965 0.003921568859369
-9.534141540527344 14.844728469848633 -0.897720038890839 0.003921568859369
-8.740003585815430 15.294177055358887 -0.998143374919891 0.003921568859369
-10.432421684265137 14.759449958801270 -0.815876722335815 0.000000000000000
-9.519732475280762 14.937896728515625 -0.901393949985504 0.003921568859369
-9.500638008117676 15.024314880371094 -0.904654383659363 0.003921568859369
-10.291332244873047 14.772697448730469 -0.812663316726685 0.000000000000000
-9.516036033630371 15.168984413146973 -0.911426007747650 0.003921568859369
-16.960042953491211 24.725948333740234 3.678167581558228 0.003921568859369
-16.966543197631836 24.926063537597656 1.766982078552246 0.003921568859369
-10.219793319702148 14.777189254760742 -0.810965240001678 0.000000000000000
-9.446658134460449 15.173272132873535 -0.909729182720184 0.003921568859369
-12.862222671508789 23.630216598510742 0.334591448307037 0.003921568859369
-10.159348487854004 14.798037528991699 -0.810184895992279 0.000000000000000
-9.428205490112305 15.263212203979492 -0.913195729255676 0.003921568859369
-5.175136566162109 6.568516731262207 -0.511680245399475 0.000000000000000
-9.415953636169434 15.358527183532715 -0.917077362537384 0.003921568859369
-12.709836006164551 23.750770568847656 -0.288173019886017 0.003921568859369
-4.083158969879150 5.682650089263916 -0.465828001499176 0.000000000000000
-10.051158905029297 14.867607116699219 -0.810498237609863 0.000000000000000
-16.478126525878906 24.752473831176758 3.648733615875244 0.003921568859369
-10.014348983764648 14.924753189086914 -0.811737418174744 0.000000000000000
-10.033259391784668 15.069326400756836 -0.817746222019196 0.000000000000000
-10.042710304260254 15.200722694396973 -0.823020756244659 0.000000000000000
-12.300090789794922 23.766120910644531 0.332972347736359 0.003921568859369
-17.365222930908203 24.590919494628906 0.196670815348625 0.003921568859369
-16.005960464477539 25.364141464233398 1.758932948112488 0.003921568859369
-15.771336555480957 25.580747604370117 0.718966364860535 0.003921568859369
-14.373090744018555 26.281106948852539 -0.841088056564331 0.003921568859369
-15.587709426879883 25.476303100585938 0.714631855487823 0.003921568859369
-11.637426376342773 23.883575439453125 0.331107228994370 0.003921568859369
-3.635687351226807 4.881180286407471 -0.368231445550919 0.000000000000000
-12.789321899414062 23.499963760375977 -0.750725984573364 0.003921568859369
-4.172544479370117 6.398543834686279 2.002711772918701 0.000000000000000
-13.058523178100586 24.234771728515625 -0.772676110267639 0.003921568859369
-4.667616367340088 6.647244930267334 -0.498171955347061 0.000000000000000
-10.881186485290527 23.324937820434570 0.320850402116776 0.003921568859369
-11.242444038391113 24.377092361450195 0.334648221731186 0.003921568859369
-11.015474319458008 24.070854187011719 0.330084979534149 0.003921568859369
-10.268037796020508 23.039621353149414 0.314815759658813 0.003921568859369
-10.463910102844238 23.712728500366211 0.323501765727997 0.003921568859369
-12.143557548522949 24.523420333862305 -0.767765641212463 0.003921568859369
-10.352091789245605 23.690549850463867 0.322762638330460 0.003921568859369
-14.518859863281250 26.114347457885742 3.671590566635132 0.003921568859369
-13.462821960449219 24.169178009033203 -0.616350769996643 0.003921568859369
-13.203166961669922 26.989261627197266 2.465453624725342 0.003921568859369
-11.978788375854492 24.628381729125977 -0.768821239471436 0.003921568859369
-9.616333007812500 22.852457046508789 0.309536039829254 0.003921568859369
-14.080637931823730 26.189851760864258 3.654805660247803 0.003921568859369
-9.396576881408691 22.987394332885742 0.310222476720810 0.003921568859369
-5.645742893218994 10.424717903137207 3.143713474273682 0.000000000000000
-9.266272544860840 23.140996932983398 0.311510950326920 0.003921568859369
-10.246726036071777 22.789766311645508 2.050240755081177 0.003921568859369
-4.673164367675781 10.011260032653809 1.999251961708069 0.000000000000000
-11.143264770507812 25.344778060913086 -0.777563929557800 0.003921568859369
-9.474429130554199 22.500162124633789 2.003896474838257 0.003921568859369
-10.498564720153809 25.299568176269531 -0.769085764884949 0.003921568859369
-7.911528587341309 21.882545471191406 -0.247872322797775 0.003921568859369
-9.083814620971680 25.568897247314453 0.339249342679977 0.003921568859369
-10.512930870056152 22.336809158325195 3.034582138061523 0.003921568859369
-10.489334106445312 22.482553482055664 3.049830436706543 0.003921568859369
-2.556078195571899 4.868554115295410 1.439271688461304 0.000000000000000
-7.809675216674805 22.343662261962891 -0.252137660980225 0.003921568859369
-10.234694480895996 22.136924743652344 0.585448563098907 0.003921568859369
-9.122168540954590 22.541271209716797 1.996525168418884 0.003921568859369
-10.185941696166992 25.783988952636719 2.277480840682983 0.003921568859369
-9.085662841796875 22.892395019531250 4.490016937255859 0.003921568859369
-9.974432945251465 22.172304153442383 2.989348888397217 0.003921568859369
-8.922582626342773 22.727787017822266 4.451502323150635 0.003921568859369
-4.928792953491211 10.648799896240234 3.118839740753174 0.000000000000000
-8.193521499633789 24.953231811523438 -0.280606389045715 0.003921568859369
-8.835680961608887 27.312404632568359 0.358855426311493 0.003921568859369
-9.635264396667480 22.019433975219727 2.955648899078369 0.003921568859369
-7.999178886413574 24.942356109619141 -0.279783874750137 0.003921568859369
-8.659118652343750 23.009494781494141 4.483375072479248 0.003921568859369
-8.757476806640625 23.526002883911133 4.578517913818359 0.003921568859369
-6.805624961853027 21.571847915649414 -0.240929141640663 0.003921568859369
-9.636555671691895 22.926158905029297 0.597457170486450 0.003921568859369
-11.078271865844727 23.378213882446289 0.171438068151474 0.003921568859369
-9.331681251525879 22.611162185668945 3.009369611740112 0.003921568859369
-8.749462127685547 24.869409561157227 2.166875839233398 0.003921568859369
-8.135738372802734 23.316167831420898 4.505279541015625 0.003921568859369
-7.419301509857178 25.596088409423828 -0.284974843263626 0.003921568859369
-7.205520629882812 25.496362686157227 0.331586480140686 0.003921568859369
-7.228767871856689 25.962615966796875 -0.288158863782883 0.003921568859369
-8.226135253906250 25.366476058959961 -0.749256730079651 0.003921568859369
-7.019030570983887 25.880535125732422 0.335727542638779 0.003921568859369
-8.195394515991211 21.494464874267578 2.830818653106689 0.003921568859369
-10.117407798767090 23.406473159790039 0.169219464063644 0.003921568859369
-6.356986522674561 24.006498336791992 -0.265091985464096 0.003921568859369
-8.579707145690918 23.300983428955078 3.057032346725464 0.003921568859369
-5.900062084197998 23.574235916137695 -0.259228736162186 0.003921568859369
-8.719465255737305 21.326292037963867 0.686896622180939 0.003921568859369
-2.553397655487061 6.566864490509033 1.866888999938965 0.000000000000000
-6.913855075836182 23.786582946777344 -0.695970773696899 0.003921568859369
-5.690720081329346 23.841962814331055 -0.261897712945938 0.003921568859369
-8.209605216979980 23.865528106689453 -0.562679827213287 0.003921568859369
-7.921123504638672 23.245004653930664 3.024546384811401 0.003921568859369
-7.931942462921143 27.821165084838867 2.380247831344604 0.003921568859369
-6.234048366546631 27.121273040771484 0.348442763090134 0.003921568859369
-6.497822761535645 22.879999160766602 4.342999935150146 0.003921568859369
-5.695977210998535 25.068746566772461 0.322126239538193 0.003921568859369
-6.284975051879883 22.727277755737305 -0.115002565085888 0.003921568859369
-7.655886173248291 23.541994094848633 3.049709558486938 0.003921568859369
-6.689617156982422 24.615718841552734 4.659406185150146 0.003921568859369
-6.208887577056885 23.069559097290039 4.363304615020752 0.003921568859369
-7.649946212768555 24.110080718994141 6.775577545166016 0.003921568859369
-6.174536705017090 25.185398101806641 4.738461017608643 0.003921568859369
-6.506283283233643 27.046333312988281 2.289883375167847 0.003921568859369
-6.437043666839600 27.135620117187500 2.295827627182007 0.003921568859369
-6.880951881408691 24.686691284179688 0.617091536521912 0.003921568859369
-5.246697425842285 24.690618515014648 2.078559637069702 0.003921568859369
-6.084686279296875 23.699569702148438 -0.546046793460846 0.003921568859369
-3.951374053955078 28.456800460815430 -0.308213293552399 0.003921568859369
-6.936079978942871 28.946748733520508 1.755207896232605 0.003921568859369
-4.269963264465332 22.697814941406250 1.902214407920837 0.003921568859369
-3.893129110336304 29.644418716430664 0.374415546655655 0.003921568859369
-3.556361675262451 27.667015075683594 -0.299102097749710 0.003921568859369
-3.167436361312866 24.345457077026367 0.307982295751572 0.003921568859369
-3.428443431854248 28.280815124511719 0.356996893882751 0.003921568859369
-6.651772022247314 24.532239913940430 0.169427990913391 0.003921568859369
-3.738977432250977 21.904741287231445 1.830710530281067 0.003921568859369
-4.235566616058350 26.960689544677734 2.248538494110107 0.003921568859369
-4.116412639617920 27.445886611938477 5.077618122100830 0.003921568859369
-3.963426589965820 27.814107894897461 -0.138305962085724 0.003921568859369
-3.317619085311890 22.898410797119141 1.906659364700317 0.003921568859369
-2.449625492095947 28.503704071044922 -0.307255387306213 0.003921568859369
-3.885975360870361 29.621973037719727 -0.147227898240089 0.003921568859369
-2.059516906738281 25.780326843261719 0.324293553829193 0.003921568859369
-1.849598169326782 26.927112579345703 0.337893575429916 0.003921568859369
-3.171991586685181 26.890995025634766 4.955567359924316 0.003921568859369
-1.644557833671570 26.601753234863281 0.333760321140289 0.003921568859369
-4.339722633361816 27.676141738891602 0.674977838993073 0.003921568859369
-1.620433568954468 27.960456848144531 0.350602805614471 0.003921568859369
-1.109635591506958 24.370492935180664 0.305893778800964 0.003921568859369
-3.498740673065186 25.698316574096680 3.202969789505005 0.003921568859369
-2.079257488250732 26.216478347778320 -0.129965066909790 0.003921568859369
-1.966511726379395 25.895265579223633 -0.128286480903625 0.003921568859369
-0.699223279953003 25.928703308105469 0.324668318033218 0.003921568859369
-3.266228199005127 26.096858978271484 3.248156070709229 0.003921568859369
-3.403946161270142 28.182024002075195 0.683913588523865 0.003921568859369
-0.554242134094238 29.986473083496094 0.374978303909302 0.003921568859369
-1.731340527534485 26.568607330322266 2.195518970489502 0.003921568859369
-1.641703248023987 26.643238067626953 -0.131906032562256 0.003921568859369
-1.550784111022949 26.691753387451172 -0.132112413644791 0.003921568859369
-1.359978318214417 26.475919723510742 -0.130947649478912 0.003921568859369
-1.226270556449890 25.234939575195312 2.083922863006592 0.003921568859369
-1.130943298339844 25.286170959472656 2.087880373001099 0.003921568859369
-1.032003402709961 24.798477172851562 -0.122362390160561 0.003921568859369
-1.043968439102173 25.185222625732422 2.079354047775269 0.003921568859369
-2.114476680755615 24.253606796264648 0.586849093437195 0.003921568859369
-0.949319720268250 25.127904891967773 2.073944330215454 0.003921568859369
-0.772516369819641 25.287504196166992 2.086778163909912 0.003921568859369
-1.834609985351562 23.940574645996094 0.578930139541626 0.003921568859369
-0.687167823314667 25.472429275512695 2.101896762847900 0.003921568859369
-1.844796180725098 25.470539093017578 0.615606427192688 0.003921568859369
-1.692917585372925 24.314582824707031 1.439502000808716 0.003921568859369
-0.440687954425812 28.233898162841797 2.329187870025635 0.003921568859369
-1.655559539794922 27.007129669189453 0.652220189571381 0.003921568859369
-0.334866553544998 27.118087768554688 2.237247943878174 0.003921568859369
-0.241445079445839 26.221158981323242 2.163368463516235 0.003921568859369
0.296298623085022 25.287330627441406 4.634022235870361 0.003921568859369
-2.161180973052979 26.149131774902344 0.174090147018433 0.003921568859369
0.421178340911865 27.067224502563477 4.960337638854980 0.003921568859369
-0.837476909160614 29.105949401855469 1.719559192657471 0.003921568859369
-1.841329097747803 24.060020446777344 0.722012162208557 0.003921568859369
-0.683020472526550 25.262779235839844 1.492852330207825 0.003921568859369
0.684111237525940 24.035348892211914 4.407159328460693 0.003921568859369
0.698900043964386 22.425167083740234 1.852006673812866 0.003921568859369
-1.626518249511719 26.534791946411133 0.176477506756783 0.003921568859369
-1.627364158630371 28.501100540161133 0.189310953021049 0.003921568859369
1.162544488906860 26.770208358764648 4.911422252655029 0.003921568859369
-0.064424142241478 23.736944198608398 2.934843540191650 0.003921568859369
1.515806674957275 26.301008224487305 2.173956871032715 0.003921568859369
1.339084863662720 22.513004302978516 1.861761569976807 0.003921568859369
2.925785064697266 21.962615966796875 0.277188599109650 0.003921568859369
4.756739139556885 28.243576049804688 0.356769591569901 0.003921568859369
1.423568606376648 20.568218231201172 0.497463226318359 0.003921568859369
5.308293819427490 28.407043457031250 0.359343707561493 0.003921568859369
4.639019966125488 24.547927856445312 0.311120808124542 0.003921568859369
2.774527549743652 20.314424514770508 3.761951446533203 0.003921568859369
3.404916286468506 23.984605789184570 1.999973297119141 0.003921568859369
3.066284656524658 20.779100418090820 3.854124546051025 0.003921568859369
3.418168544769287 22.483961105346680 4.172418594360352 0.003921568859369
3.706118106842041 22.748201370239258 1.903489351272583 0.003921568859369
3.449566364288330 29.037837982177734 1.727483987808228 0.003921568859369
3.858735561370850 23.147426605224609 4.305633544921875 0.003921568859369
4.045187950134277 23.717634201049805 4.414370059967041 0.003921568859369
4.591019630432129 26.163516998291016 2.192329883575439 0.003921568859369
0.800408422946930 5.491178035736084 0.462783426046371 0.000000000000000
4.023580074310303 22.213869094848633 1.864260673522949 0.003921568859369
4.250014305114746 22.961853027343750 1.928228855133057 0.003921568859369
4.028248786926270 21.825059890747070 4.072532176971436 0.003921568859369
2.115758419036865 23.840322494506836 0.715761899948120 0.003921568859369
4.191009044647217 22.286823272705078 1.872783064842224 0.003921568859369
4.277469158172607 22.314233779907227 1.876387834548950 0.003921568859369
3.170636177062988 21.917280197143555 1.309201955795288 0.003921568859369
3.711742877960205 25.402809143066406 3.176564693450928 0.003921568859369
4.113442420959473 21.121788024902344 3.949393033981323 0.003921568859369
3.372999906539917 22.697944641113281 1.356468915939331 0.003921568859369
3.639120340347290 24.373418807983398 3.049633502960205 0.003921568859369
3.616017341613770 23.693605422973633 2.966318607330322 0.003921568859369
3.615171909332275 23.176054000854492 6.314756393432617 0.003921568859369
3.601771116256714 22.606418609619141 6.163235187530518 0.003921568859369
3.693208456039429 22.665214538574219 6.182950973510742 0.003921568859369
3.740152835845947 22.415639877319336 6.118109226226807 0.003921568859369
4.455093383789062 25.423049926757812 6.947244644165039 0.003921568859369
5.068036556243896 26.203237533569336 1.576673269271851 0.003921568859369
7.073167800903320 28.800212860107422 2.447126388549805 0.003921568859369
4.844533443450928 24.650648117065430 6.763538837432861 0.003921568859369
6.478239536285400 23.008142471313477 1.973579883575439 0.003921568859369
6.750789165496826 28.751783370971680 1.743803381919861 0.003921568859369
5.888242244720459 24.829694747924805 3.158179044723511 0.003921568859369
6.350830078125000 21.731832504272461 4.156294822692871 0.003921568859369
6.244415283203125 25.510181427001953 0.631153821945190 0.003921568859369
5.826573848724365 23.859151840209961 1.451212763786316 0.003921568859369
6.158422946929932 25.168025970458984 6.976652145385742 0.003921568859369
5.798362255096436 23.402046203613281 6.493108749389648 0.003921568859369
5.392493247985840 21.511291503906250 2.746143817901611 0.003921568859369
6.170711517333984 23.780220031738281 1.451104044914246 0.003921568859369
5.819304466247559 22.468641281127930 2.872982263565063 0.003921568859369
6.146324634552002 23.360652923583984 6.504989147186279 0.003921568859369
6.829202175140381 21.381860733032227 4.120442390441895 0.003921568859369
6.488149166107178 23.007678985595703 6.438537120819092 0.003921568859369
9.483454704284668 27.807954788208008 2.423881530761719 0.003921568859369
9.563263893127441 27.725086212158203 2.419605016708374 0.003921568859369
7.063917160034180 23.777446746826172 1.465331315994263 0.003921568859369
8.675232887268066 24.665912628173828 4.798350811004639 0.003921568859369
6.671394348144531 22.184158325195312 2.867458105087280 0.003921568859369
8.352355003356934 23.484891891479492 4.573935508728027 0.003921568859369
8.756773948669434 24.332719802856445 2.133814811706543 0.003921568859369
6.748420238494873 22.157281875610352 6.238748550415039 0.003921568859369
6.811719417572021 22.088722229003906 6.226287841796875 0.003921568859369
8.637999534606934 23.500909805297852 4.594762325286865 0.003921568859369
9.438565254211426 25.363149642944336 2.232725143432617 0.003921568859369
6.999204635620117 22.142145156860352 6.255313396453857 0.003921568859369
8.826166152954102 23.749488830566406 4.649441719055176 0.003921568859369
8.980408668518066 23.656578063964844 4.643654346466064 0.003921568859369
6.724006175994873 20.561162948608398 2.678842544555664 0.003921568859369
8.020193099975586 24.135475158691406 0.610197544097900 0.003921568859369
10.798398017883301 27.768962860107422 2.457432746887207 0.003921568859369
8.819927215576172 22.540851593017578 1.998041749000549 0.003921568859369
10.093564033508301 24.953367233276367 2.220191001892090 0.003921568859369
6.870590209960938 19.826776504516602 5.654063224792480 0.003921568859369
7.922318935394287 21.366310119628906 6.139464855194092 0.003921568859369
7.911670207977295 20.886310577392578 6.018067836761475 0.003921568859369
9.343710899353027 21.413259506225586 4.288837432861328 0.003921568859369
10.164168357849121 22.838411331176758 2.062788248062134 0.003921568859369
11.737981796264648 23.024477005004883 0.317682892084122 0.003921568859369
10.745524406433105 27.048532485961914 0.696202576160431 0.003921568859369
9.810531616210938 24.732385635375977 1.569585800170898 0.003921568859369
9.668746948242188 24.378490447998047 7.062006950378418 0.003921568859369
8.129867553710938 20.384572982788086 2.716784715652466 0.003921568859369
13.460380554199219 25.444707870483398 0.352664917707443 0.003921568859369
12.455740928649902 23.373996734619141 -0.293904781341553 0.003921568859369
11.615238189697266 21.818367004394531 0.303308635950089 0.003921568859369
12.517635345458984 22.911550521850586 -0.289777427911758 0.003921568859369
10.641896247863770 25.010011672973633 7.319115638732910 0.003921568859369
9.763733863830566 20.208992004394531 4.120486736297607 0.003921568859369
12.845945358276367 23.131002426147461 0.324344992637634 0.003921568859369
13.011057853698730 23.056051254272461 -0.293974012136459 0.003921568859369
12.754934310913086 22.221065521240234 -0.285050213336945 0.003921568859369
11.923633575439453 26.432653427124023 3.585730791091919 0.003921568859369
11.369871139526367 22.276008605957031 2.062343358993530 0.003921568859369
10.029137611389160 21.893606185913086 6.486572742462158 0.003921568859369
13.673494338989258 23.072092056274414 -0.298565745353699 0.003921568859369
14.743370056152344 24.855333328247070 0.353068292140961 0.003921568859369
11.840931892395020 25.105278015136719 7.473855018615723 0.003921568859369
12.233211517333984 22.773145675659180 -0.136210501194000 0.003921568859369
13.834078788757324 22.965301513671875 0.327763110399246 0.003921568859369
10.847693443298340 22.815202713012695 3.125596046447754 0.003921568859369
10.029119491577148 20.930875778198242 6.253130435943604 0.003921568859369
12.581529617309570 25.954961776733398 1.700347065925598 0.003921568859369
11.029066085815430 22.591735839843750 6.771647930145264 0.003921568859369
12.470482826232910 22.257469177246094 -0.135083287954330 0.003921568859369
12.905561447143555 22.847455978393555 -0.139016360044479 0.003921568859369
14.549977302551270 23.033569335937500 0.332218617200851 0.003921568859369
14.628126144409180 22.978729248046875 0.332144141197205 0.003921568859369
12.549686431884766 22.044914245605469 2.090945482254028 0.003921568859369
11.675099372863770 22.867967605590820 -0.585199594497681 0.003921568859369
15.147255897521973 23.433780670166016 -0.311611205339432 0.003921568859369
14.639859199523926 22.656528472900391 0.328907668590546 0.003921568859369
11.645120620727539 22.623952865600586 3.147347688674927 0.003921568859369
14.610635757446289 22.431766510009766 0.326419085264206 0.003921568859369
15.016082763671875 22.873369216918945 0.333533555269241 0.003921568859369
14.785224914550781 22.363969802856445 0.326850086450577 0.003921568859369
12.196210861206055 23.088287353515625 1.539179563522339 0.003921568859369
14.765204429626465 21.991706848144531 0.322936415672302 0.003921568859369
13.720570564270020 22.427671432495117 -0.139555960893631 0.003921568859369
12.518047332763672 22.710527420043945 -0.591988980770111 0.003921568859369
13.536137580871582 24.138326644897461 -0.631879091262817 0.003921568859369
14.277111053466797 25.238975524902344 0.690829932689667 0.003921568859369
13.145347595214844 23.071411132812500 0.632939398288727 0.003921568859369
11.573224067687988 20.341705322265625 2.894941091537476 0.003921568859369
17.314273834228516 24.256708145141602 0.361827284097672 0.003921568859369
14.302342414855957 24.878940582275391 -0.655348539352417 0.003921568859369
15.109437942504883 21.038640975952148 0.314892292022705 0.003921568859369
14.484191894531250 24.604442596435547 0.680195510387421 0.003921568859369
15.432426452636719 21.179155349731445 0.318497151136398 0.003921568859369
12.365934371948242 23.202577590942383 0.166594192385674 0.003921568859369
15.309710502624512 22.969202041625977 -0.147677153348923 0.003921568859369
12.758341789245605 23.527042388916016 0.168622791767120 0.003921568859369
18.043270111083984 23.337980270385742 0.357005774974823 0.003921568859369
15.345861434936523 24.286167144775391 0.683265626430511 0.003921568859369
18.020933151245117 23.142206192016602 0.354962080717087 0.003921568859369
18.417976379394531 23.128408432006836 0.357701420783997 0.003921568859369
18.067041397094727 22.218334197998047 0.346490383148193 0.003921568859369
14.514072418212891 21.945587158203125 -0.602095961570740 0.003921568859369
14.684553146362305 23.974613189697266 0.175814226269722 0.003921568859369
2.162984371185303 3.621536254882812 -0.071324080228806 0.003921568859369
18.364202499389648 23.558574676513672 -0.162256956100464 0.003921568859369
2.310869932174683 3.416777372360229 0.003425228409469 0.000000000000000
15.667385101318359 23.831258773803711 0.177243366837502 0.003921568859369
17.815105438232422 23.711452484130859 0.702883422374725 0.003921568859369
14.920971870422363 21.873992919921875 0.164626404643059 0.003921568859369
17.921283721923828 23.671001434326172 0.703611612319946 0.003921568859369
17.667768478393555 23.170141220092773 0.690575957298279 0.003921568859369
15.133924484252930 21.225585937500000 0.162001416087151 0.003921568859369
17.928529739379883 22.687229156494141 0.685268759727478 0.003921568859369
19.011556625366211 22.704193115234375 1.738643884658813 0.003921568859369
18.139554977416992 23.626329421997070 0.183677256107330 0.003921568859369
18.263681411743164 23.616138458251953 0.184068366885185 0.003921568859369
18.021900177001953 23.129964828491211 0.180802211165428 0.003921568859369
10.544383049011230 10.324167251586914 2.709107875823975 0.000000000000000
10.791125297546387 9.495763778686523 2.636236190795898 0.000000000000000
8.891967773437500 7.727825641632080 0.970281779766083 0.000000000000000
7.558372497558594 6.533193111419678 0.823831915855408 0.000000000000000
4.206397056579590 3.591474771499634 0.230202153325081 0.000000000000000
4.590451717376709 4.318411827087402 0.783863008022308 0.000000000000000
7.664638042449951 7.010213851928711 1.286196231842041 0.000000000000000
6.091394424438477 5.060528278350830 1.458390712738037 0.000000000000000
9.425501823425293 8.543347358703613 1.573242425918579 0.000000000000000
17.086660385131836 13.860587120056152 4.026595592498779 0.003921568859369
4.261143684387207 3.786598920822144 0.708881020545959 0.000000000000000
7.552403450012207 6.030857086181641 1.775451898574829 0.000000000000000
7.558287143707275 6.620024204254150 1.243341565132141 0.000000000000000
13.801918983459473 10.899314880371094 1.030458569526672 0.000000000000000
11.534825325012207 8.052007675170898 1.155436635017395 0.000000000000000
6.689890861511230 5.039781570434570 1.035689473152161 0.000000000000000
4.854452610015869 3.282396554946899 1.078367233276367 0.000000000000000
22.129150390625000 14.720291137695312 4.857905387878418 0.003921568859369
10.678566932678223 6.642948627471924 2.301918983459473 0.000000000000000
8.209311485290527 4.384997367858887 -0.543056428432465 0.000000000000000
5.335223674774170 3.179279327392578 0.255845397710800 0.000000000000000
6.420800685882568 4.197159767150879 0.948012888431549 0.000000000000000
16.955915451049805 9.648528099060059 3.566552639007568 0.003921568859369
10.009424209594727 5.519193649291992 2.091225385665894 0.000000000000000
3.337968349456787 1.778769135475159 0.312241494655609 0.000000000000000
9.074749946594238 4.721640110015869 1.872300863265991 0.000000000000000
12.534512519836426 6.401455879211426 2.571706295013428 0.000000000000000
12.556131362915039 6.244611740112305 2.562365055084229 0.000000000000000
6.395275592803955 3.159566640853882 -0.910446226596832 0.000000000000000
6.380753993988037 3.126072645187378 -0.906913638114929 0.000000000000000
6.384481430053711 3.100229978561401 -0.905905842781067 0.000000000000000
6.373795986175537 3.067537307739258 -0.902878284454346 0.000000000000000
6.370657444000244 3.037248134613037 -0.900860786437988 0.000000000000000
6.366860389709473 3.008136510848999 -0.898843109607697 0.000000000000000
6.354703903198242 2.977966070175171 -0.895815312862396 0.000000000000000
2.248082399368286 1.200369238853455 0.690026521682739 0.000000000000000
12.346282005310059 5.773352622985840 2.490575551986694 0.000000000000000
6.358888149261475 2.950106859207153 -0.894807696342468 0.000000000000000
12.471566200256348 5.773641586303711 0.561881959438324 0.000000000000000
2.328009128570557 1.230991721153259 0.712805271148682 0.000000000000000
6.352228164672852 2.918368339538574 -0.891503155231476 0.000000000000000
6.363387584686279 2.893886327743530 -0.891504645347595 0.000000000000000
7.486442089080811 3.403058290481567 0.673205494880676 0.000000000000000
6.357972621917725 2.867311477661133 -0.889485955238342 0.000000000000000
6.375689506530762 2.847147464752197 -0.890497326850891 0.000000000000000
9.378894805908203 4.747203826904297 2.821691036224365 0.000000000000000
6.381959438323975 2.823210239410400 -0.889993727207184 0.000000000000000
12.277600288391113 5.423698902130127 1.097721099853516 0.000000000000000
6.394920825958252 2.803559780120850 -0.890499949455261 0.000000000000000
10.582204818725586 4.029407978057861 -0.659939527511597 0.000000000000000
9.410989761352539 4.683131694793701 2.821687221527100 0.000000000000000
6.368737697601318 2.764275550842285 -0.885451555252075 0.000000000000000
6.381038188934326 2.745758295059204 -0.885957777500153 0.000000000000000
6.394235610961914 2.724956274032593 -0.886464059352875 0.000000000000000
6.393207550048828 2.696820020675659 -0.884950578212738 0.000000000000000
6.384266853332520 2.666791677474976 -0.882426977157593 0.000000000000000
9.753173828125000 4.069834709167480 1.930531620979309 0.000000000000000
6.385741710662842 2.642515420913696 -0.881418287754059 0.000000000000000
6.397371292114258 2.615933418273926 -0.880628347396851 0.000000000000000
6.424403190612793 2.602114200592041 -0.883154153823853 0.000000000000000
6.437131404876709 2.581113576889038 -0.883659899234772 0.000000000000000
6.424413681030273 2.548702001571655 -0.880630373954773 0.000000000000000
6.436524868011475 2.528800249099731 -0.881136059761047 0.000000000000000
6.437915325164795 2.503410339355469 -0.880126655101776 0.000000000000000
6.450318813323975 2.482315063476562 -0.880632340908051 0.000000000000000
7.034251689910889 3.109646558761597 -0.829126119613647 0.000000000000000
7.694104671478271 3.400913953781128 1.034181594848633 0.000000000000000
3.250789880752563 1.239708304405212 -0.443780750036240 0.000000000000000
5.852304458618164 2.229008913040161 0.512152671813965 0.000000000000000
6.463776111602783 2.435763835906982 -0.880128681659698 0.000000000000000
7.052138328552246 3.058820247650146 -0.828699290752411 0.003921568859369
9.175134658813477 2.952486038208008 0.112541295588017 0.000000000000000
17.315534591674805 6.519156455993652 3.375337123870850 0.003921568859369
6.453227043151855 2.407357454299927 -0.877604126930237 0.000000000000000
7.051281452178955 3.030678749084473 -0.827414929866791 0.003921568859369
8.866703033447266 3.306344270706177 1.727202296257019 0.000000000000000
6.480206966400146 2.391643047332764 -0.880129992961884 0.000000000000000
7.025218009948730 2.990453243255615 -0.823132276535034 0.003921568859369
9.815581321716309 4.176627635955811 1.311091542243958 0.000000000000000
6.495973110198975 2.371692895889282 -0.881140768527985 0.000000000000000
7.006290912628174 2.953532695770264 -0.819706261157990 0.000000000000000
6.509821414947510 2.347533464431763 -0.880847156047821 0.000000000000000
7.007557868957520 2.921273708343506 -0.817793130874634 0.000000000000000
6.503027915954590 2.319462060928345 -0.878826916217804 0.000000000000000
7.025066375732422 2.899828433990479 -0.818649947643280 0.000000000000000
6.496115207672119 2.291469335556030 -0.876806557178497 0.000000000000000
7.016737937927246 2.867767095565796 -0.816507995128632 0.000000000000000
12.675374031066895 4.471169948577881 0.547594368457794 0.000000000000000
6.496582031250000 2.266164302825928 -0.875796437263489 0.000000000000000
7.015646457672119 2.838779449462891 -0.815222799777985 0.000000000000000
18.510938644409180 6.457060813903809 3.574462652206421 0.003921568859369
6.523209095001221 2.249940872192383 -0.878321826457977 0.000000000000000
7.025513648986816 2.814271211624146 -0.815222799777985 0.000000000000000
6.560676097869873 2.238551855087280 -0.882362365722656 0.000000000000000
7.034805297851562 2.790962934494019 -0.815222799777985 0.000000000000000
6.568450450897217 2.215635776519775 -0.882362365722656 0.000000000000000
7.033400535583496 2.762027025222778 -0.813937664031982 0.000000000000000
6.564852237701416 2.188926935195923 -0.880847156047821 0.000000000000000
