# This PCD file was generated using the MATLAB® pcwrite function
# from Computer Vision Toolbox®.
# .PCD v.7 - Point Cloud Data file format
VERSION .7
FIELDS x y z intensity
SIZE 8 8 8 8
TYPE F F F F
COUNT 1 1 1 1
WIDTH 646
HEIGHT 1
VIEWPOINT 0 0 0 1 0 0 0
POINTS 646
DATA ascii
-14.994141578674316 14.516552925109863 -0.973064005374908 0.003921568859369
-16.439842224121094 14.469890594482422 -0.895606815814972 0.003921568859369
-14.937741279602051 14.561613082885742 -0.972661674022675 0.003921568859369
-16.424695968627930 14.557950019836426 -0.897582352161407 0.003921568859369
-14.936888694763184 14.652533531188965 -0.975674390792847 0.003921568859369
-16.196203231811523 14.440689086914062 -0.887248396873474 0.003921568859369
-14.905714035034180 14.733755111694336 -0.977354884147644 0.003921568859369
-16.029071807861328 14.398055076599121 -0.880903303623199 0.003921568859369
-14.890457153320312 14.821355819702148 -0.979795753955841 0.003921568859369
-15.978715896606445 14.452390670776367 -0.880881965160370 0.003921568859369
-14.883097648620605 14.917645454406738 -0.982805073261261 0.003921568859369
-15.898997306823730 14.479234695434570 -0.879196822643280 0.003921568859369
-14.877719879150391 15.006135940551758 -0.985626935958862 0.003921568859369
-15.795268058776855 14.472912788391113 -0.875850260257721 0.003921568859369
-14.894374847412109 15.134081840515137 -0.990530133247375 0.003921568859369
-15.684149742126465 14.474069595336914 -0.872500360012054 0.003921568859369
-14.907448768615723 15.254023551940918 -0.995054841041565 0.003921568859369
-15.590202331542969 14.485772132873535 -0.869983196258545 0.003921568859369
-6.969344139099121 7.594940662384033 1.819992542266846 0.000000000000000
-14.872045516967773 15.339167594909668 -0.996757030487061 0.003921568859369
-15.487189292907715 14.502620697021484 -0.867269039154053 0.003921568859369
-15.398500442504883 14.508138656616211 -0.864755630493164 0.003921568859369
-15.316633224487305 14.534987449645996 -0.863070189952850 0.003921568859369
-15.211654663085938 14.533634185791016 -0.859889388084412 0.003921568859369
-15.174739837646484 14.593823432922363 -0.860533356666565 0.003921568859369
-2.797545433044434 2.584390640258789 0.938489556312561 0.000000000000000
-15.140966415405273 14.667521476745605 -0.861673474311829 0.003921568859369
-15.103776931762695 14.732944488525391 -0.862481892108917 0.003921568859369
-4.082090377807617 4.496641635894775 0.470595985651016 0.000000000000000
-15.066313743591309 14.798284530639648 -0.863290131092072 0.003921568859369
-15.064974784851074 14.900614738464355 -0.866259098052979 0.003921568859369
-15.046009063720703 14.975120544433594 -0.867900133132935 0.003921568859369
-17.536190032958984 23.800407409667969 0.320476263761520 0.003921568859369
-15.065962791442871 15.100667953491211 -0.872198045253754 0.003921568859369
-15.074255943298340 15.220450401306152 -0.875995755195618 0.003921568859369
-17.144933700561523 23.615934371948242 0.316979289054871 0.003921568859369
-15.088708877563477 15.347160339355469 -0.880115747451782 0.003921568859369
-15.095630645751953 15.467499732971191 -0.883911371231079 0.003921568859369
-17.010047912597656 23.953924179077148 -0.359153062105179 0.003921568859369
-5.909127712249756 6.470695018768311 1.037274956703186 0.000000000000000
-18.337764739990234 23.524389266967773 -0.881453454494476 0.003921568859369
-16.833789825439453 23.886013031005859 -0.357169896364212 0.003921568859369
-16.490055084228516 23.738605499267578 0.314293652772903 0.003921568859369
-16.067848205566406 24.383928298950195 -0.356268584728241 0.003921568859369
-16.111600875854492 24.451488494873047 0.319321095943451 0.003921568859369
-17.225234985351562 23.920690536499023 -0.870604932308197 0.003921568859369
-17.381849288940430 24.323537826538086 -0.883093416690826 0.003921568859369
-16.933040618896484 23.856798171997070 -0.188057392835617 0.003921568859369
-15.415646553039551 24.101276397705078 0.312219262123108 0.003921568859369
-14.592907905578613 23.311397552490234 0.300302416086197 0.003921568859369
-14.317151069641113 23.038877487182617 0.296241581439972 0.003921568859369
-13.979776382446289 22.658340454101562 0.290825158357620 0.003921568859369
-15.209625244140625 24.909492492675781 -0.355741143226624 0.003921568859369
-12.999636650085449 21.189126968383789 0.271597623825073 0.003921568859369
-14.199790954589844 23.790086746215820 -0.337018370628357 0.003921568859369
-13.861127853393555 23.205596923828125 0.295933932065964 0.003921568859369
-16.566408157348633 25.166494369506836 -0.889651715755463 0.003921568859369
-14.457743644714355 24.430938720703125 -0.345408082008362 0.003921568859369
-14.903706550598145 25.410823822021484 -0.358579963445663 0.003921568859369
-17.615581512451172 24.300102233886719 -0.712600946426392 0.003921568859369
-14.814597129821777 25.668638229370117 0.324727654457092 0.003921568859369
-15.854699134826660 24.803442001342773 -0.188318893313408 0.003921568859369
-14.544829368591309 25.584896087646484 -0.358088403940201 0.003921568859369
-13.736458778381348 24.121942520141602 0.304268538951874 0.003921568859369
-13.142609596252441 23.238929748535156 0.292699992656708 0.003921568859369
-14.379817008972168 25.934709548950195 -0.360741734504700 0.003921568859369
-3.652688980102539 5.383714199066162 1.144354820251465 0.000000000000000
-12.998271942138672 23.575836181640625 0.295749276876450 0.003921568859369
-13.618500709533691 22.244337081909180 2.097065925598145 0.003921568859369
-13.046124458312988 21.453790664672852 -0.159541115164757 0.003921568859369
-12.858027458190918 21.304510116577148 -0.158046618103981 0.003921568859369
-12.846111297607422 21.464221954345703 -0.158860936760902 0.003921568859369
-13.342509269714355 25.282171249389648 -0.347042232751846 0.003921568859369
-14.314271926879883 24.564691543579102 -0.838564634323120 0.003921568859369
-13.252428054809570 22.685848236083984 4.738629817962646 0.003921568859369
-16.180372238159180 24.933288574218750 -0.705063760280609 0.003921568859369
-11.836554527282715 22.910865783691406 -0.312538862228394 0.003921568859369
-13.438541412353516 23.611557006835938 -0.800923168659210 0.003921568859369
-12.747851371765137 25.195503234863281 -0.342563956975937 0.003921568859369
-12.224672317504883 19.135969161987305 6.014028072357178 0.003921568859369
-12.922454833984375 22.672080993652344 4.707311630249023 0.003921568859369
-12.943931579589844 22.880393981933594 4.742379188537598 0.003921568859369
-13.695034027099609 21.864173889160156 3.127722024917603 0.003921568859369
-14.456365585327148 26.102767944335938 -0.880111455917358 0.003921568859369
-11.466086387634277 23.203039169311523 -0.313249230384827 0.003921568859369
-14.482357978820801 26.147674560546875 2.407900333404541 0.003921568859369
-13.630071640014648 22.112131118774414 3.149620532989502 0.003921568859369
-12.565255165100098 22.789384841918945 4.696402549743652 0.003921568859369
-14.600537300109863 23.904392242431641 0.630777359008789 0.003921568859369
-12.495458602905273 22.833679199218750 2.095436573028564 0.003921568859369
-12.482543945312500 22.806669235229492 4.692151546478271 0.003921568859369
-15.543982505798340 25.491804122924805 -0.707804322242737 0.003921568859369
-12.924965858459473 23.847114562988281 -0.799331963062286 0.003921568859369
-12.117146492004395 25.230815887451172 -0.339003741741180 0.003921568859369
-13.745466232299805 22.644023895263672 3.212726593017578 0.003921568859369
-11.972722053527832 25.161037445068359 -0.337431430816650 0.003921568859369
-12.191681861877441 22.651079177856445 2.070985078811646 0.003921568859369
-12.118289947509766 25.723941802978516 0.313937813043594 0.003921568859369
-14.889467239379883 25.388425827026367 0.663278102874756 0.003921568859369
-13.735872268676758 23.370689392089844 -0.641929566860199 0.003921568859369
-14.249331474304199 24.477191925048828 -0.670970022678375 0.003921568859369
-10.358752250671387 22.690473556518555 0.275652170181274 0.003921568859369
-11.354640007019043 21.972656250000000 1.991437554359436 0.003921568859369
-13.535957336425781 26.552244186401367 -0.188757807016373 0.003921568859369
-11.540485382080078 25.596265792846680 0.310303509235382 0.003921568859369
-12.200613975524902 23.854017257690430 2.158439636230469 0.003921568859369
-11.523335456848145 25.825937271118164 -0.341967642307281 0.003921568859369
-11.742590904235840 26.332912445068359 0.319107443094254 0.003921568859369
-13.342596054077148 23.440441131591797 3.274045228958130 0.003921568859369
-12.487152099609375 24.668266296386719 2.228608608245850 0.003921568859369
-4.854558467864990 8.098130226135254 2.475664615631104 0.000000000000000
-13.464825630187988 26.911649703979492 -0.887187242507935 0.003921568859369
-10.598642349243164 23.924716949462891 -0.316090673208237 0.003921568859369
-10.929925918579102 21.700159072875977 -0.152930617332458 0.003921568859369
-11.411781311035156 25.826395034790039 0.312572956085205 0.003921568859369
-11.354331016540527 20.016590118408203 6.104001522064209 0.003921568859369
-12.649399757385254 25.449634552001953 -0.837481439113617 0.003921568859369
-11.034420013427734 22.098554611206055 1.989983558654785 0.003921568859369
-10.864523887634277 25.262708663940430 0.304627388715744 0.003921568859369
-10.791110038757324 21.985080718994141 1.973269820213318 0.003921568859369
-10.141969680786133 23.769199371337891 -0.311990737915039 0.003921568859369
-12.989027976989746 21.211772918701172 0.129469677805901 0.003921568859369
-10.663651466369629 21.920515060424805 4.402064800262451 0.003921568859369
-11.920534133911133 21.945259094238281 0.563559532165527 0.003921568859369
-4.183643341064453 7.239513874053955 2.188619375228882 0.000000000000000
-11.771574020385742 24.491405487060547 4.910544872283936 0.003921568859369
-10.963123321533203 23.192354202270508 -0.161382034420967 0.003921568859369
-10.546365737915039 22.274049758911133 4.451534748077393 0.003921568859369
-10.492901802062988 22.363197326660156 4.462305068969727 0.003921568859369
-8.371691703796387 15.862094879150391 4.750254631042480 0.003921568859369
-11.539961814880371 25.629144668579102 -0.827800691127777 0.003921568859369
-11.593567848205566 22.857288360595703 3.113472461700439 0.003921568859369
-10.386181831359863 23.438888549804688 -0.160726949572563 0.003921568859369
-10.030500411987305 22.601144790649414 4.469302177429199 0.003921568859369
-11.239949226379395 22.543676376342773 3.060195684432983 0.003921568859369
-11.183464050292969 22.628059387207031 3.066544055938721 0.003921568859369
-11.437080383300781 23.361419677734375 -0.614851117134094 0.003921568859369
-4.529136180877686 8.865682601928711 1.198836684226990 0.000000000000000
-11.324056625366211 26.639171600341797 2.337171554565430 0.003921568859369
-11.276119232177734 26.788028717041016 2.346919059753418 0.003921568859369
-9.119392395019531 22.154733657836914 1.933333158493042 0.003921568859369
-11.736936569213867 25.372930526733398 0.633305132389069 0.003921568859369
-8.819743156433105 22.565544128417969 1.956456184387207 0.003921568859369
-8.687602996826172 26.331399917602539 0.309472799301147 0.003921568859369
-9.021818161010742 20.861560821533203 0.515127062797546 0.003921568859369
-10.631177902221680 24.956192016601562 0.615100741386414 0.003921568859369
-9.833089828491211 23.481214523315430 1.462731957435608 0.003921568859369
-8.354582786560059 27.969909667968750 -0.350762784481049 0.003921568859369
-11.299248695373535 27.696279525756836 -0.706931889057159 0.003921568859369
-8.611086845397949 24.582601547241211 4.717002391815186 0.003921568859369
-7.175904750823975 24.832275390625000 0.289517492055893 0.003921568859369
-2.083388090133667 3.944483757019043 0.124949365854263 0.003921568859369
-7.777365684509277 22.628711700439453 1.934274077415466 0.003921568859369
-11.515507698059082 25.592298507690430 0.148932546377182 0.003921568859369
-7.007496356964111 24.554870605468750 0.286081194877625 0.003921568859369
-8.266942977905273 24.402017593383789 4.666341304779053 0.003921568859369
-7.846020221710205 28.032230377197266 0.326080679893494 0.003921568859369
-9.862605094909668 25.885068893432617 7.376389026641846 0.003921568859369
-10.663046836853027 24.569307327270508 0.142388284206390 0.003921568859369
-6.056992530822754 23.310920715332031 0.270544052124023 0.003921568859369
-8.398318290710449 27.409078598022461 2.320624351501465 0.003921568859369
-7.045373916625977 28.186847686767578 0.326317727565765 0.003921568859369
-9.932710647583008 27.883260726928711 3.607779264450073 0.003921568859369
-7.228670120239258 23.738473892211914 2.008084535598755 0.003921568859369
-6.410323143005371 25.920280456542969 0.300027102231979 0.003921568859369
-7.123794555664062 23.685735702514648 2.001657247543335 0.003921568859369
-6.803429603576660 28.493284225463867 -0.351088196039200 0.003921568859369
-9.512434005737305 27.597906112670898 3.558407306671143 0.003921568859369
-7.417136192321777 26.083555221557617 -0.167672008275986 0.003921568859369
-5.571570396423340 23.834394454956055 0.275346070528030 0.003921568859369
-6.120024681091309 26.776887893676758 0.308935612440109 0.003921568859369
-6.399152755737305 28.553421020507812 -0.350526541471481 0.003921568859369
-6.053891181945801 27.396091461181641 0.315680146217346 0.003921568859369
-4.989212512969971 23.149597167968750 -0.282885104417801 0.003921568859369
-6.929237365722656 26.505680084228516 -0.168904647231102 0.003921568859369
-8.277392387390137 27.004590988159180 7.530873775482178 0.003921568859369
-5.869549751281738 23.654981613159180 -0.149861484766006 0.003921568859369
-5.818959236145020 23.794055938720703 -0.150592625141144 0.003921568859369
-7.268831729888916 24.530759811401367 3.120326280593872 0.003921568859369
-6.348889350891113 26.946910858154297 -0.170402556657791 0.003921568859369
-5.512818336486816 23.592424392700195 -0.148812055587769 0.003921568859369
-5.850473403930664 25.547786712646484 2.124497175216675 0.003921568859369
-6.104152202606201 26.714117050170898 4.973162174224854 0.003921568859369
-6.018230438232422 26.775829315185547 2.224922657012939 0.003921568859369
-7.012076377868652 25.700490951538086 3.251037836074829 0.003921568859369
-5.284839630126953 25.088886260986328 2.079308748245239 0.003921568859369
-5.283123970031738 27.057643890380859 2.236587762832642 0.003921568859369
-8.185899734497070 27.812103271484375 0.156986594200134 0.003921568859369
-7.477891445159912 25.651100158691406 0.144823774695396 0.003921568859369
-4.975746154785156 27.534511566162109 5.082177639007568 0.003921568859369
-7.395281791687012 26.438320159912109 0.149217441678047 0.003921568859369
-5.865210533142090 25.685972213745117 1.521669149398804 0.003921568859369
-4.594888210296631 26.442636489868164 2.178480386734009 0.003921568859369
-4.082444667816162 25.533617019653320 2.099290847778320 0.003921568859369
-7.254336357116699 28.266761779785156 0.158872902393341 0.003921568859369
-5.194068908691406 25.594396591186523 1.509054183959961 0.003921568859369
-5.663496017456055 28.048383712768555 3.496605873107910 0.003921568859369
-4.138924598693848 27.923831939697266 5.130131721496582 0.003921568859369
-6.966106414794922 28.824773788452148 0.161646634340286 0.003921568859369
-6.236433982849121 26.551948547363281 0.149142995476723 0.003921568859369
-5.668027400970459 24.008960723876953 0.707997202873230 0.003921568859369
-1.174016475677490 3.979356527328491 0.118546083569527 0.000000000000000
-2.749839782714844 21.085557937622070 3.864489555358887 0.003921568859369
-5.497328758239746 24.404233932495117 0.137025550007820 0.003921568859369
-3.948835372924805 27.251491546630859 3.367861509323120 0.003921568859369
-2.264112710952759 26.718837738037109 2.180403947830200 0.003921568859369
-2.116173744201660 26.014001846313477 2.122412681579590 0.003921568859369
-1.595823168754578 20.650915145874023 3.767780780792236 0.003921568859369
-1.185510873794556 21.204500198364258 3.864710330963135 0.003921568859369
-1.938260912895203 20.470340728759766 5.497773170471191 0.003921568859369
0.615790963172913 28.892410278320312 0.330931991338730 0.003921568859369
-0.504947185516357 20.486192703247070 3.731185913085938 0.003921568859369
-0.506294250488281 29.725061416625977 2.420237541198730 0.003921568859369
-0.440668225288391 20.962978363037109 3.817910194396973 0.003921568859369
-0.372025370597839 22.322202682495117 1.817841529846191 0.003921568859369
-1.343408823013306 21.532779693603516 2.642312288284302 0.003921568859369
-1.300030350685120 20.624158859252930 5.528082847595215 0.003921568859369
-1.522331118583679 27.305612564086914 1.585738778114319 0.003921568859369
-1.237444996833801 21.044420242309570 5.639926433563232 0.003921568859369
-1.312084317207336 29.185871124267578 0.673087716102600 0.003921568859369
-1.121700525283813 23.771602630615234 6.368135452270508 0.003921568859369
-1.115906834602356 26.259616851806641 0.605709195137024 0.003921568859369
0.445288002490997 26.427797317504883 4.815080165863037 0.003921568859369
0.650969147682190 24.354286193847656 -0.145948469638824 0.003921568859369
-0.519951343536377 22.442941665649414 2.751312732696533 0.003921568859369
-0.523807883262634 22.645465850830078 6.063304424285889 0.003921568859369
-0.464719891548157 25.476896286010742 3.123013019561768 0.003921568859369
-0.192077398300171 24.119649887084961 2.956882953643799 0.003921568859369
1.116874575614929 23.505880355834961 1.918378710746765 0.003921568859369
0.257923215627670 25.951341629028320 1.506839990615845 0.003921568859369
0.399947255849838 24.430641174316406 6.543784141540527 0.003921568859369
1.599016427993774 23.348644256591797 1.908555388450623 0.003921568859369
0.843750476837158 24.588960647583008 6.590639114379883 0.003921568859369
1.390770673751831 28.088829040527344 1.633944988250732 0.003921568859369
1.098861336708069 21.802862167358398 2.678800106048584 0.003921568859369
0.318553447723389 24.247335433959961 0.701624393463135 0.003921568859369
1.472038745880127 23.787254333496094 2.924679279327393 0.003921568859369
2.465489864349365 22.313470840454102 4.095417976379395 0.003921568859369
1.730290174484253 26.076917648315430 1.518990755081177 0.003921568859369
2.685694694519043 23.430501937866211 1.924722313880920 0.003921568859369
1.795380115509033 25.616367340087891 0.594160199165344 0.003921568859369
2.635943174362183 22.332899093627930 4.102709293365479 0.003921568859369
2.845832586288452 21.600173950195312 1.778802990913391 0.003921568859369
2.162933111190796 23.963357925415039 6.449616432189941 0.003921568859369
3.082006454467773 21.657852172851562 1.786377668380737 0.003921568859369
2.350420951843262 24.996761322021484 6.730022907257080 0.003921568859369
2.139066457748413 22.153663635253906 2.732863426208496 0.003921568859369
3.463253736495972 22.081127166748047 1.825501561164856 0.003921568859369
4.635519981384277 28.369977951049805 2.346667051315308 0.003921568859369
4.885900497436523 29.216739654541016 2.418185710906982 0.003921568859369
4.794644355773926 28.703495025634766 5.309759616851807 0.003921568859369
3.987285375595093 23.650873184204102 1.958837747573853 0.003921568859369
3.741587638854980 22.279859542846680 4.124029636383057 0.003921568859369
3.625169515609741 21.157213211059570 3.919029235839844 0.003921568859369
3.916846990585327 21.884260177612305 1.816320180892944 0.003921568859369
3.153814554214478 23.743354797363281 1.393995404243469 0.003921568859369
4.468867301940918 24.376461029052734 2.024294614791870 0.003921568859369
3.665094614028931 26.000585556030273 3.225054979324341 0.003921568859369
3.218825101852417 23.034278869628906 6.238090991973877 0.003921568859369
5.587505340576172 27.554655075073242 2.296468257904053 0.003921568859369
3.200529575347900 20.856147766113281 5.660899639129639 0.003921568859369
3.612073659896851 22.878982543945312 2.846002578735352 0.003921568859369
3.205793380737305 20.463600158691406 5.557456970214844 0.003921568859369
3.265100240707397 20.359485626220703 5.532655715942383 0.003921568859369
5.968321323394775 27.870506286621094 5.202828407287598 0.003921568859369
3.775004148483276 22.847028732299805 2.845586299896240 0.003921568859369
6.092110633850098 27.960565567016602 2.337615966796875 0.003921568859369
5.079245567321777 28.558942794799805 1.688660621643066 0.003921568859369
3.302891016006470 22.993486404418945 0.674520790576935 0.003921568859369
5.856658935546875 23.442346572875977 1.975258469581604 0.003921568859369
7.237156867980957 28.364295959472656 2.392008543014526 0.003921568859369
7.030623435974121 27.582839965820312 5.197566986083984 0.003921568859369
6.016007423400879 29.012573242187500 1.725474834442139 0.003921568859369
7.464436531066895 28.819654464721680 2.432683229446411 0.003921568859369
3.623310089111328 22.907115936279297 0.673647463321686 0.003921568859369
4.950074195861816 23.669639587402344 2.972628593444824 0.003921568859369
4.835421562194824 22.768869400024414 6.247108936309814 0.003921568859369
5.399937152862549 24.895589828491211 3.131464481353760 0.003921568859369
7.634348392486572 27.905080795288086 2.364587068557739 0.003921568859369
5.828741073608398 26.374973297119141 7.247857570648193 0.003921568859369
6.230084896087646 22.609523773193359 1.917962074279785 0.003921568859369
6.182451248168945 22.445985794067383 4.254099369049072 0.003921568859369
5.284284114837646 23.263885498046875 2.933350801467896 0.003921568859369
6.374683380126953 22.829339981079102 1.938475251197815 0.003921568859369
7.539376735687256 26.177238464355469 2.227235317230225 0.003921568859369
5.027100563049316 21.172155380249023 5.842714309692383 0.003921568859369
8.452612876892090 23.655834197998047 0.292558640241623 0.003921568859369
5.695876598358154 22.183509826660156 6.149183750152588 0.003921568859369
6.793035507202148 25.235343933105469 3.213798522949219 0.003921568859369
7.472897529602051 27.313507080078125 1.650542140007019 0.003921568859369
7.140005111694336 26.131883621215820 3.331228017807007 0.003921568859369
6.984131813049316 21.485967636108398 1.848778486251831 0.003921568859369
9.821370124816895 24.951015472412109 -0.313523888587952 0.003921568859369
9.627452850341797 24.187623977661133 -0.304394304752350 0.003921568859369
9.318718910217285 23.428052902221680 0.293950527906418 0.003921568859369
6.827727794647217 22.858020782470703 2.934919357299805 0.003921568859369
9.832738876342773 23.760658264160156 0.299927324056625 0.003921568859369
6.725841522216797 22.249547958374023 2.859928369522095 0.003921568859369
7.852539062500000 21.088569641113281 4.114958763122559 0.003921568859369
9.874321937561035 22.753574371337891 0.289561003446579 0.003921568859369
7.775118827819824 20.687957763671875 1.809441208839417 0.003921568859369
8.336047172546387 21.913320541381836 -0.137146309018135 0.003921568859369
8.587438583374023 22.054471969604492 -0.138441398739815 0.003921568859369
7.318745613098145 21.929059982299805 0.538464844226837 0.003921568859369
10.792933464050293 24.099021911621094 0.308139771223068 0.003921568859369
6.896440505981445 20.697593688964844 2.685222148895264 0.003921568859369
9.206988334655762 22.484321594238281 -0.141996532678604 0.003921568859369
10.649558067321777 22.745008468627930 0.293345510959625 0.003921568859369
10.483215332031250 22.186086654663086 0.286688745021820 0.003921568859369
10.642955780029297 22.130805969238281 -0.286690592765808 0.003921568859369
9.533509254455566 22.163543701171875 4.412263393402100 0.003921568859369
10.548790931701660 21.378410339355469 0.278753250837326 0.003921568859369
8.300934791564941 22.038265228271484 1.374759554862976 0.003921568859369
11.128233909606934 22.318286895751953 0.291403412818909 0.003921568859369
12.026322364807129 23.669488906860352 0.310201227664948 0.003921568859369
7.262646675109863 21.761772155761719 0.668409228324890 0.003921568859369
13.176253318786621 25.668415069580078 0.337017178535461 0.003921568859369
10.881608963012695 21.095527648925781 0.277572602033615 0.003921568859369
10.909545898437500 23.924415588378906 2.152379512786865 0.003921568859369
11.071087837219238 21.276018142700195 0.280484497547150 0.003921568859369
11.007589340209961 23.477491378784180 2.122869253158569 0.003921568859369
11.671497344970703 27.282108306884766 -0.692679405212402 0.003921568859369
10.275333404541016 23.383033752441406 -0.596298933029175 0.003921568859369
8.731762886047363 22.632787704467773 0.140652090311050 0.003921568859369
10.065669059753418 22.701364517211914 0.579102575778961 0.003921568859369
11.120055198669434 24.356254577636719 0.624344468116760 0.003921568859369
10.282675743103027 22.550111770629883 1.447178483009338 0.003921568859369
13.675374984741211 23.346609115600586 0.316542446613312 0.003921568859369
1.447854876518250 3.056405782699585 0.141373023390770 0.000000000000000
9.363287925720215 20.380643844604492 2.762387990951538 0.003921568859369
13.884003639221191 23.520328521728516 0.319551587104797 0.003921568859369
13.815399169921875 23.221000671386719 0.316182881593704 0.003921568859369
14.510850906372070 24.184017181396484 -0.328699856996536 0.003921568859369
13.847057342529297 22.715595245361328 0.311214327812195 0.003921568859369
13.757364273071289 22.394798278808594 0.307516664266586 0.003921568859369
13.863053321838379 22.390146255493164 0.308149904012680 0.003921568859369
13.914238929748535 25.123355865478516 2.350957393646240 0.003921568859369
15.170726776123047 24.289342880249023 0.335008174180984 0.003921568859369
15.398196220397949 24.272651672363281 0.336326569318771 0.003921568859369
13.420519828796387 26.586490631103516 1.738406896591187 0.003921568859369
11.307734489440918 22.257789611816406 1.458082675933838 0.003921568859369
14.578690528869629 24.882820129394531 -0.167696714401245 0.003921568859369
15.801377296447754 23.807495117187500 -0.332812130451202 0.003921568859369
14.762897491455078 24.587779998779297 2.347919225692749 0.003921568859369
15.852922439575195 23.513507843017578 0.331932395696640 0.003921568859369
10.640191078186035 21.891304016113281 0.710076153278351 0.003921568859369
15.396569252014160 24.843561172485352 2.392946720123291 0.003921568859369
14.018195152282715 25.105648040771484 1.678957700729370 0.003921568859369
13.370864868164062 23.763820648193359 0.636379778385162 0.003921568859369
14.048473358154297 24.955390930175781 1.672243237495422 0.003921568859369
15.503339767456055 24.630111694335938 2.382915019989014 0.003921568859369
15.604282379150391 24.608283996582031 2.385871648788452 0.003921568859369
15.927808761596680 24.921657562255859 2.421703100204468 0.003921568859369
15.938644409179688 24.748395919799805 2.410340547561646 0.003921568859369
16.990701675415039 23.395353317260742 0.338742524385452 0.003921568859369
14.695195198059082 25.074020385742188 1.697264552116394 0.003921568859369
13.641596794128418 23.093107223510742 0.626101374626160 0.003921568859369
15.340081214904785 25.334018707275391 3.645748853683472 0.003921568859369
16.254539489746094 24.099229812622070 2.380194187164307 0.003921568859369
16.288970947265625 23.969516754150391 2.373059988021851 0.003921568859369
13.464076042175293 24.513786315917969 0.163027375936508 0.003921568859369
17.887638092041016 23.555099487304688 0.346536606550217 0.003921568859369
16.770553588867188 24.135356903076172 2.406667470932007 0.003921568859369
14.909266471862793 23.697816848754883 1.635393619537354 0.003921568859369
15.474885940551758 24.389993667602539 0.674441695213318 0.003921568859369
15.728084564208984 24.786916732788086 3.614226818084717 0.003921568859369
15.851078033447266 24.797548294067383 3.623514890670776 0.003921568859369
16.966636657714844 23.879165649414062 2.398936748504639 0.003921568859369
17.135452270507812 23.936693191528320 -0.170575022697449 0.003921568859369
16.063987731933594 24.731538772583008 3.630354404449463 0.003921568859369
16.312721252441406 22.617383956909180 2.283686876296997 0.003921568859369
16.141452789306641 24.661613464355469 3.628429889678955 0.003921568859369
13.458183288574219 22.778219223022461 0.154459089040756 0.003921568859369
13.541728973388672 22.737503051757812 0.154528453946114 0.003921568859369
15.658316612243652 23.568511962890625 0.660778582096100 0.003921568859369
15.734546661376953 23.154624938964844 1.635370612144470 0.003921568859369
14.056099891662598 22.863876342773438 0.156805485486984 0.003921568859369
16.556444168090820 23.473323822021484 0.671029567718506 0.003921568859369
15.794448852539062 22.401859283447266 1.601528048515320 0.003921568859369
16.880750656127930 23.739818572998047 0.680304408073425 0.003921568859369
16.632284164428711 23.051219940185547 0.663961887359619 0.003921568859369
18.257635116577148 22.688936233520508 2.384884595870972 0.003921568859369
16.450637817382812 22.306348800659180 0.647546231746674 0.003921568859369
16.364976882934570 22.191421508789062 1.610906958580017 0.003921568859369
16.480628967285156 22.184883117675781 1.614651203155518 0.003921568859369
17.742156982421875 23.373617172241211 1.714287996292114 0.003921568859369
16.728651046752930 21.880451202392578 0.643650770187378 0.003921568859369
16.390501022338867 23.581453323364258 0.168071299791336 0.003921568859369
18.042318344116211 23.244794845581055 1.718694448471069 0.003921568859369
8.333104133605957 8.983039855957031 1.006794452667236 0.000000000000000
7.247220516204834 7.306182861328125 0.423012226819992 0.000000000000000
8.368597030639648 8.237409591674805 2.153949737548828 0.000000000000000
5.344158172607422 5.217656612396240 -0.043166194111109 0.000000000000000
7.635261058807373 8.067517280578613 1.372472882270813 0.000000000000000
8.421304702758789 7.948290824890137 2.124567985534668 0.000000000000000
8.071250915527344 7.515542984008789 2.024109125137329 0.000000000000000
3.167156934738159 2.980288505554199 0.361120849847794 0.000000000000000
15.207722663879395 13.986269950866699 3.780958890914917 0.003921568859369
4.523052215576172 4.622631072998047 0.381026178598404 0.000000000000000
15.055908203125000 13.755575180053711 3.732169628143311 0.003921568859369
4.432294368743896 3.903726100921631 1.088966250419617 0.000000000000000
8.764019966125488 7.272325515747070 0.935153841972351 0.000000000000000
1.432980179786682 1.489220976829529 0.061985410749912 0.000000000000000
1.926273941993713 1.962711095809937 0.081907376646996 0.000000000000000
7.338177680969238 5.927733898162842 1.731243729591370 0.000000000000000
2.516830205917358 2.058304786682129 0.603798270225525 0.000000000000000
13.118254661560059 10.399592399597168 3.063957691192627 0.003921568859369
5.446517944335938 4.673609256744385 0.888742804527283 0.000000000000000
14.280626296997070 10.994379997253418 3.297950029373169 0.003921568859369
6.433809280395508 5.235917568206787 0.486598491668701 0.000000000000000
5.247481822967529 3.811467885971069 0.266912728548050 0.000000000000000
8.867989540100098 6.361915111541748 2.000342845916748 0.000000000000000
5.113010406494141 3.599930286407471 0.110399305820465 0.000000000000000
4.452164173126221 3.406454324722290 0.329467236995697 0.000000000000000
2.409444332122803 1.593534946441650 0.535554170608521 0.000000000000000
4.792622089385986 3.630047082901001 0.176404729485512 0.000000000000000
3.620670557022095 2.607622385025024 -0.182773187756538 0.000000000000000
9.894661903381348 5.707428455352783 2.089079618453979 0.000000000000000
5.129654407501221 3.239166259765625 0.142219126224518 0.000000000000000
13.502807617187500 7.593345642089844 2.831095695495605 0.000000000000000
9.676502227783203 5.275029659271240 2.015900135040283 0.000000000000000
8.345318794250488 4.394716739654541 0.772334337234497 0.000000000000000
10.125323295593262 5.283829212188721 0.934793233871460 0.000000000000000
12.566486358642578 7.013664245605469 1.770495772361755 0.000000000000000
14.842025756835938 7.285664081573486 3.019696950912476 0.003921568859369
8.077439308166504 4.366659641265869 1.130796790122986 0.000000000000000
4.107901573181152 1.951665997505188 0.372799545526505 0.000000000000000
9.053509712219238 4.138623237609863 1.818341016769409 0.000000000000000
7.101240634918213 3.188085079193115 -0.992756187915802 0.000000000000000
8.767395019531250 4.461633682250977 1.210162520408630 0.000000000000000
7.112325191497803 3.163213968276978 -0.992755413055420 0.000000000000000
7.112971782684326 3.132267713546753 -0.991239607334137 0.000000000000000
7.803251743316650 3.435525894165039 1.557872772216797 0.000000000000000
7.112404823303223 3.103852272033691 -0.989723861217499 0.000000000000000
7.109156131744385 3.071415185928345 -0.987703084945679 0.000000000000000
7.141199111938477 3.057108402252197 -0.990732312202454 0.000000000000000
7.135594367980957 3.021182775497437 -0.987306833267212 0.000000000000000
7.135118007659912 2.991624593734741 -0.985791385173798 0.000000000000000
7.112526416778564 2.952994108200073 -0.981245696544647 0.000000000000000
7.100257873535156 2.920313358306885 -0.978215098381042 0.000000000000000
7.107237339019775 2.892742872238159 -0.977709710597992 0.000000000000000
7.143059730529785 2.878251552581787 -0.981244564056396 0.000000000000000
7.112019062042236 2.838358640670776 -0.975688815116882 0.000000000000000
7.099737167358398 2.804743766784668 -0.972658276557922 0.000000000000000
7.091002464294434 2.772696018218994 -0.970132708549500 0.000000000000000
7.074729919433594 2.737879276275635 -0.966597139835358 0.000000000000000
7.099068641662598 2.718806505203247 -0.968616902828217 0.000000000000000
7.089960575103760 2.686952114105225 -0.966091394424438 0.000000000000000
7.075211524963379 2.649537324905396 -0.961658835411072 0.000000000000000
7.743955612182617 2.899969816207886 0.336893469095230 0.000000000000000
11.370710372924805 4.904062271118164 3.318060398101807 0.000000000000000
7.124425411224365 2.642473697662354 -0.967214643955231 0.000000000000000
7.114978313446045 2.610759258270264 -0.964689254760742 0.000000000000000
7.116589069366455 2.583197593688965 -0.963679134845734 0.000000000000000
7.140501022338867 2.563701868057251 -0.965699374675751 0.000000000000000
7.536860466003418 3.129578351974487 -0.879052639007568 0.000000000000000
8.388761520385742 3.011873245239258 1.625081896781921 0.000000000000000
7.130710601806641 2.532123565673828 -0.963174045085907 0.000000000000000
7.536703109741211 3.098715066909790 -0.877767443656921 0.000000000000000
8.191561698913574 2.908833026885986 1.584903240203857 0.000000000000000
7.135762691497803 2.505900859832764 -0.962669014930725 0.000000000000000
7.518007755279541 3.060390472412109 -0.874340415000916 0.000000000000000
4.139268875122070 1.684991478919983 -0.312509000301361 0.000000000000000
7.140717506408691 2.479676961898804 -0.962163925170898 0.000000000000000
7.521267414093018 3.031157732009888 -0.873483598232269 0.000000000000000
7.126811504364014 2.447005987167358 -0.959133446216583 0.000000000000000
7.494862079620361 2.990149736404419 -0.869199693202972 0.000000000000000
14.107406616210938 4.085238933563232 0.170984238386154 0.000000000000000
7.131130695343018 2.422081470489502 -0.958628416061401 0.000000000000000
7.501038551330566 2.963815927505493 -0.868771314620972 0.000000000000000
7.528727531433105 3.408847570419312 0.240520551800728 0.000000000000000
12.975106239318848 5.126733779907227 1.712995648384094 0.000000000000000
7.166292190551758 2.404765844345093 -0.962163925170898 0.000000000000000
3.558601856231689 1.595569014549255 0.022666465491056 0.000000000000000
7.511851310729980 2.936305046081543 -0.868771314620972 0.000000000000000
6.259498119354248 2.100476503372192 0.268993735313416 0.000000000000000
7.136981487274170 2.367242336273193 -0.957113206386566 0.000000000000000
7.499801158905029 2.901453971862793 -0.866200983524323 0.000000000000000
6.219538688659668 2.406157970428467 1.786886692047119 0.000000000000000
7.162083625793457 2.344693422317505 -0.958240628242493 0.000000000000000
7.508090019226074 2.870892047882080 -0.865033388137817 0.000000000000000
7.132072448730469 2.308727741241455 -0.953189790248871 0.000000000000000
7.491537570953369 2.836143732070923 -0.862034797668457 0.000000000000000
7.155204296112061 2.288689851760864 -0.955210566520691 0.000000000000000
7.512563228607178 2.814196825027466 -0.863320469856262 0.000000000000000
13.170713424682617 3.516541004180908 0.158401548862457 0.000000000000000
7.208546638488770 2.278099060058594 -0.961272358894348 0.000000000000000
7.507426738739014 2.782455444335938 -0.861607134342194 0.000000000000000
7.201305866241455 2.248217105865479 -0.959252238273621 0.000000000000000
7.513360500335693 2.754892349243164 -0.861179053783417 0.000000000000000
7.245038986206055 2.234180927276611 -0.220509424805641 0.000000000000000
7.197736740112305 2.219585418701172 -0.957737267017365 0.000000000000000
7.522931575775146 2.728679656982422 -0.861179471015930 0.000000000000000
7.194054126739502 2.191008567810059 -0.956222236156464 0.000000000000000
7.517439365386963 2.697058916091919 -0.859466075897217 0.000000000000000
7.224453926086426 2.172782182693481 -0.959253251552582 0.000000000000000
7.519311904907227 2.668173074722290 -0.858609676361084 0.000000000000000
7.239601612091064 2.149846792221069 -0.960263907909393 0.000000000000000
7.524827480316162 2.640625000000000 -0.858181595802307 0.000000000000000
5.929725170135498 1.737895607948303 -0.785492837429047 0.000000000000000
7.526487350463867 2.611762523651123 -0.857325136661530 0.000000000000000
7.528484821319580 2.581611871719360 -0.856468617916107 0.000000000000000
4.191550254821777 1.668471813201904 -0.288655370473862 0.000000000000000
7.284608364105225 2.080558776855469 -0.963295638561249 0.000000000000000
7.544537067413330 2.559219121932983 -0.857325911521912 0.000000000000000
7.297359466552734 2.053973674774170 -0.962913215160370 0.000000000000000
7.566555500030518 2.534063100814819 -0.857876598834991 0.000000000000000
9.593274116516113 3.214392185211182 2.705920457839966 0.000000000000000
7.304483890533447 2.028558731079102 -0.962913870811462 0.000000000000000
7.582902431488037 2.510210752487183 -0.858734309673309 0.000000000000000
7.318823337554932 2.006487846374512 -0.963924884796143 0.000000000000000
7.587405681610107 2.483870506286621 -0.858306527137756 0.000000000000000
6.030759811401367 1.652429342269897 0.108619593083858 0.000000000000000
7.394718170166016 1.999680399894714 -0.973018586635590 0.000000000000000
7.592248439788818 2.456207036972046 -0.857878804206848 0.000000000000000
22.681638717651367 6.143875122070312 4.280545711517334 0.003921568859369
7.459154129028320 1.989292025566101 -0.980596840381622 0.000000000000000
4.287906646728516 1.602002263069153 0.026340149343014 0.000000000000000
7.593201637268066 2.427325248718262 -0.857022523880005 0.000000000000000
5.615093231201172 2.100020647048950 0.173768609762192 0.000000000000000
5.470191478729248 1.457470655441284 1.028659224510193 0.000000000000000
7.523604869842529 1.978485465049744 -0.988175034523010 0.000000000000000
7.605418682098389 2.402076482772827 -0.857451796531677 0.000000000000000
7.599592685699463 1.970239996910095 -0.997268736362457 0.000000000000000
7.609961032867432 2.374389410018921 -0.857024013996124 0.000000000000000
6.927346706390381 1.795511245727539 -0.374335318803787 0.000000000000000
4.278047084808350 0.871868133544922 -0.050790902227163 0.000000000000000
4.635280132293701 1.677417635917664 0.028376907110214 0.000000000000000
7.618203163146973 2.347877979278564 -0.857024788856506 0.000000000000000
14.814418792724609 4.571095466613770 0.901429355144501 0.000000000000000
7.637764930725098 2.324816465377808 -0.858310997486115 0.000000000000000
7.630602359771729 2.293614625930786 -0.856597781181335 0.000000000000000
10.796948432922363 3.247648239135742 0.655248582363129 0.000000000000000
7.661434173583984 2.273836374282837 -0.859169483184814 0.000000000000000
7.684587955474854 2.251625061035156 -0.860884070396423 0.000000000000000
10.170542716979980 2.450054883956909 0.425149410963058 0.000000000000000
7.717018604278564 2.229183912277222 -0.862725734710693 0.000000000000000
11.530568122863770 3.953419208526611 -0.780018508434296 0.000000000000000
8.328036308288574 2.821945428848267 -0.153413921594620 0.000000000000000
7.716722965240479 2.201482295989990 -0.861869812011719 0.000000000000000
6.051167011260986 1.410182237625122 1.127543449401855 0.000000000000000
7.739670753479004 2.178953409194946 -0.863584935665131 0.000000000000000
4.240687370300293 1.190227866172791 1.172715306282043 0.000000000000000
7.754891395568848 2.154154777526855 -0.864443182945251 0.000000000000000
7.766196250915527 2.128229618072510 -0.864872753620148 0.000000000000000
7.800446510314941 2.108491897583008 -0.867873549461365 0.000000000000000
10.307770729064941 3.335644006729126 0.314060777425766 0.000000000000000
7.846177577972412 2.091627836227417 -0.872159957885742 0.000000000000000
6.906268596649170 1.484289050102234 0.574068665504456 0.000000000000000
7.845740318298340 2.062293291091919 -0.871303915977478 0.000000000000000
17.265010833740234 2.723179578781128 -0.203956872224808 0.003921568859369
7.887532711029053 2.043998479843140 -0.875161826610565 0.000000000000000
16.302745819091797 3.393285512924194 1.356424927711487 0.000000000000000
7.963963508605957 2.034328699111938 -0.882876634597778 0.000000000000000
8.013430595397949 2.017331361770630 -0.887591540813446 0.000000000000000
7.946731567382812 1.564729928970337 -0.047322910279036 0.000000000000000
8.120762825012207 2.014422655105591 -0.898734629154205 0.000000000000000
10.300686836242676 2.029857873916626 0.426110118627548 0.000000000000000
9.226956367492676 1.817674756050110 0.765017211437225 0.000000000000000
8.222073554992676 2.006886482238770 -0.908300518989563 0.000000000000000
6.998518943786621 1.350169777870178 0.123275786638260 0.000000000000000
9.071222305297852 1.719516038894653 -0.268240422010422 0.000000000000000
8.314076423645020 1.998841166496277 -0.917730748653412 0.000000000000000
8.428987503051758 1.997171521186829 -0.929732620716095 0.000000000000000
6.574615955352783 1.221832275390625 0.270471662282944 0.000000000000000
7.967119693756104 2.301845073699951 -0.336924463510513 0.000000000000000
13.543286323547363 1.846944689750671 -0.476900637149811 0.000000000000000
13.221020698547363 2.418905735015869 -0.078733734786510 0.000000000000000
8.513004302978516 1.987489342689514 -0.938305795192719 0.000000000000000
9.338649749755859 1.706528544425964 0.771362125873566 0.000000000000000
13.386855125427246 2.401192426681519 -0.079674273729324 0.000000000000000
11.745193481445312 2.702244997024536 0.699029684066772 0.000000000000000
4.422445774078369 0.756386101245880 -0.233573019504547 0.000000000000000
14.265347480773926 2.454106092453003 2.631525278091431 0.000000000000000
5.487460613250732 1.178021311759949 -0.000412287423387 0.000000000000000
7.050101757049561 0.810996055603027 -0.082705907523632 0.000000000000000
12.644821166992188 2.676753997802734 0.299121767282486 0.000000000000000
6.201892375946045 1.286325693130493 0.366289764642715 0.000000000000000
4.349723815917969 0.681984007358551 -0.229175209999084 0.000000000000000
5.959002017974854 1.541018128395081 -0.249718517065048 0.000000000000000
12.577816963195801 3.121129989624023 -0.226372718811035 0.000000000000000
13.370963096618652 2.586551904678345 0.789416313171387 0.000000000000000
7.088284492492676 1.012916207313538 0.289192616939545 0.000000000000000
4.336025238037109 0.818680047988892 -0.102058947086334 0.000000000000000
3.996818065643311 0.513419508934021 0.069096110761166 0.000000000000000
9.224982261657715 1.192923545837402 1.686706781387329 0.000000000000000
19.418075561523438 3.212504148483276 -0.001466942252591 0.003921568859369
10.735563278198242 1.201918125152588 0.877177119255066 0.000000000000000
4.961410522460938 0.499491661787033 0.898387730121613 0.000000000000000
8.916580200195312 0.744839310646057 -0.052631352096796 0.000000000000000
7.892537593841553 1.412149429321289 -0.139813199639320 0.000000000000000
13.247632980346680 2.329641103744507 0.076602689921856 0.000000000000000
14.451360702514648 1.111338496208191 2.630987167358398 0.000000000000000
9.164969444274902 1.575890302658081 -0.377551615238190 0.000000000000000
19.521739959716797 1.434468150138855 3.556808948516846 0.003921568859369
9.339412689208984 1.142356395721436 -0.218617677688599 0.000000000000000
5.872790336608887 0.409270793199539 0.236871555447578 0.000000000000000
13.537942886352539 1.613523483276367 1.665852785110474 0.000000000000000
7.713688850402832 0.886889398097992 -0.359636723995209 0.000000000000000
10.751193046569824 0.674947202205658 0.434911161661148 0.000000000000000
15.003410339355469 0.162819325923920 -0.175706520676613 0.000000000000000
16.049076080322266 0.956246435642242 2.917560577392578 0.003921568859369
7.600620269775391 0.055778820067644 0.086710102856159 0.000000000000000
4.416146278381348 0.675415575504303 -0.282822489738464 0.000000000000000
12.310220718383789 0.604098141193390 -0.072730787098408 0.000000000000000
8.490299224853516 0.829655766487122 0.195932030677795 0.000000000000000
12.524767875671387 0.614518821239471 2.272898674011230 0.000000000000000
3.439518451690674 0.142797872424126 0.137016832828522 0.000000000000000
5.735160827636719 0.779098510742188 -0.100671350955963 0.000000000000000
14.743592262268066 0.470090985298157 0.254599601030350 0.000000000000000
15.261737823486328 1.231798768043518 0.886152923107147 0.000000000000000
12.064175605773926 0.344461649656296 -0.071233972907066 0.000000000000000
2.429821014404297 -0.056241165846586 -0.027975600212812 0.000000000000000
14.018042564392090 0.348955720663071 -0.082976385951042 0.000000000000000
2.989631175994873 -0.069595418870449 0.033327918499708 0.000000000000000
9.528327941894531 0.236503869295120 0.770605623722076 0.000000000000000
13.124874114990234 -0.356859624385834 -0.153843000531197 0.000000000000000
10.336092948913574 0.220951646566391 -0.061132300645113 0.000000000000000
8.427919387817383 0.559710800647736 -0.001224243082106 0.003921568859369
8.090523719787598 0.537084937095642 0.185757219791412 0.000000000000000
12.794992446899414 0.810050904750824 -0.595467627048492 0.000000000000000
4.559290885925293 0.065951205790043 0.365344077348709 0.000000000000000
7.213190078735352 0.328303247690201 0.165189459919930 0.000000000000000
11.367618560791016 0.519454717636108 -0.264640152454376 0.000000000000000
8.430354118347168 -0.050546988844872 -0.049834329634905 0.000000000000000
13.247033119201660 0.564400553703308 0.304991215467453 0.000000000000000
14.402579307556152 -0.086667977273464 0.581752061843872 0.000000000000000
8.338105201721191 -0.081723295152187 -0.049290869385004 0.000000000000000
7.047186374664307 -0.069013498723507 0.568120837211609 0.000000000000000
9.005391120910645 0.755192995071411 -0.157722473144531 0.000000000000000
20.605789184570312 -0.489737480878830 -0.122419074177742 0.003921568859369
11.744007110595703 0.863023877143860 -0.751127064228058 0.000000000000000
19.490110397338867 -0.463254213333130 1.581695675849915 0.000000000000000
11.587594985961914 -0.310730487108231 -0.068761140108109 0.000000000000000
12.336626052856445 -0.418717652559280 -0.073242031037807 0.000000000000000
9.748360633850098 0.615221738815308 0.280277758836746 0.000000000000000
10.719681739807129 -0.400685012340546 0.431846201419830 0.000000000000000
8.139554023742676 -0.303529977798462 0.656665146350861 0.000000000000000
7.502104282379150 0.083012729883194 1.986438155174255 0.000000000000000
10.064517021179199 -0.376119375228882 1.819275498390198 0.000000000000000
7.991555213928223 -0.710941314697266 -0.093855097889900 0.000000000000000
7.525511264801025 0.059895377606153 1.992644667625427 0.000000000000000
12.744879722595215 -0.516941249370575 2.308219671249390 0.000000000000000
7.176526069641113 -0.663900315761566 0.081620343029499 0.000000000000000
12.659761428833008 -0.076220966875553 -0.002002964494750 0.000000000000000
13.704183578491211 -0.748946309089661 0.553535282611847 0.000000000000000
