# This PCD file was generated using the MATLAB® pcwrite function
# from Computer Vision Toolbox®.
# .PCD v.7 - Point Cloud Data file format
VERSION .7
FIELDS x y z intensity
SIZE 8 8 8 8
TYPE F F F F
COUNT 1 1 1 1
WIDTH 646
HEIGHT 1
VIEWPOINT 0 0 0 1 0 0 0
POINTS 646
DATA ascii
-19.099973678588867 3.675036191940308 -0.416023582220078 0.000000000000000
-19.925952911376953 2.933498859405518 -0.317737698554993 0.003921568859369
-9.046387672424316 2.146926403045654 -0.241180062294006 0.000000000000000
-19.601102828979492 2.884394645690918 -0.760536134243011 0.003921568859369
-19.185022354125977 3.759493350982666 -0.418228596448898 0.000000000000000
-19.859733581542969 2.995829343795776 -0.316792905330658 0.003921568859369
-7.243298530578613 1.716030240058899 -0.349728792905807 0.000000000000000
-12.312174797058105 2.415256261825562 1.488707065582275 0.000000000000000
-19.653587341308594 2.963949680328369 -0.763053297996521 0.003921568859369
-19.186782836914062 3.830925226211548 -0.418564647436142 0.000000000000000
-19.833890914916992 3.057262659072876 -0.316508471965790 0.003921568859369
-9.735330581665039 2.389753103256226 -0.261588692665100 0.000000000000000
-18.314476013183594 3.712847232818604 -0.821615457534790 0.000000000000000
-21.562086105346680 3.331826448440552 -0.840204358100891 0.003921568859369
-10.823300361633301 2.143862485885620 2.822655200958252 0.000000000000000
-19.236600875854492 3.905739068984985 -0.419970214366913 0.000000000000000
-19.779670715332031 3.117441415786743 -0.315762817859650 0.003921568859369
-19.559846878051758 4.042772293090820 -0.880209684371948 0.000000000000000
-21.558214187622070 3.406366348266602 -0.840497672557831 0.003921568859369
-11.053755760192871 2.230319499969482 2.888137340545654 0.000000000000000
-19.760778427124023 3.183167695999146 -0.315609365701675 0.003921568859369
-7.957293510437012 1.598584294319153 0.452237486839294 0.000000000000000
-19.713544845581055 4.145408630371094 -0.888018012046814 0.000000000000000
-21.581680297851562 3.485495567321777 -0.841902732849121 0.003921568859369
-19.749544143676758 3.250136375427246 -0.315587639808655 0.003921568859369
-18.582893371582031 3.966365575790405 -0.835942864418030 0.000000000000000
-21.549678802490234 3.555477142333984 -0.841085135936737 0.003921568859369
-19.749902725219727 3.319107532501221 -0.315763384103775 0.003921568859369
-18.549438476562500 4.024845600128174 -0.835015654563904 0.000000000000000
-20.863695144653320 3.512085914611816 -0.813911497592926 0.003921568859369
-19.738193511962891 3.386037588119507 -0.315742164850235 0.003921568859369
-5.762885093688965 0.916362166404724 -0.328349649906158 0.000000000000000
-18.535276412963867 4.087579727172852 -0.834998786449432 0.000000000000000
-20.646640777587891 3.546730756759644 -0.805633127689362 0.003921568859369
-19.760149002075195 3.461051225662231 -0.316759794950485 0.003921568859369
-18.647739410400391 4.182075023651123 -0.841658353805542 0.000000000000000
-19.794780731201172 3.467437744140625 -0.772427797317505 0.003921568859369
-9.914114952087402 2.648988008499146 1.787063837051392 0.000000000000000
-19.779413223266602 3.533832073211670 -0.317265480756760 0.003921568859369
-10.271269798278809 3.308679819107056 -0.104607574641705 0.000000000000000
-18.675815582275391 4.255232810974121 -0.843644440174103 0.000000000000000
-19.790416717529297 3.535995483398438 -0.772724807262421 0.003921568859369
-19.803594589233398 3.600816011428833 -0.317839175462723 0.003921568859369
-8.899181365966797 2.870218753814697 0.116012431681156 0.000000000000000
-18.747871398925781 4.332499027252197 -0.847634971141815 0.000000000000000
-8.492290496826172 2.303222656250000 0.687035858631134 0.000000000000000
-19.716354370117188 3.584622621536255 -0.770165503025055 0.003921568859369
-19.824975967407227 3.681435346603394 -0.318408936262131 0.003921568859369
-4.528150558471680 1.167987585067749 0.176967263221741 0.000000000000000
-14.453301429748535 3.364949226379395 1.774172902107239 0.000000000000000
-19.517934799194336 3.622871637344360 -0.762679636478424 0.003921568859369
-19.894443511962891 3.764711380004883 -0.319770187139511 0.003921568859369
-20.649692535400391 3.911546707153320 0.620476663112640 0.003921568859369
-19.536556243896484 3.695130825042725 -0.763930380344391 0.003921568859369
-19.967483520507812 3.849304914474487 -0.321197301149368 0.003921568859369
-19.417688369750977 3.740345478057861 -0.759623527526855 0.003921568859369
-8.374492645263672 1.950141191482544 -0.175000101327896 0.000000000000000
-19.943531036376953 3.907878160476685 -0.320982277393341 0.003921568859369
-7.226330757141113 1.685610055923462 0.011208286508918 0.000000000000000
-19.783975601196289 3.945710182189941 -0.775465965270996 0.003921568859369
-19.723133087158203 4.002979755401611 -0.773541450500488 0.003921568859369
-14.697997093200684 3.004137039184570 0.439471334218979 0.000000000000000
-19.755952835083008 4.079813480377197 -0.775428056716919 0.003921568859369
-18.572021484375000 4.757132053375244 5.016420841217041 0.003921568859369
-4.585597991943359 0.868992865085602 0.128202870488167 0.000000000000000
-18.889966964721680 3.962614536285400 -0.740796625614166 0.003921568859369
-10.461245536804199 3.177510976791382 1.911233544349670 0.000000000000000
-10.842827796936035 3.905010461807251 -0.112402759492397 0.000000000000000
-18.731586456298828 3.994806528091431 -0.734904587268829 0.003921568859369
-14.640903472900391 4.573802947998047 2.719380378723145 0.000000000000000
-18.700305938720703 4.056755542755127 -0.734876215457916 0.003921568859369
-14.486205101013184 3.837003946304321 3.892781019210815 0.000000000000000
-5.213359832763672 1.549871563911438 -0.248357385396957 0.000000000000000
-13.490711212158203 2.939357519149780 -0.523161172866821 0.000000000000000
-8.718271255493164 3.198196172714233 -0.088965736329556 0.000000000000000
-5.901068687438965 1.798418283462524 -0.285915136337280 0.000000000000000
-13.411771774291992 4.377536296844482 0.255182653665543 0.000000000000000
-12.940084457397461 4.216797351837158 1.086006760597229 0.000000000000000
-10.909299850463867 3.045756101608276 0.643931865692139 0.000000000000000
-7.168552398681641 2.432460546493530 0.134431958198547 0.000000000000000
-10.798811912536621 2.745931386947632 -0.170686319470406 0.000000000000000
-10.269793510437012 2.713675498962402 0.072861604392529 0.000000000000000
-18.158994674682617 5.925338268280029 1.105401635169983 0.000000000000000
-8.575154304504395 3.243389844894409 -0.037489287555218 0.000000000000000
-6.241559505462646 1.675509572029114 0.182919383049011 0.000000000000000
-5.286170959472656 1.687492132186890 0.009140307083726 0.000000000000000
-10.384234428405762 4.092477321624756 -0.047044187784195 0.000000000000000
-15.908471107482910 5.586591720581055 2.028563499450684 0.003921568859369
-10.433856010437012 3.595585584640503 2.835852622985840 0.000000000000000
-9.033316612243652 2.660236120223999 0.064605399966240 0.000000000000000
-9.792173385620117 3.926327943801880 0.189672932028770 0.000000000000000
-9.189965248107910 3.250242948532104 0.013246955350041 0.003921568859369
-11.832685470581055 4.242387771606445 3.251322984695435 0.000000000000000
-10.635573387145996 3.356639862060547 -0.171237006783485 0.000000000000000
-3.270026683807373 1.070686697959900 0.006913665682077 0.000000000000000
-7.396225929260254 2.412423372268677 0.053533319383860 0.000000000000000
-6.184279918670654 2.325306653976440 0.010115534067154 0.000000000000000
-9.479496002197266 3.360915422439575 -0.153611660003662 0.000000000000000
-9.237113952636719 3.269870519638062 0.284007430076599 0.000000000000000
-7.534517765045166 2.686807155609131 -0.469878822565079 0.000000000000000
-7.912155628204346 2.890871286392212 -0.126735731959343 0.000000000000000
-21.182895660400391 9.359611511230469 6.105653762817383 0.003921568859369
-8.710716247558594 3.339963674545288 0.063952125608921 0.000000000000000
-6.581089973449707 3.785104513168335 -0.238899201154709 0.000000000000000
-9.013740539550781 3.811051607131958 0.284107863903046 0.000000000000000
-14.712663650512695 7.219924449920654 4.289000988006592 0.003921568859369
-4.189684391021729 1.809542655944824 0.127240508794785 0.000000000000000
-4.617643833160400 2.261289358139038 -0.293181896209717 0.000000000000000
-3.348223686218262 1.949381709098816 0.289138257503510 0.000000000000000
-14.297237396240234 9.570053100585938 3.082579374313354 0.003921568859369
-3.544478416442871 1.774705171585083 -0.219717442989349 0.000000000000000
-5.504350185394287 3.276664257049561 0.745344936847687 0.000000000000000
-6.849389553070068 3.971875429153442 -0.295424491167068 0.000000000000000
-8.321754455566406 6.384211063385010 1.857427477836609 0.000000000000000
-11.716120719909668 8.703281402587891 1.763009309768677 0.000000000000000
-10.436310768127441 7.117986202239990 -0.484419375658035 0.000000000000000
-12.141153335571289 10.268601417541504 4.186203002929688 0.003921568859369
-19.000486373901367 22.842126846313477 0.369870364665985 0.003921568859369
-17.369806289672852 21.294595718383789 0.342019528150558 0.003921568859369
-11.774743080139160 11.777728080749512 4.398270130157471 0.003921568859369
-18.125114440917969 22.733728408813477 0.361730456352234 0.003921568859369
-16.798362731933594 21.181283950805664 0.336312502622604 0.003921568859369
-16.679166793823242 21.333225250244141 0.336841225624084 0.003921568859369
-18.055242538452148 21.530284881591797 2.297474861145020 0.003921568859369
-17.072357177734375 20.777082443237305 2.198112726211548 0.003921568859369
-16.318689346313477 23.127483367919922 0.351826459169388 0.003921568859369
-17.175762176513672 22.469369888305664 5.136776924133301 0.003921568859369
-17.720605850219727 23.537311553955078 -0.823799788951874 0.003921568859369
-18.052085876464844 21.840724945068359 3.472855329513550 0.003921568859369
-16.781841278076172 22.427484512329102 5.087665081024170 0.003921568859369
-15.323786735534668 22.863325119018555 0.342002898454666 0.003921568859369
-18.264022827148438 22.274101257324219 3.531694412231445 0.003921568859369
-16.139019012451172 21.875560760498047 -0.132168531417847 0.003921568859369
-16.539127349853516 25.107471466064453 -0.321347177028656 0.003921568859369
-17.685533523559570 21.861806869506836 0.674014031887054 0.003921568859369
-15.178941726684570 22.990428924560547 0.342268675565720 0.003921568859369
-16.810665130615234 22.982175827026367 5.174010753631592 0.003921568859369
-17.770759582519531 22.289461135864258 3.495243787765503 0.003921568859369
-17.777822494506836 22.459856033325195 3.512381315231323 0.003921568859369
-15.936507225036621 25.301038742065430 0.371281713247299 0.003921568859369
-15.328105926513672 24.500999450683594 0.358838528394699 0.003921568859369
-14.812855720520020 23.841073989868164 -0.300067245960236 0.003921568859369
-16.930238723754883 22.134326934814453 0.667863309383392 0.003921568859369
-16.879976272583008 24.670768737792969 -0.146250218153000 0.003921568859369
-14.593326568603516 23.673835754394531 0.345261514186859 0.003921568859369
-16.403142929077148 23.958332061767578 2.377250432968140 0.003921568859369
-15.406626701354980 22.648590087890625 -0.766505420207977 0.003921568859369
-15.665656089782715 25.683237075805664 0.373462378978729 0.003921568859369
-17.338087081909180 23.037939071655273 3.537137508392334 0.003921568859369
-5.171677112579346 6.488491535186768 2.168121576309204 0.000000000000000
-15.469862937927246 22.908676147460938 -0.773679971694946 0.003921568859369
-18.533737182617188 22.604837417602539 0.195016056299210 0.003921568859369
-14.807737350463867 24.619710922241211 0.356619209051132 0.003921568859369
-14.880853652954102 24.943399429321289 -0.311063230037689 0.003921568859369
-14.767387390136719 24.958164215087891 -0.310633093118668 0.003921568859369
-14.655852317810059 24.966205596923828 0.359251528978348 0.003921568859369
-14.310770034790039 24.550487518310547 0.352619200944901 0.003921568859369
-16.689178466796875 23.147747039794922 3.501092910766602 0.003921568859369
-13.756538391113281 21.098991394042969 2.060924768447876 0.003921568859369
-14.300644874572754 24.936977386474609 0.356635391712189 0.003921568859369
-16.974971771240234 23.906898498535156 3.598148345947266 0.003921568859369
-16.119564056396484 25.424797058105469 -0.844050884246826 0.003921568859369
-13.606584548950195 21.362071990966797 2.072633028030396 0.003921568859369
-16.147813796997070 23.045204162597656 0.674421966075897 0.003921568859369
-15.772761344909668 22.498241424560547 3.370444536209106 0.003921568859369
-15.958620071411133 25.551679611206055 -0.844821810722351 0.003921568859369
-15.875061988830566 22.827177047729492 3.411119937896729 0.003921568859369
-15.316585540771484 22.182046890258789 0.646061778068542 0.003921568859369
-15.599500656127930 22.604579925537109 3.369864702224731 0.003921568859369
-13.221604347229004 21.418008804321289 2.060314178466797 0.003921568859369
-15.679958343505859 23.061634063720703 3.422275543212891 0.003921568859369
-13.224400520324707 21.578449249267578 4.600251197814941 0.003921568859369
-7.409442424774170 10.756744384765625 3.455359697341919 0.000000000000000
-14.392079353332520 24.108621597290039 -0.138048678636551 0.003921568859369
-14.036799430847168 23.501510620117188 4.979066371917725 0.003921568859369
-13.867613792419434 23.392488479614258 -0.762392222881317 0.003921568859369
-13.728342056274414 23.338706970214844 -0.759148120880127 0.003921568859369
-15.558913230895996 23.963047027587891 3.507374048233032 0.003921568859369
-15.447711944580078 23.972148895263672 3.500954389572144 0.003921568859369
-14.728440284729004 23.008066177368164 7.289366722106934 0.003921568859369
-11.785690307617188 23.212011337280273 -0.279444664716721 0.003921568859369
-14.620841026306152 23.759597778320312 0.668595492839813 0.003921568859369
-12.780117988586426 26.425760269165039 -0.316137909889221 0.003921568859369
-12.918079376220703 26.939636230468750 -0.321918994188309 0.003921568859369
-12.515974044799805 26.076271057128906 0.358183950185776 0.003921568859369
-15.040446281433105 25.447032928466797 0.708419382572174 0.003921568859369
-12.471970558166504 26.958742141723633 -0.320301890373230 0.003921568859369
-11.629219055175781 25.315671920776367 -0.300167024135590 0.003921568859369
-14.143226623535156 24.477218627929688 -0.629470586776733 0.003921568859369
-14.267505645751953 24.910013198852539 0.687962472438812 0.003921568859369
-11.644158363342285 22.754770278930664 2.094460964202881 0.003921568859369
-13.050790786743164 25.818140029907227 -0.143526464700699 0.003921568859369
-15.336170196533203 24.367227554321289 0.191022098064423 0.003921568859369
-11.002675056457520 25.112037658691406 0.339241951704025 0.003921568859369
-11.410224914550781 26.329675674438477 -0.309792101383209 0.003921568859369
-11.157692909240723 25.728128433227539 0.346926748752594 0.003921568859369
-10.881923675537109 25.556791305541992 0.343568772077560 0.003921568859369
-14.717220306396484 24.505157470703125 0.189435899257660 0.003921568859369
-10.827289581298828 25.950395584106445 0.347693026065826 0.003921568859369
-9.497552871704102 23.100912094116211 -0.269395768642426 0.003921568859369
-10.826698303222656 26.467363357543945 0.353493213653564 0.003921568859369
-11.336165428161621 24.223880767822266 2.192464590072632 0.003921568859369
-11.670671463012695 25.193677902221680 -0.138160079717636 0.003921568859369
-10.655613899230957 26.302526473999023 0.350778013467789 0.003921568859369
-10.655045509338379 26.599510192871094 0.354158461093903 0.003921568859369
-13.688659667968750 26.438138961791992 3.660005092620850 0.003921568859369
-10.644666671752930 26.864925384521484 0.357100129127502 0.003921568859369
-11.237729072570801 24.729150772094727 4.947978019714355 0.003921568859369
-9.940533638000488 25.275590896606445 0.335689693689346 0.003921568859369
-13.128479003906250 25.772794723510742 3.555463314056396 0.003921568859369
-10.882060050964355 24.133539199829102 2.170593261718750 0.003921568859369
-10.417160034179688 26.814702987670898 -0.311388820409775 0.003921568859369
-13.358570098876953 26.469341278076172 3.645137310028076 0.003921568859369
-4.152929306030273 7.718183040618896 2.313806533813477 0.000000000000000
-11.686120033264160 26.473190307617188 5.273344039916992 0.003921568859369
-10.467650413513184 27.818794250488281 0.367041081190109 0.003921568859369
-12.006357192993164 24.345472335815430 3.336101293563843 0.003921568859369
-12.515927314758301 25.416067123413086 7.573338031768799 0.003921568859369
-9.730895996093750 26.073429107666016 0.343724995851517 0.003921568859369
-10.909834861755371 26.152433395385742 -0.141774371266365 0.003921568859369
-11.232892036437988 23.783885955810547 1.544407129287720 0.003921568859369
-10.372145652770996 25.355701446533203 2.247182607650757 0.003921568859369
-12.089082717895508 25.925676345825195 7.649826049804688 0.003921568859369
-9.172171592712402 22.321943283081055 4.395795822143555 0.003921568859369
-10.674969673156738 26.401199340820312 -0.142715394496918 0.003921568859369
-11.070707321166992 23.901275634765625 1.546886682510376 0.003921568859369
-10.770733833312988 26.909019470214844 -0.145384266972542 0.003921568859369
-10.307097434997559 25.715019226074219 2.272665739059448 0.003921568859369
-11.835634231567383 25.844610214233398 7.601973056793213 0.003921568859369
-11.224663734436035 24.693649291992188 1.593146324157715 0.003921568859369
-9.504099845886230 24.920118331909180 -0.133773207664490 0.003921568859369
-10.700598716735840 24.424741744995117 3.278571605682373 0.003921568859369
-9.488047599792480 25.147411346435547 -0.134900912642479 0.003921568859369
-8.298217773437500 21.874673843383789 1.918354630470276 0.003921568859369
-10.330574035644531 27.769065856933594 -0.149161025881767 0.003921568859369
-11.269764900207520 26.273801803588867 0.684519350528717 0.003921568859369
-9.301699638366699 25.157114028930664 2.200380086898804 0.003921568859369
-11.365550041198730 26.751638412475586 7.775907993316650 0.003921568859369
-11.269164085388184 26.782783508300781 7.773776054382324 0.003921568859369
-6.670614242553711 22.413785934448242 0.288432449102402 0.003921568859369
-9.876756668090820 25.935096740722656 0.664221584796906 0.003921568859369
-7.291007995605469 22.194997787475586 1.916401863098145 0.003921568859369
-11.029560089111328 25.442104339599609 0.182305559515953 0.003921568859369
-9.909128189086914 26.306446075439453 0.672774493694305 0.003921568859369
-6.300315380096436 20.832807540893555 1.785538434982300 0.003921568859369
-9.753519058227539 24.056797027587891 0.170514181256294 0.003921568859369
-9.837109565734863 24.522174835205078 0.173467576503754 0.003921568859369
-6.254044532775879 26.094245910644531 0.329996198415756 0.003921568859369
-6.010124206542969 20.360239028930664 3.870208263397217 0.003921568859369
-6.170084476470947 26.125438690185547 0.330083578824997 0.003921568859369
-6.689754486083984 28.927133560180664 0.364795297384262 0.003921568859369
-10.657244682312012 27.475740432739258 0.193059280514717 0.003921568859369
-6.482565402984619 23.627332687377930 4.469578742980957 0.003921568859369
-9.725350379943848 26.123079299926758 0.182548269629478 0.003921568859369
-8.611423492431641 28.540317535400391 0.712884724140167 0.003921568859369
-5.433154106140137 21.797203063964844 1.843844532966614 0.003921568859369
-6.458865642547607 21.701814651489258 6.060773372650146 0.003921568859369
-6.461183547973633 26.611850738525391 4.998853206634521 0.003921568859369
-5.279950618743896 21.828443527221680 1.843412995338440 0.003921568859369
-5.388720512390137 22.674341201782227 1.913168430328369 0.003921568859369
-6.241802215576172 26.504283905029297 4.970656394958496 0.003921568859369
-6.259347438812256 21.870079040527344 0.544072449207306 0.003921568859369
-5.255340099334717 22.471040725708008 4.211292266845703 0.003921568859369
-5.932103157043457 20.928937911987305 2.676754236221313 0.003921568859369
-6.713909626007080 24.222553253173828 3.094535827636719 0.003921568859369
-6.059107303619385 22.383201599121094 6.209823131561279 0.003921568859369
-5.113145828247070 23.818935394287109 2.000323057174683 0.003921568859369
-5.389506816864014 26.109073638916016 2.189270734786987 0.003921568859369
-6.489344596862793 21.816679000854492 0.676788985729218 0.003921568859369
-5.423233032226562 22.497247695922852 6.199024200439453 0.003921568859369
-6.326557159423828 22.468532562255859 0.694035768508911 0.003921568859369
-4.291635036468506 24.081319808959961 2.008905649185181 0.003921568859369
-6.088811397552490 21.886358261108398 0.675458729267120 0.003921568859369
-6.290556430816650 28.648582458496094 0.700611829757690 0.003921568859369
-3.936465978622437 22.927286148071289 1.910517215728760 0.003921568859369
-5.029338359832764 23.017555236816406 2.901640176773071 0.003921568859369
-3.833864927291870 22.794046401977539 1.898340582847595 0.003921568859369
-5.416504383087158 25.810729980468750 0.629998028278351 0.003921568859369
-5.869286537170410 29.170200347900391 1.748968482017517 0.003921568859369
-5.307417869567871 26.704010009765625 1.600307941436768 0.003921568859369
-4.285068988800049 21.665950775146484 2.720138788223267 0.003921568859369
-5.304800987243652 22.760580062866211 0.694642603397369 0.003921568859369
-2.942269802093506 22.840925216674805 1.891809344291687 0.003921568859369
-5.028796195983887 29.195119857788086 1.741349458694458 0.003921568859369
-3.042303085327148 25.264995574951172 4.649819850921631 0.003921568859369
-4.602746009826660 28.449474334716797 1.693967580795288 0.003921568859369
-2.971622228622437 26.306356430053711 2.174782037734985 0.003921568859369
-2.483938932418823 23.109594345092773 1.909464716911316 0.003921568859369
-2.026703596115112 21.588127136230469 1.781553626060486 0.003921568859369
-2.029587268829346 22.559646606445312 1.861042618751526 0.003921568859369
-1.554366230964661 21.161712646484375 1.743583798408508 0.003921568859369
-2.691173553466797 23.631879806518555 6.380614280700684 0.003921568859369
-2.742900609970093 25.849906921386719 1.527965545654297 0.003921568859369
-2.405416965484619 22.305057525634766 2.765253067016602 0.003921568859369
-2.521853446960449 23.559257507324219 6.356641292572021 0.003921568859369
-2.307154178619385 22.237575531005859 2.755886793136597 0.003921568859369
-2.424416303634644 23.551929473876953 6.352421760559082 0.003921568859369
-2.259075164794922 23.477209091186523 2.907478332519531 0.003921568859369
-1.995380640029907 20.374698638916016 5.492534637451172 0.003921568859369
-2.446208715438843 29.420372009277344 1.735019326210022 0.003921568859369
-0.748597025871277 22.003812789916992 1.809373378753662 0.003921568859369
-1.933260679244995 24.752948760986328 1.459443569183350 0.003921568859369
-1.773525357246399 22.413743972778320 6.033617019653320 0.003921568859369
-0.546348929405212 25.021266937255859 2.056506872177124 0.003921568859369
-0.436405181884766 21.860752105712891 1.797030210494995 0.003921568859369
-1.382678031921387 19.709095001220703 5.302329063415527 0.003921568859369
-0.438036441802979 22.332311630249023 4.084806442260742 0.003921568859369
-0.280050337314606 21.817415237426758 3.990481615066528 0.003921568859369
-1.242364406585693 23.111371994018555 2.853890895843506 0.003921568859369
-1.102163910865784 21.632440567016602 5.814330577850342 0.003921568859369
0.054079830646515 23.521505355834961 1.933050274848938 0.003921568859369
-1.031805276870728 24.120237350463867 2.976988077163696 0.003921568859369
-0.918200850486755 20.591323852539062 5.533198833465576 0.003921568859369
0.229508429765701 28.781726837158203 5.263607501983643 0.003921568859369
0.329327911138535 29.350027084350586 2.411384582519531 0.003921568859369
-0.892930030822754 21.987348556518555 5.907489299774170 0.003921568859369
0.291034370660782 27.371646881103516 5.006122112274170 0.003921568859369
0.314486652612686 24.368114471435547 4.457431316375732 0.003921568859369
-0.751794099807739 22.949228286743164 6.164525032043457 0.003921568859369
0.378246098756790 23.295837402343750 4.261786460876465 0.003921568859369
0.711821317672729 28.402339935302734 2.334214925765991 0.003921568859369
-0.134261146187782 3.057845830917358 0.254181832075119 0.000000000000000
0.954623997211456 26.964733123779297 2.216919898986816 0.003921568859369
-0.270885944366455 28.449876785278320 1.671769142150879 0.003921568859369
1.170815229415894 27.584875106811523 2.268430233001709 0.003921568859369
-0.092633470892906 25.195703506469727 3.107346534729004 0.003921568859369
1.292284488677979 27.945650100708008 2.298427104949951 0.003921568859369
0.179716944694519 25.950813293457031 3.200554847717285 0.003921568859369
1.155664920806885 20.332073211669922 3.726876974105835 0.003921568859369
0.309134364128113 23.617303848266602 2.913343191146851 0.003921568859369
0.238664090633392 20.603384017944336 5.534376621246338 0.003921568859369
1.631612777709961 23.619522094726562 1.945861339569092 0.003921568859369
0.765497207641602 29.706300735473633 1.745668768882751 0.003921568859369
0.867408394813538 29.518827438354492 1.734814763069153 0.003921568859369
1.163115262985229 29.352451324462891 0.697909712791443 0.003921568859369
3.174134731292725 23.314680099487305 0.284373849630356 0.003921568859369
1.830138921737671 21.377548217773438 1.763828277587891 0.003921568859369
1.222231030464172 28.369819641113281 3.502004861831665 0.003921568859369
1.915297031402588 21.437206268310547 1.769319534301758 0.003921568859369
2.745360851287842 21.358467102050781 1.770270586013794 0.003921568859369
4.867845535278320 22.912090301513672 0.281823545694351 0.003921568859369
3.810937881469727 22.568092346191406 4.189946174621582 0.003921568859369
5.642621994018555 25.147560119628906 0.309524595737457 0.003921568859369
5.923714637756348 25.158468246459961 0.310195833444595 0.003921568859369
5.652829647064209 22.022600173950195 -0.257808327674866 0.003921568859369
2.725048780441284 23.532405853271484 0.700715065002441 0.003921568859369
6.141365528106689 22.597812652587891 -0.265912324190140 0.003921568859369
5.983079910278320 21.444950103759766 0.266989856958389 0.003921568859369
5.324818611145020 22.351932525634766 -0.125907972455025 0.003921568859369
5.432114124298096 22.448791503906250 -0.126648634672165 0.003921568859369
6.356263637542725 21.327905654907227 0.266559302806854 0.003921568859369
7.957460403442383 26.199903488159180 0.327023208141327 0.003921568859369
6.075551986694336 23.904594421386719 -0.135659888386726 0.003921568859369
4.871894359588623 22.861223220825195 0.553522527217865 0.003921568859369
5.839843273162842 21.800142288208008 -0.651168286800385 0.003921568859369
9.097563743591309 27.777320861816406 0.348349362611771 0.003921568859369
6.555886745452881 24.027610778808594 2.045707464218140 0.003921568859369
6.743176460266113 24.032173156738281 2.050120592117310 0.003921568859369
6.171104431152344 21.777437210083008 -0.124848112463951 0.003921568859369
9.784207344055176 27.847139358520508 0.351199090480804 0.003921568859369
8.615734100341797 24.335557937622070 0.307584136724472 0.003921568859369
5.544865608215332 22.522077560424805 -0.533062756061554 0.003921568859369
10.037584304809570 27.938199996948242 0.353042572736740 0.003921568859369
4.757927894592285 23.481576919555664 0.707380056381226 0.003921568859369
9.224797248840332 24.676433563232422 0.313445717096329 0.003921568859369
5.810659408569336 21.971946716308594 -0.522701740264893 0.003921568859369
5.889019489288330 21.942037582397461 -0.522588670253754 0.003921568859369
5.541258335113525 24.628719329833984 0.155718818306923 0.003921568859369
9.436019897460938 28.106609344482422 -0.165567398071289 0.003921568859369
9.441544532775879 27.777881622314453 -0.163893342018127 0.003921568859369
9.427124977111816 23.434097290039062 0.300157934427261 0.003921568859369
10.123294830322266 24.881896972656250 0.318887948989868 0.003921568859369
9.354919433593750 22.593255996704102 0.290507584810257 0.003921568859369
10.540025711059570 24.674474716186523 -0.308416515588760 0.003921568859369
10.819557189941406 24.357719421386719 0.315711319446564 0.003921568859369
8.215568542480469 24.797317504882812 1.531592011451721 0.003921568859369
10.558548927307129 27.251115798950195 2.397383451461792 0.003921568859369
6.782194137573242 24.119689941406250 0.153478085994720 0.003921568859369
10.039875030517578 25.672714233398438 2.261743783950806 0.003921568859369
6.264116764068604 22.036088943481445 0.675362408161163 0.003921568859369
9.221557617187500 27.141447067260742 1.679917931556702 0.003921568859369
10.226176261901855 25.877267837524414 2.282838821411133 0.003921568859369
10.262430191040039 25.720710754394531 2.272005796432495 0.003921568859369
9.038607597351074 26.025028228759766 1.614715933799744 0.003921568859369
9.423588752746582 26.536087036132812 1.650209546089172 0.003921568859369
8.350085258483887 20.194749832153320 4.002492427825928 0.003921568859369
6.590454101562500 21.486881256103516 0.137568905949593 0.003921568859369
8.432900428771973 20.193792343139648 4.008168220520020 0.003921568859369
10.645631790161133 24.889236450195312 2.220919847488403 0.003921568859369
11.409403800964355 26.404531478881836 2.359272480010986 0.003921568859369
11.520889282226562 26.385604858398438 2.361131906509399 0.003921568859369
9.482406616210938 24.764234542846680 1.553852915763855 0.003921568859369
11.437056541442871 25.951610565185547 2.325868368148804 0.003921568859369
10.734874725341797 24.156066894531250 2.168475389480591 0.003921568859369
11.443049430847168 25.717748641967773 5.150336265563965 0.003921568859369
11.488684654235840 25.580368041992188 5.130872249603271 0.003921568859369
13.081557273864746 25.463680267333984 -0.331013113260269 0.003921568859369
11.624595642089844 22.664346694946289 0.300699412822723 0.003921568859369
9.678458213806152 24.260705947875977 1.530470013618469 0.003921568859369
11.210581779479980 24.521398544311523 2.211543560028076 0.003921568859369
11.106093406677246 27.499338150024414 1.736744999885559 0.003921568859369
10.969610214233398 23.784776687622070 2.148612737655640 0.003921568859369
10.542963981628418 22.668123245239258 2.051170825958252 0.003921568859369
13.682876586914062 25.733589172363281 0.343163549900055 0.003921568859369
11.427280426025391 24.318059921264648 2.203805923461914 0.003921568859369
11.750780105590820 24.773105621337891 2.248656511306763 0.003921568859369
11.668236732482910 27.204319000244141 3.647960424423218 0.003921568859369
11.955615043640137 24.518039703369141 2.236676692962646 0.003921568859369
11.955039024353027 24.313581466674805 2.221621751785278 0.003921568859369
12.030228614807129 24.262563705444336 2.220565795898438 0.003921568859369
10.477426528930664 23.798002243041992 1.522916555404663 0.003921568859369
11.339792251586914 25.722009658813477 3.464798927307129 0.003921568859369
13.428404808044434 23.646778106689453 0.319776982069016 0.003921568859369
11.168084144592285 25.102758407592773 3.386679887771606 0.003921568859369
11.492567062377930 25.600587844848633 0.659139394760132 0.003921568859369
12.299953460693359 26.859823226928711 1.729045271873474 0.003921568859369
11.413651466369629 24.946685791015625 3.381550550460815 0.003921568859369
9.184697151184082 22.807119369506836 0.148425221443176 0.003921568859369
12.789892196655273 24.471725463867188 2.263674974441528 0.003921568859369
10.455432891845703 22.494117736816406 1.452861309051514 0.003921568859369
11.720271110534668 24.942880630493164 3.396910905838013 0.003921568859369
13.290751457214355 24.802509307861328 -0.818492591381073 0.003921568859369
11.317233085632324 23.876865386962891 0.620505452156067 0.003921568859369
12.282440185546875 22.938941955566406 2.133577823638916 0.003921568859369
13.875494956970215 25.636259078979492 -0.167187094688416 0.003921568859369
12.090003013610840 24.998025894165039 3.421996831893921 0.003921568859369
13.388484001159668 24.538358688354492 2.290903568267822 0.003921568859369
9.799132347106934 22.903234481811523 0.149872347712517 0.003921568859369
13.462434768676758 24.470016479492188 2.288865089416504 0.003921568859369
14.913511276245117 24.047924041748047 -0.329196810722351 0.003921568859369
11.377200126647949 23.156564712524414 1.510327219963074 0.003921568859369
14.009173393249512 25.265159606933594 2.367204904556274 0.003921568859369
13.422740936279297 23.258251190185547 2.200847625732422 0.003921568859369
12.071981430053711 22.516523361206055 1.494793176651001 0.003921568859369
14.993638992309570 24.912729263305664 2.381549596786499 0.003921568859369
13.373327255249023 24.918355941772461 -0.657046794891357 0.003921568859369
13.965991973876953 25.791027069091797 1.714911222457886 0.003921568859369
12.129899024963379 22.262016296386719 0.594195306301117 0.003921568859369
15.010848045349121 24.367626190185547 -0.834004223346710 0.003921568859369
12.228907585144043 22.248317718505859 0.594952821731567 0.003921568859369
12.308450698852539 22.208459854125977 0.594970107078552 0.003921568859369
13.011313438415527 23.288082122802734 1.560208916664124 0.003921568859369
13.782221794128418 23.858373641967773 1.611019968986511 0.003921568859369
14.055672645568848 24.142444610595703 1.633253574371338 0.003921568859369
13.639455795288086 25.828592300415039 0.172831416130066 0.003921568859369
13.735491752624512 23.200485229492188 1.576031923294067 0.003921568859369
13.709887504577637 25.754571914672852 0.172567948698997 0.003921568859369
14.537983894348145 23.970378875732422 0.655416548252106 0.003921568859369
14.979672431945801 24.510866165161133 -0.668923377990723 0.003921568859369
15.034584045410156 24.217836380004883 0.666139543056488 0.003921568859369
15.229992866516113 24.528190612792969 1.686871290206909 0.003921568859369
14.520465850830078 23.224298477172852 1.600603222846985 0.003921568859369
16.823928833007812 23.819063186645508 -0.851392209529877 0.003921568859369
16.486608505249023 24.581089019775391 -0.690259099006653 0.003921568859369
17.457273483276367 23.121507644653320 -0.846447169780731 0.003921568859369
5.535744667053223 7.446129322052002 1.707547545433044 0.000000000000000
11.455674171447754 14.261264801025391 3.349067926406860 0.003921568859369
5.778120517730713 7.018031120300293 1.672721743583679 0.000000000000000
17.873052597045898 23.672159194946289 -0.692905247211456 0.003921568859369
4.409775257110596 5.265965461730957 1.266798138618469 0.000000000000000
8.979009628295898 11.212410926818848 0.841071128845215 0.000000000000000
6.748696327209473 8.399066925048828 2.906814575195312 0.000000000000000
18.820383071899414 23.187707901000977 -0.698163866996765 0.003921568859369
11.108101844787598 11.432290077209473 2.918716192245483 0.003921568859369
9.801323890686035 9.963008880615234 2.560966730117798 0.000000000000000
7.568095207214355 7.547161102294922 1.960922598838806 0.000000000000000
14.194437980651855 15.414620399475098 2.579622983932495 0.003921568859369
9.418568611145020 9.240246772766113 2.417508602142334 0.000000000000000
10.329486846923828 11.011085510253906 1.861307859420776 0.000000000000000
4.206955909729004 4.510252475738525 1.670782208442688 0.000000000000000
4.989317417144775 4.767579555511475 1.271227240562439 0.000000000000000
8.622407913208008 8.118959426879883 2.171508073806763 0.000000000000000
9.984717369079590 8.997683525085449 -0.079124107956886 0.000000000000000
8.668484687805176 9.446562767028809 0.374820590019226 0.000000000000000
7.668619632720947 7.534122467041016 1.327411174774170 0.000000000000000
9.631314277648926 9.181396484375000 1.640887618064880 0.000000000000000
1.620562553405762 1.459533214569092 0.184432506561279 0.000000000000000
3.043727159500122 2.641362190246582 -0.213713526725769 0.000000000000000
2.193921566009521 2.107744216918945 0.001103212125599 0.000000000000000
4.544178485870361 4.214525699615479 0.768295645713806 0.000000000000000
2.490167617797852 2.090065956115723 0.270995587110519 0.000000000000000
4.860963344573975 4.409268856048584 1.773866891860962 0.000000000000000
4.405994415283203 3.920552015304565 1.595872521400452 0.000000000000000
7.917196273803711 6.799407482147217 1.288170933723450 0.000000000000000
13.340206146240234 10.098267555236816 3.058623552322388 0.003921568859369
4.945915699005127 3.941939353942871 0.783162355422974 0.000000000000000
6.042294502258301 4.730302333831787 0.947699666023254 0.000000000000000
15.345774650573730 10.233096122741699 3.369663238525391 0.003921568859369
9.044131278991699 6.000356674194336 1.986794829368591 0.000000000000000
7.646127223968506 4.923415660858154 1.664943814277649 0.000000000000000
4.389174461364746 3.084107398986816 0.314866989850998 0.000000000000000
5.065144538879395 3.554292440414429 -0.144764274358749 0.000000000000000
4.210404872894287 2.620919227600098 0.408326834440231 0.000000000000000
10.106902122497559 7.657749652862549 -0.815627574920654 0.000000000000000
4.171900272369385 2.576943159103394 0.403773933649063 0.000000000000000
5.739064693450928 3.845140457153320 1.861423254013062 0.000000000000000
6.377377510070801 3.772093772888184 0.303350895643234 0.000000000000000
6.388963222503662 3.778817176818848 0.609092652797699 0.000000000000000
4.433407306671143 2.541728734970093 0.419952839612961 0.000000000000000
14.749731063842773 9.323060035705566 2.145214319229126 0.003921568859369
2.249914407730103 1.590789079666138 -0.178141951560974 0.000000000000000
3.011520147323608 1.863050341606140 0.439041256904602 0.000000000000000
5.982431411743164 3.650061368942261 0.409928262233734 0.000000000000000
7.684574604034424 3.936591386795044 0.706624865531921 0.000000000000000
7.166698932647705 3.609206676483154 0.327716559171677 0.000000000000000
8.734243392944336 4.825191020965576 0.582201957702637 0.000000000000000
8.961977005004883 4.950503826141357 1.259755373001099 0.000000000000000
6.011250019073486 2.950749874114990 0.548614203929901 0.000000000000000
7.477719306945801 4.065101146697998 1.047845482826233 0.000000000000000
5.972302913665771 3.217732429504395 0.395988106727600 0.000000000000000
3.795603036880493 1.781809210777283 0.343761414289474 0.000000000000000
10.944557189941406 5.075013637542725 2.202219963073730 0.000000000000000
4.681616306304932 2.718089342117310 0.158061221241951 0.000000000000000
11.100995063781738 5.724696636199951 0.727953970432281 0.000000000000000
8.889267921447754 4.550668716430664 0.582290470600128 0.000000000000000
13.502237319946289 6.093732357025146 1.210084199905396 0.000000000000000
1.903880357742310 0.972765445709229 -0.150458693504333 0.000000000000000
15.434756278991699 6.893299102783203 3.084383487701416 0.003921568859369
1.878731846809387 0.951734662055969 -0.148225173354149 0.000000000000000
8.590002059936523 4.823185920715332 0.286961019039154 0.000000000000000
10.238689422607422 4.494219779968262 0.913818955421448 0.000000000000000
5.263226509094238 2.628727197647095 1.580849051475525 0.000000000000000
8.588052749633789 3.624590396881104 1.700993776321411 0.000000000000000
8.886025428771973 3.144866704940796 -0.880904495716095 0.000000000000000
8.882452011108398 3.106988906860352 -0.879418075084686 0.000000000000000
8.870658874511719 3.068125486373901 -0.877187907695770 0.000000000000000
14.668814659118652 5.888703823089600 2.883164167404175 0.003921568859369
8.903394699096680 3.046391963958740 -0.879420578479767 0.000000000000000
5.903240680694580 2.690820932388306 -0.454291611909866 0.000000000000000
11.217740058898926 4.460991859436035 2.202406644821167 0.000000000000000
8.854128837585449 2.993313074111938 -0.873471319675446 0.000000000000000
8.849411964416504 2.957312822341919 -0.871984779834747 0.000000000000000
8.840770721435547 2.920133829116821 -0.870126485824585 0.000000000000000
8.847124099731445 2.887986421585083 -0.869755804538727 0.000000000000000
8.843334197998047 2.851205825805664 -0.867354154586792 0.000000000000000
8.830465316772461 2.813064098358154 -0.865123450756073 0.000000000000000
8.840228080749512 2.782228946685791 -0.865123450756073 0.000000000000000
8.849406242370605 2.752895832061768 -0.865123450756073 0.000000000000000
8.866576194763184 2.724325656890869 -0.865866959095001 0.000000000000000
7.762281417846680 3.243848085403442 1.032964706420898 0.000000000000000
11.124067306518555 4.022462844848633 2.156731128692627 0.000000000000000
8.849822044372559 2.683721780776978 -0.863264560699463 0.000000000000000
8.882028579711914 2.659666299819946 -0.865495204925537 0.000000000000000
8.887438774108887 2.627518653869629 -0.865123450756073 0.000000000000000
10.801428794860840 3.776258945465088 0.466179817914963 0.000000000000000
9.606576919555664 3.894968509674072 1.272803544998169 0.000000000000000
8.885087013244629 2.593133926391602 -0.864008128643036 0.000000000000000
8.909391403198242 2.566514968872070 -0.865495204925537 0.000000000000000
8.149663925170898 3.205311298370361 -0.943310916423798 0.000000000000000
8.922127723693848 2.536486148834229 -0.865866959095001 0.000000000000000
11.297369956970215 4.443322658538818 3.252837896347046 0.000000000000000
8.152836799621582 3.175379276275635 -0.942454099655151 0.000000000000000
8.957332611083984 2.514418125152588 -0.868469476699829 0.000000000000000
6.307630062103271 2.456705331802368 0.831148982048035 0.000000000000000
6.726682186126709 2.248105049133301 0.578989624977112 0.000000000000000
15.634227752685547 5.225070476531982 3.005504608154297 0.003921568859369
8.165864944458008 3.143990278244019 -0.941464900970459 0.000000000000000
8.975457191467285 2.483076810836792 -0.868282496929169 0.000000000000000
8.154494285583496 3.106997013092041 -0.938894212245941 0.000000000000000
9.003278732299805 2.457014083862305 -0.870139360427856 0.000000000000000
8.139245986938477 3.068713426589966 -0.935895264148712 0.000000000000000
9.027184486389160 2.429745912551880 -0.871624648571014 0.000000000000000
14.272514343261719 5.383863925933838 1.872276544570923 0.000000000000000
15.831085205078125 5.104093074798584 1.357602953910828 0.000000000000000
8.149906158447266 3.040318012237549 -0.935894012451172 0.000000000000000
9.047156333923340 2.401323080062866 -0.872738301753998 0.000000000000000
8.130626678466797 3.000854015350342 -0.932466804981232 0.000000000000000
9.067043304443359 2.372785806655884 -0.873852014541626 0.000000000000000
8.114905357360840 2.962927579879761 -0.929467916488647 0.000000000000000
9.055990219116211 2.336173534393311 -0.871992826461792 0.000000000000000
12.537493705749512 3.897228240966797 1.071400880813599 0.000000000000000
8.121457099914551 2.933269023895264 -0.929038465023041 0.000000000000000
9.114263534545898 2.317356824874878 -0.876822650432587 0.000000000000000
8.112416267395020 2.899650335311890 -0.926896095275879 0.000000000000000
9.129623413085938 2.289087295532227 -0.877564728260040 0.000000000000000
8.107992172241211 2.864629030227661 -0.925181865692139 0.000000000000000
9.188214302062988 2.268065929412842 -0.882394552230835 0.000000000000000
8.114188194274902 2.835026979446411 -0.924752473831177 0.000000000000000
8.116518974304199 2.804116249084473 -0.923894822597504 0.000000000000000
8.850640296936035 2.581987380981445 0.160950198769569 0.000000000000000
8.531725883483887 2.947864294052124 2.416489124298096 0.000000000000000
8.099913597106934 2.766793966293335 -0.920895934104919 0.000000000000000
4.537563800811768 1.285516977310181 -0.597989261150360 0.000000000000000
8.103878974914551 2.733388423919678 -0.919041395187378 0.000000000000000
8.112424850463867 2.707976102828979 -0.919039309024811 0.000000000000000
6.206069469451904 1.417094111442566 0.074064917862415 0.000000000000000
10.382223129272461 4.040449142456055 0.324147969484329 0.000000000000000
8.114741325378418 2.675798892974854 -0.918180644512177 0.000000000000000
22.872959136962891 5.145792007446289 0.274274766445160 0.003921568859369
6.567268848419189 1.451762437820435 -0.077888846397400 0.000000000000000
8.116007804870605 2.646467685699463 -0.917322278022766 0.000000000000000
8.120955467224121 2.618376493453979 -0.916891992092133 0.000000000000000
3.435125350952148 0.745572745800018 -0.326479166746140 0.000000000000000
17.621242523193359 4.752551555633545 0.743899941444397 0.003921568859369
8.126257896423340 2.588866710662842 -0.916461646556854 0.000000000000000
8.139036178588867 2.561752319335938 -0.916887462139130 0.000000000000000
17.496315002441406 4.588354587554932 3.295717239379883 0.003921568859369
8.141218185424805 2.528188228607178 -0.916028857231140 0.000000000000000
4.673811912536621 1.203033328056335 -0.392468273639679 0.000000000000000
13.223462104797363 3.412404537200928 1.114118576049805 0.000000000000000
7.836618423461914 2.020452022552490 1.472550034523010 0.000000000000000
8.149993896484375 2.499817848205566 -0.916026651859283 0.000000000000000
6.740268707275391 2.066544771194458 0.409716308116913 0.000000000000000
11.959165573120117 2.426950931549072 -0.424837082624435 0.000000000000000
8.162475585937500 2.472576618194580 -0.916452407836914 0.000000000000000
8.174012184143066 2.448121070861816 -0.916878461837769 0.000000000000000
8.163441658020020 2.413990974426270 -0.914735853672028 0.000000000000000
8.181223869323730 2.385492324829102 -0.914580583572388 0.000000000000000
8.227707862854004 2.368057250976562 -0.918856620788574 0.000000000000000
4.691924571990967 1.597721576690674 -0.315926343202591 0.000000000000000
8.217207908630371 2.332535266876221 -0.916713416576385 0.000000000000000
4.648746490478516 1.075366139411926 0.387352049350739 0.000000000000000
8.229127883911133 2.305017948150635 -0.917138099670410 0.000000000000000
6.692222595214844 1.849359035491943 0.000287063070573 0.000000000000000
8.229062080383301 2.275680780410767 -0.916279077529907 0.000000000000000
9.954714775085449 2.238926410675049 1.856109499931335 0.000000000000000
8.248463630676270 2.250188112258911 -0.917559623718262 0.000000000000000
12.706920623779297 2.169259071350098 0.150861933827400 0.000000000000000
4.485223293304443 1.202618002891541 -0.718190193176270 0.000000000000000
8.237453460693359 2.214866161346436 -0.915416538715363 0.000000000000000
14.529567718505859 2.426328182220459 -0.512092709541321 0.000000000000000
11.831327438354492 2.573523998260498 2.203606843948364 0.000000000000000
8.267430305480957 2.195209741592407 -0.917981207370758 0.000000000000000
9.271744728088379 2.463162899017334 2.563948392868042 0.000000000000000
8.263502120971680 2.163402080535889 -0.916694164276123 0.000000000000000
11.617157936096191 2.446303844451904 0.967872142791748 0.000000000000000
8.302551269531250 2.139731407165527 -0.920114040374756 0.000000000000000
8.325385093688965 2.114761590957642 -0.921822488307953 0.000000000000000
16.318895339965820 3.314126729965210 1.358693838119507 0.000000000000000
8.343559265136719 2.091592073440552 -0.923103332519531 0.000000000000000
8.383384704589844 2.068243980407715 -0.925496399402618 0.000000000000000
6.243082523345947 1.196129560470581 -0.036367330700159 0.000000000000000
8.479776382446289 2.059308528900146 -0.935330331325531 0.000000000000000
4.351311206817627 1.052540779113770 0.258625060319901 0.000000000000000
13.831497192382812 2.658737421035767 2.563031673431396 0.000000000000000
8.529091835021973 2.041527748107910 -0.940031468868256 0.000000000000000
12.239068031311035 1.697146892547607 0.144859343767166 0.000000000000000
8.641015052795410 2.035106897354126 -0.951576232910156 0.000000000000000
5.849284172058105 1.678640723228455 0.176297500729561 0.000000000000000
3.077029228210449 0.564079105854034 0.053794831037521 0.000000000000000
8.760041236877441 2.032735109329224 -0.963976919651031 0.000000000000000
8.856241226196289 2.022727966308594 -0.973810732364655 0.000000000000000
8.944716453552246 2.010314464569092 -0.982788980007172 0.000000000000000
3.879862546920776 1.067128896713257 -0.255641818046570 0.000000000000000
2.856704473495483 0.626229822635651 -0.000215667707380 0.000000000000000
9.083686828613281 2.008512258529663 -0.997327923774719 0.000000000000000
