# This PCD file was generated using the MATLAB® pcwrite function
# from Computer Vision Toolbox®.
# .PCD v.7 - Point Cloud Data file format
VERSION .7
FIELDS x y z intensity
SIZE 8 8 8 8
TYPE F F F F
COUNT 1 1 1 1
WIDTH 644
HEIGHT 1
VIEWPOINT 0 0 0 1 0 0 0
POINTS 644
DATA ascii
16.520660400390625 23.209848403930664 -0.664500951766968 0.003921568859369
16.718667984008789 23.313686370849609 -0.669153332710266 0.003921568859369
2.872084856033325 3.816287279129028 1.298260569572449 0.000000000000000
10.639878273010254 13.648015022277832 4.655686378479004 0.003921568859369
5.650143146514893 5.961026191711426 -0.096498847007751 0.000000000000000
16.598012924194336 23.150190353393555 0.166015848517418 0.003921568859369
16.759746551513672 23.186111450195312 0.166736543178558 0.003921568859369
16.896322250366211 23.220115661621094 0.167364269495010 0.003921568859369
6.772509574890137 8.375617980957031 1.331336498260498 0.000000000000000
5.834733486175537 6.462882518768311 1.601435780525208 0.000000000000000
4.951417922973633 5.976799011230469 2.097496509552002 0.000000000000000
2.651898860931396 3.212297677993774 0.519671499729156 0.000000000000000
11.142088890075684 11.398212432861328 2.919446229934692 0.003921568859369
11.260833740234375 11.279819488525391 2.919445991516113 0.003921568859369
9.929618835449219 10.895225524902344 1.817837715148926 0.000000000000000
7.047328472137451 7.708232402801514 0.000027888232580 0.003921568859369
7.279273986816406 7.958570957183838 2.907083988189697 0.000000000000000
2.693705081939697 2.926186323165894 0.496270000934601 0.000000000000000
11.891753196716309 11.408206939697266 3.017019271850586 0.003921568859369
2.259885787963867 2.453664064407349 -0.158374935388565 0.000000000000000
9.148846626281738 8.736249923706055 2.318910121917725 0.000000000000000
7.781109333038330 8.037919998168945 0.655371487140656 0.000000000000000
3.067224025726318 3.183145284652710 0.550867915153503 0.000000000000000
3.402291774749756 3.819562911987305 0.030077109113336 0.000000000000000
4.590896129608154 4.210776805877686 1.147261500358582 0.000000000000000
6.771079063415527 7.454385280609131 0.294769942760468 0.000000000000000
3.125360488891602 2.791090011596680 0.347279310226440 0.000000000000000
6.281470298767090 5.364721775054932 2.226894855499268 0.000000000000000
4.005661964416504 3.024298429489136 -0.029465649276972 0.000000000000000
11.836372375488281 9.303698539733887 4.047950744628906 0.000000000000000
6.875679016113281 4.715252876281738 -0.048714708536863 0.000000000000000
2.980067253112793 2.257128000259399 0.464575737714767 0.000000000000000
15.117012023925781 9.791107177734375 3.292512655258179 0.003921568859369
12.741430282592773 8.188870429992676 2.768751144409180 0.000000000000000
4.175786018371582 2.960519075393677 0.633241832256317 0.000000000000000
7.247470855712891 5.038347244262695 1.088547587394714 0.000000000000000
4.420470714569092 2.773570537567139 0.429287403821945 0.000000000000000
10.716605186462402 6.630339622497559 1.032038927078247 0.000000000000000
3.035070657730103 1.854383349418640 0.146553844213486 0.000000000000000
13.492422103881836 8.081636428833008 2.874937057495117 0.003921568859369
12.827146530151367 7.380328655242920 2.704174757003784 0.000000000000000
7.276078224182129 4.649016857147217 2.322132587432861 0.000000000000000
13.617006301879883 7.582048892974854 2.847670078277588 0.000000000000000
11.913677215576172 6.473438262939453 2.478169202804565 0.000000000000000
6.098923206329346 3.268700599670410 0.567605555057526 0.000000000000000
11.319519042968750 6.049448490142822 2.346153497695923 0.000000000000000
8.984859466552734 4.561077117919922 1.841765284538269 0.000000000000000
5.434041023254395 2.741488695144653 0.498931914567947 0.000000000000000
9.995251655578613 5.030703067779541 2.044811010360718 0.000000000000000
10.355894088745117 5.166404247283936 0.472536236047745 0.000000000000000
5.947871208190918 2.763473272323608 1.198904752731323 0.000000000000000
9.136073112487793 4.678984165191650 2.754873752593994 0.000000000000000
12.505032539367676 6.343030452728271 1.723724603652954 0.000000000000000
3.622401714324951 2.040967941284180 0.121485151350498 0.000000000000000
5.680282115936279 2.789648056030273 0.369534939527512 0.000000000000000
6.118315219879150 2.918916225433350 -0.474621385335922 0.000000000000000
16.380599975585938 7.597743988037109 1.052086114883423 0.000000000000000
9.310503959655762 3.221948146820068 -0.920516490936279 0.000000000000000
9.317369461059570 3.189737796783447 -0.920144736766815 0.000000000000000
9.335992813110352 3.159710645675659 -0.920888304710388 0.000000000000000
9.286530494689941 3.106868267059326 -0.914939939975739 0.000000000000000
11.431029319763184 4.455963611602783 2.238525390625000 0.000000000000000
9.285971641540527 3.070654153823853 -0.913824617862701 0.000000000000000
9.258772850036621 3.025830268859863 -0.910106837749481 0.000000000000000
7.927159786224365 3.480701923370361 2.322126150131226 0.000000000000000
9.289047241210938 3.000279903411865 -0.911223769187927 0.000000000000000
16.547376632690430 6.252731323242188 0.720681726932526 0.003921568859369
9.299465179443359 2.967834472656250 -0.911223769187927 0.000000000000000
13.466870307922363 4.297821998596191 -0.823248624801636 0.000000000000000
9.245703697204590 2.913383960723877 -0.904903471469879 0.000000000000000
7.330713748931885 3.558021068572998 0.237146034836769 0.000000000000000
9.262918472290039 2.885079145431519 -0.905647039413452 0.000000000000000
14.813063621520996 4.613757133483887 0.180623054504395 0.000000000000000
13.838119506835938 5.845452308654785 4.025154113769531 0.000000000000000
13.322116851806641 4.875203609466553 2.586498975753784 0.000000000000000
9.265318870544434 2.850387573242188 -0.904903471469879 0.000000000000000
4.486741542816162 1.876846313476562 0.597159802913666 0.000000000000000
9.823907852172852 3.556208372116089 1.904897332191467 0.000000000000000
9.279025077819824 2.819183588027954 -0.905275344848633 0.000000000000000
9.304553985595703 2.789732456207275 -0.906762421131134 0.000000000000000
6.765953540802002 2.028598070144653 0.082232616841793 0.000000000000000
12.269542694091797 5.029608726501465 1.628174543380737 0.000000000000000
9.279385566711426 2.748683691024780 -0.903416395187378 0.000000000000000
9.288924217224121 2.716273307800293 -0.903416395187378 0.000000000000000
6.238862037658691 2.137255668640137 -0.839431166648865 0.000000000000000
9.305533409118652 2.687662601470947 -0.904159963130951 0.000000000000000
9.291877746582031 2.648615121841431 -0.901929318904877 0.000000000000000
6.889568328857422 2.333331346511841 0.296349018812180 0.000000000000000
9.320236206054688 2.621554136276245 -0.903788208961487 0.000000000000000
9.342621803283691 2.589987039566040 -0.904161393642426 0.000000000000000
15.152827262878418 5.010986804962158 1.302155375480652 0.000000000000000
9.337131500244141 2.549928188323975 -0.902674317359924 0.000000000000000
1.917575478553772 0.837192535400391 -0.133544683456421 0.000000000000000
9.345097541809082 2.520609140396118 -0.902674317359924 0.000000000000000
3.293969392776489 1.241738200187683 -0.245544150471687 0.000000000000000
9.357686996459961 2.489032745361328 -0.903046071529388 0.000000000000000
9.374452590942383 2.456771850585938 -0.903789639472961 0.000000000000000
11.684720993041992 3.681085109710693 0.498744040727615 0.000000000000000
7.959808349609375 2.057507514953613 -0.766604065895081 0.000000000000000
9.406393051147461 2.396911144256592 -0.905276715755463 0.000000000000000
9.457191467285156 2.374772310256958 -0.909366190433502 0.000000000000000
9.454233169555664 2.337260246276855 -0.908250868320465 0.000000000000000
11.916220664978027 3.572091579437256 2.266503334045410 0.000000000000000
9.454596519470215 2.302388668060303 -0.907507359981537 0.000000000000000
7.248782634735107 2.535107374191284 0.941804826259613 0.000000000000000
22.829069137573242 6.759262561798096 4.339289188385010 0.003921568859369
8.561837196350098 2.053167104721069 -0.102396316826344 0.000000000000000
9.481938362121582 2.274055242538452 -0.909366190433502 0.000000000000000
17.149303436279297 5.011885166168213 3.255901813507080 0.003921568859369
9.513073921203613 2.246470928192139 -0.911596894264221 0.000000000000000
12.479833602905273 4.269444465637207 1.618423342704773 0.000000000000000
9.549320220947266 2.219366550445557 -0.913457036018372 0.000000000000000
11.145248413085938 3.171305894851685 0.944475829601288 0.000000000000000
9.580681800842285 2.189757108688354 -0.915687680244446 0.000000000000000
9.579745292663574 2.157955884933472 -0.914944171905518 0.000000000000000
14.117332458496094 3.914873600006104 -0.766829669475555 0.000000000000000
10.161194801330566 3.357974052429199 1.311798572540283 0.000000000000000
9.629987716674805 2.134062528610229 -0.919033646583557 0.000000000000000
6.006434440612793 1.616565585136414 -0.789431631565094 0.000000000000000
9.808953285217285 2.136181592941284 -0.935391783714294 0.000000000000000
8.838586807250977 2.816242218017578 -0.997290790081024 0.000000000000000
9.894232749938965 2.118700981140137 -0.942827284336090 0.000000000000000
8.859254837036133 2.790572643280029 -0.998575985431671 0.000000000000000
9.986934661865234 2.104039430618286 -0.951006412506104 0.000000000000000
8.739853858947754 2.719446182250977 -0.984010756015778 0.000000000000000
10.111207008361816 2.093502044677734 -0.962159633636475 0.000000000000000
5.992095947265625 1.546883821487427 1.124998927116394 0.000000000000000
8.787772178649902 2.699165344238281 -0.988294661045074 0.000000000000000
7.873265266418457 2.417669296264648 0.478597521781921 0.000000000000000
8.758626937866211 2.658495426177979 -0.984010756015778 0.000000000000000
9.954553604125977 3.022279977798462 0.241654455661774 0.000000000000000
8.863539695739746 2.655028104782104 -0.994720399379730 0.000000000000000
8.820374488830566 2.642071008682251 0.213831841945648 0.000000000000000
10.742198944091797 2.655529260635376 0.901841104030609 0.000000000000000
8.822727203369141 2.610984802246094 -0.989151298999786 0.000000000000000
12.683264732360840 3.755922079086304 0.769292414188385 0.000000000000000
7.533253192901611 2.197218656539917 -0.000004266754786 0.000000000000000
8.795428276062012 2.566746711730957 -0.984012186527252 0.000000000000000
8.853557586669922 2.552019119262695 -0.989581167697906 0.000000000000000
5.646384239196777 1.603356957435608 -0.135953858494759 0.000000000000000
8.898391723632812 2.496343374252319 -0.992579817771912 0.000000000000000
8.462814331054688 2.373758077621460 1.075858354568481 0.000000000000000
8.861067771911621 2.452594995498657 -0.987439155578613 0.000000000000000
9.988203048706055 2.247920513153076 0.178219974040985 0.000000000000000
8.838467597961426 2.414882183074951 -0.984012067317963 0.000000000000000
3.875883340835571 0.659630954265594 0.045443203300238 0.000000000000000
8.892912864685059 2.396570920944214 -0.989152610301971 0.000000000000000
10.702969551086426 2.885930776596069 2.962956428527832 0.000000000000000
8.943909645080566 2.375329256057739 -0.993864953517914 0.000000000000000
8.990201950073242 2.355859279632568 -0.998148798942566 0.000000000000000
16.248779296875000 4.263972759246826 0.976730942726135 0.000000000000000
8.948322296142578 2.311594009399414 -0.992579698562622 0.000000000000000
8.983311653137207 2.287330627441406 -0.995578408241272 0.000000000000000
9.002809524536133 2.258971929550171 -0.996863543987274 0.000000000000000
4.442624092102051 0.661952793598175 0.051962278783321 0.000000000000000
10.785438537597656 2.155038595199585 0.446962147951126 0.000000000000000
18.092905044555664 4.547058105468750 2.287239313125610 0.003921568859369
8.969913482666016 2.215098619461060 -0.991295874118805 0.000000000000000
11.325924873352051 3.392610311508179 0.343029350042343 0.000000000000000
8.993043899536133 2.187682867050171 -0.993009328842163 0.000000000000000
6.654501438140869 0.944980442523956 -0.233412444591522 0.000000000000000
8.999873161315918 2.159535646438599 -0.993009328842163 0.000000000000000
3.221698999404907 0.767199873924255 0.076205052435398 0.000000000000000
7.838193893432617 1.879613757133484 0.985186576843262 0.000000000000000
9.018965721130371 2.130995035171509 -0.994294464588165 0.000000000000000
9.037968635559082 2.102343320846558 -0.995579600334167 0.000000000000000
6.190794944763184 1.123500943183899 0.254822731018066 0.000000000000000
8.983897209167480 2.089714765548706 1.128017425537109 0.000000000000000
10.471197128295898 2.902849435806274 -0.694073140621185 0.000000000000000
10.914528846740723 1.907674074172974 0.449892073869705 0.000000000000000
14.529936790466309 3.225560665130615 0.864638030529022 0.000000000000000
5.007389068603516 1.326758027076721 -0.209566339850426 0.000000000000000
14.519946098327637 3.064532756805420 0.862080037593842 0.000000000000000
14.559328079223633 2.965036630630493 -0.000006611643585 0.000000000000000
22.053939819335938 4.336479663848877 1.306260824203491 0.003921568859369
13.738502502441406 2.008915185928345 1.129658818244934 0.000000000000000
4.677939414978027 0.662944436073303 -0.136149525642395 0.000000000000000
5.262907505035400 0.729052066802979 0.429924130439758 0.000000000000000
18.014890670776367 2.383822679519653 3.304686784744263 0.003921568859369
6.982867240905762 0.870924770832062 0.284782558679581 0.000000000000000
7.949334621429443 1.760162830352783 0.047046765685081 0.000000000000000
11.162168502807617 1.790122747421265 -0.261763930320740 0.000000000000000
3.391493320465088 0.524998068809509 -0.000007097363778 0.000000000000000
9.267150878906250 0.991932034492493 -0.053847916424274 0.000000000000000
7.963713169097900 1.616879582405090 -0.140883415937424 0.000000000000000
12.317920684814453 1.759643793106079 1.520922899246216 0.000000000000000
10.751242637634277 1.496718168258667 1.325931787490845 0.000000000000000
20.702583312988281 1.866909980773926 3.779655694961548 0.003921568859369
16.485771179199219 0.564204752445221 0.191375464200974 0.003921568859369
6.734130382537842 1.173430085182190 0.039397548884153 0.000000000000000
15.155386924743652 1.898556947708130 1.868494749069214 0.000000000000000
20.206672668457031 1.538761019706726 1.649741768836975 0.003921568859369
11.254159927368164 1.368305921554565 0.656964540481567 0.000000000000000
12.026700973510742 0.243494674563408 -0.139279246330261 0.000000000000000
10.847965240478516 1.279230713844299 0.632312595844269 0.000000000000000
11.345431327819824 1.900940775871277 -0.466025382280350 0.000000000000000
11.452239990234375 0.709627091884613 -0.597892343997955 0.000000000000000
18.540977478027344 1.151457190513611 3.374999284744263 0.003921568859369
7.227328300476074 1.104299426078796 -0.295217424631119 0.000000000000000
16.780786514282227 0.048524230718613 0.194588750600815 0.003921568859369
3.594917297363281 0.145790994167328 -0.020535251125693 0.000000000000000
2.533566951751709 -0.035516649484634 0.028722628951073 0.000000000000000
8.755492210388184 0.299828112125397 0.151759773492813 0.000000000000000
11.972252845764160 0.994832694530487 0.695801258087158 0.000000000000000
3.293389320373535 0.111329950392246 0.131558343768120 0.000000000000000
10.509012222290039 0.360343605279922 0.853019237518311 0.000000000000000
9.753548622131348 0.300423711538315 1.767135858535767 0.000000000000000
12.470523834228516 0.340974777936935 -0.072073869407177 0.000000000000000
9.367506980895996 0.711021244525909 2.497078418731689 0.000000000000000
8.026019096374512 0.608359277248383 -0.185554921627045 0.000000000000000
14.705942153930664 0.351375907659531 2.668285608291626 0.000000000000000
7.938149452209473 0.133895590901375 -0.045712102204561 0.000000000000000
17.225040435791016 1.131812691688538 2.110283374786377 0.003921568859369
7.138896942138672 0.120280571281910 0.576703965663910 0.000000000000000
18.080297470092773 1.125150322914124 -0.000005828024769 0.003921568859369
8.338524818420410 0.111867748200893 -0.048036694526672 0.000000000000000
10.482878684997559 0.140916720032692 1.897716164588928 0.000000000000000
6.729954719543457 -0.258487880229950 -0.077536456286907 0.000000000000000
20.359565734863281 1.196525096893311 2.494904041290283 0.003921568859369
14.973028182983398 0.050906509160995 -0.433570057153702 0.000000000000000
8.617416381835938 0.447013288736343 -0.199047043919563 0.000000000000000
8.770096778869629 -0.003695006947964 0.151759445667267 0.000000000000000
3.767687797546387 0.166061326861382 -0.000008637397514 0.000000000000000
10.790410041809082 0.482018023729324 0.624638736248016 0.000000000000000
17.661373138427734 -0.068794466555119 3.206394195556641 0.003921568859369
3.652345180511475 0.148361876606941 -0.000008640537999 0.000000000000000
7.485816001892090 0.671214044094086 -0.476875871419907 0.000000000000000
9.147268295288086 -0.160538792610168 -0.052686203271151 0.000000000000000
12.733027458190918 -0.885506808757782 0.147604823112488 0.000000000000000
15.501973152160645 -0.378054827451706 2.811781883239746 0.000000000000000
6.711403369903564 -0.186837896704674 -0.192936301231384 0.000000000000000
15.382072448730469 -0.431226164102554 0.623468637466431 0.000000000000000
13.227883338928223 -0.370507568120956 1.073355078697205 0.000000000000000
9.357821464538574 0.159452930092812 1.138739705085754 0.000000000000000
28.073165893554688 -0.886710882186890 5.105556964874268 0.003921568859369
15.683338165283203 0.216522097587585 -0.000005439446795 0.000000000000000
9.574732780456543 -0.797701478004456 0.110864222049713 0.000000000000000
12.142397880554199 0.717450380325317 0.351522177457809 0.000000000000000
13.125284194946289 -0.499771863222122 0.227784007787704 0.000000000000000
3.822299718856812 0.039436891674995 0.217663094401360 0.000000000000000
5.621174335479736 -0.212215349078178 -0.290368109941483 0.000000000000000
12.141493797302246 0.717394769191742 -0.492077469825745 0.000000000000000
3.671045541763306 -0.137484252452850 0.654328525066376 0.000000000000000
18.373195648193359 0.953747451305389 -0.319664299488068 0.003921568859369
5.651305675506592 0.017959788441658 0.129520460963249 0.000000000000000
6.634562969207764 -0.090823322534561 0.380917906761169 0.000000000000000
10.829327583312988 -0.674519360065460 0.878079593181610 0.000000000000000
11.374135971069336 -0.156592652201653 -0.262508153915405 0.000000000000000
13.505653381347656 -0.889675736427307 0.547590136528015 0.000000000000000
15.674844741821289 -1.088196277618408 2.847657203674316 0.000000000000000
13.449336051940918 0.278512209653854 -0.233171254396439 0.000000000000000
11.333863258361816 -0.315001547336578 -0.000006524493983 0.003921568859369
7.745787143707275 -0.214461639523506 0.939848184585571 0.000000000000000
6.985530376434326 -0.264201551675797 0.401615947484970 0.000000000000000
4.877432346343994 0.032906200736761 -0.083502329885960 0.000000000000000
3.416788816452026 0.022836811840534 0.096686348319054 0.000000000000000
5.303306102752686 -0.474585771560669 0.426992177963257 0.000000000000000
6.642727851867676 -0.275103926658630 -0.152521684765816 0.000000000000000
5.257959365844727 -0.488634973764420 0.423412173986435 0.000000000000000
5.828824043273926 -0.280632823705673 -0.000009746264368 0.000000000000000
13.784069061279297 -0.670472979545593 0.797662317752838 0.000000000000000
9.712635993957520 -0.538225114345551 -0.000007305745839 0.003921568859369
8.752747535705566 -0.484467685222626 -0.403525829315186 0.000000000000000
12.897562026977539 -0.135285809636116 0.372351855039597 0.000000000000000
9.336893081665039 -0.612617254257202 -0.215330913662910 0.000000000000000
15.613696098327637 -1.083416819572449 0.361785173416138 0.000000000000000
18.761919021606445 -2.223440408706665 3.425946474075317 0.003921568859369
10.866960525512695 -0.299875080585480 0.313355803489685 0.000000000000000
7.991846561431885 -0.606414556503296 -0.368534415960312 0.000000000000000
12.203887939453125 -0.930171430110931 3.251797199249268 0.000000000000000
10.879109382629395 -1.360463142395020 1.980227708816528 0.000000000000000
8.496650695800781 -0.261710643768311 -0.342112630605698 0.000000000000000
15.397515296936035 -1.982454419136047 2.811785221099854 0.000000000000000
9.694004058837891 -0.804638922214508 -0.000006597776519 0.003921568859369
7.264144420623779 -1.078509688377380 -0.042039349675179 0.000000000000000
5.797771930694580 -0.295616447925568 -0.364824473857880 0.000000000000000
3.852693319320679 -0.391543835401535 -0.000011277779777 0.000000000000000
18.407245635986328 -2.824307441711426 3.375007152557373 0.003921568859369
9.224418640136719 -1.018214464187622 -0.000006802013559 0.003921568859369
9.420963287353516 -1.073078870773315 2.510538339614868 0.000000000000000
14.280682563781738 -2.390242576599121 -0.083505876362324 0.000000000000000
3.066062927246094 -0.361402153968811 0.173242539167404 0.000000000000000
9.523604393005371 -1.184895396232605 1.164577364921570 0.000000000000000
6.507685661315918 -0.556077122688293 0.186518222093582 0.000000000000000
20.859870910644531 -4.022178649902344 3.851416349411011 0.003921568859369
6.439257621765137 -0.616833269596100 -0.258582770824432 0.000000000000000
26.685119628906250 -5.533077716827393 4.947010040283203 0.003921568859369
13.115940093994141 -1.449840307235718 -0.228211596608162 0.000000000000000
26.554002761840820 -5.602102279663086 4.926202774047852 0.003921568859369
11.571523666381836 -1.929643869400024 3.111001729965210 0.000000000000000
10.347128868103027 -2.241835832595825 1.908481717109680 0.000000000000000
27.715270996093750 -6.238096714019775 7.575356006622314 0.003921568859369
7.017187595367432 -1.580792427062988 1.890403985977173 0.000000000000000
26.599266052246094 -6.669112682342529 7.311364650726318 0.003921568859369
26.554546356201172 -6.751071929931641 7.305154800415039 0.003921568859369
27.637126922607422 -8.161655426025391 7.683290004730225 0.003921568859369
27.238470077514648 -8.146276473999023 7.579757690429688 0.003921568859369
27.575664520263672 -10.048394203186035 2.384495019912720 0.003921568859369
7.160691738128662 -2.594909429550171 0.304217189550400 0.000000000000000
26.716259002685547 -9.843955993652344 2.312868356704712 0.003921568859369
26.642400741577148 -9.916584968566895 2.309291839599609 0.003921568859369
24.453248977661133 -9.096666336059570 4.730330944061279 0.003921568859369
28.157447814941406 -9.058582305908203 1.714492082595825 0.003921568859369
27.550966262817383 -10.365974426269531 2.391675233840942 0.003921568859369
11.963803291320801 -3.864629507064819 0.000206722688745 0.000000000000000
27.634593963623047 -10.507234573364258 5.364000797271729 0.003921568859369
24.430067062377930 -9.378926277160645 4.744698524475098 0.003921568859369
27.331083297729492 -9.106664657592773 0.667591512203217 0.003921568859369
27.745433807373047 -10.771142005920410 2.418391942977905 0.003921568859369
25.156167984008789 -9.860797882080078 2.194379091262817 0.003921568859369
26.154855728149414 -10.359785079956055 2.285229206085205 0.003921568859369
24.379323959350586 -9.848497390747070 4.767687320709229 0.003921568859369
27.180667877197266 -9.570369720458984 0.667858719825745 0.003921568859369
25.006786346435547 -10.191342353820801 2.192687034606934 0.003921568859369
26.042148590087891 -10.732228279113770 5.108109474182129 0.003921568859369
26.544342041015625 -12.591359138488770 0.341529726982117 0.003921568859369
24.692445755004883 -10.267790794372559 4.848318099975586 0.003921568859369
24.495149612426758 -10.280121803283691 4.816028594970703 0.003921568859369
25.423686981201172 -10.886384010314941 2.246128559112549 0.003921568859369
26.856550216674805 -11.503847122192383 5.299755573272705 0.003921568859369
26.417007446289062 -9.923166275024414 1.635230422019958 0.003921568859369
25.746545791625977 -11.126074790954590 5.086612224578857 0.003921568859369
4.158087730407715 -1.751474380493164 -0.025376124307513 0.000000000000000
27.540199279785156 -10.457230567932129 0.682921350002289 0.003921568859369
25.726491928100586 -9.764062881469727 3.360238790512085 0.003921568859369
27.040639877319336 -11.800736427307129 5.352159500122070 0.003921568859369
27.740337371826172 -10.760410308837891 0.689836502075195 0.003921568859369
26.513641357421875 -11.795098304748535 2.357532501220703 0.003921568859369
24.804178237915039 -11.029500007629395 4.922283649444580 0.003921568859369
23.786577224731445 -10.673005104064941 4.726363182067871 0.003921568859369
25.730712890625000 -11.860835075378418 2.301169872283936 0.003921568859369
24.036798477172852 -11.175663948059082 4.804871082305908 0.003921568859369
26.854061126708984 -11.158446311950684 3.551737070083618 0.003921568859369
24.099723815917969 -10.005904197692871 6.948993682861328 0.003921568859369
23.826780319213867 -11.279267311096191 4.778330802917480 0.003921568859369
5.683273315429688 -2.989650249481201 -0.072827599942684 0.000000000000000
16.575027465820312 -6.928993701934814 4.770276069641113 0.003921568859369
26.175052642822266 -11.093807220458984 1.647448182106018 0.003921568859369
24.856866836547852 -11.988111495971680 5.003715038299561 0.003921568859369
26.205844879150391 -11.214504241943359 1.651879787445068 0.003921568859369
23.992197036743164 -10.452909469604492 6.969742298126221 0.003921568859369
25.291679382324219 -12.635722160339355 5.127198219299316 0.003921568859369
6.090634346008301 -3.000299453735352 -0.192825406789780 0.000000000000000
23.937940597534180 -10.632513999938965 6.975971221923828 0.003921568859369
6.477581024169922 -3.216843366622925 -0.040894661098719 0.000000000000000
23.525476455688477 -10.532454490661621 3.145278215408325 0.003921568859369
23.896085739135742 -10.699314117431641 6.971046924591064 0.003921568859369
13.732651710510254 -6.927868366241455 2.774578809738159 0.000000000000000
13.595272064208984 -6.919706821441650 2.751614570617676 0.000000000000000
23.638008117675781 -10.790436744689941 6.918251514434814 0.003921568859369
13.496525764465332 -6.930626869201660 2.736546277999878 0.000000000000000
4.726018428802490 -2.087865591049194 -0.116249158978462 0.000000000000000
26.590290069580078 -12.250101089477539 3.575529336929321 0.003921568859369
8.219907760620117 -3.726388454437256 -0.205746009945869 0.000000000000000
26.484090805053711 -12.318151473999023 3.567247390747070 0.003921568859369
23.996616363525391 -11.254376411437988 3.235075235366821 0.003921568859369
26.297369003295898 -12.453890800476074 1.686485528945923 0.003921568859369
21.126863479614258 -11.274532318115234 1.942914605140686 0.003921568859369
24.264726638793945 -11.581855773925781 7.160620212554932 0.003921568859369
24.622135162353516 -10.422496795654297 0.155941918492317 0.003921568859369
19.425088882446289 -10.532053947448730 1.791763305664062 0.003921568859369
20.849088668823242 -11.400935173034668 1.927950978279114 0.003921568859369
9.289920806884766 -5.662990093231201 0.125330686569214 0.000000000000000
24.173284530639648 -11.848741531372070 7.169967651367188 0.003921568859369
23.327787399291992 -11.532105445861816 3.176105022430420 0.003921568859369
26.092443466186523 -12.909538269042969 7.757152557373047 0.003921568859369
19.462619781494141 -10.811809539794922 4.030796527862549 0.003921568859369
20.626815795898438 -11.554063796997070 1.917796730995178 0.003921568859369
24.468866348266602 -13.838810920715332 5.096349716186523 0.003921568859369
4.860276222229004 -2.991908788681030 -0.064389742910862 0.000000000000000
5.597577095031738 -3.103612661361694 -0.036054685711861 0.000000000000000
19.736318588256836 -11.230879783630371 4.110733509063721 0.003921568859369
23.896549224853516 -12.226711273193359 7.147505760192871 0.003921568859369
19.551269531250000 -11.305266380310059 1.831479907035828 0.003921568859369
24.124483108520508 -12.450254440307617 7.229331016540527 0.003921568859369
19.326179504394531 -11.263513565063477 1.813891887664795 0.003921568859369
23.981662750244141 -12.481628417968750 7.199307441711426 0.003921568859369
19.600675582885742 -11.424880027770996 4.107168674468994 0.003921568859369
21.718660354614258 -14.234553337097168 -0.298147737979889 0.003921568859369
21.369003295898438 -11.200786590576172 1.396672368049622 0.003921568859369
9.799377441406250 -5.742041587829590 -0.324929744005203 0.000000000000000
10.647746086120605 -6.249402523040771 -0.070015020668507 0.000000000000000
20.473661422729492 -10.817834854125977 1.340077757835388 0.003921568859369
19.594635009765625 -11.600125312805176 1.846819281578064 0.003921568859369
9.194389343261719 -4.289331436157227 -0.173538222908974 0.000000000000000
19.575883865356445 -11.685551643371582 1.849108934402466 0.003921568859369
23.836030960083008 -12.722679138183594 7.195196151733398 0.003921568859369
18.718402862548828 -11.168179512023926 3.944954156875610 0.003921568859369
22.479459762573242 -12.088426589965820 3.114505767822266 0.003921568859369
21.779874801635742 -11.708430290222168 6.581066608428955 0.003921568859369
19.682886123657227 -11.931691169738770 1.867047190666199 0.003921568859369
22.301534652709961 -12.091504096984863 6.752993106842041 0.003921568859369
21.323816299438477 -11.653060913085938 2.964263200759888 0.003921568859369
20.079162597656250 -12.269705772399902 4.261560440063477 0.003921568859369
8.001468658447266 -4.847781181335449 0.160743579268456 0.000000000000000
20.952280044555664 -11.537815093994141 2.916711091995239 0.003921568859369
22.198825836181641 -12.230637550354004 6.744995594024658 0.003921568859369
19.624471664428711 -12.077307701110840 4.171370029449463 0.003921568859369
22.681373596191406 -12.602452278137207 3.166047096252441 0.003921568859369
19.545516967773438 -12.122019767761230 4.163481712341309 0.003921568859369
21.444915771484375 -12.006711006164551 2.997725963592529 0.003921568859369
9.532521247863770 -5.936491966247559 0.193715453147888 0.000000000000000
19.696186065673828 -12.407147407531738 1.888203978538513 0.003921568859369
12.395685195922852 -6.946468353271484 3.760118246078491 0.000000000000000
24.217155456542969 -15.285055160522461 5.192304134368896 0.003921568859369
19.208719253540039 -10.918365478515625 1.278187513351440 0.003921568859369
19.659469604492188 -12.479403495788574 1.888865113258362 0.003921568859369
23.275428771972656 -13.254471778869629 7.131357192993164 0.003921568859369
7.399343490600586 -3.708976030349731 0.047356214374304 0.000000000000000
19.418258666992188 -12.419526100158691 1.869644522666931 0.003921568859369
19.270660400390625 -11.042018890380859 5.905086517333984 0.003921568859369
20.221693038940430 -11.687072753906250 1.351835846900940 0.003921568859369
19.891710281372070 -11.586703300476074 1.332272768020630 0.003921568859369
10.357795715332031 -6.017672061920166 0.000805567658972 0.003921568859369
20.094940185546875 -11.979047775268555 1.354203224182129 0.003921568859369
24.999851226806641 -14.932756423950195 7.758031368255615 0.003921568859369
17.529909133911133 -10.515965461730957 5.431816577911377 0.003921568859369
19.516002655029297 -11.809327125549316 1.319983839988708 0.003921568859369
21.625085830688477 -13.306012153625488 3.097671031951904 0.003921568859369
24.250133514404297 -14.937017440795898 7.585441589355469 0.003921568859369
20.360548019409180 -12.617719650268555 2.921028375625610 0.003921568859369
19.039266586303711 -13.112496376037598 1.875218510627747 0.003921568859369
19.396057128906250 -13.360713005065918 4.264397144317627 0.003921568859369
21.308242797851562 -13.417536735534668 1.458484530448914 0.003921568859369
14.749342918395996 -8.344077110290527 -0.291000217199326 0.003921568859369
21.378408432006836 -13.670633316040039 1.469928026199341 0.003921568859369
17.475681304931641 -11.148669242858887 5.507716655731201 0.003921568859369
18.399518966674805 -13.139190673828125 1.833863258361816 0.003921568859369
24.013299942016602 -17.322771072387695 2.406350135803223 0.003921568859369
18.618135452270508 -13.394859313964844 4.152444362640381 0.003921568859369
18.599821090698242 -13.479952812194824 4.158916473388672 0.003921568859369
19.883689880371094 -13.092580795288086 2.903543710708618 0.003921568859369
19.293458938598633 -14.091625213623047 1.938868284225464 0.003921568859369
18.875494003295898 -13.782522201538086 4.232164382934570 0.003921568859369
17.699031829833984 -13.001629829406738 1.780696749687195 0.003921568859369
22.665830612182617 -16.697195053100586 5.103496551513672 0.003921568859369
13.533040046691895 -9.981247901916504 0.679624617099762 0.003921568859369
20.322736740112305 -12.292825698852539 0.688307821750641 0.003921568859369
23.826238632202148 -16.069906234741211 7.654302597045898 0.003921568859369
18.148984909057617 -13.531524658203125 4.097477912902832 0.003921568859369
17.520664215087891 -13.152514457702637 1.776487350463867 0.003921568859369
17.114772796630859 -11.586191177368164 5.490412235260010 0.003921568859369
19.934173583984375 -12.245017051696777 0.677924156188965 0.003921568859369
17.838529586791992 -13.491202354431152 4.047950267791748 0.003921568859369
18.602558135986328 -14.178919792175293 1.897810816764832 0.003921568859369
19.420934677124023 -13.466733932495117 2.881933689117432 0.003921568859369
17.973825454711914 -13.792514801025391 4.101109027862549 0.003921568859369
17.689191818237305 -13.768285751342773 1.818275332450867 0.003921568859369
21.914417266845703 -15.557656288146973 3.280731916427612 0.003921568859369
22.230428695678711 -15.783704757690430 7.259731292724609 0.003921568859369
18.771272659301758 -13.400625228881836 6.133754730224609 0.003921568859369
17.054283142089844 -13.458906173706055 3.931676149368286 0.003921568859369
18.583635330200195 -13.368266105651855 2.791204690933228 0.003921568859369
14.673376083374023 -11.641961097717285 1.516992092132568 0.000000000000000
20.565147399902344 -16.389604568481445 4.766124725341797 0.003921568859369
9.272726058959961 -6.624498844146729 0.261905312538147 0.000000000000000
9.236679077148438 -6.646499633789062 0.261536031961441 0.000000000000000
17.263425827026367 -13.909216880798340 1.798057079315186 0.003921568859369
7.529308319091797 -6.764035701751709 0.116918809711933 0.000000000000000
19.290239334106445 -14.486091613769531 2.942386150360107 0.003921568859369
16.675308227539062 -12.497470855712891 5.536372661590576 0.003921568859369
14.093776702880859 -11.729070663452148 1.484658360481262 0.000000000000000
16.465938568115234 -12.427935600280762 5.480442523956299 0.003921568859369
19.497898101806641 -16.302820205688477 4.604959011077881 0.003921568859369
18.957273483276367 -14.440564155578613 1.380322694778442 0.003921568859369
22.580335617065430 -17.360036849975586 1.652067422866821 0.003921568859369
19.161245346069336 -14.702670097351074 6.425243854522705 0.003921568859369
19.191957473754883 -14.832929611206055 6.453226566314697 0.003921568859369
21.674591064453125 -18.797620773315430 2.332114934921265 0.003921568859369
14.589503288269043 -12.665988922119141 1.565191507339478 0.000000000000000
5.194353580474854 -3.599887609481812 0.035905897617340 0.000000000000000
4.205807685852051 -2.901868104934692 0.143010467290878 0.000000000000000
22.508237838745117 -18.180072784423828 1.678670287132263 0.003921568859369
4.725533485412598 -4.066919326782227 0.246944293379784 0.000000000000000
21.884805679321289 -19.922555923461914 5.368236541748047 0.003921568859369
19.716545104980469 -18.053287506103516 -0.768214464187622 0.003921568859369
18.889165878295898 -17.285140991210938 4.639929294586182 0.003921568859369
19.808298110961914 -18.265766143798828 -0.774326562881470 0.003921568859369
19.700725555419922 -18.292858123779297 -0.772580683231354 0.003921568859369
22.937141418457031 -19.336444854736328 1.741291403770447 0.003921568859369
19.378355026245117 -18.115989685058594 -0.762283980846405 0.003921568859369
19.187681198120117 -18.061260223388672 -0.757187604904175 0.003921568859369
11.512475013732910 -9.737519264221191 0.002132942434400 0.000000000000000
2.902691841125488 -2.533118247985840 0.064043842256069 0.000000000000000
19.081808090209961 -18.077657699584961 -0.754730284214020 0.003921568859369
18.966850280761719 -18.093235015869141 -0.752638697624207 0.003921568859369
18.883527755737305 -18.138917922973633 -0.751817524433136 0.003921568859369
18.112094879150391 -17.509584426879883 -0.723166108131409 0.003921568859369
20.626359939575195 -18.109659194946289 1.592410445213318 0.003921568859369
18.676778793334961 -18.189863204956055 -0.748558819293976 0.003921568859369
20.631446838378906 -18.241922378540039 1.597793221473694 0.003921568859369
18.522443771362305 -18.163839340209961 -0.744851112365723 0.003921568859369
20.621026992797852 -18.361064910888672 1.602008819580078 0.003921568859369
20.388290405273438 -18.279045104980469 1.588718414306641 0.003921568859369
7.886786460876465 -6.928136825561523 2.763490200042725 0.000000000000000
18.358587265014648 -18.254020690917969 -0.743325233459473 0.003921568859369
15.869066238403320 -14.275389671325684 2.601488590240479 0.003921568859369
7.836888313293457 -6.931272983551025 2.754170179367065 0.000000000000000
17.862701416015625 -17.878391265869141 -0.725530862808228 0.003921568859369
7.789905548095703 -6.936761379241943 2.745886325836182 0.000000000000000
17.865175247192383 -17.993629455566406 -0.727945029735565 0.003921568859369
20.541990280151367 -18.796741485595703 1.615835905075073 0.003921568859369
7.739731311798096 -6.934142589569092 2.735530138015747 0.000000000000000
11.145174026489258 -9.211378097534180 0.085050702095032 0.000000000000000
20.311323165893555 -18.844940185546875 1.607927441596985 0.003921568859369
17.632432937622070 -18.122419357299805 -0.725355684757233 0.003921568859369
5.460336208343506 -4.455673217773438 0.199855685234070 0.000000000000000
17.141487121582031 -17.739835739135742 -0.707572162151337 0.003921568859369
20.479967117309570 -19.269216537475586 1.632160425186157 0.003921568859369
5.743375778198242 -4.800599098205566 0.212768092751503 0.000000000000000
12.658901214599609 -13.211001396179199 1.482382893562317 0.003921568859369
16.764379501342773 -17.705001831054688 -0.699344336986542 0.003921568859369
15.949992179870605 -16.830585479736328 1.882921814918518 0.003921568859369
15.212858200073242 -15.171894073486328 5.711680889129639 0.003921568859369
13.179313659667969 -16.067157745361328 -0.235675916075706 0.003921568859369
4.734822750091553 -4.623401165008545 0.374870687723160 0.000000000000000
8.859840393066406 -8.357398033142090 -0.207085311412811 0.000000000000000
14.956417083740234 -15.859609603881836 2.658505439758301 0.003921568859369
5.951308727264404 -5.599870681762695 -0.138143047690392 0.000000000000000
12.583610534667969 -16.340436935424805 -0.233520939946175 0.003921568859369
16.304763793945312 -17.438161849975586 1.384756088256836 0.003921568859369
3.372393608093262 -3.077286243438721 -0.076090291142464 0.000000000000000
13.454084396362305 -14.437055587768555 5.242657184600830 0.003921568859369
13.830499649047852 -15.065139770507812 2.492940664291382 0.003921568859369
14.964057922363281 -16.429006576538086 5.909341335296631 0.003921568859369
6.908546924591064 -6.907921314239502 0.280175209045410 0.000000000000000
17.097656250000000 -24.750093460083008 0.356257170438766 0.003921568859369
17.046800613403320 -24.852138519287109 0.356937110424042 0.003921568859369
6.799428462982178 -7.175282001495361 -0.167296424508095 0.000000000000000
15.861551284790039 -23.973735809326172 0.340835005044937 0.003921568859369
13.893079757690430 -18.856662750244141 1.904266119003296 0.003921568859369
15.639104843139648 -23.812763214111328 0.337784349918365 0.003921568859369
15.558205604553223 -24.054401397705078 0.339720487594604 0.003921568859369
15.501850128173828 -24.151540756225586 0.340353518724442 0.003921568859369
15.803196907043457 -24.821823120117188 0.349073231220245 0.003921568859369
15.672367095947266 -25.181060791015625 0.352366685867310 0.003921568859369
13.263257026672363 -17.832384109497070 2.713104009628296 0.003921568859369
15.075640678405762 -25.373853683471680 0.350755125284195 0.003921568859369
15.020530700683594 -25.493644714355469 0.351677149534225 0.003921568859369
14.082083702087402 -24.646806716918945 0.337334573268890 0.003921568859369
13.844326019287109 -24.801576614379883 0.338024914264679 0.003921568859369
13.359322547912598 -24.304834365844727 -0.312284976243973 0.003921568859369
13.688431739807129 -24.917781829833984 0.338380128145218 0.003921568859369
14.237766265869141 -26.392749786376953 -0.337701708078384 0.003921568859369
16.225877761840820 -24.118036270141602 0.681447446346283 0.003921568859369
16.159116744995117 -24.200204849243164 0.682216405868530 0.003921568859369
15.960859298706055 -24.452402114868164 0.684711396694183 0.003921568859369
15.699622154235840 -24.230068206787109 0.676976501941681 0.003921568859369
11.384076118469238 -17.553958892822266 5.566999912261963 0.003921568859369
10.403225898742676 -18.026042938232422 1.692821621894836 0.003921568859369
15.691746711730957 -24.967130661010742 0.692057788372040 0.003921568859369
11.768795967102051 -24.507507324218750 0.324174225330353 0.003921568859369
11.667891502380371 -24.536760330200195 0.323990076780319 0.003921568859369
11.572171211242676 -24.554397583007812 0.323708772659302 0.003921568859369
11.355524063110352 -24.731161117553711 0.325006127357483 0.003921568859369
13.761025428771973 -26.556329727172852 2.440281391143799 0.003921568859369
11.960650444030762 -26.335481643676758 0.345645636320114 0.003921568859369
13.473490715026855 -26.214595794677734 2.404640197753906 0.003921568859369
11.291594505310059 -25.056707382202148 0.328298628330231 0.003921568859369
14.710145950317383 -25.912578582763672 0.700179994106293 0.003921568859369
14.475625038146973 -25.690385818481445 0.692902147769928 0.003921568859369
13.395323753356934 -26.742563247680664 2.440647602081299 0.003921568859369
15.795727729797363 -25.508886337280273 0.183888524770737 0.003921568859369
15.677723884582520 -25.514724731445312 0.183554127812386 0.003921568859369
13.591135025024414 -24.900608062744141 0.666534721851349 0.003921568859369
13.015539169311523 -26.911550521850586 2.439703226089478 0.003921568859369
10.755662918090820 -25.768259048461914 0.333751589059830 0.003921568859369
13.065671920776367 -24.522457122802734 1.619360566139221 0.003921568859369
13.148053169250488 -24.893398284912109 1.640921711921692 0.003921568859369
4.814203739166260 -9.850344657897949 0.886528491973877 0.000000000000000
12.595665931701660 -27.236480712890625 2.449743270874023 0.003921568859369
4.795873641967773 -9.985378265380859 0.896022260189056 0.000000000000000
4.498142242431641 -9.500309944152832 0.425596624612808 0.000000000000000
12.911041259765625 -25.962295532226562 1.690887212753296 0.003921568859369
9.890094757080078 -26.751874923706055 -0.319765627384186 0.003921568859369
14.337680816650391 -26.274688720703125 0.184210240840912 0.003921568859369
9.806322097778320 -27.102857589721680 -0.322621911764145 0.003921568859369
9.578601837158203 -26.750032424926758 -0.318053007125854 0.003921568859369
11.644108772277832 -24.629283905029297 0.641188263893127 0.003921568859369
10.319236755371094 -25.122303009033203 2.217349052429199 0.003921568859369
10.224190711975098 -25.138395309448242 2.215718984603882 0.003921568859369
11.272723197937012 -24.713174819946289 0.639418601989746 0.003921568859369
11.618011474609375 -24.530117034912109 0.167946234345436 0.003921568859369
7.746161460876465 -26.361564636230469 0.330228954553604 0.003921568859369
8.956924438476562 -26.376726150512695 -0.149610266089439 0.003921568859369
9.186084747314453 -27.404096603393555 -0.155200079083443 0.003921568859369
9.108567237854004 -27.491914749145508 -0.155516594648361 0.003921568859369
9.378709793090820 -25.201183319091797 0.634395122528076 0.003921568859369
10.086507797241211 -27.483257293701172 0.691128790378571 0.003921568859369
9.003456115722656 -24.987537384033203 1.551202416419983 0.003921568859369
3.830625772476196 -10.243111610412598 0.633509814739227 0.003921568859369
3.533796310424805 -9.698228836059570 2.737616062164307 0.000000000000000
8.501024246215820 -26.765230178833008 1.641787052154541 0.003921568859369
2.202008724212646 -9.867118835449219 -0.113315418362617 0.000000000000000
7.739284515380859 -25.889123916625977 0.638539016246796 0.003921568859369
2.096615314483643 -10.389198303222656 0.863584041595459 0.000000000000000
0.884470582008362 -12.419942855834961 2.271808385848999 0.000000000000000
0.648487508296967 -8.364565849304199 0.343883424997330 0.003921568859369
-0.485748529434204 -9.267495155334473 1.147283434867859 0.003921568859369
-1.506888508796692 -17.545364379882812 2.176309108734131 0.003921568859369
-1.752205491065979 -17.519956588745117 2.176753997802734 0.003921568859369
-2.842221021652222 -17.411821365356445 2.184884309768677 0.003921568859369
-2.264298200607300 -13.641710281372070 3.735670804977417 0.000000000000000
-2.306504487991333 -13.593680381774902 3.725284576416016 0.000000000000000
-1.268577933311462 -6.643455505371094 0.281469821929932 0.000000000000000
-3.354418277740479 -17.464483261108398 2.203876256942749 0.003921568859369
-3.431844234466553 -17.524557113647461 2.213166952133179 0.003921568859369
-3.695275306701660 -18.384862899780273 2.323834657669067 0.003921568859369
-2.378750562667847 -12.601741790771484 3.468959093093872 0.003921568859369
-4.028998374938965 -18.985561370849609 2.405601978302002 0.003921568859369
-6.402743339538574 -19.584005355834961 -0.232951104640961 0.003921568859369
-3.784229993820190 -17.161472320556641 2.179778814315796 0.003921568859369
-4.383870124816895 -17.709894180297852 2.263903141021729 0.003921568859369
-4.687041282653809 -18.112651824951172 2.322155475616455 0.003921568859369
-2.956965446472168 -11.924490928649902 3.332849264144897 0.003921568859369
-7.849862575531006 -28.388629913330078 0.702840149402618 0.003921568859369
-4.989473342895508 -18.673809051513672 2.399008274078369 0.003921568859369
-3.771399497985840 -14.535947799682617 4.067362785339355 0.000000000000000
-9.777289390563965 -25.197200775146484 0.328875392675400 0.003921568859369
-4.993352413177490 -18.449068069458008 2.372545242309570 0.003921568859369
-9.868237495422363 -25.168531417846680 0.328942298889160 0.003921568859369
-9.906826972961426 -25.013996124267578 0.327353090047836 0.003921568859369
-9.485757827758789 -27.450658798217773 -0.156375497579575 0.003921568859369
-3.733238220214844 -13.699534416198730 1.766716718673706 0.000000000000000
-4.154222011566162 -14.701642990112305 4.139899253845215 0.000000000000000
-10.879155158996582 -26.090934753417969 0.344031333923340 0.003921568859369
-3.267165899276733 -11.652297973632812 3.288126945495605 0.000000000000000
-10.926584243774414 -25.952175140380859 0.342683494091034 0.003921568859369
-11.004092216491699 -25.882827758789062 0.342260897159576 0.003921568859369
-9.880197525024414 -26.811031341552734 2.360930919647217 0.003921568859369
-9.413690567016602 -25.345567703247070 2.234758853912354 0.003921568859369
-11.692433357238770 -26.673540115356445 0.354379475116730 0.003921568859369
-11.775260925292969 -26.127992630004883 0.348677575588226 0.003921568859369
-9.531015396118164 -24.145732879638672 -0.140567481517792 0.003921568859369
-12.526006698608398 -26.766042709350586 0.359626144170761 0.003921568859369
-12.310326576232910 -26.092273712158203 0.351073443889618 0.003921568859369
-4.120080471038818 -12.250484466552734 1.613687634468079 0.003921568859369
-10.592815399169922 -25.478961944580078 2.282009124755859 0.003921568859369
-10.668447494506836 -25.397899627685547 2.278371810913086 0.003921568859369
-10.606986999511719 -24.788185119628906 2.230478048324585 0.003921568859369
-13.336880683898926 -26.544780731201172 0.361374378204346 0.003921568859369
-12.052234649658203 -26.507720947265625 -0.157758533954620 0.003921568859369
-13.535924911499023 -25.620849609375000 0.352537721395493 0.003921568859369
-9.410134315490723 -25.956468582153320 0.174314484000206 0.003921568859369
