# This PCD file was generated using the MATLAB® pcwrite function
# from Computer Vision Toolbox®.
# .PCD v.7 - Point Cloud Data file format
VERSION .7
FIELDS x y z intensity
SIZE 8 8 8 8
TYPE F F F F
COUNT 1 1 1 1
WIDTH 644
HEIGHT 1
VIEWPOINT 0 0 0 1 0 0 0
POINTS 644
DATA ascii
9.380665779113770 4.271521091461182 2.764213562011719 0.000000000000000
9.794705390930176 3.307173252105713 -0.965845346450806 0.000000000000000
9.821302413940430 3.277971267700195 -0.967332482337952 0.000000000000000
9.764598846435547 3.221194267272949 -0.960640013217926 0.000000000000000
8.789362907409668 3.888180494308472 0.560256838798523 0.000000000000000
9.748722076416016 3.180123090744019 -0.958037376403809 0.000000000000000
5.241900920867920 2.299793243408203 0.703963279724121 0.000000000000000
9.774375915527344 3.152633905410767 -0.959524393081665 0.000000000000000
9.751164436340332 3.107590436935425 -0.956178069114685 0.000000000000000
7.569171428680420 3.706269502639771 0.245557337999344 0.000000000000000
9.787250518798828 3.076519966125488 -0.957695782184601 0.000000000000000
9.824021339416504 3.052325963973999 -0.960298180580139 0.000000000000000
9.675221443176270 2.967245578765869 -0.944683611392975 0.000000000000000
9.685518264770508 2.933461666107178 -0.944683611392975 0.000000000000000
9.695699691772461 2.899631977081299 -0.944683611392975 0.000000000000000
13.614042282104492 4.807622909545898 2.632417440414429 0.000000000000000
9.704761505126953 2.869155406951904 -0.944683611392975 0.000000000000000
9.741975784301758 2.841374397277832 -0.947286009788513 0.000000000000000
9.774306297302246 2.815670013427734 -0.949516654014587 0.000000000000000
9.773069381713867 2.776558876037598 -0.948401331901550 0.000000000000000
10.466539382934570 3.534587860107422 0.901843905448914 0.000000000000000
9.744352340698242 2.731678962707520 -0.944683611392975 0.000000000000000
9.780698776245117 2.705077171325684 -0.947286009788513 0.000000000000000
7.029243946075439 2.319258213043213 1.349571228027344 0.000000000000000
9.724301338195801 2.654794216156006 -0.940965831279755 0.000000000000000
9.766155242919922 2.627003669738770 -0.943229317665100 0.000000000000000
5.793251991271973 2.511187553405762 0.183459594845772 0.000000000000000
8.630442619323730 2.779435634613037 0.739405333995819 0.000000000000000
9.802212715148926 2.600082635879517 -0.945831835269928 0.000000000000000
10.379878044128418 3.303553104400635 -0.888528168201447 0.000000000000000
10.126584053039551 3.776499032974243 1.325911998748779 0.000000000000000
9.815082550048828 2.566890001296997 -0.946203708648682 0.000000000000000
9.114127159118652 2.383389949798584 0.109530232846737 0.000000000000000
10.395151138305664 3.268527746200562 -0.888853788375854 0.000000000000000
4.442615509033203 1.869836449623108 -0.084030978381634 0.000000000000000
9.823981285095215 2.532648801803589 -0.946203827857971 0.000000000000000
10.357006072998047 3.216871738433838 -0.884623169898987 0.000000000000000
5.528621673583984 2.016379356384277 0.721419990062714 0.000000000000000
9.832762718200684 2.498372077941895 -0.946204006671906 0.000000000000000
10.349116325378418 3.174878835678101 -0.882996082305908 0.000000000000000
9.814380645751953 2.457291841506958 -0.943601787090302 0.000000000000000
10.321983337402344 3.127200126647949 -0.879741787910461 0.000000000000000
9.818609237670898 2.423811197280884 -0.943230152130127 0.000000000000000
10.317020416259766 3.088410854339600 -0.878440201282501 0.000000000000000
16.931077957153320 5.070151329040527 3.220744609832764 0.003921568859369
9.827427864074707 2.387840509414673 -0.943230330944061 0.000000000000000
10.293863296508789 3.040436506271362 -0.875511348247528 0.000000000000000
6.762773513793945 1.996508240699768 0.286861449480057 0.000000000000000
9.835702896118164 2.353557348251343 -0.943230450153351 0.000000000000000
10.289104461669922 3.000053167343140 -0.874209702014923 0.000000000000000
17.329570770263672 5.054769515991211 3.289622783660889 0.003921568859369
6.335216999053955 2.163255453109741 -0.720164418220520 0.000000000000000
9.851205825805664 2.322786569595337 -0.943974077701569 0.000000000000000
10.306658744812012 2.968153715133667 -0.874860763549805 0.000000000000000
2.522191047668457 0.859273135662079 0.154590114951134 0.000000000000000
12.336875915527344 2.861784934997559 -0.147354722023010 0.000000000000000
6.780158996582031 2.287734985351562 -0.769855737686157 0.000000000000000
9.875170707702637 2.290304183959961 -0.945461332798004 0.000000000000000
10.275284767150879 2.918403387069702 -0.871280968189240 0.000000000000000
9.898241043090820 2.261128664016724 -0.946948528289795 0.000000000000000
10.265715599060059 2.878959894180298 -0.869653940200806 0.000000000000000
9.938943862915039 2.231788873672485 -0.949213445186615 0.000000000000000
10.304473876953125 2.848406314849854 -0.871311604976654 0.000000000000000
12.420194625854492 3.434299945831299 2.346100330352783 0.000000000000000
9.923343658447266 2.191982746124268 -0.946983218193054 0.000000000000000
5.063664436340332 1.646808028221130 0.123381860554218 0.000000000000000
10.302817344665527 2.809331417083740 -0.870335578918457 0.000000000000000
8.507259368896484 2.770955801010132 2.392452716827393 0.000000000000000
9.969849586486816 2.165869712829590 -0.950700998306274 0.000000000000000
10.308712005615234 2.772382974624634 -0.870010495185852 0.000000000000000
7.815925598144531 2.100722789764404 1.472179174423218 0.000000000000000
9.382932662963867 2.984663248062134 -0.000064163061325 0.003921568859369
10.055240631103516 2.147788047790527 -0.958136260509491 0.000000000000000
10.326032638549805 2.738493204116821 -0.870661675930023 0.000000000000000
4.831984996795654 1.278754115104675 0.202781558036804 0.000000000000000
12.464097976684570 3.966750860214233 1.603761672973633 0.000000000000000
10.195186614990234 2.140618801116943 -0.970775961875916 0.000000000000000
10.343240737915039 2.704521179199219 -0.871312797069550 0.000000000000000
7.099743366241455 2.229713678359985 0.432238817214966 0.000000000000000
14.738623619079590 4.635203361511230 1.894803404808044 0.000000000000000
7.854030609130859 2.467226266860962 2.200920581817627 0.000000000000000
11.324932098388672 2.961659908294678 2.130847692489624 0.000000000000000
10.315331459045410 2.130264282226562 -0.981557011604309 0.000000000000000
10.325132369995117 2.663290262222290 -0.869035065174103 0.000000000000000
9.448008537292480 3.448506593704224 0.292125910520554 0.000000000000000
4.341061592102051 1.329563379287720 -0.487182974815369 0.000000000000000
10.462838172912598 2.124689817428589 -0.994940280914307 0.000000000000000
14.830671310424805 3.013272762298584 0.175930485129356 0.000000000000000
10.357088088989258 2.635004520416260 -0.870987951755524 0.000000000000000
14.350603103637695 5.187745094299316 0.443554580211639 0.000000000000000
10.366222381591797 2.598904132843018 -0.870988249778748 0.000000000000000
6.176851272583008 1.870790123939514 0.790109813213348 0.000000000000000
10.367489814758301 2.560857295989990 -0.870337605476379 0.000000000000000
6.501349449157715 1.604118347167969 0.545050024986267 0.000000000000000
10.411669731140137 2.531399726867676 -0.873266816139221 0.000000000000000
10.396746635437012 2.491336345672607 -0.871314525604248 0.000000000000000
5.962224006652832 2.057916879653931 0.182947248220444 0.000000000000000
12.311775207519531 2.951054573059082 1.031977534294128 0.000000000000000
10.394167900085449 2.450536489486694 -0.870338559150696 0.000000000000000
16.198604583740234 3.821488618850708 1.357138037681580 0.000000000000000
10.442450523376465 2.425111770629883 -0.872974336147308 0.000000000000000
10.466396331787109 2.392306089401245 -0.874276459217072 0.000000000000000
4.913031578063965 1.373764038085938 0.622842729091644 0.000000000000000
6.821619033813477 1.556910872459412 1.270512819290161 0.000000000000000
10.517461776733398 2.365507125854492 -0.877856492996216 0.000000000000000
7.335986137390137 1.647991657257080 0.130622431635857 0.000000000000000
16.643594741821289 4.610540390014648 1.004159688949585 0.000000000000000
10.549821853637695 2.330390930175781 -0.879809439182281 0.000000000000000
10.580461502075195 2.302422761917114 -0.881762385368347 0.000000000000000
1.643980145454407 0.436126679182053 0.097249239683151 0.003921568859369
10.651598930358887 2.275251626968384 -0.886969566345215 0.000000000000000
9.799738883972168 1.563157200813293 0.115086778998375 0.000000000000000
10.686783790588379 2.243902921676636 -0.889247953891754 0.000000000000000
10.767952919006348 2.225783348083496 -0.895431280136108 0.000000000000000
14.704385757446289 2.300539016723633 -0.518811583518982 0.000000000000000
10.877613067626953 2.207067966461182 -0.903892636299133 0.000000000000000
11.552684783935547 2.302530527114868 -0.068391069769859 0.000000000000000
10.967350006103516 2.185590744018555 -0.910726845264435 0.000000000000000
12.853997230529785 3.081199645996094 1.618333816528320 0.000000000000000
6.607085704803467 1.553876399993896 0.156888887286186 0.000000000000000
4.738036155700684 1.340450167655945 -0.085514292120934 0.000000000000000
6.785113334655762 1.547579884529114 -0.161256119608879 0.000000000000000
8.917433738708496 1.520736813545227 0.366855919361115 0.000000000000000
9.661157608032227 2.136666536331177 -0.459310799837112 0.000000000000000
7.884695529937744 1.343842267990112 1.451277971267700 0.000000000000000
8.985900878906250 2.415735960006714 0.269584208726883 0.000000000000000
8.503179550170898 1.817644834518433 -0.932760655879974 0.000000000000000
13.318539619445801 2.179187774658203 0.234805792570114 0.000000000000000
7.921936511993408 1.692806601524353 0.989898860454559 0.000000000000000
5.964267730712891 1.228173851966858 -0.000196582113858 0.000000000000000
7.038297653198242 0.749182105064392 -0.410191178321838 0.000000000000000
4.796678066253662 0.745889365673065 0.877972364425659 0.000000000000000
8.680570602416992 1.729839324951172 1.082040429115295 0.000000000000000
8.890388488769531 1.292867064476013 1.629179716110229 0.000000000000000
9.105815887451172 2.211196899414062 0.271174073219299 0.000000000000000
9.484961509704590 2.270629405975342 -0.169604122638702 0.000000000000000
19.273611068725586 2.677485466003418 1.584612727165222 0.000000000000000
7.743802070617676 1.430283546447754 2.097251415252686 0.000000000000000
9.220165252685547 1.704716205596924 -0.217284634709358 0.000000000000000
7.123441696166992 1.288223981857300 -0.000229599871091 0.000000000000000
10.028932571411133 1.817198038101196 0.235894322395325 0.000000000000000
9.256984710693359 1.215414881706238 0.758112788200378 0.000000000000000
7.960684776306152 0.597534775733948 0.092148259282112 0.000000000000000
14.685413360595703 2.559438705444336 3.981569290161133 0.000000000000000
13.426067352294922 2.972867012023926 -0.558450400829315 0.000000000000000
7.425445556640625 0.870393455028534 -0.216436535120010 0.000000000000000
3.066764593124390 0.356176912784576 -0.017971623688936 0.000000000000000
9.145824432373047 1.494498252868652 -0.000198953275685 0.003921568859369
7.009551048278809 1.143544197082520 1.890179753303528 0.000000000000000
9.849124908447266 1.121607065200806 1.798512101173401 0.000000000000000
9.120881080627441 1.457891106605530 0.213634654879570 0.000000000000000
11.717863082885742 2.422786235809326 0.346731424331665 0.000000000000000
9.268280029296875 0.923915505409241 0.755460083484650 0.000000000000000
13.820227622985840 2.757124423980713 -0.571987211704254 0.000000000000000
10.824184417724609 0.516811370849609 -0.125731945037842 0.000000000000000
9.857358932495117 0.470398396253586 0.113965146243572 0.000000000000000
9.240750312805176 0.824127793312073 0.375390350818634 0.000000000000000
20.318202972412109 1.753989338874817 3.707852363586426 0.003921568859369
3.635137557983398 0.653315126895905 -0.148521482944489 0.000000000000000
5.034127235412598 0.890821933746338 0.029066210612655 0.000000000000000
13.574277877807617 1.743069887161255 0.793549954891205 0.000000000000000
14.204236984252930 1.075647234916687 -0.082632921636105 0.000000000000000
12.548896789550781 1.566509246826172 1.545606136322021 0.000000000000000
3.150425195693970 0.376950949430466 -0.000362271559425 0.000000000000000
15.360209465026855 1.864769458770752 4.130619049072266 0.000000000000000
3.111999750137329 0.361450731754303 -0.000363301049219 0.000000000000000
14.708219528198242 1.011135339736938 0.256173342466354 0.000000000000000
18.645999908447266 1.217710018157959 0.758845031261444 0.003921568859369
9.545397758483887 0.123708873987198 0.110040374100208 0.000000000000000
3.809602975845337 0.589309096336365 -0.154765829443932 0.000000000000000
6.107748031616211 0.630413532257080 0.353356361389160 0.000000000000000
18.003791809082031 0.989500641822815 1.466375708580017 0.000000000000000
9.630019187927246 1.473246932029724 -0.394479960203171 0.000000000000000
14.048132896423340 1.409726619720459 0.818170845508575 0.000000000000000
8.122680664062500 0.359868317842484 -0.047201864421368 0.000000000000000
11.673502922058105 0.518474876880646 0.202530920505524 0.000000000000000
15.207169532775879 0.676309764385223 0.617250263690948 0.000000000000000
9.688440322875977 1.379267454147339 -0.396273195743561 0.000000000000000
11.303901672363281 0.462641507387161 0.917842268943787 0.000000000000000
17.197305679321289 2.211984872817993 0.502573192119598 0.003921568859369
19.469118118286133 0.595351159572601 1.584530115127563 0.000000000000000
16.071300506591797 0.491040110588074 2.919219017028809 0.003921568859369
12.478101730346680 0.902224004268646 -0.000238923472352 0.000000000000000
9.438856124877930 -0.268466055393219 -0.327457666397095 0.000000000000000
15.682881355285645 1.079662322998047 -0.364222735166550 0.000000000000000
6.397812843322754 0.726662635803223 -0.111470721662045 0.000000000000000
10.798397064208984 0.704143464565277 0.249717369675636 0.000000000000000
5.905942916870117 0.382841736078262 0.339802831411362 0.000000000000000
14.434478759765625 0.239922672510147 0.584786653518677 0.000000000000000
12.548973083496094 0.208351373672485 2.274099111557007 0.000000000000000
10.192675590515137 0.135440349578857 1.844280481338501 0.000000000000000
9.339797019958496 0.091746665537357 -0.054209444671869 0.000000000000000
9.704138755798340 0.061755709350109 -0.280561625957489 0.000000000000000
8.455185890197754 0.875825464725494 0.244818985462189 0.000000000000000
7.887444972991943 0.050043039023876 1.423789739608765 0.000000000000000
6.262100219726562 -0.284400254487991 -0.216682136058807 0.000000000000000
6.235543251037598 0.297721415758133 0.143063813447952 0.000000000000000
7.966300487518311 0.741284012794495 0.230258643627167 0.000000000000000
12.890344619750977 -0.052027400583029 0.223369017243385 0.000000000000000
11.988220214843750 0.534097492694855 0.694115400314331 0.000000000000000
7.295200824737549 0.323701560497284 -0.168546661734581 0.000000000000000
25.130554199218750 -0.189351230859756 4.568109512329102 0.003921568859369
14.798659324645996 1.279604434967041 -0.258158087730408 0.000000000000000
7.743810653686523 -0.084646962583065 -0.044972840696573 0.000000000000000
15.953792572021484 1.379976511001587 0.463635355234146 0.000000000000000
16.500741958618164 -0.181394740939140 1.340654253959656 0.000000000000000
25.129741668701172 -0.276800453662872 4.568106174468994 0.003921568859369
13.967494964599609 -0.881892502307892 0.161733195185661 0.000000000000000
3.451534509658813 -0.049039546400309 0.058426186442375 0.000000000000000
11.368988990783691 -0.164185225963593 2.058818101882935 0.000000000000000
12.106139183044434 0.286827623844147 0.699884355068207 0.000000000000000
18.022359848022461 -0.511326134204865 -0.104529745876789 0.000000000000000
4.315799713134766 0.086134336888790 1.133098244667053 0.000000000000000
11.970048904418945 -0.380316346883774 0.207170218229294 0.000000000000000
8.740695953369141 -0.276989936828613 0.706451296806335 0.000000000000000
21.321186065673828 0.358467012643814 -0.494330108165741 0.003921568859369
12.032671928405762 -0.421982318162918 0.208286821842194 0.000000000000000
8.661473274230957 -0.302908807992935 0.349147856235504 0.000000000000000
7.544456005096436 -0.263464123010635 0.608787059783936 0.000000000000000
9.168766975402832 0.535983622074127 -0.159215644001961 0.000000000000000
10.037445068359375 0.100237585604191 -0.000397491152398 0.003921568859369
2.868898153305054 0.028029017150402 0.341156840324402 0.000000000000000
5.157838821411133 0.033389877527952 -0.000512134633027 0.000000000000000
14.422677993774414 0.745627105236053 -0.585151612758636 0.000000000000000
20.762886047363281 -0.011942940764129 1.204018950462341 0.003921568859369
16.611509323120117 0.743819713592529 -0.674169123172760 0.003921568859369
13.318950653076172 -0.051639057695866 3.545492410659790 0.000000000000000
18.429485321044922 -0.968857884407043 3.348924398422241 0.003921568859369
7.928185462951660 -0.085277818143368 0.456286400556564 0.000000000000000
9.517895698547363 0.325200676918030 0.273937672376633 0.000000000000000
13.200819969177246 0.452361881732941 -0.840746581554413 0.000000000000000
13.330314636230469 -0.838175475597382 2.417489767074585 0.000000000000000
21.324111938476562 -0.379235208034515 1.236323714256287 0.003921568859369
18.356964111328125 -1.220540285110474 3.336685419082642 0.003921568859369
17.348676681518555 0.474906861782074 0.100075855851173 0.000000000000000
6.252791404724121 0.147994965314865 -0.108042612671852 0.000000000000000
8.539274215698242 -0.267304897308350 -0.000497343949974 0.003921568859369
19.125350952148438 -0.602408170700073 -0.887127101421356 0.000000000000000
16.569419860839844 -1.329449176788330 3.013053655624390 0.003921568859369
6.354789733886719 -0.525946497917175 -0.183370187878609 0.000000000000000
5.281141281127930 -0.435734480619431 -0.030833495780826 0.000000000000000
9.556710243225098 -0.795023918151855 0.165231481194496 0.000000000000000
10.490998268127441 -0.363667815923691 1.276738643646240 0.000000000000000
7.302833557128906 -0.605686128139496 1.318174958229065 0.000000000000000
6.213275432586670 -0.236435726284981 0.141908392310143 0.000000000000000
10.450200080871582 -0.400211542844772 0.603028059005737 0.000000000000000
8.997949600219727 -0.781013607978821 1.628876686096191 0.000000000000000
9.835079193115234 -0.886943876743317 0.397949069738388 0.000000000000000
4.198856830596924 0.014106081798673 -0.072219111025333 0.000000000000000
14.288745880126953 -0.645360648632050 0.827065587043762 0.000000000000000
5.927404403686523 -0.000322882580804 0.033343955874443 0.000000000000000
10.484907150268555 -0.508776605129242 1.276731491088867 0.000000000000000
9.609998703002930 -0.933484196662903 0.779946208000183 0.000000000000000
5.766023159027100 -0.298500716686249 0.330125361680984 0.000000000000000
9.503393173217773 -0.957851052284241 0.771480500698090 0.000000000000000
10.451273918151855 -0.545257091522217 2.778219461441040 0.000000000000000
8.603789329528809 -0.475736320018768 1.044595360755920 0.000000000000000
6.199028491973877 -0.384881794452667 0.749121606349945 0.000000000000000
8.737695693969727 -0.602664709091187 -0.201924815773964 0.000000000000000
7.848840236663818 -0.597716152667999 0.451737910509109 0.000000000000000
18.059358596801758 -2.272672653198242 3.299284458160400 0.003921568859369
20.417486190795898 -1.639182448387146 0.473909556865692 0.003921568859369
8.070915222167969 -0.668017089366913 0.185430914163589 0.000000000000000
17.367263793945312 -0.600906550884247 0.502367079257965 0.003921568859369
7.980765342712402 -1.049958348274231 0.323100656270981 0.000000000000000
8.611054420471191 -0.713360965251923 1.047508001327515 0.000000000000000
9.385904312133789 -0.486533194780350 0.269609332084656 0.000000000000000
16.723583221435547 -1.688353061676025 2.049414634704590 0.003921568859369
9.685844421386719 -0.668249368667603 -0.168058052659035 0.000000000000000
3.922170639038086 -0.265821635723114 -0.156239658594131 0.000000000000000
12.089938163757324 -2.108245134353638 2.216405391693115 0.000000000000000
10.486824989318848 -1.344322323799133 2.801893711090088 0.000000000000000
15.062252044677734 -1.993076086044312 4.040186882019043 0.000000000000000
6.232775688171387 -0.533540189266205 0.178049698472023 0.000000000000000
9.388582229614258 -1.334070086479187 -0.000684494618326 0.003921568859369
11.330355644226074 -2.177237987518311 2.080723524093628 0.000000000000000
10.922075271606445 -1.593582749366760 2.924005270004272 0.000000000000000
8.814704895019531 -1.343073964118958 2.355584621429443 0.000000000000000
8.309568405151367 -0.915871322154999 0.239011690020561 0.000000000000000
14.125104904174805 -1.566524147987366 -0.574514865875244 0.000000000000000
2.733971357345581 -0.560498535633087 -0.000919363170397 0.000000000000000
7.334076404571533 -1.651993632316589 0.213672757148743 0.000000000000000
8.411533355712891 -2.330164670944214 2.298586845397949 0.000000000000000
8.257439613342285 -1.892699480056763 -0.146016299724579 0.000000000000000
23.648395538330078 -6.984544754028320 3.009541988372803 0.003921568859369
11.744556427001953 -4.112826347351074 -0.072163015604019 0.000000000000000
26.922258377075195 -8.049727439880371 7.490208625793457 0.003921568859369
26.685405731201172 -9.523821830749512 2.301187276840210 0.003921568859369
12.847283363342285 -3.967271327972412 -0.000600176921580 0.000000000000000
22.722419738769531 -7.133347511291504 6.340027809143066 0.003921568859369
8.616279602050781 -3.168373107910156 -0.263514071702957 0.000000000000000
22.609069824218750 -7.183792591094971 6.315170288085938 0.003921568859369
5.986643314361572 -1.640971422195435 -0.106481596827507 0.000000000000000
20.858646392822266 -7.181557178497314 5.869874477386475 0.003921568859369
9.990173339843750 -2.917709350585938 0.058931294828653 0.000000000000000
6.363313198089600 -2.200312852859497 1.762206673622131 0.000000000000000
9.936389923095703 -3.506393432617188 -0.000694655405823 0.003921568859369
26.586494445800781 -10.964567184448242 2.335513114929199 0.003921568859369
6.011966705322266 -2.186454772949219 -0.000888897338882 0.000000000000000
6.588348388671875 -2.793361902236938 0.284234285354614 0.000000000000000
27.758008956909180 -10.658924102783203 1.722708702087402 0.003921568859369
24.309490203857422 -10.810434341430664 2.159185409545898 0.003921568859369
17.760471343994141 -6.867033958435059 5.059195041656494 0.003921568859369
7.342700958251953 -2.799423933029175 -0.179942429065704 0.000000000000000
20.338064193725586 -10.330947875976562 0.263580113649368 0.003921568859369
20.342117309570312 -10.601068496704102 -0.265501022338867 0.003921568859369
9.193864822387695 -4.775010108947754 0.117994390428066 0.000000000000000
24.627477645874023 -10.034278869628906 3.245053529739380 0.003921568859369
22.901660919189453 -9.413789749145508 0.572550535202026 0.003921568859369
23.025621414184570 -9.563403129577637 0.576554119586945 0.003921568859369
21.008186340332031 -8.719062805175781 2.772423744201660 0.003921568859369
14.522181510925293 -6.906918525695801 2.901819705963135 0.003921568859369
24.066867828369141 -10.191206932067871 3.188929557800293 0.003921568859369
23.387203216552734 -11.271556854248047 4.703973770141602 0.003921568859369
25.269378662109375 -10.911942481994629 3.359616041183472 0.003921568859369
22.881690979003906 -8.675636291503906 0.707571983337402 0.003921568859369
23.789812088012695 -10.371470451354980 3.166467189788818 0.003921568859369
22.231147766113281 -11.001415252685547 2.011765956878662 0.003921568859369
22.522972106933594 -9.898779869079590 3.000633239746094 0.003921568859369
21.586898803710938 -11.046433448791504 1.966462135314941 0.003921568859369
20.273132324218750 -10.461251258850098 -0.131471395492554 0.003921568859369
21.567926406860352 -11.135996818542480 1.967949271202087 0.003921568859369
22.241992950439453 -10.150568008422852 6.505007266998291 0.003921568859369
22.907798767089844 -11.925182342529297 4.678264617919922 0.003921568859369
9.576075553894043 -5.012418746948242 -0.062514126300812 0.000000000000000
23.442974090576172 -10.994358062744141 1.498336672782898 0.003921568859369
23.015878677368164 -10.890250205993652 3.105634212493896 0.003921568859369
22.134817123413086 -10.470283508300781 6.515327930450439 0.003921568859369
7.835919857025146 -3.678581714630127 -0.000778283283580 0.003921568859369
22.410814285278320 -10.692161560058594 3.028072595596313 0.003921568859369
22.625682830810547 -10.795977592468262 6.671686649322510 0.003921568859369
20.076190948486328 -10.795532226562500 4.125574588775635 0.003921568859369
22.389331817626953 -10.782204627990723 3.030501842498779 0.003921568859369
24.067167282104492 -13.173080444335938 2.226502895355225 0.003921568859369
24.281490325927734 -13.291670799255371 5.016974449157715 0.003921568859369
22.468294143676758 -11.004183769226074 6.658197402954102 0.003921568859369
21.621467590332031 -11.921798706054688 4.471492767333984 0.003921568859369
22.122699737548828 -10.928454399108887 3.009014606475830 0.003921568859369
21.630203247070312 -12.123420715332031 4.490852832794189 0.003921568859369
20.654186248779297 -10.384637832641602 2.817799091339111 0.003921568859369
21.946832656860352 -12.498385429382324 4.573570728302002 0.003921568859369
21.445987701416016 -10.964673042297363 6.406709194183350 0.003921568859369
23.207437515258789 -11.975166320800781 3.185257196426392 0.003921568859369
20.033304214477539 -10.323422431945801 5.991434097290039 0.003921568859369
2.741566181182861 -1.668230414390564 -0.036624729633331 0.000000000000000
23.371503829956055 -12.158387184143066 3.213538885116577 0.003921568859369
22.434856414794922 -11.667366027832031 6.728754043579102 0.003921568859369
19.163661956787109 -11.348093032836914 4.029463291168213 0.003921568859369
21.028022766113281 -11.397082328796387 6.362114906311035 0.003921568859369
21.862977981567383 -11.947500228881836 6.629281520843506 0.003921568859369
22.617446899414062 -13.832848548889160 4.803158760070801 0.003921568859369
7.470889568328857 -4.623217582702637 -0.050862163305283 0.000000000000000
20.409206390380859 -10.330456733703613 0.132374957203865 0.003921568859369
19.414157867431641 -11.122562408447266 5.946959495544434 0.003921568859369
22.548286437988281 -13.042129516601562 6.931799411773682 0.003921568859369
18.681543350219727 -12.031243324279785 4.019475936889648 0.003921568859369
2.911338806152344 -1.428780794143677 0.016528230160475 0.000000000000000
19.168209075927734 -12.537603378295898 4.144348621368408 0.003921568859369
1.885648608207703 -1.238752722740173 -0.025616466999054 0.000000000000000
21.573759078979492 -14.235912322998047 4.681230068206787 0.003921568859369
5.934271812438965 -3.079104661941528 0.036839179694653 0.000000000000000
21.621948242187500 -14.376206398010254 4.702751636505127 0.003921568859369
20.378801345825195 -12.251905441284180 2.897954225540161 0.003921568859369
23.340909957885742 -14.051870346069336 7.252775192260742 0.003921568859369
21.614007949829102 -14.479526519775391 4.712071895599365 0.003921568859369
16.656709671020508 -11.209406852722168 0.810851752758026 0.003921568859369
17.040636062622070 -11.471206665039062 1.662761211395264 0.003921568859369
23.254171371459961 -15.706615447998047 5.085298061370850 0.003921568859369
14.419223785400391 -7.829820632934570 0.094173930585384 0.000000000000000
16.670843124389648 -11.294939041137695 0.813290655612946 0.003921568859369
23.194591522216797 -14.172534942626953 7.236184120178223 0.003921568859369
17.795913696289062 -12.067401885986328 3.888775587081909 0.003921568859369
16.511943817138672 -11.271717071533203 0.807216346263885 0.003921568859369
16.015562057495117 -10.928426742553711 1.568078637123108 0.000000000000000
18.351091384887695 -12.544631958007812 4.020271778106689 0.003921568859369
9.521840095520020 -5.210880756378174 -0.186664700508118 0.000000000000000
17.765893936157227 -12.221439361572266 3.898954629898071 0.003921568859369
15.593549728393555 -10.787923812866211 1.533202886581421 0.003921568859369
19.506093978881836 -12.173008918762207 6.111682415008545 0.003921568859369
20.325971603393555 -12.788318634033203 2.926365375518799 0.003921568859369
15.542778968811035 -10.832316398620605 1.531890869140625 0.000000000000000
17.951068878173828 -12.628228187561035 3.969267845153809 0.003921568859369
16.474193572998047 -11.661798477172852 1.633190035820007 0.003921568859369
20.906183242797852 -13.361668586730957 6.599423885345459 0.003921568859369
5.187991142272949 -3.233461141586304 -0.001051778672263 0.000000000000000
22.228189468383789 -14.323834419250488 1.529992103576660 0.003921568859369
20.441698074340820 -13.161919593811035 6.465819358825684 0.003921568859369
24.511098861694336 -15.930904388427734 3.567802906036377 0.003921568859369
19.856098175048828 -12.878573417663574 6.292860984802246 0.003921568859369
22.207614898681641 -14.529970169067383 1.535557508468628 0.003921568859369
15.528205871582031 -11.227778434753418 1.549763917922974 0.000000000000000
22.209941864013672 -14.642046928405762 1.539271593093872 0.003921568859369
17.469552993774414 -11.485902786254883 2.544828891754150 0.003921568859369
16.852981567382812 -11.159148216247559 1.166629910469055 0.003921568859369
15.033681869506836 -11.024956703186035 1.507396101951599 0.003921568859369
7.187945365905762 -5.221818447113037 -0.051499314606190 0.000000000000000
23.719829559326172 -15.880282402038574 7.600782871246338 0.003921568859369
17.624879837036133 -11.843959808349609 5.639492034912109 0.003921568859369
15.358518600463867 -10.381598472595215 1.068676233291626 0.003921568859369
15.862958908081055 -11.891540527343750 1.603595852851868 0.003921568859369
17.361543655395508 -11.756801605224609 5.568022727966309 0.003921568859369
3.045189380645752 -1.749819397926331 -0.059170186519623 0.000000000000000
20.130132675170898 -13.758541107177734 2.971300601959229 0.003921568859369
15.169437408447266 -11.446569442749023 1.536471366882324 0.000000000000000
17.447519302368164 -11.904423713684082 5.609437942504883 0.003921568859369
15.313719749450684 -10.502593040466309 1.070521950721741 0.003921568859369
22.161136627197266 -16.919040679931641 2.262013435363770 0.003921568859369
15.945770263671875 -12.211884498596191 0.810946583747864 0.003921568859369
14.788960456848145 -11.313171386718750 1.505176305770874 0.003921568859369
7.164821624755859 -4.409423351287842 -0.144281119108200 0.000000000000000
15.269384384155273 -10.628391265869141 1.072600126266479 0.000000000000000
15.126125335693359 -11.658778190612793 1.544262290000916 0.000000000000000
18.677614212036133 -13.037702560424805 6.053691864013672 0.003921568859369
23.682346343994141 -18.486919403076172 -0.868238449096680 0.003921568859369
15.797355651855469 -12.271825790405273 0.807663142681122 0.003921568859369
23.414129257202148 -18.407075881958008 -0.860711693763733 0.003921568859369
10.220401763916016 -7.932400226593018 0.519183695316315 0.000000000000000
15.345374107360840 -12.001842498779297 3.519194126129150 0.003921568859369
23.315286636352539 -18.466953277587891 -0.859567284584045 0.003921568859369
15.321814537048340 -12.073226928710938 1.577788829803467 0.000000000000000
4.938523292541504 -3.087172746658325 -0.099378585815430 0.000000000000000
23.207210540771484 -18.505788803100586 -0.857841134071350 0.003921568859369
22.689109802246094 -18.218143463134766 -0.840915024280548 0.003921568859369
17.292037963867188 -13.840810775756836 1.793763875961304 0.003921568859369
22.625570297241211 -16.421297073364258 7.442400932312012 0.003921568859369
21.451774597167969 -17.331481933593750 -0.796834707260132 0.003921568859369
17.156501770019531 -13.824185371398926 1.784305572509766 0.003921568859369
21.233861923217773 -17.268390655517578 -0.790390551090240 0.003921568859369
15.929840087890625 -11.759134292602539 2.407860279083252 0.003921568859369
11.083929061889648 -8.186545372009277 0.315811246633530 0.000000000000000
15.568631172180176 -11.571990966796875 1.118755102157593 0.000000000000000
22.199880599975586 -16.935506820678711 1.616040706634521 0.003921568859369
8.329813957214355 -6.284560680389404 0.237675637006760 0.000000000000000
15.790986061096191 -12.167310714721680 1.150150299072266 0.003921568859369
21.404531478881836 -16.798612594604492 1.574520826339722 0.003921568859369
14.781499862670898 -12.748326301574707 1.578750967979431 0.000000000000000
9.878003120422363 -8.509377479553223 0.223833918571472 0.000000000000000
14.900707244873047 -13.034966468811035 1.601535081863403 0.000000000000000
17.186185836791992 -13.734729766845703 1.270427107810974 0.003921568859369
19.518167495727539 -17.253116607666016 4.716605186462402 0.003921568859369
15.434371948242188 -12.398161888122559 2.407369852066040 0.003921568859369
19.283632278442383 -17.284063339233398 4.688579559326172 0.003921568859369
7.518525600433350 -5.446299552917480 0.263589322566986 0.000000000000000
19.413675308227539 -17.523996353149414 2.120636224746704 0.003921568859369
18.349067687988281 -16.551124572753906 4.472496986389160 0.003921568859369
19.287992477416992 -17.525356292724609 2.113128185272217 0.003921568859369
19.951311111450195 -18.390977859497070 -0.783751010894775 0.003921568859369
19.884080886840820 -18.456905364990234 -0.783650875091553 0.003921568859369
8.388768196105957 -6.935458660125732 2.864923477172852 0.000000000000000
19.880514144897461 -18.583055496215820 -0.786102950572968 0.003921568859369
8.332255363464355 -6.936159610748291 2.853525161743164 0.003921568859369
19.583995819091797 -18.430776596069336 -0.776837885379791 0.003921568859369
8.275745391845703 -7.651865959167480 0.192795753479004 0.000000000000000
5.892284393310547 -5.379954338073730 0.316605806350708 0.000000000000000
8.281682968139648 -6.941602706909180 2.844197988510132 0.000000000000000
19.657997131347656 -18.631059646606445 -0.782422423362732 0.003921568859369
8.213685035705566 -6.931560039520264 2.828657388687134 0.000000000000000
19.564096450805664 -18.670909881591797 -0.781278133392334 0.003921568859369
21.640369415283203 -18.745964050292969 1.657424926757812 0.003921568859369
14.111237525939941 -12.148991584777832 4.939286708831787 0.003921568859369
20.564441680908203 -17.802640914916992 -0.627777040004730 0.003921568859369
2.888688087463379 -2.823979854583740 -0.046422444283962 0.000000000000000
14.538751602172852 -12.603860855102539 5.104053974151611 0.003921568859369
20.508638381958008 -17.870882034301758 -0.627516031265259 0.003921568859369
18.974460601806641 -18.346364974975586 -0.762116491794586 0.003921568859369
15.904132843017578 -15.337930679321289 3.995138168334961 0.003921568859369
19.129415512084961 -18.627866744995117 -0.771064102649689 0.003921568859369
19.397871017456055 -17.130687713623047 3.154772758483887 0.003921568859369
20.048336029052734 -19.536399841308594 5.071168899536133 0.003921568859369
18.908308029174805 -18.538595199584961 -0.764701008796692 0.003921568859369
7.963659763336182 -6.290950775146484 0.057087995111942 0.000000000000000
13.751665115356445 -12.162940025329590 4.867887020111084 0.003921568859369
4.496788501739502 -4.272860050201416 0.243951648473740 0.000000000000000
17.441608428955078 -15.706977844238281 2.859074354171753 0.003921568859369
3.333418369293213 -2.811091661453247 -0.098362542688847 0.000000000000000
18.334335327148438 -18.348369598388672 -0.749090433120728 0.003921568859369
16.149520874023438 -16.131334304809570 1.848833560943604 0.003921568859369
18.293445587158203 -18.308258056640625 4.686341285705566 0.003921568859369
18.145137786865234 -18.270786285400391 -0.743652999401093 0.003921568859369
18.472574234008789 -18.606660842895508 4.748060226440430 0.003921568859369
17.966587066650391 -18.221530914306641 -0.739029645919800 0.003921568859369
19.599946975708008 -19.903709411621094 5.061015605926514 0.003921568859369
18.025480270385742 -18.403844833374023 -0.744033217430115 0.003921568859369
15.333733558654785 -14.161746025085449 2.539955377578735 0.003921568859369
17.941305160522461 -18.451522827148438 -0.743354082107544 0.003921568859369
4.980654716491699 -4.468963146209717 0.150115117430687 0.000000000000000
20.874313354492188 -19.508665084838867 1.653938651084900 0.003921568859369
17.663406372070312 -18.162282943725586 2.054036855697632 0.003921568859369
17.877264022827148 -18.507165908813477 -0.743253469467163 0.003921568859369
10.110775947570801 -10.349540710449219 0.248861715197563 0.000000000000000
21.159364700317383 -19.910186767578125 1.682107806205750 0.003921568859369
13.427549362182617 -13.833810806274414 1.559121608734131 0.000000000000000
17.506143569946289 -18.234498977661133 -0.729779362678528 0.003921568859369
17.445125579833984 -18.297475814819336 -0.729912042617798 0.003921568859369
21.026418685913086 -20.052930831909180 1.682030320167542 0.003921568859369
17.110803604125977 -18.073661804199219 -0.718562901020050 0.003921568859369
13.128628730773926 -13.801208496093750 1.539957404136658 0.000000000000000
17.120935440063477 -18.211576461791992 -0.721711039543152 0.003921568859369
16.970687866210938 -18.176090240478516 -0.718015909194946 0.003921568859369
20.811750411987305 -20.272808074951172 1.681973099708557 0.003921568859369
16.902233123779297 -18.222518920898438 -0.717683613300323 0.003921568859369
19.956827163696289 -19.558481216430664 1.617192268371582 0.003921568859369
16.628602981567383 -18.055233001708984 -0.708769202232361 0.003921568859369
5.537779808044434 -5.273719787597656 -0.001131553552113 0.000000000000000
6.550693988800049 -5.701020717620850 0.245968997478485 0.000000000000000
16.421766281127930 -17.953298568725586 1.971929907798767 0.003921568859369
16.359245300292969 -17.996433258056641 -0.702304184436798 0.003921568859369
7.150848388671875 -6.979945659637451 0.570017397403717 0.000000000000000
13.767932891845703 -13.690138816833496 2.360880613327026 0.003921568859369
13.670836448669434 -13.696478843688965 2.353060722351074 0.003921568859369
16.375413894653320 -18.155107498168945 1.981671929359436 0.003921568859369
19.228984832763672 -19.497844696044922 1.584722399711609 0.003921568859369
16.621496200561523 -18.549522399902344 2.019125223159790 0.003921568859369
18.208761215209961 -18.450229644775391 6.896614551544189 0.003921568859369
16.362318038940430 -18.384527206420898 1.994998812675476 0.003921568859369
15.955848693847656 -18.035350799560547 -0.695162653923035 0.003921568859369
19.441791534423828 -19.984321594238281 1.613510608673096 0.003921568859369
15.759551048278809 -17.935613632202148 -0.689264416694641 0.003921568859369
19.727161407470703 -20.424129486083984 1.643544793128967 0.003921568859369
17.029724121093750 -19.407911300659180 2.093501329421997 0.003921568859369
3.492429256439209 -3.376376628875732 -0.109956085681915 0.000000000000000
13.186041831970215 -13.650577545166016 1.094181537628174 0.000000000000000
15.121064186096191 -15.698057174682617 5.789561748504639 0.003921568859369
16.549440383911133 -19.262353897094727 2.058908224105835 0.003921568859369
5.974511623382568 -6.152630805969238 0.487276434898376 0.000000000000000
16.452159881591797 -19.276510238647461 2.054655313491821 0.003921568859369
17.000743865966797 -18.061048507690430 6.596302509307861 0.003921568859369
8.898721694946289 -8.504831314086914 0.351856142282486 0.000000000000000
19.388444900512695 -20.790275573730469 1.645542383193970 0.003921568859369
12.893940925598145 -13.725640296936035 2.289131402969360 0.003921568859369
19.431518554687500 -20.983673095703125 1.655539751052856 0.003921568859369
10.381273269653320 -11.143194198608398 0.875592350959778 0.000000000000000
4.275015830993652 -4.867255210876465 0.512844264507294 0.000000000000000
19.126941680908203 -20.941781997680664 1.641755938529968 0.003921568859369
13.605907440185547 -14.912824630737305 2.455929517745972 0.003921568859369
7.585225105285645 -7.460047721862793 0.303113847970963 0.000000000000000
4.795065879821777 -5.223002433776855 -0.001298044691794 0.000000000000000
10.558330535888672 -13.147258758544922 1.361572742462158 0.003921568859369
8.438848495483398 -8.678054809570312 0.345847398042679 0.000000000000000
12.845704078674316 -14.751936912536621 2.378844022750854 0.003921568859369
10.174675941467285 -11.697050094604492 1.880220174789429 0.000000000000000
6.850755691528320 -8.835519790649414 0.897539317607880 0.000000000000000
15.977992057800293 -19.232469558715820 1.445963025093079 0.003921568859369
9.148371696472168 -12.015501976013184 1.218119144439697 0.000000000000000
10.069825172424316 -10.923243522644043 -0.256241232156754 0.000000000000000
9.092030525207520 -12.009473800659180 1.214570999145508 0.000000000000000
8.649109840393066 -11.836930274963379 1.181929349899292 0.000000000000000
2.611986398696899 -2.797435522079468 0.019425680860877 0.000000000000000
2.339961528778076 -2.474878072738647 0.016853203997016 0.000000000000000
8.069161415100098 -12.982932090759277 2.756330251693726 0.003921568859369
10.809949874877930 -17.725162506103516 1.681150913238525 0.003921568859369
10.805360794067383 -18.295368194580078 1.721146941184998 0.003921568859369
7.801273345947266 -13.374246597290039 2.793545007705688 0.003921568859369
11.885151863098145 -23.860927581787109 0.308181881904602 0.003921568859369
8.467507362365723 -13.425195693969727 1.927160859107971 0.003921568859369
9.025029182434082 -16.198822021484375 -0.107693485915661 0.000000000000000
11.472083091735840 -24.303323745727539 0.310649424791336 0.003921568859369
11.652376174926758 -24.902538299560547 0.317880839109421 0.003921568859369
11.488747596740723 -24.783432006835938 0.315794050693512 0.003921568859369
11.574641227722168 -25.655467987060547 0.325482934713364 0.003921568859369
7.769285678863525 -14.940616607666016 3.041748046875000 0.003921568859369
11.100414276123047 -25.302595138549805 0.319407403469086 0.003921568859369
10.673041343688965 -26.276519775390625 -0.329532802104950 0.003921568859369
11.966390609741211 -26.768945693969727 -0.170092165470123 0.003921568859369
11.849169731140137 -26.754234313964844 -0.169777631759644 0.003921568859369
10.361364364624023 -26.837062835693359 0.332532346248627 0.003921568859369
10.649314880371094 -24.918966293334961 2.200635194778442 0.003921568859369
9.654576301574707 -26.633205413818359 0.327303975820541 0.003921568859369
10.459175109863281 -26.495388031005859 2.314135551452637 0.003921568859369
7.954673290252686 -17.333103179931641 -0.441506683826447 0.000000000000000
8.733608245849609 -25.962871551513672 0.316263049840927 0.003921568859369
8.565874099731445 -25.781442642211914 0.313613891601562 0.003921568859369
10.788448333740234 -24.728841781616211 0.623928070068359 0.003921568859369
9.150876045227051 -24.847639083862305 2.150494098663330 0.003921568859369
9.060531616210938 -24.854070663452148 2.148511886596680 0.003921568859369
7.459503173828125 -24.286378860473633 0.292944341897964 0.003921568859369
8.998487472534180 -24.955865859985352 2.154669523239136 0.003921568859369
8.783688545227051 -24.881904602050781 2.143213272094727 0.003921568859369
9.595226287841797 -24.434591293334961 0.606878936290741 0.003921568859369
9.031891822814941 -27.200603485107422 2.329320430755615 0.003921568859369
8.356647491455078 -25.356996536254883 2.169084548950195 0.003921568859369
8.867893218994141 -27.310794830322266 2.333817481994629 0.003921568859369
6.653551578521729 -24.662694931030273 0.294404268264771 0.003921568859369
8.675223350524902 -27.010280609130859 2.305502176284790 0.003921568859369
9.827537536621094 -26.410589218139648 1.632783889770508 0.003921568859369
5.229257106781006 -15.990751266479492 3.045259237289429 0.003921568859369
6.820941925048828 -18.010946273803711 -0.446606516838074 0.000000000000000
9.778037071228027 -26.860813140869141 0.661289632320404 0.003921568859369
8.296102523803711 -27.439449310302734 2.330085277557373 0.003921568859369
8.355002403259277 -25.016401290893555 1.527953743934631 0.003921568859369
7.353090286254883 -26.240661621093750 2.214951992034912 0.003921568859369
7.565907478332520 -27.370397567749023 2.308395624160767 0.003921568859369
8.364097595214844 -25.632009506225586 1.562146902084351 0.003921568859369
7.061357498168945 -26.191427230834961 2.204792976379395 0.003921568859369
4.853362083435059 -17.536161422729492 3.297590970993042 0.003921568859369
8.977792739868164 -28.278059005737305 0.686483979225159 0.003921568859369
7.013619422912598 -26.388578414916992 2.219410419464111 0.003921568859369
6.860140800476074 -26.163900375366211 2.198540687561035 0.003921568859369
6.708051681518555 -26.336418151855469 2.209218502044678 0.003921568859369
6.504059791564941 -25.864557266235352 2.167841672897339 0.003921568859369
6.023122787475586 -24.997802734375000 2.089940547943115 0.003921568859369
6.166525840759277 -26.056501388549805 2.176826238632202 0.003921568859369
4.117518901824951 -16.829843521118164 3.140966415405273 0.003921568859369
6.315772533416748 -27.156492233276367 2.266982316970825 0.003921568859369
6.270873546600342 -27.386480331420898 2.284527778625488 0.003921568859369
6.978273868560791 -25.077081680297852 1.508233547210693 0.003921568859369
6.088801860809326 -26.997255325317383 2.250311851501465 0.003921568859369
5.417744636535645 -25.116470336914062 2.088751554489136 0.003921568859369
3.349177122116089 -15.936320304870605 2.952749729156494 0.003921568859369
4.644636154174805 -17.966140747070312 -0.431806713342667 0.000000000000000
4.594602584838867 -18.035402297973633 -0.433131396770477 0.000000000000000
6.494929313659668 -26.615694046020508 3.350854635238647 0.003921568859369
4.527150630950928 -18.030477523803711 -0.432690083980560 0.003921568859369
6.285663604736328 -26.510398864746094 3.332277059555054 0.003921568859369
1.444631934165955 -6.097033500671387 1.125171661376953 0.000000000000000
7.254232883453369 -25.332601547241211 0.150885671377182 0.003921568859369
5.581119060516357 -24.086278915405273 0.571105360984802 0.003921568859369
1.308512330055237 -6.512375831604004 1.196127653121948 0.000000000000000
1.645891666412354 -9.167054176330566 1.683984756469727 0.000000000000000
4.743953227996826 -26.914867401123047 1.584994792938232 0.003921568859369
1.625871658325195 -8.092255592346191 2.189922809600830 0.000000000000000
1.678130269050598 -9.019111633300781 2.437276124954224 0.000000000000000
-0.433267742395401 -10.154870986938477 0.828421592712402 0.000000000000000
-0.579008936882019 -10.181104660034180 0.831617176532745 0.003921568859369
-0.803558468818665 -11.620676994323730 0.950239598751068 0.000000000000000
-1.073330521583557 -10.206554412841797 0.176147431135178 0.000000000000000
-2.842731952667236 -20.909128189086914 1.722848534584045 0.003921568859369
-3.142961025238037 -20.558259963989258 1.698664546012878 0.003921568859369
-3.792224168777466 -18.582317352294922 1.551085948944092 0.000000000000000
-3.850307226181030 -18.523813247680664 1.547486424446106 0.000000000000000
-5.408761024475098 -17.060825347900391 1.468189358711243 0.000000000000000
-2.718677759170532 -8.818489074707031 0.762170374393463 0.000000000000000
-2.783384799957275 -9.641396522521973 0.232509210705757 0.000000000000000
-3.317314624786377 -10.258132934570312 2.930080890655518 0.003921568859369
-7.199224948883057 -17.608161926269531 3.499428033828735 0.003921568859369
-12.568613052368164 -26.043622970581055 0.329938590526581 0.003921568859369
-6.590472698211670 -15.625807762145996 3.124540567398071 0.003921568859369
-3.702293395996094 -9.122895240783691 0.816114127635956 0.003921568859369
-13.457302093505859 -24.738849639892578 0.321186006069183 0.003921568859369
-13.894415855407715 -25.304733276367188 0.329223513603210 0.003921568859369
-4.474193096160889 -11.212304115295410 1.502815485000610 0.003921568859369
-14.112183570861816 -25.072732925415039 0.328079730272293 0.003921568859369
-14.174950599670410 -24.989530563354492 0.327594041824341 0.003921568859369
-13.236644744873047 -25.811058044433594 -0.179776892066002 0.003921568859369
