# This PCD file was generated using the MATLAB® pcwrite function
# from Computer Vision Toolbox®.
# .PCD v.7 - Point Cloud Data file format
VERSION .7
FIELDS x y z intensity
SIZE 8 8 8 8
TYPE F F F F
COUNT 1 1 1 1
WIDTH 641
HEIGHT 1
VIEWPOINT 0 0 0 1 0 0 0
POINTS 641
DATA ascii
-14.077781677246094 2.926033020019531 -0.409887522459030 0.000000000000000
-12.418609619140625 1.351285934448242 0.073850624263287 0.000000000000000
-15.457234382629395 4.004094600677490 -0.915382146835327 0.000000000000000
-13.525278091430664 2.809350490570068 -0.710393190383911 0.000000000000000
-11.612896919250488 1.829210042953491 1.419655919075012 0.000000000000000
-12.968450546264648 3.349988698959351 -0.457933574914932 0.000000000000000
-9.419023513793945 1.476801633834839 2.499800443649292 0.000000000000000
-13.981477737426758 2.955916881561279 -0.407320857048035 0.000000000000000
-6.775776863098145 1.407806515693665 -0.036086406558752 0.000000000000000
-14.771782875061035 3.878304481506348 -0.874868929386139 0.000000000000000
-11.021866798400879 2.320049524307251 0.452822148799896 0.000000000000000
-13.421656608581543 2.835646152496338 -0.705361664295197 0.000000000000000
-12.991440773010254 3.403741121292114 -0.459191739559174 0.000000000000000
-13.947635650634766 2.998823404312134 -0.406620383262634 0.000000000000000
-14.603958129882812 3.887406587600708 -0.865554869174957 0.000000000000000
-13.302405357360840 2.857845306396484 -0.699491739273071 0.000000000000000
-13.041222572326660 3.464999198913574 -0.461428910493851 0.000000000000000
-13.866823196411133 3.031128168106079 -0.404520273208618 0.000000000000000
-3.608105897903442 0.579910933971405 0.003124287119135 0.000000000000000
-11.041399002075195 1.313499808311462 0.319920003414154 0.000000000000000
-14.559486389160156 3.929162263870239 -0.863691449165344 0.000000000000000
-13.054479598999023 2.850662231445312 -0.686704337596893 0.000000000000000
-12.971212387084961 3.493896484375000 -0.459330111742020 0.000000000000000
-13.817689895629883 3.067570686340332 -0.403353273868561 0.000000000000000
-10.223718643188477 1.247866392135620 0.061265353113413 0.000000000000000
-9.104361534118652 1.552258372306824 0.212662562727928 0.000000000000000
-14.550222396850586 3.977765083312988 -0.863923430442810 0.000000000000000
-12.916366577148438 2.864198207855225 -0.679786264896393 0.000000000000000
-13.013479232788086 3.551137924194336 -0.461287558078766 0.000000000000000
-13.767380714416504 3.108453989028931 -0.402186214923859 0.000000000000000
-14.677760124206543 4.070315361022949 -0.872537136077881 0.000000000000000
-15.648363113403320 2.754511833190918 -0.727892816066742 0.000000000000000
-12.781193733215332 2.882131099700928 -0.673077881336212 0.000000000000000
-13.019613265991211 3.603431701660156 -0.461986094713211 0.000000000000000
-22.858325958251953 5.194731235504150 4.237019062042236 0.003921568859369
-13.713610649108887 3.145745754241943 -0.400902509689331 0.000000000000000
-7.287580966949463 1.286889076232910 -0.499661386013031 0.000000000000000
-15.371346473693848 2.759659528732300 -0.715216875076294 0.000000000000000
-12.728260993957520 2.915991544723511 -0.670771420001984 0.000000000000000
-13.033861160278320 3.655774831771851 -0.462964385747910 0.000000000000000
-8.051829338073730 1.426098227500916 2.136514663696289 0.000000000000000
-13.711375236511230 3.193113565444946 -0.401253789663315 0.000000000000000
-15.064063072204590 2.755058526992798 -0.701233208179474 0.000000000000000
-13.725770950317383 3.196525335311890 -0.725273728370667 0.000000000000000
-5.589295387268066 0.996475040912628 0.674203932285309 0.000000000000000
-13.048995018005371 3.707007169723511 -0.464086830615997 0.000000000000000
-12.140718460083008 2.867600440979004 -0.354488104581833 0.000000000000000
-14.806533813476562 2.762624263763428 -0.689490377902985 0.000000000000000
-13.019970893859863 3.749529600143433 -0.463526546955109 0.000000000000000
-13.649902343750000 3.277781486511230 -0.400086224079132 0.000000000000000
-14.095772743225098 2.675722360610962 -0.986207127571106 0.000000000000000
-14.557962417602539 2.764845609664917 -0.678120315074921 0.000000000000000
-13.726403236389160 3.296456098556519 -0.726529955863953 0.000000000000000
-13.022794723510742 3.796518325805664 -0.464085191488266 0.000000000000000
-13.637794494628906 3.327004432678223 -0.400085479021072 0.000000000000000
-13.948836326599121 2.699637174606323 -0.976431488990784 0.000000000000000
-7.851386070251465 1.500622987747192 -0.359773576259613 0.000000000000000
-12.876768112182617 3.138324975967407 -0.681255221366882 0.000000000000000
-13.039417266845703 3.852642536163330 -0.465203166007996 0.000000000000000
-13.622807502746582 3.370526552200317 -0.399968206882477 0.000000000000000
-13.763732910156250 2.709939718246460 -0.963863015174866 0.000000000000000
-12.118611335754395 2.992296457290649 -0.999572753906250 0.000000000000000
-13.360331535339355 3.996658325195312 -0.797796905040741 0.000000000000000
-14.111240386962891 2.779467582702637 -0.657803118228912 0.000000000000000
-12.866287231445312 3.180299282073975 -0.681254565715790 0.000000000000000
-13.011268615722656 3.890500068664551 -0.464642941951752 0.000000000000000
-15.169523239135742 2.991213083267212 -0.352592408657074 0.000000000000000
-13.610956192016602 3.417311429977417 -0.399967491626740 0.000000000000000
-12.768884658813477 2.556493520736694 -0.893482446670532 0.000000000000000
-13.346295356750488 4.042522907257080 -0.797796010971069 0.000000000000000
-15.846059799194336 3.183354377746582 0.931326568126678 0.000000000000000
-13.960501670837402 2.799247264862061 -0.651092648506165 0.000000000000000
-13.416325569152832 3.367652177810669 -0.711646080017090 0.000000000000000
-13.005245208740234 3.937499761581421 -0.464921772480011 0.000000000000000
-13.591199874877930 3.462050676345825 -0.399733483791351 0.000000000000000
-14.040807723999023 2.167668104171753 0.083729475736618 0.000000000000000
-12.689551353454590 2.585719585418701 -0.888454735279083 0.000000000000000
-8.951541900634766 1.369366765022278 0.260117262601852 0.000000000000000
-4.821487426757812 1.191632270812988 0.086071565747261 0.000000000000000
-13.332100868225098 4.088339328765869 -0.797795116901398 0.000000000000000
-13.758932113647461 2.807461977005005 -0.641959190368652 0.000000000000000
-13.396751403808594 3.411714315414429 -0.711226165294647 0.000000000000000
-13.037215232849121 3.996403217315674 -0.466599166393280 0.000000000000000
-14.964234352111816 3.057387828826904 -0.348205417394638 0.000000000000000
-13.571295738220215 3.506690263748169 -0.399499505758286 0.000000000000000
-12.657019615173340 2.624305963516235 -0.886778473854065 0.000000000000000
-13.317747116088867 4.134101867675781 -0.797794222831726 0.000000000000000
-13.510563850402832 2.804401874542236 -0.630589187145233 0.000000000000000
-13.072743415832520 4.056777000427246 -0.468416392803192 0.000000000000000
-14.804784774780273 3.077480792999268 -0.344658881425858 0.000000000000000
-16.557184219360352 2.679424524307251 -0.286863148212433 0.003921568859369
-13.555105209350586 3.552268981933594 -0.399382114410400 0.000000000000000
-5.534920692443848 0.871541798114777 0.034289088100195 0.000000000000000
-12.593158721923828 2.656003236770630 -0.882867932319641 0.000000000000000
-11.711458206176758 3.061193943023682 0.210222780704498 0.000000000000000
-13.379308700561523 4.204121589660645 -0.802449524402618 0.000000000000000
-13.461621284484863 2.842415809631348 -0.628724753856659 0.000000000000000
-9.481795310974121 2.467323303222656 -0.499946892261505 0.000000000000000
-13.058499336242676 4.101640224456787 -0.468415498733521 0.000000000000000
-14.668832778930664 3.101541042327881 -0.341672211885452 0.000000000000000
-13.531039237976074 3.595688819885254 -0.399031490087509 0.000000000000000
-12.560419082641602 2.694092512130737 -0.881191611289978 0.000000000000000
-13.668517112731934 4.348317623138428 -0.821073353290558 0.000000000000000
-13.295465469360352 2.854553222656250 -0.621268749237061 0.000000000000000
-14.775558471679688 3.931836128234863 -0.788147449493408 0.000000000000000
-19.639471054077148 4.239441394805908 2.443299293518066 0.003921568859369
-3.679308652877808 1.119036197662354 -0.124099880456924 0.000000000000000
-14.607126235961914 3.140891551971436 -0.340458512306213 0.000000000000000
-13.537684440612793 3.647432088851929 -0.399613827466965 0.000000000000000
-5.060023307800293 1.074446320533752 -0.344125747680664 0.000000000000000
-13.634277343750000 4.389049053192139 -0.819908380508423 0.000000000000000
-19.787918090820312 4.343529224395752 -0.931970417499542 0.003921568859369
-14.757885932922363 3.981585979461670 -0.787936925888062 0.000000000000000
-13.113130569458008 4.218556404113770 -0.471490412950516 0.000000000000000
-13.536425590515137 3.697123527526855 -0.399962902069092 0.000000000000000
-10.553179740905762 1.806016921997070 0.063619352877140 0.000000000000000
-12.712568283081055 2.818860054016113 -0.893479049205780 0.000000000000000
-13.637825012207031 4.442138195037842 -0.821071445941925 0.000000000000000
-9.325722694396973 2.528212070465088 0.387951672077179 0.000000000000000
-12.912727355957031 2.864018201828003 -0.603933870792389 0.000000000000000
-14.743895530700684 4.032325744628906 -0.787936091423035 0.000000000000000
-13.124889373779297 4.272346973419189 -0.472468465566635 0.000000000000000
-14.534128189086914 3.229851484298706 -0.339244097471237 0.000000000000000
-13.539290428161621 3.748888969421387 -0.400547385215759 0.000000000000000
-12.512564659118652 2.819544553756714 -0.880079925060272 0.000000000000000
-15.131980895996094 2.660526752471924 -0.969071328639984 0.000000000000000
-13.618854522705078 4.488837718963623 -0.821071684360504 0.000000000000000
-12.809677124023438 2.887665271759033 -0.599652349948883 0.000000000000000
-14.768642425537109 4.094777584075928 -0.790237843990326 0.000000000000000
-15.697125434875488 2.761334896087646 -0.638614833354950 0.000000000000000
-13.144416809082031 4.329956531524658 -0.473869293928146 0.000000000000000
-14.464799880981445 3.267164945602417 -0.337935984134674 0.000000000000000
-13.549189567565918 3.801973342895508 -0.401246190071106 0.000000000000000
-12.436577796936035 2.847081422805786 -0.875331759452820 0.000000000000000
-14.871253013610840 2.666858434677124 -0.952681958675385 0.000000000000000
-12.873452186584473 2.948855161666870 -0.603192687034607 0.000000000000000
-15.553267478942871 4.373392105102539 -0.833830296993256 0.000000000000000
-15.416073799133301 2.766004800796509 -0.627362072467804 0.000000000000000
-7.108260631561279 1.605717539787292 1.900477290153503 0.000000000000000
-14.429936408996582 3.311461210250854 -0.337375521659851 0.000000000000000
-13.567910194396973 3.852723360061646 -0.402178317308426 0.000000000000000
-12.396504402160645 2.878133773803711 -0.873097121715546 0.000000000000000
-14.658697128295898 2.675093412399292 -0.939365506172180 0.000000000000000
-13.704056739807129 3.187081575393677 -0.643447399139404 0.000000000000000
-15.104710578918457 2.757706403732300 -0.614804863929749 0.000000000000000
-3.198582887649536 1.021481037139893 -0.107222683727741 0.000000000000000
-14.411675453186035 3.354274272918701 -0.337188303470612 0.000000000000000
-13.588914871215820 3.909421443939209 -0.403226852416992 0.000000000000000
-14.460989952087402 2.689955234527588 -0.927073359489441 0.000000000000000
-12.173673629760742 2.869605541229248 -0.570577263832092 0.000000000000000
-13.610722541809082 3.915802240371704 -0.729246556758881 0.000000000000000
-14.827934265136719 2.759247779846191 -0.603715240955353 0.000000000000000
-14.403764724731445 3.404757976531982 -0.337280869483948 0.000000000000000
-13.621188163757324 3.969719409942627 -0.404625266790390 0.000000000000000
-13.426720619201660 3.219136238098145 -0.948777377605438 0.000000000000000
-7.199777603149414 1.343983530998230 -0.453334808349609 0.000000000000000
-12.802700042724609 4.407064437866211 -0.774509608745575 0.000000000000000
-13.724173545837402 3.291610479354858 -0.645496070384979 0.000000000000000
-13.635269165039062 3.973894596099854 -0.731341540813446 0.000000000000000
-14.582733154296875 2.764934062957764 -0.593930184841156 0.000000000000000
-14.368478775024414 3.448600769042969 -0.336720407009125 0.003921568859369
-13.645541191101074 4.027992248535156 -0.405790418386459 0.000000000000000
-13.434767723083496 3.270040512084961 -0.950173079967499 0.000000000000000
-14.061886787414551 2.714869499206543 -0.902233004570007 0.000000000000000
-12.681837081909180 4.413680553436279 -0.767990589141846 0.000000000000000
-15.531727790832520 3.788754940032959 -0.732901155948639 0.000000000000000
-13.628963470458984 4.023025989532471 -0.731759905815125 0.000000000000000
-14.431797981262207 2.787400007247925 -0.588059008121490 0.000000000000000
-7.398758888244629 2.154532194137573 1.371023416519165 0.000000000000000
-14.317529678344727 3.488397121429443 -0.335786700248718 0.000000000000000
-13.665828704833984 4.085322856903076 -0.406838953495026 0.000000000000000
-8.832680702209473 2.163587808609009 0.209564253687859 0.000000000000000
-13.419397354125977 3.315210103988647 -0.949893057346344 0.000000000000000
-18.336933135986328 3.618879556655884 0.540058135986328 0.003921568859369
-13.868339538574219 2.726459503173828 -0.890196919441223 0.000000000000000
-12.640032768249512 4.447766304016113 -0.766360044479370 0.000000000000000
-12.863773345947266 3.175702571868896 -0.605239510536194 0.000000000000000
-13.633945465087891 4.075645446777344 -0.732806861400604 0.000000000000000
-14.261287689208984 2.804932594299316 -0.581372439861298 0.000000000000000
-17.531265258789062 5.259232044219971 3.302552700042725 0.003921568859369
-14.293629646301270 3.534697532653809 -0.335506081581116 0.000000000000000
-19.773979187011719 3.976939439773560 0.118055373430252 0.000000000000000
-13.357475280761719 3.348486900329590 -0.946261882781982 0.000000000000000
-13.600561141967773 2.721615314483643 -0.873295426368713 0.000000000000000
-9.563554763793945 2.381819963455200 0.564750850200653 0.000000000000000
-13.328860282897949 3.341191530227661 -0.628161907196045 0.000000000000000
-13.444005012512207 4.068462371826172 -0.723165273666382 0.000000000000000
-7.344189167022705 2.192574262619019 0.612058341503143 0.000000000000000
-14.047748565673828 2.812544822692871 -0.572892010211945 0.000000000000000
-14.277326583862305 3.582844495773315 -0.335412025451660 0.000000000000000
-13.782037734985352 4.224321365356445 -0.411267995834351 0.000000000000000
-13.237530708312988 3.366394758224487 -0.938441753387451 0.000000000000000
-13.524522781372070 2.754584789276123 -0.868941605091095 0.000000000000000
-13.479588508605957 3.428963899612427 -0.635988473892212 0.000000000000000
-13.345810890197754 4.088506698608398 -0.718553602695465 0.000000000000000
-13.814759254455566 2.814654350280762 -0.563596189022064 0.000000000000000
-14.326675415039062 3.647937774658203 -0.336903959512711 0.000000000000000
-13.828218460083008 4.290903091430664 -0.413132697343826 0.000000000000000
-13.229556083679199 3.412862777709961 -0.938720285892487 0.000000000000000
-13.417169570922852 2.780477285385132 -0.862539172172546 0.000000000000000
-3.264005184173584 0.799526095390320 -0.143982633948326 0.000000000000000
-13.361932754516602 4.143941879272461 -0.720229387283325 0.000000000000000
-13.554551124572754 2.809409141540527 -0.553158938884735 0.000000000000000
-13.329388618469238 3.488027095794678 -0.946818232536316 0.000000000000000
-13.411283493041992 2.827393054962158 -0.862794697284698 0.000000000000000
-7.273198604583740 1.877254128456116 -0.337616086006165 0.000000000000000
-13.400661468505859 4.206817626953125 -0.723162591457367 0.000000000000000
-13.486040115356445 2.843407154083252 -0.550712227821350 0.000000000000000
-14.312449455261230 3.749481439590454 -0.337182253599167 0.000000000000000
-13.351802825927734 3.543151140213013 -0.949330925941467 0.000000000000000
-8.416807174682617 1.787184000015259 -0.535532295703888 0.000000000000000
-14.785455703735352 3.929818868637085 -0.700841367244720 0.000000000000000
-15.370156288146973 4.893512248992920 -0.832563042640686 0.000000000000000
-13.382309913635254 2.869305849075317 -0.546797931194305 0.000000000000000
-14.276105880737305 3.792435169219971 -0.336621701717377 0.000000000000000
-13.734671592712402 2.996208667755127 -0.885586082935333 0.000000000000000
-14.795233726501465 3.987904071807861 -0.702142059803009 0.000000000000000
-13.587800979614258 4.370623588562012 -0.735317945480347 0.000000000000000
-13.119077682495117 2.859803199768066 -0.536365330219269 0.000000000000000
-14.305673599243164 3.854028701782227 -0.337739497423172 0.000000000000000
-12.692152976989746 2.810964107513428 -0.817730426788330 0.000000000000000
-14.785072326660156 4.039865493774414 -0.702327609062195 0.000000000000000
-13.572460174560547 4.417300701141357 -0.735317051410675 0.000000000000000
-13.007638931274414 2.882020235061646 -0.532125294208527 0.000000000000000
-14.396177291870117 3.932056903839111 -0.340257167816162 0.000000000000000
-4.734889984130859 1.270101189613342 0.112353898584843 0.000000000000000
-12.581586837768555 2.829209566116333 -0.811072409152985 0.000000000000000
-13.716849327087402 4.514786243438721 -0.744117856025696 0.000000000000000
-13.005799293518066 2.926234483718872 -0.532450795173645 0.000000000000000
-14.417706489562988 3.988816976547241 -0.341095864772797 0.000000000000000
-12.559965133666992 2.869676113128662 -0.810303628444672 0.000000000000000
-13.034431457519531 2.979939699172974 -0.534080743789673 0.000000000000000
-12.117933273315430 2.810798645019531 -0.211122870445251 0.000000000000000
-12.953589439392090 3.673928260803223 -0.615486979484558 0.000000000000000
-12.929087638854980 4.350432872772217 -0.702203333377838 0.000000000000000
-12.232499122619629 2.882195472717285 -0.213363409042358 0.000000000000000
-13.490656852722168 3.183879137039185 -0.873036146163940 0.000000000000000
-12.940684318542480 3.718396186828613 -0.615486204624176 0.000000000000000
-12.845872879028320 4.371303558349609 -0.698430180549622 0.000000000000000
-12.869507789611816 3.034938097000122 -0.528046429157257 0.000000000000000
-9.907488822937012 2.869151830673218 0.002623456064612 0.003921568859369
-13.510485649108887 3.237782239913940 -0.875083863735199 0.000000000000000
-12.824176788330078 3.732211589813232 -0.610454082489014 0.000000000000000
-12.804140090942383 4.406160354614258 -0.696962356567383 0.000000000000000
-5.605629920959473 1.596218109130859 0.694116473197937 0.000000000000000
-12.979211807250977 3.108428716659546 -0.533100485801697 0.000000000000000
-12.839893341064453 4.418603420257568 2.442587614059448 0.000000000000000
-13.553352355957031 3.297610282897949 -0.878667950630188 0.000000000000000
-6.193604946136475 1.792955756187439 0.366789609193802 0.000000000000000
-12.788678169250488 4.450105667114258 -0.696961402893066 0.000000000000000
-13.003198623657227 3.161623716354370 -0.534567296504974 0.000000000000000
-15.246911048889160 5.319738864898682 2.910959243774414 0.003921568859369
-13.448834419250488 3.320861339569092 -0.872521936893463 0.000000000000000
-13.627490997314453 4.072018146514893 -0.650889754295349 0.000000000000000
-13.011465072631836 3.211130857467651 -0.535381913185120 0.000000000000000
-13.213596343994141 3.996043205261230 -0.949046969413757 0.000000000000000
-13.367524147033691 3.349339485168457 -0.867912232875824 0.000000000000000
-13.620826721191406 4.121190071105957 -0.651261568069458 0.000000000000000
-13.000171661376953 3.255810022354126 -0.535381257534027 0.000000000000000
-12.071303367614746 4.289664268493652 2.302724361419678 0.000000000000000
-13.359586715698242 4.091211318969727 -0.960774540901184 0.000000000000000
-13.429182052612305 3.414226055145264 -0.872776627540588 0.000000000000000
-13.583464622497559 4.160865306854248 -0.650142610073090 0.000000000000000
-15.581396102905273 3.970162153244019 -0.644626855850220 0.000000000000000
-13.463515281677246 3.472501039505005 -0.875848472118378 0.000000000000000
-12.977121353149414 3.345042228698730 -0.535379827022552 0.000000000000000
-5.517060756683350 1.410902380943298 0.162839978933334 0.000000000000000
-14.744171142578125 3.863112926483154 -0.961879432201385 0.000000000000000
-15.446522712707520 4.858424663543701 -0.742934644222260 0.000000000000000
-12.954247474670410 3.387416839599609 -0.535057902336121 0.000000000000000
-14.626526832580566 3.885799646377563 -0.954965591430664 0.000000000000000
-20.041473388671875 6.399681091308594 1.216003537178040 0.003921568859369
-12.988649368286133 3.444384336471558 -0.537013709545135 0.000000000000000
-14.540395736694336 3.913627624511719 -0.950100183486938 0.000000000000000
-13.574608802795410 4.362117767333984 -0.652749478816986 0.000000000000000
-12.977153778076172 3.486761808395386 -0.537013053894043 0.000000000000000
-8.028287887573242 2.982460021972656 1.529495596885681 0.000000000000000
-9.070877075195312 3.415550947189331 0.168519616127014 0.000000000000000
-14.538183212280273 3.966843128204346 -0.950867354869843 0.000000000000000
-7.131968498229980 2.286497116088867 -0.337107717990875 0.000000000000000
-3.384527921676636 1.224459648132324 0.281224071979523 0.000000000000000
-12.964900970458984 3.531328201293945 -0.537012338638306 0.000000000000000
-13.490764617919922 4.437632560729980 -0.650139093399048 0.000000000000000
-12.760088920593262 3.521867752075195 -0.528859734535217 0.000000000000000
-12.275701522827148 4.698859214782715 2.364408969879150 0.000000000000000
-6.274636745452881 2.736485958099365 -0.074726827442646 0.000000000000000
-12.555499076843262 3.511020660400391 -0.520707130432129 0.000000000000000
-6.730270862579346 2.204465389251709 1.848674893379211 0.000000000000000
-12.323867797851562 4.142093181610107 -0.893196761608124 0.000000000000000
-4.795212745666504 1.321750521659851 -0.303347617387772 0.000000000000000
-13.066244125366211 4.395867824554443 -0.630759119987488 0.000000000000000
-12.927208900451660 3.664767026901245 -0.537010073661804 0.000000000000000
-12.309332847595215 4.184372901916504 -0.893195927143097 0.000000000000000
-13.642204284667969 3.921630382537842 -0.894792020320892 0.000000000000000
-12.862001419067383 4.375453472137451 -0.621441900730133 0.000000000000000
-12.849114418029785 3.690116405487061 -0.534237682819366 0.000000000000000
-2.595645189285278 0.825823962688446 0.681105732917786 0.000000000000000
-12.294649124145508 4.226603507995605 -0.893195033073425 0.000000000000000
-13.486793518066406 3.926634550094604 -0.885317921638489 0.000000000000000
-12.812703132629395 4.407742977142334 -0.619764029979706 0.000000000000000
-12.874478340148926 3.745567798614502 -0.535867273807526 0.000000000000000
-13.419466018676758 3.956946611404419 -0.881732463836670 0.000000000000000
-13.463352203369141 6.258934497833252 0.173122376203537 0.000000000000000
-12.494036674499512 4.392854213714600 -0.910226225852966 0.000000000000000
-13.397930145263672 4.000734329223633 -0.881219685077667 0.000000000000000
-6.820810317993164 2.390637874603271 0.002772642765194 0.000000000000000
-8.743609428405762 4.067175388336182 -0.107454009354115 0.000000000000000
-12.456107139587402 4.427589893341064 -0.908550024032593 0.000000000000000
-13.441118240356445 4.064345359802246 -0.885059356689453 0.000000000000000
-12.493407249450684 4.490755558013916 -0.912743210792542 0.000000000000000
-12.912680625915527 3.951579570770264 -0.850754320621490 0.000000000000000
-12.905317306518555 3.949284791946411 -0.539618492126465 0.000000000000000
-12.436481475830078 4.518428325653076 -0.909670948982239 0.000000000000000
-6.323036193847656 1.926087379455566 -0.408608853816986 0.000000000000000
-13.211684226989746 4.094405651092529 -0.553311169147491 0.000000000000000
-13.542765617370605 4.249873161315918 -0.895043909549713 0.000000000000000
-13.197307586669922 4.139801502227783 -0.553310334682465 0.000000000000000
-12.647296905517578 4.695307731628418 -0.927817881107330 0.000000000000000
-13.308299064636230 4.225621700286865 -0.558689057826996 0.000000000000000
-12.645740509033203 4.744411468505859 -0.928933799266815 0.000000000000000
-13.168083190917969 4.230433464050293 -0.553308665752411 0.000000000000000
-17.280269622802734 6.511469841003418 4.900117397308350 0.003921568859369
-13.615025520324707 4.428155899047852 -0.902977883815765 0.000000000000000
-13.202569961547852 4.291964054107666 -0.555427014827728 0.000000000000000
-8.372598648071289 3.615530014038086 1.632053732872009 0.000000000000000
-13.554049491882324 4.459777832031250 -0.899904727935791 0.000000000000000
-13.085153579711914 4.303133010864258 -0.551024734973907 0.000000000000000
-5.438038825988770 2.360721349716187 -0.164400756359100 0.000000000000000
-13.640500068664551 4.540873527526855 -0.906816303730011 0.000000000000000
-13.020828247070312 4.331453323364258 -0.548904597759247 0.000000000000000
-13.010173797607422 4.375229358673096 -0.549066841602325 0.000000000000000
-2.152523517608643 0.886954128742218 0.393997550010681 0.000000000000000
-12.724188804626465 4.326388359069824 0.388073801994324 0.000000000000000
-2.185173273086548 0.910183429718018 0.401170730590820 0.000000000000000
-3.760588884353638 1.441788673400879 0.226612806320190 0.000000000000000
-12.673310279846191 4.406544208526611 -0.845368742942810 0.000000000000000
-5.104420185089111 2.006387948989868 0.311429500579834 0.000000000000000
-12.613121986389160 4.435159683227539 -0.842557072639465 0.000000000000000
-12.578788757324219 4.471692085266113 -0.841276168823242 0.000000000000000
-7.064321994781494 3.298267841339111 0.135690674185753 0.000000000000000
-14.459522247314453 6.071012020111084 4.155898094177246 0.003921568859369
-12.710787773132324 4.668090820312500 -0.853561520576477 0.000000000000000
-4.750082492828369 2.225641489028931 0.926915407180786 0.000000000000000
-12.802730560302734 4.752590656280518 -0.860984563827515 0.000000000000000
-5.085405826568604 2.715488672256470 -0.192504480481148 0.000000000000000
-11.716792106628418 5.732778549194336 2.348640441894531 0.000000000000000
-4.780543327331543 2.026386976242065 0.002804977586493 0.000000000000000
-5.994570255279541 2.609503269195557 0.150704219937325 0.000000000000000
-7.404084205627441 3.306427240371704 0.187210857868195 0.000000000000000
-2.289015054702759 1.106115698814392 0.099425293505192 0.000000000000000
-6.296931266784668 3.672150373458862 0.085639730095863 0.000000000000000
-12.448603630065918 5.110488891601562 0.388892918825150 0.000000000000000
-9.018124580383301 3.788607120513916 0.282095819711685 0.000000000000000
-8.232375144958496 3.486134290695190 -0.150326922535896 0.000000000000000
-6.787185668945312 3.277911424636841 0.002686261665076 0.000000000000000
-6.461174011230469 2.876717805862427 0.042769141495228 0.000000000000000
-9.972741127014160 6.026699066162109 2.097576379776001 0.000000000000000
-11.264834403991699 5.455674171447754 -0.213006481528282 0.000000000000000
-13.593490600585938 7.689464092254639 0.002419216092676 0.000000000000000
-3.073236942291260 1.847803950309753 -0.017177615314722 0.000000000000000
-5.753687858581543 3.590742349624634 -0.190148070454597 0.000000000000000
-5.836139202117920 3.345328330993652 -0.150132626295090 0.000000000000000
-6.671529293060303 3.960377454757690 0.445188939571381 0.000000000000000
-8.841814041137695 5.286091327667236 2.720168113708496 0.000000000000000
-7.617985725402832 4.684341430664062 0.002581235021353 0.003921568859369
-4.268721103668213 2.883026361465454 -0.997527778148651 0.000000000000000
-5.577159404754639 3.806647300720215 0.271630883216858 0.000000000000000
-4.278456687927246 2.620892524719238 0.115820311009884 0.000000000000000
-6.831043243408203 4.255117893218994 2.117671489715576 0.000000000000000
-4.251166343688965 2.914472818374634 -0.998311340808868 0.000000000000000
-10.653228759765625 6.753953456878662 0.002503349911422 0.000000000000000
-2.636956453323364 1.417280554771423 -0.178929492831230 0.000000000000000
-4.228754997253418 2.918763637542725 -0.995172917842865 0.000000000000000
-4.205848217010498 2.923641681671143 -0.992034256458282 0.000000000000000
-10.054606437683105 5.794882297515869 0.335659742355347 0.000000000000000
-4.167645454406738 2.916110754013062 -0.984972953796387 0.000000000000000
-4.153769493103027 2.928367614746094 -0.984187960624695 0.000000000000000
-4.118335247039795 2.923491477966309 -0.977911114692688 0.000000000000000
-8.561081886291504 5.036675930023193 0.287060469388962 0.000000000000000
-9.626987457275391 7.017398357391357 0.207916215062141 0.000000000000000
-4.082163333892822 2.939085721969604 -0.973987579345703 0.000000000000000
-4.082168102264404 2.939058065414429 0.087914086878300 0.000000000000000
-4.058665275573730 2.965529680252075 -0.974027633666992 0.000000000000000
-11.468997955322266 7.789340019226074 0.321648955345154 0.000000000000000
-12.009579658508301 8.162290573120117 3.853694915771484 0.000000000000000
-4.001678466796875 2.943145751953125 -0.962259292602539 0.000000000000000
-3.997576236724854 2.961277723312378 -0.963828086853027 0.000000000000000
-3.977941513061523 2.967339992523193 -0.961474061012268 0.000000000000000
-3.921327114105225 2.944189786911011 -0.949705719947815 0.000000000000000
-3.904875516891479 2.952359437942505 -0.948136210441589 0.000000000000000
-7.800502777099609 5.456505775451660 2.514137506484985 0.000000000000000
-3.870023250579834 2.945764541625977 -0.941859662532806 0.000000000000000
-3.838320255279541 2.941419601440430 -0.936367571353912 0.000000000000000
-3.834122180938721 2.959110021591187 -0.937936246395111 0.000000000000000
-3.811610460281372 2.961930990219116 -0.934797763824463 0.000000000000000
-3.762362480163574 2.941594600677490 -0.924598515033722 0.000000000000000
-3.751692056655884 2.956556558609009 -0.925424873828888 0.000000000000000
-3.708711147308350 2.940785646438599 -0.916794896125793 0.000000000000000
-7.748571872711182 5.702529430389404 0.554624915122986 0.000000000000000
-3.706918478012085 2.961277008056641 -0.919148087501526 0.000000000000000
-3.679096698760986 2.957782030105591 -0.914440631866455 0.000000000000000
-3.662255764007568 2.965515613555908 -0.912871301174164 0.000000000000000
-2.156582832336426 1.523842096328735 -0.055532380938530 0.000000000000000
-3.651879310607910 2.977666139602661 -0.912870943546295 0.000000000000000
-3.609315395355225 2.960989475250244 -0.904240965843201 0.000000000000000
-3.589555025100708 2.965832948684692 -0.901886999607086 0.000000000000000
-3.561470031738281 2.962228536605835 -0.897179663181305 0.000000000000000
-3.586413145065308 3.005151510238647 -0.906593501567841 0.000000000000000
-2.709100484848022 1.825504779815674 0.093494556844234 0.000000000000000
-3.558300018310547 3.001412391662598 -0.901886045932770 0.000000000000000
-10.188720703125000 8.048428535461426 3.444795846939087 0.000000000000000
-3.528375864028931 2.993730068206787 -0.896394133567810 0.000000000000000
-4.918605804443359 4.235716342926025 1.162027478218079 0.000000000000000
-3.501797199249268 2.996059894561768 -0.893298864364624 0.000000000000000
-3.470975399017334 2.989218950271606 -0.887807130813599 0.000000000000000
-3.441281318664551 2.981060266494751 -0.882315278053284 0.000000000000000
-3.407747030258179 2.971219778060913 -0.876038968563080 0.000000000000000
-4.663878440856934 3.380371093750000 0.166152507066727 0.000000000000000
-3.419334650039673 3.004938125610352 -0.882314622402191 0.000000000000000
-3.391610383987427 3.000202655792236 -0.877607464790344 0.000000000000000
-3.381114244461060 3.011419773101807 -0.877607166767120 0.000000000000000
-3.339752197265625 2.992404222488403 -0.868977367877960 0.000000000000000
-3.326966524124146 3.000185966491699 -0.868192553520203 0.000000000000000
-3.304619550704956 3.000868558883667 -0.865054309368134 0.000000000000000
-6.957639694213867 5.374036788940430 0.052832238376141 0.000000000000000
-3.238780021667480 3.003298997879028 -0.856468141078949 0.000000000000000
-6.457857131958008 5.579409599304199 2.255267381668091 0.000000000000000
-3.212561368942261 2.996411800384521 -0.851761102676392 0.000000000000000
-3.204338312149048 3.010308742523193 -0.852545201778412 0.000000000000000
-3.174386739730835 3.001476287841797 -0.847053587436676 0.000000000000000
-3.161122798919678 3.009165048599243 -0.846268832683563 0.000000000000000
-3.131798505783081 3.021573781967163 -0.843914866447449 0.000000000000000
-3.107551097869873 3.017841577529907 -0.839992165565491 0.000000000000000
-3.086092233657837 3.016797780990601 -0.836854040622711 0.000000000000000
-3.078257322311401 3.029789686203003 -0.837638318538666 0.000000000000000
-3.062777519226074 3.033741235733032 -0.836069047451019 0.000000000000000
-3.041379928588867 3.032429218292236 -0.832930922508240 0.000000000000000
-3.468505859375000 3.158957958221436 0.268568158149719 0.000000000000000
-3.032752037048340 3.048134326934814 -0.834544539451599 0.000000000000000
-3.011384487152100 3.046654462814331 -0.831406474113464 0.000000000000000
-3.000729560852051 3.056567907333374 -0.831406295299530 0.000000000000000
-2.987382650375366 3.063558578491211 -0.830621540546417 0.000000000000000
-3.752352952957153 3.556161642074585 -0.783372342586517 0.003921568859369
-2.958546638488770 3.073980808258057 -0.828267753124237 0.000000000000000
-2.944631814956665 3.081282615661621 -0.827483057975769 0.000000000000000
-2.931239366531372 3.088040351867676 -0.826698362827301 0.000000000000000
-3.673252582550049 3.551332235336304 -0.774147868156433 0.003921568859369
-2.934011936187744 3.111848354339600 -0.830620408058167 0.000000000000000
-3.653150796890259 3.554478168487549 -0.772302925586700 0.003921568859369
-2.925726175308228 3.124430894851685 -0.831404745578766 0.000000000000000
-3.635204076766968 3.560964822769165 -0.771072804927826 0.003921568859369
-2.912213563919067 3.131095886230469 -0.830619990825653 0.000000000000000
-3.611757993698120 3.561688661575317 -0.768612980842590 0.003921568859369
-2.901263713836670 3.140663146972656 -0.830619752407074 0.000000000000000
-3.618466377258301 3.593649387359619 -0.772917032241821 0.000000000000000
-2.891969919204712 3.156108856201172 -0.832233905792236 0.000000000000000
-3.586094141006470 3.588492393493652 -0.769270241260529 0.003921568859369
-2.875823259353638 3.159664869308472 -0.830664813518524 0.000000000000000
-3.568107843399048 3.594681739807129 -0.768040180206299 0.003921568859369
-2.864773988723755 3.169116973876953 -0.830664575099945 0.000000000000000
-3.555535793304443 3.606547594070435 -0.768039941787720 0.003921568859369
-2.854246377944946 3.178060531616211 -0.830664396286011 0.000000000000000
-3.548950672149658 3.623555660247803 -0.769269526004791 0.003921568859369
-2.846214294433594 3.189971208572388 -0.831448733806610 0.000000000000000
-3.528846502304077 3.626074314117432 -0.767424643039703 0.003921568859369
-4.710932731628418 4.477341175079346 -0.108971916139126 0.000000000000000
-2.826402902603149 3.191217899322510 -0.829095125198364 0.000000000000000
-3.509539127349854 3.633158683776855 -0.766194522380829 0.003921568859369
-2.828318357467651 3.215132236480713 -0.833017230033875 0.000000000000000
-3.497470617294312 3.644236803054810 -0.766194283962250 0.003921568859369
-6.523552417755127 6.951812267303467 2.527499914169312 0.000000000000000
-2.832597017288208 3.242123842239380 -0.837723791599274 0.000000000000000
-3.480047464370728 3.649425983428955 -0.764964342117310 0.000000000000000
-2.805800914764404 3.233664035797119 -0.833016812801361 0.000000000000000
-3.466646194458008 3.661561012268066 -0.764964103698730 0.003921568859369
-2.794494390487671 3.242870569229126 -0.833016633987427 0.000000000000000
-3.451204776763916 3.670127630233765 -0.764348983764648 0.000000000000000
-2.795458078384399 3.267311573028564 -0.836938679218292 0.000000000000000
-3.435742616653442 3.678632497787476 -0.763733863830566 0.003921568859369
-2.774234294891357 3.264229297637939 -0.833800733089447 0.000000000000000
-3.425495624542236 3.692997217178345 -0.764348566532135 0.000000000000000
-2.781823635101318 3.300495624542236 -0.840906143188477 0.000000000000000
-3.407100677490234 3.700800418853760 -0.763777911663055 0.000000000000000
-2.767855167388916 3.306550979614258 -0.840121507644653 0.000000000000000
-3.391563415527344 3.709135055541992 -0.763162791728973 0.000000000000000
-2.756873607635498 3.315183162689209 -0.840121328830719 0.000000000000000
-3.387002944946289 3.728799581527710 -0.765007257461548 0.000000000000000
-2.745281219482422 3.324232101440430 -0.840121150016785 0.000000000000000
-3.371387004852295 3.737047910690308 -0.764392197132111 0.000000000000000
-3.248265266418457 3.970893144607544 0.207405835390091 0.000000000000000
-9.107598304748535 9.503228187561035 -0.225419059395790 0.000000000000000
-2.738452434539795 3.339449405670166 -0.841689944267273 0.000000000000000
-3.358318328857422 3.748239755630493 -0.764392018318176 0.003921568859369
-2.729163169860840 3.351544857025146 -0.842474162578583 0.000000000000000
-3.342657566070557 3.756368398666382 -0.763776838779449 0.000000000000000
-2.729323863983154 3.376101493835449 -0.846396207809448 0.000000000000000
-3.342246055603027 3.782579898834229 -0.766851067543030 0.000000000000000
-2.709246158599854 3.376555919647217 -0.844042658805847 0.000000000000000
-3.330227375030518 3.797809839248657 -0.767465770244598 0.000000000000000
-3.865668296813965 4.439158439636230 1.552214860916138 0.000000000000000
-2.709205150604248 3.401129484176636 -0.847964823246002 0.000000000000000
-3.319470882415771 3.811898469924927 -0.768080413341522 0.000000000000000
-2.696160793304443 3.405979394912720 -0.847180128097534 0.000000000000000
-2.691248893737793 3.424276351928711 -0.849533319473267 0.000000000000000
-3.281602859497070 3.817477941513062 -0.765005588531494 0.000000000000000
-2.694919586181641 3.455671310424805 -0.855024218559265 0.000000000000000
-3.419432640075684 4.443206310272217 -0.029626445844769 0.000000000000000
-2.677604198455811 3.460876703262329 -0.854285299777985 0.000000000000000
-3.271192073822021 3.863776683807373 -0.769968926906586 0.003921568859369
-2.663207292556763 3.466481447219849 -0.853500723838806 0.000000000000000
-3.247803449630737 3.862286090850830 -0.767509222030640 0.003921568859369
-2.655662059783936 3.481586933135986 -0.855069458484650 0.000000000000000
-3.246594429016113 3.888529300689697 -0.770583450794220 0.003921568859369
-2.654872894287109 3.506263732910156 -0.858991444110870 0.000000000000000
-3.240345001220703 3.908603668212891 -0.772427916526794 0.003921568859369
-2.637471914291382 3.508996963500977 -0.857422471046448 0.000000000000000
-3.233304500579834 3.929219722747803 -0.774272322654724 0.003921568859369
-2.633197546005249 3.526405572891235 -0.859775662422180 0.000000000000000
-2.628602981567383 3.548767328262329 -0.862913191318512 0.000000000000000
-3.213037490844727 3.959998130798340 -0.776116549968719 0.003921568859369
-3.692529678344727 5.075757026672363 0.507482051849365 0.000000000000000
-2.618331432342529 3.584490299224854 -0.867619514465332 0.000000000000000
-2.618428230285645 3.612939119338989 -0.872325897216797 0.000000000000000
-2.608629465103149 3.624335289001465 -0.873110234737396 0.000000000000000
-2.595959186553955 3.632877111434937 -0.873110115528107 0.000000000000000
-2.594324111938477 3.664631366729736 -0.878646790981293 0.000000000000000
-3.161845207214355 4.070292949676514 -0.785383462905884 0.003921568859369
-2.609639644622803 3.715666770935059 -0.888844311237335 0.000000000000000
-3.149953842163086 4.083962440490723 -0.785998165607452 0.003921568859369
-2.595149993896484 3.720517873764038 -0.888059794902802 0.000000000000000
-2.592850208282471 3.745456218719482 -0.891981780529022 0.000000000000000
-2.588277339935303 3.767128467559814 -0.895119369029999 0.000000000000000
-2.575110912322998 3.775609731674194 -0.895119190216064 0.000000000000000
-2.576659202575684 3.807206153869629 -0.900610029697418 0.000000000000000
-2.563352584838867 3.815646648406982 -0.900609910488129 0.000000000000000
-3.445848464965820 4.232394695281982 0.033492490649223 0.000000000000000
-2.564599514007568 3.847303628921509 -0.906100809574127 0.000000000000000
-2.559440612792969 3.869023799896240 -0.909238398075104 0.000000000000000
-2.552775859832764 3.886998653411865 -0.911591589450836 0.000000000000000
-3.949670791625977 5.525555610656738 0.825682163238525 0.000000000000000
-2.565831184387207 3.938833475112915 -0.921788990497589 0.000000000000000
-2.570265531539917 3.984512090682983 -0.930463254451752 0.000000000000000
-2.283814668655396 4.032828330993652 -0.423784166574478 0.000000000000000
-2.534536123275757 4.183059215545654 -0.961054921150208 0.000000000000000
-2.516785144805908 4.220140457153320 -0.965761244297028 0.003921568859369
-2.118678569793701 3.510646104812622 0.330977201461792 0.000000000000000
-2.502035617828369 4.228383064270020 -0.965761125087738 0.003921568859369
-7.549103736877441 11.889947891235352 3.755246400833130 0.000000000000000
-6.140760421752930 8.782859802246094 -0.430996537208557 0.000000000000000
-4.849992752075195 8.054332733154297 -0.160625815391541 0.000000000000000
-2.811145305633545 6.023885250091553 1.203934073448181 0.000000000000000
-2.631436824798584 4.437741279602051 -0.086727760732174 0.000000000000000
-4.408743858337402 10.496625900268555 2.068560600280762 0.000000000000000
-3.019560098648071 6.377841472625732 1.878044605255127 0.000000000000000
-7.292914867401123 18.321928024291992 3.588977098464966 0.003921568859369
-4.188149929046631 8.190968513488770 0.268160104751587 0.000000000000000
-2.415366649627686 6.423426628112793 0.558654546737671 0.000000000000000
-9.834182739257812 27.313974380493164 5.287383079528809 0.003921568859369
-9.687335968017578 27.210176467895508 5.260806083679199 0.003921568859369
-9.575514793395996 27.195041656494141 5.251478195190430 0.003921568859369
-9.500966072082520 27.287399291992188 5.262958049774170 0.003921568859369
-9.394276618957520 27.286401748657227 5.256500244140625 0.003921568859369
-7.615893840789795 27.641668319702148 -0.330980360507965 0.003921568859369
-7.641132831573486 28.123605728149414 0.341322660446167 0.003921568859369
-7.351435184478760 27.422502517700195 -0.327725887298584 0.003921568859369
-7.265709877014160 27.486257553100586 -0.328191220760345 0.003921568859369
-2.672205924987793 8.134037971496582 0.150867044925690 0.000000000000000
-3.615473508834839 9.495928764343262 1.244221568107605 0.000000000000000
-7.263912200927734 27.879106521606445 -0.332609117031097 0.003921568859369
-2.069566965103149 6.282339572906494 1.200973153114319 0.000000000000000
-7.130138397216797 27.771894454956055 -0.331060618162155 0.003921568859369
-6.935126781463623 27.816226959228516 -0.331015080213547 0.003921568859369
-7.135869026184082 29.031105041503906 -0.345290660858154 0.003921568859369
-6.939201354980469 28.654577255249023 0.345297724008560 0.003921568859369
-8.035252571105957 28.016132354736328 -0.844834744930267 0.003921568859369
-6.594006538391113 28.094537734985352 0.338022470474243 0.003921568859369
-6.417265415191650 27.769769668579102 -0.329111069440842 0.003921568859369
-6.490600109100342 28.093532562255859 0.337742179632187 0.003921568859369
-7.858143329620361 28.119430541992188 -0.846347451210022 0.003921568859369
-7.631175518035889 27.293920516967773 -0.162139877676964 0.003921568859369
-3.022319555282593 10.530766487121582 0.192746773362160 0.000000000000000
-7.536907196044922 27.323812484741211 -0.162163510918617 0.003921568859369
-2.121204614639282 6.147273063659668 0.795637428760529 0.000000000000000
-5.207424163818359 18.733949661254883 1.586891293525696 0.000000000000000
-7.373502731323242 27.479305267333984 -0.162790283560753 0.003921568859369
-7.740958690643311 28.872772216796875 2.440087795257568 0.003921568859369
-3.608635663986206 13.202703475952148 2.491781234741211 0.000000000000000
-5.915366649627686 27.788095474243164 0.332809358835220 0.003921568859369
-5.618648052215576 26.856929779052734 0.321477204561234 0.003921568859369
-7.185024261474609 27.981430053710938 -0.165373802185059 0.003921568859369
-2.031042337417603 6.253618717193604 0.804854273796082 0.000000000000000
-5.756601333618164 28.518226623535156 -0.336077928543091 0.003921568859369
-7.158702373504639 28.272071838378906 2.380808830261230 0.003921568859369
-7.092308521270752 28.449739456176758 -0.850104928016663 0.003921568859369
-5.642915725708008 28.491561889648438 -0.335520744323730 0.003921568859369
-5.464141845703125 27.568767547607422 0.329262614250183 0.003921568859369
-6.963685989379883 28.352695465087891 2.383411407470703 0.003921568859369
-5.535526275634766 29.020893096923828 -0.341334402561188 0.003921568859369
-6.839865684509277 28.271884918212891 -0.166535317897797 0.003921568859369
-5.620579242706299 29.476982116699219 0.351457506418228 0.003921568859369
-3.274096250534058 9.168887138366699 0.284213632345200 0.000000000000000
-5.426281452178955 28.996328353881836 -0.340823680162430 0.003921568859369
-6.788287162780762 28.496805191040039 2.391548395156860 0.003921568859369
-5.344342231750488 29.064022064208984 -0.341428786516190 0.003921568859369
-5.417882919311523 29.473428726196289 0.350989758968353 0.003921568859369
-5.235464572906494 29.099615097045898 -0.341615617275238 0.003921568859369
-5.135109424591064 28.528392791748047 0.339564442634583 0.003921568859369
-6.666670799255371 28.884809494018555 2.420193195343018 0.003921568859369
-7.903164863586426 28.313898086547852 0.685655295848846 0.003921568859369
-4.947332859039307 28.033273696899414 0.333501726388931 0.003921568859369
-4.901834964752197 28.300703048706055 0.336485385894775 0.003921568859369
-4.979886531829834 29.406324386596680 -0.344675451517105 0.003921568859369
-7.724444866180420 28.411138534545898 0.686740458011627 0.003921568859369
-7.605096817016602 27.965332031250000 3.557015895843506 0.003921568859369
-4.869538307189941 29.375730514526367 -0.344118475914001 0.003921568859369
-7.599702835083008 28.340850830078125 0.684411525726318 0.003921568859369
-7.323094844818115 27.292825698852539 1.646255970001221 0.003921568859369
-6.049687862396240 28.422775268554688 -0.166435316205025 0.003921568859369
-7.546032905578613 28.540941238403320 0.688601374626160 0.003921568859369
-4.547701358795166 28.005439758300781 0.332390040159225 0.003921568859369
-6.154673099517822 28.926088333129883 2.414622306823730 0.003921568859369
-4.634567260742188 29.283264160156250 -0.342632561922073 0.003921568859369
-7.094099044799805 27.232713699340820 1.639508366584778 0.003921568859369
-6.020386219024658 28.835777282714844 2.405181169509888 0.003921568859369
-5.970447063446045 29.108545303344727 -0.861776232719421 0.003921568859369
-4.365538597106934 28.191408157348633 -0.329614400863647 0.003921568859369
-4.339321613311768 28.017370223999023 0.332154929637909 0.003921568859369
-7.293132781982422 28.422311782836914 1.709528326988220 0.003921568859369
-7.197298526763916 28.042648315429688 3.553599834442139 0.003921568859369
-5.863135337829590 28.574781417846680 2.381742477416992 0.003921568859369
-7.060683727264404 27.501222610473633 -0.657704710960388 0.003921568859369
-5.595880508422852 27.695121765136719 -0.819330096244812 0.003921568859369
-4.444331645965576 29.340263366699219 -0.342959851026535 0.003921568859369
-7.297000408172607 28.818923950195312 0.693441450595856 0.003921568859369
-7.190285205841064 28.390457153320312 1.706270694732666 0.003921568859369
-7.085168361663818 27.968437194824219 3.541410446166992 0.003921568859369
-5.818952560424805 28.823438644409180 2.400947809219360 0.003921568859369
-7.213907241821289 28.485229492187500 -0.680764913558960 0.003921568859369
-5.752878665924072 29.021110534667969 -0.858056545257568 0.003921568859369
-4.351002216339111 29.418521881103516 -0.343704789876938 0.003921568859369
-1.861876487731934 5.849239826202393 0.037400729954243 0.000000000000000
