# This PCD file was generated using the MATLAB® pcwrite function
# from Computer Vision Toolbox®.
# .PCD v.7 - Point Cloud Data file format
VERSION .7
FIELDS x y z intensity
SIZE 8 8 8 8
TYPE F F F F
COUNT 1 1 1 1
WIDTH 647
HEIGHT 1
VIEWPOINT 0 0 0 1 0 0 0
POINTS 647
DATA ascii
-17.748422622680664 3.729117631912231 -0.907818675041199 0.003921568859369
-18.909627914428711 2.140334129333496 -0.741923928260803 0.003921568859369
-18.434253692626953 2.973474979400635 -0.410096079111099 0.000000000000000
-19.899148941040039 2.323807239532471 -0.329848408699036 0.003921568859369
-6.684167385101318 1.341904044151306 -0.173187375068665 0.000000000000000
-14.130401611328125 2.989669799804688 -0.069689862430096 0.000000000000000
-7.433602809906006 0.818967163562775 0.207652866840363 0.000000000000000
-17.953699111938477 3.837314367294312 -0.919358849525452 0.003921568859369
-18.556823730468750 2.162564516067505 -0.727706670761108 0.003921568859369
-18.435577392578125 3.037730455398560 -0.410262316465378 0.000000000000000
-19.775804519653320 2.376869678497314 -0.327726483345032 0.003921568859369
-15.755194664001465 1.876186132431030 0.453355342149734 0.000000000000000
-6.526659488677979 1.026516795158386 0.358135193586349 0.000000000000000
-17.807682037353516 3.868052005767822 -0.912182152271271 0.003921568859369
-13.412907600402832 1.587015151977539 -0.517678797245026 0.000000000000000
-18.420909881591797 3.099290847778320 -0.410060614347458 0.000000000000000
-19.600755691528320 2.422510623931885 -0.324708342552185 0.003921568859369
-18.058853149414062 3.988670587539673 -0.926214158535004 0.003921568859369
-17.708719253540039 2.181484937667847 -0.693450391292572 0.003921568859369
-18.433586120605469 3.165685415267944 -0.410502672195435 0.000000000000000
-19.473205566406250 2.473206758499146 -0.322520583868027 0.003921568859369
-18.844312667846680 3.305217504501343 -0.852547824382782 0.000000000000000
-18.083723068237305 4.058640003204346 -0.928185582160950 0.003921568859369
-21.639890670776367 2.758591413497925 -0.854422688484192 0.003921568859369
-18.418478012084961 3.227210760116577 -0.410300999879837 0.000000000000000
-19.339447021484375 2.526962995529175 -0.320621252059937 0.003921568859369
-5.500778675079346 0.904820263385773 -0.341970145702362 0.000000000000000
-11.296075820922852 1.976083278656006 0.643186032772064 0.000000000000000
-18.132961273193359 4.140249252319336 -0.932276427745819 0.003921568859369
-10.256645202636719 1.300761461257935 -0.389593124389648 0.000000000000000
-18.428358078002930 3.298437595367432 -0.411158025264740 0.000000000000000
-19.319513320922852 2.584215402603149 -0.320311725139618 0.003921568859369
-7.654236316680908 1.325597047805786 0.175326064229012 0.000000000000000
-21.563478469848633 2.895292997360229 -0.852468729019165 0.003921568859369
-17.690975189208984 4.085385799407959 3.218818187713623 0.003921568859369
-18.417892456054688 3.354467630386353 -0.411060422658920 0.000000000000000
-19.258424758911133 2.645538330078125 -0.319295465946198 0.003921568859369
-12.074468612670898 2.201081991195679 0.690522551536560 0.000000000000000
-19.119152069091797 2.626522064208984 -0.752700209617615 0.003921568859369
-18.460439682006836 3.430358171463013 -0.412233203649521 0.000000000000000
-19.201566696166992 2.703780174255371 -0.318354547023773 0.003921568859369
-18.995159149169922 2.674492359161377 -0.747890174388885 0.003921568859369
-18.479738235473633 3.498871564865112 -0.412859499454498 0.000000000000000
-19.164793014526367 2.761365175247192 -0.317764550447464 0.003921568859369
-7.359674453735352 1.343264341354370 0.410149484872818 0.000000000000000
-19.021755218505859 2.740817070007324 -0.749241590499878 0.003921568859369
-18.499395370483398 3.564435482025146 -0.413491010665894 0.000000000000000
-19.131301879882812 2.822574377059937 -0.317238211631775 0.003921568859369
-8.413125991821289 1.580587983131409 0.988748788833618 0.000000000000000
-20.884843826293945 3.090828657150269 -0.825887739658356 0.003921568859369
-18.514263153076172 3.632502317428589 -0.414024859666824 0.000000000000000
-19.085252761840820 2.884961605072021 -0.316499948501587 0.003921568859369
-6.230511188507080 1.451496124267578 0.110003620386124 0.000000000000000
-19.034048080444336 3.809193611145020 -0.865507602691650 0.000000000000000
-15.460094451904297 3.065631628036499 1.875337123870850 0.000000000000000
-20.948390960693359 3.176924705505371 -0.828834593296051 0.003921568859369
-18.571298599243164 3.712753534317017 -0.415562808513641 0.000000000000000
-19.040023803710938 2.940609216690063 -0.315773397684097 0.003921568859369
-19.025211334228516 3.871162891387939 -0.865585923194885 0.000000000000000
-20.906154632568359 3.239381313323975 -0.827421963214874 0.003921568859369
-19.021734237670898 3.003711223602295 -0.315523594617844 0.003921568859369
-19.011571884155273 3.935496330261230 -0.865473806858063 0.000000000000000
-20.918378829956055 3.314148902893066 -0.828269720077515 0.003921568859369
-17.205453872680664 4.401153087615967 3.147637367248535 0.003921568859369
-19.030845642089844 3.071323156356812 -0.315755695104599 0.003921568859369
-17.830297470092773 3.745797872543335 -0.810105800628662 0.000000000000000
-20.260147094726562 3.277207374572754 -0.801604330539703 0.003921568859369
-19.008169174194336 3.133666038513184 -0.315437287092209 0.003921568859369
-9.911254882812500 2.056288719177246 0.009197341278195 0.003921568859369
-17.883424758911133 3.820632219314575 -0.813142120838165 0.000000000000000
-20.063404083251953 3.314291238784790 -0.793879449367523 0.003921568859369
-19.039880752563477 3.208709478378296 -0.316076248884201 0.003921568859369
-17.912170410156250 3.893651247024536 -0.815064013004303 0.000000000000000
-4.438092231750488 1.061179757118225 -0.201660931110382 0.000000000000000
-20.027482986450195 3.381536722183228 -0.792784452438354 0.003921568859369
-19.058874130249023 3.276986360549927 -0.316896915435791 0.003921568859369
-20.750936508178711 3.576691150665283 0.130234420299530 0.003921568859369
-12.768151283264160 3.414159774780273 -0.062350947409868 0.000000000000000
-18.018064498901367 3.980554580688477 -0.821310818195343 0.000000000000000
-19.148664474487305 3.293689012527466 -0.757646977901459 0.003921568859369
-19.075441360473633 3.343238115310669 -0.317272871732712 0.003921568859369
-10.174822807312012 1.731168150901794 0.292267173528671 0.000000000000000
-20.483800888061523 4.609925270080566 1.202931404113770 0.003921568859369
-18.140989303588867 4.069975376129150 -0.827677428722382 0.000000000000000
-7.913486480712891 1.322874784469604 -0.295818060636520 0.000000000000000
-19.087238311767578 3.412135601043701 -0.317574322223663 0.003921568859369
-18.142219543457031 4.134917736053467 -0.828310847282410 0.000000000000000
-18.980371475219727 3.393152713775635 -0.751444637775421 0.003921568859369
-19.121755599975586 3.488837003707886 -0.318282246589661 0.003921568859369
-9.745655059814453 1.721341848373413 0.279934585094452 0.000000000000000
-15.828997611999512 3.645852804183960 0.924740910530090 0.000000000000000
-18.846038818359375 3.437627792358398 -0.746315002441406 0.003921568859369
-19.188623428344727 3.565381050109863 -0.319550305604935 0.003921568859369
-10.175705909729004 1.835707664489746 0.065432548522949 0.000000000000000
-18.901254653930664 3.510991334915161 -0.748959898948669 0.003921568859369
-5.730505943298340 1.555280327796936 0.989859163761139 0.000000000000000
-11.296299934387207 2.169213771820068 0.072719894349575 0.000000000000000
-10.643646240234375 2.554136276245117 0.251505851745605 0.000000000000000
-19.117393493652344 3.757530212402344 -0.759131193161011 0.003921568859369
-16.638046264648438 4.920581817626953 3.076545953750610 0.003921568859369
-8.266368865966797 1.581667780876160 -0.311510473489761 0.000000000000000
-10.441957473754883 3.096208095550537 0.432024270296097 0.000000000000000
-19.036602020263672 3.872128009796143 -0.756651878356934 0.003921568859369
-18.178726196289062 3.756110906600952 -0.721642136573792 0.003921568859369
-3.384183406829834 0.604218006134033 0.090373218059540 0.000000000000000
-18.126438140869141 3.809034109115601 -0.719920933246613 0.003921568859369
-5.176446437835693 1.497358679771423 -0.132889896631241 0.000000000000000
-6.901769161224365 1.393731951713562 0.196622893214226 0.000000000000000
-4.292795181274414 1.023098468780518 0.097271516919136 0.000000000000000
-24.941909790039062 6.898282051086426 6.804629802703857 0.003921568859369
-24.932476043701172 6.987573146820068 6.808922290802002 0.003921568859369
-13.120275497436523 4.273132801055908 2.430343389511108 0.000000000000000
-15.529664993286133 3.570319890975952 -0.257343232631683 0.000000000000000
-10.681021690368652 2.940176010131836 0.010313658043742 0.003921568859369
-24.922718048095703 7.076889038085938 6.813214302062988 0.003921568859369
-11.562041282653809 2.662224054336548 0.075546287000179 0.000000000000000
-12.696053504943848 2.936895847320557 0.373378008604050 0.000000000000000
-12.848761558532715 3.019373655319214 0.378397166728973 0.000000000000000
-5.229662895202637 1.160194635391235 0.035489626228809 0.000000000000000
-7.074641227722168 2.342085361480713 -0.030718475580215 0.000000000000000
-8.540011405944824 2.464444160461426 2.245812892913818 0.000000000000000
-14.913216590881348 4.549561023712158 4.048091411590576 0.000000000000000
-9.538625717163086 2.882897853851318 0.010085206478834 0.003921568859369
-11.868314743041992 3.670463800430298 3.197859525680542 0.000000000000000
-5.401847839355469 1.875256896018982 0.432696491479874 0.000000000000000
-8.223819732666016 2.724817752838135 2.190185785293579 0.000000000000000
-5.031923770904541 1.487587094306946 0.035319142043591 0.000000000000000
-4.060143947601318 1.191670060157776 -0.230233520269394 0.000000000000000
-9.719292640686035 4.159071922302246 -0.515771090984344 0.000000000000000
-8.150277137756348 2.766553878784180 -0.131755441427231 0.000000000000000
-5.099630832672119 2.220142364501953 -0.256954133510590 0.000000000000000
-6.771409511566162 3.114558935165405 1.280909538269043 0.000000000000000
-6.700769424438477 3.106136798858643 1.268703222274780 0.000000000000000
-13.668625831604004 6.062181472778320 3.892480134963989 0.000000000000000
-20.485401153564453 10.513850212097168 4.134282112121582 0.003921568859369
-5.184177875518799 1.951553344726562 -0.197326570749283 0.000000000000000
-11.808206558227539 6.188585758209229 2.360804319381714 0.000000000000000
-20.634725570678711 9.965112686157227 6.034030437469482 0.003921568859369
-7.981077671051025 3.281337499618530 -0.131867110729218 0.000000000000000
-11.645595550537109 6.254237651824951 2.340830564498901 0.000000000000000
-5.242915153503418 2.462600708007812 0.663178086280823 0.000000000000000
-11.505860328674316 6.693926334381104 2.361349344253540 0.000000000000000
-16.136558532714844 9.664319992065430 3.368730068206787 0.003921568859369
-8.265093803405762 3.838223457336426 -0.341265767812729 0.000000000000000
-14.138703346252441 8.562654495239258 2.951718568801880 0.003921568859369
-10.306079864501953 5.554953098297119 1.396216750144958 0.000000000000000
-6.727473258972168 4.182277679443359 0.623244166374207 0.000000000000000
-5.114025115966797 3.167479276657104 -0.446363002061844 0.000000000000000
-5.755378723144531 3.374427318572998 1.684065461158752 0.000000000000000
-2.425265312194824 1.390299558639526 0.201228275895119 0.000000000000000
-5.348999977111816 3.363405942916870 1.593834161758423 0.000000000000000
-6.284250736236572 4.050740718841553 -0.277753323316574 0.000000000000000
-6.599146842956543 4.796858310699463 2.095709562301636 0.000000000000000
-7.114221096038818 4.766591548919678 -0.321217834949493 0.000000000000000
-11.506759643554688 9.225337028503418 3.872861385345459 0.000000000000000
-21.811908721923828 20.398771286010742 2.443188667297363 0.003921568859369
-8.949096679687500 7.390423774719238 3.029776334762573 0.000000000000000
-19.341505050659180 21.199285507202148 0.364113509654999 0.003921568859369
-20.015876770019531 22.119485855102539 0.378594875335693 0.003921568859369
-19.601469039916992 19.751523971557617 5.047366142272949 0.003921568859369
-15.685340881347656 14.442767143249512 5.648902416229248 0.003921568859369
-5.587795257568359 5.445566654205322 1.377428054809570 0.000000000000000
-18.697778701782227 19.773847579956055 4.937819004058838 0.003921568859369
-18.941486358642578 20.456932067871094 5.060731410980225 0.003921568859369
-19.681219100952148 21.733463287353516 2.403008222579956 0.003921568859369
-18.687871932983398 21.207029342651367 5.134303569793701 0.003921568859369
-19.734230041503906 22.751472473144531 -0.139016464352608 0.003921568859369
-18.871702194213867 21.730192184448242 2.359412908554077 0.003921568859369
-19.600587844848633 22.754402160644531 -0.138510003685951 0.003921568859369
-19.928798675537109 21.252273559570312 0.703263759613037 0.003921568859369
-18.528451919555664 21.768417358398438 2.343880653381348 0.003921568859369
-18.504304885864258 21.902223587036133 2.351229190826416 0.003921568859369
-19.517734527587891 21.547161102294922 0.702414453029633 0.003921568859369
-18.701833724975586 22.770149230957031 5.357455730438232 0.003921568859369
-18.848278045654297 20.944780349731445 3.456145524978638 0.003921568859369
-18.350500106811523 22.830451965332031 5.326548099517822 0.003921568859369
-17.227773666381836 24.051715850830078 0.377043008804321 0.003921568859369
-18.407716751098633 23.231721878051758 2.432565212249756 0.003921568859369
-2.928016185760498 2.658566951751709 0.029231045395136 0.000000000000000
-18.443035125732422 23.446075439453125 2.448473453521729 0.003921568859369
-2.934110164642334 2.685701370239258 0.029406599700451 0.000000000000000
-17.413095474243164 22.281528472900391 2.320400714874268 0.003921568859369
-19.700588226318359 21.007514953613281 0.196809723973274 0.003921568859369
-15.202009201049805 20.079216003417969 4.576257705688477 0.003921568859369
-19.313087463378906 21.182077407836914 0.195533946156502 0.003921568859369
-18.640800476074219 23.375045776367188 3.673028230667114 0.003921568859369
-17.261047363281250 23.932056427001953 2.423575639724731 0.003921568859369
-15.311591148376465 21.156686782836914 4.749052047729492 0.003921568859369
-17.608242034912109 22.372472763061523 7.593965530395508 0.003921568859369
-15.192297935485840 21.457206726074219 2.158205747604370 0.003921568859369
-16.651206970214844 24.114473342895508 2.407928228378296 0.003921568859369
-17.327312469482422 22.638357162475586 7.605731487274170 0.003921568859369
-16.805234909057617 24.552019119262695 2.444626331329346 0.003921568859369
-17.479135513305664 23.208408355712891 1.710395574569702 0.003921568859369
-15.138332366943359 20.310232162475586 3.109879970550537 0.003921568859369
-14.359595298767090 21.361160278320312 2.113369226455688 0.003921568859369
-15.322983741760254 23.012382507324219 2.271282434463501 0.003921568859369
-17.329654693603516 23.691392898559570 1.728701353073120 0.003921568859369
-15.692993164062500 24.133953094482422 2.366087436676025 0.003921568859369
-14.549981117248535 22.497720718383789 4.877704143524170 0.003921568859369
-13.910958290100098 21.820907592773438 2.126041412353516 0.003921568859369
-13.596596717834473 21.471443176269531 2.087871313095093 0.003921568859369
-14.610069274902344 20.950231552124023 3.137694120407104 0.003921568859369
-14.260471343994141 22.755901336669922 2.206682443618774 0.003921568859369
-13.336595535278320 21.234741210937500 4.563964843750000 0.003921568859369
-14.485863685607910 20.923923492431641 3.126460552215576 0.003921568859369
-15.297367095947266 22.453365325927734 7.252942562103271 0.003921568859369
-15.108774185180664 22.346445083618164 7.201063156127930 0.003921568859369
-16.054733276367188 23.957115173339844 7.703014850616455 0.003921568859369
-15.278520584106445 22.951141357421875 1.624480485916138 0.003921568859369
-13.560728073120117 20.453884124755859 3.015304088592529 0.003921568859369
-14.898655891418457 22.529138565063477 7.211661815643311 0.003921568859369
-12.611244201660156 21.184188842773438 4.488633155822754 0.003921568859369
-13.628585815429688 23.709815979003906 4.983862876892090 0.003921568859369
-12.886108398437500 20.484205245971680 6.458939075469971 0.003921568859369
-15.384879112243652 24.805019378662109 1.720907568931580 0.003921568859369
-11.657437324523926 20.876014709472656 1.965178132057190 0.003921568859369
-12.607518196105957 20.201429367065430 6.355095863342285 0.003921568859369
-10.743907928466797 19.340604782104492 4.027254581451416 0.003921568859369
-13.764074325561523 22.455343246459961 3.239647626876831 0.003921568859369
-10.668313980102539 19.345212936401367 4.021526813507080 0.003921568859369
-13.812716484069824 22.711978912353516 7.101340770721436 0.003921568859369
-10.578704833984375 19.339172363281250 4.012917518615723 0.003921568859369
-11.692273139953613 22.394512176513672 4.604828357696533 0.003921568859369
-11.832505226135254 21.019359588623047 6.443292617797852 0.003921568859369
-11.465142250061035 20.859886169433594 1.403328299522400 0.003921568859369
-12.524895668029785 26.299463272094727 5.316557407379150 0.003921568859369
-11.522946357727051 21.502920150756836 6.519457340240479 0.003921568859369
-8.799932479858398 22.221464157104492 1.968224406242371 0.003921568859369
-7.732876777648926 23.826143264770508 0.319725811481476 0.003921568859369
-8.701261520385742 22.921489715576172 2.019767761230469 0.003921568859369
-8.530345916748047 22.939260482788086 -0.113209873437881 0.003921568859369
-6.791779518127441 22.164449691772461 -0.242030814290047 0.003921568859369
-9.393600463867188 22.602973937988281 1.444864153862000 0.003921568859369
-8.572751045227051 24.710235595703125 2.155467987060547 0.003921568859369
-7.350828170776367 23.491830825805664 2.028659105300903 0.003921568859369
-7.366812229156494 25.462999343872070 4.846229553222656 0.003921568859369
-7.043951511383057 21.400445938110352 0.546031534671783 0.003921568859369
-7.733170032501221 23.861715316772461 1.481572866439819 0.003921568859369
-6.785990715026855 21.065898895263672 0.536507725715637 0.003921568859369
-8.077116012573242 25.281459808349609 3.274927616119385 0.003921568859369
-6.681628704071045 21.281215667724609 0.540819823741913 0.003921568859369
-6.409772396087646 25.058317184448242 4.730062484741211 0.003921568859369
-5.064695358276367 26.277151107788086 0.339870572090149 0.003921568859369
-7.860726833343506 22.868711471557617 0.726220071315765 0.003921568859369
-5.944269180297852 27.342004776000977 -0.133358955383301 0.003921568859369
-3.669533014297485 23.753372192382812 0.304930388927460 0.003921568859369
-6.653509140014648 22.018140792846680 0.156984657049179 0.003921568859369
-3.517108678817749 24.497014999389648 -0.261280059814453 0.003921568859369
-6.699934005737305 22.489490509033203 0.704633593559265 0.003921568859369
-3.585539102554321 28.122465133666992 -0.301013350486755 0.003921568859369
-3.109755516052246 24.025733947753906 0.306551426649094 0.003921568859369
-4.413305759429932 25.232238769531250 2.113112926483154 0.003921568859369
-4.690490245819092 27.517370223999023 2.302957296371460 0.003921568859369
-4.307280540466309 26.257703781127930 2.195412397384644 0.003921568859369
-4.211587429046631 26.276094436645508 2.195760011672974 0.003921568859369
-3.936143398284912 25.019092559814453 2.089838981628418 0.003921568859369
-2.581958532333374 24.743963241577148 0.314914882183075 0.003921568859369
-4.178868770599365 27.372373580932617 2.284954547882080 0.003921568859369
-3.650731563568115 24.849561691284180 2.072777509689331 0.003921568859369
-4.518400669097900 23.331304550170898 1.404176235198975 0.003921568859369
-3.631284713745117 25.486385345458984 2.123729944229126 0.003921568859369
-4.698328971862793 25.847629547119141 3.245224237442017 0.003921568859369
-4.142090797424316 23.062168121337891 0.567121863365173 0.003921568859369
-2.957470893859863 22.761907577514648 1.893902182579041 0.003921568859369
-4.388376712799072 25.082231521606445 3.145617485046387 0.003921568859369
-2.712207794189453 22.724966049194336 1.888675570487976 0.003921568859369
-3.343305826187134 28.689073562622070 5.289223670959473 0.003921568859369
-3.743971824645996 22.614038467407227 1.354989051818848 0.003921568859369
-3.645661830902100 22.495550155639648 1.347216844558716 0.003921568859369
-3.035828113555908 27.628761291503906 2.293884277343750 0.003921568859369
-2.946547508239746 27.713512420654297 2.300146341323853 0.003921568859369
-3.944779157638550 25.747846603393555 3.218852996826172 0.003921568859369
-2.842493534088135 27.643150329589844 2.293581247329712 0.003921568859369
-2.330955505371094 23.053525924682617 1.911775112152100 0.003921568859369
-2.170474290847778 22.115076065063477 1.833543419837952 0.003921568859369
-4.666487216949463 24.158924102783203 0.737553000450134 0.003921568859369
-2.098087310791016 22.133077621459961 1.834538221359253 0.003921568859369
-3.166924715042114 22.552246093750000 1.345883488655090 0.003921568859369
-2.017398118972778 22.095504760742188 1.830930948257446 0.003921568859369
-3.240731954574585 23.797395706176758 0.580777227878571 0.003921568859369
-3.242469072341919 23.810426712036133 1.420181632041931 0.003921568859369
-1.909201622009277 22.759115219116211 1.884863018989563 0.003921568859369
-4.033402919769287 22.418434143066406 0.683074653148651 0.003921568859369
-2.015344381332397 25.455108642578125 4.677008628845215 0.003921568859369
-3.878520250320435 22.480117797851562 0.684180676937103 0.003921568859369
-2.703180074691772 22.694709777832031 1.351140618324280 0.003921568859369
-1.721897363662720 25.079111099243164 4.604962825775146 0.003921568859369
-0.323923110961914 25.523443222045898 0.321490705013275 0.003921568859369
-3.721472978591919 23.018035888671875 0.699413597583771 0.003921568859369
-2.365150213241577 22.518739700317383 1.337973713874817 0.003921568859369
-1.390646219253540 25.564220428466797 4.689700126647949 0.003921568859369
-2.350304841995239 23.337972640991211 1.386066913604736 0.003921568859369
-2.866255521774292 29.184631347656250 -0.655746519565582 0.003921568859369
-1.147393465042114 26.334211349487305 2.175138711929321 0.003921568859369
-1.120772123336792 25.511428833007812 4.678190708160400 0.003921568859369
-3.279356956481934 23.481424331665039 0.710480451583862 0.003921568859369
-2.047838211059570 23.626979827880859 1.401658654212952 0.003921568859369
-1.899971604347229 25.202014923095703 3.124260663986206 0.003921568859369
-1.674156665802002 24.339763641357422 1.442241072654724 0.003921568859369
-0.392093986272812 24.253101348876953 -0.119747221469879 0.003921568859369
-1.671040534973145 27.886678695678711 3.452844142913818 0.003921568859369
-0.302099883556366 23.027614593505859 1.900472998619080 0.003921568859369
-0.048125073313713 24.364259719848633 -0.120300069451332 0.003921568859369
-0.056553930044174 23.485010147094727 1.938256978988647 0.003921568859369
0.069453358650208 27.607112884521484 -0.136692956089973 0.003921568859369
-1.176635622978210 27.529615402221680 3.406283378601074 0.003921568859369
0.504953861236572 23.229642868041992 1.918233275413513 0.003921568859369
-0.555712938308716 24.593412399291992 1.452995896339417 0.003921568859369
-0.531855463981628 22.533006668090820 2.786376714706421 0.003921568859369
-0.463302314281464 23.780269622802734 2.940345525741577 0.003921568859369
0.889432191848755 24.271823883056641 2.004262924194336 0.003921568859369
-0.214142262935638 23.812746047973633 2.944277763366699 0.003921568859369
1.191977143287659 26.779090881347656 2.211769342422485 0.003921568859369
-1.215668201446533 23.692382812500000 0.709920883178711 0.003921568859369
-0.062680810689926 23.084756851196289 1.364021062850952 0.003921568859369
1.135564923286438 24.266801834106445 2.004919528961182 0.003921568859369
-0.027379870414734 27.005830764770508 -0.606270372867584 0.003921568859369
1.486548423767090 24.355834960937500 2.014109134674072 0.003921568859369
0.523327469825745 26.175270080566406 3.236428737640381 0.003921568859369
0.698882341384888 28.540882110595703 3.529074430465698 0.003921568859369
3.510029077529907 27.793195724487305 0.348298072814941 0.003921568859369
0.791754484176636 28.354871749877930 3.506526470184326 0.003921568859369
2.130327701568604 25.695621490478516 2.127279520034790 0.003921568859369
2.121941089630127 24.671295166015625 2.043262243270874 0.003921568859369
1.135075211524963 24.090234756469727 2.982511281967163 0.003921568859369
4.339033126831055 28.665056228637695 0.360375523567200 0.003921568859369
4.166521072387695 26.987157821655273 0.339620113372803 0.003921568859369
2.640417337417603 25.398305892944336 2.107239961624146 0.003921568859369
1.503874421119690 25.777351379394531 3.193291187286377 0.003921568859369
1.879972577095032 29.612102508544922 3.667552232742310 0.003921568859369
1.780043005943298 26.973943710327148 0.649501740932465 0.003921568859369
2.171006202697754 28.274372100830078 0.681246340274811 0.003921568859369
2.772907495498657 28.359876632690430 1.682073354721069 0.003921568859369
2.873548984527588 28.273788452148438 0.682848095893860 0.003921568859369
5.189959049224854 23.739347457885742 -0.266536623239517 0.003921568859369
4.665616035461426 26.457233428955078 0.643669009208679 0.003921568859369
7.664944171905518 26.358903884887695 0.337887704372406 0.003921568859369
8.265063285827637 27.286977767944336 0.349610537290573 0.003921568859369
6.533167839050293 29.105075836181641 -0.677438616752625 0.003921568859369
7.795053958892822 23.194242477416992 0.300431907176971 0.003921568859369
8.217586517333984 23.328420639038086 0.302570164203644 0.003921568859369
1.644549250602722 5.500721931457520 0.106190845370293 0.000000000000000
7.614557743072510 27.176799774169922 0.672596812248230 0.003921568859369
8.360828399658203 27.927040100097656 0.694630086421967 0.003921568859369
4.135262012481689 11.394979476928711 2.230693578720093 0.000000000000000
4.973275661468506 12.760757446289062 2.517712831497192 0.000000000000000
8.062382698059082 23.135189056396484 0.583291590213776 0.003921568859369
11.248055458068848 24.271600723266602 0.324567705392838 0.003921568859369
10.344270706176758 24.789838790893555 2.211501121520996 0.003921568859369
3.523272514343262 9.870717048645020 1.301263451576233 0.000000000000000
3.874772071838379 9.274458885192871 1.851376414299011 0.000000000000000
11.852201461791992 24.005144119262695 -0.301627606153488 0.003921568859369
6.126295566558838 14.285100936889648 2.854907989501953 0.000000000000000
12.026184082031250 24.141450881958008 -0.303902983665466 0.003921568859369
7.563451766967773 23.249822616577148 0.153145834803581 0.003921568859369
5.273630619049072 13.896306991577148 0.876623928546906 0.000000000000000
7.822394371032715 23.479122161865234 0.154978230595589 0.003921568859369
7.835190773010254 23.250619888305664 0.153658002614975 0.003921568859369
7.950548171997070 23.320692062377930 0.154289633035660 0.003921568859369
6.257656574249268 13.793295860290527 2.782970905303955 0.000000000000000
8.060107231140137 23.114326477050781 0.724886834621429 0.003921568859369
4.437356948852539 11.083669662475586 1.480629801750183 0.000000000000000
7.029631614685059 15.169466972351074 3.070493221282959 0.003921568859369
4.247529029846191 9.152820587158203 0.835508882999420 0.000000000000000
10.457818984985352 24.770452499389648 3.320196151733398 0.003921568859369
10.674645423889160 25.047130584716797 0.645496964454651 0.003921568859369
12.043921470642090 24.581956863403320 -0.149393767118454 0.003921568859369
3.979010105133057 8.353538513183594 1.705652117729187 0.000000000000000
2.862882375717163 5.852145195007324 0.541956007480621 0.000000000000000
9.792106628417969 24.643802642822266 0.164685636758804 0.003921568859369
2.733604669570923 5.555385112762451 0.515490829944611 0.000000000000000
4.401279926300049 8.669187545776367 0.804927885532379 0.000000000000000
11.113636016845703 23.967277526855469 -0.606530427932739 0.003921568859369
5.837407112121582 10.817890167236328 -0.067071177065372 0.000000000000000
6.033122062683105 12.472090721130371 3.737518548965454 0.000000000000000
4.144273757934570 7.580385684967041 -0.046843416988850 0.000000000000000
5.548974514007568 11.115177154541016 3.354046583175659 0.000000000000000
11.963304519653320 20.174982070922852 4.298088550567627 0.003921568859369
4.725188732147217 9.027644157409668 1.263977885246277 0.000000000000000
12.072383880615234 20.196516036987305 4.311725616455078 0.003921568859369
12.150429725646973 20.158288955688477 4.313149452209473 0.003921568859369
3.059357881546021 5.842099666595459 1.789868950843811 0.000000000000000
12.267540931701660 20.183429718017578 4.328221797943115 0.003921568859369
12.422099113464355 20.291481018066406 4.359819412231445 0.003921568859369
2.665938377380371 4.025463104248047 -0.054744832217693 0.000000000000000
12.094000816345215 24.450506210327148 0.166995286941528 0.003921568859369
6.913992404937744 11.219277381896973 2.422327280044556 0.000000000000000
4.310475349426270 7.798048019409180 2.411564826965332 0.000000000000000
5.090454578399658 9.083181381225586 2.814635753631592 0.000000000000000
2.088998794555664 3.310741662979126 -0.114098951220512 0.000000000000000
2.327213287353516 3.663866758346558 0.182325437664986 0.000000000000000
9.856295585632324 16.512784957885742 5.178781032562256 0.003921568859369
3.439752817153931 4.723447799682617 -0.342844128608704 0.000000000000000
4.358182430267334 6.434636116027832 1.435018897056580 0.000000000000000
3.517486810684204 6.451333999633789 -0.126547187566757 0.000000000000000
4.172895431518555 6.079002857208252 1.362463235855103 0.000000000000000
3.603271007537842 5.718502044677734 0.841523349285126 0.000000000000000
6.072810649871826 9.349714279174805 3.010912179946899 0.000000000000000
4.268022537231445 5.934369087219238 1.350040555000305 0.000000000000000
3.242698907852173 4.484992027282715 0.100291430950165 0.000000000000000
9.069788932800293 12.051886558532715 2.769214868545532 0.000000000000000
3.929306268692017 5.282677173614502 0.546631991863251 0.000000000000000
3.426678419113159 5.091691970825195 0.147027909755707 0.000000000000000
6.731124401092529 9.516410827636719 3.146320104598999 0.000000000000000
3.965708971023560 5.595211982727051 0.853495538234711 0.000000000000000
3.211740970611572 5.027944087982178 -0.103104606270790 0.000000000000000
5.126964092254639 7.082004070281982 1.085373163223267 0.000000000000000
14.019288063049316 17.244153976440430 4.071555137634277 0.003921568859369
5.323527812957764 5.975327968597412 -0.279971659183502 0.000000000000000
4.924226284027100 6.664239406585693 0.197166115045547 0.000000000000000
7.993038177490234 9.619817733764648 2.298438787460327 0.000000000000000
5.470864772796631 6.300480365753174 1.537711501121521 0.000000000000000
11.365697860717773 11.987608909606934 1.357721686363220 0.000000000000000
8.003679275512695 8.414947509765625 2.133409261703491 0.000000000000000
8.564146995544434 8.623848915100098 2.230790615081787 0.000000000000000
3.153971195220947 3.561135292053223 -0.082729935646057 0.000000000000000
6.782910823822021 7.549584388732910 -0.413942664861679 0.000000000000000
10.133685111999512 8.664054870605469 2.445082664489746 0.000000000000000
11.638543128967285 9.722691535949707 2.777899503707886 0.000000000000000
8.201005935668945 6.634126186370850 0.867619097232819 0.000000000000000
14.756319046020508 11.718599319458008 3.449000835418701 0.003921568859369
7.959893703460693 6.812053203582764 2.822528839111328 0.000000000000000
8.062698364257812 6.195540428161621 0.835800230503082 0.000000000000000
11.475584983825684 9.658136367797852 1.849758505821228 0.000000000000000
7.151379108428955 4.960073947906494 0.715391516685486 0.000000000000000
11.613538742065430 8.900431632995605 3.934419393539429 0.000000000000000
11.633492469787598 8.534635543823242 1.778709411621094 0.000000000000000
9.160285949707031 5.832350730895996 1.988319516181946 0.000000000000000
8.366868972778320 5.168746948242188 0.403208196163177 0.000000000000000
6.325378894805908 3.882606267929077 0.610009312629700 0.000000000000000
8.155316352844238 5.394488811492920 1.205258607864380 0.000000000000000
5.347455024719238 3.545763492584229 1.728456497192383 0.000000000000000
11.723158836364746 6.401840686798096 2.442332029342651 0.000000000000000
14.521237373352051 7.862407684326172 3.017842054367065 0.003921568859369
5.642530441284180 3.270301103591919 0.804270684719086 0.000000000000000
9.445496559143066 5.288432121276855 1.332794189453125 0.000000000000000
14.278019905090332 7.920567512512207 2.008565664291382 0.003921568859369
10.134160041809082 5.485307693481445 0.672438859939575 0.000000000000000
12.338051795959473 5.809550762176514 2.490000247955322 0.000000000000000
10.234641075134277 4.733523368835449 2.059480190277100 0.000000000000000
7.631610870361328 3.928509235382080 2.304825782775879 0.000000000000000
4.048621177673340 1.756125569343567 -0.231628820300102 0.000000000000000
10.977880477905273 4.754694461822510 0.977512776851654 0.000000000000000
7.100365161895752 3.467740297317505 0.460836231708527 0.000000000000000
8.680655479431152 4.199148654937744 0.562242388725281 0.000000000000000
19.157804489135742 7.896285057067871 3.779872417449951 0.003921568859369
9.726939201354980 3.430676937103271 0.120322965085506 0.000000000000000
7.171036720275879 2.931785106658936 1.414277315139771 0.000000000000000
6.328517913818359 2.510689735412598 0.556659579277039 0.000000000000000
5.750296592712402 2.256076097488403 1.127993822097778 0.000000000000000
9.923810958862305 4.255398750305176 0.628831744194031 0.000000000000000
9.198787689208984 3.944503545761108 1.228930592536926 0.000000000000000
8.265039443969727 3.075380802154541 0.719912946224213 0.000000000000000
5.561437606811523 2.362981557846069 0.741940617561340 0.000000000000000
16.871559143066406 6.214211940765381 3.278145313262939 0.003921568859369
13.669613838195801 5.581247329711914 1.812928438186646 0.000000000000000
19.093030929565430 7.644404411315918 5.510775566101074 0.003921568859369
7.508247375488281 2.557482481002808 -0.046100102365017 0.000000000000000
11.046008110046387 3.716327428817749 0.950517833232880 0.000000000000000
13.690704345703125 5.309299945831299 0.854472935199738 0.000000000000000
5.945837020874023 1.636245012283325 -0.358713239431381 0.000000000000000
10.312298774719238 2.727851152420044 -0.995001494884491 0.000000000000000
15.793652534484863 5.879440784454346 0.980742275714874 0.000000000000000
5.014327049255371 2.126465320587158 0.158131718635559 0.000000000000000
10.520378112792969 3.871392488479614 0.652172088623047 0.000000000000000
10.278532028198242 2.604151964187622 -0.989050865173340 0.000000000000000
10.904263496398926 3.295507669448853 -0.929319858551025 0.000000000000000
12.914169311523438 4.602734565734863 0.797740995883942 0.000000000000000
10.869862556457520 3.243764400482178 -0.925413548946381 0.000000000000000
10.866380691528320 3.199432373046875 -0.924110949039459 0.000000000000000
5.100636959075928 1.774914979934692 0.661879718303680 0.000000000000000
10.465383529663086 3.081312656402588 1.987272977828979 0.000000000000000
10.879458427429199 3.159287452697754 -0.923594355583191 0.000000000000000
5.153961181640625 1.770119071006775 0.666640222072601 0.000000000000000
16.289484024047852 4.733192920684814 3.089131116867065 0.003921568859369
3.776210784912109 0.882639706134796 -0.360451012849808 0.000000000000000
10.863596916198730 3.113660097122192 -0.921314537525177 0.000000000000000
14.088288307189941 4.795114517211914 3.982384681701660 0.000000000000000
10.402525901794434 2.402897834777832 -0.995118021965027 0.000000000000000
10.835505485534668 3.066809177398682 -0.918058395385742 0.000000000000000
12.578358650207520 4.233973026275635 0.771548330783844 0.000000000000000
10.989713668823242 3.698442459106445 1.421195387840271 0.000000000000000
10.838465690612793 3.026883363723755 -0.917406022548676 0.000000000000000
12.079793930053711 4.019095897674561 1.560604095458984 0.000000000000000
10.419048309326172 2.330350160598755 -0.995115458965302 0.000000000000000
10.868181228637695 2.994404792785645 -0.919032216072083 0.000000000000000
10.828045845031738 2.944791316986084 -0.914799630641937 0.000000000000000
10.838259696960449 2.907040596008301 -0.914798319339752 0.000000000000000
17.249691009521484 6.490225315093994 0.535469591617584 0.003921568859369
10.840631484985352 2.867217779159546 -0.914146006107330 0.000000000000000
11.396274566650391 3.617826700210571 1.465559124946594 0.000000000000000
10.846716880798340 2.828415632247925 -0.913819193840027 0.000000000000000
15.589344024658203 4.891458034515381 4.372681617736816 0.003921568859369
7.688845157623291 2.797618150711060 0.047187015414238 0.000000000000000
10.844943046569824 2.787618398666382 -0.912841379642487 0.000000000000000
6.920761585235596 1.396640658378601 -0.657514393329620 0.000000000000000
10.870063781738281 2.753737926483154 -0.914142012596130 0.000000000000000
8.865422248840332 2.711362123489380 0.538575410842896 0.000000000000000
10.848667144775391 2.708109617233276 -0.911536812782288 0.000000000000000
6.103881359100342 1.841771721839905 0.369999110698700 0.000000000000000
8.187534332275391 2.879593372344971 0.049889057874680 0.000000000000000
10.871568679809570 2.671249151229858 -0.911987662315369 0.000000000000000
9.557745933532715 2.848047971725464 1.220739483833313 0.000000000000000
10.884701728820801 2.634322404861450 -0.912311196327209 0.000000000000000
14.250909805297852 3.451333999633789 2.667876482009888 0.000000000000000
10.886076927185059 2.594556570053101 -0.911658227443695 0.000000000000000
10.910589218139648 2.560296535491943 -0.912958204746246 0.000000000000000
10.002509117126465 2.346668720245361 -0.537331700325012 0.000000000000000
7.612003803253174 2.151558637619019 -0.849424302577972 0.000000000000000
7.401069641113281 1.331868290901184 0.086898386478424 0.000000000000000
10.946647644042969 2.528590202331543 -0.915234744548798 0.000000000000000
10.010640144348145 2.311836957931519 -0.537329852581024 0.000000000000000
5.857166290283203 1.966045856475830 -0.250946372747421 0.000000000000000
11.525326728820801 2.035465717315674 0.135575458407402 0.000000000000000
10.959291458129883 2.491358041763306 -0.915558218955994 0.000000000000000
10.974845886230469 2.458745479583740 -0.916207432746887 0.000000000000000
9.408309936523438 2.594181537628174 0.566360592842102 0.000000000000000
5.864258766174316 1.614088177680969 1.621943950653076 0.000000000000000
6.408506870269775 1.408572912216187 -0.190458089113235 0.000000000000000
10.979891777038574 2.417753696441650 -0.915879845619202 0.000000000000000
10.058852195739746 2.214486598968506 0.418113142251968 0.000000000000000
8.509505271911621 1.872500419616699 1.583125472068787 0.000000000000000
11.007326126098633 2.385659933090210 -0.917505323886871 0.000000000000000
10.560972213745117 3.393662929534912 -0.709579348564148 0.000000000000000
11.031590461730957 2.348737478256226 -0.918805181980133 0.000000000000000
11.059231758117676 2.314406871795654 -0.920430719852448 0.000000000000000
10.617421150207520 3.328459978103638 0.322606652975082 0.000000000000000
11.102383613586426 2.283136844635010 -0.923358142375946 0.000000000000000
11.139060020446777 2.250360965728760 -0.925102710723877 0.000000000000000
9.690038681030273 1.956720113754272 0.400751173496246 0.000000000000000
11.194154739379883 2.218989849090576 -0.929005920886993 0.000000000000000
11.256610870361328 2.190735101699829 -0.933560192584991 0.000000000000000
13.572239875793457 3.291711330413818 0.323558986186981 0.000000000000000
11.427875518798828 2.187057256698608 -0.947228789329529 0.000000000000000
4.526258945465088 0.861906647682190 -0.239885628223419 0.000000000000000
11.588617324829102 2.174053907394409 -0.959920346736908 0.000000000000000
8.508982658386230 1.169428467750549 -0.299008220434189 0.000000000000000
11.752952575683594 2.162674427032471 -0.972937464714050 0.000000000000000
11.964426994323730 2.158688068389893 -0.989860534667969 0.000000000000000
12.136059761047363 2.806437253952026 1.524316430091858 0.000000000000000
22.698688507080078 4.101904869079590 4.198088645935059 0.003921568859369
5.814548015594482 1.277531027793884 0.725919365882874 0.000000000000000
6.971759319305420 1.156601905822754 -0.204975530505180 0.000000000000000
8.694269180297852 1.444025635719299 1.599543452262878 0.000000000000000
10.864445686340332 2.275514602661133 0.256598293781281 0.000000000000000
7.167532920837402 0.757218778133392 -0.083828635513783 0.000000000000000
10.648288726806641 2.735576391220093 0.317960053682327 0.000000000000000
9.195250511169434 1.856143593788147 0.216617062687874 0.000000000000000
9.178335189819336 1.852740168571472 0.541986048221588 0.000000000000000
12.151540756225586 1.845745921134949 0.998923301696777 0.000000000000000
11.220123291015625 2.228400707244873 -0.000593851204030 0.003921568859369
7.946424961090088 1.545420527458191 -0.000544406182598 0.003921568859369
8.505493164062500 1.654809474945068 0.199976056814194 0.000000000000000
18.925451278686523 3.693181753158569 -0.896701157093048 0.000000000000000
11.621543884277344 2.222492694854736 0.273633718490601 0.000000000000000
13.465042114257812 1.857064127922058 0.551272928714752 0.000000000000000
8.599115371704102 1.153202414512634 -0.251618027687073 0.000000000000000
11.374128341674805 1.487120151519775 -0.332975864410400 0.000000000000000
14.802940368652344 3.428136110305786 0.087351761758327 0.000000000000000
13.373101234436035 1.749670028686523 1.096572518348694 0.000000000000000
4.750071525573730 1.075336813926697 -0.084703572094440 0.000000000000000
4.550013065338135 1.029613733291626 0.133888468146324 0.000000000000000
9.511622428894043 1.682500839233398 1.179631114006042 0.000000000000000
19.303131103515625 2.459862947463989 1.584064722061157 0.000000000000000
11.948040962219238 1.989899277687073 0.701401770114899 0.000000000000000
13.058047294616699 2.175722837448120 1.617724657058716 0.000000000000000
18.692350387573242 2.189357042312622 3.420240879058838 0.003921568859369
4.897900581359863 1.036989808082581 0.143445193767548 0.000000000000000
4.846427440643311 0.511984705924988 -0.028546961024404 0.000000000000000
13.215499877929688 1.359770655632019 -0.077495157718658 0.000000000000000
7.428381919860840 0.761886715888977 0.301311641931534 0.000000000000000
6.982075691223145 1.059947609901428 1.876349687576294 0.000000000000000
11.510864257812500 2.286595344543457 0.339176356792450 0.000000000000000
20.282049179077148 2.015171051025391 1.658526182174683 0.003921568859369
3.044318675994873 0.596479415893555 -0.124647751450539 0.000000000000000
8.946274757385254 1.327203273773193 2.407425642013550 0.000000000000000
18.592950820922852 2.704167366027832 2.299182891845703 0.003921568859369
4.943431854248047 0.940159916877747 -0.087444089353085 0.000000000000000
15.046692848205566 2.883718013763428 0.087946116924286 0.000000000000000
7.873835563659668 0.723897278308868 0.319228410720825 0.000000000000000
9.341942787170410 1.290334701538086 2.510958433151245 0.000000000000000
6.168672561645508 0.525145053863525 -0.179052978754044 0.000000000000000
6.689240455627441 0.569868862628937 -0.039240356534719 0.000000000000000
5.728353500366211 0.767943680286407 0.332672685384750 0.000000000000000
3.030726432800293 0.255643248558044 -0.156916439533234 0.000000000000000
15.025150299072266 1.227888822555542 -0.437651246786118 0.000000000000000
11.465379714965820 0.936063051223755 0.933812260627747 0.000000000000000
20.404094696044922 3.693699598312378 -0.843310058116913 0.003921568859369
11.066427230834961 0.868484556674957 0.449325203895569 0.000000000000000
7.216436862945557 0.188656017184258 -0.083857610821724 0.000000000000000
14.101580619812012 0.370022714138031 0.162846758961678 0.000000000000000
15.940220832824707 2.773162603378296 0.468061745166779 0.003921568859369
12.679936408996582 0.862252175807953 1.031367540359497 0.000000000000000
6.262464046478271 0.120238974690437 -0.216973125934601 0.000000000000000
13.255713462829590 1.456103205680847 0.308019220829010 0.000000000000000
13.780088424682617 0.838892519474030 1.120875716209412 0.000000000000000
15.329053878784180 1.685415267944336 4.113439083099365 0.000000000000000
8.759561538696289 0.929071605205536 -0.204096823930740 0.000000000000000
19.883934020996094 2.051544427871704 2.445387601852417 0.003921568859369
7.121501445770264 0.383555322885513 0.576086819171906 0.000000000000000
8.773967742919922 0.047246638685465 -0.304621428251266 0.000000000000000
8.243248939514160 0.388788104057312 1.491728425025940 0.000000000000000
15.368348121643066 0.673417866230011 -0.089640870690346 0.000000000000000
18.389968872070312 1.706409454345703 2.258719682693481 0.003921568859369
12.840646743774414 1.731600522994995 -0.225760713219643 0.000000000000000
9.098149299621582 -0.107002206146717 0.104585312306881 0.000000000000000
12.609067916870117 0.464477360248566 1.023929834365845 0.000000000000000
10.177688598632812 0.374629020690918 1.844018578529358 0.000000000000000
12.669398307800293 1.084852099418640 -0.295011878013611 0.000000000000000
7.780580043792725 0.989781439304352 -0.136364951729774 0.000000000000000
7.599184513092041 -0.141565442085266 0.086948730051517 0.000000000000000
5.196399688720703 0.657867550849915 -0.331549316644669 0.000000000000000
6.293394565582275 -0.116975747048855 -0.362738221883774 0.000000000000000
6.712603569030762 0.199677616357803 1.209690809249878 0.000000000000000
17.646244049072266 1.327216506004333 0.409194886684418 0.000000000000000
16.076293945312500 1.208735704421997 0.933624684810638 0.000000000000000
6.798300743103027 -0.174564853310585 0.077636651694775 0.000000000000000
8.122636795043945 0.578409194946289 0.469027280807495 0.000000000000000
6.338364124298096 0.429316312074661 -0.000723827863112 0.000000000000000
7.939404964447021 0.153928503394127 -0.046383008360863 0.000000000000000
7.343665122985840 0.498235493898392 0.423453718423843 0.000000000000000
7.027691364288330 0.794634819030762 0.039888981729746 0.000000000000000
6.023806571960449 0.679947495460510 0.173434093594551 0.000000000000000
10.721061706542969 0.170996278524399 -0.558568716049194 0.000000000000000
11.588652610778809 -0.417948812246323 0.133523643016815 0.000000000000000
12.877351760864258 1.417824983596802 0.373972624540329 0.000000000000000
7.801867961883545 0.449825763702393 0.949373781681061 0.000000000000000
14.100106239318848 0.766884505748749 -0.000733879744075 0.000000000000000
18.916942596435547 1.030308246612549 1.098080039024353 0.000000000000000
10.092703819274902 0.021196613088250 0.407400280237198 0.000000000000000
6.681765079498291 -0.308937847614288 -0.231515020132065 0.000000000000000
8.856881141662598 -0.010535395704210 -0.051679603755474 0.000000000000000
12.339029312133789 -0.057652052491903 0.213408321142197 0.000000000000000
8.023383140563965 0.712804377079010 0.231060430407524 0.000000000000000
8.747231483459473 -0.494638860225677 -0.303584992885590 0.000000000000000
10.133105278015137 0.866808116436005 0.292603224515915 0.000000000000000
8.246942520141602 -0.095086537301540 0.665490090847015 0.000000000000000
7.255876064300537 -0.108556658029556 0.291390061378479 0.000000000000000
6.078305244445801 0.181296199560165 0.138708934187889 0.000000000000000
8.047217369079590 0.240835681557655 0.977104008197784 0.000000000000000
6.456329822540283 0.482590556144714 0.036304716020823 0.000000000000000
12.343428611755371 -0.271620094776154 -0.071927040815353 0.000000000000000
17.167844772338867 -0.378662556409836 0.297596126794815 0.003921568859369
8.391782760620117 0.599899649620056 -0.146173402667046 0.000000000000000
7.753346443176270 0.526982486248016 0.222826227545738 0.000000000000000
16.072460174560547 0.315461426973343 0.930410027503967 0.000000000000000
