# This PCD file was generated using the MATLAB® pcwrite function
# from Computer Vision Toolbox®.
# .PCD v.7 - Point Cloud Data file format
VERSION .7
FIELDS x y z intensity
SIZE 8 8 8 8
TYPE F F F F
COUNT 1 1 1 1
WIDTH 647
HEIGHT 1
VIEWPOINT 0 0 0 1 0 0 0
POINTS 647
DATA ascii
3.578649997711182 11.877137184143066 2.270124435424805 0.000000000000000
3.396444797515869 10.923125267028809 -0.069293640553951 0.000000000000000
2.467524051666260 8.112683296203613 1.556422472000122 0.000000000000000
2.248554706573486 7.168192863464355 1.380326151847839 0.000000000000000
2.837097167968750 10.408016204833984 2.902799129486084 0.000000000000000
11.689818382263184 27.369703292846680 -0.357145011425018 0.003921568859369
6.978328704833984 18.610828399658203 3.630341768264771 0.003921568859369
4.268466472625732 13.194261550903320 1.706647396087646 0.000000000000000
3.823777914047241 10.006950378417969 1.963800668716431 0.000000000000000
2.584522724151611 5.605924606323242 -0.218523487448692 0.000000000000000
4.134267330169678 9.665711402893066 1.928048014640808 0.000000000000000
2.321037530899048 5.406247138977051 1.086164355278015 0.000000000000000
2.390279054641724 5.290892124176025 1.071857571601868 0.000000000000000
6.634928703308105 13.921814918518066 2.821548938751221 0.000000000000000
1.130020737648010 3.004427671432495 0.077179163694382 0.000000000000000
7.065898895263672 16.521224975585938 1.045489072799683 0.000000000000000
3.716017246246338 8.794404029846191 1.179094195365906 0.000000000000000
5.455508232116699 9.884481430053711 -0.134562104940414 0.000000000000000
1.477953433990479 3.599041938781738 0.000702600460500 0.000000000000000
5.702459335327148 11.306994438171387 2.320451021194458 0.000000000000000
3.301202297210693 8.583460807800293 0.268031001091003 0.000000000000000
6.155577659606934 13.672170639038086 4.032804965972900 0.000000000000000
3.932829856872559 7.501918792724609 -0.050737772136927 0.000000000000000
9.339014053344727 19.108829498291016 5.711658477783203 0.003921568859369
6.506461620330811 11.915657043457031 2.486605644226074 0.000000000000000
5.263427257537842 9.616732597351074 2.011225461959839 0.000000000000000
3.705399751663208 6.800683498382568 -0.228475362062454 0.000000000000000
1.436480283737183 3.589683055877686 0.115092255175114 0.000000000000000
5.683148384094238 11.053503036499023 3.346495151519775 0.000000000000000
11.838033676147461 20.244108200073242 4.283005237579346 0.003921568859369
5.792533397674561 11.164888381958008 -0.591946184635162 0.000000000000000
1.848434329032898 3.762076377868652 1.142519712448120 0.000000000000000
12.007462501525879 20.207099914550781 4.293055057525635 0.003921568859369
3.165826320648193 5.474569797515869 0.522510290145874 0.000000000000000
12.024847984313965 20.077035903930664 4.274453163146973 0.003921568859369
12.236499786376953 20.266063690185547 4.323868274688721 0.003921568859369
12.260279655456543 20.154502868652344 4.308845520019531 0.003921568859369
12.361691474914551 20.161186218261719 4.319598674774170 0.003921568859369
5.031449794769287 8.225967407226562 1.771461009979248 0.000000000000000
13.344403266906738 20.745639801025391 4.504849433898926 0.003921568859369
3.203778505325317 5.111804008483887 0.106642678380013 0.000000000000000
2.189299821853638 3.509974718093872 0.074228748679161 0.000000000000000
2.642823219299316 4.160115718841553 0.204397603869438 0.000000000000000
4.620223522186279 7.110249042510986 1.559630990028381 0.000000000000000
4.459947586059570 8.505423545837402 0.280073344707489 0.000000000000000
11.044531822204590 18.172586441040039 5.712318897247314 0.003921568859369
4.176357269287109 7.725367546081543 0.050357345491648 0.000000000000000
4.276714801788330 6.310415267944336 1.404266715049744 0.000000000000000
2.488569974899292 3.332239627838135 -0.395287692546844 0.000000000000000
11.551513671875000 20.385927200317383 0.677892088890076 0.003921568859369
5.087105751037598 8.159382820129395 1.188222765922546 0.000000000000000
3.332210302352905 4.840198040008545 1.085606694221497 0.000000000000000
7.153985023498535 11.045913696289062 3.543449401855469 0.000000000000000
9.891508102416992 14.741847038269043 4.772915840148926 0.003921568859369
9.743414878845215 13.098854064941406 2.987905502319336 0.003921568859369
7.427469253540039 10.782279968261719 3.525058269500732 0.000000000000000
9.751289367675781 13.293399810791016 4.434111118316650 0.003921568859369
2.938762903213501 4.023096084594727 0.294510632753372 0.000000000000000
16.338582992553711 19.599962234497070 4.660648345947266 0.003921568859369
8.807467460632324 9.431377410888672 -0.455025732517242 0.000000000000000
2.830550432205200 3.797648191452026 1.288285255432129 0.000000000000000
2.298548936843872 3.003208875656128 -0.414437085390091 0.000000000000000
4.579174518585205 5.758900642395020 1.990552425384521 0.000000000000000
6.323347568511963 7.774360179901123 2.702202558517456 0.000000000000000
3.423303604125977 3.912069320678711 1.410328865051270 0.000000000000000
3.884871959686279 4.182062149047852 -0.134172394871712 0.000000000000000
8.067044258117676 7.400136470794678 0.898201882839203 0.000000000000000
6.139239311218262 5.221134185791016 1.480025529861450 0.000000000000000
4.818492889404297 3.969654798507690 0.514720439910889 0.000000000000000
2.038886785507202 2.074485063552856 -0.051082365214825 0.000000000000000
8.254115104675293 6.656951904296875 1.943871855735779 0.000000000000000
6.269149780273438 4.851063728332520 1.454992771148682 0.000000000000000
6.659765243530273 5.039217472076416 1.532435774803162 0.000000000000000
5.428342342376709 4.057304859161377 1.245655417442322 0.000000000000000
3.669344425201416 3.031203508377075 0.591172456741333 0.000000000000000
10.745953559875488 7.690398216247559 2.417310714721680 0.000000000000000
7.179536342620850 5.113921642303467 1.615652561187744 0.000000000000000
6.829584121704102 5.086314678192139 2.294082403182983 0.000000000000000
8.403337478637695 5.539784431457520 1.842313528060913 0.000000000000000
11.306855201721191 7.223798751831055 2.453330278396606 0.000000000000000
9.372426986694336 6.267501354217529 1.388115286827087 0.000000000000000
9.294680595397949 6.171077251434326 0.651412963867188 0.000000000000000
9.010934829711914 5.935989856719971 1.328682661056519 0.000000000000000
9.526574134826660 5.625971317291260 2.023123979568481 0.000000000000000
14.831233024597168 9.679534912109375 2.177881717681885 0.003921568859369
11.192058563232422 7.147117137908936 1.634173035621643 0.000000000000000
10.456761360168457 6.622885227203369 3.325033664703369 0.000000000000000
2.525252103805542 1.413331866264343 0.534185647964478 0.000000000000000
6.464986324310303 3.520346164703369 0.129018455743790 0.000000000000000
6.822955608367920 3.532371759414673 1.405609488487244 0.000000000000000
9.759601593017578 5.531773567199707 1.380422949790955 0.000000000000000
6.749154090881348 3.733540534973145 0.949158787727356 0.000000000000000
23.415567398071289 11.168389320373535 4.732715129852295 0.003921568859369
7.147402763366699 3.823685646057129 0.997411310672760 0.000000000000000
3.702182531356812 1.726036071777344 0.335063070058823 0.000000000000000
6.748066902160645 3.340012311935425 2.019854307174683 0.000000000000000
14.674419403076172 5.906089782714844 1.292001843452454 0.000000000000000
15.072416305541992 6.940403461456299 4.448487758636475 0.003921568859369
20.463060379028320 8.143182754516602 4.016998767852783 0.003921568859369
8.670647621154785 3.421144723892212 1.701155066490173 0.000000000000000
8.555639266967773 3.828917503356934 2.511580228805542 0.000000000000000
14.690510749816895 6.451745033264160 0.934410393238068 0.000000000000000
10.721079826354980 4.008443355560303 0.934389650821686 0.000000000000000
5.529440879821777 2.047595977783203 0.481352269649506 0.000000000000000
11.765268325805664 5.023164749145508 3.427799463272095 0.000000000000000
8.445328712463379 3.569184064865112 2.456710577011108 0.000000000000000
5.260895729064941 2.179134368896484 0.331625014543533 0.000000000000000
7.212924480438232 2.139304399490356 0.087587513029575 0.000000000000000
11.772397994995117 4.785061836242676 3.405023574829102 0.000000000000000
10.974345207214355 4.232950687408447 3.149319171905518 0.000000000000000
8.258089065551758 2.635481595993042 0.706852018833160 0.000000000000000
8.711400032043457 2.253599882125854 -0.523534476757050 0.000000000000000
5.855265140533447 2.141419649124146 0.362490385770798 0.000000000000000
9.082964897155762 2.250396013259888 -0.544463157653809 0.000000000000000
7.292805194854736 1.777003288269043 -0.436179339885712 0.000000000000000
6.037583351135254 1.763126611709595 0.511798262596130 0.000000000000000
3.694251775741577 0.993536055088043 -0.199709340929985 0.000000000000000
6.582244873046875 2.457544326782227 0.040622718632221 0.000000000000000
13.720349311828613 4.380244731903076 0.334756672382355 0.000000000000000
11.849411010742188 3.154250621795654 -0.999512076377869 0.000000000000000
11.585813522338867 4.331228733062744 0.359470278024673 0.000000000000000
7.611649990081787 2.427149057388306 2.135673999786377 0.000000000000000
11.814083099365234 3.100769758224487 -0.995609641075134 0.000000000000000
11.840271949768066 3.063577413558960 -0.996913194656372 0.000000000000000
5.776319980621338 1.491943597793579 0.103643923997879 0.000000000000000
11.808403015136719 3.011444568634033 -0.993336021900177 0.000000000000000
14.465927124023438 3.690189123153687 1.217229604721069 0.000000000000000
11.820845603942871 2.968283414840698 -0.992707610130310 0.000000000000000
17.083166122436523 4.292639255523682 3.206499814987183 0.003921568859369
7.281603813171387 1.801366209983826 -0.217684179544449 0.000000000000000
11.845590591430664 2.935065507888794 -0.994011700153351 0.000000000000000
13.459008216857910 3.335662364959717 1.129650712013245 0.000000000000000
18.058139801025391 5.425426006317139 5.045101642608643 0.003921568859369
11.851888656616211 2.892854928970337 -0.993689417839050 0.000000000000000
7.849136829376221 1.884462833404541 -0.046941410750151 0.000000000000000
11.846413612365723 2.847835063934326 -0.992391169071198 0.000000000000000
8.795140266418457 1.664116263389587 -0.311779141426086 0.000000000000000
11.848523139953613 2.804723501205444 -0.991743505001068 0.000000000000000
11.854359626770020 2.762545108795166 -0.991421282291412 0.000000000000000
8.852343559265137 2.521452188491821 0.534284234046936 0.000000000000000
11.867815971374512 2.722140312194824 -0.991749644279480 0.000000000000000
6.884417057037354 1.576179265975952 0.286354005336761 0.000000000000000
7.782221317291260 2.186342954635620 0.988923728466034 0.000000000000000
3.800796508789062 1.049383044242859 0.090796925127506 0.000000000000000
11.869469642639160 2.679036140441895 -0.991101980209351 0.000000000000000
11.925445556640625 2.648093223571777 -0.995009243488312 0.000000000000000
2.627920389175415 0.851805150508881 0.079261377453804 0.000000000000000
11.899565696716309 2.598873615264893 -0.992084205150604 0.000000000000000
10.696431159973145 2.335239887237549 1.990871548652649 0.000000000000000
11.974822044372559 2.571689367294312 -0.997618257999420 0.000000000000000
12.790855407714844 2.747343540191650 -0.684202432632446 0.000000000000000
11.995428085327148 2.532448530197144 -0.998597383499146 0.000000000000000
12.398010253906250 3.256160974502563 0.744845092296600 0.000000000000000
2.900272369384766 0.595555961132050 -0.085523217916489 0.000000000000000
12.013478279113770 2.492707490921021 -0.998632013797760 0.000000000000000
4.658936500549316 0.728282690048218 -0.163751408457756 0.000000000000000
8.787899017333984 1.757521152496338 -0.052117906510830 0.000000000000000
13.479026794433594 4.047311782836914 -0.571800708770752 0.000000000000000
10.145539283752441 1.956933379173279 0.179478988051414 0.000000000000000
20.077577590942383 3.734875917434692 3.716647863388062 0.003921568859369
17.725332260131836 3.232599020004272 3.278182268142700 0.003921568859369
10.762581825256348 2.467601776123047 -0.000148998922668 0.003921568859369
8.287992477416992 1.866302371025085 0.492304891347885 0.000000000000000
9.051665306091309 1.974847912788391 -0.994086742401123 0.000000000000000
9.778122901916504 1.568446159362793 0.804211199283600 0.000000000000000
25.949491500854492 4.175226211547852 4.783734321594238 0.003921568859369
10.926429748535156 1.677548170089722 2.006494283676147 0.000000000000000
8.413157463073730 1.681735157966614 -0.000332537456416 0.003921568859369
8.247414588928223 1.648457765579224 -0.389898598194122 0.000000000000000
11.098631858825684 2.181434631347656 1.382756829261780 0.000000000000000
2.657162666320801 0.639113247394562 -0.109998539090157 0.000000000000000
5.930310249328613 0.823222160339355 0.103176638484001 0.000000000000000
14.548930168151855 1.977811813354492 2.668114662170410 0.000000000000000
8.445227622985840 0.670844912528992 0.097602717578411 0.000000000000000
14.062777519226074 1.070568799972534 -0.163929283618927 0.000000000000000
6.648039817810059 1.159790515899658 0.389795571565628 0.000000000000000
13.362406730651855 1.674144268035889 2.446352958679199 0.000000000000000
11.549845695495605 1.404127120971680 2.110443353652954 0.000000000000000
12.324886322021484 2.689830780029297 -0.219355493783951 0.000000000000000
13.752630233764648 3.002876758575439 0.081411026418209 0.000000000000000
8.652898788452148 0.537366926670074 -0.100822903215885 0.000000000000000
3.114195585250854 0.648205399513245 0.017475603148341 0.000000000000000
10.162885665893555 1.129376530647278 0.413793563842773 0.000000000000000
8.267641067504883 0.917467415332794 0.673828542232513 0.000000000000000
11.293950080871582 0.663185894489288 -0.131521478295326 0.000000000000000
7.568037509918213 0.812894880771637 -0.396421700716019 0.000000000000000
13.221296310424805 1.424680829048157 1.080518245697021 0.000000000000000
8.691846847534180 0.903961300849915 0.353152424097061 0.000000000000000
9.253023147583008 1.419381141662598 2.492525100708008 0.000000000000000
10.400814056396484 1.046438455581665 0.423067539930344 0.000000000000000
16.433879852294922 0.794595479965210 0.190516814589500 0.003921568859369
8.107259750366211 0.757702708244324 -0.235832780599594 0.000000000000000
8.584423065185547 0.802600264549255 -0.050303816795349 0.000000000000000
16.756210327148438 0.751820266246796 0.194242835044861 0.003921568859369
10.746943473815918 0.443939477205276 -0.623553693294525 0.000000000000000
11.059437751770020 0.958121418952942 0.449447512626648 0.000000000000000
4.383441925048828 0.376568675041199 0.353730350732803 0.000000000000000
7.617281436920166 1.384233951568604 0.223184734582901 0.000000000000000
9.285403251647949 0.770945131778717 1.687700510025024 0.000000000000000
10.155629158020020 0.771865308284760 1.844047069549561 0.000000000000000
8.788535118103027 1.067266225814819 -0.205002546310425 0.000000000000000
8.315930366516113 0.573452830314636 -0.048720516264439 0.000000000000000
16.606241226196289 1.036422133445740 3.020928144454956 0.003921568859369
5.183604240417480 0.809005200862885 -0.091113187372684 0.000000000000000
14.234944343566895 0.838627040386200 -0.082942970097065 0.000000000000000
3.799752235412598 0.404413133859634 0.217782929539680 0.000000000000000
4.277337074279785 0.650597691535950 -0.075109899044037 0.000000000000000
3.606541872024536 0.370971947908401 0.206376463174820 0.000000000000000
8.747990608215332 1.312322854995728 -0.153755217790604 0.000000000000000
16.666599273681641 2.447577238082886 -0.683662116527557 0.003921568859369
5.594762802124023 0.249719291925430 -0.290740430355072 0.000000000000000
9.945979118347168 1.421291947364807 -0.407055556774139 0.000000000000000
9.127897262573242 0.379297316074371 -0.053383063524961 0.000000000000000
4.070953369140625 0.562262594699860 0.116858027875423 0.000000000000000
7.978698730468750 0.331038624048233 0.645639121532440 0.000000000000000
10.177928924560547 0.385629415512085 0.411050707101822 0.000000000000000
2.425241231918335 0.089400857686996 0.427288860082626 0.000000000000000
10.200015068054199 -0.141898766160011 0.117002420127392 0.000000000000000
8.133957862854004 0.280730634927750 0.657247245311737 0.000000000000000
12.806230545043945 1.067533850669861 3.422100067138672 0.000000000000000
10.676445960998535 0.849763989448547 2.848446607589722 0.000000000000000
15.972979545593262 2.004413366317749 0.466030150651932 0.003921568859369
6.196822166442871 0.447548657655716 1.643164515495300 0.000000000000000
2.786842823028564 0.056904118508101 0.109358631074429 0.000000000000000
8.806582450866699 0.577754855155945 -0.000746975187212 0.003921568859369
11.696262359619141 1.341663241386414 0.067475214600563 0.000000000000000
2.536280393600464 0.283776521682739 -0.159615337848663 0.000000000000000
16.256122589111328 1.013892531394958 1.989942550659180 0.003921568859369
4.557758808135986 0.266597181558609 -0.000941861304455 0.000000000000000
17.349744796752930 1.028209686279297 1.007274508476257 0.000000000000000
11.031327247619629 0.652177929878235 -0.255999356508255 0.000000000000000
6.929820060729980 0.672595441341400 0.199590295553207 0.000000000000000
11.321085929870605 0.551161527633667 0.654900789260864 0.000000000000000
8.586604118347168 0.386895090341568 -0.000892267737072 0.003921568859369
8.259394645690918 0.773336470127106 0.238077238202095 0.000000000000000
7.786359310150146 0.350341469049454 0.447904795408249 0.000000000000000
5.211129665374756 -0.017456665635109 0.207644164562225 0.000000000000000
6.378757953643799 -0.021245356649160 -0.330779790878296 0.000000000000000
16.776611328125000 0.758915722370148 4.476012229919434 0.003921568859369
2.660357713699341 0.234290376305580 -0.046230059117079 0.000000000000000
16.458761215209961 0.687196314334869 4.390056610107422 0.003921568859369
19.223373413085938 -0.131981238722801 3.488440036773682 0.003921568859369
8.024099349975586 -0.083536639809608 -0.416986793279648 0.000000000000000
8.746108055114746 -0.091383315622807 0.705897331237793 0.000000000000000
17.916570663452148 0.621735394001007 -0.000514459563419 0.003921568859369
17.210239410400391 0.540154278278351 0.398079395294189 0.000000000000000
15.970605850219727 -0.275340318679810 0.276494473218918 0.000000000000000
10.339019775390625 -0.215537041425705 0.836106956005096 0.000000000000000
15.377194404602051 1.127537846565247 -0.625098168849945 0.000000000000000
13.435637474060059 -0.976151227951050 -0.468413382768631 0.000000000000000
8.457419395446777 0.206431433558464 2.242505073547363 0.000000000000000
4.444018840789795 0.305795878171921 -0.077286764979362 0.000000000000000
19.613872528076172 0.414642602205276 1.136928439140320 0.000000000000000
12.503730773925781 0.826168179512024 0.071668580174446 0.000000000000000
4.709311485290527 -0.144887208938599 0.187243655323982 0.000000000000000
8.662655830383301 -0.268695890903473 0.699344277381897 0.000000000000000
20.414081573486328 -0.637065708637238 3.707194328308105 0.003921568859369
7.491809844970703 -0.257724821567535 -0.216698318719864 0.000000000000000
6.347526550292969 -0.217966184020042 -0.037515588104725 0.000000000000000
10.771321296691895 -0.371885776519775 0.185609191656113 0.000000000000000
10.724312782287598 0.149625614285469 0.618656456470490 0.000000000000000
9.578780174255371 0.100350052118301 0.551861763000488 0.000000000000000
9.373964309692383 -0.386581450700760 0.161193788051605 0.000000000000000
7.901951313018799 0.056663416326046 0.454119950532913 0.000000000000000
15.154079437255859 0.790939688682556 -0.263816982507706 0.000000000000000
17.337024688720703 0.062239196151495 -0.000737831869628 0.003921568859369
5.647591114044189 0.019826468080282 0.127957820892334 0.000000000000000
15.748891830444336 0.822009503841400 0.455535739660263 0.000000000000000
12.695677757263184 0.045223791152239 0.732793450355530 0.000000000000000
7.345134258270264 0.000713599438313 -0.001138629624620 0.000000000000000
20.591793060302734 1.004709124565125 0.596800208091736 0.003921568859369
10.848358154296875 0.489446848630905 -0.188735798001289 0.000000000000000
6.775904655456543 -0.349370092153549 -0.040120583027601 0.000000000000000
11.481980323791504 0.518443405628204 -0.731241405010223 0.000000000000000
3.662699937820435 -0.199078768491745 -0.188485234975815 0.000000000000000
14.552462577819824 -0.147259503602982 0.335486054420471 0.000000000000000
4.887720108032227 0.185334876179695 -0.308437913656235 0.000000000000000
8.066533088684082 0.226141825318336 0.230973184108734 0.000000000000000
6.730069160461426 0.165083006024361 -0.116934269666672 0.000000000000000
10.772250175476074 -0.778920948505402 -0.312708318233490 0.000000000000000
10.451054573059082 -0.755791187286377 0.846279084682465 0.000000000000000
16.470491409301758 0.407990574836731 -0.667956173419952 0.003921568859369
13.642145156860352 -0.374845951795578 1.662768006324768 0.000000000000000
12.927291870117188 -0.984107732772827 2.344968080520630 0.000000000000000
15.726561546325684 0.225705936551094 -0.637582659721375 0.000000000000000
17.229986190795898 -1.431416511535645 3.133524894714355 0.003921568859369
9.909643173217773 -0.853168010711670 -0.058574344962835 0.000000000000000
3.217332124710083 0.033751279115677 0.089111633598804 0.000000000000000
6.417236804962158 0.068895645439625 -0.258379787206650 0.000000000000000
9.650671958923340 0.071029253304005 -0.389970898628235 0.000000000000000
13.677149772644043 -0.609988927841187 -0.001156724756584 0.000000000000000
4.548964023590088 -0.638219118118286 -0.053796745836735 0.000000000000000
7.537201881408691 -0.699243366718292 0.607815027236938 0.000000000000000
9.806671142578125 0.004348588641733 0.055228415876627 0.000000000000000
7.052810668945312 -0.336709767580032 0.160458147525787 0.000000000000000
22.195430755615234 -1.070343971252441 1.286969900131226 0.003921568859369
7.713683128356934 -0.368566900491714 -0.356094568967819 0.000000000000000
6.767130851745605 -1.004318118095398 0.076853334903717 0.000000000000000
3.669509649276733 -0.197712019085884 -0.167673528194427 0.000000000000000
9.874265670776367 -0.097777932882309 -0.399127572774887 0.000000000000000
5.138611316680908 -0.579962909221649 -0.266958087682724 0.000000000000000
10.831030845642090 -0.741444706916809 0.624726533889771 0.000000000000000
9.763630867004395 -0.703828275203705 2.593053102493286 0.000000000000000
24.689277648925781 -0.670881092548370 0.142219349741936 0.003921568859369
17.313808441162109 -0.529473066329956 -0.301390111446381 0.003921568859369
3.908448219299316 -0.490310907363892 0.065061151981354 0.000000000000000
13.270921707153320 -0.448741793632507 -0.230974629521370 0.000000000000000
3.081586599349976 -0.122640751302242 -0.053400479257107 0.000000000000000
9.088145256042480 -0.401753604412079 -0.367287158966064 0.000000000000000
13.489821434020996 -1.350180625915527 0.781284928321838 0.000000000000000
13.782928466796875 -2.106856346130371 -0.082085795700550 0.000000000000000
10.729738235473633 -0.624025225639343 0.308004260063171 0.000000000000000
9.135616302490234 -0.561744213104248 -0.369613885879517 0.000000000000000
3.123637437820435 -0.196990311145782 -0.124395877122879 0.000000000000000
24.450660705566406 -4.005236625671387 4.494607448577881 0.003921568859369
7.866589069366455 -0.562445700168610 0.224216476082802 0.000000000000000
6.691908359527588 -0.801309049129486 0.810356378555298 0.000000000000000
13.254993438720703 -1.184207201004028 -0.231672748923302 0.000000000000000
17.348081588745117 -1.553431510925293 0.099001139402390 0.000000000000000
4.280860424041748 -0.374912828207016 -0.269101947546005 0.000000000000000
10.065733909606934 -1.888577222824097 1.842654347419739 0.000000000000000
13.417001724243164 -1.245496273040771 -0.545441925525665 0.000000000000000
19.692668914794922 -3.859155654907227 3.634014606475830 0.003921568859369
1.562473416328430 -0.211209163069725 -0.035618983209133 0.003921568859369
11.252567291259766 -1.674169063568115 1.379666924476624 0.000000000000000
7.260217189788818 -0.718968927860260 -0.293840557336807 0.000000000000000
3.709026336669922 -0.385927230119705 -0.064690202474594 0.000000000000000
7.470252990722656 -1.259149670600891 1.991901159286499 0.000000000000000
7.573799610137939 -1.304598450660706 0.925130367279053 0.000000000000000
5.240510940551758 -1.173870086669922 0.952829360961914 0.000000000000000
5.833842277526855 -1.818218111991882 -0.071921855211258 0.000000000000000
13.914736747741699 -2.312628984451294 -0.245813399553299 0.000000000000000
28.237184524536133 -7.698464393615723 2.374532222747803 0.003921568859369
3.037302017211914 -0.506241202354431 -0.053319260478020 0.000000000000000
12.857730865478516 -2.871908903121948 3.489608764648438 0.000000000000000
28.033102035522461 -7.852253437042236 2.361770153045654 0.003921568859369
24.552656173706055 -8.649763107299805 0.297623336315155 0.003921568859369
6.773733139038086 -1.642432093620300 0.395390450954437 0.000000000000000
25.745121002197266 -6.344561100006104 7.063888549804688 0.003921568859369
24.533544540405273 -8.730627059936523 0.297560900449753 0.003921568859369
28.401599884033203 -8.584856986999512 2.406423568725586 0.003921568859369
8.297548294067383 -2.948276996612549 -0.103545270860195 0.000000000000000
24.111797332763672 -8.674057960510254 0.292712658643723 0.003921568859369
27.775560379028320 -10.115214347839355 0.338217496871948 0.003921568859369
24.830240249633789 -7.692768096923828 2.106462240219116 0.003921568859369
24.315437316894531 -8.943847656250000 0.295928865671158 0.003921568859369
3.727874040603638 -0.938894331455231 0.987463772296906 0.000000000000000
27.959178924560547 -8.983366966247559 2.381508350372314 0.003921568859369
7.896250724792480 -2.089416742324829 -0.189001917839050 0.000000000000000
27.236440658569336 -8.859609603881836 2.322275638580322 0.003921568859369
26.761606216430664 -8.808341026306152 5.106077194213867 0.003921568859369
23.616975784301758 -9.149245262145996 0.289053738117218 0.003921568859369
26.757369995117188 -10.486329078674316 0.328464686870575 0.003921568859369
26.103780746459961 -8.984329223632812 5.002651214599609 0.003921568859369
6.846060276031494 -1.655348420143127 -0.122527919709682 0.000000000000000
24.428770065307617 -8.599682807922363 2.097598075866699 0.003921568859369
25.710971832275391 -9.155739784240723 4.943698406219482 0.003921568859369
24.394386291503906 -8.778370857238770 2.099803924560547 0.003921568859369
26.035221099853516 -10.924502372741699 -0.331611126661301 0.003921568859369
22.530693054199219 -9.629427909851074 0.279064536094666 0.003921568859369
25.533615112304688 -8.096056938171387 7.131514549255371 0.003921568859369
25.325054168701172 -8.126376152038574 7.080760002136230 0.003921568859369
9.097436904907227 -3.921958923339844 -0.116687431931496 0.000000000000000
24.104036331176758 -7.914806365966797 1.464721202850342 0.003921568859369
5.161006450653076 -1.671354770660400 -0.002508946228772 0.000000000000000
25.380187988281250 -8.435172080993652 3.260883331298828 0.003921568859369
23.140027999877930 -9.052698135375977 2.011735677719116 0.003921568859369
25.233263015747070 -8.581912994384766 1.538697719573975 0.003921568859369
22.358467102050781 -10.205249786376953 0.279560983181000 0.003921568859369
26.409065246582031 -10.750647544860840 -0.169410064816475 0.003921568859369
24.296464920043945 -8.824554443359375 0.593662142753601 0.003921568859369
27.086717605590820 -10.052917480468750 -0.672789275646210 0.003921568859369
23.984477996826172 -10.449537277221680 2.117945671081543 0.003921568859369
20.815057754516602 -10.378305435180664 0.264056414365768 0.003921568859369
7.864555835723877 -3.895520687103271 -0.103584550321102 0.000000000000000
26.821067810058594 -11.913901329040527 5.314961910247803 0.003921568859369
20.771453857421875 -10.527639389038086 0.264156818389893 0.003921568859369
26.827030181884766 -10.594248771667480 1.665178418159485 0.003921568859369
24.726465225219727 -8.485857963562012 0.147049874067307 0.003921568859369
24.533491134643555 -9.979574203491211 3.226495742797852 0.003921568859369
7.936877250671387 -4.171643257141113 -0.105927631258965 0.000000000000000
23.119964599609375 -10.932569503784180 2.069132804870605 0.003921568859369
14.812544822692871 -6.973608016967773 2.950520277023315 0.003921568859369
7.224709033966064 -3.532248973846436 -0.049030289053917 0.000000000000000
7.613899230957031 -3.378572940826416 2.181229114532471 0.000000000000000
13.235096931457520 -6.891619205474854 0.253249913454056 0.000000000000000
10.660983085632324 -4.982275485992432 -0.003621381008998 0.003921568859369
13.102519035339355 -6.995133399963379 -0.431544810533524 0.000000000000000
13.097339630126953 -6.992166042327881 -0.773391544818878 0.003921568859369
23.220504760742188 -9.890483856201172 0.140927463769913 0.003921568859369
8.602716445922852 -4.215858459472656 -0.222215697169304 0.000000000000000
13.277748107910156 -6.966361522674561 3.964941024780273 0.000000000000000
20.871032714843750 -12.441612243652344 4.392136096954346 0.003921568859369
12.565811157226562 -6.691180229187012 -0.004326698370278 0.000000000000000
14.132324218750000 -8.511058807373047 0.659686744213104 0.003921568859369
14.796647071838379 -8.987341880798340 0.692756712436676 0.003921568859369
14.194685935974121 -8.819713592529297 0.668348908424377 0.003921568859369
14.045425415039062 -7.121946334838867 -0.275935113430023 0.000000000000000
14.257051467895508 -9.275779724121094 0.680365264415741 0.003921568859369
14.258627891540527 -9.277168273925781 1.368774652481079 0.000000000000000
25.809236526489258 -15.273292541503906 1.728387117385864 0.003921568859369
13.105889320373535 -6.975410461425781 -0.260186612606049 0.000000000000000
23.450244903564453 -14.197151184082031 1.578637123107910 0.003921568859369
23.271350860595703 -14.198554992675781 1.569781303405762 0.003921568859369
20.557231903076172 -14.256706237792969 2.020260572433472 0.003921568859369
20.411739349365234 -14.365960121154785 2.015640020370483 0.003921568859369
14.564412117004395 -10.356397628784180 0.714825034141541 0.003921568859369
14.279732704162598 -10.218997001647949 1.412097215652466 0.000000000000000
14.533697128295898 -10.479880332946777 0.716293334960938 0.003921568859369
21.961858749389648 -15.923682212829590 2.191372394561768 0.003921568859369
21.848411560058594 -15.956813812255859 2.185487031936646 0.003921568859369
19.923574447631836 -14.637053489685059 1.995500326156616 0.003921568859369
14.343180656433105 -10.642369270324707 0.713918387889862 0.003921568859369
8.138807296752930 -6.592498302459717 -0.364362180233002 0.000000000000000
14.506449699401855 -10.843873977661133 0.724100649356842 0.003921568859369
14.348097801208496 -10.879822731018066 0.719833612442017 0.003921568859369
21.825843811035156 -15.024216651916504 7.040815830230713 0.003921568859369
14.189895629882812 -10.836154937744141 1.436211466789246 0.003921568859369
14.136422157287598 -10.872240066528320 0.712813079357147 0.003921568859369
13.096971511840820 -10.270947456359863 1.336985826492310 0.000000000000000
7.930511474609375 -6.186657428741455 -0.062175881117582 0.000000000000000
7.959600448608398 -6.857440471649170 0.115044735372066 0.000000000000000
14.883983612060547 -10.725692749023438 1.050772547721863 0.000000000000000
11.744571685791016 -10.365135192871094 0.173876002430916 0.000000000000000
8.223153114318848 -5.426505565643311 -0.172882512211800 0.000000000000000
18.809762954711914 -13.998822212219238 1.346869230270386 0.003921568859369
11.554773330688477 -10.483767509460449 -0.186003908514977 0.000000000000000
3.138908863067627 -2.028746366500854 0.017159013077617 0.000000000000000
16.785163879394531 -14.182569503784180 3.965044260025024 0.003921568859369
11.864657402038574 -10.096147537231445 0.620547175407410 0.000000000000000
12.095158576965332 -9.321735382080078 1.844520330429077 0.003921568859369
11.713331222534180 -10.038578033447266 0.614369928836823 0.000000000000000
12.293495178222656 -11.879938125610352 0.189764067530632 0.003921568859369
13.917765617370605 -12.224967956542969 1.489647507667542 0.000000000000000
8.871020317077637 -6.984604835510254 2.967086791992188 0.000000000000000
11.657030105590820 -10.273953437805176 0.261474192142487 0.000000000000000
13.795035362243652 -12.200548171997070 1.480857491493225 0.000000000000000
13.660181045532227 -10.943152427673340 4.630457878112793 0.003921568859369
14.262780189514160 -11.506268501281738 1.049058556556702 0.003921568859369
13.613615989685059 -11.056056976318359 2.122696876525879 0.003921568859369
14.880494117736816 -12.194182395935059 1.102053761482239 0.003921568859369
13.724857330322266 -12.569434165954590 0.314290493726730 0.003921568859369
13.645553588867188 -12.495701789855957 0.738949894905090 0.003921568859369
6.069172859191895 -5.452776432037354 0.645391821861267 0.000000000000000
16.562538146972656 -14.378249168395996 1.257808089256287 0.003921568859369
13.528311729431152 -11.776955604553223 2.170967340469360 0.003921568859369
11.716660499572754 -10.239568710327148 0.350962966680527 0.000000000000000
18.271017074584961 -16.098798751831055 1.398096919059753 0.003921568859369
15.915066719055176 -15.434737205505371 3.999223470687866 0.003921568859369
11.624381065368652 -10.228659629821777 0.349189102649689 0.000000000000000
15.833175659179688 -15.461560249328613 3.992025852203369 0.003921568859369
7.366367340087891 -7.105722904205322 0.403822332620621 0.000000000000000
14.823667526245117 -13.393121719360352 2.421379327774048 0.003921568859369
14.011389732360840 -13.945261001586914 1.590556859970093 0.000000000000000
12.324624061584473 -12.235610961914062 3.125043153762817 0.003921568859369
13.918986320495605 -13.933815002441406 1.583902835845947 0.000000000000000
13.670473098754883 -13.681317329406738 3.483093976974487 0.003921568859369
6.970174789428711 -6.932685852050781 -0.061624746769667 0.000000000000000
6.290410041809082 -6.275208473205566 0.146412670612335 0.000000000000000
15.857357025146484 -16.472719192504883 1.841936349868774 0.003921568859369
13.492929458618164 -14.175634384155273 1.573963403701782 0.000000000000000
11.730370521545410 -10.171459197998047 0.439277350902557 0.003921568859369
13.261914253234863 -14.027017593383789 3.477128505706787 0.003921568859369
15.649942398071289 -16.720750808715820 1.845039725303650 0.003921568859369
16.186025619506836 -17.419193267822266 1.916357159614563 0.003921568859369
15.061319351196289 -16.189598083496094 3.988546133041382 0.003921568859369
15.953344345092773 -17.291357040405273 1.895888090133667 0.003921568859369
11.914129257202148 -12.838812828063965 3.151820898056030 0.003921568859369
12.920290946960449 -12.727535247802734 4.797863483428955 0.003921568859369
15.802460670471191 -17.350154876708984 1.890468120574951 0.003921568859369
13.905900001525879 -13.905410766601562 1.125347495079041 0.000000000000000
12.084887504577637 -12.047651290893555 2.063153505325317 0.003921568859369
15.900676727294922 -17.583065032958984 1.909888982772827 0.003921568859369
16.179941177368164 -18.017402648925781 1.951361656188965 0.003921568859369
11.168522834777832 -11.187815666198730 4.175185203552246 0.003921568859369
9.171914100646973 -10.146296501159668 0.228407219052315 0.000000000000000
12.808325767517090 -12.961317062377930 2.205123662948608 0.003921568859369
4.488873481750488 -4.383869647979736 -0.004722518846393 0.000000000000000
15.491127967834473 -17.481306076049805 1.881572127342224 0.003921568859369
11.365107536315918 -12.740386009216309 3.070585489273071 0.003921568859369
5.955618858337402 -5.953319072723389 -0.005334015004337 0.003921568859369
15.388316154479980 -17.486022949218750 1.876348972320557 0.003921568859369
6.692297458648682 -7.475865840911865 0.395192980766296 0.000000000000000
15.713439941406250 -17.995227813720703 1.924949049949646 0.003921568859369
10.881851196289062 -11.205883979797363 4.125444889068604 0.000000000000000
15.524420738220215 -17.894556045532227 1.908702969551086 0.003921568859369
15.460079193115234 -18.079513549804688 1.916736006736755 0.003921568859369
6.331375122070312 -7.257663726806641 0.378974258899689 0.000000000000000
16.485670089721680 -17.613336563110352 2.928588867187500 0.003921568859369
15.419857025146484 -18.159946441650391 1.919618487358093 0.003921568859369
7.374512195587158 -7.030506610870361 0.284637242555618 0.000000000000000
14.760065078735352 -15.837806701660156 2.624444246292114 0.003921568859369
15.460154533386230 -18.326316833496094 1.931404590606689 0.003921568859369
13.536110877990723 -14.595011711120605 2.410923719406128 0.003921568859369
10.889852523803711 -12.892931938171387 3.034425973892212 0.003921568859369
10.842303276062012 -12.926803588867188 3.033684253692627 0.003921568859369
9.428890228271484 -11.274357795715332 1.176925301551819 0.000000000000000
2.903018474578857 -3.246255874633789 0.335666507482529 0.000000000000000
4.294631004333496 -4.113570213317871 0.028660789132118 0.000000000000000
15.091504096984863 -18.523384094238281 1.924741625785828 0.003921568859369
11.158369064331055 -13.602304458618164 3.165389537811279 0.003921568859369
14.139685630798340 -17.456783294677734 1.808654785156250 0.003921568859369
11.033692359924316 -12.262588500976562 4.359793663024902 0.003921568859369
14.032374382019043 -17.439981460571289 1.802139639854431 0.003921568859369
5.524159431457520 -6.689753055572510 0.340132981538773 0.000000000000000
12.666997909545898 -15.820444107055664 1.629981398582458 0.003921568859369
4.064971923828125 -3.984744548797607 0.027232017368078 0.000000000000000
12.614468574523926 -15.861399650573730 1.629952669143677 0.003921568859369
13.742105484008789 -15.999444007873535 2.555811643600464 0.003921568859369
12.838198661804199 -16.496385574340820 1.681228160858154 0.003921568859369
6.509822845458984 -6.743799209594727 -0.165880292654037 0.000000000000000
12.022936820983887 -17.224681854248047 0.231871843338013 0.003921568859369
14.121090888977051 -16.567607879638672 2.638921260833740 0.003921568859369
13.479345321655273 -17.466165542602539 1.775510787963867 0.003921568859369
9.762565612792969 -12.541504859924316 2.855656623840332 0.000000000000000
10.149434089660645 -11.892367362976074 4.128860473632812 0.000000000000000
6.837144851684570 -7.199803352355957 0.276919573545456 0.000000000000000
12.032018661499023 -14.266533851623535 4.939518928527832 0.003921568859369
9.322558403015137 -12.133560180664062 2.748190164566040 0.000000000000000
12.972487449645996 -15.518233299255371 2.450175523757935 0.003921568859369
9.724052429199219 -11.541809082031250 3.984047889709473 0.000000000000000
8.730911254882812 -11.420928955078125 2.579879045486450 0.000000000000000
10.212329864501953 -13.521382331848145 3.047481298446655 0.003921568859369
9.822227478027344 -11.914545059204102 4.078073501586914 0.003921568859369
9.279010772705078 -12.433823585510254 2.787484645843506 0.000000000000000
4.086987495422363 -4.805779457092285 0.351087391376495 0.000000000000000
14.542834281921387 -18.078575134277344 6.155328750610352 0.003921568859369
13.983798027038574 -17.490903854370117 1.282701015472412 0.003921568859369
14.562977790832520 -18.234706878662109 6.191483020782471 0.003921568859369
2.267444372177124 -2.290616512298584 0.083746999502182 0.000000000000000
14.422191619873047 -18.300676345825195 1.334708333015442 0.003921568859369
11.531272888183594 -14.554603576660156 4.914288997650146 0.003921568859369
14.431056022644043 -18.444948196411133 1.341607928276062 0.003921568859369
2.968383789062500 -3.164019584655762 0.019455101341009 0.000000000000000
14.364173889160156 -18.490947723388672 1.341340422630310 0.003921568859369
8.007316589355469 -11.226364135742188 1.102916002273560 0.003921568859369
12.068590164184570 -17.264234542846680 -0.132278338074684 0.003921568859369
12.045506477355957 -15.663489341735840 5.233662128448486 0.003921568859369
8.627218246459961 -12.310413360595703 2.699775218963623 0.000000000000000
5.437327384948730 -6.363979339599609 0.041560899466276 0.000000000000000
12.994188308715820 -17.551309585571289 2.647804260253906 0.003921568859369
13.466160774230957 -20.216882705688477 4.385129928588867 0.003921568859369
13.696778297424316 -18.666105270385742 1.326262593269348 0.003921568859369
7.969078540802002 -12.033055305480957 2.590621471405029 0.000000000000000
12.379393577575684 -19.115987777709961 1.832981705665588 0.003921568859369
8.364227294921875 -11.637179374694824 1.728369593620300 0.003921568859369
12.025957107543945 -18.838680267333984 1.798582434654236 0.003921568859369
11.623253822326660 -18.333055496215820 1.746402263641357 0.003921568859369
14.349551200866699 -20.450414657592773 6.631927490234375 0.003921568859369
11.594563484191895 -18.430210113525391 1.751876592636108 0.003921568859369
13.103681564331055 -18.774534225463867 6.073616027832031 0.003921568859369
7.938932895660400 -11.267570495605469 0.783713042736053 0.000000000000000
12.930989265441895 -18.653570175170898 6.020857334136963 0.003921568859369
6.689805030822754 -10.577977180480957 0.999760448932648 0.000000000000000
10.555077552795410 -15.259573936462402 4.912556171417236 0.003921568859369
13.831455230712891 -20.296930313110352 6.520123958587646 0.003921568859369
8.424160003662109 -13.776982307434082 1.295072197914124 0.000000000000000
11.601588249206543 -18.275747299194336 2.624389886856079 0.003921568859369
7.048701763153076 -10.979735374450684 1.571906566619873 0.000000000000000
10.827771186828613 -19.202054977416992 1.773904800415039 0.003921568859369
7.279638767242432 -11.358687400817871 3.558889865875244 0.003921568859369
10.794890403747559 -19.301670074462891 1.779701709747314 0.003921568859369
6.754631996154785 -12.045123100280762 1.105224967002869 0.000000000000000
7.315794944763184 -12.048987388610840 3.720890045166016 0.003921568859369
6.352015495300293 -11.662563323974609 2.382916927337646 0.003921568859369
10.841276168823242 -20.545528411865234 4.193048000335693 0.003921568859369
6.536087989807129 -12.552661895751953 2.542433023452759 0.003921568859369
7.211100578308105 -14.041799545288086 1.265748739242554 0.000000000000000
9.728507041931152 -19.347896575927734 1.742514133453369 0.003921568859369
7.020998954772949 -12.313035011291504 0.806396484375000 0.000000000000000
9.440151214599609 -19.410537719726562 1.736354708671570 0.003921568859369
9.687894821166992 -20.122030258178711 1.797166943550110 0.003921568859369
6.868202209472656 -14.177603721618652 2.834106206893921 0.000000000000000
9.347202301025391 -20.128295898437500 1.786040186882019 0.003921568859369
9.282025337219238 -20.161666870117188 1.786335110664368 0.003921568859369
9.303185462951660 -17.962858200073242 2.451714277267456 0.003921568859369
7.408960819244385 -16.085664749145508 1.422259807586670 0.000000000000000
9.072896003723145 -17.503511428833008 5.227278709411621 0.003921568859369
6.434248924255371 -12.418675422668457 1.688153982162476 0.003921568859369
9.000086784362793 -20.275585174560547 1.785569906234741 0.003921568859369
6.390515327453613 -14.161197662353516 2.796008825302124 0.000000000000000
6.524848461151123 -12.820766448974609 1.736515879631042 0.000000000000000
6.050415039062500 -13.484555244445801 2.657698392868042 0.000000000000000
8.084295272827148 -16.207630157470703 2.192515850067139 0.003921568859369
6.392750263214111 -14.577175140380859 1.276654124259949 0.000000000000000
5.634883403778076 -13.133862495422363 1.144918441772461 0.000000000000000
7.528245449066162 -18.194654464721680 1.583235859870911 0.000000000000000
6.506051063537598 -18.151842117309570 -0.682521224021912 0.003921568859369
7.469486236572266 -18.811367034912109 1.628097653388977 0.003921568859369
5.536221504211426 -13.698685646057129 2.658916473388672 0.000000000000000
7.391445636749268 -18.988914489746094 1.638819694519043 0.003921568859369
5.862921714782715 -13.659536361694336 3.933494806289673 0.003921568859369
5.289257526397705 -14.358904838562012 1.227584242820740 0.000000000000000
5.607990264892578 -13.567651748657227 1.774731397628784 0.000000000000000
5.516275405883789 -13.593671798706055 1.773057222366333 0.003921568859369
5.432210445404053 -13.506515502929688 1.759445905685425 0.000000000000000
5.665151119232178 -14.288302421569824 1.858941316604614 0.000000000000000
6.145111083984375 -15.588027000427246 4.440503597259521 0.003921568859369
4.990154266357422 -14.623237609863281 2.783444404602051 0.000000000000000
7.194815635681152 -19.021541595458984 2.466636180877686 0.003921568859369
7.429876327514648 -19.680870056152344 5.586347103118896 0.003921568859369
4.505637645721436 -13.743015289306641 1.159934282302856 0.000000000000000
5.092489719390869 -13.596880912780762 3.844178676605225 0.000000000000000
4.517747402191162 -13.077865600585938 1.672590255737305 0.003921568859369
4.731238842010498 -13.756435394287109 3.853146314620972 0.000000000000000
4.519652366638184 -13.907799720764160 1.769567370414734 0.000000000000000
4.518479824066162 -13.906515121459961 3.874752759933472 0.003921568859369
4.247541904449463 -13.477167129516602 3.743304491043091 0.003921568859369
4.195241451263428 -13.471932411193848 3.738121509552002 0.000000000000000
4.276456832885742 -13.943387031555176 1.764922142028809 0.003921568859369
4.267292022705078 -13.913247108459473 3.856912136077881 0.000000000000000
4.075190067291260 -13.589303016662598 3.759764194488525 0.000000000000000
4.037707328796387 -13.639394760131836 3.770077705383301 0.000000000000000
3.927427291870117 -13.616472244262695 3.756612300872803 0.000000000000000
4.072011470794678 -14.799734115600586 4.072683334350586 0.000000000000000
2.628605604171753 -9.503823280334473 1.188630938529968 0.000000000000000
3.686126470565796 -14.266616821289062 3.909177541732788 0.000000000000000
1.417118072509766 -4.534933090209961 0.563722312450409 0.000000000000000
2.916637420654297 -24.040512084960938 0.262479394674301 0.003921568859369
3.141987323760986 -13.374321937561035 1.663964867591858 0.000000000000000
2.853586912155151 -17.001699447631836 3.116454839706421 0.003921568859369
2.847961664199829 -17.844762802124023 1.454931378364563 0.003921568859369
2.165381431579590 -15.190011978149414 2.773829460144043 0.000000000000000
2.265498399734497 -17.595224380493164 3.209697961807251 0.003921568859369
3.762574911117554 -25.105436325073242 0.569265484809875 0.003921568859369
1.827151536941528 -18.334991455078125 1.485072255134583 0.000000000000000
1.781454324722290 -18.546306610107422 1.501845717430115 0.000000000000000
1.669049263000488 -17.872285842895508 3.250283479690552 0.003921568859369
1.563430309295654 -27.136335372924805 2.194902658462524 0.003921568859369
3.638552188873291 -24.725761413574219 0.124852865934372 0.003921568859369
1.250510692596436 -26.222131729125977 2.119944095611572 0.003921568859369
3.256643772125244 -24.332901000976562 0.692749798297882 0.003921568859369
0.893570899963379 -25.939882278442383 2.096063375473022 0.003921568859369
1.307527422904968 -13.022183418273926 3.483298540115356 0.003921568859369
0.803195357322693 -25.953248977661133 2.097010850906372 0.003921568859369
0.532446384429932 -26.266553878784180 2.122124671936035 0.003921568859369
0.445372313261032 -25.062637329101562 2.024634599685669 0.003921568859369
-0.887883186340332 -25.448165893554688 0.274914473295212 0.003921568859369
1.721625328063965 -28.105100631713867 1.615376949310303 0.003921568859369
0.175675779581070 -25.332313537597656 2.046523809432983 0.003921568859369
-2.110940217971802 -28.146156311035156 0.304917395114899 0.003921568859369
-1.875467538833618 -24.705411911010742 0.267189264297485 0.003921568859369
-1.479875802993774 -26.482482910156250 2.144476413726807 0.003921568859369
-1.106083989143372 -19.569465637207031 1.584347486495972 0.000000000000000
-2.052904129028320 -25.725183486938477 2.087265253067017 0.003921568859369
-2.468259096145630 -26.277910232543945 2.135033130645752 0.003921568859369
-2.989241123199463 -27.496704101562500 2.237884521484375 0.003921568859369
