# This PCD file was generated using the MATLAB® pcwrite function
# from Computer Vision Toolbox®.
# .PCD v.7 - Point Cloud Data file format
VERSION .7
FIELDS x y z intensity
SIZE 8 8 8 8
TYPE F F F F
COUNT 1 1 1 1
WIDTH 645
HEIGHT 1
VIEWPOINT 0 0 0 1 0 0 0
POINTS 645
DATA ascii
-12.199028968811035 0.988195002079010 1.370748043060303 0.000000000000000
-18.693687438964844 3.335309505462646 -0.728976428508759 0.003921568859369
-18.090120315551758 2.408238887786865 -0.595710933208466 0.000000000000000
-3.446199417114258 0.389021545648575 -0.159340798854828 0.000000000000000
-18.690389633178711 3.396643638610840 -0.729371905326843 0.003921568859369
-18.071920394897461 2.469098806381226 -0.595756113529205 0.000000000000000
-8.268460273742676 0.705260396003723 0.412604987621307 0.000000000000000
-18.692291259765625 3.464106559753418 -0.730361759662628 0.003921568859369
-18.058975219726562 2.472810029983521 3.123433589935303 0.003921568859369
-18.047374725341797 2.527676343917847 -0.595302760601044 0.000000000000000
-10.737765312194824 0.966696739196777 -0.282159626483917 0.000000000000000
-18.050312042236328 2.590220689773560 -0.595799565315247 0.000000000000000
-18.041170120239258 2.651016712188721 -0.595887660980225 0.000000000000000
-11.987977981567383 1.730874896049500 0.147175148129463 0.000000000000000
-4.644852638244629 0.414166688919067 0.218368917703629 0.000000000000000
-18.421585083007812 2.714369773864746 3.192985773086548 0.003921568859369
-18.035762786865234 2.712399721145630 -0.596110641956329 0.000000000000000
-18.818328857421875 3.752302169799805 -0.737845182418823 0.003921568859369
-18.049879074096680 2.776912450790405 -0.597012579441071 0.000000000000000
-18.805122375488281 3.815769433975220 -0.737920224666595 0.003921568859369
-18.016410827636719 2.833850383758545 -0.596281647682190 0.000000000000000
-19.561960220336914 2.141996383666992 -0.976890623569489 0.000000000000000
-5.737080574035645 0.834709346294403 0.399652212858200 0.000000000000000
-18.127210617065430 3.737340688705444 -0.710882961750031 0.003921568859369
-18.011367797851562 2.889116048812866 -0.596493184566498 0.000000000000000
-14.920881271362305 1.664544105529785 0.267963916063309 0.000000000000000
-19.078975677490234 2.146137475967407 -0.952329337596893 0.000000000000000
-21.754867553710938 3.514164447784424 1.645063877105713 0.003921568859369
-17.963045120239258 3.759274482727051 -0.704725921154022 0.003921568859369
-9.295646667480469 1.444010972976685 1.559744596481323 0.000000000000000
-18.001182556152344 2.949774265289307 -0.596576154232025 0.000000000000000
-18.579542160034180 2.151636123657227 -0.926950216293335 0.000000000000000
-17.863954544067383 3.800832748413086 -0.701285362243652 0.003921568859369
-19.525083541870117 2.265569686889648 -0.532188773155212 0.000000000000000
-17.994722366333008 3.011079311370850 -0.596794128417969 0.000000000000000
-18.238887786865234 2.173226594924927 -0.909785449504852 0.000000000000000
-14.097332954406738 2.339613437652588 2.425284624099731 0.000000000000000
-19.048795700073242 2.273763656616211 -0.519021987915039 0.000000000000000
-18.003791809082031 3.075155496597290 -0.597555458545685 0.000000000000000
-9.599885940551758 1.588962912559509 -0.094900958240032 0.000000000000000
-17.735826492309570 2.171852350234985 -0.884188771247864 0.000000000000000
-18.719457626342773 2.297276735305786 -0.510011017322540 0.000000000000000
-18.004758834838867 3.137916803359985 -0.598043680191040 0.000000000000000
-17.609308242797852 2.216063499450684 -0.878114342689514 0.000000000000000
-18.580493927001953 2.343344688415527 -0.506395995616913 0.000000000000000
-17.987934112548828 3.199236154556274 -0.598212480545044 0.000000000000000
-17.243341445922852 2.228622436523438 -0.860067546367645 0.000000000000000
-7.573573589324951 1.281881928443909 -0.402473628520966 0.000000000000000
-7.964483737945557 1.355125069618225 0.575368940830231 0.000000000000000
-18.495132446289062 2.396925449371338 -0.504532694816589 0.000000000000000
-17.964878082275391 3.257627964019775 -0.597881913185120 0.000000000000000
-18.759096145629883 2.496126890182495 -0.939314126968384 0.000000000000000
-11.808672904968262 2.105190515518188 2.020237445831299 0.000000000000000
-18.466857910156250 2.456579446792603 -0.504064559936523 0.000000000000000
-18.008375167846680 3.328671932220459 -0.599864721298218 0.000000000000000
-9.698877334594727 1.284150958061218 0.491953581571579 0.000000000000000
-18.766096115112305 2.561668634414673 -0.940231621265411 0.000000000000000
-24.477624893188477 4.572797298431396 4.307517528533936 0.003921568859369
-18.414628982543945 2.512718439102173 -0.502919733524323 0.000000000000000
-18.024122238159180 3.394705772399902 -0.600893795490265 0.000000000000000
-18.658205032348633 2.610709190368652 -0.935184419155121 0.000000000000000
-8.528165817260742 1.147749781608582 0.944270133972168 0.000000000000000
-18.366178512573242 2.569094657897949 -0.501885890960693 0.000000000000000
-18.051382064819336 3.463220834732056 -0.602330446243286 0.000000000000000
-10.980622291564941 1.538067817687988 -0.048245441168547 0.003921568859369
-8.322470664978027 1.532099843025208 0.283868253231049 0.000000000000000
-18.605516433715820 2.667220592498779 -0.933014333248138 0.000000000000000
-9.226288795471191 2.152614355087280 -0.351217687129974 0.000000000000000
-18.301738739013672 2.622814178466797 -0.500400185585022 0.000000000000000
-18.039190292358398 3.524053573608398 -0.602404534816742 0.000000000000000
-8.788176536560059 1.653790950775146 -0.086773902177811 0.000000000000000
-15.026660919189453 1.474574089050293 0.354521006345749 0.000000000000000
-18.540803909301758 2.721606969833374 -0.930225849151611 0.000000000000000
-18.304336547851562 2.686324357986450 -0.500827610492706 0.000000000000000
-18.054822921752930 3.587433815002441 -0.603427410125732 0.000000000000000
-13.832310676574707 2.719831228256226 0.171424895524979 0.000000000000000
-18.547473907470703 2.783473014831543 -0.931133925914764 0.000000000000000
-4.630123138427734 0.827701270580292 0.728131175041199 0.000000000000000
-18.267679214477539 2.740658044815063 -0.500123143196106 0.000000000000000
-5.018815994262695 0.481682896614075 -0.095602348446846 0.000000000000000
-18.038282394409180 3.647458314895630 -0.603363275527954 0.000000000000000
-3.355235099792480 0.436507254838943 0.053796239197254 0.000000000000000
-18.462686538696289 2.834148645401001 -0.927313923835754 0.000000000000000
-20.094356536865234 2.124261379241943 -0.889874339103699 0.003921568859369
-18.254058837890625 2.801621437072754 -0.500097870826721 0.000000000000000
-18.052822113037109 3.714068412780762 -0.604387938976288 0.000000000000000
-19.614297866821289 2.139073848724365 -0.868307769298553 0.003921568859369
-11.599121093750000 2.906990289688110 -0.450646966695786 0.000000000000000
-18.256017684936523 2.865082025527954 -0.500522255897522 0.000000000000000
-18.071008682250977 3.781665802001953 -0.605548024177551 0.000000000000000
-8.264262199401855 1.657843112945557 -0.081382498145103 0.000000000000000
-19.110567092895508 2.147792577743530 -0.845641613006592 0.003921568859369
-7.639883041381836 1.885603189468384 -0.287324517965317 0.000000000000000
-18.226190567016602 2.923350095748901 -0.500043928623199 0.000000000000000
-17.637563705444336 3.749567985534668 -0.997172474861145 0.003921568859369
-4.894615173339844 0.943980991840363 0.338223129510880 0.000000000000000
-18.610979080200195 2.153500318527222 -0.823151051998138 0.003921568859369
-18.231655120849609 2.987463235855103 -0.500578880310059 0.000000000000000
-13.614376068115234 2.252290487289429 0.244833439588547 0.000000000000000
-19.492023468017578 3.268322944641113 -0.983634769916534 0.000000000000000
-18.313846588134766 2.180648803710938 -0.809947669506073 0.003921568859369
-18.189601898193359 3.043466091156006 -0.499760061502457 0.000000000000000
-12.667323112487793 2.133304595947266 0.227510720491409 0.000000000000000
-19.553424835205078 3.348736047744751 -0.987998723983765 0.000000000000000
-17.519515991210938 3.849650144577026 -0.992443501949310 0.003921568859369
-17.919841766357422 2.194659709930420 -0.792684316635132 0.003921568859369
-18.224313735961914 3.114475727081299 -0.501374483108521 0.000000000000000
-18.661003112792969 3.256096839904785 -0.941978156566620 0.000000000000000
-17.486524581909180 3.904161691665649 -0.991361081600189 0.003921568859369
-10.839175224304199 1.848341584205627 1.227001070976257 0.000000000000000
-17.381116867065430 2.185935258865356 -0.768353462219238 0.003921568859369
-18.221212387084961 3.177361011505127 -0.501681149005890 0.000000000000000
-19.840078353881836 2.575117111206055 -0.430115461349487 0.003921568859369
-8.822569847106934 1.513246059417725 0.447842329740524 0.000000000000000
-18.661317825317383 3.321261405944824 -0.942677795886993 0.000000000000000
-17.884298324584961 2.312810897827148 -0.791959106922150 0.003921568859369
-18.217880249023438 3.240262508392334 -0.501986801624298 0.000000000000000
-19.866634368896484 2.647117853164673 -0.431021064519882 0.003921568859369
-18.441524505615234 3.345238924026489 -0.931847453117371 0.000000000000000
-17.587043762207031 4.052482128143311 -0.999052822589874 0.003921568859369
-18.826211929321289 2.503562688827515 -0.835806250572205 0.003921568859369
-18.226118087768555 3.305386304855347 -0.502629876136780 0.000000000000000
-19.742444992065430 2.698136806488037 -0.428531378507614 0.003921568859369
-9.192383766174316 1.643288850784302 0.468410372734070 0.000000000000000
-18.406196594238281 3.402970314025879 -0.930691003799438 0.000000000000000
-18.793622970581055 2.563794612884521 -0.834807693958282 0.003921568859369
-7.317542076110840 1.978559255599976 -0.276400327682495 0.000000000000000
-10.916427612304688 2.501518487930298 1.881454110145569 0.000000000000000
-18.249822616577148 3.373613595962524 -0.503723382949829 0.000000000000000
-19.649318695068359 2.756218194961548 -0.426759064197540 0.003921568859369
-18.319108963012695 3.453660011291504 -0.926860392093658 0.000000000000000
-18.776195526123047 2.629285335540771 -0.834541916847229 0.003921568859369
-8.532338142395020 1.954030632972717 1.448102235794067 0.000000000000000
-18.260894775390625 3.442834138870239 -0.504481434822083 0.000000000000000
-18.699396133422852 3.590096235275269 -0.947525382041931 0.000000000000000
-18.593458175659180 2.663775682449341 -0.826605737209320 0.003921568859369
-7.761605739593506 1.789256572723389 1.308524966239929 0.000000000000000
-11.287879943847656 2.120288372039795 -0.304208338260651 0.000000000000000
-12.749289512634277 2.455502033233643 0.662536025047302 0.000000000000000
-18.576150894165039 2.725340843200684 -0.826332032680511 0.003921568859369
-18.288011550903320 3.573192358016968 -0.506096243858337 0.000000000000000
-19.493490219116211 2.932497501373291 -0.424182176589966 0.003921568859369
-12.782855987548828 1.891922593116760 0.301056385040283 0.000000000000000
-20.394727706909180 3.071691751480103 -0.910880804061890 0.003921568859369
-18.310678482055664 3.642126798629761 -0.507186472415924 0.000000000000000
-19.380973815917969 2.978815555572510 -0.421945780515671 0.003921568859369
-3.466763019561768 0.897616624832153 -0.046933725476265 0.000000000000000
-18.688842773437500 3.781921386718750 -0.949190914630890 0.000000000000000
-20.577816009521484 3.167950630187988 -0.919913172721863 0.003921568859369
-19.398101806640625 3.048795223236084 -0.422663837671280 0.003921568859369
-12.157382011413574 1.874988913536072 0.013563875108957 0.000000000000000
-18.648185729980469 3.839189529418945 -0.947822749614716 0.000000000000000
-20.554805755615234 3.235714912414551 -0.919463634490967 0.003921568859369
-19.367622375488281 3.111088037490845 -0.422307372093201 0.003921568859369
-18.603437423706055 3.895379543304443 -0.946247279644012 0.000000000000000
-20.555217742919922 3.307281732559204 -0.920107483863831 0.003921568859369
-17.717554092407227 3.709977865219116 4.599572658538818 0.003921568859369
-19.331182479858398 3.173831701278687 -0.421992719173431 0.003921568859369
-20.533851623535156 3.376845598220825 -0.920156300067902 0.003921568859369
-19.295789718627930 3.238363742828369 -0.421548545360565 0.003921568859369
-10.906146049499512 1.786701440811157 0.255857050418854 0.000000000000000
-6.995226383209229 1.766039371490479 0.085452429950237 0.000000000000000
-17.583063125610352 3.804076433181763 -0.894424796104431 0.000000000000000
-19.820505142211914 3.328586339950562 -0.887768089771271 0.003921568859369
-19.292825698852539 3.301731824874878 -0.421810418367386 0.003921568859369
-17.515823364257812 3.847978830337524 -0.891602039337158 0.000000000000000
-19.801490783691406 3.390921592712402 -0.887488186359406 0.003921568859369
-19.332355499267578 3.376175880432129 -0.423060506582260 0.003921568859369
-12.345479011535645 2.717748641967773 1.421934843063354 0.000000000000000
-19.824930191040039 3.464305877685547 -0.889219522476196 0.003921568859369
-19.403057098388672 3.456711769104004 -0.425026446580887 0.003921568859369
-17.698556900024414 4.015278816223145 -0.902857363224030 0.000000000000000
-18.735887527465820 3.333573579788208 -0.839284300804138 0.003921568859369
-12.981870651245117 3.556946754455566 2.284339666366577 0.000000000000000
-19.379091262817383 3.520119428634644 -0.424842149019241 0.003921568859369
-8.464252471923828 2.288107156753540 -0.276523351669312 0.000000000000000
-17.696096420288086 4.077729701995850 -0.903538227081299 0.000000000000000
-18.629882812500000 3.379211902618408 -0.834983706474304 0.003921568859369
-18.504152297973633 3.420399188995361 -0.829768240451813 0.003921568859369
-18.456806182861328 3.476011037826538 -0.828202843666077 0.003921568859369
-3.716227054595947 0.931826233863831 0.578593194484711 0.000000000000000
-5.592463016510010 1.510974049568176 -0.174993813037872 0.000000000000000
-12.667692184448242 2.396712779998779 0.300041377544403 0.000000000000000
-18.545856475830078 3.561654806137085 -0.833032250404358 0.003921568859369
-12.181617736816406 2.938613891601562 1.409057140350342 0.000000000000000
-17.554134368896484 3.426494359970093 -0.787445724010468 0.003921568859369
-8.941330909729004 1.745945334434509 -0.386411368846893 0.000000000000000
-18.615015029907227 3.833008527755737 -0.839306533336639 0.003921568859369
-17.819759368896484 3.730036973953247 -0.802839875221252 0.003921568859369
-14.507411003112793 3.786116600036621 -0.069385446608067 0.000000000000000
-17.775417327880859 3.783286094665527 -0.801446318626404 0.003921568859369
-17.727682113647461 3.832412242889404 -0.799865245819092 0.003921568859369
-3.363117218017578 0.642184734344482 0.071656934916973 0.000000000000000
-3.399798631668091 0.660983145236969 0.072610519826412 0.000000000000000
-12.258467674255371 4.716066837310791 -0.500434756278992 0.000000000000000
-4.789588928222656 1.082544684410095 -0.094437435269356 0.000000000000000
-10.168854713439941 3.529557943344116 -0.346069961786270 0.000000000000000
-4.338597297668457 1.008697628974915 -0.174812957644463 0.000000000000000
-17.778455734252930 5.586709499359131 4.749527454376221 0.003921568859369
-5.078364849090576 1.799628853797913 -0.162413850426674 0.000000000000000
-9.393685340881348 2.560507535934448 -0.416956186294556 0.000000000000000
-9.984511375427246 3.239603757858276 2.613408565521240 0.000000000000000
-4.952415943145752 1.303414106369019 -0.099434338510036 0.000000000000000
-6.611760616302490 2.589405775070190 -0.374661922454834 0.000000000000000
-9.373184204101562 3.344709873199463 2.474176883697510 0.000000000000000
-15.752307891845703 6.757932186126709 -0.565125823020935 0.000000000000000
-6.583307743072510 2.380838871002197 -0.330861121416092 0.000000000000000
-12.045310020446777 4.543653011322021 3.241920948028564 0.000000000000000
-4.708925247192383 1.742762446403503 1.183338880538940 0.000000000000000
-7.616583824157715 2.992484569549561 2.014072895050049 0.000000000000000
-6.229279041290283 2.404008388519287 -0.171329811215401 0.000000000000000
-22.361911773681641 10.719356536865234 4.304134368896484 0.003921568859369
-10.437812805175781 4.897872447967529 0.395985543727875 0.000000000000000
-12.010660171508789 6.032393932342529 2.295722007751465 0.000000000000000
-8.802016258239746 4.382238388061523 1.656890034675598 0.000000000000000
-8.111908912658691 3.586512804031372 2.198929309844971 0.000000000000000
-14.095731735229492 7.253929138183594 2.723273754119873 0.000000000000000
-4.288380146026611 2.018388509750366 -0.042980283498764 0.000000000000000
-5.945307731628418 2.650720119476318 0.709739387035370 0.000000000000000
-5.932012081146240 2.668684244155884 0.709274828433990 0.000000000000000
-6.679386615753174 3.421275377273560 1.245455384254456 0.000000000000000
-7.910185337066650 3.714993715286255 2.168528556823730 0.000000000000000
-5.236536026000977 2.451090335845947 1.392646789550781 0.000000000000000
-5.396378040313721 2.785927295684814 -0.384790509939194 0.000000000000000
-6.740730285644531 4.028110027313232 0.397192686796188 0.000000000000000
-11.675791740417480 8.027042388916016 3.613005638122559 0.000000000000000
-15.607714653015137 11.183767318725586 4.938065052032471 0.003921568859369
-14.892624855041504 11.039710044860840 4.765682697296143 0.003921568859369
-4.667931079864502 3.564541816711426 1.444649457931519 0.000000000000000
-21.029211044311523 19.767087936401367 5.059331893920898 0.003921568859369
-7.298966407775879 5.578824520111084 0.011286597698927 0.000000000000000
-5.305945396423340 4.156319141387939 0.157754048705101 0.000000000000000
-21.894458770751953 20.455144882202148 3.494892597198486 0.003921568859369
-7.689235210418701 7.760694980621338 0.385135143995285 0.000000000000000
-19.544252395629883 20.790699005126953 2.172845363616943 0.003921568859369
-19.332174301147461 20.848619461059570 4.992397308349609 0.003921568859369
-18.175813674926758 22.078607559204102 0.203818738460541 0.003921568859369
-18.456771850585938 20.305049896240234 2.090065479278564 0.003921568859369
-18.310289382934570 20.573337554931641 2.099468231201172 0.003921568859369
-17.719942092895508 22.140665054321289 0.203328773379326 0.003921568859369
-18.498493194580078 21.100675582885742 2.140105485916138 0.003921568859369
-17.885984420776367 22.681018829345703 -0.458280771970749 0.003921568859369
-16.978302001953125 22.642276763916016 0.208330243825912 0.003921568859369
-16.197084426879883 21.733203887939453 -0.424942851066589 0.003921568859369
-19.342218399047852 21.329515457153320 1.532757759094238 0.003921568859369
-17.912689208984375 21.768377304077148 2.156597852706909 0.003921568859369
-19.375802993774414 21.518272399902344 1.541748046875000 0.003921568859369
-15.902845382690430 21.632829666137695 0.198418483138084 0.003921568859369
-15.703207015991211 21.519588470458984 0.197131693363190 0.003921568859369
-16.848123550415039 23.647796630859375 0.215480998158455 0.003921568859369
-16.313783645629883 23.039756774902344 0.209793940186501 0.003921568859369
-19.420795440673828 22.649776458740234 0.558335840702057 0.003921568859369
-16.615009307861328 23.831865310668945 0.216379284858704 0.003921568859369
-15.421799659729004 22.250158309936523 -0.422298371791840 0.003921568859369
-17.900671005249023 24.248004913330078 2.315900802612305 0.003921568859369
-17.769981384277344 24.253362655639648 2.310604572296143 0.003921568859369
-18.227493286132812 22.808898925781250 0.552223682403564 0.003921568859369
-15.810110092163086 24.465234756469727 0.222882106900215 0.003921568859369
-17.551044464111328 22.104290008544922 1.510960817337036 0.003921568859369
-17.458580017089844 22.968008041381836 1.550009608268738 0.003921568859369
-15.422848701477051 22.431261062622070 2.096751928329468 0.003921568859369
-17.279155731201172 23.056045532226562 0.550488770008087 0.003921568859369
-17.190790176391602 23.418413162231445 7.592523097991943 0.003921568859369
-17.655723571777344 21.924251556396484 0.048817992210388 0.003921568859369
-15.518712997436523 21.263286590576172 0.503746390342712 0.003921568859369
-17.378835678100586 24.423381805419922 0.574633359909058 0.003921568859369
-16.340484619140625 23.101865768432617 3.335762500762939 0.003921568859369
-15.731190681457520 22.564031600952148 0.531064450740814 0.003921568859369
-15.556416511535645 22.302423477172852 1.467016816139221 0.003921568859369
-14.835642814636230 23.832437515258789 2.170702934265137 0.003921568859369
-14.921387672424316 24.728090286254883 2.235026836395264 0.003921568859369
-14.566647529602051 24.712280273437500 2.220906734466553 0.003921568859369
-13.449944496154785 25.818361282348633 0.236571699380875 0.003921568859369
-15.944919586181641 22.708072662353516 0.058426182717085 0.003921568859369
-15.912747383117676 22.831634521484375 0.058814626187086 0.003921568859369
-11.882081985473633 23.969913482666016 -0.396742373704910 0.003921568859369
-15.815233230590820 23.032369613647461 0.059485938400030 0.003921568859369
-15.001508712768555 24.304023742675781 0.558860242366791 0.003921568859369
-12.117637634277344 25.123626708984375 -0.413152217864990 0.003921568859369
-13.583778381347656 24.986886978149414 2.208753824234009 0.003921568859369
-13.555595397949219 25.145769119262695 2.218986988067627 0.003921568859369
-11.284903526306152 23.774663925170898 0.219658762216568 0.003921568859369
-13.164063453674316 24.827571868896484 2.183403015136719 0.003921568859369
-13.054206848144531 24.846916198730469 2.184311628341675 0.003921568859369
-14.085759162902832 24.293605804443359 1.529229283332825 0.003921568859369
-13.361383438110352 26.111724853515625 2.284329175949097 0.003921568859369
-13.788344383239746 24.358446121215820 1.525160431861877 0.003921568859369
-11.020990371704102 21.969436645507812 1.913323521614075 0.003921568859369
-12.578619956970215 22.721866607666016 0.514430940151215 0.003921568859369
-10.174066543579102 23.725036621093750 0.220974668860435 0.003921568859369
-13.894946098327637 25.385774612426758 1.578475236892700 0.003921568859369
-10.112333297729492 23.810842514038086 0.221713766455650 0.003921568859369
-11.163088798522949 23.080451965332031 1.997665047645569 0.003921568859369
-12.170965194702148 25.474662780761719 2.201284885406494 0.003921568859369
-12.242635726928711 22.875362396240234 0.517667353153229 0.003921568859369
-12.083145141601562 25.540824890136719 2.206489562988281 0.003921568859369
-12.177330017089844 22.945030212402344 0.518538296222687 0.003921568859369
-12.231050491333008 26.104433059692383 2.251811742782593 0.003921568859369
-10.530443191528320 22.562492370605469 1.943865060806274 0.003921568859369
-12.721916198730469 24.418161392211914 1.506359100341797 0.003921568859369
-11.046632766723633 23.934797286987305 2.058956861495972 0.003921568859369
-10.335721969604492 22.548713684082031 1.937143206596375 0.003921568859369
-11.706754684448242 22.791349411010742 1.401887297630310 0.003921568859369
-10.164625167846680 22.575534820556641 1.934166073799133 0.003921568859369
-12.816169738769531 25.460626602172852 3.388345003128052 0.003921568859369
-11.563486099243164 23.314376831054688 1.425240278244019 0.003921568859369
-11.463697433471680 26.589941024780273 2.265270233154297 0.003921568859369
-11.899522781372070 24.458442687988281 0.545708298683167 0.003921568859369
-9.002933502197266 24.187364578247070 0.227177903056145 0.003921568859369
-10.563962936401367 24.670661926269531 2.099213361740112 0.003921568859369
-11.868001937866211 24.636182785034180 0.551684081554413 0.003921568859369
-9.742662429809570 22.929965972900391 1.951102614402771 0.003921568859369
-9.575954437255859 22.748010635375977 1.933145761489868 0.003921568859369
-10.555270195007324 25.427240371704102 2.157728195190430 0.003921568859369
-11.318780899047852 24.113990783691406 0.538208425045013 0.003921568859369
-10.882398605346680 26.785890579223633 2.267168283462524 0.003921568859369
-10.476727485656738 25.729230880737305 4.958571910858154 0.003921568859369
-9.740653038024902 24.371595382690430 2.058033466339111 0.003921568859369
-9.632306098937988 24.864316940307617 2.092100143432617 0.003921568859369
-8.385226249694824 25.535661697387695 -0.380924791097641 0.003921568859369
-10.007648468017578 22.662563323974609 1.362955451011658 0.003921568859369
-8.117552757263184 25.645868301391602 0.245480343699455 0.003921568859369
-10.194049835205078 23.804367065429688 3.089579343795776 0.003921568859369
-9.957618713378906 23.480970382690430 0.520659327507019 0.003921568859369
-10.713018417358398 25.312849044799805 3.280752420425415 0.003921568859369
-8.748835563659668 28.460908889770508 -0.418570011854172 0.003921568859369
-8.580558776855469 24.651639938354492 2.053981781005859 0.003921568859369
-6.905605792999268 24.380163192749023 -0.353806197643280 0.003921568859369
-12.166072845458984 27.514139175415039 0.090131632983685 0.003921568859369
-9.640469551086426 25.462726593017578 3.257007122039795 0.003921568859369
-7.394465446472168 23.267549514770508 1.925795793533325 0.003921568859369
-9.537382125854492 28.169294357299805 3.563143968582153 0.003921568859369
-7.057266712188721 24.579616546630859 2.020254373550415 0.003921568859369
-8.408205986022949 25.666536331176758 0.563008606433868 0.003921568859369
-8.378234863281250 25.546779632568359 3.224008798599243 0.003921568859369
-6.736747741699219 24.447500228881836 2.006658554077148 0.003921568859369
-6.252905368804932 28.695354461669922 -0.401323944330215 0.003921568859369
-6.593997478485107 24.985950469970703 2.046023607254028 0.003921568859369
-6.560683250427246 25.207809448242188 2.062722206115723 0.003921568859369
-7.724643230438232 25.998659133911133 3.255722999572754 0.003921568859369
-6.195692062377930 25.257936477661133 2.060931921005249 0.003921568859369
-5.952756881713867 25.894054412841797 2.109320878982544 0.003921568859369
-7.540524959564209 27.964700698852539 0.610689461231232 0.003921568859369
-6.554837703704834 25.232908248901367 3.135580539703369 0.003921568859369
-6.214850902557373 24.197095870971680 1.398362398147583 0.003921568859369
-7.032855033874512 28.008157730102539 0.610395133495331 0.003921568859369
-6.410551548004150 25.390527725219727 1.466225385665894 0.003921568859369
-6.213854312896729 25.413679122924805 1.467670440673828 0.003921568859369
-6.618043422698975 28.029006958007812 1.616474390029907 0.003921568859369
-6.098053455352783 26.135808944702148 1.506551146507263 0.003921568859369
-6.283744812011719 28.445213317871094 -0.731844842433929 0.003921568859369
-5.134343624114990 26.624683380126953 0.581933975219727 0.003921568859369
-1.627188682556152 26.360054016113281 0.270458251237869 0.003921568859369
-1.539817333221436 26.587900161743164 0.274548560380936 0.003921568859369
-1.149610042572021 23.612716674804688 -0.305401265621185 0.003921568859369
-1.156101584434509 26.358657836914062 0.273100525140762 0.003921568859369
-1.075350999832153 26.656356811523438 -0.344498187303543 0.003921568859369
-0.977911233901978 23.178756713867188 0.240640297532082 0.003921568859369
-0.996680736541748 27.163465499877930 0.281832665205002 0.003921568859369
-0.717316985130310 27.644182205200195 -0.356155097484589 0.003921568859369
-0.630086600780487 27.878160476684570 0.290202200412750 0.003921568859369
-0.326634317636490 28.594961166381836 -0.365799456834793 0.003921568859369
-0.986820101737976 27.040111541748047 -0.190006941556931 0.003921568859369
-0.903250098228455 27.542192459106445 -0.193301886320114 0.003921568859369
-1.933749556541443 27.197505950927734 0.599983870983124 0.003921568859369
-0.152040928602219 22.834363937377930 -0.688733160495758 0.003921568859369
-0.016850799322128 28.655218124389648 -0.197213008999825 0.003921568859369
-1.271257400512695 27.297283172607422 0.603187501430511 0.003921568859369
0.623940110206604 24.221097946166992 -0.728029072284698 0.003921568859369
5.101135730743408 29.417053222656250 -0.363511592149734 0.003921568859369
0.563622117042542 6.131875991821289 1.125529885292053 0.000000000000000
1.938142299652100 15.465089797973633 2.839083194732666 0.000000000000000
1.070714950561523 24.544366836547852 0.123189955949783 0.003921568859369
1.109306097030640 11.999808311462402 3.228641271591187 0.000000000000000
1.365325331687927 9.289944648742676 1.715586781501770 0.000000000000000
2.048970699310303 12.693884849548340 2.346653938293457 0.000000000000000
3.141662120819092 25.093957901000977 1.460023880004883 0.003921568859369
0.411212533712387 4.200596809387207 0.098211020231247 0.000000000000000
0.736962199211121 4.752178668975830 0.395552545785904 0.000000000000000
0.739561200141907 4.682392120361328 0.390087127685547 0.000000000000000
2.887459278106689 27.466316223144531 0.144312605261803 0.003921568859369
4.051532745361328 19.734895706176758 3.674991369247437 0.003921568859369
7.235673427581787 27.329021453857422 -0.337229013442993 0.003921568859369
7.609339237213135 27.926816940307617 -0.344868451356888 0.003921568859369
7.729807853698730 27.979995727539062 -0.345648050308228 0.003921568859369
1.955098152160645 9.472757339477539 1.770639657974243 0.000000000000000
2.266950845718384 12.558214187622070 1.568045020103455 0.000000000000000
2.652863740921021 13.957114219665527 0.327143549919128 0.000000000000000
1.959305286407471 10.634690284729004 2.906070232391357 0.000000000000000
1.293856143951416 7.148885726928711 0.168661892414093 0.000000000000000
2.749260902404785 11.248018264770508 2.119524002075195 0.000000000000000
7.339821338653564 28.096612930297852 -0.176391869783401 0.003921568859369
2.123035430908203 10.647599220275879 0.250996202230453 0.000000000000000
2.315239667892456 10.976032257080078 -0.002662888262421 0.003921568859369
2.460790634155273 9.490717887878418 1.797568559646606 0.000000000000000
2.260200977325439 10.364692687988281 0.618592679500580 0.000000000000000
2.693958520889282 10.539504051208496 -0.001453856937587 0.003921568859369
2.167527437210083 8.648313522338867 1.100764393806458 0.000000000000000
7.732522010803223 27.935625076293945 -0.681183516979218 0.003921568859369
1.125179409980774 5.198152542114258 0.031055372208357 0.000000000000000
1.587261319160461 5.666357517242432 0.346576541662216 0.000000000000000
0.777362644672394 3.090307950973511 0.870418906211853 0.000000000000000
3.313175201416016 10.663611412048340 0.260963290929794 0.000000000000000
7.040544986724854 20.301893234252930 5.774957656860352 0.003921568859369
7.130021095275879 20.301681518554688 0.501581549644470 0.003921568859369
7.156068325042725 17.300947189331055 3.429412603378296 0.003921568859369
2.773413181304932 9.331058502197266 0.284716784954071 0.000000000000000
3.909719944000244 9.375740051269531 1.867524743080139 0.000000000000000
6.813674926757812 15.853689193725586 3.162150859832764 0.003921568859369
3.582547426223755 8.465681076049805 0.163263201713562 0.000000000000000
7.768987178802490 17.853515625000000 3.566267728805542 0.003921568859369
2.829260587692261 5.725430965423584 -0.073379732668400 0.000000000000000
0.758269727230072 2.675037384033203 0.017351320013404 0.000000000000000
4.639962196350098 11.702852249145508 0.738457977771759 0.000000000000000
6.800011634826660 14.838876724243164 2.993420600891113 0.003921568859369
2.677170991897583 7.142386913299561 -0.133457943797112 0.000000000000000
10.696067810058594 20.961643218994141 4.310281276702881 0.003921568859369
5.909296989440918 11.337459564208984 2.348804950714111 0.000000000000000
1.939451098442078 4.834568500518799 -0.337191045284271 0.000000000000000
11.178845405578613 20.137205123901367 4.219926834106445 0.003921568859369
11.258778572082520 20.114526748657227 4.223622322082520 0.003921568859369
5.570320129394531 10.019081115722656 0.204503014683723 0.000000000000000
7.075253963470459 14.212913513183594 1.961839318275452 0.003921568859369
3.402326583862305 6.961662769317627 2.099225282669067 0.000000000000000
6.953038215637207 15.548934936523438 -0.296714961528778 0.003921568859369
3.864439249038696 6.143551826477051 1.341103911399841 0.000000000000000
3.825183868408203 6.037501811981201 1.321017265319824 0.000000000000000
1.667741537094116 3.058350801467896 -0.552753627300262 0.003921568859369
8.366138458251953 13.211326599121094 4.215320110321045 0.003921568859369
5.487061977386475 7.579506397247314 2.532141685485840 0.000000000000000
2.583741188049316 3.210828065872192 0.768020451068878 0.000000000000000
2.396080732345581 3.185876607894897 1.090718269348145 0.000000000000000
5.210938453674316 6.099617004394531 1.481005787849426 0.000000000000000
9.914473533630371 11.386308670043945 4.071370124816895 0.000000000000000
8.646924972534180 9.400349617004395 3.446352720260620 0.000000000000000
14.659557342529297 13.980387687683105 3.714959383010864 0.003921568859369
10.591679573059082 9.703472137451172 2.637284040451050 0.000000000000000
7.473767280578613 6.780004501342773 1.856836915016174 0.000000000000000
12.782718658447266 11.134408950805664 3.110433101654053 0.003921568859369
5.849250316619873 4.989487648010254 1.416847467422485 0.000000000000000
7.715757846832275 6.511450290679932 1.856678366661072 0.000000000000000
10.315004348754883 9.513760566711426 3.781985282897949 0.000000000000000
7.909768581390381 6.441490650177002 0.841947138309479 0.000000000000000
7.172315120697021 5.675035476684570 1.681838870048523 0.000000000000000
4.645350456237793 3.780325651168823 0.744942665100098 0.000000000000000
12.101039886474609 8.476227760314941 2.708469867706299 0.000000000000000
4.517376422882080 3.170333623886108 0.228970393538475 0.000000000000000
18.040090560913086 12.332988739013672 4.001204013824463 0.003921568859369
9.026783943176270 6.672693729400635 0.660208225250244 0.000000000000000
6.983169555664062 5.129264354705811 2.336767196655273 0.000000000000000
9.979497909545898 6.337747573852539 2.167818069458008 0.000000000000000
7.364834308624268 4.982079505920410 1.100188255310059 0.000000000000000
7.947036266326904 4.667952060699463 1.690437793731689 0.000000000000000
14.402580261230469 9.198319435119629 4.594139575958252 0.003921568859369
4.035471916198730 2.580720186233521 0.594481647014618 0.000000000000000
5.295387744903564 3.298891067504883 0.772725939750671 0.000000000000000
14.736916542053223 7.891000747680664 3.057492017745972 0.003921568859369
3.084687948226929 1.625938177108765 0.642969369888306 0.000000000000000
4.969810962677002 3.087763309478760 -0.375707298517227 0.000000000000000
12.946174621582031 6.357487678527832 2.636738777160645 0.000000000000000
9.995509147644043 5.487099170684814 3.064011573791504 0.000000000000000
9.735075950622559 5.170395851135254 0.258742243051529 0.000000000000000
4.992219448089600 2.352604627609253 0.453647017478943 0.000000000000000
12.135185241699219 5.644789218902588 2.447222709655762 0.000000000000000
8.104927062988281 4.093632221221924 2.441550731658936 0.000000000000000
14.683852195739746 6.338957786560059 2.921078920364380 0.003921568859369
16.536712646484375 6.592326164245605 1.456694245338440 0.000000000000000
8.225776672363281 3.051458120346069 0.717485904693604 0.000000000000000
8.072353363037109 3.384299039840698 1.076346516609192 0.000000000000000
11.729483604431152 3.573486328125000 0.143574059009552 0.000000000000000
8.276955604553223 2.939476013183594 0.358732342720032 0.000000000000000
11.961050987243652 4.199288845062256 0.222149863839149 0.000000000000000
11.173335075378418 4.502534389495850 0.702742159366608 0.000000000000000
8.168251991271973 3.255501031875610 0.512088537216187 0.000000000000000
10.416400909423828 3.531838178634644 0.448105782270432 0.000000000000000
10.090219497680664 3.385937213897705 0.433613985776901 0.000000000000000
14.775656700134277 5.775651931762695 4.250844478607178 0.003921568859369
9.980267524719238 3.861074209213257 0.249008655548096 0.000000000000000
11.008614540100098 3.651412010192871 0.472530156373978 0.000000000000000
6.597043991088867 2.162621736526489 -0.363839596509933 0.000000000000000
10.232669830322266 3.314925432205200 0.878085494041443 0.000000000000000
11.945757865905762 3.686413526535034 0.509329557418823 0.000000000000000
5.578483581542969 2.265658378601074 0.034589361399412 0.000000000000000
5.826675891876221 1.727386236190796 -0.035648245364428 0.000000000000000
13.526178359985352 4.013776302337646 2.569893836975098 0.000000000000000
6.248459339141846 2.514194011688232 -0.431462645530701 0.000000000000000
9.875907897949219 3.896199226379395 0.308120936155319 0.000000000000000
9.393729209899902 3.668013572692871 -0.646277964115143 0.000000000000000
8.341732978820801 2.319956541061401 0.351833403110504 0.000000000000000
2.549878835678101 0.688165485858917 0.045738290995359 0.000000000000000
7.607199668884277 2.462579250335693 0.464634388685226 0.000000000000000
7.737443447113037 2.475023508071899 0.472068101167679 0.000000000000000
7.966789245605469 2.096242666244507 1.499730825424194 0.000000000000000
7.534307956695557 2.762459278106689 -0.514172554016113 0.000000000000000
11.443267822265625 2.969539642333984 0.963619232177734 0.000000000000000
4.301687240600586 1.521301388740540 -0.185713365674019 0.000000000000000
13.176172256469727 3.270141601562500 2.470069408416748 0.000000000000000
14.867132186889648 4.414648056030273 0.900291562080383 0.000000000000000
7.060267925262451 2.419996976852417 0.215779215097427 0.000000000000000
7.700567722320557 1.825457572937012 0.136804267764091 0.000000000000000
17.251537322998047 4.996119976043701 2.200838804244995 0.003921568859369
3.708163738250732 0.674887478351593 -0.131485909223557 0.000000000000000
7.809206962585449 1.793900012969971 0.324642688035965 0.000000000000000
8.076870918273926 2.214643478393555 -0.001028748578392 0.003921568859369
4.406774997711182 0.962053239345551 0.077777609229088 0.000000000000000
4.779743194580078 1.254883050918579 0.113895833492279 0.000000000000000
12.754053115844727 3.212563991546631 -0.920087695121765 0.000000000000000
5.153223514556885 1.293406009674072 0.647785902023315 0.000000000000000
12.722595214843750 3.157527685165405 -0.917016446590424 0.000000000000000
5.225901126861572 1.025961399078369 -0.278670907020569 0.000000000000000
12.683158874511719 3.100850343704224 -0.913385868072510 0.000000000000000
12.662343025207520 3.051379442214966 -0.911153376102448 0.000000000000000
3.435344696044922 0.648263931274414 0.631332695484161 0.000000000000000
12.657388687133789 3.003572940826416 -0.910039961338043 0.000000000000000
12.667797088623047 2.959471225738525 -0.910045325756073 0.000000000000000
11.678042411804199 2.133400440216064 0.480217397212982 0.000000000000000
12.646941184997559 2.908175945281982 -0.907812952995300 0.000000000000000
12.653125762939453 2.863228559494019 -0.907538592815399 0.000000000000000
11.976689338684082 3.330912351608276 0.358743399381638 0.000000000000000
16.837415695190430 2.896879673004150 -0.102313779294491 0.000000000000000
12.655255317687988 2.817404508590698 -0.906984388828278 0.000000000000000
2.781435728073120 0.464355170726776 -0.081871397793293 0.000000000000000
13.696043968200684 2.306352615356445 -0.083175890147686 0.000000000000000
12.657218933105469 2.771606683731079 -0.906430244445801 0.000000000000000
12.975097656250000 2.841176986694336 0.769411265850067 0.000000000000000
16.077791213989258 2.649000883102417 -0.098555639386177 0.000000000000000
12.653219223022461 2.722397565841675 -0.905555605888367 0.000000000000000
12.666548728942871 2.679180383682251 -0.905842483043671 0.000000000000000
7.649963378906250 1.229475259780884 1.403488159179688 0.000000000000000
12.695355415344238 2.639156341552734 -0.907249093055725 0.000000000000000
12.720126152038574 2.598168134689331 -0.908375799655914 0.000000000000000
7.011288166046143 0.705505728721619 -0.083515301346779 0.000000000000000
12.717382431030273 2.551528215408325 -0.907542705535889 0.000000000000000
12.761443138122559 2.514216899871826 -0.910069108009338 0.000000000000000
6.448832511901855 0.943885385990143 0.527103900909424 0.000000000000000
12.769279479980469 2.474238634109497 -0.910075187683105 0.000000000000000
12.797434806823730 2.433521986007690 -0.911481738090515 0.000000000000000
8.674636840820312 2.088776111602783 0.256333231925964 0.000000000000000
14.941267013549805 2.842169046401978 0.879716455936432 0.000000000000000
5.314762115478516 0.985133469104767 0.123408183455467 0.000000000000000
12.834141731262207 2.389641046524048 -0.913448810577393 0.000000000000000
8.684326171875000 1.614114046096802 2.354014396667480 0.000000000000000
12.854177474975586 2.347129106521606 -0.914295434951782 0.000000000000000
11.540537834167480 1.530121684074402 0.469673216342926 0.000000000000000
10.681501388549805 1.948625445365906 2.896017789840698 0.000000000000000
12.932179450988770 2.319572687149048 -0.919340789318085 0.000000000000000
10.587238311767578 0.848443150520325 -0.619116604328156 0.000000000000000
7.045224189758301 0.909592270851135 0.574788808822632 0.000000000000000
12.144784927368164 0.973708271980286 -0.427330911159515 0.000000000000000
10.538968086242676 1.849133610725403 0.245349228382111 0.000000000000000
12.995610237121582 2.281988859176636 -0.923267364501953 0.000000000000000
8.258485794067383 1.447362780570984 1.022496342658997 0.000000000000000
13.083668708801270 2.251179695129395 -0.929150760173798 0.000000000000000
13.139043807983398 2.211368799209595 -0.932521998882294 0.000000000000000
11.366711616516113 0.789091646671295 -0.399990707635880 0.000000000000000
3.959942102432251 0.452246487140656 0.158921256661415 0.000000000000000
8.941188812255859 1.889743089675903 -0.161566957831383 0.000000000000000
8.388591766357422 1.350366592407227 -0.002779874484986 0.003921568859369
8.362037658691406 1.345881104469299 1.031167745590210 0.000000000000000
5.967935562133789 1.257845878601074 -0.248534217476845 0.000000000000000
8.364141464233398 0.377255231142044 0.094004921615124 0.000000000000000
12.481445312500000 0.522817969322205 0.140656679868698 0.000000000000000
15.902031898498535 1.444575667381287 2.896996974945068 0.003921568859369
15.586802482604980 2.910081863403320 0.086971126496792 0.000000000000000
11.579149246215820 0.965750157833099 0.198101520538330 0.000000000000000
8.798005104064941 1.165272831916809 1.080726861953735 0.000000000000000
9.838525772094727 0.819839537143707 0.798613488674164 0.000000000000000
8.452486991882324 1.508309364318848 0.046227410435677 0.000000000000000
7.041656970977783 0.560009479522705 1.274171471595764 0.000000000000000
5.382640361785889 0.900138795375824 -0.096483938395977 0.000000000000000
10.057664871215820 0.698602378368378 0.814120113849640 0.000000000000000
10.302541732788086 0.645846962928772 -0.063837550580502 0.000000000000000
12.767829895019531 1.427209734916687 0.292562782764435 0.000000000000000
14.672705650329590 0.206042408943176 0.164203479886055 0.000000000000000
10.273468017578125 1.655706167221069 0.297126203775406 0.000000000000000
19.178659439086914 1.204970836639404 3.485136032104492 0.003921568859369
10.823914527893066 0.639125943183899 -0.067062571644783 0.000000000000000
21.564462661743164 2.335258007049561 1.251470446586609 0.003921568859369
11.286250114440918 0.666409313678741 0.913555145263672 0.000000000000000
9.941881179809570 0.552211821079254 -0.522812783718109 0.000000000000000
11.392004966735840 0.632995486259460 0.921971082687378 0.000000000000000
18.142520904541016 1.708743095397949 -0.007056888192892 0.003921568859369
4.422559738159180 0.184134364128113 0.074253767728806 0.000000000000000
9.274229049682617 0.806404292583466 0.533747315406799 0.000000000000000
23.141069412231445 0.888658344745636 4.198794841766357 0.003921568859369
6.418302059173584 0.826551914215088 -0.114859670400620 0.000000000000000
5.219061374664307 0.651217103004456 -0.093197010457516 0.000000000000000
12.296674728393555 0.899475038051605 0.279563456773758 0.000000000000000
11.155969619750977 0.272339284420013 0.188250035047531 0.000000000000000
8.812050819396973 -0.272135347127914 -0.106206655502319 0.000000000000000
3.791667461395264 0.248268499970436 0.084806889295578 0.000000000000000
11.110219001770020 0.195982471108437 0.444572001695633 0.000000000000000
12.503211975097656 0.828988850116730 3.332924604415894 0.000000000000000
17.489830017089844 0.248354330658913 1.414055109024048 0.000000000000000
11.491269111633301 0.123144008219242 -0.337956637144089 0.000000000000000
10.894804000854492 0.646411180496216 0.247210875153542 0.000000000000000
12.103360176086426 0.718506038188934 0.696406364440918 0.000000000000000
10.682214736938477 0.114000469446182 1.929885149002075 0.000000000000000
9.304493904113770 0.067254252731800 -0.058211352676153 0.000000000000000
11.554268836975098 -0.477912813425064 0.128180727362633 0.000000000000000
10.645154953002930 -0.440018683671951 -0.374883502721786 0.000000000000000
10.576295852661133 0.076180614531040 1.910554528236389 0.000000000000000
8.033041000366211 0.419824987649918 -0.375400334596634 0.000000000000000
7.435389995574951 0.387840449810028 1.972710847854614 0.000000000000000
11.999711990356445 0.003683350747451 -0.352985441684723 0.000000000000000
8.993680000305176 0.002603105502203 0.359193861484528 0.000000000000000
12.150754928588867 0.003277991432697 2.196820974349976 0.000000000000000
6.777980804443359 0.307258486747742 0.152221694588661 0.000000000000000
23.727912902832031 -0.236700728535652 1.917931199073792 0.003921568859369
14.022115707397461 0.491092145442963 -0.007528685964644 0.000000000000000
7.019189834594727 -0.459000170230865 0.076867863535881 0.000000000000000
11.711392402648926 -0.199632212519646 0.196599841117859 0.000000000000000
11.673623085021973 0.367680937051773 0.669233798980713 0.000000000000000
14.313029289245605 -0.291637301445007 1.154372572898865 0.000000000000000
11.607187271118164 0.287179470062256 -0.006323793902993 0.003921568859369
14.755395889282227 0.314398050308228 -0.007942984811962 0.000000000000000
3.731836795806885 -0.279476642608643 -0.045027483254671 0.000000000000000
18.753057479858398 -0.512764453887939 0.315906763076782 0.003921568859369
13.586755752563477 -0.371017098426819 0.543046295642853 0.000000000000000
4.724369049072266 -0.144072517752647 0.844479322433472 0.000000000000000
6.832115173339844 0.428029805421829 -0.121948800981045 0.000000000000000
14.050209999084473 -0.481250494718552 -0.088991150259972 0.000000000000000
6.768997669219971 -0.253955930471420 0.112924546003342 0.000000000000000
6.366592884063721 0.046775661408901 -0.003668050514534 0.000000000000000
10.529886245727539 0.589158713817596 0.298929572105408 0.000000000000000
7.542327880859375 -0.309414684772491 0.299980580806732 0.000000000000000
9.284522056579590 0.037937041372061 -0.005821676459163 0.003921568859369
14.278162956237793 -0.734615087509155 0.569960653781891 0.000000000000000
6.936962604522705 -0.019538430497050 -0.323489397764206 0.000000000000000
10.841114044189453 0.457583665847778 -0.194487258791924 0.000000000000000
9.476299285888672 -0.519208252429962 1.707988977432251 0.000000000000000
5.572336673736572 -0.054029278457165 -0.003687650896609 0.000000000000000
6.557547569274902 -0.063783258199692 0.372479170560837 0.000000000000000
3.774219512939453 0.130918845534325 0.018832784146070 0.000000000000000
11.378575325012207 0.363978326320648 0.058688513934612 0.000000000000000
17.357534408569336 -0.287490993738174 0.995222687721252 0.000000000000000
11.908368110656738 -0.775585353374481 0.959405004978180 0.000000000000000
17.640914916992188 -0.479161709547043 1.011758446693420 0.000000000000000
13.913357734680176 -1.055290937423706 2.518908262252808 0.000000000000000
8.883010864257812 0.160605221986771 0.045561034232378 0.000000000000000
13.764753341674805 0.249794244766235 0.389700800180435 0.000000000000000
15.320778846740723 0.222395122051239 0.434056073427200 0.000000000000000
10.940203666687012 -0.372144788503647 0.625443637371063 0.000000000000000
21.027561187744141 -1.810504317283630 1.700325369834900 0.003921568859369
22.710607528686523 -1.956533193588257 4.122046470642090 0.003921568859369
