# This PCD file was generated using the MATLAB® pcwrite function
# from Computer Vision Toolbox®.
# .PCD v.7 - Point Cloud Data file format
VERSION .7
FIELDS x y z intensity
SIZE 8 8 8 8
TYPE F F F F
COUNT 1 1 1 1
WIDTH 644
HEIGHT 1
VIEWPOINT 0 0 0 1 0 0 0
POINTS 644
DATA ascii
-8.701858520507812 -1.732776284217834 -0.269948273897171 0.000000000000000
-9.138154983520508 -2.137269973754883 -0.238146096467972 0.000000000000000
-16.454576492309570 -3.931003808975220 -0.451586663722992 0.000000000000000
-28.627603530883789 -8.234818458557129 1.720380306243896 0.003921568859369
-4.282668113708496 -1.237235784530640 -0.056312441825867 0.000000000000000
-4.418757915496826 -1.084665060043335 -0.079493753612041 0.000000000000000
-10.401308059692383 -2.176053524017334 -0.041438907384872 0.000000000000000
-11.996633529663086 -3.046353578567505 3.147692680358887 0.000000000000000
-6.548113822937012 -1.836927413940430 -0.237893283367157 0.000000000000000
-15.188458442687988 -2.207471847534180 -0.146930187940598 0.000000000000000
-25.461904525756836 -6.315288066864014 6.874000072479248 0.003921568859369
-10.877770423889160 -1.406729698181152 -0.339234858751297 0.000000000000000
-7.288159847259521 -0.889985799789429 -0.061965823173523 0.000000000000000
-11.340611457824707 -1.395677447319031 -0.104722820222378 0.000000000000000
-6.102756023406982 -0.962713241577148 0.236668437719345 0.000000000000000
-13.990624427795410 -2.312526702880859 0.256798893213272 0.000000000000000
-12.575806617736816 -1.899197220802307 -0.049568161368370 0.000000000000000
-12.877469062805176 -2.562263011932373 -0.270958572626114 0.000000000000000
-15.760263442993164 -3.885529756546021 -0.252532660961151 0.000000000000000
-2.928854465484619 -0.355898529291153 0.422638177871704 0.000000000000000
-7.433810234069824 -0.697707474231720 0.094977416098118 0.000000000000000
-19.733306884765625 -3.871612548828125 2.411066770553589 0.003921568859369
-9.414728164672852 -1.781643629074097 2.401044845581055 0.000000000000000
-2.856099605560303 -0.337194353342056 0.408951193094254 0.000000000000000
-9.266433715820312 -1.221731662750244 0.724209368228912 0.000000000000000
-9.227565765380859 -2.014200687408447 -0.138309583067894 0.000000000000000
-2.190639019012451 -0.278128981590271 0.097776420414448 0.003921568859369
-2.813188791275024 -0.346356570720673 0.135405391454697 0.000000000000000
-8.135258674621582 -0.773244261741638 0.147579297423363 0.000000000000000
-12.663122177124023 -1.241554498672485 1.005662679672241 0.000000000000000
-15.013543128967285 -2.034727334976196 -0.313134253025055 0.000000000000000
-2.875111341476440 -0.193262085318565 -0.053593225777149 0.000000000000000
-4.675574302673340 -0.347941815853119 0.339829415082932 0.000000000000000
-2.851838588714600 -0.183661177754402 -0.052901178598404 0.000000000000000
-15.195673942565918 -1.909443736076355 0.024307696148753 0.000000000000000
-7.497133731842041 -0.563161611557007 -0.023241609334946 0.000000000000000
-14.544420242309570 -2.469522476196289 0.431225508451462 0.000000000000000
-7.245119094848633 -0.521426439285278 0.553559899330139 0.000000000000000
-14.132578849792480 -1.013131022453308 0.575182735919952 0.000000000000000
-14.198905944824219 -2.262736082077026 0.101184681057930 0.000000000000000
-7.306360244750977 -0.454131752252579 -0.331955969333649 0.000000000000000
-5.330163478851318 -0.782639205455780 -0.180025190114975 0.000000000000000
-8.490475654602051 -1.282511711120605 0.061677582561970 0.000000000000000
-6.566367149353027 -0.383556216955185 -0.293952494859695 0.000000000000000
-17.808219909667969 -1.892271041870117 1.032241821289062 0.000000000000000
-12.489078521728516 -0.105063803493977 -0.111966967582703 0.000000000000000
-14.238462448120117 -0.735760092735291 0.579800009727478 0.000000000000000
-12.575340270996094 -1.819617629051208 -0.470100134611130 0.000000000000000
-3.182062387466431 -0.000973867718130 -0.134673908352852 0.000000000000000
-19.281074523925781 -0.879797279834747 0.792717456817627 0.003921568859369
-19.148744583129883 -0.814617156982422 1.543572306632996 0.000000000000000
-17.896392822265625 -1.599720954895020 -0.373108834028244 0.000000000000000
-8.927017211914062 -0.337318569421768 0.693645179271698 0.000000000000000
-16.523441314697266 -0.646718978881836 2.923067808151245 0.003921568859369
-18.779327392578125 -0.675008177757263 1.512839674949646 0.000000000000000
-10.454258918762207 -0.329535901546478 -0.491779655218124 0.000000000000000
-19.808660507202148 -0.511730730533600 3.528205394744873 0.003921568859369
-8.207458496093750 -0.864692509174347 0.060504537075758 0.000000000000000
-10.551589965820312 -0.580366373062134 1.237170934677124 0.000000000000000
-9.885251998901367 -0.092118166387081 1.703159213066101 0.000000000000000
-13.076589584350586 -1.287990450859070 0.385805815458298 0.000000000000000
-22.056934356689453 -1.916291356086731 0.159335717558861 0.003921568859369
-8.006151199340820 0.057967744767666 -0.023961357772350 0.000000000000000
-14.472218513488770 0.163972854614258 -0.373049437999725 0.000000000000000
-12.913468360900879 0.143859475851059 -0.044628098607063 0.000000000000000
-11.550896644592285 0.120876051485538 2.011865854263306 0.000000000000000
-14.138393402099609 0.205013841390610 0.264109373092651 0.000000000000000
-3.118431568145752 -0.080576017498970 0.313503652811050 0.000000000000000
-17.331178665161133 0.371596604585648 0.325340330600739 0.003921568859369
-11.693777084350586 0.242970615625381 0.474942833185196 0.000000000000000
-6.694162845611572 -0.144521445035934 0.367975145578384 0.000000000000000
-18.102729797363281 0.509170413017273 -0.065674059092999 0.000000000000000
-2.890488624572754 -0.035685166716576 0.609992027282715 0.000000000000000
-8.769969940185547 -0.075946755707264 -0.358482271432877 0.000000000000000
-16.137739181518555 -0.846408367156982 -0.242079049348831 0.000000000000000
-11.806325912475586 -0.066515505313873 0.024266801774502 0.003921568859369
-6.877310276031494 0.285463362932205 -0.163573369383812 0.000000000000000
-19.270946502685547 0.022295251488686 0.469288885593414 0.000000000000000
-3.113102436065674 0.118071250617504 0.054393593221903 0.000000000000000
-13.018590927124023 0.011304926127195 0.746879339218140 0.000000000000000
-17.395668029785156 0.014328777790070 2.090101480484009 0.003921568859369
-12.228982925415039 0.051836304366589 0.294665575027466 0.000000000000000
-15.413191795349121 0.056918315589428 3.988929986953735 0.000000000000000
-15.243869781494141 -0.547580063343048 0.453102111816406 0.000000000000000
-16.286823272705078 0.234474465250969 0.031896140426397 0.000000000000000
-20.057014465332031 2.269901037216187 -0.638607800006866 0.003921568859369
-4.201060771942139 0.057811312377453 0.966238617897034 0.000000000000000
-14.690875053405762 0.259914308786392 -0.297380298376083 0.000000000000000
-18.343601226806641 2.132816076278687 -0.997301578521729 0.003921568859369
-11.370852470397949 0.231766790151596 0.649197757244110 0.000000000000000
-19.632217407226562 2.287304401397705 -0.624551296234131 0.003921568859369
-18.114479064941406 2.163913488388062 -0.984536707401276 0.003921568859369
-19.350769042968750 2.316257715225220 -0.615264475345612 0.003921568859369
-2.942292928695679 0.287476956844330 -0.123380467295647 0.000000000000000
-19.215236663818359 2.368569850921631 -0.610847055912018 0.003921568859369
-17.263053894042969 2.178982973098755 -0.936732709407806 0.003921568859369
-19.068111419677734 2.415139913558960 -0.606046140193939 0.003921568859369
-17.619445800781250 2.286147594451904 -0.957253277301788 0.003921568859369
-18.936733245849609 2.462847471237183 -0.601775884628296 0.003921568859369
-9.979615211486816 0.819883942604065 0.789116859436035 0.000000000000000
-18.884887695312500 2.517461776733398 -0.600154221057892 0.003921568859369
-11.677405357360840 0.432089984416962 -0.231522575020790 0.000000000000000
-18.791402816772461 2.567496538162231 -0.597815096378326 0.003921568859369
-18.754159927368164 2.629997491836548 -0.596706986427307 0.003921568859369
-3.103065490722656 0.116815477609634 0.068609185516834 0.000000000000000
-3.797305345535278 0.151166036725044 0.196688011288643 0.000000000000000
-18.689960479736328 2.681823015213013 -0.594695031642914 0.003921568859369
-3.756833314895630 0.160622149705887 0.194328829646111 0.000000000000000
-18.612812042236328 2.737716913223267 -0.592272043228149 0.003921568859369
-8.776097297668457 0.424245446920395 2.206204175949097 0.000000000000000
-13.768162727355957 1.337669968605042 2.438985586166382 0.000000000000000
-16.525657653808594 1.678928017616272 -0.056496676057577 0.000000000000000
-10.178982734680176 1.479814648628235 0.138503342866898 0.000000000000000
-18.804698944091797 1.918224453926086 0.785050928592682 0.003921568859369
-4.999421119689941 0.028601482510567 -0.164066314697266 0.000000000000000
-18.592252731323242 2.792337417602539 -0.591720402240753 0.003921568859369
-20.362409591674805 2.165104866027832 -0.996303677558899 0.003921568859369
-18.581380844116211 2.861255407333374 -0.591529786586761 0.003921568859369
-19.748159408569336 2.158283948898315 -0.965236067771912 0.003921568859369
-5.318793296813965 0.063868291676044 -0.176497027277946 0.000000000000000
-18.564399719238281 2.916337490081787 -0.591110885143280 0.003921568859369
-10.473466873168945 0.657261490821838 0.253495842218399 0.000000000000000
-7.374588012695312 0.118041403591633 0.213841989636421 0.000000000000000
-9.266636848449707 1.001493930816650 0.174909546971321 0.000000000000000
-19.363164901733398 2.184225559234619 -0.945860445499420 0.003921568859369
-18.518083572387695 2.976110458374023 -0.589745759963989 0.003921568859369
-18.795793533325195 2.185355663299561 -0.917209088802338 0.003921568859369
-18.538564682006836 3.047008991241455 -0.590617835521698 0.003921568859369
-10.449851036071777 1.210914850234985 0.198296368122101 0.000000000000000
-18.379705429077148 2.197998285293579 -0.896246433258057 0.003921568859369
-18.519926071166992 3.108106851577759 -0.590183436870575 0.003921568859369
-11.736972808837891 0.862076520919800 0.026579989120364 0.003921568859369
-17.924133300781250 2.202704906463623 -0.873274683952332 0.003921568859369
-18.528631210327148 3.174012899398804 -0.590669810771942 0.003921568859369
-11.791657447814941 0.355113267898560 -0.169700980186462 0.000000000000000
-22.192996978759766 1.744600415229797 1.305027484893799 0.003921568859369
-17.750747680664062 2.235216856002808 -0.864650189876556 0.003921568859369
-18.538228988647461 3.233769893646240 -0.591173291206360 0.003921568859369
-18.457542419433594 2.315938234329224 3.319419860839844 0.003921568859369
-14.985137939453125 0.507358372211456 0.448471218347549 0.000000000000000
-17.032213211059570 2.200874805450439 -0.829098582267761 0.003921568859369
-18.572017669677734 3.306625843048096 -0.593200862407684 0.003921568859369
-3.281495094299316 0.360200464725494 0.121228083968163 0.000000000000000
-17.890665054321289 2.380815505981445 -0.873099923133850 0.003921568859369
-18.599048614501953 3.379780530929565 -0.594337880611420 0.003921568859369
-18.586729049682617 2.537780284881592 -0.908834159374237 0.003921568859369
-5.103581428527832 0.403857320547104 0.567194044589996 0.000000000000000
-18.646621704101562 3.450660467147827 -0.596148371696472 0.003921568859369
-18.589607238769531 2.602180242538452 -0.909266114234924 0.003921568859369
-7.008020877838135 0.918070316314697 0.545908987522125 0.000000000000000
-18.689378738403320 3.524279356002808 -0.597818374633789 0.003921568859369
-18.528568267822266 2.660345077514648 -0.906464636325836 0.003921568859369
-18.762582778930664 3.607644319534302 -0.600529730319977 0.003921568859369
-18.251546859741211 2.675712347030640 -0.892606079578400 0.003921568859369
-18.751144409179688 3.664608716964722 -0.600377678871155 0.003921568859369
-12.247276306152344 1.174296021461487 3.159799098968506 0.000000000000000
-13.094300270080566 1.882839918136597 2.331711530685425 0.000000000000000
-8.339997291564941 1.195480704307556 -0.023206718266010 0.000000000000000
-18.324499130249023 2.753213167190552 -0.896660387516022 0.003921568859369
-15.838303565979004 1.658062934875488 0.034989923238754 0.000000000000000
-15.120573997497559 1.577151060104370 0.882953703403473 0.000000000000000
-19.612892150878906 3.013721942901611 0.828159153461456 0.003921568859369
-19.898515701293945 2.176333427429199 -0.860726177692413 0.000000000000000
-19.351381301879883 2.177284479141235 -0.836245059967041 0.000000000000000
-13.259878158569336 2.785974025726318 -0.719072878360748 0.000000000000000
-16.628704071044922 2.714080810546875 0.700754642486572 0.003921568859369
-18.918746948242188 2.194820404052734 -0.816937446594238 0.000000000000000
-20.312486648559570 3.345345497131348 -0.999677538871765 0.003921568859369
-5.586907863616943 0.588280618190765 0.629902839660645 0.000000000000000
-17.451244354248047 3.770852088928223 -0.960443615913391 0.003921568859369
-18.403736114501953 2.192679882049561 -0.793905556201935 0.000000000000000
-11.923509597778320 1.385752558708191 1.426299571990967 0.000000000000000
-7.098339557647705 0.793870449066162 -0.132686346769333 0.000000000000000
-18.187931060791016 2.229714632034302 -0.785125732421875 0.000000000000000
-17.777624130249023 3.036006689071655 -0.871652424335480 0.003921568859369
-5.229544162750244 0.828622460365295 -0.366573542356491 0.000000000000000
-4.565687656402588 0.510364830493927 -0.171345189213753 0.000000000000000
-17.031688690185547 2.196231126785278 -0.733375787734985 0.000000000000000
-18.542289733886719 3.297558307647705 -0.911590158939362 0.003921568859369
-4.569227218627930 0.522316396236420 0.504180014133453 0.000000000000000
-18.492565155029297 2.455785751342773 -0.799445986747742 0.000000000000000
-18.471765518188477 3.349044084548950 -0.908405423164368 0.003921568859369
-14.482899665832520 1.216915845870972 -0.535776317119598 0.000000000000000
-7.849425315856934 1.348429441452026 1.364079594612122 0.000000000000000
-18.602128982543945 2.538079261779785 -0.804620981216431 0.000000000000000
-18.482896804809570 3.418976783752441 -0.909438729286194 0.003921568859369
-4.969642639160156 0.393855720758438 -0.163643807172775 0.000000000000000
-15.564181327819824 2.849962949752808 2.813739061355591 0.000000000000000
-18.577781677246094 2.595416784286499 -0.803744673728943 0.000000000000000
-18.506736755371094 3.485090494155884 -0.911091923713684 0.003921568859369
-10.881985664367676 1.471841335296631 2.807410955429077 0.000000000000000
-11.733723640441895 1.642321228981018 0.028438996523619 0.003921568859369
-18.608123779296875 2.663963556289673 -0.805357933044434 0.000000000000000
-18.188823699951172 3.486768484115601 -0.895240843296051 0.003921568859369
-15.975769042968750 2.266147375106812 1.943739056587219 0.000000000000000
-5.974943161010742 1.055623412132263 1.014546155929565 0.000000000000000
-20.629724502563477 3.029659986495972 1.225097656250000 0.003921568859369
-15.057885169982910 2.238379716873169 0.035241521894932 0.000000000000000
-8.121940612792969 0.786599874496460 0.240128070116043 0.000000000000000
-2.760483741760254 0.334419488906860 0.137474060058594 0.000000000000000
-8.488324165344238 1.246489882469177 -0.348974764347076 0.000000000000000
-18.456281661987305 3.734535217285156 -0.910434007644653 0.003921568859369
-14.535351753234863 2.254591941833496 0.855888485908508 0.000000000000000
-20.359773635864258 3.206258535385132 -0.885602474212646 0.003921568859369
-20.100713729858398 2.193375825881958 -0.756078124046326 0.003921568859369
-10.244549751281738 1.552151918411255 2.641034364700317 0.000000000000000
-20.332679748535156 3.272529125213623 -0.884703993797302 0.003921568859369
-17.648933410644531 3.689563989639282 -0.869923353195190 0.003921568859369
-19.477548599243164 2.189725637435913 -0.731796503067017 0.003921568859369
-19.325130462646484 2.238406181335449 -0.287679374217987 0.003921568859369
-12.968412399291992 2.720000505447388 -0.040377113968134 0.000000000000000
-20.311302185058594 3.341566085815430 -0.884891271591187 0.003921568859369
-17.641712188720703 3.752647876739502 -0.870937645435333 0.003921568859369
-19.023426055908203 2.203408718109131 -0.714847028255463 0.003921568859369
-10.114658355712891 1.168886542320251 -0.589624166488647 0.000000000000000
-20.350685119628906 3.419206619262695 -0.887025296688080 0.003921568859369
-17.624599456787109 3.811213493347168 -0.870583593845367 0.003921568859369
-18.551486968994141 2.210355997085571 -0.696488857269287 0.003921568859369
-9.821751594543457 2.094243526458740 -0.248457074165344 0.000000000000000
-13.879481315612793 2.338274955749512 1.688949227333069 0.000000000000000
-18.214546203613281 2.231165885925293 -0.683422386646271 0.003921568859369
-16.174682617187500 3.533480167388916 2.952664852142334 0.003921568859369
-2.013470888137817 0.177052617073059 -0.015541648492217 0.003921568859369
-8.277074813842773 1.768032550811768 -0.389278858900070 0.000000000000000
-20.414192199707031 4.562876701354980 3.757754802703857 0.003921568859369
-2.040538787841797 0.185927733778954 -0.015963563695550 0.003921568859369
-9.097532272338867 1.130455017089844 0.072519503533840 0.000000000000000
-20.235797882080078 3.607862234115601 -0.882926881313324 0.000000000000000
-5.401831150054932 1.119888544082642 0.419375568628311 0.000000000000000
-18.127616882324219 2.341413497924805 -0.680301785469055 0.003921568859369
-14.142246246337891 1.851433873176575 0.111860349774361 0.000000000000000
-18.475944519042969 3.345159769058228 -0.803525567054749 0.000000000000000
-18.020740509033203 2.385904788970947 -0.676262915134430 0.003921568859369
-4.854627609252930 1.022955060005188 -0.009411675855517 0.000000000000000
-18.468067169189453 3.408264875411987 -0.803539752960205 0.000000000000000
-17.972717285156250 2.441099643707275 -0.674546360969543 0.003921568859369
-12.552936553955078 2.932527303695679 -0.324854880571365 0.000000000000000
-18.467819213867188 3.472879409790039 -0.803910315036774 0.000000000000000
-3.642995595932007 0.741081535816193 -0.150570914149284 0.000000000000000
-17.971984863281250 2.502843379974365 -0.674693405628204 0.003921568859369
-10.423027992248535 1.942156553268433 -0.672710716724396 0.000000000000000
-17.967082977294922 2.564029932022095 -0.674685359001160 0.003921568859369
-17.934299468994141 2.621019363403320 -0.673591911792755 0.003921568859369
-17.905281066894531 2.678423643112183 -0.672654390335083 0.003921568859369
-8.778253555297852 1.290755033493042 -0.121729671955109 0.000000000000000
-5.176231384277344 0.718830227851868 0.042495947331190 0.000000000000000
-8.718562126159668 1.692365407943726 -0.555753111839294 0.000000000000000
-18.433177947998047 3.725195407867432 -0.803972125053406 0.000000000000000
-17.915550231933594 2.741925477981567 -0.673268079757690 0.003921568859369
-6.472511291503906 1.216852664947510 1.625765085220337 0.000000000000000
-15.618866920471191 2.430979728698730 0.124527283012867 0.000000000000000
-6.864798545837402 1.328894257545471 -0.278815299272537 0.000000000000000
-17.852628707885742 2.795501947402954 -0.671739578247070 0.003921568859369
-11.590710639953613 2.943927049636841 -0.299794971942902 0.000000000000000
-17.771991729736328 3.714416027069092 -0.775574862957001 0.000000000000000
-17.866409301757812 2.859641075134277 -0.672511041164398 0.003921568859369
-12.397525787353516 3.154004096984863 2.261798620223999 0.000000000000000
-17.724443435668945 3.763619899749756 -0.773829460144043 0.000000000000000
-17.844997406005859 2.914892196655273 -0.671895623207092 0.003921568859369
-10.598175048828125 2.194617748260498 -0.210470452904701 0.000000000000000
-3.910491943359375 0.566660284996033 0.032642651349306 0.000000000000000
-7.297182559967041 1.151510000228882 0.217802196741104 0.000000000000000
-17.838640213012695 2.975762844085693 -0.671892583370209 0.003921568859369
-17.455764770507812 4.704226493835449 -0.464055031538010 0.000000000000000
-10.525631904602051 1.744949460029602 0.319900661706924 0.000000000000000
-6.966893672943115 1.439923048019409 0.822595417499542 0.000000000000000
-17.851749420166016 3.040100097656250 -0.672664523124695 0.003921568859369
-17.844949722290039 3.101025104522705 -0.672661960124969 0.003921568859369
-5.773961067199707 1.457244753837585 0.999970972537994 0.000000000000000
-7.478596210479736 1.608467698097229 0.185976266860962 0.000000000000000
-6.661297798156738 1.732466697692871 0.535789310932159 0.000000000000000
-17.830078125000000 3.160487651824951 -0.672350227832794 0.003921568859369
-17.854280471801758 3.227247714996338 -0.673586905002594 0.003921568859369
-13.356630325317383 3.084618568420410 -0.883449316024780 0.000000000000000
-17.866451263427734 3.291967868804932 -0.674359142780304 0.003921568859369
-3.618772506713867 0.736468672752380 -0.131849929690361 0.000000000000000
-17.878969192504883 3.353794336318970 -0.675139188766479 0.003921568859369
-17.763849258422852 3.395705938339233 -0.263414055109024 0.003921568859369
-17.901830673217773 3.424108266830444 -0.676367700099945 0.003921568859369
-5.077472686767578 1.108603715896606 1.254604458808899 0.000000000000000
-17.905427932739258 3.487657785415649 -0.676830530166626 0.003921568859369
-13.866373062133789 2.720438003540039 0.428561896085739 0.000000000000000
-17.898973464965820 3.551489591598511 -0.677655637264252 0.003921568859369
-17.159902572631836 3.454937696456909 0.139405250549316 0.000000000000000
-16.280004501342773 3.274037122726440 -0.988254129886627 0.003921568859369
-17.953599929809570 3.622775793075562 -0.680138826370239 0.003921568859369
-9.161371231079102 1.816432476043701 -0.128664493560791 0.000000000000000
-17.964290618896484 3.688361644744873 -0.680912911891937 0.003921568859369
-2.678560972213745 0.628196120262146 0.011127107776701 0.000000000000000
-11.244196891784668 4.389001846313477 -0.368402719497681 0.000000000000000
-2.607475519180298 0.614496529102325 0.010982649400830 0.000000000000000
-8.222957611083984 2.802051782608032 1.511407971382141 0.000000000000000
-9.695100784301758 3.383499145507812 -0.253771305084229 0.000000000000000
-8.124591827392578 2.795883893966675 1.494024634361267 0.000000000000000
-7.878920078277588 1.976581335067749 -0.109409935772419 0.000000000000000
-17.118976593017578 4.547192096710205 -0.255811303853989 0.003921568859369
-7.930393695831299 2.045786142349243 -0.110325068235397 0.000000000000000
-9.464388847351074 2.537935018539429 -0.350012481212616 0.000000000000000
-8.052500724792480 3.380764722824097 -0.259710788726807 0.000000000000000
-6.420978546142578 2.376849412918091 1.174388289451599 0.000000000000000
-6.415832519531250 2.399792909622192 1.175162076950073 0.000000000000000
-6.524621486663818 2.495309114456177 0.285179138183594 0.000000000000000
-7.310776233673096 2.104047298431396 -0.265925228595734 0.000000000000000
-4.388391971588135 1.279202938079834 -0.243060126900673 0.000000000000000
-6.181335449218750 2.561988115310669 1.149204611778259 0.000000000000000
-7.364884853363037 3.134092807769775 0.636837780475616 0.000000000000000
-3.980214595794678 1.631962060928345 0.081770308315754 0.000000000000000
-13.788737297058105 4.856159687042236 -0.864477217197418 0.000000000000000
-10.353420257568359 4.761502742767334 2.020954132080078 0.000000000000000
-11.807264328002930 4.352889060974121 -0.176530972123146 0.000000000000000
-14.288599014282227 6.977862358093262 2.856811761856079 0.000000000000000
-10.224941253662109 4.998054027557373 2.021076679229736 0.000000000000000
-11.973156929016113 5.950050354003906 2.389277458190918 0.000000000000000
-4.767962455749512 1.837988495826721 -0.278890371322632 0.000000000000000
-8.073105812072754 3.467392921447754 -0.311974972486496 0.000000000000000
-22.490411758422852 11.521415710449219 6.717352390289307 0.003921568859369
-6.658362865447998 3.659683227539062 1.326018452644348 0.000000000000000
-11.862453460693359 6.881032466888428 2.458679914474487 0.000000000000000
-9.655728340148926 6.182890892028809 2.048174142837524 0.000000000000000
-4.224407196044922 2.319845199584961 0.016930570825934 0.000000000000000
-3.915687561035156 1.965605020523071 -0.236184209585190 0.000000000000000
-5.409846782684326 3.158077001571655 1.583084702491760 0.000000000000000
-4.326155662536621 2.540798187255859 -0.303443074226379 0.000000000000000
-3.435135602951050 2.176587343215942 0.078948125243187 0.000000000000000
-3.276216030120850 2.219399929046631 0.305527359247208 0.000000000000000
-9.095045089721680 6.928215980529785 0.937135756015778 0.000000000000000
-15.341643333435059 11.965128898620605 5.171857833862305 0.003921568859369
-5.468558788299561 4.588695049285889 -0.838354885578156 0.000000000000000
-20.065067291259766 21.044559478759766 0.420074820518494 0.003921568859369
-20.817609786987305 22.007564544677734 -0.260112524032593 0.003921568859369
-19.847270965576172 21.245136260986328 0.420267820358276 0.003921568859369
-20.470787048339844 22.083608627319336 0.435353636741638 0.003921568859369
-20.456520080566406 22.231117248535156 0.436866343021393 0.003921568859369
-19.935369491577148 22.272850036621094 0.431684404611588 0.003921568859369
-3.190640449523926 3.245068311691284 0.066052749752998 0.000000000000000
-20.249616622924805 21.690696716308594 -0.084385983645916 0.003921568859369
-20.394613265991211 21.844856262207031 0.774198353290558 0.003921568859369
-17.036830902099609 22.846220016479492 0.410618215799332 0.003921568859369
-2.965503692626953 3.486136913299561 0.066485926508904 0.003921568859369
-16.755891799926758 22.792312622070312 0.407683283090591 0.003921568859369
-6.260368824005127 6.060000896453857 0.271518081426620 0.000000000000000
-19.985275268554688 21.411510467529297 0.249198466539383 0.003921568859369
-16.470560073852539 24.497671127319336 0.424085229635239 0.003921568859369
-15.117740631103516 23.308206558227539 0.399334281682968 0.003921568859369
-15.210039138793945 23.637449264526367 0.404045283794403 0.003921568859369
-15.211039543151855 23.840185165405273 -0.248418360948563 0.003921568859369
-19.409992218017578 22.780252456665039 0.253598481416702 0.003921568859369
-17.574096679687500 23.084337234497070 0.748776137828827 0.003921568859369
-14.507209777832031 23.606136322021484 0.396769493818283 0.003921568859369
-14.428710937500000 23.671352386474609 0.397002428770065 0.003921568859369
-16.600090026855469 24.710521697998047 2.493638753890991 0.003921568859369
-14.271971702575684 23.976001739501953 0.399636417627335 0.003921568859369
-16.213657379150391 24.670946121215820 2.473190784454346 0.003921568859369
-16.157701492309570 22.286592483520508 1.664929509162903 0.003921568859369
-16.115688323974609 22.407100677490234 1.668062925338745 0.003921568859369
-14.361382484436035 22.130025863647461 2.207487344741821 0.003921568859369
-14.437932968139648 22.777252197265625 2.257199525833130 0.003921568859369
-14.963925361633301 23.818410873413086 -0.086181379854679 0.003921568859369
-14.283529281616211 22.703584671020508 2.245121955871582 0.003921568859369
-13.343937873840332 23.893754959106445 0.390461891889572 0.003921568859369
-16.224822998046875 23.600143432617188 1.731799125671387 0.003921568859369
-13.913155555725098 22.447946548461914 2.210557222366333 0.003921568859369
-16.704158782958984 24.316827774047852 -0.601684808731079 0.003921568859369
-16.111375808715820 23.608629226684570 1.728417992591858 0.003921568859369
-15.767266273498535 23.266632080078125 1.699541449546814 0.003921568859369
-15.255176544189453 22.661958694458008 1.651724457740784 0.003921568859369
-14.661672592163086 24.265653610229492 2.374397277832031 0.003921568859369
-13.605671882629395 25.407108306884766 0.411174446344376 0.003921568859369
-15.019673347473145 22.827304840087891 1.651003956794739 0.003921568859369
-14.666628837585449 24.874803543090820 2.417564392089844 0.003921568859369
-15.064011573791504 23.073657989501953 1.665085554122925 0.003921568859369
-13.451066970825195 22.938848495483398 2.225339174270630 0.003921568859369
-14.101367950439453 24.269998550415039 2.349799394607544 0.003921568859369
-13.755814552307129 24.058107376098633 -0.086621858179569 0.003921568859369
-14.179530143737793 22.191072463989258 1.591130733489990 0.003921568859369
-12.333946228027344 24.635158538818359 0.391485720872879 0.003921568859369
-14.625000000000000 23.454069137573242 1.670721769332886 0.003921568859369
-14.545621871948242 26.123760223388672 2.504438161849976 0.003921568859369
-15.569709777832031 25.211042404174805 3.691748380661011 0.003921568859369
-13.026530265808105 23.700098037719727 2.264230012893677 0.003921568859369
-12.898634910583496 23.668626785278320 2.256842613220215 0.003921568859369
-15.077683448791504 24.981685638427734 3.635552406311035 0.003921568859369
-11.540225028991699 24.312137603759766 -0.241952031850815 0.003921568859369
-14.912591934204102 24.916547775268555 3.616805315017700 0.003921568859369
-12.398081779479980 23.733942031860352 2.241012334823608 0.003921568859369
-13.288258552551270 25.717861175537109 2.423697471618652 0.003921568859369
-13.462734222412109 23.336109161376953 0.692090749740601 0.003921568859369
-2.874585151672363 4.416961669921875 0.311605811119080 0.000000000000000
-12.323751449584961 23.980758666992188 2.256746292114258 0.003921568859369
-14.335968971252441 25.101696014404297 0.742695987224579 0.003921568859369
-13.028622627258301 25.872941970825195 2.425668239593506 0.003921568859369
-11.679343223571777 23.293539047241211 2.180947780609131 0.003921568859369
-13.005828857421875 23.286354064941406 0.685291707515717 0.003921568859369
-11.612825393676758 23.374263763427734 2.184619903564453 0.003921568859369
-13.668337821960449 25.144327163696289 0.733767747879028 0.003921568859369
-11.464447975158691 23.709127426147461 2.203359603881836 0.003921568859369
-11.811728477478027 25.124639511108398 2.323558092117310 0.003921568859369
-9.690479278564453 23.931339263916016 -0.234165996313095 0.003921568859369
-12.260677337646484 24.084512710571289 1.632290959358215 0.003921568859369
-10.814933776855469 24.756057739257812 2.261409759521484 0.003921568859369
-11.226211547851562 26.010379791259766 2.370474815368652 0.003921568859369
-11.830195426940918 24.291936874389648 1.630757808685303 0.003921568859369
-11.025815963745117 25.782812118530273 2.346349954605103 0.003921568859369
-10.542834281921387 25.595649719238281 2.316452264785767 0.003921568859369
-11.657504081726074 25.756118774414062 1.707027316093445 0.003921568859369
-10.019420623779297 24.042720794677734 -0.540731787681580 0.003921568859369
-7.096727371215820 23.665798187255859 -0.228294715285301 0.003921568859369
-10.294198036193848 25.764787673950195 1.674240708351135 0.003921568859369
-6.798597812652588 26.848546981811523 0.383978366851807 0.003921568859369
-5.653320312500000 23.557861328125000 -0.227704569697380 0.003921568859369
-5.557910442352295 23.135379791259766 0.328683465719223 0.003921568859369
-5.645739555358887 26.535959243774414 -0.256002783775330 0.003921568859369
-5.098715782165527 24.234462738037109 -0.233388185501099 0.003921568859369
-5.726912021636963 27.444078445434570 0.386472314596176 0.003921568859369
-5.416632175445557 27.376951217651367 0.384578734636307 0.003921568859369
-4.642068862915039 23.704240798950195 -0.229259148240089 0.003921568859369
-5.348152160644531 27.599277496337891 0.385700494050980 0.003921568859369
-5.235527515411377 27.494848251342773 -0.266367107629776 0.003921568859369
-6.613157272338867 27.010887145996094 0.703052520751953 0.003921568859369
-5.194642543792725 27.294401168823242 -0.104395821690559 0.003921568859369
-6.093561172485352 26.422939300537109 0.685491502285004 0.003921568859369
-6.113583087921143 26.966815948486328 0.698949635028839 0.003921568859369
-6.523115634918213 28.873386383056641 -0.626324057579041 0.003921568859369
-5.165660858154297 23.335620880126953 -0.504921913146973 0.003921568859369
-5.770136833190918 27.213535308837891 0.703054904937744 0.003921568859369
-5.586277008056641 27.805648803710938 0.715016365051270 0.003921568859369
-5.650176048278809 27.180643081665039 0.214745000004768 0.003921568859369
-0.864151835441589 27.756597518920898 0.373584300279617 0.003921568859369
1.833844065666199 29.884443283081055 -0.301937967538834 0.003921568859369
-0.326054245233536 15.823750495910645 4.269680976867676 0.003921568859369
-0.063778236508369 14.378208160400391 3.879253625869751 0.000000000000000
0.852771103382111 17.739473342895508 3.270414829254150 0.003921568859369
0.166325181722641 5.925132274627686 1.095294117927551 0.000000000000000
3.279133558273315 28.031301498413086 -0.287500560283661 0.003921568859369
2.626389026641846 27.388778686523438 -0.120420262217522 0.003921568859369
3.005790948867798 28.155639648437500 -0.124280631542206 0.003921568859369
0.801984131336212 15.889424324035645 4.294070720672607 0.003921568859369
0.586385548114777 6.347323894500732 0.122938953340054 0.000000000000000
-0.086975455284119 2.009766578674316 0.123079285025597 0.000000000000000
0.749427735805511 8.659852027893066 0.521699607372284 0.000000000000000
2.493082761764526 16.566270828247070 3.086361169815063 0.003921568859369
1.818174123764038 29.600011825561523 0.214392334222794 0.003921568859369
2.353818178176880 15.392892837524414 2.869599342346191 0.000000000000000
1.935202360153198 12.394983291625977 2.314024209976196 0.000000000000000
1.379081726074219 12.540644645690918 3.409232854843140 0.000000000000000
1.490372061729431 8.762093544006348 1.642322897911072 0.000000000000000
1.642474412918091 9.185970306396484 -0.259592205286026 0.000000000000000
0.744165122509003 9.393238067626953 0.069194056093693 0.000000000000000
1.868387222290039 13.054209709167480 1.642657160758972 0.000000000000000
1.807770967483521 9.488820075988770 0.806499660015106 0.000000000000000
3.861858844757080 13.743254661560059 -0.149691089987755 0.000000000000000
2.440810680389404 13.763186454772949 0.834976792335510 0.000000000000000
2.717288017272949 11.845574378967285 1.012485504150391 0.000000000000000
3.293954849243164 17.184778213500977 2.176711797714233 0.003921568859369
2.630519866943359 17.352197647094727 -0.284318178892136 0.003921568859369
1.922551631927490 9.165494918823242 1.168515801429749 0.000000000000000
2.589142560958862 9.820091247558594 1.875895857810974 0.000000000000000
2.683772563934326 15.281174659729004 -0.252299875020981 0.000000000000000
2.886023283004761 16.340539932250977 0.504619419574738 0.003921568859369
1.217187881469727 7.425878524780273 -0.121562615036964 0.000000000000000
2.952759742736816 16.364355087280273 0.505654633045197 0.003921568859369
1.780838251113892 6.729200363159180 0.582770645618439 0.000000000000000
6.278769493103027 25.767000198364258 -0.588509798049927 0.003921568859369
0.332113683223724 2.167568922042847 0.605066180229187 0.000000000000000
5.391484737396240 17.945903778076172 3.450395107269287 0.003921568859369
2.511508941650391 8.532277107238770 1.645487070083618 0.000000000000000
2.679044246673584 10.518984794616699 2.937549591064453 0.000000000000000
1.686445593833923 7.759058952331543 -0.129258036613464 0.000000000000000
5.925175666809082 17.457185745239258 3.394171953201294 0.003921568859369
0.768869102001190 3.897651433944702 0.123270533978939 0.000000000000000
0.939804613590240 3.407228946685791 0.446966826915741 0.000000000000000
3.225473880767822 11.995273590087891 0.376898974180222 0.000000000000000
8.847163200378418 21.356800079345703 4.249837398529053 0.003921568859369
8.923851013183594 21.319908142089844 4.249040126800537 0.003921568859369
5.309299468994141 16.599113464355469 -0.695510089397430 0.003921568859369
3.097232341766357 7.408453941345215 1.486998319625854 0.000000000000000
1.047805070877075 3.538980007171631 -0.147719025611877 0.000000000000000
3.048047542572021 7.961438179016113 2.313428163528442 0.000000000000000
2.105524301528931 4.942004680633545 1.000560760498047 0.000000000000000
1.106844305992126 3.082087993621826 0.004456374794245 0.000000000000000
1.059924364089966 2.941258907318115 0.004334629978985 0.000000000000000
1.058489918708801 2.160424470901489 0.104822941124439 0.000000000000000
12.033144950866699 20.049263000488281 4.294906616210938 0.003921568859369
12.125707626342773 20.043457031250000 4.302754878997803 0.003921568859369
1.603751182556152 3.467622518539429 0.117192484438419 0.000000000000000
7.580604076385498 12.046555519104004 2.619985342025757 0.000000000000000
7.264951705932617 11.383801460266113 2.486798763275146 0.000000000000000
3.973114013671875 6.846254825592041 2.149004697799683 0.000000000000000
4.684372901916504 7.473918437957764 0.524229764938354 0.000000000000000
12.341088294982910 16.882169723510742 3.839884281158447 0.003921568859369
6.278089523315430 8.189145088195801 1.902474761009216 0.000000000000000
3.703464031219482 5.388037681579590 1.777651429176331 0.000000000000000
8.029611587524414 11.375280380249023 3.760172128677368 0.000000000000000
3.634313344955444 4.370112419128418 0.710310757160187 0.000000000000000
7.509895801544189 8.626408576965332 3.088322162628174 0.000000000000000
4.975798130035400 5.076967716217041 1.312905192375183 0.000000000000000
12.036241531372070 10.457266807556152 2.922767877578735 0.003921568859369
13.660589218139648 11.700303077697754 3.295385837554932 0.003921568859369
11.501214981079102 10.504725456237793 1.924163460731506 0.000000000000000
14.013833045959473 11.164596557617188 3.281050920486450 0.003921568859369
1.628499627113342 1.333166718482971 0.089322410523891 0.000000000000000
2.450381755828857 2.136802434921265 0.407813012599945 0.000000000000000
2.506858587265015 2.168354272842407 0.415615230798721 0.000000000000000
1.819797992706299 1.547700643539429 0.301898300647736 0.000000000000000
12.318731307983398 10.112833976745605 4.289861679077148 0.003921568859369
15.623130798339844 11.400041580200195 3.538792610168457 0.003921568859369
14.865393638610840 10.694946289062500 3.351393461227417 0.003921568859369
10.326659202575684 7.442344665527344 3.425170660018921 0.000000000000000
4.233698844909668 2.685963392257690 0.207165524363518 0.000000000000000
4.193676948547363 2.620716333389282 0.408644378185272 0.000000000000000
5.183842182159424 3.230865240097046 1.123747229576111 0.000000000000000
13.928465843200684 8.958577156066895 4.449810981750488 0.003921568859369
6.711135864257812 4.229921340942383 2.137643098831177 0.000000000000000
12.701156616210938 7.015227794647217 2.652471542358398 0.000000000000000
16.313858032226562 8.790085792541504 3.385761022567749 0.003921568859369
9.994985580444336 5.992716789245605 3.132437705993652 0.000000000000000
7.935063838958740 4.724667072296143 2.484282255172729 0.000000000000000
7.425163269042969 3.812660694122314 1.528728842735291 0.000000000000000
7.811442375183105 3.734488725662231 1.583807110786438 0.000000000000000
13.955979347229004 6.367289543151855 2.802054882049561 0.000000000000000
5.593967914581299 2.820553779602051 1.683595776557922 0.000000000000000
7.776573657989502 3.418956518173218 0.347019940614700 0.000000000000000
2.763148784637451 1.208602547645569 0.247874513268471 0.000000000000000
9.617280006408691 4.186003208160400 1.915845751762390 0.000000000000000
4.300802707672119 1.614368438720703 -0.268433153629303 0.000000000000000
9.906813621520996 4.272905826568604 0.440471529960632 0.000000000000000
7.289070606231689 3.146103858947754 -0.416824698448181 0.000000000000000
9.182714462280273 3.961138963699341 0.818059086799622 0.000000000000000
4.775987148284912 1.698118805885315 -0.296121716499329 0.000000000000000
5.919164180755615 2.700632333755493 0.800054371356964 0.000000000000000
4.118749141693115 1.350143909454346 -0.050493951886892 0.000000000000000
6.915215492248535 3.010986566543579 0.927278220653534 0.000000000000000
9.086220741271973 3.436980724334717 1.772947549819946 0.000000000000000
9.395416259765625 3.328939437866211 0.406095892190933 0.000000000000000
7.804647922515869 2.704128980636597 1.505981087684631 0.000000000000000
6.499664783477783 1.828196525573730 -0.235781013965607 0.000000000000000
6.502333641052246 2.151704072952271 -0.199328333139420 0.000000000000000
8.295127868652344 2.652101278305054 0.354804694652557 0.000000000000000
9.668119430541992 3.091071367263794 0.828615844249725 0.000000000000000
7.374604701995850 2.730879545211792 -0.000000000000189 0.000000000000000
10.556382179260254 3.909118890762329 0.655575692653656 0.000000000000000
7.877330780029297 2.486739873886108 0.674348771572113 0.000000000000000
12.959341049194336 3.307924747467041 -0.778328716754913 0.000000000000000
12.920465469360352 3.250033378601074 -0.775303304195404 0.000000000000000
12.943359375000000 3.207832813262939 -0.775998115539551 0.000000000000000
12.904599189758301 3.148092985153198 -0.772972524166107 0.000000000000000
12.896096229553223 3.098397493362427 -0.771807312965393 0.000000000000000
12.906832695007324 3.053400039672852 -0.771804571151733 0.000000000000000
12.897441864013672 3.006076335906982 -0.770639419555664 0.000000000000000
12.830018043518066 2.943198680877686 -0.765986502170563 0.000000000000000
6.518926620483398 1.833368062973022 0.275464385747910 0.000000000000000
12.824634552001953 2.894906759262085 -0.765053868293762 0.000000000000000
12.888233184814453 2.866783142089844 -0.768306434154510 0.000000000000000
12.855252265930176 2.812425851821899 -0.765746235847473 0.000000000000000
12.837664604187012 2.761683702468872 -0.764115989208221 0.000000000000000
12.872661590576172 2.720112800598145 -0.764977276325226 0.000000000000000
8.769877433776855 2.303828477859497 0.368619799613953 0.000000000000000
8.669155120849609 2.735661745071411 1.113808512687683 0.000000000000000
12.921173095703125 2.683364152908325 -0.767296373844147 0.000000000000000
12.891338348388672 2.630315065383911 -0.764966547489166 0.000000000000000
12.900439262390137 2.585370779037476 -0.764961183071136 0.000000000000000
12.940728187561035 2.546565771102905 -0.766815364360809 0.000000000000000
3.200164318084717 0.790247738361359 0.133383780717850 0.000000000000000
9.603713989257812 2.884645462036133 1.228883266448975 0.000000000000000
5.710432529449463 2.020895957946777 -0.246180817484856 0.000000000000000
12.937776565551758 2.499174356460571 -0.766112685203552 0.000000000000000
12.946419715881348 2.454069137573242 -0.766107320785522 0.000000000000000
12.985892295837402 2.417038679122925 -0.767961800098419 0.000000000000000
7.390308856964111 2.532205581665039 -0.317635387182236 0.000000000000000
4.043408393859863 0.955882370471954 0.753954231739044 0.000000000000000
13.021746635437012 2.376784801483154 -0.769583582878113 0.000000000000000
7.640592098236084 2.179639577865601 0.461556136608124 0.000000000000000
13.022102355957031 2.329985141754150 -0.769113302230835 0.000000000000000
11.268383979797363 3.174653530120850 0.680695056915283 0.000000000000000
13.053754806518555 2.288723707199097 -0.770502567291260 0.000000000000000
13.495450973510742 3.051567077636719 -0.723993360996246 0.000000000000000
9.100996017456055 2.023268222808838 -0.270753115415573 0.000000000000000
13.108888626098633 2.251336336135864 -0.773286461830139 0.000000000000000
13.494320869445801 3.001905679702759 -0.723359942436218 0.000000000000000
6.821834564208984 1.515729665756226 1.270613074302673 0.000000000000000
13.138298034667969 2.207535982131958 -0.773877978324890 0.000000000000000
13.479426383972168 2.947070598602295 -0.721402585506439 0.000000000000000
12.565990447998047 3.349512577056885 -0.907320201396942 0.000000000000000
13.216845512390137 2.173446893692017 -0.778052568435669 0.000000000000000
13.509155273437500 2.904305696487427 -0.722440063953400 0.000000000000000
12.558887481689453 3.298465490341187 -0.905917286872864 0.000000000000000
13.394247055053711 2.152397632598877 -0.788035869598389 0.000000000000000
13.500168800354004 2.850748777389526 -0.721385300159454 0.000000000000000
7.230105876922607 1.871724247932434 -0.000082631042460 0.000000000000000
12.607806205749512 3.269124984741211 -0.908699095249176 0.000000000000000
19.738977432250977 6.164982318878174 0.601154863834381 0.003921568859369
13.669163703918457 2.152727842330933 -0.803829312324524 0.000000000000000
13.501235008239746 2.806787967681885 -0.720959305763245 0.000000000000000
13.216788291931152 3.427860498428345 1.673130154609680 0.000000000000000
12.426420211791992 3.173530578613281 -0.894745647907257 0.000000000000000
2.962646245956421 0.600204527378082 -0.244610592722893 0.000000000000000
11.513288497924805 3.546071290969849 0.349746286869049 0.000000000000000
13.894029617309570 2.136162519454956 -0.816600501537323 0.000000000000000
13.515344619750977 2.758195638656616 -0.721159636974335 0.000000000000000
12.449028968811035 3.133162260055542 -0.895574390888214 0.000000000000000
14.110687255859375 2.119240760803223 -0.828907072544098 0.000000000000000
13.544470787048340 2.715033292770386 -0.722197175025940 0.000000000000000
14.763038635253906 2.960425615310669 2.740337848663330 0.000000000000000
13.636528015136719 3.384742736816406 -0.980351269245148 0.000000000000000
13.553400993347168 2.670196771621704 -0.722189128398895 0.000000000000000
12.702606201171875 3.105520725250244 -0.912292599678040 0.000000000000000
13.590088844299316 2.628288984298706 -0.723645031452179 0.000000000000000
7.005274295806885 1.327014446258545 -0.206669420003891 0.000000000000000
12.468996047973633 3.002301454544067 -0.894714474678040 0.000000000000000
13.614874839782715 2.583931684494019 -0.724473237991333 0.000000000000000
12.525983810424805 2.969927310943604 -0.898053228855133 0.000000000000000
13.643445968627930 2.540152788162231 -0.725510716438293 0.000000000000000
11.384752273559570 1.509003877639771 -0.133074939250946 0.000000000000000
12.489650726318359 2.915383577346802 -0.894698739051819 0.000000000000000
13.715098381042480 2.504119873046875 -0.728848993778229 0.000000000000000
5.375643253326416 1.251299142837524 0.674062311649323 0.000000000000000
13.596310615539551 3.124366521835327 -0.973335981369019 0.000000000000000
6.447504043579102 1.812682271003723 0.193960934877396 0.000000000000000
2.951720476150513 0.673364400863647 0.174445182085037 0.000000000000000
13.676574707031250 2.447867155075073 -0.726330518722534 0.000000000000000
13.636424064636230 3.081297874450684 -0.974657118320465 0.000000000000000
13.738128662109375 2.407730579376221 -0.728518843650818 0.000000000000000
9.785906791687012 1.191556811332703 -0.114025242626667 0.000000000000000
12.529319763183594 2.784664392471313 -0.894621610641479 0.000000000000000
13.797623634338379 2.368716001510620 -0.731225907802582 0.000000000000000
12.538485527038574 2.743226766586304 -0.894611656665802 0.000000000000000
4.125577926635742 1.109050631523132 0.122974969446659 0.000000000000000
9.271560668945312 1.992612123489380 -0.660389780998230 0.000000000000000
9.749133110046387 1.604421496391296 1.794602870941162 0.000000000000000
18.176921844482422 2.027604818344116 -0.211533948779106 0.003921568859369
12.557330131530762 2.655898094177246 -0.894590735435486 0.000000000000000
9.661519050598145 2.502809047698975 -0.173554837703705 0.000000000000000
7.025781631469727 0.756687939167023 0.081925161182880 0.000000000000000
12.414179801940918 2.580421686172485 -0.883706450462341 0.000000000000000
12.753314018249512 3.306681156158447 -0.841814339160919 0.000000000000000
12.575564384460449 2.568439960479736 -0.894569873809814 0.000000000000000
12.807312011718750 3.273185253143311 -0.844615817070007 0.000000000000000
6.153975963592529 0.944748520851135 0.505094945430756 0.000000000000000
10.710412025451660 1.648603439331055 1.969034910202026 0.000000000000000
8.613941192626953 1.293810009956360 -0.050249122083187 0.000000000000000
12.584452629089355 2.524666786193848 -0.894559442996979 0.000000000000000
12.834140777587891 3.232509374618530 -0.845627605915070 0.000000000000000
10.233608245849609 1.538551211357117 1.880044698715210 0.000000000000000
12.593620300292969 2.478672027587891 -0.894548535346985 0.000000000000000
