# This PCD file was generated using the MATLAB® pcwrite function
# from Computer Vision Toolbox®.
# .PCD v.7 - Point Cloud Data file format
VERSION .7
FIELDS x y z intensity
SIZE 8 8 8 8
TYPE F F F F
COUNT 1 1 1 1
WIDTH 648
HEIGHT 1
VIEWPOINT 0 0 0 1 0 0 0
POINTS 648
DATA ascii
-12.198961257934570 4.333242893218994 3.362807512283325 0.000000000000000
-7.478694915771484 2.992608547210693 1.395609974861145 0.000000000000000
-6.520671844482422 2.288155555725098 0.391565352678299 0.000000000000000
-8.896180152893066 3.714727878570557 1.689654946327209 0.000000000000000
-6.179517745971680 2.250207185745239 0.762361824512482 0.000000000000000
-8.806129455566406 3.780423641204834 1.679207563400269 0.000000000000000
-6.513464450836182 2.777904272079468 1.217474937438965 0.000000000000000
-6.755893707275391 2.206818103790283 0.211894869804382 0.000000000000000
-6.093507289886475 2.608040332794189 1.133947849273682 0.000000000000000
-11.197141647338867 4.336010932922363 -0.438584625720978 0.000000000000000
-11.385437965393066 4.640812873840332 0.097841218113899 0.000000000000000
-13.118200302124023 6.137540340423584 3.784706115722656 0.000000000000000
-7.144904136657715 2.936269521713257 -0.106736645102501 0.000000000000000
-6.905550479888916 4.671141624450684 -0.400677323341370 0.000000000000000
-7.536643505096436 4.883551597595215 2.310056924819946 0.000000000000000
-3.761495828628540 2.371619224548340 0.126903086900711 0.000000000000000
-6.742899894714355 5.174081802368164 0.248246014118195 0.000000000000000
-19.255271911621094 22.481595993041992 2.403700113296509 0.003921568859369
-19.502759933471680 22.939664840698242 2.445152521133423 0.003921568859369
-19.375461578369141 22.957075119018555 2.439270019531250 0.003921568859369
-19.065425872802734 22.742301940917969 2.409265756607056 0.003921568859369
-20.303138732910156 22.278125762939453 1.751806378364563 0.003921568859369
-4.429704189300537 4.933563709259033 0.522968888282776 0.000000000000000
-18.997371673583984 23.141271591186523 2.430182933807373 0.003921568859369
-18.717887878417969 22.956352233886719 2.403781175613403 0.003921568859369
-19.898666381835938 22.431758880615234 1.741682052612305 0.003921568859369
-19.154844284057617 22.370077133178711 1.708936095237732 0.003921568859369
-17.200166702270508 22.632053375244141 2.304173946380615 0.003921568859369
-17.542411804199219 23.434469223022461 2.372914552688599 0.003921568859369
-16.005565643310547 24.038715362548828 0.333151519298553 0.003921568859369
-18.595338821411133 22.811393737792969 1.706101894378662 0.003921568859369
-17.318460464477539 23.478607177734375 2.364481925964355 0.003921568859369
-18.395778656005859 22.714868545532227 1.694159388542175 0.003921568859369
-18.693668365478516 23.270671844482422 1.729947686195374 0.003921568859369
-18.452800750732422 23.129558563232422 1.714506268501282 0.003921568859369
-16.540111541748047 23.065736770629883 2.299202203750610 0.003921568859369
-16.635208129882812 23.915023803710938 2.359475374221802 0.003921568859369
-16.650218963623047 24.476154327392578 2.397273778915405 0.003921568859369
-14.559169769287109 23.944612503051758 0.319917351007462 0.003921568859369
-16.779403686523438 24.859069824218750 2.428813934326172 0.003921568859369
-16.522567749023438 24.655612945556641 2.403172731399536 0.003921568859369
-16.135526657104492 24.448839187622070 2.371452808380127 0.003921568859369
-16.065107345581055 24.527101516723633 2.373438119888306 0.003921568859369
-15.994343757629395 24.605159759521484 2.375422716140747 0.003921568859369
-14.377999305725098 22.555477142333984 -0.773932993412018 0.003921568859369
-16.837942123413086 23.855829238891602 1.687966108322144 0.003921568859369
-15.378281593322754 24.378545761108398 2.332082986831665 0.003921568859369
-13.162241935729980 23.425432205200195 0.304212778806686 0.003921568859369
-17.029584884643555 24.498718261718750 1.724531769752502 0.003921568859369
-15.227169036865234 24.689464569091797 2.346510171890259 0.003921568859369
-15.245336532592773 25.132202148437500 2.377870798110962 0.003921568859369
-16.189947128295898 24.154218673706055 1.679440855979919 0.003921568859369
-15.143425941467285 25.159772872924805 2.375321149826050 0.003921568859369
-17.716808319091797 24.205259323120117 0.175464466214180 0.003921568859369
-14.314020156860352 24.114793777465820 -0.166667059063911 0.003921568859369
-15.160546302795410 25.597124099731445 2.406209468841553 0.003921568859369
-14.582331657409668 24.995483398437500 2.339845657348633 0.003921568859369
-15.660072326660156 25.213941574096680 1.712334871292114 0.003921568859369
-15.539085388183594 25.023952484130859 3.586625337600708 0.003921568859369
-11.196259498596191 26.500526428222656 0.317790180444717 0.003921568859369
-10.893596649169922 26.294885635375977 0.313942819833755 0.003921568859369
-10.620794296264648 27.267545700073242 0.321551918983459 0.003921568859369
-8.460966110229492 22.962612152099609 -0.298698693513870 0.003921568859369
-9.894927024841309 23.330772399902344 -0.159418910741806 0.003921568859369
-10.006369590759277 27.359066009521484 0.318731248378754 0.003921568859369
-8.739007949829102 24.293020248413086 -0.315862387418747 0.003921568859369
-11.229734420776367 27.144271850585938 -0.186010450124741 0.003921568859369
-9.921566963195801 28.052888870239258 0.324811667203903 0.003921568859369
-10.677469253540039 26.566415786743164 -0.181939542293549 0.003921568859369
-10.824440956115723 27.239080429077148 -0.186413407325745 0.003921568859369
-10.082467079162598 23.112846374511719 0.571199774742126 0.003921568859369
-8.799564361572266 23.676647186279297 -0.161547899246216 0.003921568859369
-9.847475051879883 23.231800079345703 0.571030974388123 0.003921568859369
-1.727005958557129 4.061799049377441 0.174453377723694 0.000000000000000
-7.725419044494629 24.081829071044922 2.037747383117676 0.003921568859369
-9.854031562805176 27.242856979370117 0.652845799922943 0.003921568859369
-9.793279647827148 27.404430389404297 0.655971765518188 0.003921568859369
-5.665725708007812 28.388189315795898 0.309558570384979 0.003921568859369
-5.414714813232422 27.664964675903320 0.629651784896851 0.003921568859369
-1.247454881668091 5.453451156616211 0.125846236944199 0.000000000000000
-1.300728559494019 10.807001113891602 1.968654394149780 0.000000000000000
-1.884679317474365 20.235288619995117 -0.138307765126228 0.003921568859369
-4.667311668395996 28.686283111572266 0.142672985792160 0.003921568859369
-1.762157678604126 27.369218826293945 -0.187903985381126 0.003921568859369
-0.587781667709351 5.709169864654541 0.228811174631119 0.000000000000000
-1.518303394317627 12.793630599975586 3.431024551391602 0.000000000000000
-1.299903273582458 27.826225280761719 -0.191667929291725 0.003921568859369
-0.041766077280045 12.653220176696777 -0.160183191299438 0.000000000000000
-0.430858403444290 9.096588134765625 0.362465500831604 0.000000000000000
-0.797269523143768 7.907584190368652 2.116092205047607 0.000000000000000
0.008003175258636 6.761692523956299 0.072784781455994 0.000000000000000
-0.259336024522781 14.290550231933594 1.151969194412231 0.000000000000000
-0.283808380365372 3.696622848510742 0.671714782714844 0.000000000000000
-0.222703158855438 11.099981307983398 2.012507200241089 0.000000000000000
-0.218720227479935 6.577410221099854 1.193590521812439 0.000000000000000
-0.460706233978271 6.118181705474854 -0.004471359774470 0.000000000000000
0.164861649274826 10.957225799560547 1.988095998764038 0.000000000000000
-0.308098733425140 5.902362346649170 1.576441168785095 0.000000000000000
0.295023351907730 12.030973434448242 2.183293342590332 0.000000000000000
-0.241089522838593 13.185476303100586 0.294422656297684 0.000000000000000
-1.489309191703796 28.070123672485352 0.136164739727974 0.003921568859369
-0.237182989716530 3.927621364593506 0.089150846004486 0.000000000000000
0.324580878019333 10.244358062744141 1.860604643821716 0.000000000000000
0.397090941667557 10.290668487548828 -0.069930605590343 0.000000000000000
1.493890762329102 25.799648284912109 -0.178672537207603 0.003921568859369
1.226264357566833 11.660043716430664 0.124314241111279 0.000000000000000
0.944526076316833 14.117845535278320 2.568034887313843 0.000000000000000
0.492190212011337 8.511402130126953 1.549474835395813 0.000000000000000
0.085936635732651 7.342232704162598 0.896154642105103 0.000000000000000
1.104566812515259 14.131658554077148 2.573385477066040 0.000000000000000
0.448662281036377 9.898008346557617 1.208908796310425 0.000000000000000
0.615342378616333 11.656603813171387 0.669337034225464 0.000000000000000
1.271360874176025 11.950587272644043 2.183751821517944 0.000000000000000
1.045874118804932 15.837598800659180 1.934601545333862 0.003921568859369
1.577718734741211 13.931023597717285 2.546490907669067 0.000000000000000
0.824150979518890 7.568813800811768 -0.229496866464615 0.000000000000000
1.210929393768311 14.651669502258301 -0.014654499478638 0.000000000000000
1.247978448867798 7.511373996734619 -0.096597030758858 0.000000000000000
1.769431591033936 13.507807731628418 2.475530385971069 0.000000000000000
0.246311008930206 4.834908485412598 -0.003584566758946 0.000000000000000
1.358824968338013 15.577621459960938 0.348632127046585 0.000000000000000
1.120729446411133 12.473189353942871 -0.012336014769971 0.000000000000000
1.276271581649780 8.949503898620605 0.732146620750427 0.000000000000000
0.970683991909027 10.099119186401367 2.715098619461060 0.000000000000000
2.006431102752686 12.384170532226562 0.206996515393257 0.000000000000000
0.503667533397675 4.113232612609863 0.758933842182159 0.000000000000000
0.471886634826660 3.720304012298584 -0.024623438715935 0.000000000000000
1.915968060493469 15.166704177856445 1.865365743637085 0.000000000000000
1.633225798606873 12.269890785217285 -0.012192427180707 0.000000000000000
2.170531511306763 11.860448837280273 2.193885803222656 0.000000000000000
0.175453707575798 3.929691076278687 -0.071474857628345 0.000000000000000
0.633895337581635 5.607112884521484 0.325838088989258 0.000000000000000
0.564390897750854 7.121723175048828 -0.131133601069450 0.000000000000000
1.716507434844971 12.001974105834961 -0.294990330934525 0.000000000000000
1.962811350822449 13.194802284240723 1.628870487213135 0.000000000000000
1.491992712020874 10.099668502807617 0.228894770145416 0.000000000000000
1.560637235641479 10.304434776306152 0.599299430847168 0.000000000000000
1.131265759468079 7.514505386352539 2.038983583450317 0.000000000000000
1.936493039131165 9.331536293029785 1.737118482589722 0.000000000000000
1.125819683074951 9.827100753784180 0.279802381992340 0.000000000000000
0.919487833976746 8.127964973449707 0.231797754764557 0.000000000000000
1.171084165573120 9.208441734313965 -0.170941889286041 0.000000000000000
0.432898223400116 4.372319698333740 0.125607579946518 0.000000000000000
2.106459379196167 9.192927360534668 1.719863414764404 0.000000000000000
2.234505891799927 11.744401931762695 0.687054753303528 0.000000000000000
2.862010002136230 18.096170425415039 -0.337963879108429 0.003921568859369
1.407258868217468 9.566658973693848 0.273875921964645 0.000000000000000
1.559681534767151 7.227291584014893 1.987377047538757 0.000000000000000
2.025067567825317 11.300926208496094 -0.211779460310936 0.000000000000000
3.965378999710083 13.820340156555176 2.617732286453247 0.000000000000000
4.593937873840332 15.686085700988770 2.974219560623169 0.003921568859369
3.577910900115967 14.703221321105957 1.849721312522888 0.000000000000000
6.672492980957031 21.624645233154297 4.114015579223633 0.003921568859369
1.415301799774170 6.058877468109131 0.360212773084641 0.000000000000000
2.173694133758545 9.829750061035156 -0.421138554811478 0.000000000000000
2.045705795288086 8.987369537353516 0.261835336685181 0.000000000000000
1.615336537361145 5.857554912567139 1.638113498687744 0.000000000000000
5.018292903900146 9.759819030761719 2.006624221801758 0.000000000000000
7.658618450164795 14.475605010986328 2.986910820007324 0.003921568859369
3.998368740081787 7.586475849151611 1.571786522865295 0.000000000000000
2.733757257461548 6.631870746612549 -0.299796313047409 0.000000000000000
11.042154312133789 20.035341262817383 4.167106628417969 0.003921568859369
11.127848625183105 20.032354354858398 4.174241542816162 0.003921568859369
11.224926948547363 20.040710449218750 4.184232711791992 0.003921568859369
11.216521263122559 19.864246368408203 4.155655384063721 0.003921568859369
5.216207027435303 10.377909660339355 3.123082160949707 0.000000000000000
5.319789886474609 9.421457290649414 1.979364275932312 0.000000000000000
13.294869422912598 22.930999755859375 4.826299667358398 0.003921568859369
10.230093955993652 17.022991180419922 3.620643854141235 0.003921568859369
4.847315788269043 8.669765472412109 1.222097516059875 0.000000000000000
3.826937913894653 6.901926040649414 2.129475355148315 0.000000000000000
15.029538154602051 23.569480895996094 5.090525627136230 0.003921568859369
8.287641525268555 12.907528877258301 2.800743341445923 0.000000000000000
4.171691417694092 7.318138599395752 2.271927118301392 0.000000000000000
4.113903045654297 6.476362705230713 1.409016966819763 0.000000000000000
14.089900970458984 22.974931716918945 7.222000122070312 0.003921568859369
7.730039596557617 12.044621467590332 3.845760822296143 0.000000000000000
16.137434005737305 24.315303802490234 3.573201179504395 0.003921568859369
3.175570964813232 4.839664459228516 0.716788113117218 0.000000000000000
3.055620670318604 4.207780838012695 0.960029959678650 0.000000000000000
5.403722763061523 8.036978721618652 2.609257459640503 0.000000000000000
17.245836257934570 22.584667205810547 -0.847938954830170 0.003921568859369
4.640048027038574 6.877922058105469 1.023177266120911 0.000000000000000
17.910184860229492 22.627904891967773 -0.861141502857208 0.003921568859369
17.184406280517578 22.655017852783203 -0.680663764476776 0.003921568859369
19.085605621337891 22.594964981079102 -0.881040692329407 0.003921568859369
3.118877172470093 3.599344015121460 0.392953246831894 0.000000000000000
4.899269580841064 5.944400787353516 0.951110303401947 0.000000000000000
12.620402336120605 14.158392906188965 2.327981233596802 0.003921568859369
7.864911079406738 7.819935321807861 0.906342446804047 0.000000000000000
9.251543045043945 8.980162620544434 2.357733011245728 0.000000000000000
6.095324039459229 6.514144420623779 2.404278516769409 0.000000000000000
8.046854972839355 7.768657207489014 2.047163009643555 0.000000000000000
7.810515403747559 8.032416343688965 1.379095077514648 0.000000000000000
6.951075077056885 7.112236976623535 1.225167632102966 0.000000000000000
9.747977256774902 8.885816574096680 2.412157773971558 0.000000000000000
9.163160324096680 8.829913139343262 1.565171957015991 0.000000000000000
8.066719055175781 7.678089141845703 1.370865702629089 0.000000000000000
3.139166593551636 2.995654582977295 0.539207220077515 0.000000000000000
3.201627016067505 3.033377408981323 0.547952651977539 0.000000000000000
11.388786315917969 9.587805747985840 2.720581531524658 0.000000000000000
14.368521690368652 11.987259864807129 3.416364431381226 0.003921568859369
10.228224754333496 9.375628471374512 1.706077337265015 0.000000000000000
14.144744873046875 11.626763343811035 3.342736959457397 0.003921568859369
13.134140968322754 10.503923416137695 3.071393728256226 0.003921568859369
9.213624000549316 7.074571132659912 0.471888154745102 0.000000000000000
11.302804946899414 9.435518264770508 3.954424858093262 0.000000000000000
6.469020366668701 5.162108421325684 1.020383238792419 0.000000000000000
2.943169832229614 2.270094871520996 1.007627129554749 0.000000000000000
7.536579132080078 5.341047763824463 2.485536813735962 0.000000000000000
15.434160232543945 9.642345428466797 3.321681499481201 0.003921568859369
8.906272888183594 6.155519962310791 1.332013249397278 0.000000000000000
7.956985950469971 4.792207241058350 1.699322700500488 0.000000000000000
1.985008358955383 1.271044731140137 0.293238729238510 0.000000000000000
14.649024963378906 7.787595272064209 1.354485630989075 0.000000000000000
13.267266273498535 7.785964488983154 4.128234863281250 0.000000000000000
9.683726310729980 5.592504024505615 1.374822378158569 0.000000000000000
12.818237304687500 6.583441734313965 1.176774859428406 0.000000000000000
5.596997261047363 2.858414173126221 0.256448090076447 0.000000000000000
13.083979606628418 6.490074634552002 1.192710638046265 0.000000000000000
4.138803958892822 2.323169469833374 1.278093338012695 0.000000000000000
3.705266237258911 1.833864331245422 0.169126540422440 0.000000000000000
13.855484962463379 7.300417423248291 1.923794507980347 0.000000000000000
6.550130844116211 2.594689846038818 0.081760041415691 0.000000000000000
6.566597938537598 2.574655771255493 0.081853814423084 0.000000000000000
8.249149322509766 3.674792766571045 0.367992043495178 0.000000000000000
9.381481170654297 4.740958690643311 2.820327043533325 0.000000000000000
6.107783317565918 2.322829961776733 -0.382050871849060 0.000000000000000
10.799150466918945 5.361468791961670 3.234308958053589 0.000000000000000
6.893135547637939 2.900426387786865 1.366274952888489 0.000000000000000
8.245652198791504 3.396012067794800 0.155499830842018 0.000000000000000
8.778820037841797 4.018297195434570 0.562431097030640 0.000000000000000
9.911422729492188 4.411113262176514 0.631918072700500 0.000000000000000
8.265723228454590 3.679470539093018 2.426360607147217 0.000000000000000
13.264353752136230 5.034589290618896 1.158434510231018 0.000000000000000
8.755856513977051 3.675227165222168 0.553018391132355 0.000000000000000
24.862386703491211 7.586973190307617 0.302621603012085 0.003921568859369
9.144237518310547 3.800766944885254 2.653413057327271 0.000000000000000
8.780246734619141 3.155895471572876 1.701134204864502 0.000000000000000
24.844457626342773 7.397008895874023 -0.301783472299576 0.003921568859369
6.836277008056641 2.404750585556030 0.126495033502579 0.000000000000000
6.766872882843018 2.758753776550293 0.425577640533447 0.000000000000000
7.749853134155273 3.159500122070312 1.027602314949036 0.000000000000000
7.687879562377930 2.704312801361084 1.485891699790955 0.000000000000000
6.694995403289795 2.702236175537109 0.420461416244507 0.000000000000000
14.157823562622070 5.656999111175537 0.887899160385132 0.000000000000000
2.868601560592651 1.134601831436157 0.378769934177399 0.000000000000000
6.911040306091309 2.350018739700317 1.330917000770569 0.000000000000000
13.120447158813477 4.410424709320068 0.241611123085022 0.000000000000000
27.848384857177734 9.361205101013184 5.356671810150146 0.003921568859369
5.538741111755371 2.123906373977661 0.000000000000006 0.000000000000000
6.863361358642578 2.197666645050049 1.312492251396179 0.000000000000000
7.485471725463867 2.368440151214600 0.640429615974426 0.000000000000000
10.631068229675293 3.819550275802612 1.386298060417175 0.000000000000000
10.866794586181641 4.474804878234863 0.342187553644180 0.000000000000000
14.049058914184570 4.998998165130615 0.868441760540009 0.000000000000000
7.811599731445312 2.355363607406616 1.486154317855835 0.000000000000000
7.495093822479248 3.054587125778198 0.235565245151520 0.000000000000000
9.156466484069824 2.042158365249634 -0.326362490653992 0.000000000000000
8.593001365661621 2.684902906417847 0.000594511278905 0.003921568859369
24.833459854125977 7.590673923492432 0.605714023113251 0.003921568859369
8.111464500427246 1.632911205291748 -0.287784934043884 0.000000000000000
10.848323822021484 3.811042547225952 0.067530870437622 0.000000000000000
13.009062767028809 3.825178384780884 0.789530992507935 0.000000000000000
24.009471893310547 5.714546203613281 4.498120784759521 0.003921568859369
8.348135948181152 1.954685330390930 1.560315012931824 0.000000000000000
3.976518154144287 0.710738837718964 -0.374110132455826 0.000000000000000
7.821528434753418 2.145984411239624 0.471456646919250 0.000000000000000
12.336507797241211 2.750676155090332 -0.659681737422943 0.000000000000000
6.439968585968018 1.410379648208618 -0.037589818239212 0.000000000000000
5.595401287078857 1.224535703659058 0.099944889545441 0.000000000000000
16.975746154785156 4.540124893188477 2.155982732772827 0.003921568859369
4.271787643432617 0.916943907737732 0.791693329811096 0.000000000000000
7.299151897430420 2.252886772155762 -0.132116347551346 0.000000000000000
15.811667442321777 4.057626247406006 0.380854010581970 0.000000000000000
13.444509506225586 3.346974611282349 -0.965443968772888 0.000000000000000
13.405163764953613 3.290076017379761 -0.961826741695404 0.000000000000000
13.428767204284668 3.243849039077759 -0.962667226791382 0.000000000000000
13.437645912170410 3.196540594100952 -0.961381554603577 0.000000000000000
8.581830024719238 1.172903776168823 -0.300162464380264 0.000000000000000
13.421531677246094 3.143361091613770 -0.959438502788544 0.000000000000000
17.722000122070312 3.250758886337280 3.280453681945801 0.003921568859369
13.424647331237793 3.094827890396118 -0.958887696266174 0.000000000000000
6.126983165740967 1.097080111503601 1.128532767295837 0.000000000000000
13.392568588256836 3.038349390029907 -0.955830872058868 0.000000000000000
13.406988143920898 2.992587327957153 -0.956115424633026 0.000000000000000
13.390073776245117 2.939903020858765 -0.954172432422638 0.000000000000000
13.439253807067871 2.901730775833130 -0.956963121891022 0.000000000000000
5.701055049896240 0.938999474048615 0.234411016106606 0.000000000000000
13.398068428039551 2.846464395523071 -0.953349053859711 0.000000000000000
3.420487642288208 0.707425475120544 -0.537136673927307 0.000000000000000
13.424034118652344 2.800755023956299 -0.954469382762909 0.000000000000000
13.413706779479980 2.752328634262085 -0.953083038330078 0.000000000000000
13.452359199523926 2.708953857421875 0.001741184387356 0.000000000000000
13.408060073852539 2.700134038925171 -0.951975822448730 0.000000000000000
5.872641563415527 1.177930235862732 0.731373846530914 0.000000000000000
13.432595252990723 2.658897399902344 -0.953095495700836 0.000000000000000
13.435981750488281 2.608989953994751 -0.951556026935577 0.000000000000000
13.836480140686035 3.393699884414673 -0.907623171806335 0.000000000000000
13.452845573425293 2.563741207122803 -0.952120482921600 0.000000000000000
13.836605072021484 3.342727422714233 -0.906865656375885 0.000000000000000
13.446026802062988 2.513997077941895 -0.951015114784241 0.000000000000000
13.813242912292480 3.286238908767700 -0.904577553272247 0.000000000000000
9.978498458862305 1.863022208213806 0.589887261390686 0.000000000000000
13.478266716003418 2.471547842025757 -0.952692985534668 0.000000000000000
13.797430992126465 3.231774806976318 -0.902799606323242 0.000000000000000
13.502520561218262 2.427494049072266 -0.953814327716827 0.000000000000000
13.781403541564941 3.177468061447144 -0.901021718978882 0.000000000000000
13.538416862487793 2.385385513305664 -0.955770671367645 0.000000000000000
13.769059181213379 3.124198913574219 -0.899498879909515 0.000000000000000
13.527004241943359 2.334875106811523 -0.954387068748474 0.000000000000000
13.768195152282715 3.073666810989380 -0.898741424083710 0.000000000000000
11.068529129028320 1.358184576034546 0.907975614070892 0.000000000000000
12.142991065979004 2.709477424621582 -0.502941489219666 0.000000000000000
7.177553176879883 1.572084426879883 0.043494712561369 0.000000000000000
13.585813522338867 2.298856735229492 -0.958013176918030 0.000000000000000
13.778311729431152 3.028158426284790 -0.898748934268951 0.000000000000000
13.616977691650391 2.257888317108154 -0.959690988063812 0.000000000000000
13.772673606872559 2.979229211807251 -0.897736012935638 0.000000000000000
13.656672477722168 2.213266134262085 -0.961926281452179 0.000000000000000
13.791310310363770 2.930571794509888 -0.898254513740540 0.000000000000000
13.818002700805664 2.190206527709961 -0.972790062427521 0.000000000000000
5.727147102355957 1.189937949180603 0.169629544019699 0.000000000000000
13.781921386718750 2.878492832183838 -0.896986901760101 0.000000000000000
7.523401260375977 0.816710352897644 0.614782273769379 0.000000000000000
6.968864440917969 0.755973279476166 1.270092487335205 0.000000000000000
8.514226913452148 0.895284175872803 -0.246611058712006 0.000000000000000
14.097625732421875 2.184434890747070 -0.992004454135895 0.000000000000000
13.799705505371094 2.832145929336548 -0.897505164146423 0.000000000000000
16.141683578491211 3.314485311508179 -0.666715741157532 0.003921568859369
15.776145935058594 1.662906289100647 2.885833740234375 0.003921568859369
13.827182769775391 2.785629034042358 -0.897573113441467 0.000000000000000
17.878074645996094 1.821011900901794 3.269101142883301 0.003921568859369
13.824600219726562 2.737623691558838 -0.896817386150360 0.000000000000000
6.676986217498779 0.654190957546234 0.271928131580353 0.000000000000000
16.313739776611328 1.606675386428833 2.981078147888184 0.003921568859369
13.850215911865234 2.690199136734009 -0.897847533226013 0.000000000000000
13.886503219604492 2.649713039398193 -0.899641692638397 0.000000000000000
11.532895088195801 1.053557395935059 0.471333712339401 0.000000000000000
10.167384147644043 0.890949308872223 -0.293699413537979 0.000000000000000
13.888275146484375 2.597543954849243 -0.899141967296600 0.000000000000000
4.249106407165527 0.163517937064171 -0.145984604954720 0.000000000000000
13.920813560485840 2.553597450256348 -0.900681734085083 0.000000000000000
13.937500000000000 2.506610631942749 -0.901201665401459 0.000000000000000
11.901167869567871 0.338361084461212 0.139715194702148 0.000000000000000
13.993334770202637 2.466496706008911 -0.904271602630615 0.000000000000000
14.025458335876465 2.421937704086304 -0.905811607837677 0.000000000000000
7.919507980346680 0.969990909099579 0.973782777786255 0.000000000000000
10.678149223327637 0.786466717720032 0.870987892150879 0.000000000000000
8.127084732055664 0.597285091876984 1.476342320442200 0.000000000000000
14.088924407958984 2.382524251937866 -0.909391701221466 0.000000000000000
14.179029464721680 2.352215528488159 -0.914756000041962 0.000000000000000
12.688889503479004 0.851628065109253 -0.661364853382111 0.000000000000000
2.544050455093384 0.167214974761009 0.454327493906021 0.000000000000000
15.172128677368164 0.223418116569519 0.178285643458366 0.000000000000000
14.226955413818359 2.306866407394409 -0.917316854000092 0.000000000000000
8.120522499084473 0.881184875965118 0.001490901806392 0.003921568859369
7.527667999267578 0.084032699465752 -0.085687339305878 0.000000000000000
2.607987880706787 0.152663126587868 -0.014584179967642 0.000000000000000
14.359079360961914 2.275510072708130 -0.924277961254120 0.000000000000000
20.164245605468750 2.199102640151978 2.486468315124512 0.003921568859369
11.734384536743164 0.701957225799561 2.133058309555054 0.000000000000000
2.640454530715942 0.145610496401787 -0.014765676110983 0.000000000000000
11.187512397766113 0.086539126932621 0.131328254938126 0.000000000000000
7.266818046569824 1.120106101036072 0.213399469852448 0.000000000000000
8.315751075744629 0.467480748891830 0.675764858722687 0.000000000000000
8.417150497436523 1.299306035041809 -0.342556625604630 0.000000000000000
9.444532394409180 0.961770892143250 -0.657284498214722 0.000000000000000
3.656837463378906 0.367825418710709 -0.083465732634068 0.000000000000000
13.361536026000977 1.267222404479980 0.780300498008728 0.000000000000000
2.776524782180786 0.382521897554398 0.079889371991158 0.000000000000000
9.976281166076660 0.909735679626465 -0.229649171233177 0.000000000000000
8.586933135986328 0.333936154842377 0.348747640848160 0.000000000000000
9.619358062744141 0.374089479446411 1.744396209716797 0.000000000000000
9.518245697021484 0.340397328138351 1.725712656974792 0.000000000000000
5.666872024536133 0.476473391056061 -0.129843994975090 0.000000000000000
13.548243522644043 1.097830295562744 0.317327111959457 0.000000000000000
2.864818334579468 0.090335369110107 0.114215418696404 0.000000000000000
16.285863876342773 0.525352120399475 1.327621459960938 0.000000000000000
10.608054161071777 0.304724216461182 -0.059456177055836 0.000000000000000
2.879294395446777 0.218746393918991 0.164457693696022 0.000000000000000
2.785218238830566 0.078261837363243 0.110939785838127 0.000000000000000
10.179636001586914 0.787231206893921 2.719472408294678 0.000000000000000
7.939187049865723 0.975546061992645 -0.136951565742493 0.000000000000000
16.670921325683594 0.425118237733841 -0.093467980623245 0.000000000000000
7.165226936340332 0.156828641891479 -0.370900571346283 0.000000000000000
10.611002922058105 0.193992674350739 0.185929536819458 0.000000000000000
6.808138370513916 0.123956613242626 -0.351574718952179 0.000000000000000
13.299955368041992 0.243354603648186 1.082218050956726 0.000000000000000
2.160554885864258 0.023848559707403 0.084922112524509 0.000000000000000
7.845534324645996 0.796436488628387 0.046994261443615 0.000000000000000
2.683491945266724 -0.116008512675762 -0.151696667075157 0.000000000000000
10.178772926330566 0.538946032524109 0.591126084327698 0.000000000000000
9.822344779968262 0.453235596418381 1.199686050415039 0.000000000000000
7.265787124633789 0.309292644262314 0.168732762336731 0.000000000000000
14.204731941223145 -0.083161331713200 2.578512907028198 0.000000000000000
13.216519355773926 0.519745945930481 0.308698624372482 0.000000000000000
11.797233581542969 0.463432222604752 0.685420751571655 0.000000000000000
17.634958267211914 -0.163772061467171 0.718834459781647 0.003921568859369
8.977597236633301 -0.112580962479115 -0.050140235573053 0.000000000000000
13.992383956909180 -0.226823121309280 -0.078195422887802 0.000000000000000
6.593842983245850 0.211812555789948 0.801586806774139 0.000000000000000
12.446136474609375 -0.242774143815041 0.218249976634979 0.000000000000000
3.102242708206177 0.087924912571907 0.810942411422729 0.000000000000000
12.457706451416016 0.838062822818756 -0.502093076705933 0.000000000000000
5.171641349792480 0.077401287853718 0.000882816093508 0.000000000000000
12.076982498168945 0.140764087438583 1.474842309951782 0.000000000000000
4.324670791625977 0.242172434926033 -0.073342427611351 0.000000000000000
9.310651779174805 -0.827166557312012 -0.106180369853973 0.000000000000000
15.822586059570312 -0.639119565486908 1.288896560668945 0.000000000000000
17.192161560058594 0.918896198272705 0.502730369567871 0.003921568859369
18.191097259521484 -0.799230515956879 3.307857751846313 0.003921568859369
7.118726253509521 -0.334649473428726 -0.367631375789642 0.000000000000000
5.937480449676514 0.006897940766066 1.568460822105408 0.000000000000000
10.697999000549316 -0.542015552520752 -0.307104974985123 0.000000000000000
17.614242553710938 -0.038347113877535 1.024693608283997 0.000000000000000
5.933609962463379 -0.013512524776161 1.567417502403259 0.000000000000000
8.667048454284668 -0.439008414745331 1.567838191986084 0.000000000000000
22.496116638183594 -1.220507502555847 4.096591949462891 0.003921568859369
7.876354694366455 -0.478568315505981 0.137572944164276 0.000000000000000
9.127614974975586 -0.555464088916779 0.370636165142059 0.000000000000000
11.192438125610352 -0.138487339019775 -0.256069839000702 0.000000000000000
7.251154899597168 -0.114554435014725 0.167963579297066 0.000000000000000
14.887306213378906 -0.285247504711151 0.003582536475733 0.000000000000000
10.330136299133301 0.266787111759186 0.300398707389832 0.000000000000000
10.345301628112793 -0.735916018486023 0.840828239917755 0.000000000000000
9.634197235107422 0.215471968054771 -0.164201110601425 0.000000000000000
10.146587371826172 -0.264155536890030 0.002251760102808 0.003921568859369
7.381036758422852 0.164315581321716 0.213650286197662 0.000000000000000
7.232140064239502 0.110005296766758 -0.122965276241302 0.000000000000000
10.568769454956055 -0.864536166191101 1.917795419692993 0.000000000000000
2.760694980621338 0.032337687909603 0.077778905630112 0.000000000000000
6.972669601440430 -0.278331995010376 0.402043938636780 0.000000000000000
7.339781284332275 -0.673859357833862 -0.210364267230034 0.000000000000000
8.240264892578125 -0.358035981655121 0.476323604583740 0.000000000000000
19.170957565307617 -1.775674939155579 3.496879339218140 0.003921568859369
17.354681015014648 -0.818234205245972 0.004070705268532 0.003921568859369
8.482312202453613 -0.397874355316162 0.197046652436256 0.000000000000000
18.222202301025391 0.026805376634002 0.532116293907166 0.003921568859369
9.195910453796387 -0.460347145795822 0.213880151510239 0.000000000000000
7.550820827484131 -0.012677599675953 0.218516111373901 0.000000000000000
11.340441703796387 -0.568904459476471 0.658045411109924 0.000000000000000
11.309477806091309 -0.610240817070007 0.002444674028084 0.003921568859369
9.581398010253906 -0.516345858573914 0.222993180155754 0.000000000000000
3.499080657958984 -0.018984397873282 -0.217497169971466 0.000000000000000
7.912592411041260 -0.836616575717926 0.321331888437271 0.000000000000000
11.625472068786621 -0.667974233627319 1.419371247291565 0.000000000000000
15.336489677429199 -0.184724330902100 -0.261712431907654 0.000000000000000
3.369519948959351 -0.211585611104965 -0.151856645941734 0.000000000000000
11.609330177307129 -1.351291298866272 2.113992691040039 0.000000000000000
16.909080505371094 -1.199966669082642 0.004173874389380 0.003921568859369
8.506904602050781 -0.600609540939331 1.035761475563049 0.000000000000000
7.778056144714355 -0.603386342525482 0.180627226829529 0.000000000000000
8.538019180297852 -0.663499653339386 1.040131330490112 0.000000000000000
7.934102058410645 -0.616525411605835 2.105318546295166 0.000000000000000
8.567186355590820 -0.697000622749329 1.044025778770447 0.000000000000000
9.801247596740723 -0.353188097476959 0.058705992996693 0.000000000000000
4.449819564819336 -0.586482763290405 0.358245670795441 0.000000000000000
3.221023559570312 -0.277855575084686 0.837857127189636 0.000000000000000
8.204553604125977 -0.779436349868774 0.475367605686188 0.000000000000000
12.253693580627441 -1.208438396453857 0.002970968373120 0.000000000000000
7.312789916992188 -0.743782639503479 0.889698684215546 0.000000000000000
9.041677474975586 -1.395644664764404 0.369788169860840 0.000000000000000
7.194875240325928 -0.779883205890656 0.001457719365135 0.000000000000000
12.972273826599121 -0.783322513103485 0.378216832876205 0.000000000000000
3.700597047805786 -0.586216986179352 -0.105292469263077 0.000000000000000
12.786242485046387 -1.440717577934265 0.745594024658203 0.000000000000000
8.942349433898926 -1.033701300621033 1.092905282974243 0.000000000000000
6.465320110321045 -0.497174024581909 -0.109793633222580 0.000000000000000
10.050909996032715 -0.814318716526031 -0.171556040644646 0.000000000000000
7.245810508728027 -0.986367285251617 0.001377940410748 0.000000000000000
11.604946136474609 -1.629616856575012 1.426199197769165 0.000000000000000
14.557063102722168 -1.383492827415466 0.088223680853844 0.000000000000000
13.432827949523926 -1.983148097991943 0.316284954547882 0.000000000000000
7.384548664093018 -0.721787214279175 0.213922083377838 0.000000000000000
3.985040903091431 -0.617006123065948 0.480160504579544 0.000000000000000
8.183259010314941 -1.054762721061707 0.238249152898788 0.000000000000000
2.860545158386230 -0.513235449790955 0.340366214513779 0.000000000000000
28.382402420043945 -8.450316429138184 0.348951160907745 0.003921568859369
12.394682884216309 -2.441920042037964 3.351898431777954 0.000000000000000
7.082460403442383 -1.789621233940125 -0.040626488626003 0.000000000000000
7.947047233581543 -1.639174103736877 0.981308639049530 0.000000000000000
7.027490139007568 -1.521200418472290 0.001183500280604 0.000000000000000
27.255563735961914 -9.147488594055176 0.338069081306458 0.003921568859369
9.702793121337891 -2.216535806655884 2.630451440811157 0.000000000000000
27.196971893310547 -9.233015060424805 0.337667435407639 0.003921568859369
10.615179061889648 -2.505240440368652 2.886369466781616 0.000000000000000
11.577554702758789 -2.190319538116455 -0.200468763709068 0.000000000000000
11.297213554382324 -2.790118932723999 3.082148313522339 0.000000000000000
25.389762878417969 -6.409268856048584 6.984666347503662 0.003921568859369
27.878059387207031 -8.711221694946289 2.378429174423218 0.003921568859369
28.197021484375000 -8.919104576110840 2.408378601074219 0.003921568859369
27.609308242797852 -8.940965652465820 2.362346410751343 0.003921568859369
10.628309249877930 -3.572641372680664 -0.062858469784260 0.000000000000000
25.546216964721680 -8.663023948669434 2.194665193557739 0.003921568859369
24.354097366333008 -9.789572715759277 0.307285070419312 0.003921568859369
24.253137588500977 -9.846746444702148 0.306365638971329 0.003921568859369
27.418647766113281 -8.142057418823242 1.662777423858643 0.003921568859369
9.194797515869141 -3.225228309631348 -0.054727423936129 0.000000000000000
24.105978012084961 -9.889204025268555 0.304876863956451 0.003921568859369
28.031803131103516 -8.643313407897949 0.684854984283447 0.003921568859369
28.598171234130859 -8.819729804992676 1.740061521530151 0.003921568859369
24.726589202880859 -8.959370613098145 4.772451400756836 0.003921568859369
25.127632141113281 -8.032953262329102 7.031409263610840 0.003921568859369
27.228971481323242 -8.808450698852539 1.662839293479919 0.003921568859369
27.702718734741211 -9.174860954284668 0.680749356746674 0.003921568859369
24.528062820434570 -8.119357109069824 3.157656192779541 0.003921568859369
3.482650279998779 -1.105506777763367 -0.081453762948513 0.000000000000000
21.109985351562500 -7.061598777770996 2.717606306076050 0.003921568859369
26.414844512939453 -8.940456390380859 1.619815587997437 0.003921568859369
28.122747421264648 -9.523758888244629 3.631669044494629 0.003921568859369
27.764312744140625 -8.021524429321289 0.173240467905998 0.003921568859369
26.250799179077148 -10.557354927062988 5.134411811828613 0.003921568859369
26.335393905639648 -9.229767799377441 0.650399148464203 0.003921568859369
23.870130538940430 -9.688027381896973 2.093672275543213 0.003921568859369
17.089685440063477 -6.098567485809326 0.002643339568749 0.003921568859369
25.128293991088867 -8.995565414428711 0.621719956398010 0.003921568859369
23.875226974487305 -8.544793128967285 1.471716880798340 0.003921568859369
22.842693328857422 -9.450970649719238 4.482149600982666 0.003921568859369
27.197971343994141 -9.845692634582520 1.679605126380920 0.003921568859369
25.505941390991211 -10.658568382263184 2.246696949005127 0.003921568859369
27.680685043334961 -10.124053955078125 0.686743199825287 0.003921568859369
21.246860504150391 -8.948873519897461 1.871317148208618 0.003921568859369
25.152484893798828 -10.715693473815918 2.221749544143677 0.003921568859369
21.652873992919922 -9.216592788696289 4.263620853424072 0.003921568859369
4.236460685729980 -1.758279919624329 -0.026010647416115 0.000000000000000
26.816284179687500 -10.020252227783203 3.499148607254028 0.003921568859369
25.053682327270508 -9.454128265380859 0.623259544372559 0.003921568859369
22.072267532348633 -10.872917175292969 0.286102384328842 0.003921568859369
25.354827880859375 -9.674319267272949 0.631615281105042 0.003921568859369
23.043813705444336 -9.053943634033203 1.435638189315796 0.003921568859369
25.921367645263672 -11.679029464721680 2.310577869415283 0.003921568859369
4.150556564331055 -1.370457172393799 -0.073421053588390 0.000000000000000
24.247386932373047 -9.639076232910156 3.187184333801270 0.003921568859369
6.507481098175049 -2.302319765090942 -0.117069408297539 0.000000000000000
24.566835403442383 -10.549802780151367 0.621060967445374 0.003921568859369
25.233938217163086 -11.044218063354492 3.364015102386475 0.003921568859369
16.627832412719727 -9.568744659423828 0.221148595213890 0.003921568859369
14.301456451416016 -5.984044551849365 -0.266123294830322 0.000000000000000
7.249600410461426 -3.907157182693481 0.140088140964508 0.000000000000000
16.550966262817383 -9.208341598510742 0.764435768127441 0.003921568859369
16.541126251220703 -9.203676223754883 1.531068921089172 0.000000000000000
17.018779754638672 -9.552560806274414 0.337415814399719 0.003921568859369
10.840870857238770 -6.091341018676758 -0.071872003376484 0.000000000000000
16.468711853027344 -9.386116981506348 0.764412105083466 0.003921568859369
16.411672592163086 -9.428760528564453 0.763203024864197 0.003921568859369
22.604732513427734 -10.344411849975586 0.145347818732262 0.003921568859369
2.430469512939453 -1.466652035713196 0.029788786545396 0.000000000000000
23.384677886962891 -12.213340759277344 3.217587947845459 0.003921568859369
24.873382568359375 -13.326255798339844 0.652941882610321 0.003921568859369
17.231161117553711 -10.303262710571289 0.809770107269287 0.003921568859369
7.370110511779785 -4.865405559539795 -0.102345772087574 0.000000000000000
24.797285079956055 -13.507769584655762 0.653203964233398 0.003921568859369
25.536636352539062 -13.922272682189941 7.745289802551270 0.003921568859369
15.860161781311035 -9.695268630981445 0.748985707759857 0.003921568859369
12.308910369873047 -7.558329582214355 1.163596987724304 0.003921568859369
21.202480316162109 -11.731925010681152 6.444550514221191 0.003921568859369
6.172500133514404 -3.754753112792969 -0.206350266933441 0.000000000000000
16.395679473876953 -10.188859939575195 1.560234546661377 0.000000000000000
23.167760848999023 -12.935303688049316 7.061583995819092 0.003921568859369
16.773025512695312 -9.394196510314941 -0.000549659249373 0.003921568859369
15.845182418823242 -9.908057212829590 0.752338111400604 0.003921568859369
20.318841934204102 -12.748102188110352 4.338344097137451 0.003921568859369
11.714343070983887 -8.345330238342285 0.162940159440041 0.000000000000000
13.696804046630859 -9.855954170227051 0.191666558384895 0.003921568859369
13.880360603332520 -9.989067077636719 -0.593817830085754 0.003921568859369
14.805491447448730 -8.758627891540527 2.088251590728760 0.003921568859369
16.735004425048828 -10.063966751098633 0.448896497488022 0.003921568859369
14.377466201782227 -9.899232864379883 0.700965762138367 0.003921568859369
4.867765903472900 -2.943506479263306 -0.001412212266587 0.000000000000000
5.790962219238281 -3.922310590744019 -0.041395988315344 0.000000000000000
14.270954132080078 -9.897927284240723 0.697321653366089 0.003921568859369
16.615690231323242 -9.524091720581055 0.109249599277973 0.000000000000000
14.418039321899414 -10.221876144409180 0.709627628326416 0.003921568859369
5.678091526031494 -3.956395387649536 -0.041078113019466 0.000000000000000
3.225311040878296 -1.960889458656311 -0.084794357419014 0.000000000000000
11.006000518798828 -8.969597816467285 0.159549668431282 0.000000000000000
4.495720863342285 -2.912655353546143 -0.001716298982501 0.000000000000000
17.169891357421875 -10.398704528808594 0.576677381992340 0.003921568859369
16.452011108398438 -11.254767417907715 0.456338226795197 0.000000000000000
8.369265556335449 -5.112758159637451 -0.169285982847214 0.000000000000000
12.822992324829102 -10.846009254455566 -0.198211148381233 0.003921568859369
15.853440284729004 -9.969882965087891 0.537211775779724 0.003921568859369
15.790029525756836 -10.002161026000977 0.536092042922974 0.003921568859369
12.288775444030762 -9.534082412719727 0.622322082519531 0.000000000000000
11.608157157897949 -8.248040199279785 -0.002847086405382 0.000000000000000
11.257109642028809 -8.846090316772461 -0.085815221071243 0.000000000000000
13.882313728332520 -9.969963073730469 -0.003225144697353 0.003921568859369
11.497833251953125 -9.232042312622070 0.250245392322540 0.000000000000000
9.584707260131836 -8.570856094360352 0.142863884568214 0.000000000000000
16.589950561523438 -11.083955764770508 0.571769595146179 0.003921568859369
14.966465950012207 -10.058344841003418 0.515988051891327 0.003921568859369
8.621145248413086 -5.765398025512695 -0.416518270969391 0.000000000000000
6.648498058319092 -4.474369049072266 -0.138482496142387 0.000000000000000
6.153611660003662 -5.576585769653320 0.090920448303223 0.000000000000000
9.715302467346191 -9.063220024108887 0.147443905472755 0.000000000000000
11.522732734680176 -9.045709609985352 0.332410514354706 0.003921568859369
11.260970115661621 -8.898617744445801 -0.003982832655311 0.000000000000000
11.547091484069824 -9.130250930786133 0.334009617567062 0.000000000000000
13.936933517456055 -10.060789108276367 -0.695638120174408 0.003921568859369
13.336439132690430 -10.719581604003906 0.388602346181870 0.000000000000000
8.685585975646973 -7.062314510345459 2.942538022994995 0.000000000000000
10.974961280822754 -9.037250518798828 -0.004578116349876 0.000000000000000
8.625457763671875 -7.061810493469238 2.930075407028198 0.000000000000000
12.955984115600586 -10.783102035522461 -0.005240423604846 0.003921568859369
13.083379745483398 -10.891907691955566 0.386286407709122 0.000000000000000
9.380971908569336 -8.610448837280273 0.505971670150757 0.000000000000000
12.843171119689941 -10.908497810363770 -0.005456565879285 0.003921568859369
2.598453283309937 -2.311555385589600 0.054667681455612 0.000000000000000
13.364665985107422 -13.153493881225586 1.507280111312866 0.003921568859369
3.083403110504150 -2.325356006622314 -0.151156961917877 0.000000000000000
10.014036178588867 -9.928951263427734 0.236321225762367 0.000000000000000
10.096048355102539 -9.137067794799805 0.306726217269897 0.000000000000000
9.930584907531738 -9.982405662536621 0.235852256417274 0.000000000000000
16.020725250244141 -18.060785293579102 -0.291029065847397 0.003921568859369
12.328328132629395 -12.538992881774902 1.412261724472046 0.003921568859369
9.463025093078613 -9.698014259338379 0.537849903106689 0.000000000000000
20.114324569702148 -19.362131118774414 0.633736431598663 0.003921568859369
4.990529537200928 -4.203045845031738 0.033305000513792 0.000000000000000
10.177783966064453 -9.733275413513184 0.316560238599777 0.003921568859369
2.605133771896362 -2.308574676513672 0.073538072407246 0.000000000000000
2.591806173324585 -2.310644388198853 0.073340021073818 0.000000000000000
9.313570976257324 -10.004882812500000 0.227867394685745 0.000000000000000
4.938860893249512 -5.823200225830078 0.081418074667454 0.000000000000000
17.380821228027344 -21.506025314331055 0.304037451744080 0.003921568859369
17.290777206420898 -21.546772003173828 0.303644597530365 0.003921568859369
16.540481567382812 -17.127643585205078 1.363491296768188 0.003921568859369
9.326966285705566 -9.869820594787598 0.303821951150894 0.000000000000000
10.410408020019531 -12.548422813415527 1.305906414985657 0.003921568859369
7.826547145843506 -7.724046230316162 -0.194402098655701 0.000000000000000
16.634405136108398 -22.732460021972656 0.306428700685501 0.003921568859369
5.259747028350830 -6.285509586334229 -0.426016330718994 0.000000000000000
5.574064254760742 -5.522251129150391 -0.138373747467995 0.000000000000000
17.956439971923828 -20.377323150634766 0.612082123756409 0.003921568859369
5.798720359802246 -7.065900802612305 -0.476257473230362 0.000000000000000
10.233732223510742 -12.762586593627930 1.309277772903442 0.003921568859369
10.128741264343262 -12.908919334411621 1.313236594200134 0.003921568859369
6.136832237243652 -7.832731723785400 -0.519723057746887 0.000000000000000
3.432833433151245 -3.472415685653687 -0.085613064467907 0.000000000000000
17.732873916625977 -21.292573928833008 0.623639583587646 0.003921568859369
15.644285202026367 -23.000061035156250 0.301327675580978 0.003921568859369
17.870393753051758 -21.613927841186523 0.631134569644928 0.003921568859369
8.644556999206543 -9.300102233886719 -0.516891717910767 0.000000000000000
7.883254528045654 -10.531589508056641 -0.690275490283966 0.000000000000000
14.322401046752930 -22.841381072998047 0.289777725934982 0.003921568859369
8.953715324401855 -14.092312812805176 -0.591751694679260 0.003921568859369
8.789958953857422 -13.936399459838867 0.175649389624596 0.003921568859369
8.911351203918457 -14.096531867980957 -0.495858967304230 0.000000000000000
