# This PCD file was generated using the MATLAB® pcwrite function
# from Computer Vision Toolbox®.
# .PCD v.7 - Point Cloud Data file format
VERSION .7
FIELDS x y z intensity
SIZE 8 8 8 8
TYPE F F F F
COUNT 1 1 1 1
WIDTH 647
HEIGHT 1
VIEWPOINT 0 0 0 1 0 0 0
POINTS 647
DATA ascii
-18.052656173706055 3.573409318923950 -0.702877759933472 0.003921568859369
-17.511716842651367 2.672651290893555 -0.576952993869781 0.000000000000000
-6.907280445098877 0.370847016572952 0.155428186058998 0.000000000000000
-19.170265197753906 2.013264179229736 -0.956572234630585 0.000000000000000
-17.927627563476562 2.738919019699097 -0.999524652957916 0.003921568859369
-18.030212402343750 3.634155273437500 -0.702757716178894 0.003921568859369
-11.396492958068848 1.167915940284729 -0.301517009735107 0.000000000000000
-17.482547760009766 2.728367567062378 -0.576222002506256 0.000000000000000
-6.598703384399414 1.266255497932434 0.045124083757401 0.000000000000000
-8.524182319641113 1.276153445243835 0.290292203426361 0.000000000000000
-18.793928146362305 2.036533832550049 -0.937406599521637 0.000000000000000
-17.626472473144531 3.611738204956055 -0.686811447143555 0.003921568859369
-9.072958946228027 1.363964438438416 1.519593715667725 0.000000000000000
-17.512353897094727 2.793712139129639 -0.577526092529297 0.000000000000000
-18.258932113647461 2.038821458816528 -0.910016536712646 0.000000000000000
-17.398895263671875 3.624572992324829 -0.678011417388916 0.003921568859369
-19.450986862182617 2.176558971405029 -0.529987514019012 0.000000000000000
-17.478841781616211 2.848621845245361 -0.576657414436340 0.000000000000000
-11.475079536437988 1.831919670104980 0.398099064826965 0.000000000000000
-17.926439285278320 2.061534404754639 -0.893114209175110 0.000000000000000
-17.370521545410156 3.679650068283081 -0.677307784557343 0.003921568859369
-19.010509490966797 2.190604209899902 -0.517673790454865 0.000000000000000
-17.468790054321289 2.907423973083496 -0.576602101325989 0.000000000000000
-17.693130493164062 2.094139337539673 -0.881352663040161 0.000000000000000
-13.323579788208008 2.188471078872681 2.287254333496094 0.000000000000000
-18.768594741821289 2.225989103317261 -0.510988652706146 0.000000000000000
-17.458530426025391 2.966186285018921 -0.576545774936676 0.000000000000000
-17.281465530395508 2.102589845657349 -0.860339343547821 0.000000000000000
-16.519693374633789 2.798833370208740 1.241892695426941 0.000000000000000
-13.351841926574707 1.021993756294250 -0.281937837600708 0.000000000000000
-17.467737197875977 3.028450250625610 -0.577166855335236 0.000000000000000
-10.552217483520508 1.783300042152405 -0.103893563151360 0.000000000000000
-8.855833053588867 1.066726565361023 -0.617125928401947 0.000000000000000
-17.028413772583008 2.128782987594604 -0.847550630569458 0.000000000000000
-3.663073778152466 0.390965878963470 0.806363463401794 0.000000000000000
-18.494867324829102 2.319069385528564 -0.503582835197449 0.000000000000000
-17.485658645629883 3.086383342742920 -0.578064024448395 0.000000000000000
-13.462286949157715 2.348131656646729 0.471731841564178 0.000000000000000
-16.641498565673828 2.129677295684814 -0.827776610851288 0.000000000000000
-18.372547149658203 2.359883069992065 -0.500277817249298 0.000000000000000
-17.490495681762695 3.148137569427490 -0.578547179698944 0.000000000000000
-8.506823539733887 1.468746781349182 0.291048049926758 0.000000000000000
-18.312694549560547 2.414757966995239 -0.498767912387848 0.000000000000000
-17.499029159545898 3.210714340209961 -0.579164862632751 0.000000000000000
-17.814521789550781 3.271235227584839 -0.997868478298187 0.003921568859369
-18.244756698608398 2.468137264251709 -0.497032225131989 0.000000000000000
-17.546579360961914 3.281008005142212 -0.581137597560883 0.000000000000000
-24.012617111206055 2.200902700424194 0.024924501776695 0.003921568859369
-12.301551818847656 2.262309312820435 0.153599098324776 0.000000000000000
-7.122881412506104 1.257171392440796 0.240852639079094 0.000000000000000
-19.176549911499023 2.665232896804810 -0.960633814334869 0.000000000000000
-17.814754486083984 3.333493709564209 -0.998491585254669 0.003921568859369
-18.204362869262695 2.525056123733521 -0.496083259582520 0.000000000000000
-17.550703048706055 3.343137264251709 -0.581617295742035 0.000000000000000
-17.981523513793945 2.555191993713379 -0.898920834064484 0.000000000000000
-18.163789749145508 2.581718921661377 -0.495133399963379 0.000000000000000
-17.540809631347656 3.404541969299316 -0.581908226013184 0.000000000000000
-17.891519546508789 2.605007886886597 -0.895118772983551 0.000000000000000
-18.097349166870117 2.635736227035522 -0.493680626153946 0.000000000000000
-17.571891784667969 3.472418308258057 -0.583334565162659 0.000000000000000
-5.093218326568604 0.688556432723999 -0.018528696149588 0.000000000000000
-13.724091529846191 2.021441936492920 0.710957944393158 0.000000000000000
-17.973112106323242 2.679320812225342 -0.899794220924377 0.000000000000000
-19.912424087524414 2.020012855529785 -0.881765425205231 0.003921568859369
-18.068275451660156 2.693674325942993 -0.493066519498825 0.000000000000000
-17.626190185546875 3.545452594757080 -0.585573017597198 0.000000000000000
-19.174291610717773 2.008140325546265 -0.848170280456543 0.003921568859369
-4.490364551544189 1.004302382469177 -0.155128240585327 0.000000000000000
-18.027162551879883 2.749568462371826 -0.492114096879959 0.000000000000000
-17.664541244506836 3.615583419799805 -0.587267756462097 0.000000000000000
-19.878395080566406 3.111605405807495 -0.999965250492096 0.000000000000000
-18.813739776611328 2.033349275588989 -0.831900179386139 0.003921568859369
-18.001663208007812 2.807757377624512 -0.491610586643219 0.000000000000000
-17.643993377685547 3.673372268676758 -0.586928188800812 0.000000000000000
-18.334157943725586 2.042323350906372 -0.810160458087921 0.003921568859369
-17.968080520629883 2.864501953125000 -0.490881264209747 0.000000000000000
-8.755546569824219 1.370506525039673 0.443735331296921 0.000000000000000
-17.973768234252930 2.062139987945557 -0.793891549110413 0.003921568859369
-17.965852737426758 2.926376581192017 -0.491050302982330 0.000000000000000
-19.163698196411133 3.195670366287231 -0.964237034320831 0.000000000000000
-17.186679840087891 3.696332216262817 -0.967516005039215 0.003921568859369
-17.700725555419922 2.090147495269775 -0.781634330749512 0.003921568859369
-8.133011817932129 2.064595222473145 -0.305444359779358 0.000000000000000
-17.967346191406250 2.988941431045532 -0.491330683231354 0.000000000000000
-19.018661499023438 3.236836910247803 -0.957190394401550 0.000000000000000
-16.971158981323242 3.708186388015747 -0.955567479133606 0.003921568859369
-17.320657730102539 2.102784633636475 -0.764455139636993 0.003921568859369
-17.972549438476562 3.052249908447266 -0.491722315549850 0.000000000000000
-16.636383056640625 2.073072671890259 -0.357137978076935 0.003921568859369
-19.026901245117188 3.304580926895142 -0.958154976367950 0.000000000000000
-16.950323104858398 3.763453006744385 -0.955040693283081 0.003921568859369
-9.544940948486328 1.599413275718689 1.072072744369507 0.000000000000000
-16.671249389648438 2.077868700027466 -0.734880506992340 0.003921568859369
-17.997200012207031 3.119165897369385 -0.492674648761749 0.000000000000000
-10.441435813903809 1.303376913070679 -0.217729076743126 0.000000000000000
-19.165155410766602 3.392950773239136 -0.965900063514709 0.000000000000000
-17.301982879638672 2.215896129608154 -0.764189183712006 0.003921568859369
-18.002485275268555 3.179654598236084 -0.493066906929016 0.000000000000000
-6.565932750701904 1.106454253196716 0.716208815574646 0.000000000000000
-17.294139862060547 2.274114131927490 -0.764144778251648 0.003921568859369
-13.648134231567383 2.425580263137817 3.485372543334961 0.000000000000000
-18.022718429565430 3.246177434921265 -0.493904441595078 0.000000000000000
-6.618668556213379 1.138728380203247 -0.025997364893556 0.000000000000000
-4.920370101928711 0.599746942520142 0.007537876255810 0.000000000000000
-17.932321548461914 3.292305469512939 -0.902511119842529 0.000000000000000
-17.112541198730469 3.980180025100708 -0.966704368591309 0.003921568859369
-17.286090850830078 2.332308530807495 -0.764099419116974 0.003921568859369
-18.034841537475586 3.311389446258545 -0.494516044855118 0.000000000000000
-11.026954650878906 1.493697762489319 -0.231342911720276 0.000000000000000
-4.323307037353516 0.717289924621582 -0.014733636751771 0.000000000000000
-17.804973602294922 3.332178354263306 -0.896851181983948 0.000000000000000
-7.714271545410156 1.373846292495728 0.856338143348694 0.000000000000000
-11.734601020812988 1.595553755760193 -0.509027659893036 0.000000000000000
-18.099670410156250 3.388895273208618 -0.496871352195740 0.000000000000000
-11.228073120117188 2.093888282775879 0.581398963928223 0.000000000000000
-17.816745758056641 3.396828174591064 -0.898019492626190 0.000000000000000
-17.986923217773438 2.555687665939331 -0.797486484050751 0.003921568859369
-18.162254333496094 3.464643478393555 -0.498940110206604 0.000000000000000
-17.906600952148438 3.477363348007202 -0.903293430805206 0.000000000000000
-17.985794067382812 2.617526054382324 -0.797800540924072 0.003921568859369
-8.173749923706055 1.905410528182983 1.387038946151733 0.000000000000000
-18.173568725585938 3.530622243881226 -0.499547719955444 0.000000000000000
-5.864427566528320 1.073704719543457 -0.397303700447083 0.000000000000000
-14.233602523803711 3.484823942184448 2.498150110244751 0.000000000000000
-18.219886779785156 3.603942632675171 -0.501164436340332 0.000000000000000
-5.696305274963379 1.057635784149170 -0.263426750898361 0.000000000000000
-19.968173980712891 3.054826021194458 -0.890075802803040 0.003921568859369
-27.490966796875000 6.978715419769287 4.930765628814697 0.003921568859369
-17.982540130615234 3.682357788085938 -0.909044861793518 0.000000000000000
-19.981052398681641 3.126213788986206 -0.891109228134155 0.003921568859369
-17.856330871582031 3.718549489974976 -0.903022170066833 0.000000000000000
-19.989727020263672 3.197073698043823 -0.891959190368652 0.003921568859369
-9.696540832519531 1.954492211341858 2.445689439773560 0.000000000000000
-17.843242645263672 3.778730392456055 -0.902951776981354 0.000000000000000
-19.966621398925781 3.262709856033325 -0.891350388526917 0.003921568859369
-17.065757751464844 3.668385744094849 -0.862652778625488 0.000000000000000
-19.226608276367188 3.204751729965210 -0.857587873935699 0.003921568859369
-17.021675109863281 3.718743324279785 -0.860941767692566 0.000000000000000
-19.246780395507812 3.275260448455811 -0.858982980251312 0.003921568859369
-19.239746093750000 3.337755441665649 -0.859104990959167 0.003921568859369
-18.131324768066406 3.202176570892334 -0.808229684829712 0.003921568859369
-18.086593627929688 3.258916854858398 -0.807023286819458 0.003921568859369
-5.531397819519043 1.168796181678772 -0.138537287712097 0.000000000000000
-6.390444755554199 1.696826815605164 0.220895290374756 0.000000000000000
-17.890604019165039 3.284861326217651 -0.798402547836304 0.003921568859369
-7.009124755859375 1.567016839981079 -0.027876332402229 0.000000000000000
-17.871177673339844 3.343681097030640 -0.797975480556488 0.003921568859369
-17.894678115844727 3.410913228988647 -0.799549996852875 0.003921568859369
-8.707317352294922 2.436628103256226 1.505719661712646 0.000000000000000
-7.077353477478027 1.629328966140747 1.758702158927917 0.000000000000000
-4.102510929107666 1.064296960830688 0.652930855751038 0.000000000000000
-12.738860130310059 3.105536937713623 -0.055941764265299 0.000000000000000
-4.020137786865234 0.697176873683929 -0.155393809080124 0.000000000000000
-18.088790893554688 3.639918088912964 -0.810090541839600 0.003921568859369
-11.325760841369629 2.270074844360352 -0.240415409207344 0.000000000000000
-18.181512832641602 3.723315715789795 -0.814935386180878 0.003921568859369
-7.017469406127930 2.379234075546265 -0.266832321882248 0.000000000000000
-17.363742828369141 3.611198186874390 -0.777375936508179 0.003921568859369
-7.188297271728516 1.441076040267944 0.167417898774147 0.000000000000000
-17.206609725952148 3.638031005859375 -0.770574808120728 0.003921568859369
-17.213304519653320 3.700331926345825 -0.771415829658508 0.003921568859369
-24.131952285766602 7.709371089935303 4.399226665496826 0.003921568859369
-15.803614616394043 3.496724843978882 -0.343463242053986 0.000000000000000
-7.578260898590088 1.965447902679443 1.911562919616699 0.000000000000000
-3.448758840560913 0.665448188781738 -0.198468863964081 0.000000000000000
-7.321881771087646 2.362010478973389 -0.403230100870132 0.000000000000000
-6.200746536254883 1.391296386718750 -0.124788016080856 0.000000000000000
-26.361791610717773 7.841605186462402 7.086157321929932 0.003921568859369
-7.551385402679443 2.281080722808838 0.869419753551483 0.000000000000000
-7.800034523010254 2.448771953582764 -0.386812299489975 0.000000000000000
-8.426074981689453 3.219763040542603 1.510053873062134 0.000000000000000
-5.364880084991455 1.454041361808777 -0.223490774631500 0.000000000000000
-7.732835292816162 3.019863128662109 1.382865667343140 0.000000000000000
-5.243448734283447 1.528591036796570 -0.219465523958206 0.000000000000000
-4.788331508636475 1.661954402923584 -0.016929252073169 0.000000000000000
-4.023993968963623 1.559193491935730 -0.035191636532545 0.000000000000000
-13.218687057495117 5.186576366424561 1.619336605072021 0.000000000000000
-7.992116451263428 2.839860677719116 -0.171440660953522 0.000000000000000
-8.025084495544434 3.915149211883545 1.502771496772766 0.000000000000000
-7.640804767608643 3.980827331542969 -0.694687366485596 0.000000000000000
-9.221201896667480 4.507535934448242 2.576664686203003 0.000000000000000
-4.194974899291992 1.995004177093506 1.099996685981750 0.000000000000000
-2.860623598098755 1.463649749755859 -0.231374755501747 0.000000000000000
-3.018541336059570 1.420487523078918 0.008453381247818 0.000000000000000
-15.616147041320801 9.594656944274902 4.717721939086914 0.003921568859369
-4.096558570861816 2.868380784988403 1.217554926872253 0.000000000000000
-11.143609046936035 9.456748962402344 3.765522480010986 0.000000000000000
-10.511106491088867 9.153883934020996 3.590538263320923 0.000000000000000
-5.705667495727539 5.047762870788574 -0.021110167726874 0.000000000000000
-18.175310134887695 23.018091201782227 -0.417465001344681 0.003921568859369
-17.406084060668945 23.511196136474609 -0.412974923849106 0.003921568859369
-3.840363025665283 4.289155960083008 0.210617423057556 0.000000000000000
-17.840255737304688 23.431562423706055 -0.245363026857376 0.003921568859369
-14.532818794250488 19.954818725585938 4.392938613891602 0.003921568859369
-14.495540618896484 23.209539413452148 -0.374640434980392 0.003921568859369
-14.352658271789551 23.155586242675781 -0.372599005699158 0.003921568859369
-18.062652587890625 24.073511123657227 0.619325697422028 0.003921568859369
-14.790416717529297 24.480470657348633 -0.389022976160049 0.003921568859369
-14.597175598144531 24.542003631591797 -0.387663155794144 0.003921568859369
-13.782873153686523 24.092779159545898 -0.374884694814682 0.003921568859369
-13.427650451660156 23.626432418823242 -0.366585373878479 0.003921568859369
-15.147406578063965 22.495553970336914 -0.684364736080170 0.003921568859369
-13.450716018676758 23.874773025512695 -0.209577426314354 0.003921568859369
-13.305049896240234 22.866470336914062 -0.660518765449524 0.003921568859369
-1.755216002464294 3.071068286895752 -0.314951717853546 0.000000000000000
-12.918101310729980 22.942970275878906 -0.655046105384827 0.003921568859369
-13.773753166198730 23.510364532470703 0.106951363384724 0.003921568859369
-12.576467514038086 24.269552230834961 1.535598993301392 0.003921568859369
-11.091050148010254 24.691724777221680 3.266202449798584 0.003921568859369
-10.291030883789062 27.467918395996094 0.645022332668304 0.003921568859369
-4.297563076019287 14.819376945495605 2.783270597457886 0.000000000000000
-4.916702747344971 17.395435333251953 3.263717651367188 0.003921568859369
-6.151717662811279 28.114856719970703 -0.354184836149216 0.003921568859369
-2.954396247863770 10.182845115661621 1.908759951591492 0.000000000000000
-2.479622364044189 11.550917625427246 2.136020421981812 0.000000000000000
-1.085455775260925 4.233781814575195 1.152027130126953 0.000000000000000
-1.179507493972778 6.344747066497803 1.714376091957092 0.000000000000000
-3.057527780532837 20.776048660278320 5.604923248291016 0.003921568859369
-1.045470714569092 9.775078773498535 1.785540342330933 0.000000000000000
-0.503100991249084 10.404937744140625 -0.121576108038425 0.000000000000000
-0.907490849494934 8.778823852539062 1.603181958198547 0.000000000000000
-0.564533531665802 10.113903045654297 1.843797683715820 0.000000000000000
-0.408208161592484 9.056977272033691 0.739266037940979 0.000000000000000
0.052195370197296 7.987202644348145 0.094327419996262 0.000000000000000
-0.315109699964523 9.815485000610352 0.399770259857178 0.000000000000000
-0.273902356624603 15.961120605468750 2.908475637435913 0.003921568859369
-0.728677988052368 10.023180007934570 1.230333566665649 0.000000000000000
-0.244488820433617 9.133373260498047 1.665123105049133 0.000000000000000
-0.271084845066071 2.147486925125122 -0.010748429223895 0.000000000000000
-0.201662644743919 9.934375762939453 0.810779333114624 0.000000000000000
-0.127221047878265 10.252401351928711 0.836902379989624 0.000000000000000
-0.083366855978966 13.196982383728027 2.405526638031006 0.000000000000000
-0.471573173999786 7.899521350860596 2.116813182830811 0.000000000000000
-0.578259944915771 15.088146209716797 1.850327610969543 0.000000000000000
-0.076105028390884 6.395061492919922 0.112709231674671 0.000000000000000
-0.020941436290741 7.357549667358398 1.343275785446167 0.000000000000000
0.066880851984024 8.851057052612305 0.723836481571198 0.000000000000000
0.320391952991486 13.995779037475586 2.554052829742432 0.000000000000000
-0.304550617933273 18.018932342529297 0.416012048721313 0.000000000000000
-0.266701191663742 6.676486492156982 0.389023989439011 0.000000000000000
0.146123558282852 4.251719951629639 -0.147408023476601 0.000000000000000
0.089936375617981 6.419211864471436 1.173408985137939 0.000000000000000
-0.496874213218689 6.529423713684082 0.189862713217735 0.000000000000000
-0.025099605321884 11.177996635437012 0.650534391403198 0.000000000000000
0.278657883405685 7.789756774902344 0.638630628585815 0.000000000000000
-0.068084433674812 2.806460857391357 -0.080136150121689 0.000000000000000
-0.026969701051712 9.497689247131348 -0.221219658851624 0.000000000000000
-0.015336245298386 8.836857795715332 0.514977335929871 0.000000000000000
-0.026141911745071 7.643463611602783 0.000429762061685 0.000000000000000
0.362779349088669 7.822811603546143 0.321029543876648 0.000000000000000
1.204127073287964 10.954792022705078 -0.126555874943733 0.000000000000000
0.383648782968521 7.333471298217773 1.343417406082153 0.000000000000000
0.861140608787537 12.189275741577148 0.499192774295807 0.000000000000000
0.510223031044006 8.112130165100098 1.486924052238464 0.000000000000000
1.890085577964783 13.462587356567383 0.160892412066460 0.000000000000000
0.460277885198593 6.414176940917969 -0.036052156239748 0.000000000000000
-0.043566793203354 8.603437423706055 -0.150497421622276 0.000000000000000
0.094525992870331 12.220413208007812 -0.214548632502556 0.000000000000000
0.468440741300583 9.437371253967285 2.536951303482056 0.000000000000000
0.244183510541916 6.161469459533691 1.657189249992371 0.000000000000000
-0.110946759581566 4.059424877166748 0.119006894528866 0.000000000000000
0.755706906318665 11.449912071228027 3.079870223999023 0.000000000000000
2.547402143478394 20.285158157348633 3.734077215194702 0.003921568859369
0.614367008209229 19.933551788330078 -0.351526796817780 0.003921568859369
-0.003761857748032 2.767177343368530 0.342663139104843 0.000000000000000
0.307331889867783 11.195724487304688 -0.196528926491737 0.000000000000000
0.038128346204758 2.985622167587280 -0.208394005894661 0.000000000000000
0.895003676414490 10.474563598632812 0.614233434200287 0.000000000000000
0.691104769706726 5.952963829040527 1.100843667984009 0.000000000000000
0.145455867052078 3.455182552337646 0.082434639334679 0.000000000000000
0.466802090406418 6.008020877838135 0.001222013612278 0.000000000000000
3.490177154541016 21.986637115478516 4.068207263946533 0.003921568859369
0.836352527141571 8.732603073120117 0.000497455941513 0.003921568859369
0.624934852123260 7.035827636718750 0.165721192955971 0.000000000000000
0.003705501556396 3.385016202926636 0.099755808711052 0.000000000000000
3.555608987808228 21.865537643432617 4.047110080718994 0.003921568859369
0.920214474201202 9.133252143859863 0.000500410213135 0.003921568859369
3.726017713546753 21.915134429931641 4.061742305755615 0.003921568859369
0.421703696250916 7.536870479583740 -0.131881594657898 0.000000000000000
0.981103599071503 8.666130065917969 0.510540962219238 0.000000000000000
0.833793938159943 11.279237747192383 0.329341411590576 0.000000000000000
1.256417036056519 12.746475219726562 -0.224881812930107 0.000000000000000
1.058699607849121 9.620632171630859 -0.395497113466263 0.000000000000000
0.324231177568436 2.880264043807983 -0.314741849899292 0.000000000000000
1.304321169853210 8.801995277404785 -0.155798062682152 0.000000000000000
0.883401870727539 4.718526840209961 0.001187314745039 0.000000000000000
2.114936113357544 6.434451580047607 0.559518754482269 0.000000000000000
6.406179904937744 17.557842254638672 3.422072410583496 0.003921568859369
3.695656538009644 10.261188507080078 2.002953767776489 0.000000000000000
2.371853351593018 7.570123672485352 2.143853187561035 0.000000000000000
5.444748401641846 14.541301727294922 4.179475784301758 0.003921568859369
9.825469017028809 22.239711761474609 4.445837497711182 0.003921568859369
10.666727066040039 23.884786605834961 4.782281398773193 0.003921568859369
10.733612060546875 23.810964584350586 4.775203227996826 0.003921568859369
9.411157608032227 22.803110122680664 0.573993444442749 0.003921568859369
2.702373027801514 7.494131565093994 0.232674330472946 0.000000000000000
6.503126621246338 13.329706192016602 2.717404603958130 0.000000000000000
4.079313755035400 8.421519279479980 1.720083713531494 0.000000000000000
4.116876125335693 8.282886505126953 1.700810670852661 0.000000000000000
7.211382389068604 15.841252326965332 4.681729793548584 0.003921568859369
8.002317428588867 15.121819496154785 3.133749485015869 0.003921568859369
11.698442459106445 24.549625396728516 3.345541477203369 0.003921568859369
10.943130493164062 20.031785964965820 4.173013210296631 0.003921568859369
11.043719291687012 20.047817230224609 4.184545516967773 0.003921568859369
11.142621994018555 20.059957504272461 4.195360183715820 0.003921568859369
12.694979667663574 22.619066238403320 -0.761014342308044 0.003921568859369
4.636739253997803 8.453871726989746 1.771813154220581 0.000000000000000
4.881471633911133 8.812602043151855 1.850692629814148 0.000000000000000
4.623242378234863 9.237384796142578 1.276185274124146 0.000000000000000
7.751284599304199 14.764712333679199 2.054614067077637 0.003921568859369
4.023345947265625 6.975528240203857 1.483085274696350 0.000000000000000
3.207552194595337 5.574171543121338 1.187737345695496 0.000000000000000
7.390374183654785 13.504566192626953 4.142607688903809 0.003921568859369
4.670580863952637 8.499784469604492 2.617791891098022 0.000000000000000
7.233680248260498 9.783507347106934 2.232814788818359 0.000000000000000
15.288897514343262 22.693017959594727 -0.641403555870056 0.003921568859369
15.427882194519043 22.743431091308594 -0.644154429435730 0.003921568859369
6.401146888732910 8.373826980590820 1.936758041381836 0.000000000000000
16.395330429077148 22.743312835693359 -0.656381547451019 0.003921568859369
6.291643619537354 8.779450416564941 2.913688898086548 0.000000000000000
17.677637100219727 18.975910186767578 0.302865236997604 0.003921568859369
4.058743000030518 5.404203414916992 0.839299857616425 0.000000000000000
7.976397037506104 9.865820884704590 3.419188022613525 0.000000000000000
1.755503892898560 1.946660995483398 0.491762876510620 0.000000000000000
10.234722137451172 10.352844238281250 2.668627977371216 0.000000000000000
20.127809524536133 19.841032028198242 5.167761325836182 0.003921568859369
14.519203186035156 14.138069152832031 3.708389520645142 0.003921568859369
8.245726585388184 7.956209659576416 2.102637529373169 0.000000000000000
8.499097824096680 7.915950298309326 2.131432533264160 0.000000000000000
12.605055809020996 11.537019729614258 3.129606485366821 0.003921568859369
6.778285503387451 6.021230697631836 1.665785551071167 0.000000000000000
3.596252202987671 3.186074495315552 0.398127257823944 0.000000000000000
6.114059925079346 4.988883018493652 1.450579047203064 0.000000000000000
14.023509979248047 11.278556823730469 3.293489933013916 0.003921568859369
7.842623710632324 6.292718410491943 1.845303773880005 0.000000000000000
10.159036636352539 8.796979904174805 1.658052206039429 0.000000000000000
9.109502792358398 7.345166683197021 0.685285508632660 0.000000000000000
6.994852542877197 5.290370941162109 1.083221793174744 0.000000000000000
7.015538692474365 5.269320964813232 1.083717346191406 0.000000000000000
5.424498558044434 3.654295682907104 0.538527369499207 0.000000000000000
5.048376083374023 3.613702297210693 0.768743932247162 0.000000000000000
3.669733524322510 2.018292427062988 0.049698460847139 0.000000000000000
14.642660140991211 8.928308486938477 3.135755777359009 0.003921568859369
7.063610076904297 4.221384525299072 1.508763909339905 0.000000000000000
3.649726152420044 2.369061231613159 0.255644857883453 0.000000000000000
6.788986206054688 3.895763635635376 0.642313599586487 0.000000000000000
22.927204132080078 12.681038856506348 4.784889221191406 0.003921568859369
9.127560615539551 4.978552341461182 1.902703404426575 0.000000000000000
5.583916664123535 3.027372121810913 0.521849393844604 0.000000000000000
14.059016227722168 7.589854717254639 2.920389413833618 0.003921568859369
9.854682922363281 5.779166221618652 1.406385064125061 0.000000000000000
11.878325462341309 6.906962871551514 3.689278125762939 0.000000000000000
11.570544242858887 5.888741970062256 2.372632026672363 0.000000000000000
11.836729049682617 5.920036792755127 2.418573379516602 0.000000000000000
17.276819229125977 8.554894447326660 3.520892620086670 0.003921568859369
11.323858261108398 4.987251281738281 2.259811401367188 0.000000000000000
10.259290695190430 4.474191188812256 0.457180440425873 0.000000000000000
8.908792495727539 4.380368709564209 1.221493482589722 0.000000000000000
13.883354187011719 6.760716438293457 1.898770332336426 0.000000000000000
5.580561161041260 2.598674774169922 -0.430964916944504 0.000000000000000
7.250136852264404 2.952587842941284 0.319481164216995 0.000000000000000
6.628283500671387 2.645836591720581 0.291301339864731 0.000000000000000
12.844586372375488 5.123504161834717 1.129950046539307 0.000000000000000
8.584027290344238 3.425400257110596 1.686986207962036 0.000000000000000
8.306159973144531 3.694082498550415 1.117481827735901 0.000000000000000
11.429833412170410 4.938938140869141 3.339011192321777 0.000000000000000
11.527711868286133 4.275667667388916 1.003712177276611 0.000000000000000
11.771246910095215 4.319323062896729 -0.364911675453186 0.000000000000000
12.627511978149414 5.295158863067627 0.797434866428375 0.000000000000000
19.470279693603516 6.990544795989990 1.688801050186157 0.003921568859369
11.572494506835938 3.885586023330688 0.996552109718323 0.000000000000000
9.971955299377441 3.309497594833374 1.915659427642822 0.000000000000000
8.166199684143066 3.091564178466797 1.070788979530334 0.000000000000000
12.792382240295410 4.845012187957764 3.662513732910156 0.000000000000000
11.297720909118652 4.233583927154541 0.701822638511658 0.000000000000000
13.956537246704102 3.469343662261963 -0.837345659732819 0.000000000000000
13.956926345825195 3.417785167694092 -0.836649715900421 0.000000000000000
13.867846488952637 3.344722986221313 -0.830602705478668 0.000000000000000
10.069052696228027 2.390693664550781 -0.120652839541435 0.000000000000000
13.906632423400879 3.302789688110352 -0.832233190536499 0.000000000000000
13.879760742187500 3.242745399475098 -0.829908728599548 0.000000000000000
13.929348945617676 3.205698013305664 -0.832237064838409 0.000000000000000
13.927039146423340 3.151618242263794 -0.831228494644165 0.000000000000000
5.098209857940674 1.686154484748840 0.311337202787399 0.000000000000000
11.112298011779785 3.682870149612427 3.131158828735352 0.000000000000000
13.910671234130859 3.096974134445190 -0.829603075981140 0.000000000000000
8.461747169494629 2.320180416107178 0.714238643646240 0.000000000000000
13.933100700378418 3.051029205322266 -0.830305218696594 0.000000000000000
13.873404502868652 2.987289190292358 -0.826119482517242 0.000000000000000
7.186899662017822 1.889350533485413 -0.043489400297403 0.000000000000000
13.895463943481445 2.941406965255737 -0.826821625232697 0.000000000000000
13.913465499877930 2.894579410552979 -0.827290832996368 0.000000000000000
13.895605087280273 2.842876195907593 -0.825665175914764 0.000000000000000
13.897615432739258 2.792850255966187 -0.825203418731689 0.000000000000000
15.629122734069824 4.765414714813232 4.372229099273682 0.003921568859369
13.934702873229980 2.749806642532349 -0.826836645603180 0.000000000000000
20.406833648681641 7.250895977020264 -0.882485091686249 0.003921568859369
11.483972549438477 3.456202983856201 3.207730293273926 0.000000000000000
13.944215774536133 2.701220512390137 -0.826840400695801 0.000000000000000
11.964731216430664 3.555931568145752 0.725191712379456 0.000000000000000
13.914330482482910 2.645134210586548 -0.824516475200653 0.000000000000000
13.923480033874512 2.596613645553589 -0.824520230293274 0.000000000000000
20.373783111572266 6.916779518127441 0.123464576900005 0.003921568859369
3.420641660690308 0.970781743526459 0.081735379993916 0.000000000000000
13.977768898010254 2.554368734359741 -0.827026188373566 0.000000000000000
13.974809646606445 2.503544569015503 -0.826333165168762 0.000000000000000
14.599342346191406 3.357715368270874 -0.784776151180267 0.000000000000000
11.629176139831543 2.082385778427124 -0.412569701671600 0.000000000000000
13.999195098876953 2.457616090774536 -0.827270388603210 0.000000000000000
14.599288940429688 3.304183959960938 -0.784153342247009 0.000000000000000
14.011622428894043 2.409526348114014 -0.827508807182312 0.000000000000000
14.552251815795898 3.240267753601074 -0.781014800071716 0.000000000000000
3.654827117919922 0.983296096324921 -0.000358772755135 0.000000000000000
14.082951545715332 2.371333599090576 -0.831240415573120 0.000000000000000
14.543967247009277 3.185270071029663 -0.779972612857819 0.000000000000000
14.251091957092285 3.120761394500732 1.187381267547607 0.000000000000000
14.110838890075684 2.325520753860474 -0.832410395145416 0.000000000000000
14.519853591918945 3.127005338668823 -0.778091847896576 0.000000000000000
14.272613525390625 2.301191806793213 -0.841498374938965 0.000000000000000
14.515051841735840 3.073086738586426 -0.777259290218353 0.000000000000000
14.497496604919434 2.285731554031372 -0.854312539100647 0.000000000000000
14.510049819946289 3.019239425659180 -0.776426672935486 0.000000000000000
13.614984512329102 3.487568140029907 -0.981868743896484 0.000000000000000
14.788735389709473 2.284248352050781 -0.871085405349731 0.000000000000000
14.511636734008789 2.972130537033081 -0.776012718677521 0.000000000000000
13.581253051757812 3.426018953323364 -0.978523135185242 0.000000000000000
9.222401618957520 2.808199167251587 0.279007077217102 0.000000000000000
15.108933448791504 2.277250766754150 -0.889489412307739 0.000000000000000
14.534179687500000 2.921401023864746 -0.776647984981537 0.000000000000000
13.608617782592773 3.382549047470093 -0.979646205902100 0.000000000000000
14.528615951538086 2.867649078369141 -0.775815248489380 0.000000000000000
13.480257034301758 3.303242921829224 -0.969596385955811 0.000000000000000
14.526282310485840 2.817270278930664 -0.775191903114319 0.000000000000000
8.007256507873535 1.958772897720337 2.200306177139282 0.000000000000000
14.573925018310547 2.769166946411133 -0.777085185050964 0.000000000000000
4.718325614929199 1.358871936798096 0.027747167274356 0.000000000000000
13.652673721313477 3.242382287979126 -0.980037093162537 0.000000000000000
14.614437103271484 2.726834535598755 -0.778770685195923 0.000000000000000
14.651836395263672 2.678441762924194 -0.780247271060944 0.000000000000000
13.675527572631836 3.144886732101440 -0.980052769184113 0.000000000000000
14.676825523376465 2.630242109298706 -0.781094253063202 0.000000000000000
8.088449478149414 1.417262315750122 -0.238846406340599 0.000000000000000
3.936677932739258 0.884320795536041 -0.000527887081262 0.000000000000000
14.725256919860840 2.586063861846924 -0.783199787139893 0.000000000000000
14.725877761840820 2.535993814468384 -0.782787680625916 0.000000000000000
14.774026870727539 2.491370439529419 -0.784893214702606 0.000000000000000
14.861881256103516 2.450376749038696 -0.789096891880035 0.000000000000000
13.728336334228516 2.906430482864380 -0.980090737342834 0.000000000000000
13.737400054931641 2.863407850265503 -0.980097532272339 0.000000000000000
13.408218383789062 2.741062641143799 -0.955795049667358 0.000000000000000
13.758021354675293 2.762928247451782 -0.980113327503204 0.000000000000000
13.786121368408203 3.475121498107910 -0.910189270973206 0.000000000000000
7.370475769042969 1.079131007194519 -0.044198404997587 0.000000000000000
13.777535438537598 2.714856624603271 -0.980516910552979 0.000000000000000
13.831373214721680 3.432733535766602 -0.912108838558197 0.000000000000000
8.616451263427734 1.262680053710938 0.705530285835266 0.000000000000000
13.476568222045898 2.611531019210815 -0.958441376686096 0.000000000000000
15.523311614990234 2.231369018554688 0.270548373460770 0.000000000000000
13.876976013183594 3.397996664047241 -0.914424479007721 0.000000000000000
13.796152114868164 2.618957996368408 -0.980535566806793 0.000000000000000
8.414546966552734 1.173416137695312 0.146092116832733 0.000000000000000
13.769639968872070 3.315810680389404 -0.906489491462708 0.000000000000000
13.495350837707520 2.513036251068115 -0.958460509777069 0.000000000000000
13.753949165344238 3.261425971984863 -0.904705047607422 0.000000000000000
15.713130950927734 2.926530838012695 4.267223358154297 0.003921568859369
6.685851573944092 0.557877302169800 -0.078692592680454 0.000000000000000
3.946838617324829 0.715618193149567 -0.277761608362198 0.000000000000000
13.744695663452148 3.213798522949219 -0.903432071208954 0.000000000000000
6.214366912841797 1.423888683319092 -0.406435698270798 0.000000000000000
13.760222434997559 2.416705369949341 -0.975540101528168 0.000000000000000
13.740095138549805 3.109526872634888 -0.901657462120056 0.000000000000000
6.755180835723877 0.493021190166473 0.077089786529541 0.000000000000000
13.740637779235840 2.366464138031006 -0.973591864109039 0.000000000000000
11.966176986694336 2.665065765380859 -0.784269154071808 0.000000000000000
13.670532226562500 2.302966117858887 -0.968010187149048 0.000000000000000
13.784860610961914 3.019015312194824 -0.903214514255524 0.000000000000000
11.422002792358398 1.922025680541992 3.088583469390869 0.000000000000000
13.705253601074219 2.264735937118530 -0.969975292682648 0.000000000000000
13.770869255065918 2.970783948898315 -0.901685118675232 0.000000000000000
6.655968189239502 0.766101717948914 0.269823491573334 0.000000000000000
13.795790672302246 2.230473756790161 -0.975855290889740 0.000000000000000
13.781156539916992 2.922865867614746 -0.901694595813751 0.000000000000000
6.209804534912109 0.692567110061646 0.251484900712967 0.000000000000000
13.961129188537598 2.207488775253296 -0.987047135829926 0.000000000000000
13.791276931762695 2.874912500381470 -0.901704013347626 0.000000000000000
3.746143817901611 0.756955146789551 -0.066469684243202 0.000000000000000
13.811663627624512 2.824363231658936 -0.902107119560242 0.000000000000000
13.821922302246094 2.773942947387695 -0.902118980884552 0.000000000000000
15.527646064758301 2.338058233261108 -0.366805970668793 0.000000000000000
19.019891738891602 1.864196062088013 -0.114291429519653 0.000000000000000
13.830568313598633 2.730695962905884 -0.902129173278809 0.000000000000000
7.049318313598633 0.662531018257141 -0.205778002738953 0.000000000000000
13.840017318725586 2.682605743408203 -0.902140378952026 0.000000000000000
13.849296569824219 2.634482622146606 -0.902151584625244 0.000000000000000
9.477210998535156 0.859340488910675 0.770101606845856 0.000000000000000
8.617496490478516 0.750884413719177 0.148214176297188 0.000000000000000
13.819174766540527 2.578979969024658 -0.899598240852356 0.000000000000000
13.867794990539551 2.535744428634644 -0.902174532413483 0.000000000000000
10.737200736999512 0.897440314292908 0.434420287609100 0.000000000000000
8.359329223632812 1.107865571975708 1.026473283767700 0.000000000000000
10.000509262084961 0.835210859775543 1.816808104515076 0.000000000000000
11.246063232421875 2.013787984848022 -0.200405612587929 0.000000000000000
13.876563072204590 2.487524986267090 -0.902185678482056 0.000000000000000
13.845851898193359 2.432339668273926 -0.899632096290588 0.000000000000000
12.266963005065918 0.940152943134308 0.997064471244812 0.000000000000000
4.347296237945557 0.741662919521332 -0.076852768659592 0.000000000000000
13.979708671569824 2.408390045166016 -0.907849669456482 0.000000000000000
13.932928085327148 2.350451707839966 -0.904270052909851 0.000000000000000
9.270503997802734 1.100609540939331 0.538430929183960 0.000000000000000
13.917422294616699 2.298087835311890 -0.902742266654968 0.000000000000000
14.092918395996094 2.275108098983765 -0.913433670997620 0.000000000000000
10.115569114685059 0.599304974079132 -0.060895308852196 0.000000000000000
7.587173461914062 0.818423748016357 0.174187585711479 0.000000000000000
14.317609786987305 2.260544061660767 -0.927559137344360 0.000000000000000
6.242190837860107 0.368026077747345 0.503216087818146 0.000000000000000
4.322752475738525 0.045494306832552 -0.149734944105148 0.000000000000000
7.890372753143311 0.850954115390778 2.105985403060913 0.000000000000000
14.589702606201172 2.251780748367310 -0.944764137268066 0.000000000000000
14.846116065979004 2.238766670227051 -0.960943222045898 0.000000000000000
7.300008296966553 0.736054301261902 0.421524345874786 0.000000000000000
15.145660400390625 2.233033180236816 -0.979944527149200 0.000000000000000
10.966491699218750 1.072903156280518 0.635177552700043 0.000000000000000
11.918874740600586 0.499570071697235 -0.071769528090954 0.000000000000000
8.304629325866699 -0.082811824977398 -0.098020501434803 0.000000000000000
8.144313812255859 1.080831289291382 -0.144044935703278 0.000000000000000
23.623491287231445 1.822198152542114 1.370580434799194 0.003921568859369
8.127717018127441 0.228257566690445 0.656042814254761 0.000000000000000
6.947303771972656 0.146404460072517 0.558728396892548 0.000000000000000
8.935950279235840 0.188625752925873 1.612491965293884 0.000000000000000
9.458406448364258 -0.290942609310150 -0.112047180533409 0.000000000000000
9.200799942016602 0.609446942806244 0.210212826728821 0.000000000000000
21.277658462524414 1.268217325210571 -0.005497423931956 0.003921568859369
5.581395149230957 0.309686928987503 0.126591175794601 0.000000000000000
6.637021541595459 0.369317591190338 -0.461172878742218 0.000000000000000
14.194694519042969 -0.585686147212982 -0.497464001178741 0.000000000000000
10.923968315124512 0.538399159908295 0.629344820976257 0.000000000000000
13.319812774658203 0.009745967574418 1.077105283737183 0.000000000000000
15.753933906555176 0.011167803779244 2.853327274322510 0.000000000000000
6.582894325256348 0.299040704965591 -0.153389945626259 0.000000000000000
7.041587829589844 0.295642763376236 0.403789043426514 0.000000000000000
16.935487747192383 -0.166513517498970 -0.495316296815872 0.000000000000000
21.888229370117188 -0.291506707668304 -0.640818953514099 0.003921568859369
13.816800117492676 1.161505460739136 0.397645890712738 0.000000000000000
16.450569152832031 0.522898197174072 4.384109020233154 0.003921568859369
10.891038894653320 0.346094071865082 -0.254723846912384 0.000000000000000
11.190417289733887 -0.226160779595375 -0.326786577701569 0.000000000000000
8.546843528747559 0.240646228194237 1.036081194877625 0.000000000000000
7.425877094268799 0.157683581113815 0.168324306607246 0.000000000000000
7.436317443847656 0.132304266095161 -0.002437674906105 0.000000000000000
8.570363998413086 0.568034172058105 0.046757034957409 0.000000000000000
7.739435672760010 0.137640431523323 0.443052113056183 0.000000000000000
7.869503021240234 0.521184384822845 -0.320131123065948 0.000000000000000
9.516127586364746 -0.786221146583557 -0.113444194197655 0.000000000000000
13.881131172180176 -0.473732590675354 -0.084718681871891 0.000000000000000
5.137247085571289 0.320256263017654 0.145492970943451 0.000000000000000
9.252017974853516 -0.764142870903015 -0.324310660362244 0.000000000000000
7.312670230865479 -0.296585738658905 1.315475702285767 0.000000000000000
10.377359390258789 0.546827197074890 -0.183012530207634 0.000000000000000
5.417762756347656 -0.499807000160217 -0.064331069588661 0.000000000000000
7.253433227539062 0.030091157183051 0.414791941642761 0.000000000000000
7.545439243316650 -0.333301186561584 0.606651067733765 0.000000000000000
15.775200843811035 0.011431210674345 0.908550143241882 0.000000000000000
6.094702243804932 -0.289504617452621 0.488624691963196 0.000000000000000
9.835089683532715 -0.503597497940063 0.167004749178886 0.000000000000000
13.909396171569824 -0.714277029037476 1.125071406364441 0.000000000000000
7.126690864562988 -0.388301104307175 -0.043461278080940 0.000000000000000
6.868528366088867 0.288987487554550 0.195242077112198 0.000000000000000
8.831318855285645 -0.482510983943939 0.711676836013794 0.000000000000000
11.349001884460449 -0.107620149850845 -0.003660896793008 0.003921568859369
10.289808273315430 -1.098663449287415 -0.123076550662518 0.000000000000000
6.752626895904541 -0.414017736911774 0.541503369808197 0.000000000000000
6.731369495391846 -0.762599527835846 0.074947141110897 0.000000000000000
4.089314937591553 -0.262214750051498 -0.211293995380402 0.000000000000000
8.691320419311523 -0.173743963241577 -0.203188851475716 0.000000000000000
1.566970586776733 0.036942765116692 0.007714350242168 0.003921568859369
15.030317306518555 -0.351650357246399 0.864407479763031 0.000000000000000
8.612948417663574 -0.617769122123718 0.693467736244202 0.000000000000000
8.874595642089844 -0.206557884812355 -0.207539960741997 0.000000000000000
6.567766666412354 -0.493142604827881 0.110603734850883 0.000000000000000
13.645092964172363 -0.415802568197250 -0.004919694736600 0.000000000000000
10.385332107543945 -0.820152699947357 0.176124960184097 0.000000000000000
14.089435577392578 -0.429690361022949 0.810039460659027 0.000000000000000
14.842255592346191 0.170285180211067 0.080569915473461 0.000000000000000
12.613472938537598 -0.513094484806061 -0.296054244041443 0.000000000000000
11.795173645019531 0.051334775984287 0.063814207911491 0.000000000000000
15.517809867858887 -1.443445444107056 0.264435589313507 0.000000000000000
11.495886802673340 -1.067206859588623 0.929961740970612 0.000000000000000
8.514853477478027 -0.404383540153503 1.031191110610962 0.000000000000000
15.373091697692871 -0.039622321724892 0.439140319824219 0.000000000000000
13.392072677612305 -0.173689469695091 0.071972429752350 0.000000000000000
8.193373680114746 -0.105893716216087 0.231947824358940 0.000000000000000
11.481924057006836 -1.265584468841553 0.461243957281113 0.000000000000000
22.571695327758789 -0.446638613939285 0.645202159881592 0.003921568859369
20.971099853515625 -0.487688273191452 0.599219083786011 0.003921568859369
9.898549079895020 -0.708881378173828 1.200877904891968 0.000000000000000
17.958532333374023 -2.173249959945679 3.270552396774292 0.003921568859369
12.080774307250977 -0.948397696018219 0.274398833513260 0.000000000000000
13.231809616088867 -0.444195508956909 -0.234457194805145 0.000000000000000
3.844109058380127 -0.126605987548828 -0.154022738337517 0.000000000000000
7.310564517974854 -1.053045868873596 -0.045903526246548 0.000000000000000
7.750872611999512 -0.739142477512360 0.442794829607010 0.000000000000000
10.818642616271973 -1.073538661003113 -0.255267262458801 0.000000000000000
6.111282825469971 -0.623105466365814 1.610972285270691 0.000000000000000
7.735671997070312 -0.469909846782684 -0.136798635125160 0.000000000000000
4.422944068908691 -0.493008494377136 0.529528677463531 0.000000000000000
7.632627964019775 -1.288885116577148 1.385868906974792 0.000000000000000
6.162138462066650 -0.455596238374710 0.032242212444544 0.000000000000000
11.007994651794434 -0.820780158042908 0.312760412693024 0.000000000000000
14.552588462829590 -1.138544082641602 0.414805918931961 0.000000000000000
28.553873062133789 -5.691820621490479 5.269954204559326 0.003921568859369
15.200500488281250 -1.615999460220337 -0.272141903638840 0.000000000000000
13.444789886474609 -1.427903294563293 0.071096658706665 0.000000000000000
6.237566947937012 -1.604989647865295 -0.077268868684769 0.000000000000000
5.918255805969238 -1.222461581230164 0.479533612728119 0.000000000000000
25.851236343383789 -5.431402206420898 4.779026508331299 0.003921568859369
4.810461997985840 -0.818214893341064 0.273938268423080 0.000000000000000
3.088495969772339 -0.678592503070831 -0.019656514748931 0.000000000000000
28.664241790771484 -6.849400043487549 2.378091335296631 0.003921568859369
2.308991432189941 -0.521435201168060 0.405072420835495 0.000000000000000
28.749505996704102 -7.187547206878662 2.391241550445557 0.003921568859369
28.312763214111328 -8.673118591308594 0.325876504182816 0.003921568859369
28.785017013549805 -7.837722778320312 2.407200813293457 0.003921568859369
26.840940475463867 -7.499222755432129 2.246133804321289 0.003921568859369
26.814605712890625 -7.592343807220459 2.246100664138794 0.003921568859369
27.725511550903320 -9.436964988708496 0.320830762386322 0.003921568859369
27.232307434082031 -7.813567161560059 2.283543586730957 0.003921568859369
27.233861923217773 -6.401110649108887 7.439312934875488 0.003921568859369
27.213487625122070 -9.473332405090332 0.315564393997192 0.003921568859369
27.016548156738281 -7.954907417297363 2.269908189773560 0.003921568859369
29.106460571289062 -7.264210700988770 1.720515489578247 0.003921568859369
28.914525985717773 -7.322883605957031 1.710578918457031 0.003921568859369
26.411815643310547 -8.176366806030273 2.228105545043945 0.003921568859369
28.387805938720703 -9.002803802490234 2.400867223739624 0.003921568859369
26.223554611206055 -8.611827850341797 2.222392797470093 0.003921568859369
27.948886871337891 -9.398591995239258 5.328386783599854 0.003921568859369
4.087514877319336 -1.133391141891479 1.092116951942444 0.000000000000000
4.191106796264648 -1.178523540496826 1.122063636779785 0.000000000000000
26.934902191162109 -7.925153732299805 7.462526321411133 0.003921568859369
25.479253768920898 -9.047860145568848 2.176648855209351 0.003921568859369
28.543088912963867 -8.712175369262695 1.709441542625427 0.003921568859369
27.853118896484375 -8.606992721557617 3.541327714920044 0.003921568859369
25.771261215209961 -9.354332923889160 2.207257032394409 0.003921568859369
28.296709060668945 -9.066326141357422 3.607517480850220 0.003921568859369
27.233678817749023 -10.207729339599609 2.340337991714478 0.003921568859369
25.017873764038086 -9.373036384582520 4.822318553924561 0.003921568859369
26.518671035766602 -8.589798927307129 3.383032083511353 0.003921568859369
23.276430130004883 -8.802915573120117 2.000533342361450 0.003921568859369
