# This PCD file was generated using the MATLAB® pcwrite function
# from Computer Vision Toolbox®.
# .PCD v.7 - Point Cloud Data file format
VERSION .7
FIELDS x y z intensity
SIZE 8 8 8 8
TYPE F F F F
COUNT 1 1 1 1
WIDTH 648
HEIGHT 1
VIEWPOINT 0 0 0 1 0 0 0
POINTS 648
DATA ascii
-16.646579742431641 3.618598222732544 -0.732751965522766 0.000000000000000
-18.985435485839844 3.211431980133057 -0.721879959106445 0.003921568859369
-17.368473052978516 2.984280347824097 -0.261583119630814 0.003921568859369
-7.331772327423096 1.542451858520508 0.018928978592157 0.000000000000000
-15.805248260498047 2.704988241195679 -0.956410646438599 0.000000000000000
-16.674091339111328 3.677893877029419 -0.734651744365692 0.000000000000000
-8.916773796081543 1.481139540672302 -0.322046339511871 0.000000000000000
-14.577396392822266 3.199149847030640 -0.303520292043686 0.000000000000000
-17.392848968505859 3.052139043807983 -0.262268811464310 0.003921568859369
-15.799166679382324 2.761396884918213 -0.956763744354248 0.000000000000000
-16.683858871459961 3.742197751998901 -0.735847949981689 0.000000000000000
-17.924943923950195 3.147997379302979 -0.680796980857849 0.003921568859369
-5.474529266357422 1.392453670501709 0.939764797687531 0.000000000000000
-17.398378372192383 3.110713720321655 -0.262626886367798 0.003921568859369
-10.438302993774414 1.823409557342529 0.082504175603390 0.000000000000000
-15.762452125549316 2.806691646575928 -0.955111324787140 0.000000000000000
-16.663589477539062 3.793668031692505 -0.735592424869537 0.000000000000000
-17.934066772460938 3.209057569503784 -0.681686997413635 0.003921568859369
-20.135271072387695 5.642889976501465 3.744760274887085 0.003921568859369
-17.353490829467773 3.167609214782715 -0.263660788536072 0.003921568859369
-7.641062736511230 2.442890644073486 -0.069328263401985 0.000000000000000
-10.453221321105957 1.865232229232788 0.081804096698761 0.000000000000000
-15.777523040771484 2.868745565414429 -0.958662688732147 0.000000000000000
-17.869163513183594 3.264223814010620 -0.681415796279907 0.003921568859369
-17.381614685058594 3.233655214309692 -0.264405518770218 0.003921568859369
-15.747819900512695 2.917961120605469 -0.957510352134705 0.000000000000000
-17.724224090576172 3.298837661743164 -0.676194012165070 0.003921568859369
-17.406135559082031 3.296232461929321 -0.265081882476807 0.003921568859369
-15.792914390563965 2.978936910629272 -0.961100220680237 0.000000000000000
-16.915760040283203 4.036240577697754 -0.751216053962708 0.000000000000000
-10.565248489379883 2.993719816207886 0.872107625007629 0.000000000000000
-17.673971176147461 3.347947835922241 -0.674729585647583 0.003921568859369
-17.418066024780273 3.359598398208618 -0.265572845935822 0.003921568859369
-4.304729938507080 0.934422194957733 0.013688323087990 0.000000000000000
-15.762851715087891 3.028071165084839 -0.959948360919952 0.000000000000000
-17.457199096679688 3.428656339645386 -0.266511470079422 0.003921568859369
-15.795232772827148 3.089737653732300 -0.962794959545135 0.000000000000000
-10.045042991638184 2.414729356765747 2.637036085128784 0.000000000000000
-17.456277847290039 3.492881774902344 -0.266817629337311 0.003921568859369
-15.803358078002930 3.149480819702148 -0.964147806167603 0.000000000000000
-17.515056610107422 3.563609123229980 -0.268072128295898 0.003921568859369
-15.785020828247070 3.198258399963379 -0.963741600513458 0.000000000000000
-17.848533630371094 3.633008003234863 -0.684115767478943 0.003921568859369
-17.529901504516602 3.628515481948853 -0.268629908561707 0.003921568859369
-15.781579017639160 3.252934455871582 -0.964340388774872 0.000000000000000
-17.870929718017578 3.700742721557617 -0.685640752315521 0.003921568859369
-4.421880245208740 1.035368800163269 0.106060072779655 0.000000000000000
-15.805245399475098 3.313570737838745 -0.966689646244049 0.000000000000000
-17.682165145874023 3.722779035568237 -0.678688824176788 0.003921568859369
-15.798074722290039 3.364858388900757 -0.967034399509430 0.000000000000000
-17.732175827026367 3.793236970901489 -0.681307554244995 0.003921568859369
-15.821298599243164 3.425790309906006 -0.969384849071503 0.000000000000000
-16.892122268676758 3.667197227478027 -0.648126602172852 0.003921568859369
-8.877570152282715 1.898224115371704 0.069967061281204 0.000000000000000
-15.843669891357422 3.489587306976318 -0.971741139888763 0.000000000000000
-16.917543411254883 3.735821008682251 -0.649810254573822 0.003921568859369
-15.876632690429688 3.552619457244873 -0.976514637470245 0.000000000000000
-16.836866378784180 3.776200056076050 -0.648790717124939 0.003921568859369
-19.543605804443359 6.418496131896973 3.682477235794067 0.003921568859369
-11.832572937011719 3.849317312240601 0.229729041457176 0.000000000000000
-15.875801086425781 3.608732938766479 -0.977364122867584 0.000000000000000
-28.183361053466797 7.970511436462402 7.745206832885742 0.003921568859369
-15.924592971801758 3.679638862609863 -0.981474041938782 0.000000000000000
-10.961678504943848 3.631646633148193 -0.299019485712051 0.000000000000000
-15.982136726379395 3.747469663619995 -0.986076116561890 0.000000000000000
-9.530156135559082 3.132531404495239 0.405427277088165 0.000000000000000
-7.073892593383789 1.926065921783447 1.831485033035278 0.000000000000000
-5.286806106567383 1.234611392021179 -0.070373654365540 0.000000000000000
-4.613963127136230 1.058637142181396 0.037817619740963 0.000000000000000
-3.349013566970825 1.025418758392334 0.252273142337799 0.000000000000000
-6.415989875793457 2.227555990219116 1.153696656227112 0.000000000000000
-2.483401775360107 0.655254721641541 -0.036877885460854 0.000000000000000
-10.114279747009277 2.785064697265625 0.309203743934631 0.000000000000000
-2.469772338867188 0.658006131649017 -0.036625377833843 0.000000000000000
-14.598467826843262 5.690477848052979 2.783526182174683 0.000000000000000
-17.946321487426758 7.118782997131348 3.450810432434082 0.003921568859369
-8.179233551025391 2.721370697021484 1.008794307708740 0.000000000000000
-7.047767162322998 2.062020778656006 -0.102808333933353 0.000000000000000
-8.600133895874023 3.453990697860718 1.609977364540100 0.000000000000000
-8.134473800659180 3.289109945297241 1.520552754402161 0.000000000000000
-3.510876178741455 1.319180250167847 0.274147570133209 0.000000000000000
-6.741577148437500 2.433044433593750 1.793849706649780 0.000000000000000
-5.203794002532959 2.114159107208252 0.942019820213318 0.000000000000000
-6.522743701934814 2.417500495910645 0.803591251373291 0.003921568859369
-8.496040344238281 3.708355903625488 -0.443581730127335 0.000000000000000
-4.430210590362549 1.827847957611084 0.791212379932404 0.000000000000000
-10.186981201171875 4.145731925964355 2.827470779418945 0.000000000000000
-4.489933490753174 1.595768928527832 -0.062856823205948 0.000000000000000
-10.459920883178711 4.052715778350830 0.328731775283813 0.000000000000000
-4.523451805114746 1.661707520484924 -0.164888650178909 0.000000000000000
-3.144352674484253 1.097912192344666 0.091649860143661 0.000000000000000
-4.186575412750244 1.784292340278625 1.097199440002441 0.000000000000000
-5.994185447692871 2.668797492980957 0.188055157661438 0.000000000000000
-5.430999279022217 2.976052045822144 0.143108248710632 0.000000000000000
-9.395231246948242 6.277614593505859 2.926151275634766 0.000000000000000
-7.177254199981689 5.414547443389893 2.312155008316040 0.000000000000000
-5.920897006988525 4.955169200897217 0.606532096862793 0.000000000000000
-2.935652494430542 1.957499623298645 0.024426318705082 0.000000000000000
-18.989891052246094 23.172422409057617 -0.344678372144699 0.003921568859369
-1.788915872573853 1.534023284912109 0.170248985290527 0.000000000000000
-18.738265991210938 23.685377120971680 -0.348256528377533 0.003921568859369
-18.435079574584961 23.653038024902344 -0.346448183059692 0.003921568859369
-17.979362487792969 23.908395767211914 -0.346269667148590 0.003921568859369
-19.106941223144531 23.000267028808594 -0.171523332595825 0.003921568859369
-14.896806716918945 20.010349273681641 4.499439239501953 0.003921568859369
-18.439718246459961 22.661775588989258 -0.673271536827087 0.003921568859369
-16.537706375122070 23.121051788330078 -0.658032476902008 0.003921568859369
-17.120933532714844 23.964761734008789 0.167038902640343 0.003921568859369
-17.062717437744141 24.807188034057617 0.170011997222900 0.003921568859369
-16.995985031127930 24.895145416259766 0.170103311538696 0.003921568859369
-1.606740713119507 2.630928516387939 0.171680971980095 0.000000000000000
-3.658227443695068 8.059657096862793 1.585650444030762 0.000000000000000
-8.346504211425781 20.416921615600586 3.988536119461060 0.003921568859369
-2.136089324951172 4.211850643157959 1.224543213844299 0.000000000000000
-9.704148292541504 25.780094146728516 4.988387107849121 0.003921568859369
-7.626614093780518 25.792894363403320 -0.322703570127487 0.003921568859369
-7.221517086029053 25.725563049316406 -0.320895701646805 0.003921568859369
-5.658724308013916 16.773847579956055 3.201072216033936 0.003921568859369
-4.269147396087646 12.837189674377441 2.442603826522827 0.000000000000000
-2.140303850173950 5.585266590118408 1.571214079856873 0.000000000000000
-0.895938754081726 3.189639568328857 -0.262727916240692 0.000000000000000
-2.253149986267090 11.399968147277832 2.103841304779053 0.000000000000000
-2.266394853591919 9.173089981079102 2.509708642959595 0.000000000000000
-2.234370946884155 9.179809570312500 2.509688615798950 0.000000000000000
-1.087670564651489 7.558567523956299 0.087056227028370 0.000000000000000
-1.326039433479309 7.340225219726562 1.349182963371277 0.000000000000000
-2.890751361846924 19.332624435424805 3.546720981597900 0.003921568859369
-3.069531679153442 21.849201202392578 4.004307746887207 0.003921568859369
-2.980396270751953 21.753171920776367 3.984956264495850 0.003921568859369
-2.874333620071411 21.590250015258789 3.953606843948364 0.003921568859369
-2.802556753158569 21.630331039428711 3.959286928176880 0.003921568859369
-2.053224802017212 10.778851509094238 2.921613693237305 0.000000000000000
-0.715798079967499 6.797111511230469 0.078193053603172 0.000000000000000
-0.643490552902222 5.916471481323242 -0.207401648163795 0.000000000000000
-0.673304796218872 6.895598411560059 0.079226531088352 0.000000000000000
-2.428556442260742 21.709629058837891 3.966236829757690 0.003921568859369
-1.118910312652588 9.631678581237793 -0.058891881257296 0.000000000000000
-1.334843397140503 12.237914085388184 2.234195232391357 0.000000000000000
-0.526948034763336 6.837488174438477 -0.080798394978046 0.000000000000000
-1.652746558189392 17.605461120605469 -0.110173434019089 0.000000000000000
-0.773318886756897 6.111082553863525 1.116494894027710 0.000000000000000
-1.466183900833130 16.703531265258789 0.675026893615723 0.003921568859369
-0.745019793510437 6.652938365936279 0.543193399906158 0.000000000000000
-0.819661736488342 8.246196746826172 0.672393620014191 0.000000000000000
-1.217404007911682 15.554031372070312 0.628267943859100 0.000000000000000
-0.917735457420349 11.023413658142090 -0.324958860874176 0.000000000000000
-0.532571911811829 4.349229812622070 -0.227781340479851 0.000000000000000
-0.245087876915932 8.260354995727539 -0.098370030522346 0.000000000000000
-1.059838175773621 8.663872718811035 1.065458774566650 0.000000000000000
-0.719001173973083 10.894944190979004 1.983720064163208 0.000000000000000
-0.861278653144836 16.391126632690430 -0.102310277521610 0.000000000000000
-0.595874667167664 8.686798095703125 0.149379149079323 0.000000000000000
-1.063370466232300 6.092137813568115 -0.107672624289989 0.000000000000000
-1.449997782707214 9.430799484252930 0.052782077342272 0.000000000000000
-0.384219318628311 3.648055315017700 -0.020475370809436 0.000000000000000
-2.056189060211182 14.816878318786621 0.081184059381485 0.000000000000000
-1.163628339767456 13.158598899841309 1.614049315452576 0.000000000000000
-0.393255770206451 7.152379989624023 -0.043013494461775 0.000000000000000
-1.077771902084351 13.254188537597656 -0.004957947880030 0.000000000000000
-0.986017107963562 11.720735549926758 3.141127109527588 0.000000000000000
-0.338124126195908 6.342243194580078 -0.185516282916069 0.000000000000000
-0.649099647998810 6.788762569427490 0.394694060087204 0.000000000000000
-0.328504651784897 10.650244712829590 0.865652501583099 0.000000000000000
-0.591879129409790 6.094037055969238 -0.000708250096068 0.000000000000000
-1.336325168609619 21.492065429687500 2.631670951843262 0.003921568859369
-0.580830693244934 5.864631652832031 -0.137171447277069 0.000000000000000
-1.062332987785339 17.061035156250000 2.089311838150024 0.003921568859369
-0.721852004528046 9.486310005187988 2.540911912918091 0.000000000000000
-0.622163116931915 8.058174133300781 -0.001910442719236 0.003921568859369
-0.947063207626343 7.280302524566650 0.211393639445305 0.000000000000000
-0.523057818412781 6.196647167205811 -0.000821961788461 0.000000000000000
-0.603318810462952 8.304983139038086 0.191296368837357 0.000000000000000
-0.244244247674942 3.971337795257568 -0.207669526338577 0.000000000000000
-0.593565881252289 8.045012474060059 -0.189228206872940 0.000000000000000
-0.786587715148926 14.436498641967773 -0.005706557072699 0.000000000000000
0.213029712438583 7.908871650695801 0.090106494724751 0.000000000000000
-0.135077923536301 7.147382736206055 -0.043088104575872 0.000000000000000
-0.776734292507172 6.698168754577637 -0.118239365518093 0.000000000000000
-0.226715505123138 2.434439897537231 0.100504368543625 0.000000000000000
-0.075004816055298 8.542631149291992 1.555228114128113 0.000000000000000
-1.120681762695312 11.979282379150391 0.345342487096786 0.000000000000000
-0.089406013488770 6.992725849151611 0.283482760190964 0.000000000000000
-0.957834720611572 10.150860786437988 0.292976468801498 0.000000000000000
0.061970621347427 10.994049072265625 0.188030064105988 0.000000000000000
-0.354922771453857 3.988546371459961 1.068855285644531 0.000000000000000
0.083691626787186 10.502577781677246 1.912002563476562 0.000000000000000
-0.912191510200500 10.582379341125488 0.305148810148239 0.000000000000000
-0.312876403331757 8.267639160156250 1.012773633003235 0.000000000000000
-0.640340209007263 7.477248191833496 0.216273501515388 0.000000000000000
-0.276000976562500 3.331583499908447 0.194707661867142 0.000000000000000
-1.117419719696045 18.631141662597656 -0.333477258682251 0.003921568859369
0.088165462017059 6.922004222869873 1.261988282203674 0.000000000000000
-0.631316602230072 10.238820075988770 0.294934451580048 0.000000000000000
-0.581724524497986 11.023495674133301 -0.452910512685776 0.000000000000000
0.064610689878464 16.007339477539062 4.282323837280273 0.003921568859369
0.299007236957550 7.456870079040527 0.302778095006943 0.000000000000000
-0.413717687129974 7.966644763946533 -0.140985235571861 0.000000000000000
0.231931149959564 15.995177268981934 4.280201911926270 0.003921568859369
0.041548192501068 8.210487365722656 2.198769807815552 0.000000000000000
0.242435306310654 12.174951553344727 -0.288067966699600 0.000000000000000
-0.266391396522522 5.858697414398193 0.169714987277985 0.000000000000000
-0.235382169485092 8.799592018127441 -0.156030505895615 0.000000000000000
-0.053809598088264 6.764612197875977 -0.119461081922054 0.000000000000000
0.315630823373795 16.348354339599609 -0.292304962873459 0.003921568859369
3.696628093719482 29.600221633911133 2.422521829605103 0.003921568859369
0.346044510602951 15.654879570007324 -0.279851198196411 0.000000000000000
-0.108528718352318 3.862885236740112 -0.157168298959732 0.000000000000000
1.220064163208008 15.038077354431152 4.041607379913330 0.000000000000000
1.489016056060791 12.997060775756836 3.507569313049316 0.000000000000000
0.207344487309456 3.011919260025024 0.816411793231964 0.000000000000000
0.218965873122215 3.014051437377930 0.817442774772644 0.000000000000000
1.571306824684143 8.708915710449219 -0.054532423615456 0.000000000000000
1.774835705757141 9.651165008544922 2.637694597244263 0.000000000000000
1.263922095298767 9.223583221435547 -0.165946632623672 0.000000000000000
6.164182662963867 23.875139236450195 4.494391918182373 0.003921568859369
1.969514250755310 7.984422683715820 1.507175683975220 0.000000000000000
1.649381756782532 7.656123638153076 0.181248694658279 0.000000000000000
7.585286617279053 24.934610366821289 2.121038198471069 0.003921568859369
5.210598945617676 16.729961395263672 3.199182748794556 0.003921568859369
2.664210319519043 8.681056022644043 1.664625287055969 0.000000000000000
4.545413970947266 14.181146621704102 1.215278506278992 0.000000000000000
7.189248085021973 24.551692962646484 3.137192487716675 0.003921568859369
7.177166461944580 20.108385086059570 3.896395683288574 0.003921568859369
7.672606945037842 24.892398834228516 0.596365272998810 0.003921568859369
2.315755128860474 7.876799106597900 1.013171792030334 0.000000000000000
7.345002174377441 20.130033493041992 3.910708189010620 0.003921568859369
7.415219306945801 20.103546142578125 3.910709857940674 0.003921568859369
7.697444915771484 20.437948226928711 3.985841274261475 0.003921568859369
4.763688564300537 14.632281303405762 4.134229660034180 0.000000000000000
11.002695083618164 27.782806396484375 -0.884210944175720 0.003921568859369
5.537149906158447 13.679936408996582 2.698923110961914 0.000000000000000
2.826433658599854 6.744426250457764 1.345712542533875 0.000000000000000
5.863729953765869 14.288204193115234 1.899784445762634 0.000000000000000
9.487716674804688 20.055315017700195 4.051274776458740 0.003921568859369
2.609047412872314 5.602477550506592 1.140404820442200 0.000000000000000
2.905071020126343 5.818049430847168 1.199179053306580 0.000000000000000
5.427264213562012 11.018564224243164 3.307471513748169 0.000000000000000
4.335004806518555 6.710020542144775 2.159382581710815 0.000000000000000
1.006220221519470 1.704227447509766 0.252587229013443 0.000000000000000
2.693142414093018 3.717177867889404 0.381264626979828 0.000000000000000
7.329690933227539 10.865203857421875 3.529623031616211 0.000000000000000
4.865983963012695 6.340660572052002 0.327950388193130 0.000000000000000
5.783515930175781 6.978147029876709 1.666141510009766 0.000000000000000
3.707986116409302 4.898034572601318 0.763317823410034 0.000000000000000
9.704498291015625 11.113183975219727 2.701689481735229 0.000000000000000
5.408448696136475 5.986929893493652 2.180526018142700 0.000000000000000
6.562636375427246 6.523303508758545 1.700164437294006 0.000000000000000
6.520835399627686 7.088071823120117 2.597525119781494 0.000000000000000
7.730775833129883 7.188655853271484 1.936834931373596 0.000000000000000
6.073870182037354 5.821164131164551 2.270766258239746 0.000000000000000
8.936920166015625 8.164791107177734 0.707304418087006 0.000000000000000
10.148771286010742 9.197894096374512 3.684301376342773 0.000000000000000
10.313072204589844 8.464909553527832 2.442579746246338 0.000000000000000
8.404303550720215 6.527186870574951 1.950799465179443 0.000000000000000
5.017078399658203 4.272535800933838 0.816283881664276 0.000000000000000
9.879981040954590 8.278635978698730 1.588215470314026 0.000000000000000
9.409196853637695 7.084095954895020 2.156698226928711 0.000000000000000
4.346938133239746 3.342665672302246 0.322054058313370 0.000000000000000
11.675256729125977 7.674035549163818 2.555609226226807 0.000000000000000
3.679015874862671 2.572436809539795 -0.487863689661026 0.000000000000000
5.641420841217041 3.501522779464722 0.545405566692352 0.000000000000000
7.156648159027100 4.160908222198486 0.338853001594543 0.000000000000000
9.400531768798828 5.456642150878906 1.989222288131714 0.000000000000000
10.455597877502441 6.609619140625000 0.721928954124451 0.000000000000000
11.789226531982422 7.449560642242432 1.715925335884094 0.000000000000000
7.457842350006104 4.649037361145020 1.082999229431152 0.000000000000000
15.870959281921387 7.688469886779785 0.205183252692223 0.003921568859369
5.121933460235596 3.149742841720581 0.742417097091675 0.000000000000000
7.196085929870605 3.943763732910156 0.672616779804230 0.000000000000000
7.647444725036621 4.089376926422119 0.710677623748779 0.000000000000000
15.856784820556641 7.416340827941895 -0.613067269325256 0.003921568859369
10.244564056396484 5.145375728607178 2.094843864440918 0.000000000000000
13.601487159729004 6.710714340209961 1.240001440048218 0.000000000000000
8.167121887207031 3.962769269943237 0.370839238166809 0.000000000000000
4.057728767395020 2.210282325744629 0.108193956315517 0.000000000000000
15.900238037109375 7.356333255767822 0.714241504669189 0.003921568859369
15.828800201416016 7.262994289398193 0.710012793540955 0.003921568859369
15.839501380920410 7.201015472412109 0.709364473819733 0.003921568859369
15.851207733154297 7.136279106140137 0.708716213703156 0.003921568859369
15.878436088562012 7.085238933563232 0.708881437778473 0.003921568859369
15.816540718078613 6.988201618194580 0.704978585243225 0.003921568859369
10.848169326782227 4.660536766052246 2.155912160873413 0.000000000000000
8.160307884216309 3.370972156524658 1.611435770988464 0.000000000000000
8.814401626586914 3.497446537017822 0.386700838804245 0.000000000000000
6.867712497711182 2.670494318008423 0.300588250160217 0.000000000000000
10.047074317932129 4.439967632293701 1.349781155586243 0.000000000000000
7.636678695678711 3.767645359039307 0.248061448335648 0.000000000000000
22.420820236206055 8.355450630187988 1.953885674476624 0.003921568859369
15.708121299743652 7.603750705718994 0.101429529488087 0.000000000000000
12.946925163269043 4.771238327026367 1.126409888267517 0.000000000000000
24.247846603393555 8.935886383056641 4.711661338806152 0.003921568859369
6.686010837554932 2.281317234039307 0.576711416244507 0.000000000000000
20.225830078125000 6.743923187255859 3.887281894683838 0.003921568859369
28.005283355712891 7.629862308502197 0.337917387485504 0.003921568859369
4.658772945404053 1.496993780136108 0.198938488960266 0.000000000000000
27.843559265136719 7.374635696411133 0.335366874933243 0.003921568859369
27.716186523437500 7.134276866912842 -0.332930594682693 0.003921568859369
27.925350189208984 7.188119888305664 0.335734993219376 0.003921568859369
6.513833045959473 2.712581634521484 -0.123009972274303 0.000000000000000
12.429551124572754 4.437004566192627 0.306935638189316 0.000000000000000
27.832736968994141 6.967838764190674 0.334053128957748 0.003921568859369
21.803663253784180 6.604629039764404 4.152150154113770 0.003921568859369
27.867055892944336 6.862878322601318 -0.333868205547333 0.003921568859369
28.391342163085938 6.992026329040527 0.340434163808823 0.003921568859369
4.550882339477539 1.856765866279602 0.142746210098267 0.000000000000000
27.568220138549805 6.687300682067871 0.330274045467377 0.003921568859369
6.258446216583252 2.529573678970337 0.196176201105118 0.000000000000000
27.630300521850586 6.600366115570068 0.330737709999084 0.003921568859369
26.539453506469727 7.627099990844727 2.253624439239502 0.003921568859369
8.256079673767090 2.781455755233765 1.068550109863281 0.000000000000000
26.573583602905273 7.536630630493164 2.254273176193237 0.003921568859369
27.184627532958984 7.607653617858887 -0.163857609033585 0.003921568859369
26.545984268188477 7.428804874420166 2.249714136123657 0.003921568859369
27.515171051025391 7.604241371154785 -0.165492236614227 0.003921568859369
27.736127853393555 7.556128501892090 -0.835753381252289 0.003921568859369
26.482774734497070 7.214285850524902 2.239437341690063 0.003921568859369
11.295623779296875 3.073877334594727 2.130927562713623 0.000000000000000
27.665344238281250 7.438298702239990 2.337415695190430 0.003921568859369
27.520257949829102 7.296556472778320 -0.827737927436829 0.003921568859369
27.633338928222656 7.326409339904785 2.332528591156006 0.003921568859369
27.744102478027344 7.247278213500977 -0.833673894405365 0.003921568859369
27.432439804077148 7.165656566619873 2.313318014144897 0.003921568859369
27.695665359497070 7.131507396697998 -0.831468820571899 0.003921568859369
7.731965065002441 2.394499540328979 0.991507470607758 0.000000000000000
26.785535812377930 6.896836280822754 2.256672620773315 0.003921568859369
27.130168914794922 6.884805679321289 2.283686161041260 0.003921568859369
19.349435806274414 4.908725738525391 3.636312246322632 0.003921568859369
26.852371215820312 6.714647293090820 2.258291244506836 0.003921568859369
27.227460861206055 6.712825775146484 -0.162607640028000 0.003921568859369
27.474449157714844 6.773646831512451 2.308742523193359 0.003921568859369
27.539516448974609 6.682916164398193 -0.164328187704086 0.003921568859369
7.269649505615234 2.140437126159668 0.928121149539948 0.000000000000000
27.727661132812500 6.728487491607666 2.327943325042725 0.003921568859369
14.432424545288086 3.499793767929077 2.704223632812500 0.000000000000000
27.263225555419922 7.950724601745605 1.653102159500122 0.003921568859369
27.806821823120117 6.655329227447510 2.332822084426880 0.003921568859369
27.052787780761719 7.676929950714111 0.654161870479584 0.003921568859369
27.436908721923828 7.785984992980957 1.659765720367432 0.003921568859369
27.033216476440430 7.569595336914062 0.653037369251251 0.003921568859369
27.556203842163086 7.716129779815674 1.665342688560486 0.003921568859369
10.797017097473145 2.979730844497681 0.000028282753192 0.003921568859369
3.957424402236938 0.683222830295563 -0.372328072786331 0.000000000000000
27.543153762817383 7.614161014556885 1.663009405136108 0.003921568859369
27.694095611572266 7.656101226806641 -0.667461395263672 0.003921568859369
27.464984893798828 7.386787891387939 0.661587357521057 0.003921568859369
20.936319351196289 4.546324729919434 3.901116609573364 0.003921568859369
27.668403625488281 7.338270187377930 -0.664972364902496 0.003921568859369
13.940678596496582 2.220441818237305 0.163990825414658 0.000000000000000
1.541410326957703 0.475603312253952 -0.101774007081985 0.003921568859369
26.943710327148438 7.045220851898193 1.620639204978943 0.003921568859369
7.994899272918701 2.084796667098999 2.206120014190674 0.000000000000000
27.411441802978516 7.167826175689697 -0.658193528652191 0.003921568859369
3.886684656143188 0.796459615230560 -0.114788852632046 0.000000000000000
27.505987167358398 7.090084075927734 0.660728394985199 0.003921568859369
27.679592132568359 7.134811401367188 1.663440346717834 0.003921568859369
27.753807067871094 7.154129505157471 -0.665822803974152 0.003921568859369
10.661045074462891 2.157004356384277 -0.885603725910187 0.000000000000000
10.726330757141113 2.720235824584961 1.355196118354797 0.000000000000000
28.117208480834961 6.934858798980713 1.685288548469543 0.003921568859369
27.524587631225586 6.686874389648438 0.658837974071503 0.003921568859369
12.135855674743652 1.716245889663696 0.142290890216827 0.000000000000000
28.024843215942383 6.808468818664551 1.678302049636841 0.003921568859369
28.027294158935547 6.703100681304932 1.676567673683167 0.003921568859369
11.322880744934082 1.519266724586487 -0.397675842046738 0.000000000000000
27.115016937255859 6.290139198303223 0.647296845912933 0.003921568859369
5.350135326385498 0.943795859813690 -0.157176330685616 0.000000000000000
28.125978469848633 6.421674251556396 1.678401470184326 0.003921568859369
12.995249748229980 1.608804583549500 -0.152064919471741 0.000000000000000
27.517200469970703 6.181715965270996 0.655850231647491 0.003921568859369
14.193958282470703 1.757643938064575 0.165993422269821 0.000000000000000
27.885509490966797 6.162447929382324 1.661397695541382 0.003921568859369
27.496032714843750 7.397532939910889 0.165867060422897 0.003921568859369
28.216135025024414 6.132630348205566 0.671483814716339 0.003921568859369
28.288206100463867 6.045110225677490 0.672685503959656 0.003921568859369
27.140724182128906 7.099240779876709 0.163394182920456 0.003921568859369
27.235054016113281 7.022591114044189 0.163805902004242 0.003921568859369
9.887917518615723 2.035479307174683 1.234718561172485 0.000000000000000
3.630394220352173 0.741973042488098 0.982240140438080 0.000000000000000
3.519370555877686 0.706370055675507 0.951177537441254 0.000000000000000
10.426115989685059 1.585162043571472 1.915557980537415 0.000000000000000
10.365128517150879 1.539199948310852 -0.303927898406982 0.000000000000000
12.562221527099609 1.245229363441467 -0.439572274684906 0.000000000000000
6.341996192932129 0.603395998477936 -0.368423104286194 0.000000000000000
9.532541275024414 0.876000225543976 0.110647439956665 0.000000000000000
27.188377380371094 6.504824161529541 0.162836298346519 0.003921568859369
13.478092193603516 2.532155513763428 -0.636527299880981 0.000000000000000
14.904904365539551 3.511338472366333 -0.978142797946930 0.000000000000000
14.870416641235352 3.448601245880127 -0.975080847740173 0.000000000000000
14.828479766845703 3.381793975830078 -0.971507728099823 0.000000000000000
14.812355995178223 3.326619625091553 -0.969723820686340 0.000000000000000
14.777112007141113 3.264703512191772 -0.966661751270294 0.000000000000000
5.961055278778076 1.310253500938416 -0.246890485286713 0.000000000000000
7.335177421569824 1.244778275489807 1.980284690856934 0.000000000000000
14.764454841613770 3.210743904113770 -0.965133488178253 0.000000000000000
14.768320083618164 3.155112266540527 -0.964628577232361 0.000000000000000
2.717328548431396 0.436590671539307 -0.063246242702007 0.000000000000000
4.880162239074707 0.533003091812134 -0.028555618599057 0.000000000000000
14.751901626586914 3.097956180572510 -0.962844848632812 0.000000000000000
14.767064094543457 3.044861078262329 -0.963106989860535 0.000000000000000
12.352645874023438 1.924054980278015 -0.289832442998886 0.000000000000000
14.767965316772461 2.989427566528320 -0.961817622184753 0.000000000000000
14.773367881774902 2.942425251007080 -0.961568534374237 0.000000000000000
14.787467956542969 2.891811370849609 -0.961831688880920 0.000000000000000
14.794546127319336 2.834481000900269 -0.961584091186523 0.000000000000000
8.673473358154297 1.628786683082581 -0.153189599514008 0.000000000000000
4.322552680969238 0.591951131820679 -0.000369819899788 0.000000000000000
14.811222076416016 2.789662122726440 -0.962102115154266 0.000000000000000
14.829196929931641 2.737033843994141 -0.962621271610260 0.000000000000000
14.838662147521973 2.685457468032837 -0.962628722190857 0.000000000000000
6.769851684570312 0.551123321056366 1.227253556251526 0.000000000000000
4.756694793701172 0.837194740772247 -0.083611719310284 0.000000000000000
15.516640663146973 1.982280969619751 0.362591266632080 0.000000000000000
14.871066093444824 2.640640258789062 -0.964169919490814 0.000000000000000
3.965234994888306 0.486829221248627 -0.000389407156035 0.000000000000000
14.891989707946777 2.590986013412476 -0.964944303035736 0.000000000000000
14.936800003051758 2.542654514312744 -0.967253386974335 0.000000000000000
17.946731567382812 1.281519532203674 0.730505824089050 0.003921568859369
11.230969429016113 1.351481437683105 -0.262027263641357 0.000000000000000
17.571023941040039 0.338720679283142 0.203654393553734 0.003921568859369
14.996332168579102 2.501874923706055 -0.970584452152252 0.000000000000000
7.293731689453125 0.139806628227234 -0.253073334693909 0.000000000000000
7.988452911376953 1.299448847770691 -0.140470683574677 0.000000000000000
6.279800415039062 0.402983546257019 -0.181782990694046 0.000000000000000
15.111332893371582 2.467159032821655 -0.977495551109314 0.000000000000000
10.081681251525879 1.106578707695007 0.234134569764137 0.000000000000000
15.307151794433594 2.442976713180542 -0.989004433155060 0.000000000000000
13.990076065063477 0.802097856998444 -0.081304416060448 0.000000000000000
5.211381435394287 0.549035966396332 0.300733238458633 0.000000000000000
10.520640373229980 1.565142869949341 0.061239793896675 0.000000000000000
17.212528228759766 0.873750329017639 0.299416363239288 0.003921568859369
16.456588745117188 0.774542927742004 2.990921497344971 0.003921568859369
14.399062156677246 0.629634976387024 2.614911317825317 0.000000000000000
13.410259246826172 0.539936244487762 -0.077916480600834 0.000000000000000
5.678716659545898 0.779950618743896 -0.231109991669655 0.000000000000000
4.282348155975342 0.569955706596375 -0.074643760919571 0.000000000000000
9.049427986145020 0.330231577157974 0.733170688152313 0.000000000000000
9.531949996948242 0.316719412803650 -0.055434413254261 0.000000000000000
7.277064323425293 0.594702124595642 -0.337276071310043 0.000000000000000
4.925013542175293 0.400262564420700 1.305027127265930 0.000000000000000
9.241135597229004 0.274924904108047 -0.053748466074467 0.000000000000000
10.760207176208496 0.805155873298645 0.249166980385780 0.000000000000000
16.071718215942383 1.205479383468628 -0.373585522174835 0.000000000000000
4.676239490509033 0.331433296203613 -0.107947140932083 0.000000000000000
11.209016799926758 0.216998144984245 -0.065157033503056 0.000000000000000
16.294384002685547 0.259779125452042 -0.472335427999496 0.000000000000000
13.541368484497070 0.215545356273651 -0.078674063086510 0.000000000000000
11.822729110717773 0.187777146697044 0.958344161510468 0.000000000000000
7.047520160675049 0.111124262213707 1.270104169845581 0.000000000000000
12.342154502868652 0.153491795063019 -0.071730710566044 0.000000000000000
17.233676910400391 0.997327268123627 0.399634957313538 0.000000000000000
3.718615770339966 0.033189162611961 0.062914460897446 0.000000000000000
12.653778076171875 -0.498995035886765 -0.440030276775360 0.000000000000000
15.232813835144043 0.138957142829895 2.762587308883667 0.000000000000000
8.528172492980957 0.048042289912701 0.343686938285828 0.000000000000000
10.888254165649414 1.082168817520142 -0.442864686250687 0.000000000000000
14.566291809082031 0.689958870410919 0.844329953193665 0.000000000000000
8.986276626586914 0.861855864524841 -0.364942371845245 0.000000000000000
17.675088882446289 0.776907384395599 -0.820684790611267 0.000000000000000
9.431405067443848 0.773180842399597 0.272723704576492 0.000000000000000
9.358549118041992 -0.141558364033699 0.377531468868256 0.000000000000000
11.718026161193848 0.350915640592575 -0.000424681318691 0.003921568859369
7.852805614471436 -0.526341080665588 -0.272733002901077 0.000000000000000
13.328535079956055 0.352891236543655 -0.000449304701760 0.000000000000000
16.760696411132812 -0.428520172834396 -0.485906600952148 0.000000000000000
8.597170829772949 0.167079359292984 0.495003372430801 0.000000000000000
6.337340354919434 0.406710654497147 0.181662067770958 0.000000000000000
11.104897499084473 -0.935347318649292 -0.129475146532059 0.000000000000000
3.695962905883789 0.046672571450472 0.083246663212776 0.000000000000000
10.095970153808594 0.130487456917763 -0.700352251529694 0.000000000000000
9.873551368713379 -0.385020226240158 -0.285643190145493 0.000000000000000
3.652119636535645 0.033661425113678 0.082219451665878 0.000000000000000
11.714022636413574 0.639157056808472 -0.474736303091049 0.000000000000000
8.908214569091797 0.453863203525543 -0.154644951224327 0.000000000000000
23.938037872314453 -1.105741500854492 4.352341651916504 0.003921568859369
7.205354213714600 -0.356059432029724 -0.208070456981659 0.000000000000000
17.276935577392578 0.764533042907715 0.500417053699493 0.003921568859369
7.663464546203613 0.336778432130814 -0.309439837932587 0.000000000000000
13.265378952026367 -0.795313954353333 1.076888918876648 0.000000000000000
8.703752517700195 -0.973443388938904 -0.101725764572620 0.000000000000000
11.157482147216797 -0.706039249897003 -0.581520378589630 0.000000000000000
15.087793350219727 -1.115005373954773 1.226153254508972 0.000000000000000
5.818624496459961 -0.164323985576630 -0.267303586006165 0.000000000000000
4.021171569824219 -0.318983197212219 0.320380598306656 0.000000000000000
6.814242839813232 -0.592827737331390 -0.197044849395752 0.000000000000000
6.366766452789307 0.060604352504015 0.035721361637115 0.000000000000000
7.665175437927246 -0.296538710594177 -0.353475213050842 0.000000000000000
8.287732124328613 -0.349622666835785 -0.000770021113567 0.003921568859369
5.960937023162842 -0.270919859409332 -0.000796528882347 0.000000000000000
7.789937973022461 -0.355407416820526 0.447586953639984 0.000000000000000
13.288191795349121 0.036149229854345 -0.537913918495178 0.000000000000000
3.317806243896484 -0.002844189526513 0.092888452112675 0.000000000000000
8.150426864624023 -0.824268698692322 0.328840523958206 0.000000000000000
16.461971282958984 -0.870957732200623 4.389869213104248 0.003921568859369
19.052820205688477 -0.146320268511772 -0.772370457649231 0.003921568859369
3.833338975906372 -0.224541991949081 0.085907906293869 0.000000000000000
18.774080276489258 -0.340019315481186 0.542676448822021 0.003921568859369
6.317454814910889 -0.766218602657318 -0.328834205865860 0.000000000000000
9.366043090820312 -0.685763478279114 1.138807892799377 0.000000000000000
8.978507041931152 -1.094970107078552 1.628354310989380 0.000000000000000
23.598310470581055 -2.982222080230713 4.315826892852783 0.003921568859369
3.445182800292969 -0.282537132501602 -0.000934078008868 0.000000000000000
13.295166015625000 -1.116075515747070 3.544876337051392 0.000000000000000
10.503610610961914 -0.405542254447937 -0.182389393448830 0.000000000000000
9.669895172119141 -0.372998952865601 -0.390636801719666 0.000000000000000
15.329050064086914 -0.646767258644104 -0.266679883003235 0.000000000000000
5.893415451049805 -0.550575733184814 0.134252294898033 0.000000000000000
1.730023384094238 -0.075031287968159 -0.067024104297161 0.003921568859369
1.727700591087341 -0.080151326954365 -0.066621012985706 0.003921568859369
16.037059783935547 -1.626655936241150 0.930736184120178 0.000000000000000
4.855527400970459 -0.267981648445129 -0.194260284304619 0.000000000000000
6.826838016510010 -0.402849644422531 0.038080975413322 0.000000000000000
12.902407646179199 -1.396933317184448 1.577816486358643 0.000000000000000
8.927186012268066 -0.559482991695404 -0.566611945629120 0.000000000000000
7.561839103698730 -0.839560389518738 -0.175373017787933 0.000000000000000
12.094490051269531 -0.800494372844696 -0.210465967655182 0.000000000000000
6.993799686431885 -1.141553640365601 0.567713081836700 0.000000000000000
8.921262741088867 -1.587733864784241 -0.261574536561966 0.000000000000000
5.949501991271973 -0.471979290246964 0.169221803545952 0.000000000000000
10.054385185241699 -1.792255878448486 0.410000801086426 0.000000000000000
10.859222412109375 -0.906513273715973 -0.189164370298386 0.000000000000000
6.392586231231689 -1.154814600944519 1.161822199821472 0.000000000000000
1.259655237197876 -0.107968412339687 -0.020931504666805 0.003921568859369
10.561707496643066 -1.508170008659363 0.243974715471268 0.000000000000000
7.677258014678955 -1.145825982093811 2.044435024261475 0.000000000000000
4.160643577575684 -0.626368880271912 -0.001195809338242 0.000000000000000
12.439756393432617 -1.342797994613647 0.070763282477856 0.000000000000000
7.424594402313232 -1.185779333114624 1.979193687438965 0.000000000000000
8.915733337402344 -1.872370481491089 1.636527061462402 0.000000000000000
3.282512426376343 -0.365667223930359 0.091255940496922 0.000000000000000
8.410984992980957 -1.078054666519165 0.047310668975115 0.000000000000000
5.580715656280518 -1.000173926353455 1.481094717979431 0.000000000000000
7.587737083435059 -1.777401328086853 1.394559144973755 0.000000000000000
13.128753662109375 -2.527359724044800 3.544020175933838 0.000000000000000
9.875923156738281 -1.543184876441956 -0.173607245087624 0.000000000000000
24.968042373657227 -7.882787227630615 0.299869984388351 0.003921568859369
24.659908294677734 -6.669128894805908 2.071471691131592 0.003921568859369
24.374980926513672 -8.056137084960938 0.292897552251816 0.003921568859369
24.236774444580078 -8.103670120239258 0.291531056165695 0.003921568859369
26.781030654907227 -6.148052692413330 7.319890975952148 0.003921568859369
24.430133819580078 -8.452770233154297 0.294849932193756 0.003921568859369
23.864744186401367 -8.348893165588379 0.288279205560684 0.003921568859369
24.097208023071289 -7.137227058410645 2.035979747772217 0.003921568859369
26.033222198486328 -7.911313533782959 2.205251455307007 0.003921568859369
24.661014556884766 -7.585607051849365 2.090491533279419 0.003921568859369
28.581176757812500 -7.402903556823730 0.679539322853088 0.003921568859369
24.721895217895508 -7.698535442352295 2.097935914993286 0.003921568859369
10.124682426452637 -2.598798751831055 2.759858131408691 0.000000000000000
24.074106216430664 -7.592013835906982 2.044929265975952 0.003921568859369
25.586921691894531 -6.996662139892578 0.608870744705200 0.003921568859369
23.930292129516602 -7.809099674224854 2.037508964538574 0.003921568859369
24.360256195068359 -8.146532058715820 -0.153619915246964 0.003921568859369
24.261602401733398 -8.114145278930664 2.070904731750488 0.003921568859369
24.304252624511719 -8.212218284606934 -0.153457015752792 0.003921568859369
24.258646011352539 -8.197527885437012 2.072825908660889 0.003921568859369
20.295656204223633 -6.850445270538330 3.873372554779053 0.003921568859369
24.236169815063477 -8.287644386291504 -0.153250902891159 0.003921568859369
23.396612167358398 -9.291760444641113 0.285743415355682 0.003921568859369
26.610713958740234 -7.684680938720703 7.375379562377930 0.003921568859369
24.169319152832031 -8.358490943908691 -0.153043121099472 0.003921568859369
28.701395034790039 -8.397445678710938 0.686867177486420 0.003921568859369
26.624515533447266 -7.788966655731201 7.386727809906006 0.003921568859369
22.549217224121094 -7.883057117462158 1.932728886604309 0.003921568859369
28.114145278930664 -9.951923370361328 2.416369199752808 0.003921568859369
27.818387985229492 -9.950112342834473 2.393597364425659 0.003921568859369
27.721796035766602 -10.029612541198730 2.388363122940063 0.003921568859369
18.686513900756836 -7.862510204315186 0.229398071765900 0.003921568859369
22.942125320434570 -8.380698204040527 1.976464152336121 0.003921568859369
23.046983718872070 -7.251099586486816 1.392038583755493 0.003921568859369
24.493793487548828 -9.039600372314453 2.111984252929688 0.003921568859369
24.423875808715820 -9.303824424743652 2.114161252975464 0.003921568859369
24.958127975463867 -8.431978225708008 1.518664360046387 0.003921568859369
24.545455932617188 -8.381571769714355 0.593654990196228 0.003921568859369
23.059394836425781 -9.236444473266602 -0.149877622723579 0.003921568859369
23.921262741088867 -8.260743141174316 3.081604719161987 0.003921568859369
24.126434326171875 -9.667806625366211 2.102316856384277 0.003921568859369
6.033426284790039 -2.040622949600220 1.661134004592896 0.000000000000000
27.996744155883789 -9.786278724670410 1.710968971252441 0.003921568859369
18.385183334350586 -7.573669433593750 0.798243701457977 0.003921568859369
18.531324386596680 -7.634726524353027 1.617870450019836 0.000000000000000
18.509599685668945 -7.772210121154785 1.619074702262878 0.000000000000000
20.902563095092773 -7.697285652160645 1.280999302864075 0.003921568859369
22.187805175781250 -9.422340393066406 1.947113871574402 0.003921568859369
27.890035629272461 -10.512999534606934 1.717836260795593 0.003921568859369
22.490474700927734 -9.737700462341309 4.430884838104248 0.003921568859369
18.437089920043945 -7.146415233612061 0.450242608785629 0.000000000000000
23.819498062133789 -12.032406806945801 0.300324559211731 0.003921568859369
23.600442886352539 -9.168088912963867 3.080896854400635 0.003921568859369
23.409444808959961 -10.428689002990723 2.070915222167969 0.003921568859369
2.685417652130127 -1.136539340019226 -0.018153468146920 0.000000000000000
22.859731674194336 -8.968665122985840 0.560400307178497 0.003921568859369
19.469079971313477 -8.740970611572266 1.722084522247314 0.003921568859369
18.355201721191406 -8.308565139770508 0.342364996671677 0.003921568859369
8.608506202697754 -2.961612462997437 -0.159373909235001 0.000000000000000
18.084297180175781 -8.332546234130859 0.338258922100067 0.003921568859369
21.486953735351562 -9.916411399841309 1.911165475845337 0.003921568859369
18.121500015258789 -8.425438880920410 0.338637381792068 0.003921568859369
23.114467620849609 -9.434101104736328 3.035621881484985 0.003921568859369
23.565273284912109 -11.284782409667969 4.723421096801758 0.003921568859369
14.369240760803223 -6.907005786895752 2.869518041610718 0.003921568859369
9.227865219116211 -5.003748893737793 -0.125003769993782 0.000000000000000
25.358476638793945 -10.874163627624512 1.587666511535645 0.003921568859369
19.187461853027344 -9.335707664489746 3.851585626602173 0.003921568859369
23.107601165771484 -11.360300064086914 2.079107522964478 0.003921568859369
19.122749328613281 -9.550505638122559 1.723308801651001 0.003921568859369
19.807090759277344 -9.981711387634277 1.788787484169006 0.003921568859369
23.758119583129883 -9.305638313293457 0.139072597026825 0.003921568859369
18.448795318603516 -9.363012313842773 1.667485833168030 0.003921568859369
23.592197418212891 -9.344161033630371 0.138260170817375 0.003921568859369
25.841123580932617 -13.277736663818359 2.347773075103760 0.003921568859369
23.454389572143555 -9.379548072814941 0.136686518788338 0.003921568859369
18.532682418823242 -8.458353996276855 0.461854904890060 0.003921568859369
25.801082611083984 -13.365530014038086 2.346422433853149 0.003921568859369
9.756024360656738 -3.890135765075684 -0.184800967574120 0.000000000000000
6.625533580780029 -2.990122556686401 -0.003857811912894 0.000000000000000
17.555999755859375 -9.130764007568359 0.790858864784241 0.003921568859369
22.311534881591797 -9.457434654235840 0.690983772277832 0.003921568859369
21.871263504028320 -10.550016403198242 1.394333243370056 0.003921568859369
4.811440467834473 -2.553044557571411 0.211358606815338 0.000000000000000
23.840248107910156 -13.081288337707520 2.194828271865845 0.003921568859369
21.036907196044922 -11.625456809997559 1.938110351562500 0.003921568859369
17.449411392211914 -9.702994346618652 0.797938585281372 0.003921568859369
16.533966064453125 -9.259576797485352 0.756906509399414 0.003921568859369
18.380350112915039 -9.163538932800293 2.491514444351196 0.003921568859369
20.738794326782227 -11.643173217773438 1.917638659477234 0.003921568859369
20.796363830566406 -11.775755882263184 1.927008271217346 0.003921568859369
19.505905151367188 -9.899100303649902 1.253492116928101 0.003921568859369
9.308412551879883 -6.036177635192871 -0.133160129189491 0.000000000000000
18.465669631958008 -8.644308090209961 0.579107463359833 0.003921568859369
16.935050964355469 -10.025089263916016 0.785275399684906 0.003921568859369
14.451181411743164 -8.607886314392090 1.350368857383728 0.003921568859369
5.042552947998047 -2.945096254348755 -0.036774281412363 0.000000000000000
6.037464618682861 -3.983620166778564 -0.086720511317253 0.000000000000000
8.331377029418945 -5.138452529907227 0.161777272820473 0.000000000000000
19.943237304687500 -12.492157936096191 1.894230365753174 0.003921568859369
5.621617794036865 -3.474262475967407 0.107610009610653 0.000000000000000
15.781105995178223 -9.036378860473633 4.812123298645020 0.003921568859369
17.849483489990234 -11.509839057922363 1.707969665527344 0.003921568859369
5.572245121002197 -3.881164073944092 -0.235592544078827 0.000000000000000
3.475665092468262 -2.159653425216675 0.064752489328384 0.000000000000000
15.850325584411621 -10.518712997436523 0.757667481899261 0.003921568859369
7.512186527252197 -5.481978893280029 0.100359082221985 0.000000000000000
23.768547058105469 -14.896338462829590 0.633677065372467 0.003921568859369
15.874210357666016 -11.007297515869141 1.550700306892395 0.000000000000000
4.516672611236572 -3.040010929107666 0.209794148802757 0.000000000000000
11.293246269226074 -7.900787353515625 1.101539254188538 0.000000000000000
4.881668090820312 -3.037182092666626 -0.004401912447065 0.000000000000000
11.470285415649414 -8.146262168884277 1.124807953834534 0.000000000000000
14.030282974243164 -9.008148193359375 4.406030178070068 0.003921568859369
