# This PCD file was generated using the MATLAB® pcwrite function
# from Computer Vision Toolbox®.
# .PCD v.7 - Point Cloud Data file format
VERSION .7
FIELDS x y z intensity
SIZE 8 8 8 8
TYPE F F F F
COUNT 1 1 1 1
WIDTH 648
HEIGHT 1
VIEWPOINT 0 0 0 1 0 0 0
POINTS 648
DATA ascii
-17.812402725219727 2.812472581863403 -0.425838679075241 0.000000000000000
-17.338560104370117 3.639547586441040 -0.516514778137207 0.000000000000000
-15.375927925109863 1.726376056671143 0.413920730352402 0.000000000000000
-19.573547363281250 3.166348695755005 -0.917704105377197 0.000000000000000
-17.677274703979492 3.714101552963257 -0.933909475803375 0.003921568859369
-18.083372116088867 2.045930862426758 -0.738395869731903 0.003921568859369
-17.787193298339844 2.866837501525879 -0.425348669290543 0.000000000000000
-3.000330686569214 0.283846676349640 -0.156374275684357 0.000000000000000
-13.865405082702637 2.256645679473877 0.767061293125153 0.000000000000000
-19.570247650146484 3.233840703964233 -0.917970776557922 0.000000000000000
-17.664197921752930 3.773625373840332 -0.933801651000977 0.003921568859369
-17.699195861816406 2.061300039291382 -0.722344994544983 0.003921568859369
-16.256052017211914 3.454708337783813 2.902230262756348 0.003921568859369
-17.784954071044922 2.928094625473022 -0.425440073013306 0.000000000000000
-18.901521682739258 3.185305595397949 -0.885986983776093 0.000000000000000
-16.840414047241211 3.650500774383545 -0.889242589473724 0.003921568859369
-17.382549285888672 2.082408189773560 -0.709151804447174 0.003921568859369
-17.790370941162109 2.990748167037964 -0.425726681947708 0.000000000000000
-9.302353858947754 1.541196346282959 -0.009917207062244 0.003921568859369
-6.929307937622070 1.441027641296387 -0.535157144069672 0.000000000000000
-18.760471343994141 3.225996017456055 -0.879578709602356 0.000000000000000
-16.773054122924805 3.694626331329346 -0.886147856712341 0.003921568859369
-8.856064796447754 1.459969639778137 1.017728447914124 0.000000000000000
-17.101638793945312 2.105898857116699 -0.697472572326660 0.003921568859369
-17.779813766479492 3.050672054290771 -0.425621896982193 0.000000000000000
-6.809562206268311 1.120626330375671 -0.446940958499908 0.000000000000000
-18.666538238525391 3.274311304092407 -0.875461280345917 0.000000000000000
-16.709474563598633 3.739231586456299 -0.883267283439636 0.003921568859369
-16.380956649780273 2.069586992263794 -0.667168378829956 0.000000000000000
-17.788719177246094 3.114132165908813 -0.426005423069000 0.000000000000000
-18.800346374511719 3.364224433898926 -0.882408499717712 0.000000000000000
-13.734087944030762 2.421625137329102 1.622385859489441 0.000000000000000
-17.538009643554688 2.281934499740601 -0.716407716274261 0.003921568859369
-17.797395706176758 3.177691459655762 -0.426388472318649 0.000000000000000
-7.440817356109619 1.989705681800842 -0.089283123612404 0.000000000000000
-17.902036666870117 2.392587184906006 -0.732078373432159 0.003921568859369
-17.825477600097656 3.245059490203857 -0.427259325981140 0.000000000000000
-17.593362808227539 3.265281677246094 -0.825145304203033 0.000000000000000
-17.875728607177734 2.451801538467407 -0.731623411178589 0.003921568859369
-17.815885543823242 3.307393074035645 -0.427428930997849 0.000000000000000
-17.538724899291992 3.316094875335693 -0.822942614555359 0.000000000000000
-12.423649787902832 2.913656711578369 2.206027984619141 0.000000000000000
-3.865875720977783 0.634392440319061 -0.080590412020683 0.000000000000000
-17.508031845092773 3.368312120437622 -0.821889400482178 0.000000000000000
-17.289381027221680 4.174075603485107 3.117045402526855 0.003921568859369
-17.906673431396484 3.447135686874390 -0.430051028728485 0.000000000000000
-7.532741069793701 1.758639097213745 -0.214955553412437 0.000000000000000
-17.554893493652344 3.439219474792480 -0.824643671512604 0.000000000000000
-17.687559127807617 2.604741573333740 -0.724445402622223 0.003921568859369
-17.976816177368164 3.524216175079346 -0.431992173194885 0.000000000000000
-6.528918266296387 1.219177603721619 -0.287966966629028 0.000000000000000
-17.957187652587891 3.580175876617432 -0.431694030761719 0.000000000000000
-19.642107009887695 3.039456129074097 -0.808056235313416 0.003921568859369
-14.148046493530273 2.207714557647705 0.383265137672424 0.000000000000000
-17.822654724121094 3.681753396987915 -0.839189171791077 0.000000000000000
-19.682643890380859 3.114263772964478 -0.810120344161987 0.003921568859369
-7.932695865631104 1.590768694877625 -0.357018917798996 0.000000000000000
-19.671648025512695 3.180829524993896 -0.810005009174347 0.003921568859369
-17.738658905029297 3.785899162292480 -0.836119711399078 0.000000000000000
-19.672803878784180 3.246045351028442 -0.810397803783417 0.003921568859369
-9.259430885314941 2.390635013580322 -0.269819617271423 0.000000000000000
-6.539704322814941 1.027755737304688 0.028326515108347 0.000000000000000
-16.848262786865234 3.648396968841553 -0.793150842189789 0.000000000000000
-19.007759094238281 3.198789119720459 -0.782470703125000 0.003921568859369
-3.907081127166748 0.920185625553131 0.136554777622223 0.000000000000000
-16.812694549560547 3.696895122528076 -0.791909933090210 0.000000000000000
-13.358852386474609 3.568325757980347 1.068052887916565 0.000000000000000
-18.989171981811523 3.258391141891479 -0.782029032707214 0.003921568859369
-16.782800674438477 3.755471229553223 -0.791034460067749 0.000000000000000
-18.964715957641602 3.326805830001831 -0.781402885913849 0.003921568859369
-17.803405761718750 3.179966688156128 -0.732708513736725 0.003921568859369
-6.893221378326416 2.170783042907715 -0.082999311387539 0.000000000000000
-17.781538009643555 3.231785058975220 -0.732110857963562 0.003921568859369
-12.870422363281250 4.236839771270752 -0.464500397443771 0.000000000000000
-17.725820541381836 3.289439916610718 -0.730152666568756 0.003921568859369
-7.100037097930908 2.270550489425659 -0.246149480342865 0.000000000000000
-17.550659179687500 3.311016321182251 -0.723026752471924 0.003921568859369
-17.597782135009766 3.381880760192871 -0.725432038307190 0.003921568859369
-9.847270965576172 1.906909584999084 -0.394928336143494 0.000000000000000
-12.589286804199219 3.719368934631348 2.277303218841553 0.000000000000000
-17.799978256225586 3.609842300415039 -0.735318720340729 0.003921568859369
-18.689729690551758 5.679699897766113 3.439403533935547 0.003921568859369
-17.806159973144531 3.677051305770874 -0.736041605472565 0.003921568859369
-3.791946172714233 0.689227700233459 -0.060201585292816 0.000000000000000
-6.284249305725098 1.825808286666870 0.482438981533051 0.000000000000000
-17.435214996337891 3.653042316436768 -0.720557332038879 0.003921568859369
-7.539693355560303 1.528266429901123 0.033942133188248 0.000000000000000
-16.993083953857422 3.616975307464600 -0.702056348323822 0.003921568859369
-16.948513031005859 3.670031547546387 -0.700609743595123 0.003921568859369
-13.600312232971191 2.964629888534546 -0.246999055147171 0.000000000000000
-14.998019218444824 4.797965526580811 2.755401611328125 0.000000000000000
-4.727322578430176 0.956177115440369 -0.177217319607735 0.000000000000000
-7.712302207946777 1.727425694465637 -0.135283559560776 0.000000000000000
-3.364488601684570 0.836460292339325 -0.002325149253011 0.000000000000000
-6.420338630676270 1.762632846832275 -0.289230257272720 0.000000000000000
-11.179824829101562 3.773623943328857 2.040517091751099 0.000000000000000
-13.279204368591309 3.936581373214722 -0.012126389890909 0.000000000000000
-3.699459791183472 1.143105745315552 -0.176110804080963 0.000000000000000
-10.620917320251465 2.654454946517944 -0.191327720880508 0.000000000000000
-4.807511329650879 1.584947347640991 -0.029508261010051 0.000000000000000
-8.321551322937012 2.578737497329712 0.182983040809631 0.000000000000000
-9.856658935546875 2.629576444625854 0.271570861339569 0.000000000000000
-7.622732162475586 2.427525758743286 -0.353269517421722 0.000000000000000
-9.866751670837402 3.714638948440552 1.816335439682007 0.000000000000000
-9.431977272033691 2.608638763427734 -0.169629603624344 0.000000000000000
-6.020194053649902 1.622341871261597 -0.104146219789982 0.000000000000000
-9.019261360168457 3.008950471878052 -0.424789041280746 0.000000000000000
-22.347808837890625 7.845182895660400 2.821537256240845 0.003921568859369
-4.284460544586182 1.144446372985840 -0.070919506251812 0.000000000000000
-8.457903861999512 2.438600778579712 -0.343425244092941 0.000000000000000
-12.733259201049805 5.105284214019775 2.393961191177368 0.000000000000000
-10.951002120971680 4.445752143859863 2.051182508468628 0.000000000000000
-4.823580741882324 1.838344573974609 0.185929372906685 0.000000000000000
-17.413375854492188 7.495788097381592 3.348553180694580 0.003921568859369
-4.919775485992432 2.214477539062500 0.054323531687260 0.000000000000000
-10.245244026184082 3.677815675735474 -0.188971534371376 0.000000000000000
-10.381783485412598 3.926239013671875 0.299972474575043 0.000000000000000
-11.770747184753418 5.811708927154541 -0.669076681137085 0.000000000000000
-15.759490966796875 7.010181427001953 4.473682403564453 0.003921568859369
-5.268703937530518 1.942804813385010 -0.330651313066483 0.000000000000000
-13.950315475463867 6.350930213928223 3.963904857635498 0.000000000000000
-16.999719619750977 8.737332344055176 4.982780933380127 0.003921568859369
-5.661769866943359 2.924779891967773 1.578320026397705 0.000000000000000
-8.481275558471680 15.605076789855957 3.215658426284790 0.003921568859369
-8.853949546813965 16.466463088989258 3.387109756469727 0.003921568859369
-11.019236564636230 21.050733566284180 4.314669609069824 0.003921568859369
-10.921047210693359 21.038337707519531 4.304734230041504 0.003921568859369
-10.824626922607422 21.037918090820312 4.296965122222900 0.003921568859369
-10.729077339172363 21.031921386718750 4.288970470428467 0.003921568859369
-10.652127265930176 21.060750961303711 4.287670135498047 0.003921568859369
-10.576267242431641 21.110576629638672 4.289983749389648 0.003921568859369
-3.040717363357544 4.892303943634033 1.494568109512329 0.000000000000000
-10.502477645874023 21.145952224731445 4.290122985839844 0.003921568859369
-4.585887908935547 9.627378463745117 1.923682093620300 0.000000000000000
-3.954934597015381 8.249860763549805 1.646419048309326 0.000000000000000
-3.442184925079346 6.265535354614258 1.873688101768494 0.000000000000000
-8.981551170349121 20.089303970336914 4.001225471496582 0.003921568859369
-4.108505725860596 8.383365631103516 2.466676235198975 0.000000000000000
-6.410877227783203 17.344356536865234 3.364819526672363 0.003921568859369
-3.656767129898071 12.839260101318359 2.430540800094604 0.000000000000000
-1.242799401283264 2.563573360443115 -0.108137451112270 0.000000000000000
-4.923458099365234 16.173149108886719 0.994126260280609 0.000000000000000
-3.624801397323608 11.566964149475098 3.233717918395996 0.000000000000000
-2.362972021102905 8.862827301025391 -0.043841250240803 0.000000000000000
-1.318024039268494 5.605197906494141 0.072454839944839 0.000000000000000
-1.359982728958130 3.663033246994019 0.470795810222626 0.000000000000000
-3.704859495162964 15.247755050659180 2.862939834594727 0.000000000000000
-3.105777740478516 12.966089248657227 2.431060075759888 0.000000000000000
-1.201808810234070 4.123975276947021 0.176205649971962 0.000000000000000
-1.746728181838989 7.098026752471924 1.327533006668091 0.000000000000000
-4.238179206848145 22.093429565429688 4.114320755004883 0.003921568859369
-1.511329412460327 6.784248352050781 -0.032778467983007 0.000000000000000
-1.371919870376587 6.094857215881348 1.134455561637878 0.000000000000000
-1.438867688179016 6.700482368469238 0.125679731369019 0.000000000000000
-1.783091783523560 12.970877647399902 -0.137965530157089 0.000000000000000
-3.922304868698120 13.794347763061523 0.427717447280884 0.000000000000000
-1.333899140357971 6.340694427490234 0.118876814842224 0.000000000000000
-3.442599296569824 14.882391929626465 4.090419769287109 0.000000000000000
-1.249816179275513 5.936911106109619 0.111302986741066 0.000000000000000
-3.461694955825806 15.239677429199219 1.925842642784119 0.000000000000000
-1.508219480514526 7.781229972839355 0.651040375232697 0.000000000000000
-1.777422428131104 7.443472385406494 -0.168932303786278 0.000000000000000
-1.647076845169067 9.360310554504395 0.781943023204803 0.000000000000000
-1.937856197357178 12.045783996582031 -0.057866439223289 0.000000000000000
-1.193152427673340 7.106163978576660 0.132652878761292 0.000000000000000
-1.181033372879028 7.005961894989014 0.295240968465805 0.000000000000000
-3.328768014907837 17.784118652343750 0.017662676051259 0.003921568859369
-1.077060103416443 6.527442932128906 1.205983042716980 0.000000000000000
-1.316316962242126 9.165252685546875 0.170830026268959 0.000000000000000
-1.527351379394531 7.621780872344971 -0.351716071367264 0.000000000000000
-1.054578542709351 6.962095737457275 -0.033108454197645 0.000000000000000
-1.090371131896973 7.552333831787109 0.140804231166840 0.000000000000000
-1.678095817565918 7.100889682769775 0.217631056904793 0.000000000000000
-1.440551519393921 7.940926551818848 0.993520915508270 0.000000000000000
-1.197242498397827 9.576270103454590 1.764666557312012 0.000000000000000
-1.217246651649475 10.204502105712891 0.428627848625183 0.000000000000000
-1.809440493583679 18.592306137084961 -0.088754512369633 0.000000000000000
-1.197455644607544 6.821707725524902 -0.153017625212669 0.000000000000000
-0.599979043006897 10.252205848693848 -0.107901588082314 0.000000000000000
-0.769300103187561 5.939084053039551 -0.028082650154829 0.000000000000000
-1.911436796188354 20.661230087280273 3.801548004150391 0.003921568859369
-1.077426314353943 6.237865447998047 0.006590759847313 0.000000000000000
-3.346213102340698 17.552213668823242 0.535529494285583 0.003921568859369
-1.531920433044434 16.585418701171875 0.695397198200226 0.003921568859369
-2.206511259078979 11.942993164062500 0.082164674997330 0.000000000000000
-0.445225268602371 2.261854171752930 -0.116141676902771 0.000000000000000
-1.216683983802795 8.317546844482422 -0.185981914401054 0.000000000000000
-2.456274032592773 20.325065612792969 5.499667644500732 0.003921568859369
-1.332180619239807 10.368043899536133 -0.231540873646736 0.000000000000000
-1.590426087379456 13.940286636352539 3.767572164535522 0.000000000000000
-1.253193020820618 10.303247451782227 -0.229861542582512 0.000000000000000
-1.667085528373718 15.480057716369629 4.181929588317871 0.003921568859369
-0.836455404758453 7.244371414184570 0.431010991334915 0.000000000000000
-0.937732458114624 29.832229614257812 2.468716144561768 0.003921568859369
-1.394755601882935 16.326288223266602 4.403623580932617 0.003921568859369
-0.816839754581451 4.581821441650391 0.139150634407997 0.000000000000000
-0.336557567119598 4.988759517669678 -0.023248570039868 0.000000000000000
-0.820417463779449 9.243579864501953 0.225467145442963 0.000000000000000
-0.682361721992493 6.761197566986084 1.823251962661743 0.000000000000000
-0.803335845470428 12.046084403991699 0.012727009132504 0.000000000000000
-0.875271975994110 15.089218139648438 0.367371916770935 0.000000000000000
-0.614772081375122 9.207291603088379 0.009866239503026 0.003921568859369
-1.658448457717896 17.615953445434570 0.532220184803009 0.003921568859369
0.310913622379303 29.769231796264648 2.463843107223511 0.003921568859369
-0.911309063434601 8.377825736999512 0.057554125785828 0.000000000000000
-0.546056866645813 3.449970722198486 0.104548931121826 0.000000000000000
-0.472288906574249 10.043361663818359 0.010888760909438 0.003921568859369
-0.448549747467041 8.616913795471191 2.320125579833984 0.000000000000000
-0.307323247194290 2.308954238891602 0.002777470741421 0.000000000000000
-0.227794334292412 18.593008041381836 0.019760243594646 0.003921568859369
-0.887607216835022 15.543117523193359 -0.255562692880630 0.000000000000000
-0.596438527107239 8.883252143859863 0.060979429632425 0.000000000000000
0.209685623645782 29.281547546386719 1.737103343009949 0.003921568859369
-0.457602500915527 11.975494384765625 0.082276746630669 0.000000000000000
1.710446238517761 23.988809585571289 4.417331695556641 0.003921568859369
-0.347132891416550 6.912570476531982 0.047459185123444 0.000000000000000
3.124043464660645 24.900897979736328 0.321158409118652 0.003921568859369
0.596542716026306 23.090925216674805 6.218624591827393 0.003921568859369
2.094425201416016 29.587572097778320 1.760458946228027 0.003921568859369
1.398216962814331 20.878408432006836 5.636703968048096 0.003921568859369
2.184145450592041 29.416013717651367 1.750826358795166 0.003921568859369
0.912793159484863 14.139893531799316 3.818898677825928 0.000000000000000
3.129527091979980 24.893709182739258 -0.703414082527161 0.003921568859369
0.877567291259766 7.568456649780273 1.404927253723145 0.000000000000000
0.742631077766418 6.094215869903564 0.511601269245148 0.000000000000000
2.650491237640381 24.636260986328125 3.073895454406738 0.003921568859369
1.147254943847656 8.138037681579590 0.683581948280334 0.000000000000000
2.308422088623047 18.839958190917969 5.117209434509277 0.003921568859369
0.202406108379364 2.384684085845947 0.101902097463608 0.000000000000000
2.131934642791748 12.572085380554199 2.348262310028076 0.000000000000000
6.761282920837402 27.025163650512695 -0.293079435825348 0.003921568859369
1.607348203659058 8.935148239135742 0.755667328834534 0.000000000000000
6.088151454925537 28.463010787963867 -0.816692769527435 0.003921568859369
1.739085555076599 11.075976371765137 1.394188046455383 0.000000000000000
1.387026190757751 6.760313034057617 1.276332378387451 0.000000000000000
5.069517612457275 21.732831954956055 4.105079650878906 0.003921568859369
4.359940052032471 18.560733795166016 3.508904695510864 0.003921568859369
6.883208274841309 27.895044326782227 -0.805926442146301 0.003921568859369
3.638098716735840 14.516284942626953 2.756415128707886 0.000000000000000
7.459277153015137 28.469057083129883 -0.139388769865036 0.003921568859369
6.170279502868652 27.889469146728516 -0.635334610939026 0.003921568859369
1.668045639991760 6.652571201324463 1.269731402397156 0.000000000000000
1.904917836189270 8.879496574401855 2.458348274230957 0.000000000000000
0.960502564907074 4.695171356201172 1.303426027297974 0.000000000000000
6.723675251007080 27.210662841796875 -0.624093055725098 0.003921568859369
3.971614599227905 15.974619865417480 2.045805931091309 0.003921568859369
3.456677436828613 13.614094734191895 1.746941328048706 0.000000000000000
7.619918823242188 28.266359329223633 3.633444547653198 0.003921568859369
8.703989028930664 26.047904968261719 5.051352977752686 0.003921568859369
8.797442436218262 26.024021148681641 5.052831172943115 0.003921568859369
8.154425621032715 28.609785079956055 -0.662044763565063 0.003921568859369
2.125690221786499 7.060806751251221 2.001786947250366 0.000000000000000
4.963723182678223 13.267025947570801 2.612410545349121 0.000000000000000
4.935640335083008 13.066746711730957 2.576342821121216 0.000000000000000
5.615620613098145 14.625449180603027 2.886819124221802 0.003921568859369
5.209054470062256 15.636222839355469 4.451927661895752 0.003921568859369
5.228906154632568 13.373126029968262 2.647307872772217 0.000000000000000
5.319846153259277 13.335848808288574 2.647333383560181 0.000000000000000
7.833909034729004 21.047416687011719 6.061826229095459 0.003921568859369
9.058540344238281 20.112241744995117 4.059461116790771 0.003921568859369
9.139896392822266 20.122346878051758 4.067410469055176 0.003921568859369
9.220107078552246 20.111026763916016 4.071753501892090 0.003921568859369
2.480361461639404 6.450695037841797 1.878777503967285 0.000000000000000
9.322346687316895 20.136867523193359 4.084033012390137 0.003921568859369
9.478179931640625 20.093084335327148 4.089112758636475 0.003921568859369
5.145709514617920 12.524583816528320 3.662962436676025 0.000000000000000
5.256258010864258 12.058984756469727 3.558620691299438 0.000000000000000
5.980730056762695 9.212692260742188 2.027602195739746 0.000000000000000
4.048540115356445 6.920828342437744 2.176765680313110 0.000000000000000
4.588145732879639 7.632084846496582 2.415632009506226 0.000000000000000
6.351954936981201 10.076826095581055 3.224656820297241 0.000000000000000
4.699569702148438 7.330097198486328 1.085715174674988 0.000000000000000
4.864715576171875 7.140957355499268 1.077865004539490 0.000000000000000
5.633105278015137 7.435941696166992 1.724328160285950 0.000000000000000
5.475557804107666 7.129606723785400 1.662355661392212 0.000000000000000
6.279481887817383 8.021810531616211 1.880112290382385 0.000000000000000
14.975784301757812 22.891025543212891 0.179489165544510 0.003921568859369
7.116969108581543 9.893112182617188 3.295981645584106 0.000000000000000
8.410547256469727 11.574309349060059 3.865897893905640 0.000000000000000
3.066694974899292 4.299761295318604 0.662021875381470 0.000000000000000
17.680437088012695 19.899681091308594 4.886677265167236 0.003921568859369
6.402803897857666 7.716979980468750 2.715085029602051 0.000000000000000
12.406363487243652 13.430973052978516 3.361448049545288 0.003921568859369
3.634478092193604 3.986077070236206 -0.443166792392731 0.000000000000000
9.537585258483887 9.720276832580566 0.566366553306580 0.000000000000000
5.900309085845947 6.677992820739746 2.413581609725952 0.000000000000000
7.999326229095459 8.941348075866699 3.242656946182251 0.000000000000000
13.955910682678223 13.298759460449219 3.539200544357300 0.003921568859369
6.477696895599365 5.917934417724609 1.616537809371948 0.000000000000000
6.276475429534912 5.694435119628906 1.561858654022217 0.000000000000000
5.776401519775391 5.746913909912109 2.205096960067749 0.000000000000000
11.732535362243652 10.501437187194824 2.891319751739502 0.003921568859369
13.866660118103027 12.844290733337402 5.092581748962402 0.003921568859369
5.982927322387695 5.464824199676514 2.191130876541138 0.000000000000000
6.713078498840332 5.389963150024414 1.585064172744751 0.000000000000000
13.320528030395508 10.257564544677734 3.084484100341797 0.003921568859369
5.638566493988037 4.694126129150391 0.433277308940887 0.000000000000000
10.970018386840820 8.033273696899414 2.494723081588745 0.000000000000000
9.928862571716309 7.939512729644775 3.426410675048828 0.000000000000000
7.186543941497803 5.313275814056396 2.410932779312134 0.000000000000000
5.750024318695068 3.781614065170288 0.568151175975800 0.000000000000000
5.007545948028564 3.958519935607910 -0.409889250993729 0.000000000000000
2.517930030822754 1.607339143753052 0.248148649930954 0.000000000000000
2.415167808532715 1.531037688255310 0.237700000405312 0.000000000000000
6.193498134613037 3.878506183624268 1.342153906822205 0.000000000000000
8.006684303283691 4.619508266448975 1.693702101707458 0.000000000000000
12.897102355957031 7.251245975494385 2.707168102264404 0.000000000000000
11.582622528076172 7.170230388641357 0.798163771629333 0.000000000000000
8.082579612731934 5.010764122009277 1.173873186111450 0.000000000000000
12.100849151611328 6.638948917388916 1.132452607154846 0.000000000000000
22.178644180297852 13.393075942993164 6.957199096679688 0.003921568859369
14.304704666137695 7.650247573852539 0.287030965089798 0.003921568859369
7.345696449279785 3.265437126159668 -0.468593388795853 0.000000000000000
8.012151718139648 4.399287223815918 1.126977086067200 0.000000000000000
13.667519569396973 6.645359992980957 2.778153657913208 0.000000000000000
7.491693019866943 3.616602420806885 1.522998332977295 0.000000000000000
6.981696605682373 2.930173635482788 -0.087383657693863 0.000000000000000
12.835171699523926 6.858378887176514 1.790503382682800 0.000000000000000
5.154539585113525 2.760472059249878 1.572144150733948 0.000000000000000
18.040948867797852 8.456696510314941 3.638104438781738 0.003921568859369
5.214015007019043 2.722182035446167 1.581461668014526 0.000000000000000
16.656728744506836 7.529958724975586 3.338025808334351 0.003921568859369
5.645960330963135 2.415477037429810 0.503425955772400 0.000000000000000
8.099570274353027 3.423911094665527 1.605414032936096 0.000000000000000
15.237032890319824 7.269310474395752 0.984538495540619 0.000000000000000
4.854061603546143 2.277411699295044 0.313053607940674 0.000000000000000
16.957290649414062 7.944559097290039 2.301318168640137 0.003921568859369
7.970597267150879 3.605054855346680 0.510421454906464 0.000000000000000
23.051769256591797 7.627211093902588 -0.281695604324341 0.003921568859369
4.644618511199951 1.796030044555664 -0.261233896017075 0.000000000000000
23.140233993530273 7.575873851776123 -0.282486766576767 0.003921568859369
23.148817062377930 7.484829425811768 -0.282257974147797 0.003921568859369
22.708646774291992 7.251624107360840 -0.277523458003998 0.003921568859369
23.449880599975586 7.308315753936768 -0.285951584577560 0.003921568859369
23.384963989257812 7.288084506988525 0.285159975290298 0.003921568859369
23.360567092895508 7.191107273101807 0.284554630517960 0.003921568859369
11.358755111694336 4.114051818847656 2.202649593353271 0.000000000000000
22.570585250854492 6.694282054901123 0.274077683687210 0.003921568859369
22.674943923950195 7.949537754058838 1.961534857749939 0.003921568859369
22.747358322143555 6.660417079925537 0.275940239429474 0.003921568859369
22.762821197509766 7.891236782073975 1.966742157936096 0.003921568859369
22.682094573974609 6.555425167083740 0.274869263172150 0.003921568859369
22.364067077636719 7.665652275085449 1.929965496063232 0.003921568859369
23.031776428222656 6.569469928741455 0.278827250003815 0.003921568859369
22.668991088867188 7.598134517669678 1.951771140098572 0.003921568859369
22.818864822387695 6.336812019348145 0.275707453489304 0.003921568859369
9.738914489746094 3.224610567092896 1.870458483695984 0.000000000000000
22.900100708007812 7.494633197784424 -0.702042758464813 0.003921568859369
22.650930404663086 7.413071155548096 -0.139528602361679 0.003921568859369
23.057134628295898 7.457190036773682 1.976401925086975 0.003921568859369
7.714222431182861 2.915876626968384 2.206823825836182 0.000000000000000
23.199407577514648 7.413799285888672 -0.709611952304840 0.003921568859369
22.824047088623047 7.293816089630127 -0.140272423624992 0.003921568859369
22.357721328735352 7.144805908203125 1.914276003837585 0.003921568859369
5.863674163818359 2.500463247299194 0.184940859675407 0.000000000000000
22.393932342529297 7.070351600646973 1.915254831314087 0.003921568859369
23.171709060668945 7.222673416137695 -0.707158565521240 0.003921568859369
5.886419773101807 2.152830123901367 0.145335078239441 0.000000000000000
27.233987808227539 7.050461292266846 0.326200753450394 0.003921568859369
22.526262283325195 7.021498680114746 1.924365758895874 0.003921568859369
23.116531372070312 7.117070198059082 -0.704708278179169 0.003921568859369
28.126514434814453 7.176951408386230 -0.339051336050034 0.003921568859369
23.397357940673828 7.203587055206299 -0.143308475613594 0.003921568859369
27.254556655883789 6.954406261444092 0.326158046722412 0.003921568859369
22.863058090209961 7.039096355438232 1.951041817665100 0.003921568859369
27.374435424804688 6.888423919677734 0.327321439981461 0.003921568859369
27.363376617431641 6.784202098846436 0.326907575130463 0.003921568859369
22.906623840332031 6.882229328155518 1.950722336769104 0.003921568859369
22.927946090698242 6.801398277282715 -0.696775019168854 0.003921568859369
29.131460189819336 7.114894866943359 0.347743809223175 0.003921568859369
14.936902046203613 3.646932125091553 -0.895522892475128 0.000000000000000
8.709161758422852 3.051546573638916 1.131499528884888 0.000000000000000
28.681688308715820 6.899048328399658 0.342087209224701 0.003921568859369
14.914599418640137 3.586400747299194 -0.893426358699799 0.000000000000000
14.892056465148926 3.526062488555908 -0.891329824924469 0.000000000000000
14.842052459716797 3.459583520889282 -0.887604296207428 0.000000000000000
22.337669372558594 7.570350646972656 1.371948242187500 0.003921568859369
23.548696517944336 6.718336105346680 1.997250199317932 0.003921568859369
28.879430770874023 6.624984741210938 0.342263519763947 0.003921568859369
14.821260452270508 3.397827148437500 -0.885675549507141 0.000000000000000
28.014539718627930 6.333939075469971 0.331775099039078 0.003921568859369
14.820174217224121 3.348670482635498 -0.884973227977753 0.000000000000000
29.063283920288086 6.464720249176025 0.343943208456039 0.003921568859369
14.859058380126953 3.303056478500366 -0.886599242687225 0.000000000000000
14.780776977539062 3.231607198715210 -0.881238937377930 0.000000000000000
23.490356445312500 6.354447364807129 1.982880711555481 0.003921568859369
23.412389755249023 7.487509727478027 0.569340944290161 0.003921568859369
14.768544197082520 3.175017118453979 -0.879837512969971 0.000000000000000
23.339061737060547 6.226197719573975 1.968256592750549 0.003921568859369
23.316375732421875 7.367220401763916 0.566380500793457 0.003921568859369
14.763910293579102 3.120204687118530 -0.878901898860931 0.000000000000000
22.130849838256836 6.992493629455566 2.845294713973999 0.003921568859369
23.642097473144531 6.218845844268799 1.991996645927429 0.003921568859369
23.315227508544922 7.277514934539795 0.565737605094910 0.003921568859369
14.813807487487793 3.076853275299072 -0.881226539611816 0.000000000000000
22.939130783081055 7.160086631774902 1.396232366561890 0.003921568859369
23.609636306762695 6.122337341308594 1.987451314926147 0.003921568859369
28.142206192016602 7.193710803985596 -0.847247898578644 0.003921568859369
28.099428176879883 7.182820796966553 -0.170907586812973 0.003921568859369
14.804896354675293 3.021193504333496 -0.880058050155640 0.000000000000000
22.122219085693359 6.820401668548584 2.837999105453491 0.003921568859369
23.596097946166992 6.031057834625244 1.984531402587891 0.003921568859369
28.236932754516602 7.113099575042725 -0.849340915679932 0.003921568859369
10.015978813171387 2.006411790847778 -0.119524307549000 0.000000000000000
14.807519912719727 2.967997550964355 -0.879588127136230 0.000000000000000
14.825626373291016 2.917901754379272 -0.880049705505371 0.000000000000000
14.874925613403320 2.873789072036743 -0.882374227046967 0.000000000000000
22.546894073486328 6.693799018859863 1.366533398628235 0.003921568859369
23.108680725097656 6.773048877716064 0.557795166969299 0.003921568859369
14.837786674499512 2.812984704971313 -0.879575550556183 0.000000000000000
22.600772857666016 6.624121665954590 1.368396997451782 0.003921568859369
22.805784225463867 6.684374809265137 2.913527727127075 0.003921568859369
14.868833541870117 2.765893697738647 -0.880875945091248 0.000000000000000
22.769382476806641 6.588813781738281 2.903731822967529 0.003921568859369
14.933390617370605 2.724125623703003 -0.884131968021393 0.000000000000000
22.709712982177734 7.614240646362305 0.135810062289238 0.003921568859369
14.942807197570801 2.672096967697144 -0.884125590324402 0.000000000000000
22.952547073364258 7.606826782226562 0.137113228440285 0.003921568859369
14.932378768920898 2.616568803787231 -0.882954061031342 0.000000000000000
28.370508193969727 7.890724658966064 1.709432363510132 0.003921568859369
28.422729492187500 7.798465251922607 0.681345462799072 0.003921568859369
14.976837158203125 2.570627212524414 -0.885044813156128 0.000000000000000
28.430479049682617 7.694073200225830 0.680894076824188 0.003921568859369
15.092041969299316 2.536334276199341 -0.891329944133759 0.000000000000000
24.127317428588867 6.528447151184082 1.450724363327026 0.003921568859369
22.878572463989258 7.317565917968750 0.136230796575546 0.003921568859369
23.333892822265625 7.463443756103516 0.708864092826843 0.003921568859369
15.199302673339844 2.499969005584717 -0.897148907184601 0.000000000000000
28.754190444946289 7.566919326782227 0.687394976615906 0.003921568859369
15.531205177307129 2.499115467071533 -0.916249811649323 0.000000000000000
28.057003021240234 7.383382320404053 1.684184312820435 0.003921568859369
5.504436016082764 1.422033309936523 -0.000739684153814 0.000000000000000
15.752837181091309 2.478566884994507 -0.928825974464417 0.000000000000000
28.094198226928711 7.288523197174072 1.684891700744629 0.003921568859369
22.866035461425781 7.050775051116943 0.135734632611275 0.003921568859369
23.212104797363281 7.157682418823242 0.702867627143860 0.003921568859369
16.112642288208008 2.477779150009155 -0.949557363986969 0.003921568859369
23.071023941040039 5.898259162902832 1.382075905799866 0.003921568859369
27.598812103271484 6.954679965972900 0.657999157905579 0.003921568859369
9.636769294738770 1.895134449005127 -0.286167800426483 0.000000000000000
27.149759292602539 6.740910530090332 1.623895525932312 0.003921568859369
1.673023462295532 0.486303269863129 -0.030067525804043 0.003921568859369
28.140108108520508 6.885465145111084 1.680008411407471 0.003921568859369
1.686220884323120 0.483981996774673 -0.030278185382485 0.003921568859369
23.130720138549805 6.781986713409424 0.696174323558807 0.003921568859369
23.812416076660156 5.737246990203857 1.420073032379150 0.003921568859369
27.449298858642578 6.513569831848145 0.650851309299469 0.003921568859369
22.919998168945312 6.633427619934082 0.689130485057831 0.003921568859369
28.144744873046875 6.678981304168701 1.677488207817078 0.003921568859369
28.002788543701172 7.790331363677979 0.163696229457855 0.003921568859369
27.968091964721680 7.675735950469971 0.163350000977516 0.003921568859369
18.135623931884766 3.115882635116577 3.344845294952393 0.003921568859369
27.728334426879883 7.505986213684082 0.161807820200920 0.003921568859369
9.736780166625977 1.599965333938599 -0.287571609020233 0.000000000000000
27.700263977050781 7.394834995269775 0.161506637930870 0.003921568859369
27.729776382446289 7.299248695373535 0.161543995141983 0.003921568859369
15.043328285217285 3.899218082427979 -0.273233771324158 0.000000000000000
27.522806167602539 7.142181873321533 0.160204529762268 0.003921568859369
16.592357635498047 2.556275367736816 1.364652156829834 0.000000000000000
27.755409240722656 6.998772621154785 0.160038396716118 0.003921568859369
14.799410820007324 3.726004123687744 -0.978205502033234 0.000000000000000
9.322047233581543 1.365764021873474 -0.274575442075729 0.000000000000000
7.474206924438477 0.725412964820862 -0.088224396109581 0.000000000000000
14.758095741271973 3.660995721817017 -0.974602222442627 0.000000000000000
14.755275726318359 3.605833292007446 -0.973565638065338 0.000000000000000
8.325792312622070 2.029602050781250 -0.348972022533417 0.000000000000000
8.419727325439453 1.623848915100098 -0.200128570199013 0.000000000000000
27.758356094360352 6.686519622802734 0.159692272543907 0.003921568859369
14.811076164245605 3.562206029891968 -0.976378321647644 0.000000000000000
12.570147514343262 1.752833962440491 1.029602050781250 0.000000000000000
10.198365211486816 0.918034732341766 -0.357691645622253 0.000000000000000
14.741253852844238 3.493841409683228 -0.970978975296021 0.000000000000000
12.244878768920898 2.233326673507690 -0.869419276714325 0.000000000000000
28.001132965087891 6.441265583038330 0.160757333040237 0.003921568859369
14.741945266723633 3.385820388793945 -0.969418883323669 0.000000000000000
9.590501785278320 1.235728025436401 0.390095114707947 0.000000000000000
14.753671646118164 3.334517955780029 -0.969408750534058 0.000000000000000
14.683404922485352 3.264917612075806 -0.964009046554565 0.000000000000000
10.619909286499023 1.294122815132141 0.867287635803223 0.000000000000000
14.702508926391602 3.215523958206177 -0.964512228965759 0.000000000000000
14.786667823791504 3.185499668121338 -0.969379246234894 0.000000000000000
7.804557323455811 1.648233056068420 -0.509727895259857 0.000000000000000
15.786431312561035 1.764741778373718 0.642194032669067 0.000000000000000
14.576820373535156 3.029289245605469 -0.954056203365326 0.000000000000000
14.645961761474609 2.990623474121094 -0.957895934581757 0.000000000000000
14.640657424926758 2.936534643173218 -0.956856429576874 0.000000000000000
14.611154556274414 2.880420446395874 -0.954276859760284 0.000000000000000
21.034074783325195 3.097500801086426 5.675673484802246 0.003921568859369
14.100045204162598 2.072684288024902 -0.333532750606537 0.000000000000000
14.621611595153809 2.827071189880371 -0.954263925552368 0.000000000000000
8.399126052856445 1.172279238700867 1.031980991363525 0.000000000000000
14.672380447387695 2.731207609176636 -0.956293344497681 0.000000000000000
7.379703044891357 1.001999855041504 1.977730035781860 0.000000000000000
14.705383300781250 2.684496641159058 -0.957821547985077 0.000000000000000
14.525493621826172 1.211809039115906 0.588266611099243 0.000000000000000
14.659197807312012 2.626027584075928 -0.954214751720428 0.000000000000000
12.262608528137207 0.981629133224487 0.496109366416931 0.000000000000000
17.902017593383789 2.250092029571533 0.414399266242981 0.000000000000000
14.739487648010254 2.584954023361206 -0.958823442459106 0.000000000000000
15.750690460205078 1.923170328140259 -0.003559639444575 0.000000000000000
8.125129699707031 0.195795670151711 0.092286631464958 0.000000000000000
14.791690826416016 2.541161775588989 -0.961635172367096 0.000000000000000
15.466540336608887 2.607896804809570 -0.276443660259247 0.000000000000000
3.707021236419678 0.256116509437561 -0.022063003852963 0.000000000000000
19.493541717529297 1.361477255821228 0.335932075977325 0.003921568859369
14.831088066101074 2.500191211700439 -0.963677823543549 0.000000000000000
15.035691261291504 2.473914384841919 -0.976330757141113 0.000000000000000
10.414473533630371 1.194825053215027 -0.245047256350517 0.000000000000000
3.461254119873047 0.550406217575073 -0.060959562659264 0.000000000000000
15.225464820861816 0.955366015434265 -0.445665597915649 0.000000000000000
15.264047622680664 2.462639570236206 -0.990703999996185 0.000000000000000
8.017083168029785 0.864871859550476 0.183910652995110 0.000000000000000
16.035539627075195 1.736364483833313 -0.377855092287064 0.000000000000000
8.341592788696289 0.462437421083450 -0.243144050240517 0.000000000000000
7.129359722137451 0.049445647746325 -0.083825320005417 0.000000000000000
7.907388210296631 0.438382685184479 0.317858487367630 0.000000000000000
9.107435226440430 0.505102217197418 -0.476597845554352 0.000000000000000
10.400550842285156 1.562187194824219 0.057867679744959 0.000000000000000
3.135314226150513 0.161282107234001 0.124258674681187 0.000000000000000
21.251180648803711 3.130406856536865 0.617356896400452 0.003921568859369
10.244125366210938 0.499503374099731 0.829071283340454 0.000000000000000
8.028501510620117 0.752440094947815 0.183944836258888 0.000000000000000
11.101646423339844 0.500858604907990 0.447233468294144 0.000000000000000
9.805106163024902 -0.066391430795193 -0.115529708564281 0.000000000000000
10.025433540344238 0.870939910411835 0.229991629719734 0.000000000000000
4.817834377288818 0.182844683527946 0.081761285662651 0.000000000000000
10.039207458496094 0.872251212596893 0.580235421657562 0.000000000000000
2.456937074661255 0.201957955956459 0.055080849677324 0.000000000000000
8.792634010314941 -0.118704684078693 0.099605284631252 0.000000000000000
10.700262069702148 0.375025093555450 0.865788042545319 0.000000000000000
9.323767662048340 0.260298073291779 0.753520846366882 0.000000000000000
9.218721389770508 0.674675226211548 1.122463583946228 0.000000000000000
3.739022254943848 0.257758408784866 -0.001096591353416 0.000000000000000
6.840960025787354 0.144332036375999 0.273670166730881 0.000000000000000
11.798637390136719 0.249577283859253 0.953719735145569 0.000000000000000
4.836256027221680 0.317265927791595 0.109523102641106 0.000000000000000
12.228199005126953 0.213965788483620 0.491778999567032 0.000000000000000
7.108281612396240 0.100734032690525 -0.206452563405037 0.000000000000000
10.381522178649902 1.122500419616699 -0.183971494436264 0.000000000000000
15.023095130920410 1.627675771713257 -0.616854488849640 0.000000000000000
13.308841705322266 0.789948940277100 -0.312085330486298 0.000000000000000
9.128554344177246 -0.028310198336840 0.366295874118805 0.000000000000000
5.121236801147461 0.231049194931984 -0.236510545015335 0.000000000000000
10.461271286010742 0.440589725971222 0.602250576019287 0.000000000000000
3.696486949920654 -0.022487094625831 0.658378720283508 0.000000000000000
13.151880264282227 -0.221738010644913 -0.079631686210632 0.000000000000000
8.527523994445801 0.269722044467926 0.193835258483887 0.000000000000000
18.816921234130859 -0.580244362354279 -0.550435125827789 0.000000000000000
9.745809555053711 0.173402801156044 -0.227626025676727 0.000000000000000
15.272451400756836 0.219261437654495 0.348828881978989 0.000000000000000
8.406993865966797 0.120988555252552 1.018763184547424 0.000000000000000
12.870810508728027 0.186063617467880 3.420897722244263 0.000000000000000
13.103172302246094 -0.489256501197815 -0.382570236921310 0.000000000000000
6.309054374694824 -0.232905894517899 0.506281793117523 0.000000000000000
12.278459548950195 0.093281336128712 0.280035078525543 0.000000000000000
9.503576278686523 0.041487161070108 1.153029203414917 0.000000000000000
3.690583705902100 -0.172593295574188 0.656167328357697 0.000000000000000
11.101816177368164 0.507590472698212 0.317381352186203 0.000000000000000
9.745625495910645 -0.060535002499819 0.559514939785004 0.000000000000000
11.391982078552246 -0.070058479905128 3.024914264678955 0.000000000000000
13.353175163269043 -0.127507194876671 0.767629325389862 0.000000000000000
19.138305664062500 -0.254045754671097 -0.005989592522383 0.003921568859369
15.101265907287598 -0.933598816394806 1.222576737403870 0.000000000000000
8.004382133483887 0.281547695398331 -0.324967741966248 0.000000000000000
2.962651968002319 -0.347546726465225 0.032727066427469 0.000000000000000
3.479479789733887 -0.243503645062447 0.616689145565033 0.000000000000000
15.388254165649414 0.330016463994980 0.083796232938766 0.000000000000000
6.418857574462891 0.117309466004372 0.034578964114189 0.000000000000000
10.238373756408691 -0.306876748800278 2.714441776275635 0.000000000000000
14.990831375122070 0.170691519975662 0.081671074032784 0.000000000000000
8.984485626220703 -0.364605575799942 -0.002736545167863 0.003921568859369
3.487463474273682 -0.138111069798470 0.196331202983856 0.000000000000000
6.532581329345703 -0.016548935323954 -0.264006137847900 0.000000000000000
9.656198501586914 -0.523173451423645 1.170682668685913 0.000000000000000
12.355113029479980 -1.274061322212219 1.001300096511841 0.000000000000000
7.643425941467285 -0.888596534729004 0.306772142648697 0.000000000000000
9.839303016662598 -0.227573946118355 0.279847115278244 0.000000000000000
4.365651130676270 -0.307339429855347 -0.100726008415222 0.000000000000000
13.243791580200195 -0.353585600852966 0.377871543169022 0.000000000000000
7.068091869354248 -0.306732207536697 -0.123992972075939 0.000000000000000
11.684565544128418 -1.692473173141479 2.127337217330933 0.000000000000000
6.683126449584961 -0.704238653182983 0.382189482450485 0.000000000000000
13.505728721618652 -2.148155450820923 2.467704057693481 0.000000000000000
7.618737697601318 -0.856233000755310 0.924199938774109 0.000000000000000
8.857214927673340 -1.091056108474731 0.509954273700714 0.000000000000000
9.413492202758789 -1.225375533103943 2.508613109588623 0.000000000000000
6.314882755279541 -0.857713341712952 1.670838356018066 0.000000000000000
14.653894424438477 -3.007077217102051 2.699882268905640 0.000000000000000
15.379005432128906 -3.268476009368896 2.838933706283569 0.000000000000000
7.919533729553223 -1.980291604995728 1.461355686187744 0.000000000000000
7.004611968994141 -1.823938369750977 1.293048143386841 0.000000000000000
10.759903907775879 -2.315496921539307 0.629697144031525 0.000000000000000
27.032369613647461 -7.655072212219238 2.274564743041992 0.003921568859369
7.053485870361328 -1.277731299400330 0.201871529221535 0.000000000000000
27.074422836303711 -7.768757820129395 2.280479907989502 0.003921568859369
27.094419479370117 -7.871414661407471 2.284445285797119 0.003921568859369
28.324487686157227 -8.337699890136719 2.391277074813843 0.003921568859369
5.460470676422119 -1.077871799468994 -0.096466235816479 0.000000000000000
27.378168106079102 -8.368673324584961 2.318497419357300 0.003921568859369
6.607354640960693 -1.665769100189209 1.784888505935669 0.000000000000000
26.873956680297852 -8.313593864440918 5.095978260040283 0.003921568859369
26.888725280761719 -8.522615432739258 2.283456802368164 0.003921568859369
27.439516067504883 -8.800874710083008 5.219237327575684 0.003921568859369
24.796562194824219 -6.824434280395508 3.131877899169922 0.003921568859369
27.250329971313477 -8.949111938476562 5.195033550262451 0.003921568859369
25.055719375610352 -8.317888259887695 2.136737585067749 0.003921568859369
2.698049545288086 -0.846029102802277 0.487065941095352 0.000000000000000
23.855714797973633 -8.193691253662109 2.041201353073120 0.003921568859369
26.224241256713867 -9.010522842407227 5.021925449371338 0.003921568859369
25.588644027709961 -7.519325256347656 3.248984098434448 0.003921568859369
27.121288299560547 -9.426189422607422 5.201163768768311 0.003921568859369
26.323856353759766 -9.357316017150879 -0.167452186346054 0.003921568859369
19.476364135742188 -8.225967407226562 0.240668460726738 0.003921568859369
27.898462295532227 -8.728733062744141 3.561966180801392 0.003921568859369
25.348442077636719 -8.022528648376465 3.238027811050415 0.003921568859369
2.202233791351318 -0.880992650985718 -0.026387635618448 0.000000000000000
18.327272415161133 -6.851579666137695 1.580246686935425 0.000000000000000
24.065097808837891 -9.015046119689941 4.651119709014893 0.003921568859369
24.933229446411133 -8.081061363220215 3.191958665847778 0.003921568859369
19.181587219238281 -8.647132873535156 0.239946633577347 0.003921568859369
19.823806762695312 -6.710678100585938 2.545092344284058 0.003921568859369
19.668899536132812 -6.733866214752197 2.528121471405029 0.003921568859369
20.772289276123047 -7.355185031890869 1.268425107002258 0.003921568859369
26.558210372924805 -11.227252006530762 2.335299730300903 0.003921568859369
6.589735031127930 -3.133131265640259 -0.084206551313400 0.000000000000000
24.519098281860352 -9.077462196350098 3.183924913406372 0.003921568859369
7.957806587219238 -2.504649639129639 0.045219413936138 0.000000000000000
20.558530807495117 -7.682444095611572 1.263655424118042 0.003921568859369
20.004295349121094 -7.547365188598633 2.600061655044556 0.003921568859369
23.723968505859375 -9.058096885681152 3.092171192169189 0.003921568859369
18.660816192626953 -9.354816436767578 0.238620802760124 0.003921568859369
23.327661514282227 -10.425033569335938 2.068457126617432 0.003921568859369
20.653894424438477 -9.218446731567383 4.090293407440186 0.003921568859369
23.044324874877930 -10.393558502197266 2.046442985534668 0.003921568859369
19.597650527954102 -7.784449100494385 1.214206695556641 0.003921568859369
23.558290481567383 -9.371143341064453 3.087608814239502 0.003921568859369
15.152296066284180 -6.866915225982666 3.000724554061890 0.003921568859369
20.398288726806641 -9.354626655578613 4.056694507598877 0.003921568859369
9.285084724426270 -4.249115467071533 0.407320916652679 0.000000000000000
22.846578598022461 -10.586916923522949 2.037784099578857 0.003921568859369
6.400557994842529 -2.927468538284302 0.118625529110432 0.000000000000000
27.308588027954102 -11.424185752868652 3.607730627059937 0.003921568859369
25.067533493041992 -10.788064956665039 3.324678659439087 0.003921568859369
21.293287277221680 -9.147795677185059 6.158888816833496 0.003921568859369
16.875377655029297 -8.299532890319824 0.756767928600311 0.003921568859369
19.456016540527344 -8.512997627258301 -0.003657935187221 0.003921568859369
16.772733688354492 -8.317180633544922 0.753414154052734 0.003921568859369
6.333811759948730 -2.386376380920410 0.036698535084724 0.000000000000000
