# This PCD file was generated using the MATLAB® pcwrite function
# from Computer Vision Toolbox®.
# .PCD v.7 - Point Cloud Data file format
VERSION .7
FIELDS x y z intensity
SIZE 8 8 8 8
TYPE F F F F
COUNT 1 1 1 1
WIDTH 649
HEIGHT 1
VIEWPOINT 0 0 0 1 0 0 0
POINTS 649
DATA ascii
-8.515613555908203 22.733730316162109 -0.287572115659714 0.003921568859369
-2.428022623062134 4.499495029449463 0.288176298141479 0.000000000000000
-3.480053424835205 7.961404800415039 1.556645989418030 0.000000000000000
-9.195668220520020 22.873390197753906 4.462648868560791 0.003921568859369
-8.895103454589844 22.802240371704102 4.431121349334717 0.003921568859369
-3.091148614883423 6.984915256500244 2.007789611816406 0.000000000000000
-5.569018363952637 13.624680519104004 3.904078006744385 0.000000000000000
-3.453455448150635 7.233914375305176 -0.504738211631775 0.000000000000000
-7.506074905395508 23.822835922241211 4.527910709381104 0.003921568859369
-2.091518878936768 7.321598052978516 0.086883597075939 0.000000000000000
-4.898665428161621 13.251477241516113 3.750018596649170 0.000000000000000
-6.050706386566162 24.851175308227539 0.290025770664215 0.003921568859369
-2.376150846481323 9.242012977600098 -0.111483536660671 0.000000000000000
-2.633766412734985 7.037603855133057 1.980871915817261 0.000000000000000
-3.937971353530884 9.571480751037598 -0.179938033223152 0.000000000000000
-4.751700878143311 12.557387351989746 0.384659200906754 0.000000000000000
-6.049606800079346 24.850318908691406 -0.154828101396561 0.003921568859369
-2.419934749603271 7.356224536895752 -0.178567185997963 0.000000000000000
-2.041079998016357 6.179403305053711 1.716151714324951 0.000000000000000
-1.321931719779968 3.189371347427368 -0.213229835033417 0.000000000000000
-2.843395948410034 13.227425575256348 -0.394411176443100 0.000000000000000
-2.834271669387817 13.448801994323730 -0.400763183832169 0.000000000000000
-1.714706540107727 10.158831596374512 0.117777779698372 0.000000000000000
-1.469636678695679 8.573361396789551 -0.101722776889801 0.000000000000000
-6.047876358032227 24.866651535034180 0.587150394916534 0.003921568859369
-2.900698661804199 14.687854766845703 2.715491294860840 0.000000000000000
-2.988259077072144 12.381921768188477 -0.002331750700250 0.000000000000000
-1.853365540504456 7.096371650695801 -0.169515565037727 0.000000000000000
-2.585954666137695 10.680284500122070 2.922876358032227 0.000000000000000
-2.156708955764771 8.800201416015625 2.406883001327515 0.000000000000000
-3.512768745422363 16.182029724121094 -0.003532145405188 0.003921568859369
-2.276274681091309 10.091234207153320 -0.240717157721519 0.000000000000000
-1.826466202735901 7.907713890075684 -0.000868784263730 0.003921568859369
-0.752237319946289 3.272966861724854 0.135100930929184 0.000000000000000
-6.029194831848145 24.872846603393555 0.142050474882126 0.003921568859369
-2.605903625488281 10.280103683471680 -0.430694609880447 0.000000000000000
-3.028041601181030 13.034509658813477 -0.544875383377075 0.000000000000000
-1.022937536239624 6.538372516632080 1.198518633842468 0.000000000000000
-2.789973735809326 12.100600242614746 -0.217765480279922 0.000000000000000
-2.209505081176758 12.294000625610352 3.330361366271973 0.000000000000000
-1.964591503143311 8.203516960144043 -0.147007465362549 0.000000000000000
-2.782825946807861 12.522156715393066 -0.225079149007797 0.000000000000000
-2.341139793395996 13.808949470520020 -0.002651354763657 0.000000000000000
-1.133956432342529 6.064961433410645 1.639614820480347 0.000000000000000
-1.540590405464172 11.080646514892578 1.367101669311523 0.000000000000000
-0.849070549011230 5.015200614929199 0.000066700624302 0.000000000000000
-1.290478110313416 9.118988037109375 1.124923467636108 0.000000000000000
-0.598718285560608 5.269485473632812 0.962155580520630 0.000000000000000
-1.556651711463928 8.305718421936035 -0.147546231746674 0.000000000000000
-1.048982739448547 7.986710071563721 2.148442983627319 0.000000000000000
0.739230871200562 26.538066864013672 0.303487390279770 0.003921568859369
-0.549116671085358 6.846044063568115 1.835129499435425 0.000000000000000
0.026833951473236 11.114852905273438 0.906219661235809 0.000000000000000
-0.058489680290222 7.232496738433838 0.590247511863708 0.000000000000000
0.146522819995880 13.648685455322266 2.487497091293335 0.000000000000000
-0.395325243473053 8.600533485412598 2.303681850433350 0.000000000000000
0.204421132802963 8.604815483093262 1.570504784584045 0.000000000000000
-0.194001600146294 7.924642086029053 2.122708559036255 0.000000000000000
-0.138699620962143 9.841493606567383 1.207327485084534 0.000000000000000
0.644957482814789 13.807422637939453 1.127616882324219 0.000000000000000
1.456299543380737 25.926868438720703 4.732430458068848 0.003921568859369
0.291671931743622 8.130064010620117 1.485258698463440 0.000000000000000
0.790722191333771 14.505543708801270 2.649581193923950 0.000000000000000
1.306267738342285 16.014150619506836 2.931330442428589 0.003921568859369
0.733942508697510 9.846337318420410 1.803474903106689 0.000000000000000
0.708701074123383 8.962603569030762 1.642976164817810 0.000000000000000
0.664868235588074 13.152986526489258 1.617178320884705 0.000000000000000
2.014186143875122 17.018482208251953 3.127884149551392 0.003921568859369
0.955561876296997 12.830233573913574 1.580736756324768 0.000000000000000
0.401573210954666 11.784635543823242 0.342055469751358 0.000000000000000
2.500273466110229 17.807106018066406 3.282740354537964 0.003921568859369
0.373737275600433 3.845784187316895 0.710729718208313 0.000000000000000
1.406470537185669 9.781670570373535 1.807979822158813 0.000000000000000
1.172055363655090 10.393819808959961 2.809823036193848 0.000000000000000
1.912739753723145 11.566106796264648 2.144143581390381 0.000000000000000
2.189557790756226 11.834544181823730 2.201592445373535 0.000000000000000
1.366147279739380 7.068675994873047 1.321451067924500 0.000000000000000
2.008065700531006 12.272434234619141 3.341724395751953 0.000000000000000
2.261591911315918 7.246687412261963 -0.446280688047409 0.000000000000000
2.289694070816040 7.736507892608643 0.331286847591400 0.000000000000000
2.289229154586792 7.268785476684570 -0.627429485321045 0.000000000000000
3.578344583511353 12.118315696716309 3.401273012161255 0.000000000000000
1.794513344764709 5.287795543670654 1.031356453895569 0.000000000000000
1.850791454315186 5.532240867614746 1.581184506416321 0.000000000000000
5.925505638122559 13.512285232543945 2.703911781311035 0.000000000000000
2.944437980651855 6.861799716949463 1.375713706016541 0.000000000000000
9.127020835876465 20.209203720092773 4.056539058685303 0.003921568859369
9.220327377319336 20.244064331054688 4.069466114044189 0.003921568859369
9.299652099609375 20.211341857910156 4.070205211639404 0.003921568859369
9.385313034057617 20.210092544555664 4.076679229736328 0.003921568859369
10.463335990905762 25.401082992553711 0.639522671699524 0.003921568859369
9.464279174804688 20.194295883178711 4.080285549163818 0.003921568859369
5.120725154876709 12.541866302490234 3.649104595184326 0.000000000000000
3.178703308105469 7.786975383758545 1.041491627693176 0.000000000000000
10.431062698364258 25.841880798339844 0.161118403077126 0.003921568859369
6.897531986236572 11.689676284790039 2.490194797515869 0.000000000000000
7.309291362762451 11.437457084655762 2.490279197692871 0.000000000000000
2.446197032928467 3.920852899551392 0.858058333396912 0.000000000000000
3.164244174957275 5.367931365966797 0.775225162506104 0.000000000000000
7.058671951293945 10.180579185485840 2.275157690048218 0.000000000000000
2.927714347839355 4.029668807983398 0.924099385738373 0.000000000000000
8.940972328186035 11.659411430358887 2.694220542907715 0.000000000000000
10.827980041503906 13.492046356201172 3.170023918151855 0.003921568859369
5.701468467712402 7.825940608978271 2.615806341171265 0.000000000000000
9.510803222656250 11.366958618164062 2.717242479324341 0.000000000000000
11.192867279052734 13.164768218994141 3.165742874145508 0.003921568859369
8.754656791687012 11.325444221496582 3.856129646301270 0.000000000000000
9.587479591369629 11.213201522827148 2.705075025558472 0.000000000000000
11.389128684997559 12.925103187561035 3.156474351882935 0.003921568859369
6.022476673126221 7.088809490203857 2.512294054031372 0.000000000000000
19.871305465698242 20.501289367675781 5.221077919006348 0.003921568859369
7.658142566680908 7.746140003204346 1.999698758125305 0.000000000000000
19.847990036010742 19.640762329101562 5.105508804321289 0.003921568859369
5.282683372497559 5.683403491973877 2.098146200180054 0.000000000000000
7.292829990386963 7.078494548797607 1.866977095603943 0.000000000000000
5.504383563995361 5.754384994506836 2.153039693832397 0.000000000000000
4.728102207183838 4.463977813720703 1.199614048004150 0.000000000000000
8.807599067687988 8.171741485595703 2.203486919403076 0.000000000000000
5.799577713012695 5.841647148132324 2.223397493362427 0.000000000000000
14.389871597290039 12.839969635009766 3.529683351516724 0.003921568859369
5.954584121704102 5.789231777191162 0.195441842079163 0.000000000000000
12.156258583068848 10.327403068542480 2.920360088348389 0.003921568859369
15.246293067932129 12.136294364929199 3.565575838088989 0.003921568859369
17.654935836791992 13.538880348205566 4.067804336547852 0.003921568859369
5.875917434692383 4.510484218597412 0.609862804412842 0.000000000000000
4.606443881988525 3.839184761047363 1.621769905090332 0.000000000000000
9.118510246276855 6.721004962921143 2.076430559158325 0.000000000000000
3.323470354080200 2.641856193542480 0.250410407781601 0.000000000000000
12.550086021423340 8.889755249023438 1.260347843170166 0.000000000000000
12.730486869812012 8.628173828125000 1.260377049446106 0.000000000000000
8.732295036315918 5.752058982849121 1.916344642639160 0.000000000000000
9.701840400695801 6.775816440582275 1.458635330200195 0.000000000000000
9.956439971923828 6.202396392822266 0.961711168289185 0.000000000000000
7.838089466094971 5.403539180755615 0.223014488816261 0.000000000000000
18.178581237792969 11.219665527343750 1.748349666595459 0.003921568859369
14.163074493408203 7.753000736236572 -0.564521491527557 0.003921568859369
13.947169303894043 7.502590179443359 -0.924028515815735 0.000000000000000
5.335657119750977 3.209425210952759 -0.797559857368469 0.000000000000000
13.843235015869141 7.320263385772705 -0.182039588689804 0.000000000000000
14.154561996459961 7.484440803527832 0.187505975365639 0.003921568859369
14.235321998596191 7.526974201202393 -0.562864363193512 0.003921568859369
6.482237815856934 4.268340587615967 0.454337745904922 0.000000000000000
13.818175315856934 7.186930179595947 -0.181058213114738 0.000000000000000
13.984580993652344 7.273204803466797 -0.551002919673920 0.003921568859369
14.211367607116699 7.261908054351807 -0.185509636998177 0.000000000000000
2.170694828033447 1.548079729080200 0.078796632587910 0.000000000000000
13.719211578369141 6.770836353302002 0.179219871759415 0.000000000000000
15.796898841857910 9.820220947265625 4.993831157684326 0.003921568859369
14.210291862487793 7.841105937957764 -0.472681373357773 0.000000000000000
11.035503387451172 6.094273090362549 0.515598773956299 0.000000000000000
13.904099464416504 7.606208324432373 -0.091644741594791 0.000000000000000
13.864224433898926 7.584407806396484 -0.829378008842468 0.003921568859369
13.827232360839844 7.504713058471680 -0.090971045196056 0.000000000000000
13.889302253723145 7.538254737854004 -0.829374969005585 0.000000000000000
13.944145202636719 6.638752937316895 0.180642813444138 0.000000000000000
13.119318008422852 7.054033279418945 2.721153497695923 0.000000000000000
4.448111534118652 2.671759366989136 0.121592164039612 0.000000000000000
14.023977279663086 6.619648456573486 0.181391641497612 0.000000000000000
13.083580970764160 6.978963851928711 2.708957195281982 0.000000000000000
13.653226852416992 8.099157333374023 1.952826976776123 0.003921568859369
13.086982727050781 6.922122955322266 2.704653978347778 0.000000000000000
14.074024200439453 7.379997730255127 -0.833718299865723 0.000000000000000
14.202527046203613 7.384064674377441 -0.839784145355225 0.003921568859369
11.542228698730469 6.686963558197021 0.778797388076782 0.000000000000000
14.284087181091309 7.303205966949463 0.281022697687149 0.003921568859369
13.337958335876465 7.665600776672363 0.897912859916687 0.000000000000000
14.185382843017578 7.252864360809326 0.650701701641083 0.000000000000000
13.322750091552734 7.656929969787598 1.890428423881531 0.000000000000000
15.250312805175781 8.691436767578125 0.409588158130646 0.000000000000000
6.657955646514893 3.773297309875488 0.447517365217209 0.000000000000000
13.489986419677734 7.627902030944824 1.906522870063782 0.000000000000000
13.861971855163574 6.905463695526123 0.271312773227692 0.003921568859369
13.913053512573242 6.930803298950195 -0.815499663352966 0.000000000000000
18.820043563842773 8.165398597717285 0.239844352006912 0.003921568859369
13.984062194824219 6.902208328247070 0.273202747106552 0.000000000000000
13.570695877075195 7.545594215393066 0.906297743320465 0.003921568859369
13.557002067565918 6.691918849945068 1.236929297447205 0.000000000000000
18.774913787841797 8.068014144897461 0.238913893699646 0.003921568859369
13.576791763305664 6.642706394195557 0.264816015958786 0.000000000000000
17.956182479858398 9.896684646606445 1.196177959442139 0.003921568859369
13.682497978210449 6.694328308105469 0.622201323509216 0.000000000000000
13.732891082763672 6.719032287597656 2.792935371398926 0.000000000000000
13.703218460083008 7.488617897033691 0.910789489746094 0.000000000000000
13.694259643554688 6.635878086090088 0.621052443981171 0.000000000000000
14.014307022094727 7.658408641815186 1.963409423828125 0.003921568859369
13.755725860595703 6.665687561035156 2.790611028671265 0.000000000000000
13.919871330261230 7.546944618225098 0.369197636842728 0.000000000000000
13.327388763427734 7.226230144500732 1.863952994346619 0.000000000000000
14.418817520141602 7.752040863037109 0.954757332801819 0.000000000000000
13.688575744628906 6.518352508544922 0.618774831295013 0.003921568859369
13.859477996826172 6.540307521820068 0.625455081462860 0.000000000000000
24.945804595947266 11.658197402954102 5.024326324462891 0.003921568859369
4.262982368469238 1.981821656227112 0.082550667226315 0.000000000000000
15.021955490112305 6.899733066558838 1.351354956626892 0.000000000000000
18.178651809692383 7.220331192016602 0.228392064571381 0.003921568859369
14.244871139526367 7.281112670898438 0.373026520013809 0.000000000000000
14.806260108947754 6.613739013671875 0.661790549755096 0.003921568859369
14.569840431213379 6.447333335876465 1.302532315254211 0.000000000000000
13.879386901855469 6.912022113800049 -0.722745954990387 0.003921568859369
13.911535263061523 6.928093433380127 1.910772323608398 0.000000000000000
14.095195770263672 7.831634521484375 -0.281443506479263 0.003921568859369
13.985194206237793 7.770564079284668 0.093204736709595 0.003921568859369
13.385610580444336 6.603203296661377 0.869929969310760 0.000000000000000
13.891957283020020 6.852774620056152 -0.721802234649658 0.003921568859369
8.280087471008301 4.086511611938477 1.134970784187317 0.000000000000000
14.099568367004395 6.894019603729248 0.365594625473022 0.000000000000000
13.372698783874512 6.538876056671143 0.867604792118073 0.000000000000000
19.104774475097656 8.208580970764160 1.698472976684570 0.003921568859369
13.655668258666992 6.618133544921875 0.353494226932526 0.000000000000000
13.417005538940430 6.502560615539551 0.869000971317291 0.000000000000000
17.080636978149414 8.276837348937988 2.331809759140015 0.003921568859369
20.104148864746094 7.337024211883545 0.249514132738113 0.003921568859369
14.736396789550781 7.078114986419678 2.008591413497925 0.003921568859369
19.058734893798828 8.031613349914551 1.689361095428467 0.003921568859369
13.847305297851562 7.442803859710693 -0.274392545223236 0.000000000000000
19.949052810668945 7.201602935791016 0.247278183698654 0.003921568859369
14.542317390441895 6.922558307647705 1.978853702545166 0.003921568859369
19.060897827148438 7.954252719879150 1.687083601951599 0.003921568859369
18.098186492919922 7.478601932525635 0.798414945602417 0.003921568859369
19.202783584594727 7.934806823730469 1.697175025939941 0.003921568859369
4.246665000915527 2.006728649139404 1.261053681373596 0.000000000000000
19.770103454589844 6.989118576049805 0.244483813643456 0.003921568859369
19.367820739746094 7.931801795959473 1.709544777870178 0.003921568859369
18.841884613037109 7.635951519012451 -0.117979079484940 0.003921568859369
19.274480819702148 6.734597682952881 0.238053500652313 0.003921568859369
14.733516693115234 5.971880435943604 1.298771381378174 0.000000000000000
13.829808235168457 7.189327716827393 0.090813428163528 0.000000000000000
19.131755828857422 7.675713062286377 1.683832764625549 0.003921568859369
18.493217468261719 7.344774246215820 -0.115470439195633 0.000000000000000
14.446852684020996 6.573275089263916 0.925060510635376 0.000000000000000
14.728418350219727 6.701313972473145 1.988120317459106 0.003921568859369
19.658494949340820 6.638442993164062 0.241924449801445 0.003921568859369
17.934406280517578 7.050568580627441 1.574142694473267 0.000000000000000
19.809394836425781 6.616249084472656 0.243509933352470 0.003921568859369
18.171270370483398 7.074112415313721 0.340762555599213 0.003921568859369
14.237158775329590 6.361278533935547 1.915970206260681 0.000000000000000
18.642416000366211 7.174826145172119 0.813820004463196 0.003921568859369
14.330204010009766 6.281576156616211 1.921148538589478 0.000000000000000
17.977682113647461 6.854229927062988 1.570659875869751 0.000000000000000
24.543582916259766 7.908442974090576 0.300200283527374 0.003921568859369
18.213253021240234 6.867686271667480 0.339763432741165 0.003921568859369
18.103404998779297 6.826265811920166 1.579447269439697 0.000000000000000
14.049713134765625 6.870728015899658 0.090898334980011 0.000000000000000
20.150003433227539 6.415194034576416 0.246185630559921 0.003921568859369
14.968186378479004 6.433938980102539 0.948828935623169 0.000000000000000
14.662937164306641 6.302730560302734 1.959659099578857 0.003921568859369
17.959033966064453 6.700325012207031 1.564801573753357 0.000000000000000
19.196348190307617 7.089528560638428 -0.118935011327267 0.003921568859369
14.824112892150879 6.313854694366455 0.938363909721375 0.000000000000000
19.088897705078125 8.047780036926270 -0.000000000000040 0.003921568859369
24.193431854248047 7.516905307769775 -0.294938504695892 0.003921568859369
23.872585296630859 7.417218685150146 0.291027098894119 0.003921568859369
24.120105743408203 7.401893138885498 0.293727815151215 0.003921568859369
14.632877349853516 6.109071254730225 1.946984767913818 0.000000000000000
18.868129730224609 6.815279960632324 1.637704133987427 0.003921568859369
19.033433914184570 6.799970626831055 -0.117470413446426 0.003921568859369
24.279773712158203 7.358250617980957 0.295357584953308 0.003921568859369
24.844299316406250 7.439465522766113 -0.301923155784607 0.003921568859369
19.418909072875977 7.873360633850098 0.487595438957214 0.003921568859369
18.992811203002930 6.565720081329346 -0.116796225309372 0.003921568859369
24.553911209106445 7.166117668151855 0.297778934240341 0.003921568859369
11.133048057556152 4.423632621765137 0.697668313980103 0.000000000000000
18.804630279541016 7.391901493072510 -0.000236627456616 0.003921568859369
24.369224548339844 8.140857696533203 -0.149578943848610 0.003921568859369
24.701910018920898 6.931109428405762 0.298249125480652 0.003921568859369
9.410439491271973 3.661208868026733 1.238537549972534 0.000000000000000
24.984212875366211 6.916403770446777 0.301364928483963 0.003921568859369
18.219034194946289 7.018832683563232 1.136269569396973 0.000000000000000
2.258436203002930 0.985571801662445 -0.157404899597168 0.000000000000000
19.048553466796875 8.266215324401855 0.120400130748749 0.003921568859369
19.270584106445312 7.266332149505615 -0.959157586097717 0.003921568859369
18.854597091674805 7.038078784942627 -0.000240548048168 0.003921568859369
19.724283218383789 7.362871170043945 1.225321173667908 0.003921568859369
24.095548629760742 7.584736347198486 -0.147069558501244 0.003921568859369
18.423885345458984 6.804046630859375 1.143008947372437 0.000000000000000
9.414205551147461 3.437638521194458 1.229273438453674 0.000000000000000
18.514858245849609 7.733030796051025 0.116334199905396 0.003921568859369
25.130554199218750 7.718334197998047 -0.153057113289833 0.003921568859369
18.951995849609375 7.838147640228271 0.118909694254398 0.003921568859369
25.119068145751953 7.618979454040527 -0.152825385332108 0.003921568859369
18.552688598632812 7.672907829284668 0.583790957927704 0.003921568859369
4.727724552154541 1.687287092208862 0.615099847316742 0.000000000000000
23.546236038208008 8.325207710266113 0.580634355545044 0.003921568859369
19.005409240722656 6.644521236419678 -0.000246209208854 0.003921568859369
20.110494613647461 6.948797225952148 0.494150012731552 0.003921568859369
18.708873748779297 7.505001068115234 0.585647165775299 0.003921568859369
18.989475250244141 6.487033367156982 -0.000495247368235 0.003921568859369
18.720094680786133 7.433815956115723 0.585180163383484 0.003921568859369
16.074958801269531 3.789119005203247 -0.961154162883759 0.003921568859369
25.723794937133789 7.311862945556641 -0.155981764197350 0.003921568859369
8.610622406005859 1.995810747146606 0.102380469441414 0.000000000000000
16.091979980468750 3.733952999114990 -0.961388230323792 0.003921568859369
24.676214218139648 6.920956611633301 -0.745942115783691 0.003921568859369
25.733753204345703 7.217789173126221 -0.155890777707100 0.003921568859369
16.038736343383789 3.662707805633545 -0.957434713840485 0.003921568859369
16.003421783447266 3.601818799972534 -0.954644143581390 0.003921568859369
24.758241653442383 8.180991172790527 1.516806602478027 0.003921568859369
19.118589401245117 7.369266510009766 -0.834493398666382 0.003921568859369
19.414758682250977 7.401953697204590 0.603662192821503 0.003921568859369
15.950234413146973 3.528534650802612 -0.950690507888794 0.003921568859369
18.440551757812500 6.960273742675781 0.113976635038853 0.000000000000000
20.173225402832031 6.509017467498779 0.492279201745987 0.003921568859369
15.903324127197266 3.462933301925659 -0.947202146053314 0.003921568859369
24.848949432373047 8.019145011901855 1.518894314765930 0.003921568859369
10.463697433471680 2.817790746688843 -0.567232608795166 0.000000000000000
23.499567031860352 6.334904193878174 1.984671950340271 0.003921568859369
18.904323577880859 7.056528568267822 0.116685703396797 0.003921568859369
24.448730468750000 7.791153907775879 0.596032500267029 0.003921568859369
15.923722267150879 3.406371116638184 -0.947668969631195 0.003921568859369
24.878175735473633 7.928094387054443 1.518891811370850 0.003921568859369
25.013696670532227 6.645251750946045 2.110588788986206 0.003921568859369
21.005083084106445 5.579394817352295 3.958462476730347 0.003921568859369
19.239942550659180 7.105562210083008 0.595865249633789 0.003921568859369
15.958958625793457 3.355767488479614 -0.949066042900085 0.003921568859369
24.795248031616211 7.806466102600098 1.512147665023804 0.003921568859369
24.900739669799805 7.753893852233887 0.605790019035339 0.003921568859369
15.910768508911133 3.293523788452148 -0.945577561855316 0.003921568859369
25.059831619262695 7.803449630737305 1.526791453361511 0.003921568859369
3.227897167205811 0.818227529525757 -0.096516221761703 0.000000000000000
18.410713195800781 6.660700321197510 0.568767309188843 0.003921568859369
15.922168731689453 3.238037586212158 -0.945578932762146 0.003921568859369
24.628936767578125 7.575027942657471 1.498892307281494 0.003921568859369
4.134304046630859 1.049403071403503 0.773967087268829 0.000000000000000
24.810188293457031 7.531479358673096 0.602252364158630 0.003921568859369
15.965257644653320 3.185986995697021 -0.947441399097443 0.003921568859369
2.724723339080811 0.821698725223541 0.346929341554642 0.000000000000000
23.780550003051758 5.967869758605957 1.999303221702576 0.003921568859369
19.053499221801758 6.732419490814209 0.116545841097832 0.003921568859369
10.133100509643555 1.980103135108948 0.119353026151657 0.000000000000000
15.967240333557129 3.123585224151611 -0.946516990661621 0.003921568859369
24.257402420043945 5.990621089935303 2.036394357681274 0.003921568859369
9.614651679992676 2.369913339614868 1.799674272537231 0.000000000000000
24.633125305175781 7.376123428344727 -0.598626196384430 0.003921568859369
24.683061599731445 7.306720256805420 0.597374498844147 0.003921568859369
15.980894088745117 3.074259757995605 -0.946751415729523 0.003921568859369
19.031991958618164 6.575908660888672 0.116123974323273 0.003921568859369
24.430728912353516 7.130132198333740 0.590587139129639 0.003921568859369
19.417245864868164 6.709212779998779 0.596300005912781 0.003921568859369
16.020046234130859 3.018178224563599 -0.948382437229156 0.003921568859369
24.511074066162109 7.153573989868164 1.484385132789612 0.003921568859369
24.073774337768555 5.767411231994629 2.017518997192383 0.003921568859369
10.472815513610840 2.504880428314209 1.957487463951111 0.000000000000000
25.697786331176758 7.412941932678223 0.620692014694214 0.003921568859369
16.041229248046875 2.970117092132568 -0.949082255363464 0.003921568859369
25.032312393188477 8.462275505065918 0.152475208044052 0.003921568859369
24.432552337646484 6.950719356536865 0.589465498924255 0.003921568859369
20.606225967407227 6.964198589324951 0.631399631500244 0.003921568859369
16.052009582519531 2.911401271820068 -0.949084281921387 0.003921568859369
16.152494430541992 2.871572494506836 -0.954438388347626 0.003921568859369
24.687597274780273 6.930468082427979 -0.596965730190277 0.003921568859369
16.288299560546875 2.837240695953369 -0.961886703968048 0.003921568859369
24.507331848144531 6.787612915039062 1.478328943252563 0.003921568859369
2.340901613235474 0.764195919036865 -0.099380582571030 0.000000000000000
25.640653610229492 7.010538101196289 0.616868138313293 0.003921568859369
16.321235656738281 2.787346124649048 -0.963284730911255 0.003921568859369
24.040378570556641 7.754635334014893 0.145731344819069 0.003921568859369
24.015089035034180 7.663345336914062 0.145427659153938 0.003921568859369
25.336141586303711 6.742374897003174 0.608405411243439 0.003921568859369
5.130349636077881 1.358897209167480 -0.246186092495918 0.000000000000000
10.495230674743652 2.208970546722412 -0.062676355242729 0.000000000000000
7.956313133239746 1.242490291595459 -0.280607789754868 0.000000000000000
25.208852767944336 7.751860141754150 0.151778459548950 0.003921568859369
24.220682144165039 6.082005977630615 1.450789093971252 0.003921568859369
24.971652984619141 7.389118671417236 0.149848580360413 0.003921568859369
10.008192062377930 1.351029276847839 -0.117797136306763 0.000000000000000
3.116124629974365 0.560035884380341 -0.091335311532021 0.000000000000000
25.353820800781250 7.028966426849365 0.151372089982033 0.003921568859369
7.996389389038086 1.391281127929688 -0.659954130649567 0.000000000000000
25.899009704589844 7.083212852478027 0.154482707381248 0.003921568859369
25.827342987060547 5.725599765777588 1.536966443061829 0.003921568859369
25.972555160522461 7.010986804962158 0.154778271913528 0.003921568859369
8.584339141845703 1.434190988540649 -0.050961382687092 0.000000000000000
13.902775764465332 2.277079343795776 2.560520648956299 0.000000000000000
6.030263900756836 1.262198090553284 -0.000592019292526 0.000000000000000
9.886565208435059 2.076146602630615 -0.234752312302589 0.000000000000000
11.729735374450684 1.834891438484192 -0.345037966966629 0.000000000000000
4.244448661804199 0.870723843574524 0.525500118732452 0.000000000000000
8.190715789794922 1.248331308364868 -0.048607151955366 0.000000000000000
6.800821781158447 1.697932243347168 0.201961785554886 0.000000000000000
16.614782333374023 2.421926975250244 -0.488470196723938 0.000000000000000
6.764018535614014 1.663776397705078 0.200682759284973 0.000000000000000
3.528881549835205 0.683622896671295 0.434869706630707 0.000000000000000
10.668352127075195 1.552365303039551 1.955660104751587 0.000000000000000
12.939162254333496 3.101144552230835 -0.541084051132202 0.000000000000000
19.557826995849609 2.647242307662964 1.605658650398254 0.000000000000000
8.524201393127441 2.007620334625244 -0.355532944202423 0.000000000000000
16.233825683593750 2.890984058380127 -0.001214424730279 0.003921568859369
7.086993694305420 0.904950499534607 0.123161718249321 0.000000000000000
19.319198608398438 2.348297834396362 -0.566388189792633 0.000000000000000
16.186351776123047 1.966478705406189 -0.095731988549232 0.000000000000000
6.521423339843750 1.111768484115601 -0.153424754738808 0.000000000000000
11.786012649536133 1.345926761627197 -0.344678878784180 0.000000000000000
26.511823654174805 3.035859107971191 4.852146625518799 0.003921568859369
10.824757575988770 0.667418777942657 -0.377771705389023 0.000000000000000
12.973066329956055 0.755373954772949 -0.151896655559540 0.000000000000000
10.427945137023926 0.606499671936035 -0.363782703876495 0.000000000000000
7.840950012207031 0.400667935609818 -0.272982835769653 0.000000000000000
8.958000183105469 0.864255964756012 -0.052930962294340 0.000000000000000
18.659894943237305 1.741085648536682 0.324361085891724 0.003921568859369
19.137456893920898 0.848921477794647 -0.668667435646057 0.003921568859369
13.122135162353516 2.481745719909668 0.076050266623497 0.000000000000000
8.752794265747070 1.651563048362732 0.256597042083740 0.000000000000000
14.915310859680176 1.340860724449158 0.606243729591370 0.000000000000000
17.137281417846680 2.387250423431396 -0.402801960706711 0.000000000000000
13.453160285949707 2.496236085891724 0.077930226922035 0.000000000000000
18.274837493896484 2.481427192687988 0.426115244626999 0.000000000000000
15.673122406005859 2.853641510009766 0.090833060443401 0.000000000000000
12.151043891906738 1.561237573623657 0.708797872066498 0.000000000000000
13.530329704284668 1.739282488822937 1.666360974311829 0.000000000000000
13.456912040710449 1.067882299423218 1.095788478851318 0.000000000000000
7.166234016418457 0.891044497489929 0.415546417236328 0.000000000000000
11.985378265380859 1.453968167304993 0.697677135467529 0.000000000000000
13.442445755004883 2.299620151519775 -0.554276585578918 0.000000000000000
10.196140289306641 1.235693573951721 -0.238606393337250 0.000000000000000
9.934553146362305 1.168731927871704 1.218459963798523 0.000000000000000
11.443122863769531 0.786633610725403 2.077148914337158 0.000000000000000
11.689523696899414 1.335658073425293 -0.001365736708976 0.003921568859369
9.988056182861328 1.634305953979492 0.291350573301315 0.000000000000000
10.043411254882812 1.146388173103333 0.583425641059875 0.000000000000000
6.790236949920654 1.083296775817871 -0.119729250669479 0.000000000000000
8.873208045959473 1.387555956840515 0.050702769309282 0.000000000000000
2.801456928253174 0.294634401798248 0.063344821333885 0.000000000000000
12.845605850219727 0.749397933483124 1.043205976486206 0.000000000000000
6.058139801025391 0.859382390975952 0.175198331475258 0.000000000000000
8.995424270629883 0.400143593549728 0.728183209896088 0.000000000000000
7.643138408660889 0.684842467308044 -0.001020408119075 0.000000000000000
20.830863952636719 2.905669450759888 0.607947170734406 0.003921568859369
9.888175010681152 0.405881375074387 0.170269206166267 0.000000000000000
10.961232185363770 0.450123578310013 1.986054301261902 0.000000000000000
14.459790229797363 1.250693440437317 -0.001636177999899 0.000000000000000
10.752785682678223 0.404281824827194 0.185265287756920 0.000000000000000
8.942661285400391 0.304368823766708 -0.052876073867083 0.000000000000000
7.479116916656494 0.254048883914948 0.603195607662201 0.000000000000000
17.095756530761719 2.200037002563477 -0.301571607589722 0.003921568859369
12.737797737121582 0.390496581792831 -0.075346633791924 0.000000000000000
12.365596771240234 0.336066514253616 0.212817132472992 0.000000000000000
12.716883659362793 0.345654696226120 0.513282954692841 0.000000000000000
7.545784950256348 0.178141772747040 -0.044595956802368 0.000000000000000
9.692464828491211 1.174603939056396 0.280474901199341 0.000000000000000
10.486628532409668 1.234796404838562 0.303548574447632 0.000000000000000
16.041566848754883 1.050777792930603 1.961989283561707 0.003921568859369
14.898214340209961 0.923655331134796 0.862701952457428 0.000000000000000
21.223728179931641 1.243878841400146 1.230867981910706 0.003921568859369
10.109166145324707 1.048231840133667 0.292056322097778 0.000000000000000
9.347261428833008 0.059225458651781 1.688256382942200 0.000000000000000
15.965578079223633 0.049064774066210 0.275161445140839 0.000000000000000
8.866214752197266 0.456827491521835 1.078933358192444 0.000000000000000
6.435132026672363 0.620509326457977 0.184791579842567 0.000000000000000
16.485912322998047 -0.006788588128984 2.988971710205078 0.003921568859369
14.971912384033203 1.401700735092163 -0.263002663850784 0.000000000000000
8.896219253540039 0.396743178367615 0.512624800205231 0.000000000000000
16.092273712158203 -0.062515847384930 2.917263269424438 0.003921568859369
8.887622833251953 0.365071803331375 0.511294782161713 0.000000000000000
13.186969757080078 1.140411615371704 0.380642473697662 0.000000000000000
13.769906997680664 0.472127616405487 -0.002083029365167 0.000000000000000
13.370586395263672 0.458317697048187 0.307178616523743 0.000000000000000
8.545499801635742 0.706565022468567 -0.347107440233231 0.000000000000000
9.871558189392090 -0.653700888156891 -0.115825615823269 0.000000000000000
12.463214874267578 0.383722931146622 0.718994259834290 0.000000000000000
7.400547504425049 0.585190474987030 -0.300081849098206 0.000000000000000
16.963003158569336 -0.360260903835297 -0.493708938360214 0.000000000000000
13.692227363586426 0.897876501083374 0.077189639210701 0.000000000000000
8.744951248168945 -0.275598973035812 0.705367922782898 0.000000000000000
11.762363433837891 0.729542315006256 0.338544368743896 0.000000000000000
6.260599136352539 0.366189450025558 0.178727626800537 0.000000000000000
9.515793800354004 -0.362804859876633 1.718160033226013 0.000000000000000
10.108920097351074 0.067546039819717 0.581817090511322 0.000000000000000
16.559232711791992 0.862144947052002 0.093456171452999 0.000000000000000
5.322422027587891 -0.238014012575150 0.953857183456421 0.000000000000000
6.123863697052002 -0.295061320066452 0.244369298219681 0.000000000000000
10.718078613281250 -0.037826877087355 0.616422653198242 0.000000000000000
10.201705932617188 -0.565601944923401 1.842707514762878 0.000000000000000
8.179752349853516 0.281574666500092 0.233716279268265 0.000000000000000
6.718501091003418 0.230684593319893 -0.271180838346481 0.000000000000000
9.014656066894531 -0.157764032483101 -0.001722283428535 0.003921568859369
14.405684471130371 -0.253209561109543 0.830780863761902 0.000000000000000
11.118501663208008 -0.734547257423401 0.447834372520447 0.000000000000000
10.539470672607422 -0.221307039260864 1.280129194259644 0.000000000000000
18.389307022094727 -1.283571362495422 3.339612007141113 0.003921568859369
18.934671401977539 -0.398987472057343 -0.441470474004745 0.000000000000000
13.792844772338867 0.285920947790146 0.077265463769436 0.000000000000000
13.375586509704590 0.277177125215530 0.384160339832306 0.000000000000000
6.133851528167725 -0.486942768096924 -0.177531093358994 0.000000000000000
12.956753730773926 0.221291363239288 0.371994465589523 0.000000000000000
9.327857017517090 -0.292276769876480 0.535892307758331 0.000000000000000
6.695424079895020 -0.232082843780518 1.766839623451233 0.000000000000000
7.831521987915039 0.079082727432251 0.043398790061474 0.000000000000000
13.936828613281250 -1.213923454284668 0.239957243204117 0.000000000000000
5.714384078979492 -0.217091947793961 0.325929671525955 0.000000000000000
12.147702217102051 0.085318088531494 -0.492782473564148 0.000000000000000
8.994289398193359 0.030324658378959 0.256684005260468 0.000000000000000
10.006287574768066 -0.971043944358826 -0.291518360376358 0.000000000000000
10.849562644958496 -0.000817226129584 0.310394018888474 0.000000000000000
17.984521865844727 -1.946500062942505 3.274722337722778 0.003921568859369
6.895473003387451 -0.760428905487061 -0.041320636868477 0.000000000000000
22.570577621459961 -2.517127752304077 1.840850949287415 0.003921568859369
10.694808959960938 -1.225455641746521 -0.312359929084778 0.000000000000000
9.838442802429199 -0.202783331274986 -0.171869874000549 0.000000000000000
14.206048011779785 -0.345454394817352 -0.577155172824860 0.000000000000000
4.199253559112549 -0.529991149902344 0.070765331387520 0.000000000000000
8.198801994323730 -0.308217614889145 0.233334630727768 0.000000000000000
12.930972099304199 -0.533444344997406 -0.226559937000275 0.000000000000000
10.298567771911621 -1.574706077575684 -0.302181988954544 0.000000000000000
4.943653106689453 -0.522760450839996 0.281116217374802 0.000000000000000
8.049224853515625 -0.915273368358612 -0.187724739313126 0.000000000000000
10.037512779235840 -1.178178191184998 0.579276084899902 0.000000000000000
12.300432205200195 -2.098331689834595 -0.074654154479504 0.000000000000000
13.253507614135742 -1.006285786628723 -0.232836782932281 0.000000000000000
4.218871593475342 -0.529281497001648 0.094505585730076 0.000000000000000
14.769768714904785 -1.999216675758362 3.955415487289429 0.000000000000000
2.557846546173096 -0.462120234966278 0.449446052312851 0.000000000000000
6.948433399200439 -1.371757745742798 0.119382143020630 0.000000000000000
16.647081375122070 -4.233088493347168 -0.202584132552147 0.003921568859369
19.610565185546875 -3.990129470825195 3.620826005935669 0.003921568859369
14.510560035705566 -1.606680512428284 0.417726516723633 0.000000000000000
10.092528343200684 -2.180221319198608 1.854667186737061 0.000000000000000
7.854924678802490 -1.328002929687500 2.095129966735840 0.000000000000000
7.338043212890625 -1.263438701629639 -0.002232519211248 0.000000000000000
9.252412796020508 -1.143958568572998 0.050793226808310 0.000000000000000
6.608797073364258 -0.836167037487030 -0.267775386571884 0.000000000000000
10.117311477661133 -1.825185179710388 2.714764118194580 0.000000000000000
3.096853494644165 -0.712951362133026 0.122562348842621 0.000000000000000
7.436465740203857 -1.072941303253174 -0.130955889821053 0.000000000000000
7.304092407226562 -1.053443312644958 -0.466275066137314 0.000000000000000
4.356166839599609 -1.062604546546936 -0.026906564831734 0.000000000000000
12.214041709899902 -3.175317525863647 2.270983934402466 0.000000000000000
14.179578781127930 -3.073457002639771 3.844345569610596 0.000000000000000
26.970319747924805 -5.968724250793457 7.355253696441650 0.003921568859369
8.784698486328125 -1.515598654747009 -0.155566453933716 0.000000000000000
7.414262294769287 -1.644473075866699 -0.002298001432791 0.000000000000000
7.624229431152344 -1.392750740051270 -0.135013967752457 0.000000000000000
9.742968559265137 -2.348557949066162 2.643332004547119 0.000000000000000
27.753730773925781 -8.410570144653320 2.348604917526245 0.003921568859369
27.423532485961914 -8.620181083679199 5.206150531768799 0.003921568859369
20.827051162719727 -5.517017364501953 5.725924968719482 0.003921568859369
25.444623947143555 -8.184033393859863 2.162910938262939 0.003921568859369
6.473917961120605 -1.731591224670410 0.801719725131989 0.000000000000000
24.169853210449219 -6.679180145263672 3.053741693496704 0.003921568859369
27.051849365234375 -7.481203556060791 7.472027301788330 0.003921568859369
26.357481002807617 -9.192627906799316 5.054893493652344 0.003921568859369
4.894002914428711 -1.172232151031494 -0.086715713143349 0.000000000000000
24.303209304809570 -8.562903404235840 2.083991289138794 0.003921568859369
27.717708587646484 -8.388441085815430 3.528617620468140 0.003921568859369
27.564231872558594 -9.827756881713867 2.368630647659302 0.003921568859369
27.302759170532227 -9.734127998352051 5.248357772827148 0.003921568859369
18.532321929931641 -5.661772251129150 5.143482208251953 0.003921568859369
8.022573471069336 -2.093179464340210 -0.144328147172928 0.000000000000000
23.841762542724609 -8.862566947937012 2.057028055191040 0.003921568859369
25.080461502075195 -9.525277137756348 4.855633735656738 0.003921568859369
26.603759765625000 -10.213491439819336 2.306276798248291 0.003921568859369
24.984661102294922 -9.588056564331055 4.843446731567383 0.003921568859369
20.333784103393555 -7.953254699707031 3.946268558502197 0.003921568859369
4.863408088684082 -1.869259238243103 -0.031203085556626 0.000000000000000
26.671272277832031 -10.554470062255859 2.321516752243042 0.003921568859369
24.811500549316406 -9.813939094543457 4.829101085662842 0.003921568859369
18.620695114135742 -7.419097900390625 3.618775844573975 0.003921568859369
12.400158882141113 -3.623394489288330 -0.225995302200317 0.000000000000000
2.272823810577393 -0.850550472736359 -0.066959775984287 0.000000000000000
24.025165557861328 -9.690114974975586 2.094635963439941 0.003921568859369
24.837566375732422 -10.115651130676270 2.168955326080322 0.003921568859369
23.264547348022461 -9.569329261779785 2.033611059188843 0.003921568859369
25.710578918457031 -9.244880676269531 3.327072381973267 0.003921568859369
18.468881607055664 -6.622784614562988 5.206520080566406 0.003921568859369
25.772838592529297 -12.325501441955566 0.323505103588104 0.003921568859369
25.426740646362305 -9.246905326843262 3.294465541839600 0.003921568859369
24.064107894897461 -10.288911819458008 2.116357088088989 0.003921568859369
26.736934661865234 -9.932537078857422 7.589786529541016 0.003921568859369
17.596817016601562 -7.503015518188477 3.452507019042969 0.003921568859369
20.410734176635742 -8.803155899047852 1.795370459556580 0.003921568859369
15.645888328552246 -6.729892253875732 3.070565700531006 0.003921568859369
2.863114356994629 -1.024424076080322 -0.001350627746433 0.000000000000000
24.082332611083984 -9.125322341918945 1.483528614044189 0.003921568859369
25.736207962036133 -9.756823539733887 3.351862907409668 0.003921568859369
27.058576583862305 -10.261903762817383 7.701492309570312 0.003921568859369
10.349818229675293 -4.505717754364014 -0.326952636241913 0.000000000000000
26.550344467163086 -10.173471450805664 7.565979957580566 0.003921568859369
20.803031921386719 -8.038857460021973 2.711996316909790 0.003921568859369
26.529077529907227 -10.271066665649414 7.570112228393555 0.003921568859369
20.748727798461914 -8.104912757873535 2.707607984542847 0.003921568859369
19.064174652099609 -8.528284072875977 1.685330390930176 0.003921568859369
27.128471374511719 -10.620203018188477 7.751121997833252 0.003921568859369
20.233194351196289 -9.056591987609863 4.004254817962646 0.003921568859369
18.872478485107422 -8.512531280517578 3.737685203552246 0.003921568859369
21.348373413085938 -8.594076156616211 2.798100948333740 0.003921568859369
19.255270004272461 -7.817664623260498 2.524639606475830 0.003921568859369
18.650276184082031 -8.645771026611328 1.658707141876221 0.003921568859369
25.987552642822266 -10.578383445739746 7.463539600372314 0.003921568859369
18.016103744506836 -8.348843574523926 3.583613157272339 0.003921568859369
5.892758369445801 -2.694015264511108 0.107942253351212 0.000000000000000
19.879594802856445 -9.301244735717773 1.771971821784973 0.003921568859369
18.051399230957031 -7.466442584991455 2.371847867965698 0.003921568859369
22.146684646606445 -10.466093063354492 1.979354739189148 0.003921568859369
20.026420593261719 -9.549079895019531 1.791439175605774 0.003921568859369
25.761249542236328 -12.419756889343262 -0.834543406963348 0.003921568859369
25.693284988403320 -10.881344795227051 7.422145366668701 0.003921568859369
17.945861816406250 -8.624070167541504 3.593635559082031 0.003921568859369
25.264617919921875 -10.895390510559082 3.349853038787842 0.003921568859369
25.227996826171875 -10.983713150024414 7.318693637847900 0.003921568859369
16.129907608032227 -8.007005691528320 1.450650930404663 0.003921568859369
25.203008651733398 -11.177197456359863 7.331093788146973 0.003921568859369
24.466178894042969 -11.256894111633301 7.160403728485107 0.003921568859369
24.175083160400391 -11.218463897705078 3.243258953094482 0.003921568859369
26.342082977294922 -12.461390495300293 7.752066612243652 0.003921568859369
16.949831008911133 -9.089066505432129 1.550595045089722 0.000000000000000
14.004972457885742 -6.758903026580811 4.114100456237793 0.000000000000000
15.941104888916016 -8.750776290893555 0.728522837162018 0.003921568859369
22.950166702270508 -11.232114791870117 6.789029121398926 0.003921568859369
6.909794807434082 -2.965649127960205 -0.130271777510643 0.000000000000000
16.253473281860352 -9.068076133728027 0.745844542980194 0.003921568859369
16.939798355102539 -9.533255577087402 3.505455255508423 0.003921568859369
17.938751220703125 -10.267097473144531 3.729738950729370 0.003921568859369
15.752507209777832 -8.082650184631348 1.015486478805542 0.000000000000000
19.325750350952148 -11.159567832946777 1.801122307777405 0.003921568859369
23.884424209594727 -12.311625480651855 7.142775058746338 0.003921568859369
11.265426635742188 -6.454123497009277 2.330281257629395 0.003921568859369
19.279808044433594 -11.222180366516113 1.800472259521484 0.003921568859369
16.673007965087891 -8.707992553710938 4.985037326812744 0.003921568859369
18.888021469116211 -11.167934417724609 3.961902379989624 0.003921568859369
16.228416442871094 -8.681397438049316 2.232128143310547 0.003921568859369
17.220714569091797 -9.290788650512695 5.185697555541992 0.003921568859369
16.702838897705078 -10.162556648254395 1.575557708740234 0.003921568859369
18.702444076538086 -11.484630584716797 1.770603299140930 0.003921568859369
16.485363006591797 -9.111399650573730 4.990194320678711 0.003921568859369
16.425094604492188 -9.373476028442383 5.010877609252930 0.003921568859369
4.704675674438477 -2.637161970138550 0.119144484400749 0.000000000000000
14.452697753906250 -9.333536148071289 3.098428726196289 0.003921568859369
16.915046691894531 -9.895483016967773 1.125025153160095 0.000000000000000
11.357016563415527 -7.518377780914307 0.543279111385345 0.000000000000000
14.961328506469727 -10.028776168823242 1.449953556060791 0.000000000000000
24.409400939941406 -14.785928726196289 7.586480140686035 0.003921568859369
15.819165229797363 -10.772792816162109 1.541797161102295 0.000000000000000
17.045133590698242 -10.444639205932617 5.298423290252686 0.003921568859369
15.791283607482910 -10.833977699279785 1.542770862579346 0.000000000000000
25.350931167602539 -15.847686767578125 1.722162365913391 0.003921568859369
10.837826728820801 -7.495867252349854 1.056617498397827 0.000000000000000
16.145509719848633 -10.275012016296387 1.098143815994263 0.003921568859369
10.827357292175293 -7.599943637847900 1.060836911201477 0.003921568859369
10.591809272766113 -8.285466194152832 0.150674238801003 0.000000000000000
16.498836517333984 -10.583775520324707 5.194982528686523 0.003921568859369
5.604130744934082 -3.931309223175049 0.268687337636948 0.000000000000000
15.543214797973633 -10.104544639587402 4.908453941345215 0.003921568859369
10.883018493652344 -7.857181549072266 0.535182058811188 0.000000000000000
16.035444259643555 -10.508905410766602 5.078092098236084 0.003921568859369
10.733655929565430 -7.803656578063965 0.529030144214630 0.000000000000000
16.419866561889648 -11.010807037353516 1.134503722190857 0.000000000000000
9.089156150817871 -6.677172660827637 2.017843246459961 0.000000000000000
11.211397171020508 -8.338754653930664 0.557526946067810 0.000000000000000
16.552883148193359 -11.268748283386230 1.149328351020813 0.000000000000000
11.580975532531738 -7.096681594848633 0.385530263185501 0.000000000000000
