# This PCD file was generated using the MATLAB® pcwrite function
# from Computer Vision Toolbox®.
# .PCD v.7 - Point Cloud Data file format
VERSION .7
FIELDS x y z intensity
SIZE 8 8 8 8
TYPE F F F F
COUNT 1 1 1 1
WIDTH 643
HEIGHT 1
VIEWPOINT 0 0 0 1 0 0 0
POINTS 643
DATA ascii
16.422573089599609 -5.988669872283936 -0.608786284923553 0.003921568859369
16.447114944458008 -5.104623317718506 3.129326105117798 0.003921568859369
18.047136306762695 -6.650952816009521 -0.223577320575714 0.003921568859369
6.614818572998047 -1.380308866500854 0.038782984018326 0.000000000000000
18.291206359863281 -5.745512962341309 1.560240507125854 0.000000000000000
16.501407623291016 -5.181413650512695 3.142958879470825 0.003921568859369
14.985295295715332 -5.578130245208740 -0.185766384005547 0.000000000000000
16.128086090087891 -6.005248069763184 -0.999332010746002 0.003921568859369
16.008447647094727 -4.241160869598389 0.960841596126556 0.000000000000000
17.491708755493164 -5.560466289520264 3.335945367813110 0.003921568859369
15.009646415710449 -5.649768829345703 -0.186323925852776 0.000000000000000
16.762819290161133 -6.312322616577148 -0.623862922191620 0.003921568859369
17.839426040649414 -6.783082008361816 -0.221846058964729 0.003921568859369
15.253420829772949 -5.796498775482178 0.189075529575348 0.003921568859369
6.924912452697754 -2.241505384445190 0.125933617353439 0.000000000000000
15.859249114990234 -6.027663707733154 -0.985139012336731 0.003921568859369
14.736727714538574 -5.658162117004395 -0.183383509516716 0.000000000000000
3.590351343154907 -0.794399082660675 0.020940976217389 0.000000000000000
5.781148433685303 -1.287389516830444 0.170564338564873 0.000000000000000
17.903821945190430 -4.942456722259521 2.273253440856934 0.003921568859369
16.639263153076172 -5.477346897125244 1.425208806991577 0.000000000000000
17.652540206909180 -6.856404304504395 -0.220116779208183 0.003921568859369
4.472511291503906 -1.009922146797180 0.026202207431197 0.000000000000000
15.588749885559082 -6.052123069763184 -0.970945954322815 0.003921568859369
17.885583877563477 -5.007829189300537 2.273255586624146 0.003921568859369
15.673850059509277 -5.221962451934814 1.343861341476440 0.000000000000000
16.127054214477539 -6.261899471282959 -0.602490246295929 0.003921568859369
11.964043617248535 -3.391427278518677 0.720687925815582 0.000000000000000
18.016019821166992 -5.115557670593262 2.292266607284546 0.003921568859369
15.786773681640625 -5.323900699615479 1.355252146720886 0.000000000000000
15.781288146972656 -5.377156257629395 1.356230139732361 0.000000000000000
18.424219131469727 -6.360027313232422 -0.113278239965439 0.000000000000000
17.496912002563477 -7.010489463806152 0.218526959419250 0.003921568859369
15.726617813110352 -5.425743579864502 1.353303551673889 0.000000000000000
16.489721298217773 -6.605589866638184 -0.618683755397797 0.003921568859369
15.029272079467773 -5.184187412261963 2.888290882110596 0.003921568859369
16.510694503784180 -4.872337818145752 0.998751640319824 0.000000000000000
16.166498184204102 -5.639700889587402 1.392678260803223 0.000000000000000
15.063080787658691 -5.306273460388184 -0.092742346227169 0.000000000000000
15.423018455505371 -5.433591365814209 0.284135729074478 0.003921568859369
15.014335632324219 -5.347825527191162 -0.092554129660130 0.000000000000000
16.489482879638672 -4.984799385070801 0.999452769756317 0.003921568859369
15.494336128234863 -5.519467353820801 1.337689161300659 0.000000000000000
16.376537322998047 -5.834957599639893 3.158762693405151 0.003921568859369
4.000111103057861 -1.002050042152405 -0.071029976010323 0.000000000000000
15.044475555419922 -5.417670249938965 -0.092855311930180 0.000000000000000
14.680477142333984 -5.346715450286865 -0.453250646591187 0.000000000000000
16.006097793579102 -6.731809139251709 -0.201733812689781 0.003921568859369
17.579427719116211 -5.452719211578369 2.252312421798706 0.003921568859369
15.836343765258789 -5.769445419311523 1.370883941650391 0.000000000000000
14.659061431884766 -6.220134735107422 0.184490546584129 0.000000000000000
16.428760528564453 -5.154148101806641 0.998993396759033 0.000000000000000
17.201499938964844 -5.397477626800537 2.206009864807129 0.003921568859369
14.919627189636230 -5.490060329437256 1.292789220809937 0.000000000000000
16.318225860595703 -6.006840229034424 3.159486055374146 0.003921568859369
10.761789321899414 -2.844871044158936 0.321985691785812 0.000000000000000
17.441005706787109 -6.494333744049072 0.755562067031860 0.003921568859369
15.724724769592285 -5.852911472320557 1.364705085754395 0.000000000000000
14.825325012207031 -5.516739845275879 2.873237133026123 0.003921568859369
17.808843612670898 -6.695442199707031 -0.110535070300102 0.000000000000000
16.324653625488281 -6.135443687438965 0.303119838237762 0.003921568859369
17.321369171142578 -6.511547565460205 -0.967037320137024 0.003921568859369
15.549465179443359 -5.911023616790771 -0.482697099447250 0.000000000000000
4.784894943237305 -1.290867805480957 0.028339982032776 0.000000000000000
3.992343425750732 -1.074173927307129 0.118471629917622 0.000000000000000
17.018243789672852 -5.538904190063477 1.038523197174072 0.000000000000000
17.363412857055664 -6.603411197662354 -0.970804214477539 0.003921568859369
17.006389617919922 -5.600564002990723 1.038990259170532 0.000000000000000
16.955766677856445 -5.583705902099609 4.767145156860352 0.003921568859369
14.392245292663574 -5.526591777801514 2.800065279006958 0.003921568859369
15.322381973266602 -5.940583229064941 -0.095429293811321 0.000000000000000
15.659474372863770 -6.071803092956543 0.291895031929016 0.003921568859369
17.730873107910156 -6.878204345703125 0.772173345088959 0.003921568859369
17.821756362915039 -6.913647651672363 -0.999068975448608 0.003921568859369
16.608610153198242 -5.526762008666992 2.141680479049683 0.003921568859369
15.706748008728027 -6.090169906616211 1.370244264602661 0.000000000000000
16.978452682495117 -5.650216102600098 4.778533935546875 0.003921568859369
16.653450012207031 -6.525580406188965 -0.519129633903503 0.000000000000000
15.587758064270020 -7.000390529632568 -0.198503911495209 0.003921568859369
15.349943161010742 -6.012848854064941 -0.095730356872082 0.000000000000000
16.634204864501953 -6.583295345306396 -0.519127964973450 0.000000000000000
18.491250991821289 -6.297648906707764 -0.000321633910062 0.003921568859369
16.032842636108398 -7.266464710235596 -0.204468443989754 0.003921568859369
17.586475372314453 -6.961661815643311 0.328799784183502 0.003921568859369
17.130939483642578 -6.780608177185059 1.498782992362976 0.000000000000000
14.145370483398438 -5.594212532043457 2.762046575546265 0.000000000000000
15.689925193786621 -7.179624080657959 0.199948936700821 0.003921568859369
16.906358718872070 -5.824775695800781 4.774398326873779 0.003921568859369
15.041337966918945 -6.013875484466553 2.942121744155884 0.003921568859369
18.634494781494141 -6.495375633239746 -0.000320092833135 0.003921568859369
15.875208854675293 -7.331732749938965 -0.203112602233887 0.003921568859369
17.870782852172852 -6.228196620941162 0.438620597124100 0.003921568859369
14.568961143493652 -6.725905418395996 0.185902222990990 0.000000000000000
16.210165023803711 -5.647218704223633 2.099769830703735 0.003921568859369
16.929687500000000 -5.898832321166992 4.786823272705078 0.003921568859369
14.936383247375488 -6.032089710235596 2.925622701644897 0.003921568859369
17.827411651611328 -6.279209136962891 0.438064664602280 0.000000000000000
15.315156936645508 -7.133560657501221 -0.980679690837860 0.003921568859369
16.356046676635742 -5.758953094482422 2.121218204498291 0.003921568859369
16.620748519897461 -7.744325637817383 -0.638481438159943 0.003921568859369
13.973125457763672 -5.695110321044922 2.739811658859253 0.000000000000000
15.070943832397461 -5.366629600524902 -0.000262152112555 0.000000000000000
15.335847854614258 -7.211574077606201 -0.983701467514038 0.003921568859369
16.711536407470703 -7.861288070678711 -0.643087387084961 0.003921568859369
14.512465476989746 -5.166734695434570 4.110828399658203 0.000000000000000
16.621053695678711 -6.850482463836670 3.266403675079346 0.003921568859369
15.389567375183105 -7.302429199218750 0.197398334741592 0.003921568859369
14.914134025573730 -5.369044303894043 0.919268548488617 0.003921568859369
16.228679656982422 -6.754374027252197 0.713425099849701 0.003921568859369
15.363207817077637 -7.289896965026855 -0.591976284980774 0.003921568859369
14.421671867370605 -5.190851688385010 4.090125560760498 0.000000000000000
14.679516792297363 -5.284245967864990 -0.361856997013092 0.000000000000000
16.025930404663086 -5.831041812896729 -0.000273566372925 0.003921568859369
16.814748764038086 -5.207042217254639 0.101632386445999 0.000000000000000
17.776800155639648 -6.470726966857910 1.097830057144165 0.003921568859369
15.512189865112305 -6.515167713165283 1.368306994438171 0.000000000000000
16.284240722656250 -5.925262928009033 4.626371860504150 0.003921568859369
14.725765228271484 -5.356007099151611 -0.363438189029694 0.000000000000000
18.072973251342773 -6.650318145751953 -0.000302509055473 0.003921568859369
16.124044418334961 -7.787044048309326 -0.207996323704720 0.003921568859369
16.842254638671875 -5.279885768890381 0.101912543177605 0.000000000000000
15.919402122497559 -6.752273559570312 -0.100398480892181 0.000000000000000
14.508163452148438 -7.003408908843994 0.186655774712563 0.003921568859369
15.251272201538086 -6.467678070068359 0.287865757942200 0.003921568859369
16.356876373291016 -6.016467571258545 1.011109590530396 0.000000000000000
16.612957000732422 -6.111008167266846 2.165581464767456 0.003921568859369
16.736429214477539 -7.100219726562500 1.478947639465332 0.000000000000000
15.324020385742188 -7.399086475372314 -0.592391312122345 0.003921568859369
16.756376266479492 -6.163888454437256 4.767164230346680 0.003921568859369
15.347652435302734 -6.508632183074951 3.028223991394043 0.003921568859369
15.174717903137207 -7.388652324676514 -0.196016356348991 0.003921568859369
15.056158065795898 -7.330656051635742 0.194054529070854 0.003921568859369
17.073116302490234 -5.414582729339600 0.519131004810333 0.003921568859369
15.082393646240234 -5.602381229400635 1.967689871788025 0.003921568859369
15.310173988342285 -7.454912662506104 -0.592808425426483 0.003921568859369
18.836420059204102 -8.068246841430664 3.724847555160522 0.003921568859369
15.143945693969727 -7.442209720611572 -0.195967659354210 0.003921568859369
16.095682144165039 -6.959966659545898 -0.101815603673458 0.003921568859369
16.851469039916992 -5.411851882934570 0.512969136238098 0.003921568859369
15.077805519104004 -5.663472175598145 0.934155583381653 0.000000000000000
15.132333755493164 -5.684010028839111 1.976952791213989 0.003921568859369
15.164450645446777 -7.452345371246338 -0.588198244571686 0.003921568859369
16.840076446533203 -5.472891330718994 0.513203620910645 0.003921568859369
17.277261734008789 -6.562089443206787 -0.858319342136383 0.000000000000000
16.332889556884766 -6.201911926269531 2.137316942214966 0.003921568859369
15.391851425170898 -7.698101997375488 -0.199878603219986 0.003921568859369
15.319755554199219 -5.035821914672852 0.093085989356041 0.000000000000000
15.148818016052246 -7.576007843017578 0.196293577551842 0.003921568859369
17.239337921142578 -6.616382122039795 -0.857572615146637 0.000000000000000
16.919990539550781 -7.458195209503174 -0.966166496276855 0.003921568859369
15.582055091857910 -6.866029262542725 1.384912490844727 0.000000000000000
16.448755264282227 -6.311587810516357 4.704023361206055 0.003921568859369
16.327898025512695 -6.265201568603516 -0.405792951583862 0.000000000000000
16.161443710327148 -7.188004970550537 -0.513166844844818 0.000000000000000
15.086673736572266 -7.608589172363281 -0.196195080876350 0.003921568859369
17.777830123901367 -6.893323421478271 0.441896378993988 0.000000000000000
15.161608695983887 -7.646542549133301 0.196760460734367 0.003921568859369
15.019216537475586 -6.677739143371582 0.285572767257690 0.003921568859369
16.117008209228516 -7.168169498443604 -0.921354949474335 0.003921568859369
15.521596908569336 -6.902113914489746 1.381334543228149 0.000000000000000
16.325849533081055 -6.327933311462402 4.674003601074219 0.003921568859369
16.319780349731445 -7.323471069335938 -0.518985390663147 0.003921568859369
15.140954971313477 -5.089474678039551 0.092184700071812 0.003921568859369
15.396491050720215 -6.907340049743652 -0.097941078245640 0.000000000000000
15.100549697875977 -7.678352355957031 0.196297124028206 0.003921568859369
15.611296653747559 -7.004096508026123 1.391424059867859 0.000000000000000
16.608926773071289 -8.448945045471191 -0.648793697357178 0.003921568859369
16.276006698608398 -6.370496749877930 4.665724277496338 0.003921568859369
17.926048278808594 -7.019330024719238 -0.446756005287170 0.000000000000000
15.059421539306641 -7.723454952239990 -0.196517452597618 0.003921568859369
15.490257263183594 -5.267478466033936 0.094435758888721 0.003921568859369
16.104202270507812 -7.293775081634521 -0.923444926738739 0.003921568859369
17.127872467041016 -6.843445777893066 -0.856447637081146 0.000000000000000
16.100423812866211 -7.359702110290527 -0.924699187278748 0.003921568859369
15.505752563476562 -7.152009963989258 -0.495348483324051 0.003921568859369
14.932010650634766 -5.192924022674561 0.091239251196384 0.000000000000000
15.986449241638184 -8.342237472534180 0.209004551172256 0.003921568859369
15.295399665832520 -7.054557800292969 -0.879678428173065 0.003921568859369
15.184696197509766 -7.922044277191162 -0.596144020557404 0.003921568859369
16.376701354980469 -6.608060836791992 4.714385986328125 0.003921568859369
15.126240730285645 -6.976036071777344 3.025370836257935 0.003921568859369
6.958921909332275 -2.433988332748413 -0.127682149410248 0.000000000000000
14.588747024536133 -7.674396991729736 -0.191385209560394 0.003921568859369
14.274042129516602 -7.508032798767090 0.186860322952271 0.003921568859369
15.706173896789551 -7.311239242553711 0.703030645847321 0.003921568859369
16.826547622680664 -7.835089206695557 1.509882450103760 0.000000000000000
16.185464859008789 -7.535259246826172 3.243472337722778 0.003921568859369
15.553073883056641 -7.305668354034424 -0.498487472534180 0.000000000000000
14.470099449157715 -7.676112651824951 -0.190171614289284 0.003921568859369
15.435988426208496 -6.352217197418213 0.968117356300354 0.000000000000000
15.248265266418457 -6.274489402770996 4.400715827941895 0.003921568859369
15.504231452941895 -7.282488346099854 3.111466884613037 0.003921568859369
17.996858596801758 -6.475298881530762 -0.333018034696579 0.003921568859369
15.202580451965332 -7.204978466033936 -0.488008975982666 0.000000000000000
14.640501976013184 -7.832386016845703 -0.192779362201691 0.003921568859369
16.473886489868164 -7.810239315032959 0.739986836910248 0.003921568859369
15.253145217895508 -7.229068279266357 -0.881557106971741 0.003921568859369
16.323251724243164 -5.870779991149902 -0.704353272914886 0.003921568859369
15.468719482421875 -6.428655624389648 4.471112728118896 0.003921568859369
16.093379974365234 -7.628976345062256 3.235584497451782 0.003921568859369
18.085384368896484 -6.571331501007080 -0.335042208433151 0.003921568859369
15.518697738647461 -7.415119171142578 -0.498949348926544 0.000000000000000
14.622857093811035 -7.881932735443115 -0.192870780825615 0.003921568859369
16.520923614501953 -6.928865909576416 0.415128707885742 0.000000000000000
14.304224967956543 -6.832156658172607 0.275401860475540 0.000000000000000
16.481697082519531 -7.877301216125488 0.741453886032104 0.003921568859369
16.321510314941406 -7.800476074218750 -0.944999635219574 0.003921568859369
16.819120407104492 -6.109448909759521 -0.726666867733002 0.003921568859369
15.640070915222168 -7.473240375518799 3.148777246475220 0.003921568859369
14.515271186828613 -7.895552635192871 -0.191843420267105 0.003921568859369
16.577205657958984 -8.001276016235352 0.747153699398041 0.003921568859369
16.310129165649414 -7.871790885925293 1.473119139671326 0.000000000000000
15.431599617004395 -7.512359142303467 -0.497897535562515 0.000000000000000
14.368521690368652 -7.880290508270264 -0.190257057547569 0.003921568859369
15.168516159057617 -5.633077621459961 0.093406744301319 0.003921568859369
15.035408973693848 -7.318590164184570 -0.097038425505161 0.000000000000000
16.724502563476562 -6.213598728179932 0.517064929008484 0.003921568859369
16.786136627197266 -8.174734115600586 0.757899761199951 0.003921568859369
15.262114524841309 -6.530054092407227 4.430744647979736 0.003921568859369
18.001993179321289 -6.761661052703857 -0.334825932979584 0.003921568859369
15.659860610961914 -7.691540241241455 -0.506160199642181 0.000000000000000
15.907229423522949 -8.800518035888672 0.210741028189659 0.003921568859369
15.590090751647949 -5.968503475189209 -0.290458649396896 0.003921568859369
17.448047637939453 -6.683163642883301 0.541495084762573 0.003921568859369
16.311510086059570 -8.145459175109863 -0.952317953109741 0.003921568859369
16.098083496093750 -6.163923263549805 -0.699781417846680 0.003921568859369
15.798693656921387 -6.111831665039062 0.097797133028507 0.003921568859369
15.907769203186035 -7.062909603118896 1.009518623352051 0.003921568859369
16.119024276733398 -8.119130134582520 -0.942684113979340 0.003921568859369
14.949506759643555 -7.527252674102783 1.360860228538513 0.000000000000000
16.087644577026367 -6.224167823791504 -0.700268149375916 0.003921568859369
5.906698226928711 -3.319006443023682 -0.234477326273918 0.000000000000000
16.085821151733398 -7.142198562622070 4.697841167449951 0.003921568859369
15.414904594421387 -8.800227165222168 -0.206091120839119 0.003921568859369
14.608858108520508 -7.418780803680420 -0.095049694180489 0.003921568859369
15.130543708801270 -7.685036659240723 0.294880151748657 0.003921568859369
16.015869140625000 -8.136957168579102 -0.938284993171692 0.003921568859369
15.146847724914551 -7.693317413330078 1.381363511085510 0.000000000000000
16.018512725830078 -7.179014682769775 4.685420036315918 0.003921568859369
7.273863792419434 -2.856458663940430 -0.135358557105064 0.000000000000000
14.664666175842285 -7.511583328247070 -0.095583379268646 0.000000000000000
14.378231048583984 -7.364109039306641 0.280649095773697 0.003921568859369
16.238685607910156 -7.346325397491455 -0.827378034591675 0.000000000000000
16.111669540405273 -8.256550788879395 -0.945611298084259 0.003921568859369
16.576553344726562 -8.495714187622070 3.384111881256104 0.003921568859369
14.437401771545410 -8.373302459716797 0.193397179245949 0.003921568859369
15.977969169616699 -8.258016586303711 0.729914724826813 0.003921568859369
16.274187088012695 -8.411888122558594 -0.956915736198425 0.003921568859369
18.139898300170898 -7.240509986877441 -0.793267548084259 0.003921568859369
16.575313568115234 -8.641493797302246 -0.542347133159637 0.000000000000000
14.455953598022461 -7.531620502471924 -0.094554893672466 0.000000000000000
16.198720932006836 -8.444298744201660 -0.954191684722900 0.003921568859369
15.619533538818359 -7.196207523345947 2.103235721588135 0.003921568859369
14.846484184265137 -7.736075878143311 1.361193537712097 0.000000000000000
16.016090393066406 -7.379682064056396 4.707166671752930 0.003921568859369
16.546564102172852 -8.696170806884766 -0.542345046997070 0.000000000000000
14.469808578491211 -7.599815845489502 -0.094809219241142 0.000000000000000
15.199989318847656 -7.985268592834473 0.298376619815826 0.003921568859369
16.216550827026367 -8.521968841552734 -0.956911563873291 0.003921568859369
15.563207626342773 -7.232604026794434 2.098850727081299 0.003921568859369
14.908889770507812 -7.831553459167480 1.369330763816833 0.000000000000000
15.219344139099121 -9.039388656616211 -0.205521509051323 0.003921568859369
14.778613090515137 -7.828594684600830 -0.097019411623478 0.003921568859369
16.176128387451172 -8.572637557983398 -0.956281363964081 0.003921568859369
14.976358413696289 -7.021961212158203 4.414199829101562 0.003921568859369
15.747398376464844 -7.385454654693604 -0.403424501419067 0.000000000000000
16.534769058227539 -8.837443351745605 -0.543970227241516 0.003921568859369
15.274210929870605 -7.227423667907715 -0.000220300542424 0.003921568859369
14.768814086914062 -7.889339447021484 -0.097133867442608 0.000000000000000
14.555035591125488 -6.885459423065186 0.372929245233536 0.000000000000000
16.403409957885742 -6.807312965393066 0.514644026756287 0.003921568859369
15.792165756225586 -8.438713073730469 0.726667284965515 0.003921568859369
14.853850364685059 -7.934936523437500 1.369334816932678 0.000000000000000
15.793750762939453 -7.474467277526855 -0.405284434556961 0.000000000000000
16.505783081054688 -8.899622917175293 -0.544084250926971 0.000000000000000
15.569859504699707 -8.392710685729980 -0.102626949548721 0.000000000000000
16.024604797363281 -6.718131542205811 0.503480136394501 0.003921568859369
15.100046157836914 -8.138244628906250 0.298103690147400 0.003921568859369
15.736530303955078 -8.482947349548340 0.725529909133911 0.003921568859369
16.441505432128906 -7.856161117553711 -0.845982313156128 0.000000000000000
16.058168411254883 -8.657210350036621 -0.952926695346832 0.003921568859369
15.589594841003418 -7.447247028350830 -0.400720596313477 0.000000000000000
16.542856216430664 -8.990466117858887 -0.546293735504150 0.000000000000000
16.612409591674805 -7.030385017395020 0.104193873703480 0.000000000000000
15.043222427368164 -7.246126174926758 0.968381881713867 0.000000000000000
16.048524856567383 -7.732823848724365 -0.826991319656372 0.000000000000000
14.860270500183105 -7.157437801361084 4.401782512664795 0.003921568859369
15.495188713073730 -8.418402671813965 3.203332662582397 0.003921568859369
15.561585426330566 -8.522923469543457 -0.102925829589367 0.000000000000000
14.094110488891602 -6.845314979553223 0.362796455621719 0.003921568859369
14.682790756225586 -8.039156913757324 1.360879540443420 0.000000000000000
15.510736465454102 -8.494805335998535 3.211943864822388 0.003921568859369
16.476451873779297 -8.008804321289062 -0.424921691417694 0.000000000000000
14.343017578125000 -7.028669357299805 -0.000202986586373 0.000000000000000
15.444304466247559 -8.528399467468262 -0.102341651916504 0.000000000000000
14.855717658996582 -7.281261920928955 0.383167594671249 0.000000000000000
14.985173225402832 -7.345022678375244 0.967687964439392 0.000000000000000
16.234359741210938 -7.960564613342285 -0.839274406433105 0.000000000000000
15.793705940246582 -8.722342491149902 -0.942242205142975 0.003921568859369
15.756309509277344 -7.724822044372559 4.683370113372803 0.003921568859369
16.380237579345703 -8.032422065734863 -0.423150748014450 0.003921568859369
15.775348663330078 -8.783922195434570 0.313810735940933 0.003921568859369
15.277694702148438 -7.555203437805176 0.988383769989014 0.000000000000000
16.152801513671875 -7.990239143371582 -0.836479723453522 0.000000000000000
5.455349445343018 -3.009301185607910 0.503068327903748 0.000000000000000
9.489471435546875 -5.266560077667236 1.966470122337341 0.000000000000000
16.481014251708984 -8.153360366821289 -0.426499992609024 0.003921568859369
15.445025444030762 -8.669670104980469 0.307812213897705 0.003921568859369
16.850433349609375 -8.410065650939941 1.092552542686462 0.000000000000000
15.798280715942383 -7.951309204101562 1.025822639465332 0.000000000000000
16.033107757568359 -9.074988365173340 0.747682452201843 0.003921568859369
15.620791435241699 -7.861592292785645 -0.405549734830856 0.000000000000000
17.312734603881836 -7.756500244140625 -0.330176860094070 0.003921568859369
15.332080841064453 -8.746909141540527 0.306769788265228 0.003921568859369
8.819319725036621 -5.012509346008301 1.837334275245667 0.000000000000000
15.457892417907715 -7.846746921539307 -0.402010172605515 0.000000000000000
17.353366851806641 -7.851060390472412 -0.331501811742783 0.003921568859369
8.064650535583496 -5.155337810516357 0.110585160553455 0.000000000000000
15.299917221069336 -8.802763938903809 0.306771993637085 0.003921568859369
16.052446365356445 -8.224020957946777 -0.837215840816498 0.000000000000000
16.409521102905273 -8.407726287841797 2.255340099334717 0.003921568859369
10.409860610961914 -5.319064140319824 3.113960027694702 0.000000000000000
15.360485076904297 -8.905549049377441 0.308588206768036 0.003921568859369
16.085683822631836 -9.328106880187988 0.754689276218414 0.003921568859369
16.300498962402344 -8.419776916503906 2.244130849838257 0.003921568859369
10.351011276245117 -5.331943035125732 3.101538181304932 0.000000000000000
15.470170974731445 -7.988936424255371 -0.403774827718735 0.000000000000000
14.688131332397461 -6.760200023651123 0.093353584408760 0.000000000000000
9.243953704833984 -5.384401798248291 -0.061913345009089 0.000000000000000
14.276643753051758 -6.630084991455078 0.090872764587402 0.000000000000000
15.807900428771973 -8.304151535034180 -0.828832268714905 0.000000000000000
8.782338142395020 -5.154135227203369 1.844513654708862 0.000000000000000
15.458332061767578 -7.247360706329346 0.098601289093494 0.000000000000000
6.175885677337646 -3.639758586883545 0.123890824615955 0.000000000000000
15.757655143737793 -8.347747802734375 -0.827713191509247 0.000000000000000
16.046724319458008 -8.501521110534668 2.221227884292603 0.003921568859369
16.001903533935547 -8.549207687377930 0.420393109321594 0.000000000000000
14.773362159729004 -7.953767776489258 -0.000190023100004 0.003921568859369
14.674851417541504 -8.848527908325195 -0.099362485110760 0.000000000000000
16.365970611572266 -8.815909385681152 0.430719763040543 0.000000000000000
17.027297973632812 -8.129856109619141 -0.766025722026825 0.003921568859369
15.578852653503418 -7.498284816741943 -0.300751715898514 0.003921568859369
14.613476753234863 -7.929643154144287 -0.000186755380128 0.003921568859369
15.988577842712402 -7.696490287780762 0.514094471931458 0.003921568859369
15.191839218139648 -8.245184898376465 1.002356767654419 0.003921568859369
16.212913513183594 -8.802281379699707 2.256329536437988 0.003921568859369
14.416239738464355 -8.756749153137207 3.062741994857788 0.003921568859369
15.343196868896484 -8.327828407287598 -0.404786854982376 0.000000000000000
15.570552825927734 -7.561113357543945 -0.301098942756653 0.003921568859369
15.752388000488281 -7.649859428405762 0.101138196885586 0.003921568859369
8.520289421081543 -5.782755374908447 0.119017943739891 0.000000000000000
14.206311225891113 -7.771512985229492 1.979465007781982 0.003921568859369
14.963853836059570 -7.264971733093262 -0.674976229667664 0.003921568859369
15.789649963378906 -9.671152114868164 3.363354206085205 0.003921568859369
15.268485069274902 -8.355997085571289 -0.403574585914612 0.000000000000000
14.641707420349121 -8.077480316162109 -0.000183658936294 0.003921568859369
13.900665283203125 -6.805782318115234 0.448145121335983 0.000000000000000
15.899060249328613 -9.814928054809570 0.758288264274597 0.003921568859369
15.715668678283691 -9.701030731201172 3.354747056961060 0.003921568859369
14.389995574951172 -8.003293991088867 -0.000179440801730 0.003921568859369
17.600357055664062 -10.955476760864258 -0.120279312133789 0.003921568859369
14.351886749267578 -7.152236938476562 0.092581108212471 0.000000000000000
15.735175132751465 -8.827585220336914 -0.837379097938538 0.000000000000000
15.431369781494141 -8.656150817871094 2.163724184036255 0.003921568859369
15.245747566223145 -7.666584968566895 -0.296829938888550 0.003921568859369
15.158324241638184 -7.688588142395020 -0.295640528202057 0.003921568859369
9.606571197509766 -6.096407413482666 0.197309628129005 0.000000000000000
16.479310989379883 -8.434474945068359 -0.322111338376999 0.003921568859369
14.240632057189941 -7.282999515533447 0.092354685068130 0.000000000000000
7.640795707702637 -4.875605106353760 0.366432934999466 0.000000000000000
4.690078735351562 -2.663133859634399 0.653626799583435 0.000000000000000
16.432662963867188 -8.410497665405273 -0.749395549297333 0.003921568859369
14.873521804809570 -7.673954963684082 -0.291096329689026 0.003921568859369
14.214622497558594 -8.232214927673340 2.008237838745117 0.003921568859369
16.133579254150391 -8.327652931213379 -0.737015366554260 0.003921568859369
16.628181457519531 -8.657629966735840 0.543310403823853 0.003921568859369
15.297286033630371 -8.934143066406250 1.027487754821777 0.000000000000000
13.934719085693359 -8.199254035949707 1.976557612419128 0.003921568859369
15.703897476196289 -8.243680000305176 -0.719909965991974 0.003921568859369
15.512720108032227 -8.209688186645508 -0.305269718170166 0.003921568859369
15.945616722106934 -8.440025329589844 0.104222223162651 0.000000000000000
14.426402091979980 -7.695967197418213 0.473521828651428 0.003921568859369
10.682869911193848 -7.099963188171387 1.041352510452271 0.000000000000000
16.068698883056641 -8.577285766601562 -0.739287137985229 0.003921568859369
15.080331802368164 -9.016811370849609 4.688595771789551 0.003921568859369
10.231746673583984 -6.849196434020996 0.999373078346252 0.000000000000000
16.123022079467773 -8.678680419921875 -0.743193805217743 0.003921568859369
14.772779464721680 -8.011099815368652 0.097056202590466 0.000000000000000
15.704036712646484 -8.518998146057129 0.517613172531128 0.003921568859369
15.492675781250000 -8.473673820495605 -0.307147294282913 0.003921568859369
14.439801216125488 -7.894634246826172 0.095038756728172 0.000000000000000
15.435019493103027 -8.511891365051270 -0.306586444377899 0.003921568859369
16.000843048095703 -8.825609207153320 0.529482722282410 0.003921568859369
5.431801795959473 -2.989544868469238 -0.107038840651512 0.000000000000000
7.143557548522949 -4.907745838165283 1.567600965499878 0.000000000000000
9.451976776123047 -5.900989532470703 -0.000113551475806 0.003921568859369
15.774103164672852 -10.989367485046387 3.492533445358276 0.003921568859369
12.143047332763672 -7.655129432678223 -0.000133975438075 0.000000000000000
5.018991470336914 -3.856573104858398 0.072861500084400 0.000000000000000
10.099895477294922 -6.358056545257568 0.690806567668915 0.000000000000000
15.981016159057617 -9.033604621887207 -0.745135188102722 0.003921568859369
6.524910926818848 -4.578493118286133 0.137867495417595 0.000000000000000
15.876559257507324 -9.047320365905762 -0.741712927818298 0.003921568859369
15.315290451049805 -8.796512603759766 -0.307204544544220 0.003921568859369
12.025390625000000 -7.697891712188721 0.827304601669312 0.000000000000000
15.319053649902344 -8.869749069213867 -0.307900816202164 0.003921568859369
4.333846569061279 -2.474047422409058 -0.315259844064713 0.000000000000000
12.209412574768066 -7.876575946807861 0.841955721378326 0.000000000000000
8.399489402770996 -5.998898506164551 0.836992263793945 0.000000000000000
15.032962799072266 -8.770907402038574 -0.302660882472992 0.003921568859369
4.110820770263672 -2.653347015380859 0.591730117797852 0.000000000000000
8.315999984741211 -6.023752689361572 0.832438230514526 0.000000000000000
7.266967296600342 -4.734995365142822 2.304434061050415 0.000000000000000
9.469310760498047 -6.234783649444580 0.655935049057007 0.000000000000000
13.752662658691406 -10.151204109191895 1.389595985412598 0.000000000000000
15.691579818725586 -9.452763557434082 0.530786216259003 0.003921568859369
6.209600925445557 -3.708518981933594 -0.291718363761902 0.000000000000000
5.083331108093262 -3.790055036544800 0.511883437633514 0.000000000000000
8.878282546997070 -6.154525756835938 1.317557930946350 0.000000000000000
1.993802309036255 -1.353835344314575 -0.251941680908203 0.000000000000000
4.853960037231445 -3.774355888366699 -0.176927626132965 0.000000000000000
6.173864841461182 -4.820379257202148 0.316151857376099 0.000000000000000
14.262220382690430 -11.230395317077637 3.296705722808838 0.003921568859369
8.301572799682617 -7.237588882446289 -0.637488126754761 0.000000000000000
2.497189998626709 -1.574032068252563 -0.050249636173248 0.000000000000000
8.084304809570312 -5.806542396545410 -0.000083373277448 0.003921568859369
4.009799003601074 -2.846512556076050 0.282030016183853 0.000000000000000
8.455168724060059 -6.075911045074463 1.269305825233459 0.000000000000000
4.878297805786133 -3.874554872512817 0.107451640069485 0.000000000000000
8.466872215270996 -6.174203395843506 1.277595043182373 0.000000000000000
7.574019432067871 -6.102025032043457 0.788195729255676 0.000000000000000
3.129072666168213 -2.033231496810913 0.021188305690885 0.000000000000000
4.461873054504395 -3.589583158493042 -0.296483278274536 0.000000000000000
6.992643356323242 -4.650881290435791 -0.145360425114632 0.000000000000000
10.884583473205566 -8.991550445556641 2.561317682266235 0.000000000000000
10.011536598205566 -6.791674137115479 0.349796116352081 0.000000000000000
13.775704383850098 -12.759647369384766 0.217785179615021 0.003921568859369
15.526939392089844 -11.963104248046875 2.397795438766479 0.003921568859369
6.940345764160156 -5.907994747161865 1.648705244064331 0.000000000000000
3.590977430343628 -3.059073686599731 -0.135258138179779 0.000000000000000
8.746662139892578 -6.280367851257324 0.311064749956131 0.000000000000000
5.054877758026123 -4.400013446807861 -0.347557127475739 0.000000000000000
6.776266098022461 -4.887521266937256 -0.144581526517868 0.000000000000000
3.883579015731812 -3.066442966461182 0.113378822803497 0.000000000000000
10.268415451049805 -9.091856002807617 0.555846631526947 0.000000000000000
5.064779281616211 -4.441415309906006 0.544120132923126 0.000000000000000
14.964867591857910 -13.288886070251465 3.636107444763184 0.003921568859369
6.930734157562256 -5.037239074707031 0.049279287457466 0.000000000000000
7.699045181274414 -6.886921882629395 -0.059676725417376 0.000000000000000
5.343145847320557 -4.305718421936035 0.833530604839325 0.000000000000000
15.657303810119629 -14.193852424621582 -0.122473686933517 0.003921568859369
11.544255256652832 -10.667963981628418 0.273122608661652 0.000000000000000
6.211602687835693 -5.733691215515137 1.528182268142700 0.000000000000000
10.019271850585938 -7.744247436523438 -0.219771876931190 0.000000000000000
3.952578067779541 -3.692794322967529 0.435749918222427 0.000000000000000
7.491843223571777 -6.464500427246094 2.631619691848755 0.000000000000000
5.028909206390381 -4.824194908142090 -0.361571997404099 0.000000000000000
5.708596706390381 -5.011734008789062 0.438088864088058 0.000000000000000
4.266279220581055 -4.106493949890137 1.066850900650024 0.000000000000000
5.418524265289307 -5.276783466339111 -0.392761975526810 0.000000000000000
4.641086101531982 -4.196592330932617 -0.143901586532593 0.000000000000000
8.532225608825684 -7.851748466491699 0.268042147159576 0.000000000000000
4.643229961395264 -4.229555130004883 -0.144459098577499 0.000000000000000
11.092664718627930 -10.449883460998535 1.862126350402832 0.000000000000000
5.002192020416260 -5.708150863647461 0.087575502693653 0.000000000000000
13.003888130187988 -13.622022628784180 3.420921087265015 0.003921568859369
4.888813018798828 -5.615650653839111 -0.429775297641754 0.000000000000000
11.611164093017578 -11.096780776977539 4.283939838409424 0.003921568859369
7.294644832611084 -7.647351264953613 1.914206981658936 0.000000000000000
4.841141223907471 -5.599213600158691 -0.684822857379913 0.000000000000000
12.639874458312988 -13.424177169799805 3.349177598953247 0.003921568859369
5.044209957122803 -4.832184791564941 -0.322031050920486 0.000000000000000
10.866600990295410 -10.598641395568848 4.047901630401611 0.000000000000000
1.813842535018921 -1.871050119400024 -0.132967144250870 0.000000000000000
2.348898410797119 -2.485712289810181 -0.273416012525558 0.000000000000000
4.912133216857910 -5.365384101867676 0.588083446025848 0.000000000000000
8.659499168395996 -9.612401962280273 2.346144676208496 0.000000000000000
6.009074687957764 -6.058980941772461 -0.000027696056350 0.003921568859369
2.866114616394043 -2.587197065353394 0.021950980648398 0.000000000000000
10.647607803344727 -10.895421981811523 4.062408924102783 0.000000000000000
7.379383563995361 -7.517752170562744 -0.243448689579964 0.000000000000000
4.927998542785645 -5.536705970764160 1.338794231414795 0.000000000000000
4.987267971038818 -5.644461154937744 0.609243571758270 0.000000000000000
4.896969318389893 -5.579324722290039 0.128366798162460 0.000000000000000
4.849465370178223 -5.523999214172363 0.296661317348480 0.000000000000000
2.995305061340332 -3.388774156570435 -0.129651099443436 0.000000000000000
4.844797134399414 -5.593247413635254 -0.598528623580933 0.000000000000000
5.395213127136230 -5.701131343841553 2.083988904953003 0.000000000000000
7.280244350433350 -7.787329673767090 0.246389403939247 0.000000000000000
4.580555915832520 -4.857050418853760 0.384623646736145 0.000000000000000
4.469442844390869 -4.765761852264404 -0.000024174958526 0.000000000000000
4.935549736022949 -5.387400627136230 0.888164520263672 0.000000000000000
8.663835525512695 -11.750685691833496 -0.846448957920074 0.000000000000000
10.108431816101074 -11.395554542541504 4.062435150146484 0.000000000000000
2.075720548629761 -2.760534763336182 -0.118397176265717 0.000000000000000
2.829230070114136 -3.142760276794434 0.242064446210861 0.000000000000000
4.873387336730957 -5.545607089996338 0.425796478986740 0.000000000000000
4.924331665039062 -5.644677162170410 -0.000012412980141 0.000000000000000
2.555985689163208 -2.599527120590210 0.103877469897270 0.000000000000000
4.878904819488525 -5.591434001922607 -0.171043291687965 0.000000000000000
1.620688796043396 -2.195228815078735 -0.031034041196108 0.000000000000000
3.063674211502075 -3.875540018081665 0.888221025466919 0.000000000000000
4.265650749206543 -4.504162788391113 -0.106974735856056 0.000000000000000
1.639661908149719 -2.240403413772583 -0.031592100858688 0.000000000000000
3.880527734756470 -5.567966938018799 0.078285269439220 0.000000000000000
4.234751224517822 -4.500523090362549 -0.391190081834793 0.000000000000000
3.364307880401611 -3.576353549957275 -0.309839010238647 0.000000000000000
1.990711331367493 -2.540124416351318 0.055127389729023 0.000000000000000
5.468151092529297 -7.296940326690674 -0.052592437714338 0.000000000000000
7.574698448181152 -10.167067527770996 2.299549341201782 0.000000000000000
7.609206199645996 -10.361323356628418 0.521097898483276 0.000000000000000
6.322841167449951 -8.710782051086426 0.186773762106895 0.000000000000000
2.831783533096313 -3.162663698196411 -0.072837896645069 0.000000000000000
4.869362354278564 -5.532747268676758 0.212346583604813 0.000000000000000
2.310951948165894 -3.129354000091553 0.155812814831734 0.000000000000000
4.907839298248291 -5.610779285430908 -0.128812298178673 0.000000000000000
4.722606658935547 -6.705605030059814 -0.047266278415918 0.000000000000000
4.790997982025146 -6.805191040039062 -0.432693362236023 0.000000000000000
8.626152992248535 -12.388150215148926 1.227048993110657 0.000000000000000
7.346271038055420 -9.495134353637695 3.197996616363525 0.000000000000000
6.413062572479248 -9.235401153564453 0.195162206888199 0.000000000000000
4.541902542114258 -5.854490280151367 0.427439779043198 0.000000000000000
3.614763498306274 -5.131124496459961 0.253041833639145 0.000000000000000
5.490606784820557 -8.840519905090332 -0.602496445178986 0.000000000000000
4.222268104553223 -6.113454341888428 -0.214322879910469 0.000000000000000
5.358657836914062 -7.805477619171143 -0.492762744426727 0.000000000000000
9.374307632446289 -12.609488487243652 0.364081889390945 0.000000000000000
10.648172378540039 -15.920167922973633 0.333316892385483 0.003921568859369
4.762221813201904 -6.327723503112793 0.457213938236237 0.000000000000000
5.078772544860840 -7.555696010589600 -0.263061851263046 0.000000000000000
3.984144449234009 -5.934073448181152 -0.041154302656651 0.000000000000000
5.718737125396729 -8.661262512207031 -0.059909507632256 0.000000000000000
14.573721885681152 -20.122253417968750 1.443140268325806 0.003921568859369
2.224874973297119 -3.304566144943237 -0.205375224351883 0.000000000000000
5.246831893920898 -7.295726299285889 -0.207485362887383 0.000000000000000
3.724420070648193 -5.744574546813965 0.276339381933212 0.000000000000000
6.246786594390869 -9.764575958251953 -0.604104340076447 0.000000000000000
3.551722764968872 -6.113821506500244 -0.244822710752487 0.000000000000000
4.428237915039062 -6.917033195495605 1.485923528671265 0.000000000000000
3.410524129867554 -5.328678131103516 -0.328236043453217 0.000000000000000
7.001349449157715 -12.565818786621094 -0.500202417373657 0.000000000000000
3.584456443786621 -5.694378852844238 1.215423941612244 0.000000000000000
8.200860023498535 -13.387118339538574 0.273064672946930 0.000000000000000
4.045150279998779 -5.837615013122559 0.863822996616364 0.000000000000000
6.272068977355957 -11.513982772827148 -0.151878997683525 0.000000000000000
3.951324462890625 -6.397645950317383 -0.390815109014511 0.000000000000000
4.186988353729248 -6.143101215362549 0.000017507394659 0.000000000000000
9.201766014099121 -13.717609405517578 0.958224594593048 0.000000000000000
11.748376846313477 -19.579088211059570 4.152215003967285 0.003921568859369
2.318442344665527 -4.184721946716309 0.055050827562809 0.000000000000000
4.965463161468506 -7.371984004974365 -0.616895616054535 0.000000000000000
1.933500409126282 -2.759147644042969 0.192307829856873 0.000000000000000
6.335943698883057 -11.932504653930664 -0.156526058912277 0.000000000000000
6.501017093658447 -10.912617683410645 1.032112956047058 0.000000000000000
7.781783580780029 -13.207439422607422 -0.088621757924557 0.000000000000000
2.018035650253296 -2.927714586257935 -0.375710666179657 0.000000000000000
13.584632873535156 -20.801872253417969 1.443182826042175 0.003921568859369
6.827541351318359 -11.645949363708496 -0.390996247529984 0.000000000000000
6.672624588012695 -11.376814842224121 -0.076205171644688 0.000000000000000
2.704451799392700 -3.614666223526001 0.129265442490578 0.000000000000000
2.915714979171753 -4.344734668731689 0.634209215641022 0.000000000000000
4.240845203399658 -5.766469955444336 -0.288690030574799 0.000000000000000
2.928281068801880 -4.397971630096436 0.640547454357147 0.000000000000000
4.692445278167725 -8.995438575744629 -0.352265864610672 0.000000000000000
5.713622093200684 -8.840229034423828 0.000050624075811 0.003921568859369
4.593336105346680 -7.898148059844971 -0.052695728838444 0.000000000000000
4.409925937652588 -6.097302436828613 -0.303665757179260 0.000000000000000
4.842573642730713 -7.514945983886719 -0.413345396518707 0.000000000000000
4.830978393554688 -8.448309898376465 -0.281418204307556 0.000000000000000
7.243021011352539 -11.425949096679688 -0.941352307796478 0.000000000000000
4.025594234466553 -5.629597663879395 -0.279081463813782 0.000000000000000
8.117214202880859 -11.627796173095703 -0.904294550418854 0.000000000000000
3.947130441665649 -6.189227104187012 0.423741459846497 0.000000000000000
1.674051046371460 -2.272379636764526 -0.048051971942186 0.000000000000000
3.375509500503540 -5.938213348388672 0.118219241499901 0.000000000000000
5.824574947357178 -9.300651550292969 0.635403215885162 0.000000000000000
3.879396200180054 -7.801824569702148 -0.100743770599365 0.000000000000000
5.774371147155762 -9.357522964477539 0.000062668157625 0.003921568859369
3.080952882766724 -6.193016052246094 0.079949758946896 0.000000000000000
12.752382278442383 -20.912578582763672 1.422973513603210 0.003921568859369
1.730053663253784 -2.407331943511963 0.084225408732891 0.000000000000000
6.728543758392334 -9.972605705261230 -0.208745032548904 0.000000000000000
1.734885931015015 -2.432927131652832 0.084924131631851 0.000000000000000
4.029311656951904 -6.573638439178467 0.445377200841904 0.000000000000000
3.121743679046631 -4.590660572052002 0.159534603357315 0.000000000000000
5.210536003112793 -8.693099021911621 0.586565315723419 0.000000000000000
11.194007873535156 -21.425594329833984 -0.139913246035576 0.003921568859369
3.525338172912598 -6.630101680755615 0.130101040005684 0.000000000000000
3.824893236160278 -8.252161979675293 0.105362862348557 0.000000000000000
4.057576179504395 -6.880333900451660 0.973044216632843 0.000000000000000
2.538649559020996 -3.779908418655396 -0.182699248194695 0.000000000000000
5.391126632690430 -10.359038352966309 2.118803262710571 0.000000000000000
4.196732997894287 -8.085453987121582 0.368875503540039 0.000000000000000
5.558311939239502 -10.790425300598145 2.202754974365234 0.000000000000000
11.022911071777344 -22.009653091430664 -0.142474278807640 0.003921568859369
7.655610561370850 -13.616759300231934 0.000128348008730 0.000000000000000
1.346902489662170 -2.485950946807861 0.112830683588982 0.000000000000000
5.412146568298340 -8.544682502746582 -0.409302443265915 0.000000000000000
4.752774238586426 -7.540262699127197 -0.154379159212112 0.000000000000000
4.036816596984863 -7.133071899414062 0.998887658119202 0.000000000000000
5.126413822174072 -9.197106361389160 -0.487572163343430 0.000000000000000
8.155170440673828 -16.660507202148438 1.509995222091675 0.000000000000000
5.823145389556885 -10.562119483947754 0.279343605041504 0.000000000000000
2.963658332824707 -5.299491882324219 0.350021094083786 0.000000000000000
4.645555973052979 -10.885012626647949 -0.411405086517334 0.000000000000000
5.494935512542725 -9.020750045776367 0.061062153428793 0.000000000000000
1.128033399581909 -1.677243113517761 -0.125127226114273 0.003921568859369
1.130283951759338 -1.694468021392822 -0.126150161027908 0.003921568859369
2.233212232589722 -3.998330354690552 0.554756999015808 0.000000000000000
5.364437103271484 -8.942855834960938 -0.180815294384956 0.000000000000000
11.084857940673828 -18.717166900634766 0.126227706670761 0.003921568859369
5.465035915374756 -11.684670448303223 0.523463726043701 0.000000000000000
6.453367233276367 -13.849351882934570 2.776076316833496 0.000000000000000
2.398405075073242 -5.063123226165771 -0.290746927261353 0.000000000000000
2.153097391128540 -3.981642007827759 0.548421323299408 0.000000000000000
3.001391649246216 -6.466714382171631 -0.041071251034737 0.000000000000000
4.612161159515381 -8.973560333251953 0.584261357784271 0.000000000000000
2.968534946441650 -5.682449817657471 0.779997944831848 0.000000000000000
2.490007162094116 -4.197797298431396 -0.196202337741852 0.000000000000000
4.056257247924805 -7.926133155822754 0.205898791551590 0.000000000000000
3.082737445831299 -6.773947238922119 -0.387226194143295 0.000000000000000
5.167933940887451 -9.106915473937988 0.060560908168554 0.000000000000000
3.797482013702393 -6.629322528839111 -0.485526919364929 0.000000000000000
1.541702985763550 -2.874284744262695 0.186505064368248 0.000000000000000
3.702379941940308 -6.510923862457275 -0.129598483443260 0.000000000000000
5.041934013366699 -10.092838287353516 0.261297941207886 0.000000000000000
6.160986900329590 -10.992656707763672 0.365007519721985 0.000000000000000
4.966578006744385 -8.815453529357910 -0.644368469715118 0.000000000000000
3.567937850952148 -9.268539428710938 -0.345112234354019 0.000000000000000
2.558894395828247 -5.726530551910400 0.507759213447571 0.000000000000000
6.607599735260010 -12.201024055480957 -0.562620759010315 0.000000000000000
4.749544620513916 -9.830985069274902 -0.252631247043610 0.000000000000000
3.117906093597412 -7.330210208892822 0.138226673007011 0.000000000000000
3.607120990753174 -7.465145111083984 0.479595750570297 0.000000000000000
4.678689479827881 -13.087931632995605 -0.161112070083618 0.000000000000000
5.389448165893555 -10.074258804321289 0.330791592597961 0.000000000000000
3.475720882415771 -7.248755931854248 0.464942246675491 0.000000000000000
2.679485797882080 -6.316185474395752 0.277518272399902 0.000000000000000
2.251426935195923 -4.592897891998291 0.621068775653839 0.000000000000000
2.450374364852905 -5.118190288543701 0.327237963676453 0.000000000000000
3.918986558914185 -8.441790580749512 0.000083174010797 0.003921568859369
2.274033308029175 -6.377538681030273 -0.078252345323563 0.000000000000000
4.930316925048828 -9.433734893798828 0.308095276355743 0.000000000000000
