# This PCD file was generated using the MATLAB® pcwrite function
# from Computer Vision Toolbox®.
# .PCD v.7 - Point Cloud Data file format
VERSION .7
FIELDS x y z intensity
SIZE 8 8 8 8
TYPE F F F F
COUNT 1 1 1 1
WIDTH 646
HEIGHT 1
VIEWPOINT 0 0 0 1 0 0 0
POINTS 646
DATA ascii
-9.230721473693848 0.234584614634514 1.061742305755615 0.000000000000000
-17.701484680175781 2.147289991378784 -0.589264988899231 0.003921568859369
-16.788434982299805 2.089622020721436 -0.937053382396698 0.003921568859369
-17.527370452880859 2.185214757919312 -0.583425641059875 0.003921568859369
-16.590671539306641 2.123415708541870 -0.925922453403473 0.003921568859369
-17.158651351928711 2.198971986770630 -0.570806205272675 0.003921568859369
-16.215579986572266 2.125953912734985 -0.904385864734650 0.000000000000000
-10.681920051574707 -0.109803445637226 -0.400701105594635 0.000000000000000
-16.248207092285156 2.130242586135864 -0.539236724376678 0.003921568859369
-22.477685928344727 1.899364471435547 4.006822586059570 0.003921568859369
-16.445606231689453 1.430880069732666 -0.081980504095554 0.000000000000000
-17.584253311157227 2.373331546783447 -0.984853506088257 0.003921568859369
-17.095781326293945 2.304626226425171 -0.569093227386475 0.003921568859369
-11.872043609619141 0.463530689477921 3.018130779266357 0.000000000000000
-13.412750244140625 -0.047934610396624 -0.214058414101601 0.000000000000000
-8.232879638671875 0.713790893554688 -0.036451913416386 0.000000000000000
-17.504289627075195 2.425129413604736 -0.980661153793335 0.003921568859369
-17.091173171997070 2.365450620651245 -0.569203317165375 0.003921568859369
-12.784922599792480 -0.007560514379293 -0.203232645988464 0.000000000000000
-17.480779647827148 2.475737333297729 -0.979711174964905 0.003921568859369
-12.688007354736328 0.580740153789520 0.710696697235107 0.000000000000000
-13.423313140869141 0.615939915180206 1.579206228256226 0.000000000000000
-17.059926986694336 2.413594722747803 -0.568349182605743 0.003921568859369
-17.508499145507812 2.547622680664062 -0.982175946235657 0.003921568859369
-17.048398971557617 2.477892637252808 -0.568325817584991 0.003921568859369
-17.512243270874023 2.602433204650879 -0.982844769954681 0.003921568859369
-17.044481277465820 2.530041217803955 -0.568440020084381 0.003921568859369
-17.557340621948242 2.675936698913574 -0.986051201820374 0.003921568859369
-17.006998062133789 2.588632583618164 -0.567443013191223 0.003921568859369
-17.434522628784180 2.710597753524780 -0.979322314262390 0.003921568859369
-4.817392349243164 0.258637011051178 0.250469177961349 0.000000000000000
-19.199872970581055 2.071644783020020 -0.967168211936951 0.003921568859369
-17.022457122802734 2.643856763839722 -0.568248510360718 0.003921568859369
-13.122274398803711 0.775870382785797 3.360422134399414 0.000000000000000
-17.735713958740234 2.823579072952271 -0.997556388378143 0.003921568859369
-18.620725631713867 2.073681116104126 -0.937176465988159 0.003921568859369
-17.020540237426758 2.705185174942017 -0.568497121334076 0.003921568859369
-19.344970703125000 2.223274469375610 -0.536552011966705 0.000000000000000
-2.919169187545776 0.156561225652695 0.006191218271852 0.000000000000000
-18.192911148071289 2.086400032043457 -0.915093958377838 0.003921568859369
-16.936098098754883 2.749697446823120 -0.565844714641571 0.003921568859369
-11.574738502502441 0.757998287677765 2.945888996124268 0.000000000000000
-18.936252593994141 2.239440679550171 -0.524900436401367 0.000000000000000
-17.674037933349609 2.084983348846436 -0.888227880001068 0.003921568859369
-16.961847305297852 2.812676429748535 -0.567062258720398 0.003921568859369
-10.291760444641113 1.179338455200195 1.781562805175781 0.000000000000000
-18.464183807373047 2.244779109954834 -0.511409521102905 0.000000000000000
-17.512088775634766 2.124940872192383 -0.880086481571198 0.003921568859369
-16.967672348022461 2.872403621673584 -0.567588806152344 0.003921568859369
-18.119194030761719 2.263296604156494 -0.501601517200470 0.000000000000000
-15.155005455017090 1.878616929054260 0.606615722179413 0.000000000000000
-17.132183074951172 2.135550975799561 -0.860504329204559 0.003921568859369
-16.957538604736328 2.929377794265747 -0.567562580108643 0.003921568859369
-17.689836502075195 2.205927610397339 3.145829916000366 0.003921568859369
-17.996644973754883 2.305959939956665 -0.498238116502762 0.000000000000000
-3.912978172302246 0.433112055063248 -0.262881994247437 0.000000000000000
-17.684350967407227 3.118521451950073 -0.997420489788055 0.003921568859369
-16.776554107666016 2.143883466720581 -0.842172980308533 0.003921568859369
-16.947727203369141 2.983470201492310 -0.567537784576416 0.003921568859369
-17.900917053222656 2.357637405395508 -0.495677500963211 0.000000000000000
-14.021187782287598 0.508021473884583 0.399033695459366 0.000000000000000
-17.672800064086914 3.180963993072510 -0.997391879558563 0.003921568859369
-15.933482170104980 2.088146686553955 0.639495968818665 0.000000000000000
-16.618185043334961 2.182442188262939 -0.834240615367889 0.003921568859369
-16.936677932739258 3.043214321136475 -0.567510426044464 0.003921568859369
-17.801507949829102 2.405097723007202 -0.493003636598587 0.000000000000000
-17.661586761474609 3.240397453308105 -0.997364699840546 0.003921568859369
-16.226747512817383 2.184370517730713 -0.814037978649139 0.000000000000000
-16.925949096679688 3.100079536437988 -0.567484438419342 0.003921568859369
-17.711709976196289 2.454866409301758 -0.490620642900467 0.000000000000000
-17.479391098022461 3.268718004226685 -0.987578928470612 0.003921568859369
-17.881471633911133 2.479476213455200 -0.901707470417023 0.003921568859369
-16.904966354370117 3.157028436660767 -0.567188143730164 0.003921568859369
-17.663909912109375 2.505667448043823 -0.489444851875305 0.000000000000000
-17.873147964477539 2.536664009094238 -0.901680648326874 0.003921568859369
-16.894399642944336 3.210974931716919 -0.567163646221161 0.003921568859369
-17.615070343017578 2.562111616134644 -0.488266468048096 0.000000000000000
-19.097213745117188 0.960657656192780 0.118707858026028 0.000000000000000
-17.338708877563477 3.362607479095459 -0.980594754219055 0.003921568859369
-17.666234970092773 2.570024490356445 -0.891255974769592 0.003921568859369
-17.023595809936523 3.298972606658936 -0.572106957435608 0.003921568859369
-17.571367263793945 2.609969615936279 -0.487207353115082 0.000000000000000
-14.185687065124512 0.747290134429932 0.088612027466297 0.000000000000000
-17.511999130249023 2.601001262664795 -0.883538842201233 0.003921568859369
-17.020982742309570 3.352055788040161 -0.572359800338745 0.003921568859369
-16.861307144165039 1.691559195518494 4.383970260620117 0.003921568859369
-17.530086517333984 2.667056322097778 -0.486259192228317 0.000000000000000
-17.486566543579102 2.660367965698242 -0.882678508758545 0.003921568859369
-3.768517255783081 0.337159693241119 0.394042462110519 0.000000000000000
-17.055540084838867 3.421900033950806 -0.573989272117615 0.003921568859369
-17.509300231933594 2.721171855926514 -0.485888391733170 0.000000000000000
-19.259040832519531 2.076172828674316 -0.861259400844574 0.000000000000000
-17.497362136840820 2.719430685043335 -0.883691966533661 0.003921568859369
-17.239633560180664 3.517788171768188 -0.580867171287537 0.003921568859369
-8.634876251220703 0.890780866146088 -0.179224714636803 0.000000000000000
-13.365077018737793 0.838144898414612 -0.213243126869202 0.000000000000000
-17.487373352050781 2.781059026718140 -0.485515058040619 0.000000000000000
-18.600313186645508 2.069385290145874 -0.830928325653076 0.000000000000000
-19.485479354858398 3.111170291900635 -0.989056110382080 0.003921568859369
-17.226623535156250 3.578635215759277 -0.580839812755585 0.003921568859369
-2.630238771438599 0.228073641657829 0.545493066310883 0.000000000000000
-17.450452804565430 2.832291603088379 -0.484684973955154 0.000000000000000
-17.555673599243164 3.708593368530273 -0.996866881847382 0.003921568859369
-18.252103805541992 2.088478326797485 -0.815012216567993 0.000000000000000
-19.502630233764648 3.178324699401855 -0.990482270717621 0.003921568859369
-17.214656829833984 3.633650064468384 -0.580815136432648 0.003921568859369
-17.444395065307617 2.891664505004883 -0.484772741794586 0.000000000000000
-17.829143524169922 2.098337650299072 1.020511150360107 0.000000000000000
-17.748920440673828 2.089400768280029 -0.791891157627106 0.000000000000000
-19.499284744262695 3.245535373687744 -0.990867555141449 0.003921568859369
-17.065301895141602 3.661077022552490 -0.575958251953125 0.003921568859369
-7.763720512390137 0.869315207004547 -0.159294322133064 0.000000000000000
-17.449945449829102 2.953109502792358 -0.485205203294754 0.000000000000000
-17.529357910156250 3.826663494110107 -0.996814072132111 0.003921568859369
-17.495719909667969 2.118242263793945 -0.780409693717957 0.000000000000000
-19.491767883300781 3.312074422836304 -0.991045057773590 0.003921568859369
-9.438980102539062 1.105203270912170 -0.198052227497101 0.000000000000000
-17.428247451782227 3.006749391555786 -0.484834909439087 0.000000000000000
-16.738237380981445 3.703611850738525 -0.950593829154968 0.003921568859369
-17.338006973266602 2.154712677001953 -0.773363769054413 0.000000000000000
-18.729665756225586 3.240063667297363 -0.951316773891449 0.003921568859369
-12.591397285461426 0.994918823242188 -0.200122117996216 0.000000000000000
-17.413173675537109 3.067575693130493 -0.484691828489304 0.000000000000000
-16.565126419067383 3.725330591201782 -0.941097676753998 0.003921568859369
-16.866559982299805 2.154378652572632 -0.751723170280457 0.000000000000000
-18.599782943725586 3.284814357757568 -0.945051133632660 0.003921568859369
-9.161475181579590 1.130866408348083 -0.191791504621506 0.000000000000000
-17.400720596313477 3.124798059463501 -0.484616070985794 0.000000000000000
-16.530988693237305 3.775499820709229 -0.940117299556732 0.003921568859369
-16.358354568481445 2.141456365585327 -0.728539407253265 0.000000000000000
-18.582677841186523 3.345246553421021 -0.944926261901855 0.003921568859369
-12.150684356689453 1.566613554954529 3.127961874008179 0.000000000000000
-26.847824096679688 4.882661342620850 4.880442619323730 0.003921568859369
-16.192735671997070 2.118724584579468 -0.354453951120377 0.000000000000000
-17.420574188232422 3.192250490188599 -0.485506176948547 0.000000000000000
-16.386007308959961 2.204103469848633 -0.730173766613007 0.000000000000000
-18.711559295654297 3.437916994094849 -0.952375054359436 0.003921568859369
-18.885828018188477 2.553729295730591 -0.416859507560730 0.000000000000000
-12.474897384643555 1.109154582023621 -0.198249325156212 0.000000000000000
-16.098779678344727 2.994138479232788 -0.447151660919189 0.000000000000000
-16.612836837768555 3.913066148757935 -0.946532726287842 0.003921568859369
-17.727371215820312 2.449681758880615 -0.793101251125336 0.000000000000000
-12.866936683654785 2.367316961288452 2.284740209579468 0.000000000000000
-18.857460021972656 2.611449003219604 -0.416373342275620 0.000000000000000
-17.488086700439453 3.327269554138184 -0.488092094659805 0.000000000000000
-16.660385131835938 3.987078428268433 -0.950200915336609 0.003921568859369
-17.710363388061523 2.511205196380615 -0.792702674865723 0.000000000000000
-17.476142883300781 3.325093746185303 -0.888127684593201 0.003921568859369
-18.748849868774414 2.663731575012207 -0.414053648710251 0.000000000000000
-17.511642456054688 3.393215179443359 -0.489098072052002 0.000000000000000
-16.646364212036133 4.043038845062256 -0.950176417827606 0.003921568859369
-17.705438613891602 2.571434974670410 -0.792859256267548 0.000000000000000
-17.390020370483398 3.368947505950928 -0.884154200553894 0.003921568859369
-18.608940124511719 2.707334518432617 -0.411003738641739 0.000000000000000
-17.555135726928711 3.460422515869141 -0.490679144859314 0.000000000000000
-17.530946731567383 2.602528333663940 -0.785079896450043 0.000000000000000
-17.347442626953125 3.418136119842529 -0.882467210292816 0.003921568859369
-18.643333435058594 2.773667812347412 -0.411982536315918 0.000000000000000
-17.597749710083008 3.530919075012207 -0.492258787155151 0.000000000000000
-17.458602905273438 2.651587247848511 -0.782099068164825 0.000000000000000
-17.390153884887695 3.487897157669067 -0.885348975658417 0.003921568859369
-18.597982406616211 2.830958843231201 -0.411129564046860 0.000000000000000
-17.655721664428711 3.605067491531372 -0.494297146797180 0.000000000000000
-17.646476745605469 2.742137432098389 -0.791300594806671 0.000000000000000
-17.475568771362305 3.567100286483765 -0.890515387058258 0.003921568859369
-19.333530426025391 2.082376718521118 -0.754893600940704 0.003921568859369
-9.786048889160156 1.473817944526672 2.496699571609497 0.000000000000000
-18.493232727050781 2.878423452377319 -0.408904254436493 0.000000000000000
-17.619575500488281 3.659453392028809 -0.493582189083099 0.000000000000000
-3.586580038070679 0.636811554431915 -0.241089671850204 0.000000000000000
-19.545007705688477 3.115955114364624 -0.880605638027191 0.000000000000000
-18.694812774658203 2.075121641159058 -0.729204773902893 0.003921568859369
-18.419935226440430 2.930387496948242 -0.407411307096481 0.000000000000000
-13.597651481628418 1.534936904907227 0.086090274155140 0.000000000000000
-19.522190093994141 3.180008888244629 -0.880021393299103 0.000000000000000
-17.598522186279297 3.717164754867554 -0.898355245590210 0.003921568859369
-18.310400009155273 2.093535423278809 -0.713845372200012 0.003921568859369
-18.496349334716797 3.007109880447388 -0.409395337104797 0.000000000000000
-19.538532257080078 3.250707387924194 -0.881282746791840 0.000000000000000
-17.632226943969727 3.786826610565186 -0.900821089744568 0.003921568859369
-17.910213470458984 2.107350587844849 -0.697841882705688 0.003921568859369
-13.965961456298828 2.290566444396973 3.639286518096924 0.000000000000000
-18.473911285400391 3.067456483840942 -0.409092068672180 0.000000000000000
-19.515258789062500 3.314646005630493 -0.880698680877686 0.000000000000000
-17.568252563476562 3.834714412689209 -0.898094773292542 0.003921568859369
-12.042473793029785 2.001964569091797 1.433821797370911 0.000000000000000
-17.561702728271484 2.124866485595703 -0.683937251567841 0.003921568859369
-18.439458847045898 3.125605106353760 -0.408514469861984 0.000000000000000
-18.754089355468750 3.248250722885132 -0.845664739608765 0.000000000000000
-16.692155838012695 3.697823762893677 -0.852319121360779 0.003921568859369
-17.254770278930664 2.146753787994385 -0.671857774257660 0.003921568859369
-8.552272796630859 1.824204444885254 1.494715213775635 0.000000000000000
-18.343582153320312 3.174516201019287 -0.406447857618332 0.000000000000000
-18.751073837280273 3.309833765029907 -0.846006035804749 0.000000000000000
-16.656457901000977 3.745680570602417 -0.851050019264221 0.003921568859369
-18.447038650512695 3.254131555557251 -0.409070968627930 0.000000000000000
-16.208271026611328 2.122281789779663 -0.263266772031784 0.000000000000000
-18.750595092773438 3.378498792648315 -0.846528947353363 0.000000000000000
-16.619295120239258 3.798932075500488 -0.849778592586517 0.003921568859369
-18.525402069091797 3.336337089538574 -0.411142706871033 0.000000000000000
-17.714689254760742 3.244161844253540 -0.798361957073212 0.000000000000000
-17.778017044067383 2.394276380538940 -0.694027185440063 0.003921568859369
-11.264678955078125 1.520997524261475 -0.178296744823456 0.000000000000000
-17.625370025634766 3.285701751708984 -0.794647455215454 0.000000000000000
-17.813499450683594 2.457414627075195 -0.695773839950562 0.003921568859369
-11.185465812683105 2.624196529388428 -0.879369795322418 0.000000000000000
-17.491674423217773 3.324099063873291 -0.788901805877686 0.000000000000000
-17.764823913574219 2.514652013778687 -0.694131970405579 0.003921568859369
-11.146923065185547 2.613373279571533 1.989603638648987 0.000000000000000
-17.417280197143555 3.370425701141357 -0.785924375057220 0.000000000000000
-17.771747589111328 2.576891422271729 -0.694748699665070 0.003921568859369
-17.401493072509766 3.428267240524292 -0.785713374614716 0.000000000000000
-9.249807357788086 1.327048540115356 -0.347311764955521 0.000000000000000
-4.396277904510498 0.593216598033905 -0.238783329725266 0.000000000000000
-17.456533432006836 3.497746467590332 -0.788823366165161 0.000000000000000
-17.236576080322266 2.612306356430054 -0.673576295375824 0.003921568859369
-17.442777633666992 3.620723724365234 -0.789322435855865 0.000000000000000
-3.713571548461914 0.826229870319366 -0.161603257060051 0.000000000000000
-19.556055068969727 3.116124153137207 -0.769107520580292 0.003921568859369
-17.578357696533203 3.711923599243164 -0.796303212642670 0.000000000000000
-19.545057296752930 3.182237148284912 -0.769076883792877 0.003921568859369
-17.434339523315430 3.744343519210815 -0.790278375148773 0.000000000000000
-19.543485641479492 3.251831769943237 -0.769527494907379 0.003921568859369
-16.837854385375977 3.665167093276978 -0.762610316276550 0.000000000000000
-16.722406387329102 3.704209327697754 -0.757791221141815 0.000000000000000
-16.675657272338867 3.746667861938477 -0.756110250949860 0.000000000000000
-5.913036823272705 1.236021161079407 1.469493746757507 0.000000000000000
-17.665779113769531 3.236865043640137 -0.694804191589355 0.003921568859369
-17.685760498046875 3.302485466003418 -0.696065545082092 0.003921568859369
-17.674709320068359 3.359123706817627 -0.696039855480194 0.003921568859369
-17.670709609985352 3.420278310775757 -0.696335077285767 0.003921568859369
-3.381840705871582 0.585772335529327 0.089189454913139 0.000000000000000
-5.487432003021240 1.542184829711914 -0.260894209146500 0.000000000000000
-15.149379730224609 3.128640174865723 0.098699264228344 0.000000000000000
-17.611213684082031 3.658396244049072 -0.695942044258118 0.003921568859369
-16.973350524902344 3.638060331344604 -0.670625686645508 0.003921568859369
-16.893629074096680 3.683101177215576 -0.667863547801971 0.003921568859369
-3.083274841308594 0.690917730331421 -0.053823962807655 0.000000000000000
-16.788475036621094 3.712853670120239 -0.663978993892670 0.003921568859369
-7.760332107543945 2.825923204421997 0.098971687257290 0.000000000000000
-6.902331829071045 1.469662904739380 0.196833267807961 0.000000000000000
-5.325792789459229 1.118817329406738 -0.304417401552200 0.000000000000000
-12.556349754333496 3.009673833847046 -0.779649615287781 0.000000000000000
-8.807093620300293 2.974267482757568 1.603222727775574 0.000000000000000
-4.294846057891846 0.959712207317352 -0.149341925978661 0.000000000000000
-9.036201477050781 2.312237739562988 -0.143471106886864 0.000000000000000
-2.563861370086670 0.548216879367828 -0.077780440449715 0.000000000000000
-10.368211746215820 3.312934398651123 2.779968738555908 0.000000000000000
-7.710502147674561 2.866439580917358 0.322444975376129 0.000000000000000
-6.831977367401123 2.289491891860962 1.795620441436768 0.000000000000000
-15.268774986267090 6.694399833679199 2.959807395935059 0.003921568859369
-7.618077754974365 3.150919914245605 2.081184625625610 0.000000000000000
-13.551580429077148 5.971720218658447 0.013900876045227 0.000000000000000
-5.444025039672852 2.723694562911987 0.139038890600204 0.000000000000000
-5.304261207580566 3.259282112121582 1.562753319740295 0.000000000000000
-6.627954483032227 4.104724407196045 0.224735572934151 0.000000000000000
-17.326309204101562 14.429493904113770 4.064061641693115 0.003921568859369
-8.648617744445801 9.210348129272461 2.260814189910889 0.000000000000000
-5.533693313598633 5.439310073852539 2.004236459732056 0.000000000000000
-2.328083276748657 1.838932156562805 -0.161873504519463 0.000000000000000
-4.237398624420166 4.528784751892090 0.249287754297256 0.000000000000000
-6.076743125915527 6.275985240936279 1.045542716979980 0.000000000000000
-7.817656040191650 9.224967002868652 2.166590213775635 0.000000000000000
-6.807674884796143 8.017359733581543 1.878320932388306 0.000000000000000
-8.736081123352051 10.829116821289062 2.501658916473389 0.000000000000000
-5.625455856323242 7.027099609375000 1.603348493576050 0.000000000000000
-7.147099018096924 9.567319869995117 2.143692255020142 0.000000000000000
-8.620285034179688 12.124044418334961 2.682771205902100 0.000000000000000
-12.715017318725586 18.610698699951172 4.086731433868408 0.003921568859369
-9.345346450805664 12.257291793823242 4.077368259429932 0.000000000000000
-4.857152938842773 6.173393249511719 0.942370235919952 0.000000000000000
-6.585793018341064 9.610225677490234 2.093461990356445 0.000000000000000
-6.025506019592285 9.009999275207520 1.945762991905212 0.000000000000000
-14.431715965270996 22.920562744140625 4.921296119689941 0.003921568859369
-7.535405158996582 10.612671852111816 3.437328815460205 0.000000000000000
-3.700664043426514 4.928825378417969 0.145614132285118 0.000000000000000
-8.176602363586426 11.656993865966797 3.766366481781006 0.000000000000000
-13.415416717529297 22.646335601806641 2.153461933135986 0.003921568859369
-10.906584739685059 20.558475494384766 4.228063583374023 0.003921568859369
-12.373600959777832 23.634696960449219 4.851489543914795 0.003921568859369
-13.336230278015137 22.914218902587891 7.072409152984619 0.003921568859369
-6.003772258758545 10.252796173095703 3.142542839050293 0.000000000000000
-2.401744365692139 3.691454410552979 0.250763893127441 0.000000000000000
-5.385034084320068 9.269973754882812 2.831217288970947 0.000000000000000
-5.114441871643066 10.259690284729004 2.069586753845215 0.000000000000000
-6.215134620666504 11.502664566040039 3.466822385787964 0.000000000000000
-4.554378986358643 9.414465904235840 -0.050418615341187 0.000000000000000
-2.802944660186768 4.929081439971924 1.477774381637573 0.000000000000000
-4.500728130340576 9.744757652282715 -0.544794678688049 0.000000000000000
-10.764495849609375 24.840246200561523 2.216859340667725 0.003921568859369
-8.755033493041992 20.029716491699219 3.974323511123657 0.003921568859369
-8.688054084777832 20.066074371337891 3.975746393203735 0.003921568859369
-8.519131660461426 20.067556381225586 3.964256525039673 0.003921568859369
-5.882160663604736 12.547737121582031 3.683076381683350 0.000000000000000
-4.983325481414795 10.802178382873535 -0.537184357643127 0.000000000000000
-10.651000976562500 24.835090637207031 0.642889916896820 0.003921568859369
-3.712533950805664 8.072717666625977 -0.399221390485764 0.000000000000000
-3.836642980575562 7.539700508117676 0.055892806500196 0.000000000000000
-6.740328788757324 15.857503890991211 4.592263698577881 0.003921568859369
-2.341108560562134 7.209465503692627 -0.080055460333824 0.000000000000000
-2.330618381500244 7.170928478240967 -0.252698957920074 0.003921568859369
-3.606882572174072 7.681931972503662 -0.332496374845505 0.000000000000000
-4.755335330963135 14.290085792541504 2.736783504486084 0.000000000000000
-10.647787094116211 24.827011108398438 0.172786071896553 0.003921568859369
-5.015691757202148 15.317306518554688 2.930285453796387 0.003921568859369
-5.320947170257568 16.738666534423828 -0.089923799037933 0.000000000000000
-2.377932310104370 7.083584308624268 0.135267943143845 0.000000000000000
-2.402781486511230 7.170971393585205 0.310561358928680 0.000000000000000
-2.575570106506348 6.695780277252197 1.897002339363098 0.000000000000000
-3.184293031692505 10.178927421569824 1.934617400169373 0.000000000000000
-2.514379262924194 6.509598255157471 -0.153092935681343 0.000000000000000
-2.323451995849609 7.171617507934570 -0.209737583994865 0.003921568859369
-2.338975429534912 7.228476524353027 -0.036841988563538 0.003921568859369
-1.876453518867493 4.900667667388916 1.381310105323792 0.000000000000000
-1.980411291122437 5.293117523193359 1.490197181701660 0.000000000000000
-5.054675102233887 19.013170242309570 -0.558210372924805 0.003921568859369
-5.578911304473877 17.430517196655273 -0.412088662385941 0.000000000000000
-3.132270336151123 9.392694473266602 -0.220433831214905 0.000000000000000
-6.455209255218506 25.790988922119141 -0.756471395492554 0.003921568859369
-3.388290882110596 9.902663230895996 -0.173389911651611 0.000000000000000
-2.996519088745117 10.415959358215332 1.327659606933594 0.000000000000000
-2.249578952789307 7.828197002410889 0.995988726615906 0.000000000000000
-2.835651874542236 8.749567985534668 0.059798214584589 0.000000000000000
-2.066695690155029 7.571381092071533 0.960004568099976 0.000000000000000
-4.975107669830322 26.037654876708984 4.836114883422852 0.003921568859369
-4.880785942077637 26.034334182739258 4.832503795623779 0.003921568859369
-2.266474485397339 9.011326789855957 1.138491272926331 0.000000000000000
-6.084681987762451 28.220243453979492 3.550932884216309 0.003921568859369
-2.329104185104370 9.802893638610840 2.688229560852051 0.000000000000000
-3.601393222808838 21.316043853759766 3.943726301193237 0.003921568859369
-2.104059696197510 12.424857139587402 2.296483755111694 0.000000000000000
-1.509424209594727 9.002184867858887 1.662055373191833 0.000000000000000
-1.302649617195129 8.088383674621582 1.491662144660950 0.000000000000000
-4.637127399444580 26.289358139038086 3.284070253372192 0.003921568859369
-0.934607148170471 8.636914253234863 1.584804296493530 0.000000000000000
-1.988577485084534 24.404327392578125 4.471429347991943 0.003921568859369
-1.327963352203369 19.914409637451172 3.645054817199707 0.003921568859369
-0.813466787338257 13.643287658691406 2.496546268463135 0.000000000000000
-0.407456099987030 6.435428142547607 1.178444981575012 0.000000000000000
-0.697750091552734 10.829421043395996 1.336580753326416 0.000000000000000
-0.496463924646378 7.547075271606445 0.931982517242432 0.000000000000000
0.252886772155762 14.997290611267090 2.742994546890259 0.000000000000000
-0.150122895836830 17.090213775634766 4.587207794189453 0.003921568859369
0.517131328582764 14.102820396423340 2.582014322280884 0.000000000000000
0.386911749839783 8.121709823608398 1.490373373031616 0.000000000000000
1.209142565727234 17.521921157836914 3.213217973709106 0.003921568859369
2.016363859176636 19.018638610839844 3.499502658843994 0.003921568859369
2.478705406188965 18.945657730102539 3.497319698333740 0.003921568859369
1.194142103195190 11.736639022827148 3.173883676528931 0.000000000000000
1.719278812408447 11.151336669921875 2.069668769836426 0.000000000000000
1.984824776649475 11.698644638061523 2.176693916320801 0.000000000000000
1.899140119552612 8.845705032348633 1.663631439208984 0.000000000000000
2.042132854461670 9.492581367492676 2.619031667709351 0.000000000000000
1.723442316055298 7.916104793548584 2.188058376312256 0.000000000000000
1.971050500869751 8.427346229553223 2.337248325347900 0.000000000000000
2.419208526611328 10.007023811340332 1.274900436401367 0.000000000000000
2.367824316024780 7.326610088348389 1.419764637947083 0.000000000000000
2.064829826354980 6.327613830566406 1.229442477226257 0.000000000000000
2.522771120071411 8.197735786437988 2.318373441696167 0.000000000000000
4.459838390350342 11.529766082763672 3.335646867752075 0.000000000000000
3.779758214950562 9.750196456909180 2.824915647506714 0.000000000000000
2.429527759552002 6.370368957519531 1.849029541015625 0.000000000000000
3.073379993438721 7.604394912719727 2.219826459884644 0.000000000000000
2.529740810394287 6.275814533233643 0.842481374740601 0.000000000000000
3.553470611572266 8.324913978576660 0.534868121147156 0.000000000000000
5.146289348602295 10.384165763854980 2.132064342498779 0.000000000000000
11.742365837097168 24.471557617187500 1.591894865036011 0.003921568859369
4.910092353820801 8.748119354248047 1.848377823829651 0.000000000000000
12.442815780639648 21.196226119995117 4.503042697906494 0.003921568859369
12.188767433166504 20.274448394775391 4.335018634796143 0.003921568859369
12.289451599121094 20.295913696289062 4.347961902618408 0.003921568859369
12.378243446350098 20.273571014404297 4.353006839752197 0.003921568859369
12.484938621520996 20.295333862304688 4.366669654846191 0.003921568859369
12.588541984558105 20.295495986938477 4.376742362976074 0.003921568859369
7.019112110137939 11.967499732971191 3.742588520050049 0.000000000000000
5.008736610412598 8.283588409423828 2.618553161621094 0.000000000000000
8.660575866699219 12.422449111938477 2.780257940292358 0.000000000000000
15.338191986083984 23.910242080688477 1.665479063987732 0.003921568859369
5.546716690063477 8.522373199462891 2.748911380767822 0.000000000000000
7.040916442871094 9.699065208435059 2.204285860061646 0.000000000000000
15.237830162048340 20.477029800415039 4.675747871398926 0.003921568859369
4.938245773315430 6.803436279296875 2.276351213455200 0.000000000000000
5.054225444793701 5.600882053375244 0.135390728712082 0.000000000000000
12.362463951110840 13.057672500610352 3.296634197235107 0.003921568859369
8.141965866088867 9.335013389587402 3.341931581497192 0.000000000000000
11.067750930786133 11.463515281677246 2.923226118087769 0.003921568859369
8.174499511718750 9.306149482727051 3.341936349868774 0.000000000000000
7.830166339874268 8.030280113220215 2.062197685241699 0.000000000000000
7.440476417541504 7.315635681152344 1.918327212333679 0.000000000000000
9.028675079345703 8.672720909118652 2.298920392990112 0.000000000000000
12.166105270385742 11.172520637512207 1.357185244560242 0.000000000000000
15.956330299377441 14.627832412719727 3.963029861450195 0.003921568859369
9.438106536865234 7.757543563842773 0.145770460367203 0.003921568859369
8.002253532409668 6.402728080749512 0.122586235404015 0.000000000000000
9.611221313476562 7.566157817840576 -0.713761687278748 0.003921568859369
9.596117973327637 7.384923934936523 -0.422645360231400 0.003921568859369
7.204196929931641 6.781378746032715 2.668954610824585 0.000000000000000
9.059741973876953 7.601908683776855 0.972880721092224 0.003921568859369
9.533681869506836 7.830125331878662 2.263203144073486 0.000000000000000
6.100139617919922 5.518332481384277 1.019252777099609 0.000000000000000
9.380386352539062 6.863579750061035 -0.678309202194214 0.003921568859369
8.902796745300293 7.056587219238281 2.085155487060547 0.000000000000000
10.095915794372559 7.160952568054199 0.146947607398033 0.000000000000000
9.181596755981445 7.166375637054443 2.135842561721802 0.003921568859369
9.498279571533203 7.200040817260742 -0.346395552158356 0.003921568859369
9.642969131469727 7.258640766143799 0.496151775121689 0.000000000000000
9.713922500610352 7.205858230590820 2.217699050903320 0.000000000000000
9.545245170593262 7.029990196228027 2.173907756805420 0.000000000000000
9.350270271301270 6.729934692382812 0.946259140968323 0.003921568859369
8.510484695434570 6.689183712005615 2.914960861206055 0.000000000000000
9.814876556396484 6.958572387695312 2.204483509063721 0.000000000000000
10.236495018005371 7.201931953430176 0.513818323612213 0.003921568859369
9.140912055969238 7.078271865844727 0.271899819374084 0.003921568859369
9.582847595214844 7.418193340301514 -0.848927497863770 0.000000000000000
9.309293746948242 6.504808425903320 0.200867116451263 0.003921568859369
10.287830352783203 7.184186935424805 0.515125751495361 0.003921568859369
9.823196411132812 6.861628532409668 0.984064102172852 0.000000000000000
9.735478401184082 6.750170230865479 0.972986638545990 0.000000000000000
12.909421920776367 9.905700683593750 4.375235557556152 0.003921568859369
9.660814285278320 7.373592376708984 3.271231889724731 0.000000000000000
7.839908123016357 5.905947208404541 2.644664049148560 0.000000000000000
11.977077484130859 8.113407135009766 2.648852825164795 0.000000000000000
9.248953819274902 7.641319274902344 0.071793057024479 0.000000000000000
9.257310867309570 7.539902687072754 -0.207426950335503 0.003921568859369
8.548778533935547 5.672413349151611 1.881455659866333 0.000000000000000
9.406376838684082 7.597945213317871 0.354550302028656 0.003921568859369
9.244120597839355 6.747882366180420 1.411746978759766 0.000000000000000
9.304226875305176 6.791588306427002 3.099027156829834 0.000000000000000
9.383331298828125 6.798758983612061 0.678691089153290 0.000000000000000
14.404174804687500 9.308316230773926 3.136621713638306 0.003921568859369
9.337153434753418 7.381882190704346 -0.206954687833786 0.000000000000000
10.252027511596680 6.583624839782715 2.230753183364868 0.000000000000000
14.507519721984863 8.270078659057617 0.196875333786011 0.003921568859369
9.108796119689941 7.155882358551025 0.339737087488174 0.000000000000000
10.305882453918457 6.572314262390137 2.237932205200195 0.000000000000000
9.184815406799316 6.461735725402832 1.385411858558655 0.000000000000000
8.842301368713379 5.595674991607666 1.917074322700500 0.000000000000000
14.274417877197266 7.999325275421143 0.192937999963760 0.003921568859369
9.573208808898926 7.405713558197021 -0.776717901229858 0.003921568859369
10.514015197753906 6.596226692199707 1.018310070037842 0.000000000000000
10.444332122802734 6.451332092285156 1.007235288619995 0.000000000000000
14.434671401977539 7.890979766845703 0.193973645567894 0.003921568859369
9.569464683532715 7.243726730346680 -0.489090681076050 0.003921568859369
14.360075950622559 7.785238265991211 0.192614570260048 0.003921568859369
9.684656143188477 6.561416625976562 1.442978858947754 0.003921568859369
9.836197853088379 6.613484859466553 1.462004423141479 0.000000000000000
10.515204429626465 6.904716014862061 1.549985289573669 0.003921568859369
5.692945957183838 3.362264156341553 1.212693691253662 0.000000000000000
9.066719055175781 5.911875724792480 0.633473098278046 0.000000000000000
10.652465820312500 6.941325664520264 1.566569447517395 0.000000000000000
9.922904968261719 7.080460548400879 0.356951326131821 0.003921568859369
10.701316833496094 6.869549751281738 0.743833184242249 0.000000000000000
13.649120330810547 7.840055465698242 1.289336800575256 0.003921568859369
13.840307235717773 7.011621475219727 0.182540118694305 0.000000000000000
13.769998550415039 7.845388889312744 1.298132419586182 0.003921568859369
14.266372680664062 8.061432838439941 0.288184136152267 0.003921568859369
14.606292724609375 7.334485054016113 -0.952389180660248 0.003921568859369
15.214387893676758 8.595647811889648 1.431031107902527 0.000000000000000
13.847914695739746 7.698403358459473 1.297809720039368 0.000000000000000
13.679187774658203 6.688496112823486 0.179170727729797 0.000000000000000
14.152054786682129 7.799135684967041 1.323543429374695 0.000000000000000
17.978990554809570 9.902241706848145 3.750641107559204 0.003921568859369
13.898873329162598 7.596764087677002 0.648269772529602 0.000000000000000
14.469738006591797 7.907901287078857 1.350579977035522 0.000000000000000
13.926017761230469 7.549289226531982 1.296457529067993 0.000000000000000
14.268026351928711 6.786272048950195 0.185397252440453 0.000000000000000
13.982778549194336 7.510583400726318 0.648871541023254 0.000000000000000
3.247385025024414 1.968516945838928 0.469955176115036 0.000000000000000
14.937835693359375 7.962039470672607 0.691913366317749 0.003921568859369
5.188039779663086 2.775707721710205 1.078272581100464 0.000000000000000
14.472973823547363 7.582120895385742 1.337168097496033 0.000000000000000
15.607614517211914 7.159602165222168 0.201442271471024 0.003921568859369
14.124030113220215 7.336901187896729 0.650667548179626 0.000000000000000
13.774002075195312 7.091378211975098 0.633386492729187 0.000000000000000
10.209996223449707 5.909806728363037 1.452630758285522 0.000000000000000
7.084191322326660 4.105829715728760 2.201736450195312 0.000000000000000
14.499596595764160 6.533028125762939 0.186616361141205 0.000000000000000
13.741454124450684 7.020061492919922 0.270932614803314 0.003921568859369
3.647532701492310 1.874640107154846 0.753165304660797 0.000000000000000
14.213813781738281 8.095055580139160 0.382393300533295 0.000000000000000
12.411922454833984 7.899083137512207 0.429973065853119 0.000000000000000
13.799818038940430 6.928621292114258 1.263896942138672 0.000000000000000
14.845479965209961 8.245798110961914 2.089544534683228 0.003921568859369
7.154069423675537 3.982298851013184 2.201738357543945 0.000000000000000
13.901865005493164 6.790236949920654 0.271122068166733 0.000000000000000
5.624702930450439 2.753147602081299 1.145521998405457 0.000000000000000
14.807263374328613 7.167872428894043 -0.478511989116669 0.003921568859369
20.380540847778320 8.659642219543457 0.258999913930893 0.003921568859369
14.067160606384277 6.810095787048340 0.638231277465820 0.000000000000000
15.141174316406250 7.329307556152344 1.375530600547791 0.000000000000000
14.377687454223633 6.904492378234863 -0.092038020491600 0.000000000000000
15.128179550170898 7.264405727386475 1.372274994850159 0.000000000000000
20.548288345336914 8.570300102233887 0.260401755571365 0.003921568859369
15.389474868774414 7.323648929595947 0.298612743616104 0.003921568859369
15.153446197509766 7.211479187011719 1.372275471687317 0.000000000000000
14.167973518371582 7.550326824188232 0.000765250413679 0.003921568859369
8.965006828308105 4.231905937194824 -0.057165700942278 0.000000000000000
15.469219207763672 7.295372486114502 0.299662321805954 0.003921568859369
15.039301872253418 7.092885494232178 0.678974151611328 0.003921568859369
20.664632797241211 8.445575714111328 0.261103063821793 0.003921568859369
9.004601478576660 4.210212707519531 0.174385353922844 0.000000000000000
14.609440803527832 7.716600894927979 0.964029133319855 0.000000000000000
14.475798606872559 7.646118640899658 2.013083219528198 0.003921568859369
12.275714874267578 6.485655784606934 3.725615262985229 0.000000000000000
13.961616516113281 7.315717697143555 0.000756118388381 0.003921568859369
14.347204208374023 8.436039924621582 0.485660314559937 0.003921568859369
15.174926757812500 7.027570247650146 0.293017983436584 0.003921568859369
14.381474494934082 7.535421371459961 1.996505022048950 0.003921568859369
14.437190055847168 7.497210979461670 2.000406265258789 0.003921568859369
15.351739883422852 7.041079521179199 1.381067991256714 0.000000000000000
8.654489517211914 3.938637256622314 1.737553000450134 0.000000000000000
19.375713348388672 7.531002521514893 0.243170261383057 0.003921568859369
14.866941452026367 6.634414672851562 0.664798080921173 0.003921568859369
20.047809600830078 7.711454868316650 -0.249316200613976 0.003921568859369
14.973294258117676 6.619169712066650 0.286864191293716 0.003921568859369
14.845082283020020 7.450472354888916 0.969151020050049 0.000000000000000
14.900979995727539 6.587247848510742 0.665287315845490 0.003921568859369
14.572004318237305 7.313589096069336 -0.759541630744934 0.000000000000000
14.268890380859375 7.094372749328613 1.958091616630554 0.003921568859369
14.303019523620605 7.052249431610107 1.959554433822632 0.003921568859369
14.396560668945312 7.032830238342285 1.968817949295044 0.003921568859369
20.238241195678711 7.377818107604980 0.251373946666718 0.003921568859369
14.176472663879395 7.552669048309326 0.093791864812374 0.000000000000000
13.433076858520508 7.156898498535156 0.443591713905334 0.000000000000000
14.079141616821289 6.638916492462158 1.912750959396362 0.000000000000000
20.372030258178711 7.109793186187744 0.251794099807739 0.003921568859369
13.850061416625977 7.193632602691650 0.091134466230869 0.000000000000000
9.135052680969238 4.192756652832031 1.235549688339233 0.000000000000000
13.681015968322754 7.045335292816162 0.448482632637024 0.003921568859369
20.831954956054688 7.026299476623535 0.256551116704941 0.003921568859369
21.477354049682617 7.157053947448730 0.263554126024246 0.003921568859369
14.570364952087402 6.496284961700439 0.929061591625214 0.003921568859369
15.073467254638672 6.660766601562500 0.383469611406326 0.000000000000000
21.436389923095703 7.064514160156250 0.262762546539307 0.003921568859369
19.947971343994141 7.673292160034180 1.744779825210571 0.003921568859369
11.190938949584961 4.304765701293945 2.186147689819336 0.000000000000000
21.542299270629883 6.933069229125977 0.263461023569107 0.003921568859369
19.926437377929688 7.505735874176025 1.738270640373230 0.003921568859369
9.404658317565918 4.038612842559814 1.256716728210449 0.000000000000000
19.967460632324219 7.441698074340820 1.739572525024414 0.003921568859369
10.527429580688477 3.923480987548828 2.048392295837402 0.000000000000000
20.516025543212891 7.568760395050049 -0.127094939351082 0.003921568859369
15.583353996276855 6.630795001983643 0.394077599048615 0.000000000000000
14.745480537414551 6.274275779724121 0.933247566223145 0.003921568859369
11.337657928466797 4.824230194091797 3.301495790481567 0.000000000000000
14.667472839355469 7.040072917938232 -0.283985555171967 0.003921568859369
14.598054885864258 6.944165706634521 -0.282170504331589 0.003921568859369
19.332239151000977 8.063081741333008 0.487409353256226 0.003921568859369
20.141790390014648 7.267387390136719 1.748034477233887 0.003921568859369
20.106962203979492 7.175589561462402 1.742827057838440 0.003921568859369
15.477749824523926 7.233849048614502 0.497215420007706 0.003921568859369
3.225770950317383 1.507631301879883 -0.228200510144234 0.000000000000000
7.970281124114990 2.814601898193359 1.541137218475342 0.000000000000000
14.673604011535645 6.792592525482178 -0.282240331172943 0.003921568859369
20.487342834472656 8.294066429138184 1.287198066711426 0.003921568859369
20.359827041625977 7.105983734130859 1.760401964187622 0.003921568859369
20.089740753173828 6.940998554229736 -0.618581175804138 0.003921568859369
19.238918304443359 7.551178932189941 0.480241209268570 0.003921568859369
6.846688270568848 1.913979053497314 -0.082883983850479 0.000000000000000
19.928619384765625 7.741874694824219 0.496791988611221 0.003921568859369
19.565177917480469 7.522154331207275 -0.000473757478176 0.003921568859369
19.683465957641602 7.492861747741699 -0.000475639506476 0.003921568859369
19.044076919555664 8.335530281066895 0.604265511035919 0.003921568859369
5.150484561920166 1.305520892143250 0.061543602496386 0.000000000000000
19.666065216064453 6.028190135955811 1.677917599678040 0.003921568859369
15.709738731384277 3.931826114654541 -0.942941963672638 0.003921568859369
19.724105834960938 5.974533557891846 1.681171536445618 0.003921568859369
19.660219192504883 8.039074897766113 0.617405295372009 0.003921568859369
15.681396484375000 3.863746643066406 -0.940383076667786 0.003921568859369
20.177278518676758 7.121768951416016 1.245088100433350 0.003921568859369
15.662141799926758 3.798627853393555 -0.938215613365173 0.003921568859369
19.864381790161133 5.859255313873291 1.688182950019836 0.003921568859369
15.706375122070312 3.751429796218872 -0.940077126026154 0.003921568859369
19.530752182006836 6.737042427062988 1.201142549514771 0.003921568859369
19.903852462768555 5.795521736145020 1.689809560775757 0.003921568859369
20.125452041625977 6.942395687103271 -0.495908707380295 0.003921568859369
5.985995769500732 1.716349601745605 -0.036514211446047 0.000000000000000
20.501550674438477 6.992341518402100 0.502625107765198 0.003921568859369
19.742254257202148 7.828404903411865 0.616576910018921 0.003921568859369
15.719372749328613 3.696654796600342 -0.940077066421509 0.003921568859369
12.549075126647949 3.604442834854126 2.376322031021118 0.000000000000000
15.732181549072266 3.641826868057251 -0.940077006816864 0.003921568859369
20.704189300537109 6.904680252075195 0.506434142589569 0.003921568859369
15.744172096252441 3.589706420898438 -0.940076947212219 0.003921568859369
19.466518402099609 6.491527080535889 1.193007349967957 0.003921568859369
15.094799995422363 3.388901948928833 -0.180637061595917 0.000000000000000
20.141355514526367 7.751971721649170 0.626571118831635 0.003921568859369
15.755989074707031 3.537539243698120 -0.940076887607574 0.003921568859369
20.663713455200195 7.866451740264893 0.127408087253571 0.003921568859369
15.768848419189453 3.479844093322754 -0.940076828002930 0.003921568859369
20.945461273193359 6.746546745300293 0.510614693164825 0.003921568859369
15.780301094055176 3.427603244781494 -0.940076708793640 0.003921568859369
21.046255111694336 6.694073677062988 0.512472808361053 0.003921568859369
15.792755126953125 3.369819164276123 -0.940076649188995 0.003921568859369
10.884110450744629 2.321106433868408 -0.388548880815506 0.000000000000000
3.827126026153564 1.197462677955627 0.092510782182217 0.000000000000000
15.706727027893066 3.294221401214600 -0.934259235858917 0.003921568859369
21.527193069458008 6.764587879180908 1.312003493309021 0.003921568859369
15.745505332946777 3.245096206665039 -0.935887992382050 0.003921568859369
21.554483413696289 6.690662384033203 1.312235832214355 0.003921568859369
7.580071449279785 1.560103893280029 -0.270050466060638 0.000000000000000
19.977157592773438 7.208536624908447 0.616574406623840 0.003921568859369
15.827180862426758 3.204461097717285 -0.940076351165771 0.003921568859369
15.777251243591309 3.137958765029907 -0.936277866363525 0.003921568859369
15.858646392822266 3.096775531768799 -0.940467417240143 0.003921568859369
11.324936866760254 2.209798812866211 -0.402832537889481 0.000000000000000
15.704655647277832 3.009874105453491 -0.930691063404083 0.000000000000000
15.726838111877441 2.957354545593262 -0.931389093399048 0.003921568859369
16.438791275024414 3.930223703384399 -0.885482490062714 0.003921568859369
9.729429244995117 1.827435731887817 -0.345510721206665 0.000000000000000
7.841321945190430 2.279720783233643 2.179539203643799 0.000000000000000
15.756699562072754 2.906176090240479 -0.932552814483643 0.003921568859369
16.374650955200195 3.854588031768799 -0.881291329860687 0.003921568859369
9.100173950195312 2.578535079956055 0.218596711754799 0.000000000000000
20.962171554565430 7.072782993316650 0.641529858112335 0.003921568859369
15.754960060119629 2.849122524261475 -0.931854307651520 0.003921568859369
16.360771179199219 3.791184186935425 -0.879824399948120 0.003921568859369
7.916797637939453 1.428993463516235 -0.280639350414276 0.000000000000000
21.392337799072266 7.139297962188721 0.129397392272949 0.003921568859369
15.878337860107422 2.817231655120850 -0.938604235649109 0.003921568859369
16.307056427001953 3.721875667572021 -0.876261949539185 0.003921568859369
14.822332382202148 3.382392168045044 2.765461206436157 0.000000000000000
16.041498184204102 2.788617610931396 -0.947681903839111 0.003921568859369
16.280977249145508 3.656271219253540 -0.874166190624237 0.003921568859369
15.004789352416992 3.369151830673218 1.251879572868347 0.000000000000000
16.322746276855469 2.779032945632935 -0.963742554187775 0.003921568859369
16.250743865966797 3.590023994445801 -0.871861100196838 0.003921568859369
6.835931301116943 1.859322309494019 1.889718413352966 0.000000000000000
16.596240997314453 2.766203403472900 -0.979337573051453 0.003921568859369
16.220239639282227 3.524031162261963 -0.869555830955505 0.003921568859369
5.370972156524658 1.143060445785522 -0.446488887071609 0.000000000000000
16.228532791137695 3.466670751571655 -0.869346141815186 0.003921568859369
6.888648509979248 1.442834973335266 -0.572848141193390 0.000000000000000
21.180814743041992 6.660567283630371 0.643851459026337 0.003921568859369
16.205354690551758 3.402700901031494 -0.867460012435913 0.003921568859369
21.256000518798828 6.599735736846924 0.644629240036011 0.003921568859369
16.238906860351562 3.348624467849731 -0.868488132953644 0.003921568859369
16.246583938598633 3.291260719299316 -0.868278324604034 0.003921568859369
9.124063491821289 2.312078952789307 2.510488033294678 0.000000000000000
16.254056930541992 3.233883380889893 -0.868068456649780 0.003921568859369
16.261323928833008 3.176501989364624 -0.867858529090881 0.003921568859369
9.785231590270996 1.874831795692444 -0.289940118789673 0.000000000000000
16.295303344726562 3.127224206924438 -0.869116067886353 0.003921568859369
10.532371520996094 2.555769443511963 1.324746131896973 0.000000000000000
13.220499038696289 3.210541248321533 3.633467674255371 0.000000000000000
8.795660018920898 1.214925885200500 -0.103957280516624 0.000000000000000
