# This PCD file was generated using the MATLAB® pcwrite function
# from Computer Vision Toolbox®.
# .PCD v.7 - Point Cloud Data file format
VERSION .7
FIELDS x y z intensity
SIZE 8 8 8 8
TYPE F F F F
COUNT 1 1 1 1
WIDTH 650
HEIGHT 1
VIEWPOINT 0 0 0 1 0 0 0
POINTS 650
DATA ascii
-4.099915981292725 0.799578011035919 -0.279472231864929 0.000000000000000
-16.678012847900391 2.069439172744751 -0.999404191970825 0.003921568859369
-18.794940948486328 3.252001047134399 -0.818004965782166 0.000000000000000
-17.231983184814453 2.141177654266357 -0.643032312393188 0.003921568859369
-17.186948776245117 2.964638948440552 -0.352845877408981 0.000000000000000
-18.788625717163086 2.409951210021973 -0.277385830879211 0.003921568859369
-16.484306335449219 2.103607416152954 -0.987813293933868 0.003921568859369
-18.535249710083008 3.273338556289673 -0.806845605373383 0.000000000000000
-16.579038619995117 3.729671001434326 -0.821866869926453 0.003921568859369
-16.835716247558594 2.150541305541992 -0.627926170825958 0.003921568859369
-17.164169311523438 3.023184299468994 -0.352649271488190 0.000000000000000
-18.605733871459961 2.449609518051147 -0.274727433919907 0.003921568859369
-16.271160125732422 2.130959510803223 -0.974980771541595 0.000000000000000
-17.663389205932617 3.175545930862427 -0.767888247966766 0.000000000000000
-16.542598724365234 3.779820919036865 -0.820717513561249 0.003921568859369
-17.188894271850586 3.087513923645020 -0.353471219539642 0.000000000000000
-18.565383911132812 2.507948637008667 -0.274288862943649 0.003921568859369
-16.224084854125977 2.180050373077393 -0.972551286220551 0.000000000000000
-17.663972854614258 3.237253189086914 -0.768481075763702 0.000000000000000
-16.506000518798828 3.829757213592529 -0.819568514823914 0.003921568859369
-17.189798355102539 3.147571325302124 -0.353783220052719 0.000000000000000
-18.469415664672852 2.558099508285522 -0.272986888885498 0.003921568859369
-16.168949127197266 2.227713823318481 -0.969626665115356 0.000000000000000
-17.656490325927734 3.297493457794189 -0.768718063831329 0.000000000000000
-16.883510589599609 2.330445289611816 -0.630859255790710 0.003921568859369
-11.373189926147461 2.084660053253174 2.964001893997192 0.000000000000000
-7.716571331024170 1.373598098754883 -0.148714959621429 0.000000000000000
-18.377279281616211 2.608188390731812 -0.271746486425400 0.003921568859369
-16.113676071166992 2.275015354156494 -0.966701984405518 0.000000000000000
-17.433160781860352 3.315196037292480 -0.759154081344604 0.000000000000000
-16.676597595214844 3.989706993103027 -0.829973578453064 0.003921568859369
-16.875274658203125 2.387203693389893 -0.630909681320190 0.003921568859369
-17.183109283447266 3.266281127929688 -0.354238450527191 0.000000000000000
-18.285932540893555 2.651494026184082 -0.270500451326370 0.003921568859369
-6.835755825042725 1.565478801727295 -0.019732400774956 0.000000000000000
-16.106449127197266 2.323675394058228 -0.966745615005493 0.000000000000000
-17.493186950683594 3.382134437561035 -0.762415051460266 0.000000000000000
-16.714342117309570 4.052810668945312 -0.832651078701019 0.003921568859369
-17.674049377441406 2.559283018112183 -0.662521898746490 0.003921568859369
-17.176685333251953 3.319085597991943 -0.354375779628754 0.000000000000000
-18.225175857543945 2.705255270004272 -0.269753754138947 0.003921568859369
-16.082454681396484 2.375297784805298 -0.965803384780884 0.000000000000000
-17.562290191650391 2.603020191192627 -0.658552169799805 0.003921568859369
-17.223768234252930 3.388864755630493 -0.355711519718170 0.000000000000000
-18.207239151000977 2.768520355224609 -0.269689053297043 0.003921568859369
-16.069696426391602 2.431330204010010 -0.965607225894928 0.000000000000000
-17.576322555541992 2.668827056884766 -0.659537315368652 0.003921568859369
-17.285625457763672 3.465166807174683 -0.357391685247421 0.000000000000000
-18.157979965209961 2.823542118072510 -0.269127964973450 0.003921568859369
-8.832865715026855 1.737065076828003 -0.565375626087189 0.000000000000000
-16.041402816772461 2.482072591781616 -0.964417755603790 0.000000000000000
-4.516667366027832 0.824846327304840 0.502442061901093 0.000000000000000
-19.587352752685547 3.053277969360352 -0.738837063312531 0.003921568859369
-17.289075851440430 3.526635646820068 -0.357792109251022 0.000000000000000
-18.101978302001953 2.881978988647461 -0.268656879663467 0.003921568859369
-16.014307022094727 2.537300586700439 -0.963999509811401 0.000000000000000
-17.026758193969727 3.535786151885986 -0.744146227836609 0.000000000000000
-19.546298980712891 3.119554281234741 -0.738153100013733 0.003921568859369
-17.301206588745117 3.595313310623169 -0.358647257089615 0.000000000000000
-18.052370071411133 2.936385393142700 -0.268096148967743 0.003921568859369
-15.989605903625488 2.588405847549438 -0.963058531284332 0.000000000000000
-17.619352340698242 3.725601911544800 -0.771841049194336 0.000000000000000
-19.558937072753906 3.189618349075317 -0.739143669605255 0.003921568859369
-17.331527709960938 3.662972927093506 -0.359645336866379 0.000000000000000
-18.106126785278320 3.001995086669922 -0.269136399030685 0.003921568859369
-16.001068115234375 2.640084743499756 -0.964343070983887 0.000000000000000
-17.615360260009766 3.780755996704102 -0.772253751754761 0.000000000000000
-19.564580917358398 3.251838445663452 -0.739818990230560 0.003921568859369
-18.067426681518555 3.061271190643311 -0.268764644861221 0.003921568859369
-15.971623420715332 2.693030834197998 -0.963157534599304 0.000000000000000
-17.597488403320312 3.842178821563721 -0.772141337394714 0.000000000000000
-19.528909683227539 3.317147970199585 -0.738955974578857 0.003921568859369
-18.045368194580078 3.117038488388062 -0.268634587526321 0.003921568859369
-15.966533660888672 2.744659662246704 -0.963454127311707 0.000000000000000
-18.825304031372070 3.256072044372559 -0.711763978004456 0.003921568859369
-9.361667633056641 2.012894392013550 2.430721282958984 0.000000000000000
-18.045625686645508 3.183082580566406 -0.268881708383560 0.003921568859369
-15.932802200317383 2.796624660491943 -0.962021172046661 0.000000000000000
-16.640218734741211 3.743486642837524 -0.729643046855927 0.000000000000000
-18.773927688598633 3.315636873245239 -0.710279822349548 0.003921568859369
-5.004642009735107 1.026259899139404 -0.091119945049286 0.000000000000000
-18.077657699584961 3.251982450485229 -0.269621163606644 0.003921568859369
-15.907242774963379 2.847171545028687 -0.961081683635712 0.000000000000000
-16.572614669799805 3.786509037017822 -0.727206468582153 0.000000000000000
-18.813322067260742 3.388532161712646 -0.712354779243469 0.003921568859369
-18.083068847656250 3.309821605682373 -0.269922345876694 0.003921568859369
-22.307209014892578 4.111047744750977 0.691857576370239 0.003921568859369
-15.913910865783691 2.898183822631836 -0.962120294570923 0.000000000000000
-17.757957458496094 3.247832536697388 -0.671212613582611 0.003921568859369
-27.281303405761719 7.819390296936035 5.127232074737549 0.003921568859369
-18.086526870727539 3.376881122589111 -0.270233064889908 0.003921568859369
-15.914939880371094 2.956527709960938 -0.962919414043427 0.000000000000000
-17.726310729980469 3.306871652603149 -0.670500218868256 0.003921568859369
-18.149188995361328 3.452548265457153 -0.271469503641129 0.003921568859369
-15.888854026794434 3.006850004196167 -0.961980879306793 0.000000000000000
-3.061877965927124 0.608707070350647 0.320556789636612 0.000000000000000
-17.553867340087891 3.334950447082520 -0.664208352565765 0.003921568859369
-18.235065460205078 3.533411026000977 -0.273078352212906 0.003921568859369
-15.901746749877930 3.064872503280640 -0.963521957397461 0.000000000000000
-17.455900192260742 3.376793861389160 -0.660859465599060 0.003921568859369
-18.328428268432617 3.616511344909668 -0.274812102317810 0.003921568859369
-15.890951156616211 3.118228673934937 -0.963575899600983 0.000000000000000
-17.479255676269531 3.442768573760986 -0.662313282489777 0.003921568859369
-7.237300872802734 1.695886492729187 1.852826952934265 0.000000000000000
-15.897859573364258 3.174584388732910 -0.965388178825378 0.000000000000000
-17.528158187866211 3.513336181640625 -0.665184557437897 0.003921568859369
-15.882209777832031 3.229810237884521 -0.965197622776031 0.000000000000000
-15.902637481689453 3.287178754806519 -0.967233955860138 0.000000000000000
-17.757219314575195 3.686012744903564 -0.675379753112793 0.003921568859369
-15.902183532714844 3.345798492431641 -0.968036353588104 0.000000000000000
-17.661592483520508 3.730939149856567 -0.672190427780151 0.003921568859369
-15.902099609375000 3.401791572570801 -0.968836426734924 0.000000000000000
-3.539866209030151 0.653483986854553 -0.111747875809669 0.000000000000000
-15.913489341735840 3.460469007492065 -0.970381081104279 0.000000000000000
-16.933364868164062 3.691361904144287 -0.644411981105804 0.003921568859369
-15.940838813781738 3.520153760910034 -0.972915649414062 0.000000000000000
-16.765201568603516 3.709737062454224 -0.638268172740936 0.003921568859369
-15.928452491760254 3.573685646057129 -0.972973048686981 0.000000000000000
-16.748258590698242 3.765240669250488 -0.638173699378967 0.003921568859369
-15.935940742492676 3.629090547561646 -0.974268317222595 0.000000000000000
-9.642597198486328 2.614417552947998 1.179210424423218 0.000000000000000
-15.996279716491699 3.703017234802246 -0.979043245315552 0.000000000000000
-8.547264099121094 1.941148400306702 -0.121866792440414 0.000000000000000
-16.060823440551758 3.775677680969238 -0.984064221382141 0.000000000000000
-8.441002845764160 2.327319860458374 0.497022271156311 0.000000000000000
-7.024987220764160 1.738427400588989 0.056585360318422 0.000000000000000
-6.428058624267578 2.231132030487061 -0.311351478099823 0.000000000000000
-12.592267990112305 3.931488275527954 3.414835691452026 0.000000000000000
-8.236713409423828 2.564079761505127 2.182635545730591 0.000000000000000
-5.240558624267578 1.399584412574768 -0.184107467532158 0.000000000000000
-6.375615119934082 2.212662935256958 -0.272882699966431 0.000000000000000
-3.543775796890259 1.326134562492371 0.143022000789642 0.000000000000000
-16.305353164672852 6.650074481964111 4.614851951599121 0.003921568859369
-6.170107364654541 2.744038343429565 0.269598037004471 0.000000000000000
-4.306493759155273 2.000535249710083 0.358813971281052 0.000000000000000
-4.212739467620850 1.526349782943726 -0.149414330720901 0.000000000000000
-8.976972579956055 4.015320777893066 -0.359702736139297 0.000000000000000
-7.967144489288330 4.021709918975830 -0.374586343765259 0.000000000000000
-16.294908523559570 8.766788482666016 4.867233276367188 0.003921568859369
-5.597132205963135 2.907681941986084 1.578404545783997 0.000000000000000
-8.343518257141113 4.592235088348389 2.446707725524902 0.000000000000000
-8.197818756103516 4.880704879760742 2.455544710159302 0.000000000000000
-5.250458717346191 3.709331512451172 0.363584280014038 0.000000000000000
-9.533634185791016 7.593859672546387 3.183577775955200 0.000000000000000
-4.412257671356201 3.067901134490967 0.156457871198654 0.000000000000000
-10.270728111267090 9.402939796447754 3.659286260604858 0.000000000000000
-4.693532943725586 4.524847984313965 1.139097094535828 0.000000000000000
-11.539649009704590 10.846399307250977 4.174652099609375 0.003921568859369
-6.946033477783203 7.031284332275391 0.181345880031586 0.000000000000000
-15.811873435974121 16.797903060913086 4.175538539886475 0.003921568859369
-6.857278347015381 7.034893512725830 -0.760863721370697 0.000000000000000
-8.523962020874023 9.007873535156250 2.219441890716553 0.000000000000000
-7.258196830749512 7.983699321746826 1.926017642021179 0.000000000000000
-7.538386821746826 7.586715698242188 2.795208692550659 0.000000000000000
-14.682707786560059 17.182270050048828 4.091789722442627 0.003921568859369
-5.510795593261719 6.286185264587402 1.482422113418579 0.000000000000000
-8.205104827880859 9.773911476135254 2.289599180221558 0.000000000000000
-17.923427581787109 22.686939239501953 5.249082565307617 0.003921568859369
-3.836361646652222 4.331644535064697 0.008977137506008 0.000000000000000
-17.033826828002930 23.502370834350586 5.270396709442139 0.003921568859369
-6.193665981292725 8.325175285339355 1.856142282485962 0.000000000000000
-12.454093933105469 17.541433334350586 3.895663261413574 0.003921568859369
-7.184844017028809 11.589504241943359 -0.066999919712543 0.000000000000000
-14.701983451843262 22.643859863281250 -0.604245841503143 0.003921568859369
-5.967341423034668 8.945153236389160 2.830872774124146 0.000000000000000
-15.234580039978027 24.810287475585938 1.701610803604126 0.003921568859369
-10.549615859985352 20.039793014526367 4.107339859008789 0.003921568859369
-3.541031837463379 5.731162548065186 0.006708196364343 0.000000000000000
-3.936233282089233 7.284185886383057 1.482476234436035 0.000000000000000
-9.547811508178711 19.020908355712891 -0.603452861309052 0.003921568859369
-11.062999725341797 25.761079788208008 0.334549874067307 0.003921568859369
-12.943015098571777 27.069631576538086 -0.856100678443909 0.003921568859369
-7.353155612945557 13.989531517028809 4.195658683776855 0.003921568859369
-11.898824691772461 26.482089996337891 -0.829575300216675 0.003921568859369
-9.638074874877930 19.044435501098633 0.010447614826262 0.003921568859369
-3.342266559600830 7.594729900360107 1.490919232368469 0.000000000000000
-7.529528617858887 18.935562133789062 3.696538686752319 0.003921568859369
-11.908863067626953 27.044162750244141 -0.674056112766266 0.003921568859369
-2.821321964263916 5.963617801666260 0.380106776952744 0.000000000000000
-5.926823616027832 14.246129989624023 1.883160352706909 0.000000000000000
-3.836671352386475 11.571855545043945 2.206240653991699 0.000000000000000
-6.616883754730225 15.396900177001953 0.489776760339737 0.003921568859369
-2.157533645629883 6.453818798065186 1.224462032318115 0.000000000000000
-6.537198543548584 19.152408599853516 2.475116491317749 0.003921568859369
-4.474203109741211 15.473787307739258 2.922041177749634 0.003921568859369
-1.683958053588867 5.522075176239014 0.234264314174652 0.000000000000000
-4.971376895904541 20.208253860473633 3.780791282653809 0.003921568859369
-2.888927936553955 9.423036575317383 2.617919445037842 0.000000000000000
-1.510846257209778 3.821081161499023 0.119498752057552 0.000000000000000
-2.469627380371094 11.491413116455078 2.132108926773071 0.000000000000000
-3.490967988967896 17.353445053100586 3.215870857238770 0.003921568859369
-2.376999139785767 11.448276519775391 2.121236085891724 0.000000000000000
-1.933395743370056 11.858823776245117 2.182086706161499 0.000000000000000
-2.022243022918701 12.835558891296387 2.360455036163330 0.000000000000000
-1.616815209388733 10.954881668090820 2.011276960372925 0.000000000000000
-2.110630512237549 9.109240531921387 0.271702349185944 0.000000000000000
-1.363196372985840 13.220616340637207 2.416801691055298 0.000000000000000
-1.259832382202148 14.407820701599121 2.630719661712646 0.000000000000000
-0.759464919567108 12.072918891906738 2.201253652572632 0.000000000000000
-2.181911945343018 23.580881118774414 6.333843708038330 0.003921568859369
0.894255638122559 22.274400711059570 4.059721946716309 0.003921568859369
0.631173610687256 14.460827827453613 2.637952804565430 0.000000000000000
1.359441041946411 22.048286437988281 4.023661613464355 0.003921568859369
2.506267309188843 24.629421234130859 4.509771347045898 0.003921568859369
2.124290943145752 20.593183517456055 3.772524833679199 0.003921568859369
1.985170841217041 16.394214630126953 3.011415958404541 0.003921568859369
0.075699865818024 3.177908897399902 0.856956124305725 0.000000000000000
1.764483690261841 13.600295066833496 3.679455757141113 0.000000000000000
2.319155454635620 10.410391807556152 1.951026678085327 0.000000000000000
3.253177165985107 23.677875518798828 0.688355505466461 0.003921568859369
2.009841918945312 9.698923110961914 2.664105176925659 0.000000000000000
2.053536415100098 9.447592735290527 1.190617680549622 0.000000000000000
3.269251823425293 11.453186988830566 2.179026365280151 0.000000000000000
2.460418224334717 10.476015090942383 2.894396781921387 0.000000000000000
1.528358340263367 5.415109634399414 0.463611066341400 0.000000000000000
2.259765148162842 8.014435768127441 2.245249032974243 0.000000000000000
4.138586521148682 13.404925346374512 0.815801084041595 0.000000000000000
4.179972171783447 10.994029998779297 2.153896808624268 0.000000000000000
2.750164031982422 7.168387413024902 2.074612855911255 0.000000000000000
3.572519063949585 8.964821815490723 2.601864576339722 0.000000000000000
2.341467142105103 5.750780105590820 1.681926369667053 0.000000000000000
3.294754981994629 6.855203151702881 1.399723887443542 0.000000000000000
4.025727272033691 9.226080894470215 2.714398622512817 0.000000000000000
5.466794490814209 11.605557441711426 3.453608274459839 0.000000000000000
6.175343513488770 11.492807388305664 1.067523360252380 0.000000000000000
15.379454612731934 24.584278106689453 0.326625883579254 0.003921568859369
4.659945487976074 7.286386013031006 -0.818606019020081 0.000000000000000
4.845870971679688 7.399869918823242 0.101408794522285 0.000000000000000
4.798792839050293 7.114837169647217 -0.812679886817932 0.000000000000000
4.076199531555176 7.419512271881104 2.286806821823120 0.000000000000000
12.788586616516113 20.308017730712891 4.382557868957520 0.003921568859369
12.890595436096191 20.303461074829102 4.391844749450684 0.003921568859369
4.396356582641602 7.034685134887695 0.339214086532593 0.000000000000000
12.982784271240234 20.290817260742188 4.398984909057617 0.003921568859369
4.725065708160400 7.484313964843750 1.626921772956848 0.000000000000000
5.082739830017090 7.181552410125732 0.100965425372124 0.000000000000000
4.064874172210693 7.108624458312988 2.213371276855469 0.000000000000000
4.418422222137451 7.583106040954590 1.085200905799866 0.000000000000000
4.327902793884277 7.374291419982910 2.310525655746460 0.000000000000000
4.466505527496338 6.776859760284424 0.332074731588364 0.000000000000000
3.971469879150391 6.006559371948242 0.295147180557251 0.000000000000000
4.823658466339111 7.024378776550293 0.147971764206886 0.000000000000000
4.763607978820801 6.888390541076660 0.342500001192093 0.000000000000000
5.105905055999756 7.140637397766113 2.371659755706787 0.000000000000000
4.505862236022949 6.846951007843018 0.238814473152161 0.003921568859369
5.147122383117676 6.929027080535889 2.331465482711792 0.000000000000000
5.326436996459961 6.435883998870850 1.536244511604309 0.000000000000000
5.308413505554199 6.985276222229004 2.369708061218262 0.000000000000000
5.911269187927246 7.023216724395752 1.686622858047485 0.003921568859369
6.103989601135254 7.148465633392334 0.771865427494049 0.000000000000000
6.111876964569092 7.109779357910156 0.769916594028473 0.000000000000000
5.105016231536865 7.237108707427979 0.049826666712761 0.000000000000000
5.543510913848877 7.035636425018311 2.419315576553345 0.000000000000000
6.414133548736572 7.233839988708496 0.793422758579254 0.000000000000000
5.880134582519531 7.332754135131836 2.536322116851807 0.000000000000000
4.850821495056152 6.622780799865723 0.239234015345573 0.000000000000000
4.857735157012939 5.957028388977051 2.078219652175903 0.000000000000000
7.180906295776367 7.752624511718750 1.938853025436401 0.000000000000000
2.092194557189941 2.333386659622192 0.585931122303009 0.000000000000000
5.710989952087402 6.641702651977539 1.083108544349670 0.000000000000000
5.737509727478027 5.956453323364258 1.520007967948914 0.000000000000000
5.639297485351562 5.815666198730469 1.489204049110413 0.000000000000000
5.725468635559082 6.203087806701660 1.043849945068359 0.000000000000000
2.655069589614868 3.141434669494629 0.121146246790886 0.000000000000000
3.048880577087402 3.254831314086914 1.212777137756348 0.000000000000000
12.298617362976074 11.301460266113281 3.054646253585815 0.003921568859369
11.140932083129883 9.892621040344238 2.726518154144287 0.000000000000000
9.948214530944824 7.895861625671387 0.145858243107796 0.000000000000000
8.829831123352051 8.423166275024414 1.503875374794006 0.000000000000000
4.932307243347168 4.676613330841064 1.837545871734619 0.000000000000000
9.674602508544922 8.124042510986328 0.219128057360649 0.000000000000000
8.641712188720703 7.264625549316406 0.924977898597717 0.000000000000000
9.002039909362793 7.510878086090088 0.960341989994049 0.000000000000000
13.126080513000488 10.917647361755371 3.121623754501343 0.003921568859369
15.829144477844238 14.213027000427246 5.713130474090576 0.003921568859369
9.217913627624512 6.752703666687012 0.131549283862114 0.003921568859369
9.828704833984375 7.909532070159912 0.218838781118393 0.000000000000000
10.448700904846191 9.075241088867188 1.704103708267212 0.000000000000000
10.058416366577148 7.855649948120117 1.044648885726929 0.000000000000000
9.737406730651855 6.815684795379639 0.136957824230194 0.000000000000000
10.495107650756836 8.990501403808594 1.701665639877319 0.003921568859369
9.628128051757812 8.195315361022949 0.293330520391464 0.000000000000000
9.635064125061035 7.366162776947021 -0.073071680963039 0.000000000000000
10.321567535400391 7.886660099029541 0.529394149780273 0.000000000000000
5.919658660888672 5.028807640075684 2.096251487731934 0.000000000000000
5.787266731262207 4.448579788208008 1.341265559196472 0.000000000000000
9.495021820068359 7.207424163818359 0.976158499717712 0.003921568859369
9.795191764831543 7.379570007324219 -0.073895908892155 0.003921568859369
10.980736732482910 9.140427589416504 1.759074091911316 0.000000000000000
9.603153228759766 7.236011028289795 0.984595596790314 0.003921568859369
9.674945831298828 7.236751556396484 0.492630302906036 0.000000000000000
10.859110832214355 8.975838661193848 1.734742045402527 0.000000000000000
10.617746353149414 7.936155796051025 1.084884047508240 0.000000000000000
9.768406867980957 7.306006908416748 2.233419895172119 0.000000000000000
10.331791877746582 7.611936569213867 0.523070275783539 0.000000000000000
9.919479370117188 7.196739196777344 -0.073527567088604 0.003921568859369
7.305573940277100 5.881477832794189 1.156857609748840 0.000000000000000
10.052845001220703 8.014604568481445 1.583207368850708 0.000000000000000
11.062918663024902 7.961585521697998 1.115053772926331 0.000000000000000
7.478001117706299 5.397817134857178 1.690431714057922 0.000000000000000
10.033669471740723 7.069422721862793 1.004661440849304 0.000000000000000
9.794251441955566 7.590979099273682 1.526256918907166 0.000000000000000
9.280017852783203 7.040638446807861 0.679778158664703 0.003921568859369
14.304739952087402 10.824172019958496 4.818204402923584 0.003921568859369
10.030437469482422 7.495755672454834 1.542310476303101 0.000000000000000
10.419988632202148 6.962923049926758 0.217873916029930 0.000000000000000
9.955267906188965 6.654140949249268 0.979928493499756 0.000000000000000
10.140879631042480 6.726289749145508 -0.357289075851440 0.003921568859369
11.130043983459473 7.378499984741211 1.092302203178406 0.000000000000000
11.121589660644531 7.311476707458496 1.088728666305542 0.000000000000000
10.097055435180664 6.596108913421631 -0.354130476713181 0.000000000000000
9.858970642089844 7.918232440948486 0.072028480470181 0.000000000000000
9.861760139465332 6.391717433929443 0.204390272498131 0.000000000000000
9.889613151550293 6.360614776611328 0.962386667728424 0.000000000000000
10.951184272766113 6.987950801849365 0.529481828212738 0.000000000000000
10.510291099548340 7.398660182952881 0.749594032764435 0.003921568859369
10.826929092407227 6.697719573974609 0.221323266625404 0.003921568859369
10.632380485534668 6.578027248382568 0.509696900844574 0.000000000000000
10.318209648132324 7.106101036071777 1.542585611343384 0.000000000000000
15.779339790344238 8.632387161254883 0.207314372062683 0.003921568859369
10.868472099304199 6.668191432952881 0.221668317914009 0.000000000000000
10.295456886291504 7.034938812255859 0.727329611778259 0.000000000000000
10.598416328430176 6.503407478332520 0.506939768791199 0.000000000000000
10.518239974975586 7.186265468597412 1.568385362625122 0.000000000000000
9.946304321289062 6.689449310302734 -0.001378403394483 0.003921568859369
9.556052207946777 7.131508827209473 0.068176046013832 0.000000000000000
14.840960502624512 7.981184482574463 0.194606184959412 0.003921568859369
10.938447952270508 6.599953651428223 0.222241714596748 0.000000000000000
14.230163574218750 8.512739181518555 1.355120658874512 0.000000000000000
3.225498914718628 1.952572226524353 0.695013046264648 0.000000000000000
9.075020790100098 5.968949317932129 2.920327901840210 0.000000000000000
14.727210044860840 7.656572341918945 0.191708087921143 0.003921568859369
11.101522445678711 6.487773418426514 0.524101018905640 0.000000000000000
10.039011955261230 7.273793220520020 -0.508152365684509 0.003921568859369
14.953946113586426 7.714362621307373 0.194329828023911 0.003921568859369
9.611438751220703 6.767550468444824 0.067216239869595 0.000000000000000
10.450623512268066 6.559002399444580 0.286657005548477 0.003921568859369
15.657522201538086 8.629837989807129 0.728018999099731 0.003921568859369
3.342659235000610 2.299698591232300 0.118832170963287 0.000000000000000
14.741646766662598 8.062615394592285 0.292239427566528 0.003921568859369
9.933860778808594 6.679462432861328 0.068665519356728 0.003921568859369
15.398893356323242 8.209054946899414 0.710644185543060 0.003921568859369
15.631589889526367 8.332781791687012 1.447175502777100 0.000000000000000
12.882028579711914 6.870799064636230 2.666882038116455 0.000000000000000
9.878938674926758 6.545326709747314 0.067980609834194 0.003921568859369
15.657897949218750 8.283621788024902 0.721360862255096 0.003921568859369
15.579917907714844 7.290380477905273 -0.603650391101837 0.003921568859369
14.775982856750488 7.752250671386719 0.290227591991425 0.003921568859369
14.824254035949707 7.711533546447754 0.290643692016602 0.003921568859369
10.460362434387207 6.772227764129639 0.362472891807556 0.000000000000000
14.911541938781738 7.690694808959961 0.291822642087936 0.003921568859369
15.529288291931152 7.069142341613770 -0.997492492198944 0.003921568859369
15.646242141723633 7.053025245666504 0.198528364300728 0.003921568859369
15.815844535827637 8.082498550415039 1.451075315475464 0.000000000000000
15.239327430725098 8.683444976806641 1.021737694740295 0.000000000000000
15.811937332153320 8.010922431945801 1.448150396347046 0.000000000000000
15.656076431274414 7.932158946990967 3.204652786254883 0.003921568859369
14.805332183837891 7.440530300140381 0.288216322660446 0.003921568859369
16.037067413330078 7.022920131683350 0.202835589647293 0.003921568859369
14.863967895507812 7.396715641021729 0.289040476083755 0.003921568859369
15.781010627746582 7.852144241333008 1.439812183380127 0.003921568859369
15.017582893371582 7.410894870758057 0.291541397571564 0.003921568859369
15.943232536315918 7.866775989532471 0.724075675010681 0.003921568859369
15.667482376098633 7.730970859527588 1.427132844924927 0.000000000000000
15.633463859558105 7.646400928497314 1.421605825424194 0.000000000000000
7.293762207031250 3.575221300125122 1.485387325286865 0.000000000000000
16.915185928344727 7.126633167266846 0.212636515498161 0.003921568859369
15.431408882141113 7.411231517791748 0.697265446186066 0.003921568859369
16.884576797485352 7.044370174407959 0.211943581700325 0.003921568859369
15.759508132934570 8.469847679138184 1.042141437530518 0.000000000000000
15.418696403503418 7.338929176330566 1.394946575164795 0.000000000000000
15.546853065490723 7.333284378051758 -0.502332687377930 0.000000000000000
15.250088691711426 8.128040313720703 0.401445746421814 0.000000000000000
16.946939468383789 6.935131072998047 0.212129339575768 0.003921568859369
17.026668548583984 6.898318767547607 0.212823197245598 0.003921568859369
16.984270095825195 7.868959426879883 1.528895735740662 0.000000000000000
15.545952796936035 8.080763816833496 0.407008260488510 0.000000000000000
17.173173904418945 6.887810707092285 0.214349105954170 0.003921568859369
14.496358871459961 8.329466819763184 0.486088305711746 0.003921568859369
15.251882553100586 6.877619266510010 0.681505441665649 0.003921568859369
15.159366607666016 6.835984706878662 1.358534574508667 0.000000000000000
14.517953872680664 8.268796920776367 0.485919296741486 0.003921568859369
15.488039970397949 6.914384841918945 1.385287880897522 0.000000000000000
15.678391456604004 6.933665752410889 0.298705548048019 0.003921568859369
15.529117584228516 7.728830814361572 -0.000860663247295 0.003921568859369
15.417503356933594 7.673352241516113 0.400296032428741 0.000000000000000
15.849058151245117 6.942951679229736 0.301489055156708 0.003921568859369
15.431903839111328 6.760442256927490 0.686308383941650 0.003921568859369
15.145653724670410 7.475608348846436 -0.000834686914459 0.003921568859369
16.644794464111328 7.225346088409424 -0.106471672654152 0.000000000000000
15.439277648925781 7.620344638824463 0.400203257799149 0.000000000000000
14.787596702575684 8.221527099609375 0.492074072360992 0.003921568859369
14.360354423522949 6.234893321990967 2.856942176818848 0.000000000000000
15.510810852050781 7.584982395172119 -0.000856004538946 0.003921568859369
16.275592803955078 7.958488941192627 0.421088993549347 0.000000000000000
15.548506736755371 6.682356357574463 0.689398288726807 0.003921568859369
14.828502655029297 8.105776786804199 0.491493254899979 0.003921568859369
15.557024955749512 6.621713161468506 0.688748061656952 0.003921568859369
14.755139350891113 6.280837535858154 1.309835195541382 0.000000000000000
15.689352989196777 8.504677772521973 0.102935127913952 0.003921568859369
12.041697502136230 4.397269725799561 -0.748265564441681 0.000000000000000
5.940087318420410 2.509071111679077 0.263217598199844 0.000000000000000
15.763277053833008 8.477145195007324 0.103234320878983 0.003921568859369
16.295211791992188 6.804774284362793 0.719317853450775 0.003921568859369
15.249059677124023 6.309081554412842 1.347887873649597 0.000000000000000
15.457797050476074 7.230608463287354 0.396676450967789 0.003921568859369
15.554311752319336 8.155929565429688 0.510771274566650 0.003921568859369
16.587852478027344 6.723534107208252 0.729074895381927 0.003921568859369
10.916187286376953 5.062521934509277 3.228468656539917 0.000000000000000
4.925070285797119 2.224131107330322 1.450331211090088 0.000000000000000
14.294568061828613 5.559898376464844 2.797782897949219 0.000000000000000
15.582880020141602 6.890306949615479 0.396261960268021 0.003921568859369
15.780262947082520 6.918320655822754 0.400723129510880 0.000000000000000
19.021495819091797 7.168672084808350 3.707401275634766 0.003921568859369
16.245765686035156 7.942533493041992 0.526087105274200 0.003921568859369
6.805595874786377 2.167276382446289 -0.416645497083664 0.000000000000000
2.027319192886353 0.759293854236603 0.088580809533596 0.000000000000000
14.454551696777344 6.211487770080566 1.932464241981506 0.000000000000000
16.801984786987305 7.157069206237793 -0.000455446977867 0.003921568859369
14.389975547790527 6.130250453948975 1.921254873275757 0.000000000000000
13.807977676391602 5.100485324859619 2.685157775878906 0.000000000000000
16.263422012329102 6.857456207275391 0.410482227802277 0.003921568859369
15.625411033630371 7.440982341766357 0.100209757685661 0.000000000000000
14.613010406494141 6.101967334747314 1.945135951042175 0.003921568859369
15.544126510620117 7.402297973632812 -0.702220380306244 0.003921568859369
16.392200469970703 6.777282238006592 0.412527143955231 0.000000000000000
15.771501541137695 7.443068981170654 0.507371306419373 0.003921568859369
16.307390213012695 5.826446056365967 1.414014458656311 0.003921568859369
14.701969146728516 6.021849632263184 1.951472043991089 0.003921568859369
16.601028442382812 5.869256973266602 1.437764883041382 0.003921568859369
15.193861961364746 6.154147624969482 2.012794256210327 0.003921568859369
16.673791885375977 5.822749137878418 1.441778540611267 0.000000000000000
15.467250823974609 7.104334354400635 0.495353579521179 0.003921568859369
16.731899261474609 6.716009140014648 1.049990773200989 0.000000000000000
16.730422973632812 6.644317150115967 1.048362970352173 0.003921568859369
15.228018760681152 6.047652721405029 2.011819362640381 0.003921568859369
16.675466537475586 6.555199623107910 1.043479204177856 0.000000000000000
15.449535369873047 6.901203155517578 0.492444574832916 0.003921568859369
8.178530693054199 2.731736183166504 0.150509551167488 0.000000000000000
6.327344894409180 2.086446285247803 0.271436184644699 0.000000000000000
15.358234405517578 5.910859107971191 2.020593881607056 0.003921568859369
16.640514373779297 6.142318248748779 1.033014297485352 0.000000000000000
15.244594573974609 5.627058982849121 1.995245218276978 0.003921568859369
9.471314430236816 2.477691411972046 -0.341875463724136 0.000000000000000
7.460420608520508 2.694748878479004 2.125422239303589 0.000000000000000
16.249929428100586 4.009947299957275 -0.973776936531067 0.003921568859369
5.834236621856689 1.744022846221924 0.496430724859238 0.000000000000000
2.339716196060181 0.814482748508453 0.000006835965905 0.000000000000000
16.580232620239258 6.718349456787109 0.520815551280975 0.003921568859369
16.155185699462891 3.926806211471558 -0.967268884181976 0.003921568859369
8.357410430908203 2.030241489410400 -0.299821078777313 0.000000000000000
2.316081523895264 0.797197818756104 0.000006013069651 0.000000000000000
16.161027908325195 3.868568658828735 -0.966804444789886 0.003921568859369
16.719623565673828 6.639414787292480 0.523727118968964 0.003921568859369
16.158887863159180 3.808496713638306 -0.965875029563904 0.003921568859369
8.975550651550293 2.582667827606201 1.701332092285156 0.000000000000000
7.729681968688965 2.606955289840698 0.000166597936186 0.003921568859369
16.133836746215820 3.740262031555176 -0.963550865650177 0.003921568859369
9.636709213256836 2.734964132308960 0.407940715551376 0.000000000000000
16.142261505126953 3.685879468917847 -0.963318824768066 0.003921568859369
17.696367263793945 4.961381435394287 3.349625110626221 0.003921568859369
16.134914398193359 3.627982616424561 -0.962157070636749 0.003921568859369
16.148103713989258 3.568861722946167 -0.962157487869263 0.003921568859369
3.998359918594360 1.088844656944275 -0.216618478298187 0.000000000000000
16.148143768310547 3.512773990631104 -0.961460530757904 0.003921568859369
16.148595809936523 3.453908681869507 -0.960763633251190 0.003921568859369
5.660430431365967 1.779398918151855 0.000103454192868 0.000000000000000
16.129289627075195 3.390979766845703 -0.958904385566711 0.003921568859369
6.751571178436279 1.766086459159851 1.270779848098755 0.000000000000000
16.174488067626953 3.339537620544434 -0.959909915924072 0.003921568859369
3.781021118164062 1.359981894493103 -0.069708906114101 0.000000000000000
16.162567138671875 3.278354406356812 -0.958516776561737 0.003921568859369
16.213075637817383 3.229801416397095 -0.960841119289398 0.003921568859369
7.171787738800049 2.142901897430420 0.174021780490875 0.000000000000000
3.655334234237671 1.285908699035645 -0.247039496898651 0.000000000000000
16.220333099365234 3.172485589981079 -0.960609674453735 0.003921568859369
9.315196990966797 2.785131454467773 0.565529108047485 0.000000000000000
8.607744216918945 2.122030258178711 1.613249659538269 0.000000000000000
10.546548843383789 2.023258447647095 0.125252753496170 0.000000000000000
16.219541549682617 3.113658428192139 -0.959913492202759 0.003921568859369
8.761312484741211 3.026934623718262 -0.161073654890060 0.000000000000000
9.572387695312500 2.293307065963745 -0.285483717918396 0.000000000000000
16.260635375976562 3.068677663803101 -0.961773157119751 0.003921568859369
9.246986389160156 1.743439435958862 -0.327528387308121 0.000000000000000
16.291404724121094 3.012770891189575 -0.962935745716095 0.003921568859369
16.352901458740234 2.965231180191040 -0.965957045555115 0.003921568859369
16.488445281982422 2.933465242385864 -0.973392844200134 0.003921568859369
16.695274353027344 2.910285472869873 -0.985010862350464 0.003921568859369
5.221104621887207 1.421877384185791 0.000175205030246 0.000000000000000
13.022541999816895 2.880201816558838 -0.697344541549683 0.000000000000000
14.308219909667969 3.164942741394043 2.668971300125122 0.000000000000000
9.231435775756836 1.972579121589661 0.164850816130638 0.000000000000000
10.788344383239746 2.306339979171753 0.448988586664200 0.000000000000000
4.393182277679443 0.935348153114319 0.813798189163208 0.000000000000000
3.693156242370605 0.771257400512695 0.305726468563080 0.000000000000000
7.682538032531738 1.977628231048584 0.000471351842862 0.000000000000000
8.151750564575195 1.653850793838501 -0.676132559776306 0.000000000000000
6.779039859771729 1.696481347084045 -0.486229360103607 0.000000000000000
14.851836204528809 2.964323282241821 0.616873979568481 0.000000000000000
10.496683120727539 2.630968093872070 -0.502011775970459 0.000000000000000
16.467166900634766 4.131689548492432 2.082263469696045 0.003921568859369
8.130798339843750 1.212095022201538 -0.285560697317123 0.000000000000000
9.255421638488770 1.347448587417603 0.109107717871666 0.000000000000000
9.633075714111328 2.339184999465942 -0.690513610839844 0.000000000000000
6.172104358673096 1.181641697883606 0.255153268575668 0.000000000000000
8.051608085632324 1.517122149467468 -0.046967014670372 0.000000000000000
15.522641181945801 3.722180366516113 4.270613193511963 0.003921568859369
9.772638320922852 2.304839611053467 -0.699433147907257 0.000000000000000
10.859355926513672 2.561882495880127 1.367134690284729 0.000000000000000
12.113763809204102 2.723122596740723 1.521766424179077 0.000000000000000
4.343667030334473 0.735617876052856 -0.126841619610786 0.000000000000000
7.401441574096680 1.231843948364258 -0.042819041758776 0.000000000000000
12.311791419982910 2.053496837615967 1.016854882240295 0.000000000000000
6.546303272247314 1.066588521003723 -0.191415220499039 0.000000000000000
9.473226547241211 2.023991584777832 0.000811891630292 0.003921568859369
5.533946037292480 0.900615930557251 0.227175846695900 0.000000000000000
13.214993476867676 1.454475879669189 -0.153153136372566 0.000000000000000
15.005146026611328 1.604528903961182 -0.173871546983719 0.000000000000000
6.916640758514404 1.079295039176941 -0.567745447158813 0.000000000000000
8.002408027648926 1.622812271118164 0.473893880844116 0.000000000000000
7.244979381561279 1.442279338836670 0.000556168961339 0.000000000000000
7.533981323242188 1.122608423233032 0.309292882680893 0.000000000000000
6.100335597991943 1.499765038490295 -0.399675130844116 0.000000000000000
7.372135162353516 1.069592237472534 0.302434921264648 0.000000000000000
8.493445396423340 1.233122706413269 1.558310866355896 0.000000000000000
8.924869537353516 0.827300608158112 0.104579329490662 0.000000000000000
7.415025711059570 1.052198410034180 0.304066658020020 0.000000000000000
10.579910278320312 0.981430768966675 -0.368785679340363 0.000000000000000
8.497278213500977 1.206560254096985 1.558309793472290 0.000000000000000
13.778715133666992 2.600805282592773 1.718173146247864 0.000000000000000
9.087040901184082 1.678354144096375 0.214868813753128 0.000000000000000
12.712372779846191 1.088564395904541 0.149165794253349 0.000000000000000
9.409360885620117 2.216520786285400 -0.391439974308014 0.000000000000000
8.733862876892090 0.716238439083099 0.102226011455059 0.000000000000000
17.349996566772461 2.281773328781128 3.185061216354370 0.003921568859369
10.006550788879395 1.278922677040100 0.176256254315376 0.000000000000000
8.215185165405273 1.018431544303894 -0.238682791590691 0.000000000000000
6.039194583892822 1.046318531036377 0.000516953412443 0.000000000000000
14.896712303161621 3.348491907119751 0.090244472026825 0.000000000000000
15.174359321594238 1.886418938636780 0.267771929502487 0.000000000000000
11.415325164794922 2.523736476898193 -0.201922744512558 0.000000000000000
12.621712684631348 0.905504107475281 -0.438811689615250 0.000000000000000
10.480757713317871 0.714686989784241 -0.120661690831184 0.000000000000000
6.115520000457764 1.302508473396301 0.036600343883038 0.000000000000000
7.848591327667236 0.891222357749939 0.320532321929932 0.000000000000000
12.590753555297852 2.058058977127075 -0.294309407472610 0.000000000000000
8.259986877441406 0.910650789737701 0.675137996673584 0.000000000000000
16.191539764404297 1.733448028564453 0.663258254528046 0.003921568859369
6.282128334045410 0.339669853448868 -0.362983316183090 0.000000000000000
8.341816902160645 1.271687150001526 1.030862689018250 0.000000000000000
14.603061676025391 1.508896470069885 1.196061134338379 0.000000000000000
8.286358833312988 1.648721814155579 0.049660470336676 0.000000000000000
10.788165092468262 1.075477600097656 0.882134318351746 0.000000000000000
12.972464561462402 1.889712572097778 0.001449014991522 0.000000000000000
8.081842422485352 1.174427509307861 2.175899267196655 0.000000000000000
4.001948833465576 0.381844997406006 0.724148809909821 0.000000000000000
14.163014411926270 2.725334882736206 -0.249241933226585 0.000000000000000
11.088707923889160 0.988939821720123 0.905925273895264 0.000000000000000
12.765398979187012 2.407143354415894 -0.525784373283386 0.000000000000000
7.977091312408447 1.074579238891602 0.186835601925850 0.000000000000000
5.761794090270996 0.773882210254669 0.335670173168182 0.000000000000000
8.620268821716309 1.161757707595825 2.315898656845093 0.000000000000000
2.443571805953979 0.434426546096802 0.070542052388191 0.000000000000000
5.482801437377930 0.429583579301834 -0.031129149720073 0.000000000000000
4.773491859436035 0.606290996074677 -0.331926137208939 0.000000000000000
9.093485832214355 1.129908919334412 0.001090371399187 0.003921568859369
8.122820854187012 1.008484840393066 0.190016344189644 0.000000000000000
6.148639202117920 1.065862417221069 0.180534154176712 0.000000000000000
9.064656257629395 0.650139927864075 -0.261697053909302 0.000000000000000
16.629762649536133 2.841133594512939 0.100077666342258 0.000000000000000
6.696385860443115 0.479093581438065 0.543865025043488 0.000000000000000
5.776008605957031 0.392637699842453 -0.166217654943466 0.000000000000000
6.470801353454590 0.756394743919373 0.793301343917847 0.000000000000000
17.504148483276367 1.137084841728210 0.307505786418915 0.003921568859369
11.243685722351074 1.280025243759155 0.657004237174988 0.000000000000000
14.664686203002930 1.671674609184265 -0.682773649692535 0.000000000000000
7.030369281768799 0.432367622852325 -0.039867565035820 0.000000000000000
9.217977523803711 1.018997311592102 1.132535815238953 0.000000000000000
8.170284271240234 0.106111668050289 -0.282373785972595 0.000000000000000
12.182923316955566 1.904809713363647 0.072943560779095 0.000000000000000
7.663299560546875 1.194649934768677 0.224875390529633 0.000000000000000
13.973199844360352 1.445023298263550 0.327353656291962 0.000000000000000
11.937908172607422 0.649463772773743 -0.621941149234772 0.000000000000000
15.038580894470215 0.086185067892075 -0.521161913871765 0.000000000000000
21.881219863891602 3.280488491058350 0.645401895046234 0.003921568859369
15.866063117980957 0.814316272735596 1.294162154197693 0.000000000000000
10.259844779968262 0.991030335426331 0.001256649382412 0.003921568859369
2.569558143615723 0.120507024228573 -0.131655976176262 0.000000000000000
7.239538669586182 -0.006325709633529 -0.249997541308403 0.000000000000000
6.010638713836670 0.285686582326889 1.086814522743225 0.000000000000000
9.150499343872070 0.404245615005493 0.743260383605957 0.000000000000000
7.513369083404541 0.305350124835968 0.304430842399597 0.000000000000000
14.135000228881836 0.576974511146545 1.151306986808777 0.000000000000000
12.489488601684570 1.075415611267090 1.532547950744629 0.000000000000000
3.305088996887207 0.428736835718155 -0.056781653314829 0.000000000000000
12.430511474609375 0.420722842216492 -0.070082888007164 0.000000000000000
6.700994491577148 0.225672930479050 0.116580329835415 0.000000000000000
11.733346939086914 0.396944731473923 0.477134287357330 0.000000000000000
8.529787063598633 0.258375674486160 -0.048098944127560 0.000000000000000
15.665898323059082 1.240905880928040 0.913601338863373 0.000000000000000
12.263551712036133 0.372476309537888 -0.637571275234222 0.000000000000000
10.777605056762695 -0.196334779262543 -0.372533023357391 0.000000000000000
6.450540542602539 0.172560021281242 0.112133130431175 0.000000000000000
16.426416397094727 0.388209134340286 -0.473650068044662 0.000000000000000
14.458798408508301 1.756396889686584 0.086528986692429 0.000000000000000
3.228652715682983 0.229680523276329 0.073849022388458 0.000000000000000
15.273488998413086 1.052326679229736 0.002359867328778 0.000000000000000
11.557728767395020 0.232473105192184 0.202190220355988 0.000000000000000
17.619579315185547 0.906714439392090 0.411843270063400 0.000000000000000
11.261871337890625 1.127842664718628 -0.455983251333237 0.000000000000000
9.487873077392578 -0.039572823792696 0.384711831808090 0.000000000000000
18.432435989379883 -0.141165599226952 0.323568612337112 0.003921568859369
6.790999889373779 0.605961501598358 -0.273596882820129 0.000000000000000
12.701778411865234 -0.141105741262436 -0.365303158760071 0.000000000000000
7.653019428253174 -0.084739588201046 0.309597104787827 0.000000000000000
17.498128890991211 -0.255907863378525 3.179275035858154 0.003921568859369
11.090464591979980 0.376693069934845 -0.254580169916153 0.000000000000000
25.806394577026367 0.700235247612000 1.503616452217102 0.003921568859369
6.349403381347656 -0.135861754417419 0.512712001800537 0.000000000000000
2.371457338333130 0.046320855617523 0.133467480540276 0.000000000000000
3.637386322021484 0.071862317621708 0.953728675842285 0.000000000000000
8.903598785400391 -0.283555835485458 -0.255659192800522 0.000000000000000
2.371605157852173 0.038321230560541 0.133466675877571 0.000000000000000
10.573307037353516 0.104145742952824 0.001852484885603 0.003921568859369
8.401143074035645 -0.731650769710541 -0.095873042941093 0.000000000000000
23.945163726806641 -0.929757356643677 4.357700824737549 0.003921568859369
3.001310348510742 0.161162853240967 0.017082050442696 0.000000000000000
6.922178268432617 0.043906688690186 0.839962422847748 0.000000000000000
8.818328857421875 0.452696472406387 0.255861073732376 0.000000000000000
6.580865859985352 0.019051274284720 0.797958731651306 0.000000000000000
6.394062519073486 -0.289761126041412 0.516054451465607 0.000000000000000
19.753599166870117 -0.972200751304626 -0.569149374961853 0.000000000000000
10.904296875000000 0.523132264614105 -0.439127355813980 0.000000000000000
5.787243843078613 0.255631119012833 -0.098768457770348 0.000000000000000
7.174793243408203 -0.375164479017258 0.124864749610424 0.000000000000000
10.933518409729004 -0.081537082791328 0.001912850188091 0.003921568859369
9.365892410278320 0.383747458457947 0.271802961826324 0.000000000000000
21.720275878906250 -0.162738129496574 1.264116644859314 0.003921568859369
7.975509643554688 -0.059288829565048 -0.182257935404778 0.000000000000000
12.332790374755859 -0.134970232844353 1.505605578422546 0.000000000000000
7.204673290252686 -0.128037810325623 0.001058123307303 0.000000000000000
14.977299690246582 0.355842024087906 0.089435964822769 0.000000000000000
6.465260028839111 0.152336984872818 0.186520040035248 0.000000000000000
14.581620216369629 -1.072186589241028 1.188922166824341 0.000000000000000
2.671975135803223 -0.191124469041824 0.472117245197296 0.000000000000000
16.128101348876953 0.327383130788803 -0.276862651109695 0.003921568859369
15.875377655029297 -1.275233507156372 1.295288681983948 0.000000000000000
14.320375442504883 0.193429082632065 -0.245225295424461 0.000000000000000
8.998806953430176 0.120994180440903 0.053387753665447 0.000000000000000
8.583353042602539 0.115317508578300 0.248476311564445 0.000000000000000
