# This PCD file was generated using the MATLAB® pcwrite function
# from Computer Vision Toolbox®.
# .PCD v.7 - Point Cloud Data file format
VERSION .7
FIELDS x y z intensity
SIZE 8 8 8 8
TYPE F F F F
COUNT 1 1 1 1
WIDTH 647
HEIGHT 1
VIEWPOINT 0 0 0 1 0 0 0
POINTS 647
DATA ascii
-8.911602020263672 0.032124143093824 -0.209711611270905 0.000000000000000
-17.821802139282227 0.127218544483185 2.067895174026489 0.003921568859369
-6.757931709289551 0.065401926636696 0.734859049320221 0.000000000000000
-22.983022689819336 1.334932565689087 4.025402069091797 0.003921568859369
-17.820478439331055 0.246949866414070 2.067955255508423 0.003921568859369
-19.435167312622070 2.178380966186523 -0.700581133365631 0.003921568859369
-17.074367523193359 1.968350529670715 -0.997994124889374 0.003921568859369
-18.783721923828125 2.173257827758789 -0.676490187644958 0.003921568859369
-19.390054702758789 1.319864392280579 3.379926919937134 0.003921568859369
-6.921041011810303 0.461438477039337 -0.049567732959986 0.000000000000000
-9.047353744506836 1.032833933830261 -0.509526848793030 0.000000000000000
-4.555462360382080 0.286094427108765 0.310468584299088 0.000000000000000
-18.443172454833984 2.192206382751465 -0.663982152938843 0.003921568859369
-16.815002441406250 2.048824548721313 -0.982948720455170 0.003921568859369
-18.066617965698242 2.207432508468628 -0.650137603282928 0.003921568859369
-10.612234115600586 0.768395543098450 1.796741366386414 0.000000000000000
-11.295160293579102 0.859904825687408 -0.084831215441227 0.000000000000000
-17.053218841552734 2.137224197387695 -0.997865915298462 0.003921568859369
-17.702077865600586 2.221605062484741 -0.636739790439606 0.003921568859369
-4.857392787933350 0.352159202098846 -0.130897194147110 0.000000000000000
-16.650295257568359 2.138573646545410 -0.973695099353790 0.003921568859369
-20.425470352172852 1.665308952331543 0.764606714248657 0.003921568859369
-8.171369552612305 0.263076215982437 0.905775189399719 0.000000000000000
-17.377662658691406 2.235658168792725 -0.624829053878784 0.003921568859369
-16.547796249389648 2.181313991546631 -0.967860877513885 0.003921568859369
-17.551198959350586 0.653487086296082 0.946798980236053 0.000000000000000
-16.296583175659180 2.146495103836060 -0.584586799144745 0.003921568859369
-17.193218231201172 2.330009698867798 -0.618184328079224 0.003921568859369
-12.394523620605469 0.493532598018646 3.121118783950806 0.000000000000000
-17.188938140869141 2.388293504714966 -0.618287324905396 0.003921568859369
-3.873827934265137 0.303530424833298 0.582870841026306 0.000000000000000
-17.283304214477539 2.461221694946289 -0.622093439102173 0.003921568859369
-9.422481536865234 0.032740212976933 -0.171702176332474 0.000000000000000
-17.242988586425781 2.514455080032349 -0.620861947536469 0.003921568859369
-5.563161849975586 0.034764017909765 -0.095727339386940 0.000000000000000
-11.049667358398438 1.094586253166199 0.831212699413300 0.000000000000000
-17.147205352783203 2.558847665786743 -0.617556571960449 0.003921568859369
-9.194101333618164 0.089965961873531 -0.167187064886093 0.000000000000000
-8.660000801086426 0.475283116102219 0.967446625232697 0.000000000000000
-5.615384578704834 0.051654491573572 -0.212250798940659 0.000000000000000
-17.083356857299805 2.604755401611328 -0.615438461303711 0.003921568859369
-7.174537181854248 0.387351244688034 -0.165455907583237 0.000000000000000
-16.059709548950195 0.217352360486984 -0.302303642034531 0.000000000000000
-17.101779937744141 2.666567087173462 -0.616428017616272 0.003921568859369
-14.213681221008301 2.246604681015015 -0.508275091648102 0.000000000000000
-19.536605834960938 2.254788160324097 -0.593623578548431 0.000000000000000
-18.494544982910156 2.130559444427490 -0.979568541049957 0.003921568859369
-7.151180744171143 1.098767995834351 -0.243176043033600 0.000000000000000
-4.098531723022461 0.083417221903801 -0.066887766122818 0.000000000000000
-19.151647567749023 2.274297714233398 -0.581701576709747 0.000000000000000
-18.039045333862305 2.137693405151367 -0.954893410205841 0.003921568859369
-17.092636108398438 2.842057704925537 -0.617024064064026 0.003921568859369
-18.659688949584961 2.277590274810791 -0.566406607627869 0.000000000000000
-17.686744689941406 2.154718160629272 -0.935886800289154 0.003921568859369
-17.062927246093750 2.895942687988281 -0.616234779357910 0.003921568859369
-18.203624725341797 2.282115936279297 -0.552238345146179 0.000000000000000
-17.918161392211914 2.244658470153809 -0.137773066759109 0.000000000000000
-16.042816162109375 1.239894270896912 0.326300412416458 0.000000000000000
-10.886911392211914 0.823659360408783 0.576093137264252 0.000000000000000
-17.500885009765625 2.190957546234131 -0.926034927368164 0.003921568859369
-17.084182739257812 2.958867788314819 -0.617369711399078 0.003921568859369
-17.931848526000977 2.309504747390747 -0.543546915054321 0.000000000000000
-6.988199234008789 0.846483409404755 -0.348028600215912 0.000000000000000
-17.051881790161133 3.014082908630371 -0.616269469261169 0.003921568859369
-17.824655532836914 2.356242895126343 -0.540381789207458 0.000000000000000
-8.272847175598145 0.667281270027161 0.430255889892578 0.000000000000000
-16.782636642456055 2.213510036468506 -0.887205719947815 0.003921568859369
-17.331989288330078 3.125827550888062 -0.627162754535675 0.003921568859369
-9.156947135925293 0.357312351465225 -0.166328325867653 0.000000000000000
-16.359411239624023 2.211048603057861 -0.494415640830994 0.000000000000000
-8.258533477783203 0.692807793617249 0.429601162672043 0.000000000000000
-16.347663879394531 2.209676742553711 -0.863645255565643 0.000000000000000
-17.010799407958984 3.124801397323608 -0.615431189537048 0.003921568859369
-7.845892429351807 0.655555188655853 -0.182864546775818 0.000000000000000
-17.708854675292969 2.461835384368896 -0.537170946598053 0.000000000000000
-16.786548614501953 2.328973531723022 -0.888208568096161 0.003921568859369
-17.309753417968750 3.242245912551880 -0.627061069011688 0.003921568859369
-7.238729000091553 0.949157595634460 1.200810194015503 0.000000000000000
-17.656646728515625 2.514948844909668 -0.535752415657043 0.000000000000000
-16.972894668579102 3.235867261886597 -0.614739179611206 0.003921568859369
-18.436676025390625 1.743975758552551 4.749792098999023 0.003921568859369
-17.620086669921875 2.570127010345459 -0.534832656383514 0.000000000000000
-2.887031078338623 0.116435378789902 0.009037832729518 0.000000000000000
-14.705581665039062 0.738463759422302 0.380093634128571 0.000000000000000
-17.122138977050781 3.325285673141479 -0.620749115943909 0.003921568859369
-17.580318450927734 2.618549585342407 -0.533792614936829 0.000000000000000
-17.658124923706055 2.630906820297241 -0.937502443790436 0.003921568859369
-17.142932891845703 3.383458375930786 -0.621885061264038 0.003921568859369
-10.811907768249512 1.063950300216675 2.716338634490967 0.000000000000000
-17.531112670898438 2.674345016479492 -0.532495796680450 0.000000000000000
-17.608915328979492 2.686995983123779 -0.935275614261627 0.003921568859369
-17.216497421264648 3.461896419525146 -0.625081717967987 0.003921568859369
-5.831938266754150 0.838857710361481 -0.163029000163078 0.000000000000000
-16.181144714355469 1.741796970367432 0.331347554922104 0.000000000000000
-19.588544845581055 2.125108480453491 -0.927690207958221 0.000000000000000
-17.666454315185547 2.757061481475830 -0.938928723335266 0.003921568859369
-17.251222610473633 3.529699325561523 -0.626802206039429 0.003921568859369
-17.519910812377930 2.793473958969116 -0.532649874687195 0.000000000000000
-9.072566986083984 0.973656773567200 0.476781964302063 0.000000000000000
-18.922193527221680 2.114929914474487 -0.895337939262390 0.000000000000000
-14.650551795959473 1.618558526039124 1.701451182365417 0.000000000000000
-17.482955932617188 2.844753503799438 -0.531731069087982 0.000000000000000
-18.561996459960938 2.133454799652100 -0.877975165843964 0.000000000000000
-17.226806640625000 3.642653942108154 -0.626697361469269 0.003921568859369
-17.480293273925781 2.907806634902954 -0.531929254531860 0.000000000000000
-15.497989654541016 1.090063095092773 0.055356182157993 0.000000000000000
-18.109924316406250 2.144530534744263 -0.856133580207825 0.000000000000000
-17.225040435791016 3.706019163131714 -0.627083420753479 0.003921568859369
-19.327596664428711 2.293848991394043 -0.477038979530334 0.000000000000000
-17.468332290649414 2.965056657791138 -0.531508207321167 0.000000000000000
-17.696249008178711 2.152439594268799 -0.835992157459259 0.000000000000000
-17.159688949584961 3.751291036605835 -0.624802768230438 0.003921568859369
-18.940835952758789 2.309267520904541 -0.466864734888077 0.000000000000000
-17.457345962524414 3.026733875274658 -0.531457185745239 0.000000000000000
-7.847982406616211 0.935355842113495 0.409229010343552 0.000000000000000
-17.391099929809570 2.176337003707886 -0.821365416049957 0.000000000000000
-18.856899261474609 2.366554260253906 -0.464890658855438 0.000000000000000
-9.060711860656738 0.706605255603790 -0.164546057581902 0.000000000000000
-17.442743301391602 3.084715127944946 -0.531283676624298 0.000000000000000
-16.674448013305664 3.762346506118774 -0.991525173187256 0.003921568859369
-16.951742172241211 2.177176237106323 -0.800131916999817 0.000000000000000
-17.463304519653320 3.149253129959106 -0.532230138778687 0.000000000000000
-16.680631637573242 3.822944402694702 -0.992674171924591 0.003921568859369
-16.852998733520508 2.221641540527344 -0.795618772506714 0.000000000000000
-18.667438507080078 3.375079154968262 -0.997976005077362 0.003921568859369
-18.582414627075195 2.458411931991577 -0.458210647106171 0.000000000000000
-17.469032287597656 3.205099105834961 -0.532683134078979 0.000000000000000
-16.327627182006836 2.199870109558105 -0.770115435123444 0.000000000000000
-18.538957595825195 2.509784698486328 -0.457256913185120 0.000000000000000
-17.499767303466797 3.278109312057495 -0.533996820449829 0.000000000000000
-16.758232116699219 3.960605859756470 -0.999059081077576 0.003921568859369
-17.932441711425781 2.492774724960327 -0.849378049373627 0.000000000000000
-14.891484260559082 2.768208503723145 2.618172645568848 0.000000000000000
-18.446071624755859 2.566527605056763 -0.455077648162842 0.000000000000000
-13.734603881835938 1.283878803253174 -0.256514370441437 0.000000000000000
-17.507825851440430 3.340843915939331 -0.534568071365356 0.000000000000000
-17.895967483520508 2.549053430557251 -0.847971618175507 0.000000000000000
-17.690790176391602 3.377442359924316 -0.945630490779877 0.003921568859369
-18.393486022949219 2.622254848480225 -0.453916162252426 0.000000000000000
-17.535842895507812 3.404677629470825 -0.535763680934906 0.000000000000000
-17.165880203247070 4.179528713226318 -0.231372818350792 0.003921568859369
-17.926921844482422 2.612253665924072 -0.849871456623077 0.000000000000000
-17.601186752319336 3.418201446533203 -0.941232621669769 0.003921568859369
-18.353059768676758 2.676349401473999 -0.453060716390610 0.000000000000000
-17.593744277954102 3.481073617935181 -0.537948906421661 0.000000000000000
-17.668489456176758 2.637080192565918 -0.837578356266022 0.000000000000000
-17.510292053222656 3.464291334152222 -0.936829626560211 0.003921568859369
-12.050492286682129 2.340480089187622 2.101055860519409 0.000000000000000
-18.287801742553711 2.732697486877441 -0.451592475175858 0.000000000000000
-17.614027023315430 3.540867328643799 -0.538896918296814 0.000000000000000
-17.660118103027344 2.690582513809204 -0.837536573410034 0.000000000000000
-17.597068786621094 3.537689685821533 -0.942217469215393 0.003921568859369
-18.290975570678711 2.790015935897827 -0.451853036880493 0.000000000000000
-17.675867080688477 3.615889787673950 -0.541207551956177 0.000000000000000
-9.556991577148438 1.892134070396423 -0.070514395833015 0.000000000000000
-17.713722229003906 2.760202884674072 -0.840599060058594 0.000000000000000
-17.682287216186523 3.617618799209595 -0.947598934173584 0.003921568859369
-19.667669296264648 2.128366470336914 -0.819442808628082 0.003921568859369
-18.257440567016602 2.847800493240356 -0.451196879148483 0.000000000000000
-17.717849731445312 3.687166690826416 -0.542895257472992 0.000000000000000
-19.627573013305664 3.137773275375366 -0.935379028320312 0.000000000000000
-18.981256484985352 2.116419076919556 -0.790127098560333 0.003921568859369
-17.063257217407227 3.542584180831909 3.029979467391968 0.003921568859369
-18.231607437133789 2.906688928604126 -0.450742900371552 0.000000000000000
-19.605859756469727 3.207415580749512 -0.934618711471558 0.000000000000000
-17.766803741455078 3.766146183013916 -0.953599512577057 0.003921568859369
-14.749772071838379 2.384487867355347 1.730370044708252 0.000000000000000
-5.268175125122070 1.018327474594116 0.379422932863235 0.000000000000000
-18.606142044067383 2.141139507293701 -0.773999631404877 0.003921568859369
-18.187070846557617 2.967216014862061 -0.449432253837585 0.000000000000000
-19.614801406860352 3.273740291595459 -0.935539484024048 0.000000000000000
-17.746421813964844 3.821233272552490 -0.953113913536072 0.003921568859369
-18.174503326416016 2.148751735687256 -0.755661547183990 0.003921568859369
-18.252002716064453 3.038350105285645 -0.451306611299515 0.000000000000000
-19.606603622436523 3.344016790390015 -0.935677766799927 0.000000000000000
-17.619344711303711 3.858309745788574 -0.946758329868317 0.003921568859369
-17.702615737915039 2.154494524002075 -0.735610902309418 0.003921568859369
-18.213180541992188 3.098078012466431 -0.450547277927399 0.000000000000000
-18.934204101562500 3.291437149047852 -0.903010785579681 0.000000000000000
-16.858549118041992 3.745142221450806 -0.905005753040314 0.003921568859369
-17.560241699218750 2.196602106094360 -0.729755580425262 0.003921568859369
-7.308011531829834 1.539314627647400 1.237237453460693 0.000000000000000
-18.198318481445312 3.158741950988770 -0.450396537780762 0.000000000000000
-9.495385169982910 1.180981159210205 0.034620039165020 0.000000000000000
-18.844003677368164 3.340917110443115 -0.899076223373413 0.000000000000000
-16.802598953247070 3.791762828826904 -0.902564585208893 0.003921568859369
-17.168220520019531 2.204470157623291 -0.713129401206970 0.003921568859369
-18.269773483276367 3.235221624374390 -0.452468425035477 0.000000000000000
-18.825563430786133 3.396670341491699 -0.898640930652618 0.000000000000000
-16.794490814208984 3.843491315841675 -0.902734339237213 0.003921568859369
-16.400970458984375 2.152617692947388 -0.680267453193665 0.000000000000000
-10.472645759582520 2.337897539138794 1.825685620307922 0.000000000000000
-18.243797302246094 3.287699222564697 -0.452018558979034 0.000000000000000
-16.329565048217773 2.198468208312988 -0.308179706335068 0.000000000000000
-18.872463226318359 3.471390247344971 -0.901499450206757 0.000000000000000
-7.571668148040771 0.971676886081696 -0.299177020788193 0.000000000000000
-10.364923477172852 2.348236322402954 1.807263135910034 0.000000000000000
-18.283277511596680 3.358899354934692 -0.453280776739120 0.000000000000000
-9.339596748352051 1.688187599182129 -0.016835855320096 0.003921568859369
-17.820850372314453 3.333479642868042 -0.850014209747314 0.000000000000000
-17.944105148315430 2.486624240875244 -0.747537910938263 0.003921568859369
-18.314620971679688 3.428892374038696 -0.454340189695358 0.000000000000000
-17.746389389038086 3.381096601486206 -0.846858143806458 0.000000000000000
-17.927408218383789 2.545902490615845 -0.747151315212250 0.003921568859369
-18.412380218505859 3.512320041656494 -0.457116067409515 0.000000000000000
-17.612464904785156 3.419378995895386 -0.840788781642914 0.000000000000000
-17.269899368286133 2.511459350585938 -0.719072937965393 0.003921568859369
-9.675246238708496 2.284021377563477 1.683851599693298 0.000000000000000
-18.622825622558594 3.622484445571899 -0.462816923856735 0.000000000000000
-17.533884048461914 3.465013027191162 -0.837438821792603 0.000000000000000
-17.043809890747070 2.535972118377686 -0.709628939628601 0.003921568859369
-17.484140396118164 4.385245323181152 -0.539865732192993 0.000000000000000
-3.261184215545654 0.548284769058228 -0.004487053025514 0.000000000000000
-17.580347061157227 3.536263465881348 -0.840297877788544 0.000000000000000
-12.970186233520508 3.863698959350586 -0.475303351879120 0.000000000000000
-3.272811412811279 0.428161859512329 -0.051473774015903 0.000000000000000
-3.174808979034424 0.541731536388397 -0.004240443930030 0.000000000000000
-1.967283010482788 0.217113971710205 -0.089623644948006 0.003921568859369
-12.503467559814453 2.565792322158813 -0.589293718338013 0.000000000000000
-19.640094757080078 3.143181562423706 -0.822937726974487 0.003921568859369
-17.766445159912109 3.765094995498657 -0.851155221462250 0.000000000000000
-19.688114166259766 3.219558238983154 -0.825447380542755 0.003921568859369
-10.219868659973145 2.107543945312500 -0.247004494071007 0.000000000000000
-17.527694702148438 3.771497726440430 -0.839862108230591 0.000000000000000
-19.704896926879883 3.287542581558228 -0.826593160629272 0.003921568859369
-3.798959493637085 0.558319330215454 0.013256322592497 0.000000000000000
-17.522216796875000 3.832281589508057 -0.840197265148163 0.000000000000000
-17.299629211425781 3.838949680328369 0.366222053766251 0.000000000000000
-3.904504776000977 0.755449771881104 0.190847113728523 0.000000000000000
-16.898143768310547 3.747583866119385 -0.809717297554016 0.000000000000000
-16.857061386108398 3.800867795944214 -0.808306634426117 0.000000000000000
-7.240106105804443 1.235245704650879 -0.130007058382034 0.000000000000000
-7.665543079376221 1.699381232261658 -0.013063280843198 0.000000000000000
-17.862813949584961 3.277985095977783 -0.748852431774139 0.003921568859369
-17.854600906372070 3.341938257217407 -0.748971104621887 0.003921568859369
-17.819305419921875 3.397451162338257 -0.747897446155548 0.003921568859369
-17.811256408691406 3.458280086517334 -0.748017847537994 0.003921568859369
-3.187716960906982 0.526937425136566 -0.050210405141115 0.000000000000000
-13.079769134521484 3.896654844284058 2.359082937240601 0.000000000000000
-8.088551521301270 1.584478855133057 -0.325396239757538 0.000000000000000
-17.814340591430664 3.708576917648315 -0.749915957450867 0.003921568859369
-17.052814483642578 4.454107284545898 2.060975551605225 0.003921568859369
-17.269886016845703 3.710082769393921 -0.727151274681091 0.003921568859369
-8.195049285888672 2.934354543685913 -0.487349778413773 0.000000000000000
-8.323235511779785 2.145612001419067 -0.387166619300842 0.000000000000000
-17.043100357055664 3.716832637786865 -0.717731356620789 0.003921568859369
-16.998210906982422 3.769890785217285 -0.716315448284149 0.003921568859369
-12.952272415161133 3.571435213088989 3.419485092163086 0.000000000000000
-8.031990051269531 1.873781561851501 0.209920182824135 0.000000000000000
-10.919484138488770 3.744602918624878 1.983489274978638 0.000000000000000
-8.379580497741699 2.045971393585205 -0.341825693845749 0.000000000000000
-11.076965332031250 2.833599567413330 -0.208486288785934 0.000000000000000
-5.324337959289551 1.296352028846741 -0.207883775234222 0.000000000000000
-12.200724601745605 3.356255054473877 -0.513218283653259 0.000000000000000
-5.347313880920410 1.413349270820618 -0.210344597697258 0.000000000000000
-3.915318250656128 1.380725860595703 0.141713529825211 0.000000000000000
-10.113830566406250 3.487087726593018 2.701146841049194 0.000000000000000
-8.900551795959473 3.414381265640259 2.396275281906128 0.000000000000000
-9.547514915466309 3.751346588134766 2.589795589447021 0.000000000000000
-7.234754085540771 2.869993686676025 -0.010866656899452 0.000000000000000
-5.941941261291504 2.096927165985107 -0.378455102443695 0.000000000000000
-10.609493255615234 3.958916664123535 -0.708620131015778 0.000000000000000
-11.429672241210938 7.083773136138916 -0.167755141854286 0.000000000000000
-14.849840164184570 7.684771060943604 4.324406147003174 0.003921568859369
-11.427844047546387 7.038717746734619 -0.695665240287781 0.003921568859369
-2.145935535430908 0.977488875389099 0.108023300766945 0.003921568859369
-11.462172508239746 7.120256900787354 0.060498077422380 0.000000000000000
-15.931776046752930 11.796827316284180 5.178772926330566 0.003921568859369
-2.630624055862427 1.722848773002625 -0.193653479218483 0.000000000000000
-7.949243545532227 7.203096389770508 1.880735635757446 0.000000000000000
-7.729135036468506 7.185875892639160 1.850232243537903 0.000000000000000
-7.648354530334473 7.155402183532715 1.836003303527832 0.000000000000000
-7.776316642761230 6.698508739471436 1.205824255943298 0.000000000000000
-4.770619392395020 4.197061538696289 0.731772303581238 0.000000000000000
-3.054685831069946 2.535249233245850 -0.255121141672134 0.000000000000000
-10.486720085144043 10.953169822692871 2.692371129989624 0.000000000000000
-11.338997840881348 12.236659049987793 2.970772981643677 0.003921568859369
-16.461269378662109 18.261518478393555 4.406048774719238 0.003921568859369
-8.259705543518066 9.486390113830566 2.230126142501831 0.000000000000000
-7.501341819763184 8.630107879638672 -0.591150701045990 0.000000000000000
-5.407354354858398 5.563605785369873 1.988741278648376 0.000000000000000
-8.921031951904297 10.297742843627930 3.562715768814087 0.000000000000000
-6.550695896148682 8.202422142028809 1.857207059860229 0.000000000000000
-15.189374923706055 20.266513824462891 4.552639961242676 0.003921568859369
-5.455611228942871 6.926351070404053 1.552826762199402 0.000000000000000
-2.332030057907104 2.296604394912720 -0.192030563950539 0.000000000000000
-15.277836799621582 24.859701156616211 -0.351228922605515 0.003921568859369
-8.660831451416016 12.348290443420410 2.696245193481445 0.000000000000000
-15.173598289489746 24.880182266235352 0.322572112083435 0.003921568859369
-4.540618896484375 5.587101936340332 1.852496743202209 0.000000000000000
-14.153434753417969 18.998651504516602 -0.559273481369019 0.003921568859369
-7.036978244781494 9.551281929016113 3.104815244674683 0.000000000000000
-13.843795776367188 24.981811523437500 0.318189650774002 0.003921568859369
-5.831718921661377 8.055164337158203 -0.230530828237534 0.000000000000000
-15.420580863952637 25.305826187133789 -0.184966087341309 0.003921568859369
-8.335172653198242 11.957129478454590 3.832429170608521 0.000000000000000
-3.657928466796875 5.439933776855469 1.150497674942017 0.000000000000000
-14.215925216674805 18.944086074829102 0.122256040573120 0.003921568859369
-2.497536659240723 3.091586589813232 -0.066408313810825 0.000000000000000
-4.004710674285889 7.214653968811035 1.466940045356750 0.000000000000000
-2.322819709777832 3.094697475433350 -0.149329081177711 0.000000000000000
-10.219209671020508 20.034179687500000 4.058864593505859 0.003921568859369
-10.142198562622070 20.071664810180664 4.058975696563721 0.003921568859369
-10.073977470397949 20.091470718383789 4.056918621063232 0.003921568859369
-9.991925239562988 20.100181579589844 4.052007675170898 0.003921568859369
-15.313206672668457 24.939075469970703 0.155402675271034 0.003921568859369
-9.934985160827637 20.170719146728516 4.059274196624756 0.003921568859369
-6.429760932922363 13.120396614074707 2.628162622451782 0.000000000000000
-4.264550685882568 8.348762512207031 1.127517819404602 0.000000000000000
-3.185317277908325 6.131855010986328 0.155234575271606 0.000000000000000
-3.577924966812134 8.256979942321777 1.611996889114380 0.000000000000000
-1.227282047271729 1.918396234512329 0.121886633336544 0.000000000000000
-4.549627304077148 11.116596221923828 2.161675930023193 0.000000000000000
-2.325549602508545 4.598249912261963 1.336791753768921 0.000000000000000
-3.540205955505371 8.720974922180176 1.689644098281860 0.000000000000000
-4.375918865203857 11.401755332946777 2.200718164443970 0.000000000000000
-7.472940921783447 24.267179489135742 0.291192978620529 0.003921568859369
-3.408956766128540 8.840949058532715 0.761613070964813 0.000000000000000
-1.354583501815796 2.935905456542969 0.564009249210358 0.000000000000000
-2.522911548614502 5.603863716125488 0.735753417015076 0.000000000000000
-2.492906093597412 5.665616512298584 0.351552784442902 0.000000000000000
-2.160490512847900 5.738513946533203 0.104566797614098 0.000000000000000
-2.799021244049072 6.847986698150635 0.891176760196686 0.000000000000000
-5.357570648193359 14.213999748229980 1.846945166587830 0.000000000000000
-3.407533645629883 8.647645950317383 2.454389572143555 0.000000000000000
-3.376591682434082 8.771792411804199 0.538769066333771 0.000000000000000
-2.198750019073486 6.493178367614746 0.550418734550476 0.000000000000000
-3.036628484725952 8.364702224731445 1.077403545379639 0.000000000000000
-2.029693126678467 6.250427722930908 1.179415464401245 0.000000000000000
-2.254984617233276 7.521294593811035 1.414003252983093 0.000000000000000
-1.612703919410706 4.322737216949463 0.262104481458664 0.000000000000000
-4.049491405487061 15.561224937438965 2.915079593658447 0.003921568859369
-7.817403793334961 22.817054748535156 0.135775089263916 0.003921568859369
-7.719247817993164 22.785881042480469 0.135532185435295 0.003921568859369
-7.635135650634766 22.783506393432617 0.135464429855347 0.003921568859369
-4.729794502258301 21.066967010498047 3.922592401504517 0.003921568859369
-3.638693571090698 18.070518493652344 3.349256038665771 0.003921568859369
-3.347232341766357 13.719063758850098 3.762897014617920 0.000000000000000
-2.287013530731201 12.635867118835449 2.331729412078857 0.000000000000000
-2.100332021713257 12.347813606262207 2.275141954421997 0.000000000000000
-1.686746478080750 10.220042228698730 1.880631685256958 0.000000000000000
-1.844311356544495 12.778033256530762 2.347232103347778 0.000000000000000
-1.979817748069763 14.762734413146973 2.709730625152588 0.000000000000000
-1.546228408813477 12.555782318115234 2.301513195037842 0.000000000000000
-2.051051139831543 13.360709190368652 3.610894918441772 0.000000000000000
-2.082184314727783 22.036485671997070 4.032947063446045 0.003921568859369
-0.680945336818695 8.187806129455566 1.495947241783142 0.000000000000000
0.015827983617783 12.469599723815918 2.276887416839600 0.000000000000000
0.041140258312225 11.823354721069336 2.159163951873779 0.000000000000000
-1.435367226600647 23.577680587768555 0.689531326293945 0.003921568859369
0.526673436164856 15.595915794372559 2.851024150848389 0.000000000000000
-0.211505576968193 7.718371868133545 2.070159912109375 0.000000000000000
0.074248135089874 6.162497520446777 1.127468585968018 0.000000000000000
-0.173907786607742 7.752847671508789 2.079429626464844 0.000000000000000
0.001718640327454 6.773979663848877 1.818583965301514 0.003921568859369
0.047320097684860 7.202288627624512 -0.774903178215027 0.000000000000000
0.094572097063065 6.583577156066895 0.811349034309387 0.003921568859369
0.188295602798462 6.896215915679932 -0.742774426937103 0.003921568859369
0.412117362022400 7.225255012512207 -0.779812932014465 0.003921568859369
0.937861919403076 7.583394527435303 0.629203796386719 0.000000000000000
0.613879203796387 7.579404354095459 2.046770334243774 0.000000000000000
0.641249537467957 7.583965301513672 2.048864126205444 0.000000000000000
0.794203519821167 6.130252361297607 1.136433959007263 0.000000000000000
0.617240190505981 6.968001842498779 1.884173154830933 0.000000000000000
0.716890215873718 7.535141468048096 0.444735527038574 0.003921568859369
1.191764831542969 7.782285213470459 0.648964583873749 0.000000000000000
0.685649156570435 6.943411827087402 1.880087018013000 0.000000000000000
1.029963254928589 6.919445037841797 1.285946130752563 0.003921568859369
1.271721482276917 7.707988739013672 0.644008040428162 0.003921568859369
1.191278338432312 7.163032531738281 0.598979711532593 0.000000000000000
0.763324856758118 6.726862430572510 1.825151443481445 0.000000000000000
1.215472579002380 7.154043674468994 0.598672926425934 0.000000000000000
1.243259310722351 7.168648719787598 0.600324034690857 0.000000000000000
2.891355276107788 16.479433059692383 4.499554157257080 0.003921568859369
1.512911677360535 8.011635780334473 2.200500249862671 0.000000000000000
1.063846945762634 5.719294548034668 1.573508262634277 0.000000000000000
6.091601848602295 20.473394393920898 1.756134033203125 0.003921568859369
3.768646955490112 14.151931762695312 3.944590330123901 0.000000000000000
2.585617780685425 9.825084686279297 2.741507291793823 0.000000000000000
8.486865997314453 24.233608245849609 1.507358312606812 0.003921568859369
5.194938659667969 12.755875587463379 2.530150413513184 0.000000000000000
2.279669046401978 5.205248832702637 0.337439119815826 0.000000000000000
1.442023634910583 3.040272235870361 0.630046546459198 0.000000000000000
15.188512802124023 25.064153671264648 0.352505922317505 0.003921568859369
4.347658634185791 9.323259353637695 2.781070709228516 0.000000000000000
5.181504726409912 9.713942527770996 2.027200698852539 0.000000000000000
15.761232376098633 25.221113204956055 0.357918113470078 0.003921568859369
15.509641647338867 24.622825622558594 0.350302726030350 0.003921568859369
4.318523883819580 7.330658912658691 0.353357821702957 0.000000000000000
4.352485656738281 7.328543186187744 0.354027658700943 0.000000000000000
6.409926414489746 11.529319763183594 3.560258388519287 0.000000000000000
4.322692871093750 6.985330104827881 0.341111093759537 0.000000000000000
5.132229804992676 7.944018840789795 0.169987007975578 0.000000000000000
4.574485778808594 7.107164859771729 0.351012855768204 0.000000000000000
14.926001548767090 24.836128234863281 0.684957325458527 0.003921568859369
4.598100662231445 6.980391502380371 0.347277224063873 0.003921568859369
5.381977081298828 8.131080627441406 1.797890186309814 0.003921568859369
15.535434722900391 25.223484039306641 0.699693202972412 0.003921568859369
4.802591323852539 7.966260433197021 1.154892683029175 0.000000000000000
15.529936790466309 25.019485473632812 0.695592105388641 0.003921568859369
5.302989959716797 7.824860572814941 0.169717639684677 0.000000000000000
5.333506584167480 7.813273906707764 0.169871717691422 0.000000000000000
5.487806797027588 7.251707553863525 -0.317496895790100 0.003921568859369
15.717121124267578 24.929628372192383 0.696238875389099 0.003921568859369
5.526036262512207 7.193720817565918 -0.852140724658966 0.000000000000000
4.462839603424072 7.030409336090088 0.492564201354980 0.000000000000000
4.601748466491699 7.081991195678711 0.499608844518661 0.003921568859369
5.514137744903564 7.555305480957031 1.725259423255920 0.000000000000000
14.214771270751953 22.913454055786133 0.164449661970139 0.003921568859369
4.660474300384521 6.845233440399170 0.197272717952728 0.003921568859369
5.923079490661621 7.805316448211670 1.805583953857422 0.000000000000000
4.294318675994873 6.276517868041992 0.181371584534645 0.000000000000000
4.977932929992676 7.034696578979492 2.334288597106934 0.000000000000000
5.661357402801514 7.153996467590332 1.682765841484070 0.000000000000000
5.780892848968506 7.249494075775146 1.710085511207581 0.000000000000000
5.546330928802490 6.900609493255615 1.632264614105225 0.000000000000000
10.217203140258789 13.810886383056641 4.629526615142822 0.003921568859369
5.691615104675293 6.979362487792969 0.744983911514282 0.000000000000000
5.799540996551514 6.862059593200684 1.656763911247253 0.000000000000000
5.513430118560791 7.162423133850098 -0.979425907135010 0.000000000000000
9.347179412841797 10.889841079711914 2.636951684951782 0.000000000000000
5.396505832672119 6.915242671966553 1.089890122413635 0.003921568859369
5.888658046722412 7.477282047271729 1.181751132011414 0.000000000000000
6.328749179840088 7.266768455505371 1.776092886924744 0.000000000000000
7.385203838348389 8.384633064270020 2.055368900299072 0.000000000000000
3.384427547454834 3.525179147720337 0.059648744761944 0.000000000000000
6.284864425659180 7.104801654815674 0.169929102063179 0.003921568859369
6.127897739410400 6.930796146392822 0.383087217807770 0.000000000000000
6.657993793487549 7.466751098632812 1.841983914375305 0.000000000000000
6.050070762634277 6.704349517822266 0.374098032712936 0.000000000000000
5.915855407714844 6.512758731842041 0.364599168300629 0.000000000000000
6.490574359893799 7.545189857482910 1.234886407852173 0.000000000000000
7.019430160522461 7.325516223907471 1.866962909698486 0.000000000000000
1.337352275848389 1.607003927230835 0.580624938011169 0.000000000000000
12.563261032104492 12.751195907592773 3.283145427703857 0.003921568859369
1.368632793426514 1.630805730819702 0.590989172458649 0.000000000000000
8.391952514648438 8.380126953125000 2.180282592773438 0.000000000000000
5.193015575408936 5.478571891784668 0.937550604343414 0.000000000000000
6.539237976074219 6.823652744293213 0.224089846014977 0.000000000000000
9.232276916503906 9.524835586547852 1.640869498252869 0.000000000000000
6.093900203704834 6.280175685882568 1.085556268692017 0.000000000000000
6.550351619720459 7.180442333221436 0.287394493818283 0.000000000000000
8.220759391784668 7.172432899475098 2.004525423049927 0.000000000000000
6.229276180267334 5.417198657989502 0.681728124618530 0.000000000000000
6.472804546356201 5.586316585540771 0.705884456634521 0.000000000000000
7.647256374359131 7.064192295074463 2.810270786285400 0.000000000000000
3.760403871536255 3.849933862686157 0.159924596548080 0.000000000000000
10.100153923034668 7.516357421875000 0.150738939642906 0.000000000000000
14.261994361877441 11.619565963745117 3.371680974960327 0.003921568859369
10.431896209716797 9.339839935302734 1.731053948402405 0.000000000000000
9.007617950439453 8.776774406433105 0.370384931564331 0.000000000000000
10.729176521301270 8.568209648132324 1.129205346107483 0.000000000000000
10.660427093505859 8.455865859985352 1.119097232818604 0.000000000000000
10.262194633483887 8.022983551025391 0.231481969356537 0.000000000000000
11.319145202636719 7.923289775848389 0.164890512824059 0.000000000000000
10.762478828430176 8.350756645202637 1.120424151420593 0.000000000000000
11.367018699645996 7.903347015380859 0.165228545665741 0.000000000000000
11.323520660400391 8.597048759460449 0.252564162015915 0.000000000000000
11.364772796630859 8.568773269653320 0.252853691577911 0.000000000000000
2.143782615661621 2.003577470779419 -0.191028222441673 0.003921568859369
10.809954643249512 8.818010330200195 3.755627393722534 0.000000000000000
10.066641807556152 7.316759586334229 0.220794826745987 0.000000000000000
10.040101051330566 7.244061946868896 0.219671219587326 0.000000000000000
10.894134521484375 7.856008529663086 0.552309393882751 0.000000000000000
10.403301239013672 7.504413604736328 1.054527401924133 0.000000000000000
10.877767562866211 7.786668300628662 1.099550008773804 0.000000000000000
3.114274978637695 2.490102529525757 0.095037706196308 0.000000000000000
11.263569831848145 7.198587894439697 0.159154489636421 0.000000000000000
11.019525527954102 7.043466091156006 -0.762327909469604 0.000000000000000
11.022553443908691 6.993875980377197 -0.760932326316833 0.000000000000000
11.026244163513184 7.606885433197021 0.237628012895584 0.000000000000000
11.103916168212891 7.602881431579590 -0.075747981667519 0.003921568859369
11.100294113159180 8.363417625427246 1.716295242309570 0.000000000000000
11.758783340454102 7.921571254730225 1.164092898368835 0.003921568859369
9.212801933288574 6.215315818786621 2.037507295608521 0.000000000000000
11.409508705139160 7.629438877105713 -0.077601090073586 0.000000000000000
23.690786361694336 15.561117172241211 5.182197093963623 0.003921568859369
10.589468955993652 7.689606189727783 0.002306255046278 0.000000000000000
11.012087821960449 7.939139366149902 0.795871138572693 0.000000000000000
11.467460632324219 8.265767097473145 1.744236946105957 0.000000000000000
16.721128463745117 10.832259178161621 3.645418643951416 0.003921568859369
12.348266601562500 7.121101379394531 0.169201388955116 0.003921568859369
10.957951545715332 7.845239639282227 1.663214087486267 0.000000000000000
9.227795600891113 6.513591289520264 0.662726342678070 0.000000000000000
11.169014930725098 7.758644104003906 1.678366065025330 0.000000000000000
11.424129486083984 7.076599597930908 0.237930148839951 0.000000000000000
10.996758460998535 7.519211769104004 1.642835497856140 0.003921568859369
10.329860687255859 7.776910781860352 0.379359811544418 0.000000000000000
11.499424934387207 7.006016254425049 0.552426278591156 0.000000000000000
11.042675018310547 7.493940353393555 1.645767569541931 0.000000000000000
11.934298515319824 7.212636947631836 -0.079162016510963 0.000000000000000
11.492993354797363 6.947105884552002 0.550959408283234 0.000000000000000
11.009411811828613 7.415371417999268 1.636987090110779 0.000000000000000
9.846396446228027 7.254131317138672 0.358915299177170 0.000000000000000
11.772777557373047 7.003487586975098 0.241973593831062 0.003921568859369
11.805062294006348 6.972394466400146 0.242188006639481 0.000000000000000
10.957760810852051 7.220292091369629 1.618453383445740 0.003921568859369
11.931944847106934 6.985236644744873 0.244232952594757 0.000000000000000
11.834012985229492 6.928173065185547 0.562574923038483 0.003921568859369
12.416722297668457 7.209649562835693 0.253596991300583 0.000000000000000
10.796277999877930 7.001117229461670 0.753804624080658 0.003921568859369
12.548276901245117 7.168903827667236 1.185598373413086 0.000000000000000
11.000920295715332 6.970217227935791 -0.606643676757812 0.000000000000000
12.635721206665039 7.160151481628418 1.191470623016357 0.000000000000000
10.603623390197754 6.013315200805664 2.232544422149658 0.000000000000000
12.433465957641602 6.994299888610840 0.251992642879486 0.000000000000000
10.871036529541016 6.840641975402832 1.584313511848450 0.000000000000000
12.261658668518066 6.898117065429688 1.154306650161743 0.000000000000000
9.801994323730469 5.520119190216064 2.060935735702515 0.000000000000000
12.056515693664551 6.716555595397949 0.565435290336609 0.000000000000000
11.867132186889648 7.339937686920166 0.001699799671769 0.000000000000000
12.007257461547852 6.582319259643555 0.561031877994537 0.000000000000000
2.484337568283081 1.544135332107544 0.793484926223755 0.000000000000000
12.247083663940430 6.552748680114746 1.138568997383118 0.000000000000000
13.393364906311035 7.164149284362793 2.777807712554932 0.000000000000000
12.030023574829102 7.155543327331543 0.001719756401144 0.000000000000000
6.523857116699219 3.891392707824707 0.445409625768661 0.000000000000000
10.737715721130371 6.389542579650879 1.540028333663940 0.000000000000000
12.103205680847168 7.141813278198242 0.822187006473541 0.000000000000000
10.582000732421875 6.247218608856201 1.514658689498901 0.000000000000000
20.407928466796875 10.717783927917480 4.212243556976318 0.003921568859369
7.386396408081055 3.859648942947388 1.527175784111023 0.000000000000000
11.883191108703613 6.900845050811768 0.804018020629883 0.000000000000000
11.977267265319824 6.086470127105713 1.101429581642151 0.000000000000000
12.525213241577148 7.092054843902588 0.336885154247284 0.000000000000000
11.024842262268066 6.977972507476807 -0.531421601772308 0.000000000000000
11.503416061401367 6.461949825286865 1.624536395072937 0.000000000000000
11.539783477783203 6.429365634918213 1.626489639282227 0.000000000000000
7.883865356445312 3.872043371200562 1.607304930686951 0.000000000000000
5.608016014099121 2.638813018798828 1.135699272155762 0.000000000000000
10.403642654418945 4.702229499816895 2.085732460021973 0.000000000000000
14.565973281860352 7.393682003021240 2.008942842483521 0.003921568859369
11.748492240905762 5.811400890350342 1.612438559532166 0.000000000000000
3.863276958465576 1.917660117149353 1.160865902900696 0.000000000000000
12.437602043151855 6.877113819122314 0.415018171072006 0.000000000000000
2.715443849563599 1.166831016540527 0.243037149310112 0.000000000000000
7.236925125122070 3.065563917160034 1.436926960945129 0.000000000000000
12.194329261779785 5.773846149444580 1.659752368927002 0.000000000000000
11.312190055847168 4.462267398834229 0.496218293905258 0.000000000000000
7.802547454833984 3.079078674316406 1.531381487846375 0.000000000000000
4.171753406524658 1.612809300422668 0.817374765872955 0.000000000000000
7.057347297668457 2.700214147567749 0.308500021696091 0.000000000000000
12.473960876464844 4.032253265380859 0.153171405196190 0.000000000000000
7.263773918151855 2.692148923873901 1.414415240287781 0.000000000000000
6.515194892883301 2.390517711639404 1.267308235168457 0.000000000000000
6.676077365875244 1.980079054832458 -0.081068508327007 0.000000000000000
9.413914680480957 3.786279916763306 0.590925037860870 0.000000000000000
8.206220626831055 2.843264579772949 1.583468198776245 0.000000000000000
4.675656318664551 1.530048012733459 0.401615083217621 0.000000000000000
16.073541641235352 4.162889003753662 -0.966968238353729 0.003921568859369
16.113512039184570 4.110694408416748 -0.968455135822296 0.003921568859369
3.971009016036987 1.220060348510742 0.168690785765648 0.000000000000000
16.037990570068359 4.034844875335693 -0.963103890419006 0.003921568859369
16.172124862670898 4.008675575256348 -0.970317304134369 0.003921568859369
6.782987117767334 2.008793592453003 0.576457083225250 0.000000000000000
4.740181922912598 1.154829621315002 -0.170218005776405 0.000000000000000
10.875497817993164 3.222583770751953 2.065941810607910 0.000000000000000
6.054749488830566 2.073088884353638 0.148466929793358 0.000000000000000
4.460505962371826 1.269422769546509 -0.027076361700892 0.000000000000000
6.639450550079346 2.485216856002808 0.040897980332375 0.000000000000000
16.068838119506836 3.396587610244751 -0.956449925899506 0.003921568859369
9.761608123779297 2.026215791702271 -0.348159909248352 0.000000000000000
10.339264869689941 3.184359788894653 2.892856359481812 0.000000000000000
12.245027542114258 3.725828409194946 -0.000864572124556 0.000000000000000
16.114696502685547 3.172179937362671 -0.956452250480652 0.003921568859369
16.585306167602539 4.114770412445068 -0.895670711994171 0.003921568859369
6.867180824279785 1.675454974174500 -0.205660060048103 0.000000000000000
16.125671386718750 3.115983009338379 -0.956452846527100 0.003921568859369
16.587923049926758 4.054076194763184 -0.895042657852173 0.003921568859369
16.136447906494141 3.059748888015747 -0.956453382968903 0.003921568859369
16.535959243774414 3.980313301086426 -0.891480326652527 0.003921568859369
16.166137695312500 3.009943246841431 -0.957617938518524 0.003921568859369
7.230873107910156 2.089434146881104 0.436667382717133 0.000000000000000
16.517976760864258 3.918134450912476 -0.889804303646088 0.003921568859369
6.379624843597412 1.510330796241760 1.191244959831238 0.000000000000000
16.255107879638672 2.967921972274780 -0.962274670600891 0.003921568859369
16.500436782836914 3.853242158889771 -0.888128161430359 0.003921568859369
16.516923904418945 2.956325292587280 -0.977174937725067 0.003921568859369
16.455392837524414 3.782265901565552 -0.884984970092773 0.003921568859369
16.802457809448242 2.947063922882080 -0.993472278118134 0.003921568859369
16.433431625366211 3.716928482055664 -0.883099317550659 0.003921568859369
16.450204849243164 3.660484552383423 -0.883309602737427 0.003921568859369
16.457338333129883 3.599667549133301 -0.883039474487305 0.003921568859369
9.267710685729980 2.024200439453125 0.770983338356018 0.000000000000000
16.458093643188477 3.539776325225830 -0.882411301136017 0.003921568859369
12.764701843261719 3.402583360671997 1.617079734802246 0.000000000000000
16.450807571411133 3.478275299072266 -0.881363570690155 0.003921568859369
16.462848663330078 3.420938491821289 -0.881364524364471 0.003921568859369
16.466863632202148 3.361959934234619 -0.880945980548859 0.003921568859369
8.260380744934082 2.076422691345215 -0.000906045781448 0.003921568859369
8.538188934326172 2.146523475646973 -0.614511013031006 0.000000000000000
5.484686374664307 1.095851063728333 0.226023450493813 0.000000000000000
16.478498458862305 3.304560422897339 -0.880946874618530 0.003921568859369
12.280295372009277 2.416651964187622 0.216650933027267 0.000000000000000
10.586637496948242 2.624138832092285 0.632350504398346 0.000000000000000
16.533039093017578 3.255624294281006 -0.883254706859589 0.003921568859369
14.581583023071289 2.870598793029785 2.702646732330322 0.000000000000000
16.543745040893555 3.200876474380493 -0.883255541324615 0.003921568859369
4.102339267730713 0.997944414615631 0.514275014400482 0.000000000000000
16.918382644653320 4.076270580291748 -0.811017513275146 0.000000000000000
16.586210250854492 3.149196624755859 -0.884934186935425 0.003921568859369
20.782333374023438 3.947281360626221 3.849287986755371 0.003921568859369
9.804070472717285 1.823806047439575 0.172492936253548 0.000000000000000
16.878086090087891 4.004354953765869 -0.808407604694366 0.000000000000000
16.612808227539062 3.094312906265259 -0.885773897171021 0.003921568859369
7.381117820739746 2.131453037261963 -0.312639355659485 0.000000000000000
16.860836029052734 3.938241481781006 -0.806916713714600 0.000000000000000
2.808248758316040 0.508382320404053 -0.148380592465401 0.000000000000000
10.282222747802734 2.398845434188843 2.820025444030762 0.000000000000000
16.827758789062500 3.868701934814453 -0.804679751396179 0.000000000000000
2.731371879577637 0.484575718641281 -0.144186228513718 0.000000000000000
11.782739639282227 2.659133672714233 0.699492514133453 0.000000000000000
16.809034347534180 3.797386646270752 -0.803209662437439 0.000000000000000
16.989299774169922 2.976300477981567 -0.904188096523285 0.003921568859369
7.850552082061768 2.146881580352783 0.045920446515083 0.000000000000000
6.321188449859619 0.767861843109131 0.072712540626526 0.000000000000000
6.685696601867676 1.481753587722778 0.395505309104919 0.000000000000000
16.790336608886719 3.734805345535278 -0.801717996597290 0.000000000000000
17.321876525878906 2.975663900375366 -0.921397089958191 0.003921568859369
10.433865547180176 2.856984138488770 -0.440641969442368 0.000000000000000
16.799369812011719 3.675453662872314 -0.801532745361328 0.000000000000000
19.496082305908203 4.266723155975342 5.334185123443604 0.003921568859369
9.080541610717773 1.949591279029846 -0.001313074491918 0.003921568859369
16.780845642089844 3.610196352005005 -0.800041019916534 0.000000000000000
16.777711868286133 3.548418998718262 -0.799295783042908 0.000000000000000
17.071384429931641 3.610613107681274 2.135239839553833 0.003921568859369
16.770442962646484 3.485893726348877 -0.798363983631134 0.000000000000000
10.294241905212402 1.583691835403442 0.421237379312515 0.000000000000000
16.793651580810547 3.432804822921753 -0.798924982547760 0.000000000000000
15.890277862548828 1.604327797889709 -0.187652096152306 0.000000000000000
16.821201324462891 3.377460479736328 -0.799672722816467 0.000000000000000
11.324059486389160 2.851005792617798 -0.475764602422714 0.000000000000000
9.113972663879395 2.258929729461670 -0.164533913135529 0.000000000000000
16.836807250976562 3.319633960723877 -0.799860537052155 0.000000000000000
20.627658843994141 3.032569885253906 3.791207551956177 0.003921568859369
16.883592605590820 3.267835140228271 -0.801541388034821 0.000000000000000
7.234777927398682 1.369797945022583 0.425435096025467 0.000000000000000
16.945926666259766 3.218731880187988 -0.803968727588654 0.000000000000000
6.018543720245361 0.838047683238983 1.099693655967712 0.000000000000000
12.401537895202637 2.940247774124146 -0.223530262708664 0.000000000000000
4.778085231781006 0.412850975990295 -0.056117061525583 0.000000000000000
3.679193496704102 0.679697990417480 0.214967250823975 0.000000000000000
17.004190444946289 3.168498992919922 -0.806209444999695 0.000000000000000
11.776071548461914 1.603369832038879 0.965277850627899 0.000000000000000
7.639215469360352 1.390048623085022 0.447892099618912 0.000000000000000
17.103828430175781 3.123654603958130 -0.810532510280609 0.000000000000000
6.602750778198242 0.848675370216370 0.114089272916317 0.000000000000000
