# This PCD file was generated using the MATLAB® pcwrite function
# from Computer Vision Toolbox®.
# .PCD v.7 - Point Cloud Data file format
VERSION .7
FIELDS x y z intensity
SIZE 8 8 8 8
TYPE F F F F
COUNT 1 1 1 1
WIDTH 650
HEIGHT 1
VIEWPOINT 0 0 0 1 0 0 0
POINTS 650
DATA ascii
-13.557543754577637 16.069351196289062 3.785978555679321 0.003921568859369
-4.836956024169922 4.898676395416260 1.764666318893433 0.000000000000000
-4.319388866424561 4.835664272308350 1.132405042648315 0.000000000000000
-18.519437789916992 23.286466598510742 -0.850444614887238 0.003921568859369
-12.027664184570312 15.262478828430176 3.498333692550659 0.003921568859369
-9.807193756103516 12.506151199340820 2.852932691574097 0.000000000000000
-3.104478120803833 2.966244935989380 -0.065232478082180 0.000000000000000
-5.497276782989502 6.893835067749023 1.562182307243347 0.000000000000000
-6.953447341918945 8.517489433288574 2.877542257308960 0.000000000000000
-5.628002643585205 7.517904758453369 1.669625878334045 0.000000000000000
-4.616898536682129 6.944975852966309 0.098466008901596 0.000000000000000
-8.495031356811523 12.025658607482910 2.643599033355713 0.000000000000000
-4.853093147277832 6.692627906799316 1.465722560882568 0.000000000000000
-4.689694881439209 6.493927478790283 1.419059634208679 0.000000000000000
-5.343221187591553 6.908862113952637 2.275597333908081 0.000000000000000
-4.634957313537598 6.676447868347168 0.325450956821442 0.000000000000000
-5.274724483489990 6.919356822967529 2.267294645309448 0.003921568859369
-4.122478485107422 6.091588020324707 1.302575826644897 0.000000000000000
-4.128500938415527 6.152298450469971 1.312615513801575 0.003921568859369
-5.110988616943359 7.091386318206787 2.280688047409058 0.000000000000000
-4.116474151611328 7.063386917114258 0.096512481570244 0.003921568859369
-5.026506423950195 7.139996051788330 2.280518054962158 0.000000000000000
-4.368810653686523 7.001260757446289 0.331233620643616 0.000000000000000
-4.916661262512207 7.134661197662354 1.039318680763245 0.000000000000000
-4.282548427581787 6.848426818847656 0.645580768585205 0.000000000000000
-4.781377315521240 6.920548439025879 2.195583343505859 0.000000000000000
-4.448285102844238 7.320293903350830 0.149603068828583 0.003921568859369
-3.925866842269897 7.244362831115723 0.097326338291168 0.000000000000000
-4.565140724182129 7.014857769012451 2.188134193420410 0.003921568859369
-4.074516773223877 6.237648010253906 0.891845166683197 0.003921568859369
-4.057623863220215 6.261322498321533 0.893300771713257 0.000000000000000
-4.521150112152100 7.112208843231201 2.204676866531372 0.000000000000000
-4.496297359466553 7.126512527465820 2.204668998718262 0.000000000000000
-3.477726221084595 6.011940479278564 1.234005093574524 0.000000000000000
-4.617940902709961 7.397360801696777 0.201689019799232 0.000000000000000
-3.576188087463379 7.163531780242920 0.094607718288898 0.003921568859369
-3.568800926208496 7.214840412139893 0.095112487673759 0.000000000000000
-4.601398468017578 7.486883640289307 1.057097911834717 0.000000000000000
-4.255342960357666 6.927628993988037 0.465023577213287 0.000000000000000
-3.949444055557251 7.307325839996338 0.145227208733559 0.000000000000000
-4.039712905883789 7.494661808013916 1.521694302558899 0.000000000000000
-3.902836322784424 7.296678543090820 0.333108007907867 0.000000000000000
-3.841587305068970 7.299249649047852 0.332116156816483 0.000000000000000
-9.959937095642090 23.384120941162109 0.297187387943268 0.003921568859369
-4.017998695373535 6.849704742431641 0.954523086547852 0.000000000000000
-2.956880807876587 5.572963237762451 1.121166229248047 0.000000000000000
-3.675899505615234 7.274453639984131 0.654568672180176 0.000000000000000
-9.557600975036621 23.566019058227539 0.297304809093475 0.003921568859369
-3.352911233901978 6.745138168334961 1.345703959465027 0.000000000000000
-3.586059093475342 6.459547996520996 0.887677907943726 0.000000000000000
-3.754927873611450 6.802780628204346 2.035644054412842 0.000000000000000
-3.624424934387207 7.523522853851318 0.671659350395203 0.003921568859369
-3.935510873794556 7.316640377044678 0.192436188459396 0.000000000000000
-3.162722110748291 6.578138828277588 0.293980002403259 0.000000000000000
-3.884197711944580 7.540247917175293 0.487174183130264 0.000000000000000
-3.478291034698486 6.664752006530762 1.971288323402405 0.000000000000000
-2.277357101440430 4.798385620117188 0.213210076093674 0.000000000000000
-3.467176914215088 7.048337936401367 0.947798371315002 0.000000000000000
-3.919723033905029 7.304728984832764 0.239349007606506 0.000000000000000
-5.527770519256592 13.956192016601562 2.714816570281982 0.000000000000000
-9.054172515869141 27.943014144897461 0.342619687318802 0.003921568859369
-2.419285774230957 4.356926918029785 0.143119722604752 0.000000000000000
-9.780630111694336 22.963676452636719 6.651227474212646 0.003921568859369
-9.851030349731445 23.375917434692383 0.589536607265472 0.003921568859369
-9.692029953002930 23.452606201171875 0.589774489402771 0.003921568859369
-9.627651214599609 23.529626846313477 0.590869545936584 0.003921568859369
-3.182993650436401 8.299502372741699 1.599974989891052 0.000000000000000
-5.682047843933105 16.872447967529297 3.227392196655273 0.003921568859369
-2.107119321823120 5.945707798004150 1.132111787796021 0.000000000000000
-1.121242165565491 2.385556936264038 0.673765003681183 0.000000000000000
-2.824339866638184 9.406620979309082 1.775378823280334 0.000000000000000
-2.467607975006104 8.279462814331055 1.560186386108398 0.000000000000000
-2.454956054687500 8.351656913757324 1.572373867034912 0.000000000000000
-4.854948997497559 21.040851593017578 3.924763202667236 0.003921568859369
-1.867444038391113 7.204831123352051 1.344865441322327 0.000000000000000
-3.345522880554199 11.593308448791504 3.210609912872314 0.000000000000000
-2.595155715942383 10.851810455322266 2.022642374038696 0.000000000000000
-1.328358411788940 3.991895437240601 -0.440340101718903 0.003921568859369
-1.356674671173096 6.078160762786865 1.125981688499451 0.000000000000000
-1.841820001602173 9.868509292602539 1.822291851043701 0.000000000000000
-5.659859657287598 23.620121002197266 0.706048429012299 0.003921568859369
-1.945411086082458 12.936834335327148 2.378779411315918 0.000000000000000
-2.846015691757202 21.370008468627930 3.924284219741821 0.003921568859369
-4.176542282104492 23.562223434448242 1.391531467437744 0.003921568859369
-5.070105075836182 23.335577011108398 0.694284975528717 0.003921568859369
-1.828662037849426 10.084361076354980 2.734058380126953 0.000000000000000
-1.781457424163818 11.074223518371582 2.994849920272827 0.000000000000000
-1.207054495811462 12.430371284484863 2.273844003677368 0.000000000000000
-0.686673283576965 7.353029251098633 1.344373703002930 0.000000000000000
-0.637423813343048 9.718246459960938 1.774642348289490 0.000000000000000
-0.576691627502441 9.160782814025879 1.672740459442139 0.000000000000000
-0.551580905914307 3.834895372390747 0.474072694778442 0.000000000000000
-1.022033810615540 11.709727287292480 1.442075133323669 0.000000000000000
-0.653529047966003 15.593774795532227 4.180563926696777 0.003921568859369
-0.662810504436493 18.824445724487305 5.045787334442139 0.003921568859369
-0.282862573862076 7.142302989959717 0.878782689571381 0.000000000000000
-0.282734215259552 7.144014358520508 1.916036248207092 0.000000000000000
-0.019105494022369 23.179227828979492 1.350417971611023 0.003921568859369
0.083379060029984 11.295578002929688 3.029554843902588 0.000000000000000
0.575831890106201 10.105923652648926 0.829376518726349 0.000000000000000
1.526067614555359 20.460023880004883 1.677232623100281 0.003921568859369
0.146598309278488 6.953748703002930 1.868255019187927 0.000000000000000
0.344388484954834 5.133934974670410 0.944534838199615 0.000000000000000
0.459257364273071 5.595454216003418 1.030584335327148 0.003921568859369
0.808500051498413 7.574727058410645 1.396253824234009 0.003921568859369
0.565677404403687 7.115463256835938 1.920940995216370 0.000000000000000
0.756581664085388 7.330436229705811 0.432376563549042 0.000000000000000
0.791904926300049 7.587081909179688 0.941772699356079 0.000000000000000
0.938297748565674 7.171790599822998 -0.781647861003876 0.000000000000000
1.405013561248779 6.900385856628418 0.290396839380264 0.003921568859369
1.554344654083252 7.197174072265625 0.303553998470306 0.000000000000000
1.722790241241455 7.094640731811523 0.129740253090858 0.000000000000000
1.741631150245667 7.162827968597412 1.355878353118896 0.000000000000000
1.752919077873230 7.107038021087646 0.130086421966553 0.000000000000000
1.721824288368225 7.946051120758057 1.005925416946411 0.000000000000000
1.806165933609009 6.586304664611816 0.282198667526245 0.000000000000000
1.594312191009521 6.975357055664062 0.421022802591324 0.003921568859369
1.613555431365967 6.949672222137451 0.419860512018204 0.000000000000000
4.498544216156006 14.888493537902832 2.848246812820435 0.000000000000000
1.991470456123352 6.734206199645996 0.579914867877960 0.000000000000000
2.069625377655029 7.689783096313477 0.986377596855164 0.000000000000000
1.998957753181458 7.354048728942871 0.179965063929558 0.000000000000000
2.218019008636475 6.850492000579834 0.594865143299103 0.003921568859369
1.625969409942627 7.160919189453125 0.216351792216301 0.003921568859369
10.523137092590332 25.046840667724609 0.316912770271301 0.003921568859369
1.761927962303162 7.468441963195801 0.225984424352646 0.000000000000000
1.803898692131042 5.991296768188477 1.694971561431885 0.000000000000000
11.464460372924805 25.293334960937500 0.323928177356720 0.003921568859369
2.677844285964966 8.305805206298828 2.357364892959595 0.000000000000000
1.912734746932983 6.837637901306152 0.209445774555206 0.000000000000000
1.941365242004395 6.845480918884277 0.209909573197365 0.000000000000000
2.757245779037476 7.560888767242432 0.997972249984741 0.000000000000000
10.337485313415527 24.841644287109375 0.627678871154785 0.003921568859369
10.846906661987305 25.545776367187500 0.647350907325745 0.003921568859369
10.795965194702148 24.725465774536133 0.629438221454620 0.003921568859369
11.210146903991699 25.171733856201172 1.608951926231384 0.003921568859369
3.922510385513306 9.067717552185059 2.667774677276611 0.000000000000000
11.333602905273438 25.198270797729492 0.644560098648071 0.003921568859369
11.240628242492676 24.765731811523438 0.634535014629364 0.003921568859369
3.478605270385742 6.836954593658447 0.136390060186386 0.000000000000000
10.518188476562500 25.037256240844727 0.158166408538818 0.003921568859369
7.102200031280518 14.177310943603516 4.270063400268555 0.003921568859369
11.495925903320312 25.078506469726562 0.160743549466133 0.003921568859369
11.871781349182129 25.432325363159180 0.163510397076607 0.003921568859369
5.488572120666504 7.626838684082031 0.111414864659309 0.000000000000000
6.510800838470459 10.530283927917480 3.339549541473389 0.000000000000000
5.635407924652100 8.106477737426758 0.406656116247177 0.000000000000000
4.650315284729004 7.473355293273926 2.381010293960571 0.000000000000000
5.347386360168457 7.703026771545410 1.726431012153625 0.000000000000000
5.988580226898193 7.658160209655762 0.115175299346447 0.003921568859369
18.834299087524414 23.011558532714844 -0.346797108650208 0.003921568859369
5.633391857147217 7.744252681732178 0.394449740648270 0.000000000000000
2.953313827514648 4.603063583374023 0.681992471218109 0.000000000000000
6.326976299285889 8.368782043457031 0.864314675331116 0.003921568859369
6.945507526397705 8.238984107971191 0.127402782440186 0.000000000000000
5.647203445434570 7.379426956176758 0.164610192179680 0.000000000000000
5.699353218078613 8.185010910034180 0.586450934410095 0.000000000000000
6.539981365203857 8.399345397949219 0.877008855342865 0.000000000000000
5.747724533081055 8.058884620666504 0.581797599792480 0.000000000000000
6.448060512542725 7.335062026977539 -0.918860256671906 0.003921568859369
6.819043159484863 8.555186271667480 0.193271547555923 0.003921568859369
5.780105590820312 8.050031661987305 0.582496285438538 0.000000000000000
5.907136917114258 7.432644367218018 0.391037940979004 0.000000000000000
6.552802085876465 7.399780750274658 0.116998955607414 0.000000000000000
6.274911403656006 7.718877792358398 1.829741120338440 0.000000000000000
5.943655014038086 7.262701034545898 0.386648714542389 0.000000000000000
6.339745521545410 7.681626319885254 0.410088628530502 0.000000000000000
6.187875747680664 7.401232242584229 1.775223135948181 0.000000000000000
6.227788925170898 7.392942905426025 1.778811693191528 0.000000000000000
5.951220035552979 7.759820461273193 0.575068950653076 0.000000000000000
5.902728557586670 7.642825126647949 0.227474316954613 0.000000000000000
6.456983089447021 7.487591266632080 0.174871116876602 0.000000000000000
5.720146656036377 6.648928642272949 1.614514946937561 0.000000000000000
5.599768638610840 7.140677928924561 0.213796228170395 0.000000000000000
5.690798759460449 7.969989299774170 0.287931263446808 0.000000000000000
6.378766536712646 8.055323600769043 0.603668868541718 0.000000000000000
6.599483013153076 7.542992591857910 0.825618207454681 0.003921568859369
7.092893600463867 7.294962406158447 -0.118506290018559 0.003921568859369
16.842210769653320 23.110252380371094 0.167288929224014 0.003921568859369
6.476356029510498 7.358024597167969 -0.517006099224091 0.000000000000000
5.726860046386719 6.474312782287598 1.591562032699585 0.000000000000000
5.528571128845215 6.213228225708008 1.532014608383179 0.000000000000000
5.372933864593506 7.319880962371826 0.267231881618500 0.000000000000000
6.372447967529297 7.824279308319092 1.249320983886719 0.003921568859369
6.660716533660889 8.059383392333984 1.294169425964355 0.000000000000000
7.283273220062256 7.743085861206055 0.187806576490402 0.000000000000000
6.705118656158447 7.137748241424561 1.800351500511169 0.000000000000000
6.783554553985596 7.169499874114990 0.174541667103767 0.000000000000000
5.830270290374756 7.474504947662354 0.278751164674759 0.000000000000000
7.764008045196533 7.325621604919434 0.126169681549072 0.000000000000000
6.590108394622803 7.582233428955078 0.590201616287231 0.000000000000000
6.555050849914551 7.434636116027832 0.233260050415993 0.000000000000000
6.776080131530762 6.964543819427490 1.786727666854858 0.000000000000000
6.493669986724854 7.366140365600586 -0.229304447770119 0.000000000000000
6.533922672271729 6.536799430847168 0.761856198310852 0.000000000000000
6.633691310882568 6.588790893554688 0.770645737648010 0.000000000000000
5.473839759826660 5.922135829925537 2.180154085159302 0.000000000000000
7.055162906646729 6.845758438110352 0.809383749961853 0.000000000000000
6.571373462677002 7.502023696899414 0.293089449405670 0.003921568859369
7.584052085876465 6.956205368041992 0.847158849239349 0.000000000000000
7.850948333740234 7.097376823425293 0.187019601464272 0.000000000000000
7.921637058258057 7.101413726806641 0.187869295477867 0.000000000000000
5.582984447479248 5.469662189483643 0.968541860580444 0.000000000000000
7.178137779235840 6.961120128631592 1.236705660820007 0.000000000000000
7.001693725585938 7.385781764984131 0.298932790756226 0.000000000000000
13.309409141540527 11.388893127441406 3.207579612731934 0.003921568859369
7.577273368835449 7.090884685516357 0.000969695742242 0.003921568859369
7.861082553863525 7.353442192077637 1.330817341804504 0.000000000000000
7.927645206451416 7.363232612609863 1.337645411491394 0.000000000000000
7.308444499969482 6.156287193298340 1.755923867225647 0.000000000000000
8.038367271423340 7.412783145904541 1.351787328720093 0.000000000000000
8.002571105957031 7.166857242584229 1.327427506446838 0.000000000000000
4.938100814819336 4.449847698211670 1.798103570938110 0.000000000000000
7.966704368591309 7.087534427642822 1.317677497863770 0.000000000000000
7.130911350250244 5.751032352447510 1.682739853858948 0.000000000000000
9.689700126647949 7.516352653503418 1.007419943809509 0.000000000000000
7.453040599822998 5.754001617431641 1.729396939277649 0.000000000000000
7.444861412048340 5.706268310546875 1.722940087318420 0.000000000000000
3.914305210113525 3.293272495269775 1.385985493659973 0.000000000000000
15.273973464965820 11.467350959777832 3.494135141372681 0.003921568859369
5.722339630126953 4.297730922698975 1.316032528877258 0.000000000000000
7.698471546173096 5.682247638702393 1.755963802337646 0.000000000000000
8.026579856872559 7.133837699890137 0.315074980258942 0.003921568859369
1.632912397384644 1.358968377113342 0.584551513195038 0.000000000000000
5.902354240417480 4.304882049560547 1.343309760093689 0.000000000000000
12.477413177490234 8.977273941040039 1.260829448699951 0.000000000000000
1.713362216949463 1.412988066673279 0.610438287258148 0.000000000000000
4.840198993682861 3.487444639205933 0.105984270572662 0.000000000000000
2.907733440399170 2.099514722824097 0.665117740631104 0.000000000000000
15.624681472778320 10.982441902160645 3.494171142578125 0.003921568859369
9.638671875000000 6.693270683288574 0.963847279548645 0.000000000000000
5.733650684356689 3.964517593383789 0.573915958404541 0.000000000000000
7.158071517944336 5.475543498992920 2.428573369979858 0.000000000000000
15.543460845947266 10.517642021179199 3.432274580001831 0.003921568859369
6.890658855438232 5.123185634613037 1.061102867126465 0.000000000000000
2.646814107894897 1.784544348716736 0.591822028160095 0.000000000000000
2.614770889282227 1.531547427177429 -0.287130236625671 0.000000000000000
7.090078830718994 4.462023258209229 0.688087046146393 0.000000000000000
11.371420860290527 7.082087516784668 1.098032116889954 0.000000000000000
7.612621307373047 5.245219230651855 1.140946507453918 0.000000000000000
5.995380401611328 3.631363391876221 0.576407849788666 0.000000000000000
10.721489906311035 6.891836643218994 1.571045875549316 0.000000000000000
7.072829723358154 4.514287948608398 1.035001873970032 0.000000000000000
17.063390731811523 9.403206825256348 3.559628725051880 0.003921568859369
3.857436656951904 2.126950263977051 0.181366488337517 0.000000000000000
4.960101127624512 2.982114553451538 0.339567869901657 0.000000000000000
10.621278762817383 6.260406494140625 3.313591957092285 0.000000000000000
7.017835140228271 3.660262584686279 0.139363870024681 0.000000000000000
10.363624572753906 5.344173431396484 2.131432771682739 0.000000000000000
3.238423347473145 1.610530495643616 -0.297136723995209 0.000000000000000
11.927185058593750 5.734352588653564 2.418470382690430 0.000000000000000
5.418762683868408 2.876650094985962 0.756956517696381 0.000000000000000
6.241737365722656 3.250090360641479 1.890690922737122 0.000000000000000
7.139162063598633 3.622770786285400 0.985485732555389 0.000000000000000
10.649512290954590 5.534894943237305 0.349731355905533 0.000000000000000
6.225333213806152 2.784041643142700 0.838600695133209 0.000000000000000
19.153472900390625 8.472225189208984 5.614566326141357 0.003921568859369
16.238300323486328 6.194984912872314 3.170762062072754 0.003921568859369
9.347315788269043 4.537693500518799 0.302826225757599 0.000000000000000
10.309090614318848 3.764439821243286 0.447128802537918 0.000000000000000
11.383161544799805 4.705753326416016 3.300460577011108 0.000000000000000
4.376676082611084 1.529260873794556 0.188881799578667 0.000000000000000
4.553175926208496 1.755098938941956 0.284183531999588 0.000000000000000
2.564363002777100 0.690958082675934 -0.030918719246984 0.000000000000000
17.986000061035156 6.710144042968750 1.117176890373230 0.000000000000000
16.530456542968750 4.204819679260254 -0.993028700351715 0.003921568859369
4.069497108459473 1.231791734695435 -0.123580828309059 0.000000000000000
16.463697433471680 4.126722335815430 -0.988144576549530 0.003921568859369
4.096752166748047 1.224500656127930 -0.124279305338860 0.000000000000000
16.501260757446289 4.075014114379883 -0.989540457725525 0.003921568859369
5.362517356872559 1.872288465499878 0.131815820932388 0.000000000000000
16.480464935302734 4.008920669555664 -0.987447500228882 0.003921568859369
16.471063613891602 3.945814609527588 -0.986052215099335 0.003921568859369
16.484733581542969 3.888334512710571 -0.986052513122559 0.003921568859369
9.353363037109375 2.693233728408813 1.772708415985107 0.000000000000000
8.115243911743164 3.189423322677612 -0.558380126953125 0.000000000000000
16.498208999633789 3.830799341201782 -0.986052870750427 0.003921568859369
16.455665588378906 3.766502857208252 -0.982796788215637 0.003921568859369
16.511564254760742 3.718726634979248 -0.985355615615845 0.003921568859369
5.006731510162354 1.364151358604431 -0.150717139244080 0.000000000000000
14.704341888427734 4.017064571380615 -0.088936068117619 0.000000000000000
16.479942321777344 3.648973703384399 -0.982347905635834 0.003921568859369
16.520515441894531 3.594574689865112 -0.983977019786835 0.003921568859369
6.460618495941162 1.736531615257263 0.271471649408340 0.000000000000000
16.525156021118164 3.535278558731079 -0.983512401580811 0.003921568859369
8.634809494018555 3.186617136001587 -0.588994085788727 0.000000000000000
16.521158218383789 3.477228164672852 -0.982582390308380 0.003921568859369
6.467807292938232 1.691470026969910 0.543874979019165 0.000000000000000
16.533197402954102 3.419603109359741 -0.982582986354828 0.003921568859369
8.797908782958984 3.175722599029541 -0.163268104195595 0.000000000000000
8.329939842224121 2.554787874221802 0.201970353722572 0.000000000000000
16.537792205810547 3.357470035552979 -0.982118368148804 0.003921568859369
16.572906494140625 3.304485797882080 -0.983514785766602 0.003921568859369
16.563615798950195 3.248615264892578 -0.982352077960968 0.003921568859369
16.590539932250977 3.193875074386597 -0.983283281326294 0.003921568859369
5.907179355621338 1.436164259910583 -0.317854583263397 0.000000000000000
16.637994766235352 3.136895895004272 -0.985377609729767 0.003921568859369
16.694881439208984 3.093417644500732 -0.988169789314270 0.003921568859369
17.322164535522461 4.093135833740234 -0.932301223278046 0.003921568859369
5.775861263275146 1.339365839958191 -0.172260940074921 0.000000000000000
9.047673225402832 1.640529870986938 -0.107165418565273 0.000000000000000
13.403196334838867 3.114249229431152 0.559374034404755 0.000000000000000
17.305929183959961 4.022437572479248 -0.930626571178436 0.003921568859369
11.138928413391113 2.587334632873535 2.081009387969971 0.000000000000000
17.322141647338867 3.960259914398193 -0.930464565753937 0.003921568859369
17.307901382446289 3.896739244461060 -0.928999245166779 0.003921568859369
17.286304473876953 3.828613758087158 -0.927115142345428 0.003921568859369
17.280704498291016 3.761090278625488 -0.926068782806396 0.003921568859369
10.122598648071289 2.687181472778320 -0.000545833318029 0.003921568859369
17.285272598266602 3.702192306518555 -0.925650775432587 0.003921568859369
6.112344264984131 1.619389533996582 1.686039924621582 0.000000000000000
6.260210514068604 1.635513901710510 0.374683409929276 0.000000000000000
15.910562515258789 3.349292993545532 -0.851292133331299 0.003921568859369
5.033001899719238 1.293776392936707 -0.361731231212616 0.000000000000000
12.038183212280273 3.105362892150879 0.721714854240417 0.000000000000000
8.890732765197754 1.834850668907166 0.368131875991821 0.000000000000000
17.299587249755859 3.576193332672119 -0.925024330615997 0.003921568859369
4.982913970947266 1.264235019683838 -0.357823491096497 0.000000000000000
17.342052459716797 3.528299093246460 -0.926700890064240 0.003921568859369
11.298479080200195 2.255618572235107 -0.067378364503384 0.000000000000000
3.449589014053345 0.684475839138031 -0.183103755116463 0.000000000000000
4.360308647155762 1.073166966438293 -0.312323719263077 0.000000000000000
11.642093658447266 2.791969299316406 -0.835718750953674 0.000000000000000
5.494698524475098 0.992162704467773 -0.032768487930298 0.000000000000000
8.480445861816406 1.535240054130554 1.563426136970520 0.000000000000000
11.238860130310059 1.996672272682190 -0.331834673881531 0.000000000000000
15.311561584472656 3.388146400451660 1.919716477394104 0.000000000000000
14.482056617736816 3.048466920852661 -0.000912649091333 0.000000000000000
16.256063461303711 1.795794606208801 0.188931673765182 0.003921568859369
5.441269397735596 1.100748300552368 -0.000543649483006 0.000000000000000
14.682053565979004 1.466451168060303 0.170370310544968 0.000000000000000
11.287417411804199 1.684754252433777 2.072713613510132 0.000000000000000
4.978132247924805 1.223770499229431 -0.089319974184036 0.000000000000000
6.774155139923096 1.298360824584961 -0.000748737133108 0.000000000000000
13.359355926513672 2.569977283477783 -0.948937714099884 0.000000000000000
7.007772445678711 1.699807405471802 -0.292545318603516 0.000000000000000
17.982959747314453 2.497620105743408 3.299766063690186 0.003921568859369
7.673383712768555 1.033287525177002 -0.224682092666626 0.000000000000000
14.973776817321777 2.022767066955566 2.744596242904663 0.000000000000000
10.272400856018066 1.863037347793579 0.604181051254272 0.000000000000000
7.603365421295166 0.998284161090851 0.621152043342590 0.000000000000000
5.074967861175537 1.135045647621155 -0.090573884546757 0.000000000000000
11.149888038635254 2.507333040237427 0.330198615789413 0.000000000000000
10.166830062866211 2.285284519195557 -0.423459649085999 0.000000000000000
12.998095512390137 2.834711551666260 0.384677112102509 0.000000000000000
7.881516933441162 0.926762640476227 0.642941594123840 0.000000000000000
5.239608764648438 0.854349792003632 0.305604249238968 0.000000000000000
13.704339981079102 2.889616966247559 -0.569700121879578 0.000000000000000
7.460074901580811 0.772155880928040 0.302719920873642 0.000000000000000
9.205688476562500 1.374782919883728 -0.001055324450135 0.003921568859369
3.412157535552979 0.672729790210724 0.098798602819443 0.000000000000000
4.541675567626953 0.899447917938232 -0.293686032295227 0.000000000000000
4.442960262298584 0.863732218742371 -0.287028670310974 0.000000000000000
11.055982589721680 1.068244457244873 0.900662899017334 0.000000000000000
8.875473022460938 1.262261867523193 0.517564296722412 0.000000000000000
11.030466079711914 0.450025141239166 -0.129009321331978 0.000000000000000
14.438243865966797 1.295580387115479 1.177086234092712 0.000000000000000
8.444294929504395 0.314633369445801 -0.489624828100204 0.000000000000000
10.494915008544922 0.866872549057007 0.181613519787788 0.000000000000000
5.328859806060791 0.962110757827759 -0.219001576304436 0.000000000000000
7.502724170684814 0.567314386367798 -0.044338941574097 0.000000000000000
8.301572799682617 0.195527002215385 0.094951808452606 0.000000000000000
4.091224670410156 0.293100267648697 0.736105442047119 0.000000000000000
17.838729858398438 1.230401754379272 1.453177809715271 0.000000000000000
2.745510101318359 0.176426172256470 -0.078968130052090 0.000000000000000
15.589838981628418 2.559508085250854 -0.642670691013336 0.000000000000000
7.111355781555176 0.438548058271408 0.575775802135468 0.000000000000000
11.455011367797852 0.111079454421997 -0.399002939462662 0.000000000000000
8.599127769470215 0.500528991222382 1.556435823440552 0.000000000000000
8.443655014038086 0.462080419063568 1.527747869491577 0.000000000000000
8.944318771362305 0.458652108907700 1.618829250335693 0.000000000000000
18.420413970947266 1.850655078887939 -0.431078940629959 0.000000000000000
5.298839092254639 0.749594151973724 0.152766615152359 0.000000000000000
7.406818389892578 0.327868461608887 0.598377168178558 0.000000000000000
10.177788734436035 0.451678156852722 1.843305349349976 0.000000000000000
9.940493583679199 0.925869226455688 -0.231973558664322 0.000000000000000
1.078626513481140 0.140955790877342 -0.065876848995686 0.003921568859369
15.733191490173340 0.645194470882416 1.277958989143372 0.000000000000000
10.734765052795410 0.402033179998398 -0.063392013311386 0.000000000000000
13.912741661071777 1.886035203933716 0.404991418123245 0.000000000000000
6.708397388458252 0.250217348337173 1.210033535957336 0.000000000000000
14.029927253723145 0.431137025356293 -0.408069580793381 0.000000000000000
5.517161369323730 0.435265302658081 -0.000970791443251 0.000000000000000
14.416471481323242 1.146408796310425 0.836500883102417 0.000000000000000
9.976410865783691 0.791582465171814 1.218854188919067 0.000000000000000
7.897805213928223 0.241713061928749 1.426620841026306 0.000000000000000
14.522141456604004 -0.313062489032745 -0.169952735304832 0.000000000000000
15.524536132812500 0.420602291822433 -0.091582417488098 0.000000000000000
9.995080947875977 0.756479799747467 1.220802068710327 0.000000000000000
13.917238235473633 0.376799762248993 2.523904561996460 0.000000000000000
9.895537376403809 0.234805479645729 -0.287325173616409 0.000000000000000
9.942783355712891 -0.246619760990143 0.113646842539310 0.000000000000000
9.125863075256348 0.216389685869217 0.738191366195679 0.000000000000000
12.795236587524414 1.510347485542297 -0.225170865654945 0.000000000000000
9.086647033691406 0.593256175518036 0.208604618906975 0.000000000000000
5.602968692779541 0.093392290174961 0.095282331109047 0.000000000000000
12.864201545715332 0.216165482997894 0.519139111042023 0.000000000000000
14.021800994873047 0.138406872749329 0.241502851247787 0.000000000000000
8.463753700256348 0.464124530553818 -0.001364059047773 0.003921568859369
10.789684295654297 1.119676947593689 0.311812907457352 0.000000000000000
12.452634811401367 0.641635775566101 0.286571145057678 0.000000000000000
13.918597221374512 0.040748756378889 1.127817630767822 0.000000000000000
11.521819114685059 -0.565807044506073 -0.135013550519943 0.000000000000000
15.290023803710938 0.735453128814697 4.078074455261230 0.000000000000000
4.546152591705322 0.215978473424911 -0.105063050985336 0.000000000000000
6.921710014343262 0.306930780410767 -0.001234075054526 0.000000000000000
16.641958236694336 -0.066830717027187 0.286996215581894 0.003921568859369
5.619970321655273 -0.022346882149577 0.224552229046822 0.000000000000000
16.485933303833008 -0.123526513576508 2.989081859588623 0.003921568859369
17.312915802001953 1.501233339309692 -0.706831336021423 0.003921568859369
2.866928100585938 0.096281744539738 -0.000887529982720 0.000000000000000
12.343117713928223 -0.175755962729454 -0.072992667555809 0.000000000000000
13.315359115600586 1.106448292732239 -0.542850792407990 0.000000000000000
8.961921691894531 0.275820285081863 0.205351129174232 0.000000000000000
17.898605346679688 -0.317639499902725 1.452596664428711 0.000000000000000
10.420626640319824 -0.184347435832024 1.883976459503174 0.000000000000000
8.412061691284180 0.637983620166779 0.047208853065968 0.000000000000000
8.570048332214355 0.589770853519440 0.047859568148851 0.000000000000000
14.852841377258301 0.303676366806030 1.810766458511353 0.000000000000000
8.157697677612305 0.532796442508698 0.233781263232231 0.000000000000000
17.902526855468750 -0.566432237625122 1.452314496040344 0.000000000000000
4.207436561584473 0.243055388331413 0.022842964157462 0.000000000000000
7.149918556213379 -0.273823618888855 0.575285434722900 0.000000000000000
4.464897155761719 -0.184949859976768 -0.128578305244446 0.000000000000000
11.523010253906250 -0.483425021171570 0.464321821928024 0.000000000000000
16.700656890869141 -0.702388763427734 1.354790806770325 0.000000000000000
8.008546829223633 -0.002943099709228 0.182741507887840 0.000000000000000
7.502110481262207 -0.026044255122542 0.430170327425003 0.000000000000000
15.470379829406738 -0.054031319916248 -0.360111802816391 0.000000000000000
5.773006916046143 -0.039794471114874 0.130942195653915 0.000000000000000
17.456914901733398 -0.121670491993427 1.008959174156189 0.000000000000000
10.706850051879883 -0.074343167245388 -0.496300369501114 0.000000000000000
7.818245887756348 -0.081095725297928 -0.001486077904701 0.000000000000000
6.086098670959473 0.209240064024925 -0.106023930013180 0.000000000000000
9.009490013122559 0.311245381832123 0.258128404617310 0.000000000000000
4.399177551269531 0.150377497076988 -0.277443110942841 0.000000000000000
9.044898986816406 -0.157896444201469 -0.209944739937782 0.000000000000000
16.092123031616211 0.443486124277115 -0.281770646572113 0.003921568859369
14.485663414001465 -0.304208189249039 0.332423150539398 0.000000000000000
7.343909740447998 0.200890555977821 -0.296800553798676 0.000000000000000
7.357131958007812 -0.153436556458473 -0.170493572950363 0.000000000000000
5.379101276397705 0.127956628799438 0.029306324198842 0.000000000000000
6.994165897369385 0.144235998392105 -0.121906906366348 0.000000000000000
2.549112558364868 -0.068431176245213 -0.115174010396004 0.000000000000000
23.969923019409180 -2.009260892868042 4.363815784454346 0.003921568859369
14.685718536376953 0.149829596281052 -0.256984055042267 0.000000000000000
10.515381813049316 -0.402185469865799 0.605018734931946 0.000000000000000
8.217122077941895 0.057876229286194 0.234525009989738 0.000000000000000
14.279103279113770 -1.288223505020142 1.159823775291443 0.000000000000000
10.352430343627930 -0.002052857540548 0.296429246664047 0.000000000000000
4.210748195648193 -0.201848372817039 1.101305603981018 0.000000000000000
3.779649972915649 -0.193525686860085 -0.001216695876792 0.000000000000000
4.248602867126465 -0.218223467469215 1.111653685569763 0.000000000000000
3.821957588195801 -0.207478404045105 0.085503302514553 0.000000000000000
8.954593658447266 -0.122172281146049 -0.362293839454651 0.000000000000000
10.204209327697754 -0.209925591945648 -0.413411140441895 0.000000000000000
6.481984138488770 -0.782449245452881 0.110364943742752 0.000000000000000
7.393275260925293 -0.560546278953552 -0.001780974911526 0.000000000000000
10.297636032104492 -1.287174463272095 -0.061827342957258 0.000000000000000
8.557637214660645 -0.321756958961487 -0.346295714378357 0.000000000000000
5.915523052215576 -0.546807348728180 -0.137275010347366 0.000000000000000
5.964446544647217 -0.653556764125824 -0.001760167302564 0.000000000000000
5.285537242889404 -0.834785997867584 0.211465075612068 0.000000000000000
15.647507667541504 -1.791496753692627 0.907165408134460 0.000000000000000
11.133235931396484 -1.859009146690369 2.033720731735229 0.000000000000000
6.109007358551025 -1.097048878669739 1.108139872550964 0.000000000000000
7.481982707977295 -0.640344321727753 0.213080212473869 0.000000000000000
27.344999313354492 -6.572021961212158 0.321295052766800 0.003921568859369
12.502307891845703 -1.206878781318665 -0.219817280769348 0.000000000000000
6.789445400238037 -0.979883432388306 0.154571935534477 0.000000000000000
27.300260543823242 -6.860732078552246 0.321080714464188 0.003921568859369
7.068036556243896 -1.045646905899048 0.859295308589935 0.000000000000000
10.116269111633301 -1.044537782669067 0.289678663015366 0.000000000000000
3.465748310089111 -0.682806372642517 0.619060277938843 0.000000000000000
16.252178192138672 -2.545310497283936 4.369578361511230 0.003921568859369
4.313489913940430 -0.947297036647797 0.173030167818069 0.000000000000000
4.087563037872314 -0.735850691795349 1.073880076408386 0.000000000000000
16.164178848266602 -3.103615045547485 4.369305610656738 0.003921568859369
11.951709747314453 -1.820360422134399 -0.211600691080093 0.000000000000000
27.927799224853516 -9.110079765319824 0.334699630737305 0.003921568859369
25.533575057983398 -5.746759891510010 6.970460414886475 0.003921568859369
6.965641975402832 -1.220226407051086 -0.123228184878826 0.000000000000000
27.014427185058594 -6.178298950195312 0.635546803474426 0.003921568859369
25.837816238403320 -7.342362880706787 2.175168991088867 0.003921568859369
27.618461608886719 -7.944774627685547 2.328143835067749 0.003921568859369
10.648148536682129 -2.065538406372070 -0.189764216542244 0.000000000000000
8.463164329528809 -2.061955928802490 -0.002668145811185 0.003921568859369
25.567491531372070 -7.640851497650146 2.160879850387573 0.003921568859369
25.383520126342773 -6.451468944549561 1.511119484901428 0.003921568859369
25.230249404907227 -7.735571384429932 2.136846542358398 0.003921568859369
8.392727851867676 -2.228701114654541 -0.201331242918968 0.000000000000000
26.236099243164062 -8.639771461486816 2.236168861389160 0.003921568859369
25.530368804931641 -7.242075920104980 7.062818050384521 0.003921568859369
22.449802398681641 -6.446901321411133 2.843341350555420 0.003921568859369
27.833278656005859 -9.491675376892090 5.327159881591797 0.003921568859369
25.443056106567383 -7.403640747070312 1.528131961822510 0.003921568859369
22.121683120727539 -7.614071846008301 1.891945123672485 0.003921568859369
25.994644165039062 -8.956864356994629 4.978810787200928 0.003921568859369
26.356403350830078 -9.292795181274414 5.061241626739502 0.003921568859369
21.866752624511719 -7.785516262054443 1.877010226249695 0.003921568859369
25.645948410034180 -9.337296485900879 4.942261695861816 0.003921568859369
27.731927871704102 -8.704852104187012 0.666271507740021 0.003921568859369
13.513169288635254 -4.263661861419678 3.748812675476074 0.000000000000000
25.815103530883789 -8.387890815734863 0.621290266513824 0.003921568859369
26.124979019165039 -10.229875564575195 5.079499721527100 0.003921568859369
23.009769439697266 -9.094273567199707 2.000719547271729 0.003921568859369
24.217105865478516 -9.765114784240723 4.725440979003906 0.003921568859369
22.428686141967773 -9.220350265502930 4.386431694030762 0.003921568859369
3.935017108917236 -1.168559789657593 -0.070894047617912 0.000000000000000
23.853921890258789 -8.753238677978516 3.092337369918823 0.003921568859369
20.556562423706055 -8.780225753784180 1.805258274078369 0.003921568859369
21.063007354736328 -8.998396873474121 4.139548301696777 0.003921568859369
20.503284454345703 -8.833066940307617 1.802987694740295 0.003921568859369
21.190456390380859 -8.019446372985840 2.755073547363281 0.003921568859369
22.100572586059570 -9.618448257446289 1.947789072990417 0.003921568859369
21.835300445556641 -9.501965522766113 4.305107593536377 0.003921568859369
16.921981811523438 -6.460438728332520 4.802739143371582 0.003921568859369
14.885416030883789 -6.516642570495605 2.927633047103882 0.003921568859369
16.805728912353516 -6.482333660125732 4.775843620300293 0.003921568859369
20.983657836914062 -9.306330680847168 4.148874759674072 0.003921568859369
23.419410705566406 -9.342717170715332 6.704157829284668 0.003921568859369
24.211082458496094 -9.753792762756348 3.177523612976074 0.003921568859369
11.748517036437988 -4.832598686218262 3.352155685424805 0.000000000000000
20.527431488037109 -9.696465492248535 4.101258754730225 0.003921568859369
24.233795166015625 -10.147347450256348 1.512677788734436 0.003921568859369
19.399257659912109 -9.236924171447754 1.733867764472961 0.003921568859369
25.967065811157227 -11.091530799865723 1.626685976982117 0.003921568859369
22.112468719482422 -10.730654716491699 4.443110942840576 0.003921568859369
22.434783935546875 -10.984842300415039 4.516212940216064 0.003921568859369
21.250343322753906 -9.241013526916504 1.332879066467285 0.003921568859369
21.438611984252930 -9.323461532592773 6.210379123687744 0.003921568859369
23.052997589111328 -11.394561767578125 4.650230884552002 0.003921568859369
23.872085571289062 -10.485214233398438 3.172794342041016 0.003921568859369
21.481773376464844 -9.426716804504395 6.232105731964111 0.003921568859369
19.480817794799805 -9.782930374145508 1.759531736373901 0.003921568859369
24.073356628417969 -10.774362564086914 3.209785461425781 0.003921568859369
20.691667556762695 -10.663715362548828 4.206639766693115 0.003921568859369
20.592035293579102 -10.788224220275879 4.199143886566162 0.003921568859369
4.773734092712402 -2.734531641006470 -0.064820557832718 0.000000000000000
20.436204910278320 -10.796344757080078 4.174782752990723 0.003921568859369
22.533142089843750 -12.015511512756348 4.616221904754639 0.003921568859369
18.926437377929688 -10.155256271362305 1.732622623443604 0.003921568859369
20.560209274291992 -9.785863876342773 6.045593261718750 0.003921568859369
22.957227706909180 -11.036166191101074 3.098006725311279 0.003921568859369
19.232900619506836 -10.407465934753418 3.948344469070435 0.003921568859369
13.608929634094238 -6.560165882110596 3.994336366653442 0.000000000000000
21.954481124877930 -12.193576812744141 2.028664350509644 0.003921568859369
3.621825695037842 -1.932930469512939 0.157560840249062 0.000000000000000
19.207008361816406 -9.547391891479492 2.605092287063599 0.003921568859369
23.279195785522461 -13.042049407958984 4.825503349304199 0.003921568859369
21.844577789306641 -12.331324577331543 2.026401996612549 0.003921568859369
20.057840347290039 -10.061597824096680 5.957687854766846 0.003921568859369
9.701591491699219 -5.456796169281006 -0.067699790000916 0.000000000000000
19.897727966308594 -10.140042304992676 5.926334857940674 0.003921568859369
24.403678894042969 -12.680853843688965 7.310352325439453 0.003921568859369
5.173785209655762 -2.688950300216675 -0.003024697070941 0.000000000000000
21.424579620361328 -11.495160102844238 1.397839307785034 0.003921568859369
23.343456268310547 -12.639296531677246 7.054883003234863 0.003921568859369
19.126308441162109 -10.594011306762695 1.255860924720764 0.003921568859369
23.456066131591797 -14.554569244384766 2.230909824371338 0.003921568859369
23.550449371337891 -13.179192543029785 1.553064584732056 0.003921568859369
22.697072982788086 -14.188825607299805 2.162758827209473 0.003921568859369
2.577507257461548 -1.497496128082275 0.046254195272923 0.000000000000000
23.523614883422852 -13.260525703430176 1.553156614303589 0.003921568859369
23.201656341552734 -14.607712745666504 2.214642286300659 0.003921568859369
19.669368743896484 -11.066828727722168 5.988119602203369 0.003921568859369
22.494966506958008 -12.881422996520996 6.885949134826660 0.003921568859369
19.205257415771484 -11.067464828491211 5.880561351776123 0.003921568859369
22.034276962280273 -13.024727821350098 6.799086093902588 0.003921568859369
19.654722213745117 -11.696049690246582 6.069869518280029 0.003921568859369
22.339248657226562 -13.417169570922852 6.923221588134766 0.003921568859369
16.525983810424805 -11.014966964721680 3.580965280532837 0.003921568859369
19.617544174194336 -12.045722961425781 6.110231876373291 0.003921568859369
16.686302185058594 -11.621387481689453 3.665973186492920 0.003921568859369
17.751943588256836 -11.218792915344238 2.547359228134155 0.003921568859369
20.169097900390625 -12.766273498535156 6.335407733917236 0.003921568859369
16.633554458618164 -11.756606101989746 3.672434329986572 0.003921568859369
16.598798751831055 -11.818389892578125 3.673873662948608 0.003921568859369
18.225049972534180 -11.878893852233887 5.769656658172607 0.003921568859369
17.881061553955078 -11.740453720092773 5.672435283660889 0.003921568859369
21.353214263916016 -15.590570449829102 4.778063774108887 0.003921568859369
18.967454910278320 -12.652689933776855 6.049979209899902 0.003921568859369
18.431106567382812 -13.630936622619629 4.138218402862549 0.003921568859369
15.279591560363770 -11.352712631225586 3.430292367935181 0.003921568859369
17.046751022338867 -11.689624786376953 2.506386041641235 0.003921568859369
16.134641647338867 -12.249248504638672 1.631180644035339 0.003921568859369
16.820516586303711 -11.618333816528320 2.478662729263306 0.003921568859369
17.503101348876953 -12.096337318420410 5.640240669250488 0.003921568859369
16.745069503784180 -12.811525344848633 3.802034854888916 0.003921568859369
9.610423088073730 -6.614158630371094 3.067890644073486 0.000000000000000
9.577831268310547 -6.640100002288818 3.064791440963745 0.000000000000000
21.562397003173828 -16.912389755249023 2.213031053543091 0.003921568859369
3.657386302947998 -2.992541313171387 -0.161629140377045 0.000000000000000
9.538890838623047 -6.661392688751221 3.059623718261719 0.000000000000000
19.524492263793945 -14.021372795104980 2.919467449188232 0.003921568859369
19.449842453002930 -14.069421768188477 6.371553897857666 0.003921568859369
16.992897033691406 -13.575531959533691 3.923892974853516 0.003921568859369
21.423023223876953 -17.289089202880859 2.223457336425781 0.003921568859369
19.336942672729492 -14.289194107055664 2.919358968734741 0.003921568859369
20.163394927978516 -16.485601425170898 2.101976633071899 0.003921568859369
18.618728637695312 -13.750993728637695 6.139749050140381 0.003921568859369
15.715538978576660 -12.986028671264648 1.641535878181458 0.003921568859369
20.183788299560547 -15.141024589538574 6.698301792144775 0.003921568859369
21.144674301147461 -15.987053871154785 1.523558020591736 0.003921568859369
18.145133972167969 -13.780465126037598 6.043591976165771 0.003921568859369
20.194366455078125 -15.469887733459473 6.754184722900391 0.003921568859369
15.105387687683105 -12.826642990112305 3.571312189102173 0.003921568859369
21.473897933959961 -16.701633453369141 3.307170152664185 0.003921568859369
20.765460968017578 -16.266195297241211 3.205987691879272 0.003921568859369
15.083012580871582 -11.840597152709961 2.323468923568726 0.003921568859369
13.777038574218750 -11.924860954284668 3.281139373779297 0.003921568859369
18.376041412353516 -14.573751449584961 1.346700787544250 0.003921568859369
14.833012580871582 -11.888667106628418 5.031960487365723 0.003921568859369
14.241267204284668 -12.592272758483887 3.423643589019775 0.003921568859369
12.793252944946289 -11.447390556335449 3.088320970535278 0.003921568859369
14.859094619750977 -12.166758537292480 5.084737300872803 0.003921568859369
14.291097640991211 -12.905812263488770 3.468813896179199 0.003921568859369
15.954605102539062 -13.163642883300781 5.480895996093750 0.003921568859369
14.680768013000488 -13.348156929016113 3.575587511062622 0.003921568859369
14.742660522460938 -12.233369827270508 5.072341918945312 0.003921568859369
17.725559234619141 -16.280448913574219 4.345168113708496 0.003921568859369
19.015295028686523 -17.606081008911133 2.091676950454712 0.003921568859369
15.569010734558105 -13.218471527099609 2.476208925247192 0.003921568859369
17.634126663208008 -15.097363471984863 2.818242073059082 0.003921568859369
14.763968467712402 -12.692141532897949 2.359461545944214 0.003921568859369
16.475942611694336 -15.653672218322754 1.832432270050049 0.003921568859369
19.557418823242188 -17.012996673583984 1.489834666252136 0.003921568859369
19.079301834106445 -18.300807952880859 2.134581565856934 0.003921568859369
16.302501678466797 -15.705112457275391 1.824554204940796 0.003921568859369
16.244745254516602 -15.758171081542969 1.824242115020752 0.003921568859369
17.108926773071289 -16.721290588378906 1.929401278495789 0.003921568859369
11.530039787292480 -10.276702880859375 4.078318119049072 0.003921568859369
14.791506767272949 -14.724960327148438 1.681171536445618 0.003921568859369
15.806387901306152 -14.578969001770020 1.233433246612549 0.003921568859369
11.973255157470703 -12.109174728393555 3.064014911651611 0.003921568859369
16.448221206665039 -16.863452911376953 4.252821445465088 0.003921568859369
11.188167572021484 -10.461194038391113 4.045274734497070 0.003921568859369
12.378653526306152 -12.794144630432129 3.205209970474243 0.003921568859369
7.981114387512207 -8.193248748779297 2.044986009597778 0.003921568859369
8.621947288513184 -9.866463661193848 0.145301774144173 0.000000000000000
15.488757133483887 -16.302875518798828 1.812605500221252 0.003921568859369
5.784704208374023 -6.556098461151123 0.095508001744747 0.000000000000000
13.528018951416016 -15.894563674926758 -0.247654736042023 0.003921568859369
15.646048545837402 -16.703182220458984 4.130262374877930 0.003921568859369
11.565498352050781 -11.355327606201172 1.959500074386597 0.003921568859369
10.889697074890137 -11.773660659790039 1.287859797477722 0.000000000000000
15.123211860656738 -16.582857131958008 1.809442162513733 0.003921568859369
13.028785705566406 -14.348091125488281 1.560190439224243 0.000000000000000
9.068574905395508 -8.966350555419922 3.358425617218018 0.003921568859369
16.170782089233398 -16.437568664550781 1.323827862739563 0.003921568859369
