# This PCD file was generated using the MATLAB® pcwrite function
# from Computer Vision Toolbox®.
# .PCD v.7 - Point Cloud Data file format
VERSION .7
FIELDS x y z intensity
SIZE 8 8 8 8
TYPE F F F F
COUNT 1 1 1 1
WIDTH 645
HEIGHT 1
VIEWPOINT 0 0 0 1 0 0 0
POINTS 645
DATA ascii
-6.960756778717041 0.119125664234161 -0.183102026581764 0.000000000000000
-13.715556144714355 0.247384130954742 1.060397505760193 0.000000000000000
-6.537492752075195 -0.442905604839325 0.171445965766907 0.000000000000000
-8.923964500427246 0.183852717280388 0.334721624851227 0.000000000000000
-10.772734642028809 -0.728243052959442 -0.178585648536682 0.000000000000000
-9.435588836669922 0.654758989810944 -0.104185417294502 0.000000000000000
-9.928450584411621 -0.667160511016846 0.052468162029982 0.000000000000000
-8.274671554565430 -0.147182688117027 0.932244539260864 0.000000000000000
-10.846898078918457 0.299645900726318 0.828027307987213 0.000000000000000
-11.678436279296875 0.977797150611877 -0.132113501429558 0.000000000000000
-9.400629043579102 0.347235143184662 0.354370772838593 0.000000000000000
-8.688488006591797 -0.072158493101597 2.148148536682129 0.000000000000000
-20.824268341064453 0.802237272262573 3.669211149215698 0.003921568859369
-13.058341026306152 -0.070443078875542 -0.003600136144087 0.000000000000000
-7.860679149627686 -0.014194490388036 0.166758671402931 0.000000000000000
-17.055841445922852 0.769855082035065 2.984773159027100 0.003921568859369
-8.833753585815430 0.811635255813599 -0.097227886319160 0.000000000000000
-12.264265060424805 0.015894221141934 1.420728921890259 0.000000000000000
-6.872961521148682 0.312512695789337 1.132631301879883 0.000000000000000
-6.670477390289307 0.029034759849310 0.000016751699150 0.000000000000000
-11.579005241394043 0.586640715599060 0.888953149318695 0.000000000000000
-9.418593406677246 0.531382858753204 -0.257035225629807 0.000000000000000
-11.257979393005371 1.164507627487183 -0.127322673797607 0.000000000000000
-23.713985443115234 1.401048302650452 4.198853969573975 0.003921568859369
-3.773449182510376 0.036947321146727 -0.070623375475407 0.000000000000000
-14.712990760803223 0.209379285573959 -0.004712868481874 0.000000000000000
-20.293088912963867 2.289026498794556 -0.699152231216431 0.003921568859369
-19.720592498779297 2.296464920043945 -0.679004251956940 0.003921568859369
-6.013417243957520 0.120064489543438 1.433165073394775 0.000000000000000
-19.328462600708008 2.308719873428345 -0.665244698524475 0.003921568859369
-17.457149505615234 2.142563581466675 -0.993209302425385 0.003921568859369
-19.026023864746094 2.342923641204834 -0.654760181903839 0.003921568859369
-5.707713127136230 -0.081281520426273 0.029966386035085 0.000000000000000
-17.559759140014648 1.381786942481995 -0.105549350380898 0.000000000000000
-17.399881362915039 2.195956945419312 -0.990829169750214 0.003921568859369
-18.603359222412109 2.353964328765869 -0.640224456787109 0.003921568859369
-17.345411300659180 2.242174863815308 -0.988033592700958 0.003921568859369
-9.016600608825684 -0.108839556574821 -0.341904520988464 0.000000000000000
-18.286849975585938 2.368829965591431 -0.629163801670074 0.003921568859369
-17.392862319946289 2.308050394058228 -0.991353809833527 0.003921568859369
-17.870592117309570 2.374114036560059 -0.614550888538361 0.003921568859369
-13.293367385864258 1.162205100059509 0.217082858085632 0.000000000000000
-17.127710342407227 2.330112695693970 -0.976098954677582 0.003921568859369
-17.723667144775391 2.414595365524292 -0.609604179859161 0.003921568859369
-10.740308761596680 -0.025385776534677 0.291169852018356 0.000000000000000
-16.957452774047852 2.364107847213745 -0.966486275196075 0.003921568859369
-16.935785293579102 2.361151695251465 -0.581624031066895 0.003921568859369
-17.820047378540039 1.640217900276184 3.135987043380737 0.003921568859369
-18.240196228027344 2.612998247146606 -0.628856599330902 0.003921568859369
-6.991355895996094 0.028315937146544 -0.110767610371113 0.000000000000000
-18.555032730102539 2.723666191101074 -0.640545785427094 0.003921568859369
-14.962773323059082 0.814280569553375 1.754128932952881 0.000000000000000
-18.509866714477539 2.780593633651733 -0.639295876026154 0.003921568859369
-17.695194244384766 2.711641550064087 -0.610314488410950 0.003921568859369
-12.585222244262695 0.175678446888924 -0.211703166365623 0.000000000000000
-4.884522914886475 0.688483417034149 -0.049232449382544 0.000000000000000
-10.763241767883301 0.149192675948143 0.291756123304367 0.000000000000000
-10.194050788879395 0.608191370964050 1.171015501022339 0.000000000000000
-17.807943344116211 2.790998935699463 -0.614751219749451 0.003921568859369
-3.976885318756104 0.212353482842445 0.892798066139221 0.000000000000000
-9.230714797973633 0.998821854591370 -0.253240942955017 0.000000000000000
-15.014741897583008 0.966750204563141 3.850076436996460 0.000000000000000
-10.706810951232910 1.171747088432312 1.841675758361816 0.000000000000000
-9.468943595886230 0.191475316882133 -0.155554145574570 0.000000000000000
-9.679620742797852 0.638220310211182 0.208418264985085 0.000000000000000
-19.431272506713867 2.252671480178833 -0.999573111534119 0.003921568859369
-20.251174926757812 3.329087257385254 -0.703697264194489 0.003921568859369
-19.982830047607422 2.388746976852417 -0.575895905494690 0.000000000000000
-13.787048339843750 2.279809713363647 -0.782040596008301 0.000000000000000
-11.331213951110840 0.793315231800079 0.620860219001770 0.000000000000000
-19.040575027465820 2.272160768508911 -0.979621708393097 0.003921568859369
-20.237234115600586 3.398814678192139 -0.703929960727692 0.003921568859369
-19.450817108154297 2.389711141586304 -0.560236155986786 0.000000000000000
-18.628353118896484 2.285009384155273 -0.958042919635773 0.003921568859369
-20.256742477416992 3.472755908966064 -0.705098867416382 0.003921568859369
-19.097446441650391 2.410291433334351 -0.549924492835999 0.000000000000000
-18.259836196899414 2.300698041915894 -0.938793182373047 0.003921568859369
-20.299571990966797 3.551139831542969 -0.707121133804321 0.003921568859369
-18.712459564208984 2.424176931381226 -0.538660407066345 0.000000000000000
-15.910251617431641 1.293907046318054 0.886132419109344 0.000000000000000
-17.919151306152344 2.317555904388428 -0.921025276184082 0.003921568859369
-18.375139236450195 2.441958427429199 -0.528821706771851 0.000000000000000
-16.333515167236328 2.161337852478027 0.638454020023346 0.000000000000000
-20.274301528930664 3.688261032104492 -0.707183182239532 0.003921568859369
-15.071679115295410 1.988516569137573 2.648793935775757 0.000000000000000
-18.125015258789062 2.469714641571045 -0.521597862243652 0.000000000000000
-15.777574539184570 1.389124512672424 0.878945112228394 0.000000000000000
-17.416070938110352 2.369375467300415 -0.895020723342896 0.003921568859369
-9.062895774841309 1.189977645874023 0.691848814487457 0.000000000000000
-18.080673217773438 2.525554895401001 -0.520556569099426 0.000000000000000
-17.277244567871094 2.409008264541626 -0.888056099414825 0.003921568859369
-18.486433029174805 3.481473445892334 -0.643378734588623 0.003921568859369
-9.261860847473145 1.249200224876404 1.584882974624634 0.000000000000000
-9.552847862243652 1.322226166725159 -0.264425754547119 0.000000000000000
-16.921033859252930 2.415451049804688 -0.869436085224152 0.003921568859369
-3.684856891632080 0.300886154174805 0.376375198364258 0.000000000000000
-18.419282913208008 3.532813549041748 -0.641414940357208 0.003921568859369
-17.959844589233398 2.631587505340576 -0.517521977424622 0.000000000000000
-8.826002120971680 0.837643265724182 0.477135390043259 0.000000000000000
-18.476327896118164 2.709877252578735 -0.953378796577454 0.003921568859369
-18.406843185424805 3.594832897186279 -0.641442477703094 0.003921568859369
-17.934747695922852 2.689554929733276 -0.517074704170227 0.000000000000000
-4.870765686035156 0.447649568319321 0.000753374770284 0.000000000000000
-6.235216617584229 0.869763553142548 -0.296683341264725 0.000000000000000
-17.925737380981445 2.746867895126343 -0.517101526260376 0.000000000000000
-18.299674987792969 2.806105613708496 -0.944958865642548 0.003921568859369
-9.742578506469727 0.577786505222321 -0.161166921257973 0.000000000000000
-17.888422012329102 2.802679300308228 -0.516296982765198 0.000000000000000
-20.430932998657227 2.230340480804443 -0.936486601829529 0.000000000000000
-18.242460250854492 2.860023975372314 -0.942444443702698 0.003921568859369
-17.860046386718750 2.864529848098755 -0.516021668910980 0.000000000000000
-20.087091445922852 2.264942407608032 -0.920982360839844 0.000000000000000
-18.257226943969727 2.930384397506714 -0.944312334060669 0.003921568859369
-18.137777328491211 3.797530412673950 -0.633933603763580 0.003921568859369
-17.834688186645508 2.918956756591797 -0.515571892261505 0.000000000000000
-19.373315811157227 2.244850158691406 -0.887441873550415 0.000000000000000
-18.247411727905273 2.988804340362549 -0.944338858127594 0.003921568859369
-17.996263504028320 3.827152013778687 -0.629263937473297 0.003921568859369
-12.658853530883789 1.440729618072510 -0.285940915346146 0.000000000000000
-8.397783279418945 0.574736118316650 -0.137168407440186 0.000000000000000
-4.772759437561035 0.717322945594788 -0.121548578143120 0.000000000000000
-9.421682357788086 1.084163069725037 -0.002170817228034 0.003921568859369
-3.739104032516479 0.695911288261414 0.038240533322096 0.000000000000000
-14.676150321960449 1.039547204971313 0.404624342918396 0.000000000000000
-19.071918487548828 2.274049997329712 -0.873515963554382 0.000000000000000
-17.818973541259766 3.851011276245117 -0.623314678668976 0.003921568859369
-20.043636322021484 2.394102096557617 -0.463859617710114 0.000000000000000
-17.853263854980469 3.045914888381958 -0.516815423965454 0.000000000000000
-7.760621070861816 1.260856032371521 0.124947622418404 0.000000000000000
-17.062431335449219 3.741580247879028 -0.989056587219238 0.003921568859369
-18.671455383300781 2.288606643676758 -0.854873538017273 0.000000000000000
-17.723569869995117 3.892326116561890 -0.620352387428284 0.003921568859369
-9.146569252014160 1.506674408912659 1.573328256607056 0.000000000000000
-19.598781585693359 2.406466722488403 -0.453381657600403 0.000000000000000
-17.818916320800781 3.101739645004272 -0.516128540039062 0.000000000000000
-17.049270629882812 3.798901557922363 -0.989080607891083 0.003921568859369
-18.251306533813477 2.297816038131714 -0.835286498069763 0.000000000000000
-17.565784454345703 3.918605089187622 -0.615113317966461 0.003921568859369
-19.197708129882812 2.421448945999146 -0.443953216075897 0.000000000000000
-17.827648162841797 3.165316104888916 -0.516750037670135 0.000000000000000
-17.024246215820312 3.853426694869995 -0.988398730754852 0.003921568859369
-3.103448152542114 0.331054747104645 -0.114178173243999 0.000000000000000
-18.903774261474609 2.447989463806152 -0.437103480100632 0.000000000000000
-17.840074539184570 3.229733705520630 -0.517490506172180 0.000000000000000
-4.831543922424316 0.788129448890686 0.174461618065834 0.000000000000000
-18.800043106079102 2.498665094375610 -0.434839904308319 0.000000000000000
-15.161134719848633 1.330349564552307 -0.260113298892975 0.000000000000000
-17.828695297241211 3.289767980575562 -0.517517030239105 0.000000000000000
-13.620637893676758 1.189611434936523 0.374878674745560 0.000000000000000
-17.490394592285156 2.378333568572998 -0.800285577774048 0.000000000000000
-18.381042480468750 3.395256042480469 -0.955312788486481 0.003921568859369
-18.688259124755859 2.547528982162476 -0.432384729385376 0.000000000000000
-17.864200592041016 3.358937978744507 -0.518971145153046 0.000000000000000
-17.335678100585938 2.415986299514771 -0.793332934379578 0.000000000000000
-18.392608642578125 3.461760044097900 -0.956611752510071 0.003921568859369
-5.069975852966309 0.865057110786438 0.369128376245499 0.000000000000000
-18.619894027709961 2.601936578750610 -0.430980503559113 0.000000000000000
-7.793300628662109 1.421673655509949 -0.213805362582207 0.000000000000000
-11.353956222534180 2.679085254669189 0.124485105276108 0.000000000000000
-16.912143707275391 2.412762165069580 -0.773551106452942 0.000000000000000
-18.380416870117188 3.523726463317871 -0.956638872623444 0.003921568859369
-18.555322647094727 2.656492471694946 -0.429671496152878 0.000000000000000
-17.891279220581055 3.489436626434326 -0.520570456981659 0.000000000000000
-13.393719673156738 1.303533554077148 0.070018239319324 0.000000000000000
-4.741789817810059 0.830782592296600 0.171231895685196 0.000000000000000
-20.308788299560547 2.986393213272095 -0.936205446720123 0.000000000000000
-18.180080413818359 3.547650098800659 -0.946491420269012 0.003921568859369
-4.705884933471680 0.823777139186859 0.757547676563263 0.000000000000000
-18.530126571655273 2.716626405715942 -0.429318100214005 0.000000000000000
-17.930522918701172 3.557109355926514 -0.522142171859741 0.000000000000000
-5.362452507019043 0.734061121940613 0.111583441495895 0.000000000000000
-19.473583221435547 2.923568487167358 -0.896803736686707 0.000000000000000
-18.144741058349609 3.600982904434204 -0.945244789123535 0.003921568859369
-18.517068862915039 2.775337934494019 -0.429249882698059 0.000000000000000
-17.946424484252930 3.628651618957520 -0.523285448551178 0.000000000000000
-18.257017135620117 2.802554845809937 -0.839598476886749 0.000000000000000
-18.074434280395508 3.655290842056274 -0.942653715610504 0.003921568859369
-18.473003387451172 2.837070465087891 -0.428636938333511 0.000000000000000
-18.000133514404297 3.703257560729980 -0.525333583354950 0.000000000000000
-15.277260780334473 2.382150411605835 0.858295857906342 0.000000000000000
-18.199800491333008 2.856392145156860 -0.837362229824066 0.000000000000000
-18.427469253540039 2.893578529357910 -0.427804678678513 0.000000000000000
-18.053525924682617 3.778286218643188 -0.527381718158722 0.000000000000000
-20.266920089721680 3.262734889984131 -0.936814725399017 0.000000000000000
-19.931571960449219 2.244640111923218 -0.800460338592529 0.003921568859369
-18.393590927124023 2.951773166656494 -0.427258908748627 0.000000000000000
-18.083183288574219 3.848560571670532 -0.528715968132019 0.000000000000000
-20.176630020141602 3.317903041839600 -0.933071851730347 0.000000000000000
-18.425275802612305 3.923791408538818 -0.963927149772644 0.003921568859369
-19.383939743041992 2.247368574142456 -0.778013348579407 0.003921568859369
-6.724185943603516 1.660836577415466 -0.221689522266388 0.000000000000000
-18.391065597534180 3.015109777450562 -0.427477687597275 0.000000000000000
-18.078126907348633 3.908178091049194 -0.528977990150452 0.000000000000000
-10.945978164672852 1.787169575691223 0.240310981869698 0.000000000000000
-2.854797601699829 0.615298688411713 0.028637416660786 0.000000000000000
-5.263505935668945 1.039000272750854 0.193763524293900 0.000000000000000
-20.197013854980469 3.388170719146729 -0.934609949588776 0.000000000000000
-18.377084732055664 3.974941968917847 -0.962043881416321 0.003921568859369
-19.102687835693359 2.275856256484985 -0.766637504100800 0.003921568859369
-18.388851165771484 3.075369596481323 -0.427695035934448 0.000000000000000
-25.136508941650391 6.853992462158203 0.282299458980560 0.003921568859369
-8.361275672912598 1.367632389068604 0.455703169107437 0.000000000000000
-20.208677291870117 3.460638761520386 -0.935772240161896 0.000000000000000
-18.398153305053711 4.044859409332275 -0.963977277278900 0.003921568859369
-18.698143005371094 2.290106773376465 -0.750138044357300 0.003921568859369
-18.366193771362305 3.135267496109009 -0.427435547113419 0.000000000000000
-20.145357131958008 3.519759178161621 -0.933349311351776 0.000000000000000
-18.289766311645508 2.301045656204224 -0.733471751213074 0.003921568859369
-18.386627197265625 3.202850580215454 -0.428227663040161 0.000000000000000
-19.292007446289062 3.433218002319336 -0.892998933792114 0.000000000000000
-17.482900619506836 3.960553646087646 -0.915693938732147 0.003921568859369
-18.406803131103516 3.270610809326172 -0.429019808769226 0.000000000000000
-3.559387922286987 0.700498461723328 0.053923171013594 0.000000000000000
-19.240640640258789 3.490991592407227 -0.891140341758728 0.000000000000000
-6.792157173156738 1.471782326698303 -0.333149731159210 0.000000000000000
-17.699157714843750 2.345450162887573 -0.709557950496674 0.003921568859369
-18.442443847656250 3.341502189636230 -0.430194318294525 0.000000000000000
-19.483432769775391 3.604709148406982 -0.903434336185455 0.000000000000000
-17.311203002929688 4.043343544006348 -0.907897770404816 0.003921568859369
-17.540481567382812 2.383847713470459 -0.703303217887878 0.003921568859369
-18.466020584106445 3.410434484481812 -0.431081980466843 0.000000000000000
-16.934156417846680 2.356671571731567 -0.294636219739914 0.003921568859369
-19.706048965454102 3.716336488723755 -0.914785265922546 0.000000000000000
-16.954553604125977 2.359442234039307 -0.679192185401917 0.003921568859369
-18.505037307739258 3.482621908187866 -0.432352185249329 0.000000000000000
-18.499942779541016 2.646428823471069 -0.744195342063904 0.003921568859369
-18.512382507324219 3.548901319503784 -0.432857215404510 0.000000000000000
-18.240043640136719 3.560671091079712 -0.845883786678314 0.000000000000000
-7.005543708801270 0.969165921211243 -0.264076352119446 0.000000000000000
-18.560344696044922 3.625552892684937 -0.434528321027756 0.000000000000000
-18.164894104003906 3.609289646148682 -0.842890322208405 0.000000000000000
-17.645530700683594 2.643049955368042 -0.709630668163300 0.003921568859369
-18.629838943481445 3.705080509185791 -0.436562746763229 0.000000000000000
-11.541437149047852 1.735043048858643 -0.196771591901779 0.000000000000000
-5.048046588897705 1.156803607940674 0.186796575784683 0.000000000000000
-18.105255126953125 3.660709381103516 -0.840651273727417 0.000000000000000
-18.251955032348633 2.800235748291016 -0.735448360443115 0.003921568859369
-18.804670333862305 3.807264566421509 -0.441179364919662 0.000000000000000
-18.182256698608398 3.740876436233521 -0.845016837120056 0.000000000000000
-11.244896888732910 2.264463424682617 1.330430865287781 0.000000000000000
-18.273635864257812 2.866904735565186 -0.736798107624054 0.003921568859369
-20.372856140136719 3.278495788574219 -0.825282514095306 0.003921568859369
-18.374221801757812 3.911544084548950 -0.855635523796082 0.000000000000000
-20.294303894042969 3.336087226867676 -0.822501778602600 0.003921568859369
-18.251291275024414 3.949066400527954 -0.850376367568970 0.000000000000000
-9.655311584472656 2.025048255920410 1.134489655494690 0.000000000000000
-20.294353485107422 3.406803607940674 -0.823027729988098 0.003921568859369
-18.316022872924805 4.025245666503906 -0.854174733161926 0.000000000000000
-20.298692703247070 3.474821567535400 -0.823717415332794 0.003921568859369
-6.609326839447021 1.079108715057373 0.176597490906715 0.000000000000000
-19.586914062500000 3.414091348648071 -0.794310748577118 0.003921568859369
-9.155344009399414 2.417732477188110 1.615178823471069 0.000000000000000
-6.605333805084229 1.101067543029785 0.176588073372841 0.000000000000000
-17.420059204101562 3.945098638534546 -0.812134444713593 0.000000000000000
-19.550689697265625 3.479268789291382 -0.793348371982574 0.003921568859369
-17.382865905761719 3.998173475265503 -0.811025321483612 0.000000000000000
-19.554141998291016 3.548287391662598 -0.794037997722626 0.003921568859369
-20.111509323120117 3.719664335250854 -0.818045079708099 0.003921568859369
-6.520781993865967 1.738944888114929 1.121209383010864 0.000000000000000
-5.909638881683350 1.032489895820618 -0.094543933868408 0.000000000000000
-18.416467666625977 3.465909481048584 -0.747545301914215 0.003921568859369
-18.404262542724609 3.528060674667358 -0.747570991516113 0.003921568859369
-8.001581192016602 1.873249769210815 -0.535304009914398 0.000000000000000
-18.317401885986328 3.575150251388550 -0.744454443454742 0.003921568859369
-7.218180656433105 2.023947954177856 1.259146332740784 0.000000000000000
-8.204088211059570 1.561847090721130 0.223987966775894 0.000000000000000
-18.199115753173828 3.615233182907104 -0.740014553070068 0.003921568859369
-18.222242355346680 3.680912256240845 -0.741526663303375 0.003921568859369
-6.420722007751465 1.867610931396484 0.105655997991562 0.000000000000000
-5.604476928710938 1.624823927879333 0.213747367262840 0.000000000000000
-8.587641716003418 2.594361066818237 0.682588934898376 0.000000000000000
-18.362283706665039 3.904664993286133 -0.749209344387054 0.003921568859369
-5.696781158447266 1.675431370735168 0.093095377087593 0.000000000000000
-18.203544616699219 3.937439918518066 -0.743115305900574 0.003921568859369
-17.722045898437500 3.892502069473267 -0.723290503025055 0.003921568859369
-6.909569740295410 2.120940923690796 0.269606739282608 0.000000000000000
-17.639633178710938 3.930088996887207 -0.720334291458130 0.003921568859369
-11.859900474548340 3.786733388900757 2.159723758697510 0.000000000000000
-17.593292236328125 3.988155364990234 -0.719036579132080 0.003921568859369
-9.617074966430664 2.587258338928223 2.508524417877197 0.000000000000000
-5.327500343322754 1.126897811889648 -0.198146700859070 0.000000000000000
-3.440697669982910 0.849134624004364 -0.137115538120270 0.000000000000000
-15.272450447082520 5.173137187957764 2.829489707946777 0.000000000000000
-13.458740234375000 4.635098457336426 2.486353874206543 0.000000000000000
-3.278051376342773 0.698695063591003 -0.047038633376360 0.000000000000000
-2.625446796417236 0.551985204219818 0.062972538173199 0.000000000000000
-6.676541328430176 2.335170984268188 1.186094641685486 0.000000000000000
-6.642077922821045 2.011961221694946 -0.001143936766312 0.000000000000000
-7.057287216186523 2.507272481918335 1.261853933334351 0.000000000000000
-18.056566238403320 6.848704338073730 3.411257743835449 0.003921568859369
-2.971660614013672 1.092384696006775 0.031817108392715 0.000000000000000
-9.642232894897461 3.152602910995483 -0.450021028518677 0.000000000000000
-4.716783523559570 1.261956691741943 -0.075139917433262 0.000000000000000
-10.632140159606934 3.145093679428101 -0.432738721370697 0.000000000000000
-3.798755168914795 1.206958532333374 0.000772031024098 0.000000000000000
-5.021550178527832 1.422956347465515 -0.298542797565460 0.000000000000000
-9.966781616210938 3.008896350860596 -0.404797226190567 0.000000000000000
-6.460082054138184 2.258744716644287 1.687356591224670 0.000000000000000
-6.329286575317383 1.958238482475281 0.175908088684082 0.000000000000000
-13.625031471252441 6.025256156921387 1.166456580162048 0.000000000000000
-13.497271537780762 6.862538814544678 -0.859250009059906 0.000000000000000
-8.799594879150391 3.385453224182129 0.514932274818420 0.000000000000000
-8.964727401733398 3.487717628479004 0.525957405567169 0.000000000000000
-13.542898178100586 7.064850807189941 -0.522962987422943 0.000000000000000
-14.403626441955566 6.680277824401855 2.792036294937134 0.000000000000000
-13.231060028076172 6.952498435974121 0.161029532551765 0.000000000000000
-13.521458625793457 7.111816883087158 -0.867524921894073 0.000000000000000
-13.571269989013672 6.333889007568359 1.173167705535889 0.000000000000000
-14.091313362121582 6.706869602203369 2.744911909103394 0.000000000000000
-13.983349800109863 6.711782932281494 2.727746725082397 0.000000000000000
-13.273179054260254 7.210803508758545 -0.858062803745270 0.000000000000000
-6.464545726776123 2.672776460647583 -0.001385433366522 0.000000000000000
-13.028828620910645 7.187827587127686 0.160491138696671 0.000000000000000
-13.605957031250000 6.694104194641113 0.248787909746170 0.003921568859369
-13.887839317321777 6.839323997497559 2.722712516784668 0.003921568859369
-5.906167030334473 2.442499876022339 0.719997227191925 0.000000000000000
-13.787002563476562 6.845971107482910 2.706977605819702 0.000000000000000
-13.081642150878906 7.335074901580811 -0.513700783252716 0.000000000000000
-12.701483726501465 7.169438838958740 0.157272130250931 0.000000000000000
-13.561225891113281 6.843811511993408 -0.776870846748352 0.000000000000000
-12.992384910583496 7.399855613708496 -0.175460800528526 0.000000000000000
-13.507699966430664 6.873644351959229 0.248682841658592 0.000000000000000
-13.526674270629883 6.883511066436768 -0.776243984699249 0.000000000000000
-12.635951995849609 5.673348903656006 1.631373167037964 0.000000000000000
-13.287664413452148 6.756978988647461 1.168951630592346 0.000000000000000
-13.228262901306152 7.597241401672363 -0.522978007793427 0.000000000000000
-13.486822128295898 6.975656986236572 -0.092480212450027 0.000000000000000
-13.311387062072754 6.881087303161621 0.583092391490936 0.000000000000000
-13.960386276245117 6.469538211822510 0.339274376630783 0.000000000000000
-13.450729370117188 7.019913196563721 0.249207317829132 0.000000000000000
-13.906681060791016 7.328822135925293 1.235803127288818 0.000000000000000
-15.873437881469727 7.592447757720947 4.571473121643066 0.003921568859369
-13.917396545410156 7.514766693115234 1.243845939636230 0.000000000000000
-12.971183776855469 6.313628196716309 1.703590273857117 0.000000000000000
-13.334350585937500 7.305024147033691 2.676220178604126 0.000000000000000
-13.370592117309570 6.629527568817139 0.833387911319733 0.003921568859369
-12.956073760986328 6.473001480102539 1.710834980010986 0.000000000000000
-13.071905136108398 7.391097545623779 -0.768845856189728 0.000000000000000
-13.143943786621094 7.493081092834473 -0.433480054140091 0.000000000000000
-12.939895629882812 7.436447143554688 0.245373398065567 0.000000000000000
-8.876577377319336 4.498287200927734 2.532957077026367 0.000000000000000
-7.706210613250732 4.430102825164795 -0.444135010242462 0.000000000000000
-13.019496917724609 7.717193126678467 1.190270185470581 0.000000000000000
-12.976247787475586 7.756588935852051 1.188972115516663 0.000000000000000
-9.111122131347656 5.386736869812012 1.840626835823059 0.000000000000000
-13.936897277832031 6.753705501556396 0.429361432790756 0.000000000000000
-7.691523551940918 4.053990840911865 2.198341846466064 0.000000000000000
-13.219491004943848 7.247469425201416 -0.687073409557343 0.000000000000000
-8.596982955932617 4.127971172332764 0.049431465566158 0.000000000000000
-5.052607536315918 2.922007560729980 0.092977657914162 0.000000000000000
-12.452023506164551 6.916988372802734 1.684144854545593 0.000000000000000
-10.085355758666992 5.542456150054932 2.951139211654663 0.000000000000000
-12.820262908935547 7.188171386718750 0.821623086929321 0.003921568859369
-13.581459045410156 6.801301002502441 -0.606001317501068 0.003921568859369
-12.231341361999512 6.904131889343262 0.784684598445892 0.000000000000000
-13.037663459777832 7.438807487487793 -0.684571087360382 0.000000000000000
-12.273319244384766 6.984406471252441 1.670625925064087 0.000000000000000
-10.604525566101074 6.678307533264160 2.197340011596680 0.000000000000000
-12.791563987731934 7.347894191741943 1.747706294059753 0.000000000000000
-12.275252342224121 7.096984863281250 1.677886009216309 0.003921568859369
-13.172132492065430 7.158995151519775 -0.598553776741028 0.003921568859369
-17.233699798583984 11.750226974487305 3.711279153823853 0.003921568859369
-13.118880271911621 7.248316287994385 -0.260325014591217 0.000000000000000
-13.201910972595215 7.296030521392822 -0.943760395050049 0.003921568859369
-13.287093162536621 7.410345554351807 -0.952730298042297 0.003921568859369
-4.030075550079346 2.323877096176147 0.244875699281693 0.000000000000000
-9.623460769653320 6.693976879119873 2.054389715194702 0.000000000000000
-9.462133407592773 6.868196487426758 0.454416394233704 0.000000000000000
-13.745615005493164 9.168926239013672 1.967318534851074 0.003921568859369
-8.970682144165039 6.582444667816162 0.431831896305084 0.000000000000000
-7.574847698211670 5.494657993316650 1.626186132431030 0.000000000000000
-3.987515449523926 2.725154161453247 -0.231500655412674 0.000000000000000
-7.466001987457275 5.454805374145508 1.607635259628296 0.000000000000000
-9.496198654174805 6.461602210998535 2.959449529647827 0.000000000000000
-17.955497741699219 12.635402679443359 5.758145809173584 0.003921568859369
-5.131889343261719 3.729836940765381 1.080769658088684 0.000000000000000
-8.588258743286133 6.615576267242432 1.898582816123962 0.000000000000000
-8.650820732116699 7.408805847167969 0.123558655381203 0.003921568859369
-8.413733482360840 6.565216541290283 0.175217494368553 0.003921568859369
-7.929662227630615 6.293118000030518 1.769188046455383 0.000000000000000
-10.064365386962891 7.447865962982178 1.482584357261658 0.000000000000000
-8.979230880737305 7.346446990966797 0.452279120683670 0.000000000000000
-9.204309463500977 6.826738357543945 1.353116512298584 0.000000000000000
-8.644289970397949 7.056096553802490 1.959400057792664 0.000000000000000
-7.916391372680664 7.238179683685303 -0.124651752412319 0.003921568859369
-8.475672721862793 7.057447433471680 1.936523318290710 0.000000000000000
-8.801440238952637 6.796070098876953 1.312379837036133 0.000000000000000
-9.024845123291016 7.704330444335938 0.932849526405334 0.000000000000000
-8.360476493835449 7.103563308715820 1.926515698432922 0.000000000000000
-8.847028732299805 7.650085926055908 0.192877098917961 0.000000000000000
-8.534050941467285 7.363038539886475 1.981564879417419 0.000000000000000
-8.568004608154297 6.747142791748047 0.240474209189415 0.003921568859369
-8.371033668518066 7.324686527252197 0.433915525674820 0.003921568859369
-16.102067947387695 14.816590309143066 3.912001609802246 0.003921568859369
-8.463439941406250 6.903172969818115 0.609821617603302 0.000000000000000
-9.130292892456055 7.587005615234375 1.406510233879089 0.003921568859369
-9.127520561218262 7.692002296447754 1.414754748344421 0.000000000000000
-8.264813423156738 7.635982036590576 1.981636285781860 0.000000000000000
-8.912755966186523 7.657582759857178 1.392449855804443 0.000000000000000
-8.372505187988281 6.692216873168945 0.056171603500843 0.000000000000000
-8.409514427185059 8.180974960327148 2.071800947189331 0.000000000000000
-7.348208904266357 7.135179042816162 0.399693548679352 0.003921568859369
-8.488813400268555 6.931442737579346 0.057435881346464 0.000000000000000
-7.135730266571045 7.105397701263428 0.392969250679016 0.000000000000000
-3.119038581848145 2.330170392990112 -0.225018888711929 0.000000000000000
-8.243055343627930 7.677953720092773 1.335788249969482 0.000000000000000
-7.708835601806641 7.884162425994873 0.868764042854309 0.000000000000000
-7.964135169982910 8.162651062011719 2.013907909393311 0.000000000000000
-6.976125717163086 7.145475387573242 0.390143007040024 0.000000000000000
-6.783041954040527 6.933223247528076 0.761913418769836 0.000000000000000
-4.103250980377197 4.014802932739258 0.093657471239567 0.000000000000000
-8.239387512207031 7.113126754760742 -0.678884506225586 0.000000000000000
-7.619802474975586 8.019952774047852 0.872712492942810 0.000000000000000
-11.127635955810547 11.956936836242676 2.912091970443726 0.003921568859369
-8.455521583557129 8.178724288940430 1.398427248001099 0.000000000000000
-7.597049713134766 8.050814628601074 0.873361885547638 0.000000000000000
-6.294637680053711 6.261065483093262 2.287294387817383 0.000000000000000
-8.512350082397461 8.130178451538086 0.328432679176331 0.003921568859369
-7.951066493988037 8.459318161010742 1.382530212402344 0.003921568859369
-7.162364006042480 7.618696212768555 2.713957309722900 0.000000000000000
-17.146663665771484 23.553287506103516 0.321439206600189 0.003921568859369
-7.267120361328125 7.850401401519775 2.779039859771729 0.000000000000000
-7.288400173187256 8.822741508483887 2.029153108596802 0.000000000000000
-16.790639877319336 23.575857162475586 0.319750249385834 0.003921568859369
-5.843800544738770 6.533388137817383 1.037223935127258 0.000000000000000
-3.309587955474854 3.855774402618408 0.874239146709442 0.000000000000000
-5.760682582855225 7.488957881927490 0.746313512325287 0.000000000000000
-19.974332809448242 22.682617187500000 0.158910632133484 0.003921568859369
-10.338879585266113 14.062600135803223 3.127246856689453 0.003921568859369
-19.830049514770508 22.674652099609375 0.158398926258087 0.003921568859369
-19.722314834594727 22.708637237548828 0.158180251717567 0.003921568859369
-10.845797538757324 13.639183044433594 2.098422050476074 0.003921568859369
-15.992214202880859 25.542615890502930 0.333836495876312 0.003921568859369
-8.188961982727051 10.378518104553223 3.464167594909668 0.000000000000000
-3.691745281219482 4.481065273284912 1.481738328933716 0.000000000000000
-4.247753143310547 5.415815830230713 1.773096323013306 0.000000000000000
-13.206781387329102 20.164470672607422 4.340691089630127 0.003921568859369
-16.964889526367188 23.652902603149414 0.657691836357117 0.003921568859369
-13.115374565124512 20.175607681274414 4.333553791046143 0.003921568859369
-8.212876319885254 11.212872505187988 1.670183777809143 0.000000000000000
-13.003229141235352 20.152956008911133 4.319263935089111 0.003921568859369
-13.928842544555664 22.502286911010742 4.771434783935547 0.003921568859369
-8.912000656127930 13.089255332946777 4.173244476318359 0.003921568859369
-3.438875675201416 5.402785778045654 1.126887440681458 0.000000000000000
-12.985354423522949 20.610591888427734 2.952717065811157 0.003921568859369
-3.889821529388428 6.603120326995850 1.358745574951172 0.000000000000000
-7.465280055999756 12.041512489318848 3.733331203460693 0.000000000000000
-1.899539947509766 2.556208133697510 0.792677104473114 0.000000000000000
-3.913062095642090 6.118943691253662 1.886912107467651 0.000000000000000
-3.942171812057495 6.319970607757568 1.937558650970459 0.000000000000000
-2.951950788497925 5.164107799530029 1.048273921012878 0.000000000000000
-3.387220859527588 6.290668010711670 1.267975211143494 0.003921568859369
-3.283488512039185 6.356101512908936 1.270868897438049 0.000000000000000
-3.786813974380493 6.646980285644531 1.996549129486084 0.000000000000000
-3.437828779220581 6.065624237060547 1.815724015235901 0.003921568859369
-3.571254014968872 6.580604553222656 1.956311941146851 0.000000000000000
-11.570647239685059 24.001443862915039 1.531301021575928 0.003921568859369
-2.979912757873535 6.743005752563477 1.315376520156860 0.000000000000000
-3.588155746459961 7.411838054656982 0.468584090471268 0.003921568859369
-3.241049766540527 6.870409011840820 0.912208855152130 0.000000000000000
-2.713510513305664 6.477171897888184 1.253892064094543 0.000000000000000
-3.039123535156250 7.488838672637939 0.974524319171906 0.000000000000000
-7.543361186981201 20.357744216918945 2.642659187316895 0.003921568859369
-7.480744361877441 20.177152633666992 5.724103927612305 0.003921568859369
-2.480967998504639 7.256537914276123 1.376455903053284 0.000000000000000
-3.260862827301025 10.108722686767578 1.914849281311035 0.000000000000000
-2.558713912963867 7.865717887878418 1.487477302551270 0.000000000000000
-3.031991481781006 7.489892482757568 -0.140150174498558 0.003921568859369
-2.353443384170532 7.160782814025879 1.990908384323120 0.000000000000000
-2.313040494918823 7.111837863922119 1.975409626960754 0.000000000000000
-1.571581244468689 7.201521396636963 0.084367342293262 0.003921568859369
-1.744755744934082 6.427471160888672 1.198397278785706 0.000000000000000
-2.423195123672485 7.826843261718750 0.992781639099121 0.000000000000000
-1.791896820068359 7.739465236663818 0.319893419742584 0.003921568859369
-1.982597351074219 6.986136436462402 1.921765685081482 0.000000000000000
-1.527065753936768 6.696791648864746 1.239315986633301 0.000000000000000
-1.636922359466553 5.875942230224609 1.611631751060486 0.003921568859369
-1.491151094436646 7.077960491180420 0.291540384292603 0.000000000000000
-1.744186758995056 6.692193508148193 0.838870346546173 0.000000000000000
-1.781913757324219 7.047805786132812 1.927021861076355 0.000000000000000
-1.261286258697510 6.944806575775146 0.285004407167435 0.000000000000000
-1.334955811500549 7.493427276611328 1.377656936645508 0.000000000000000
-1.378662347793579 5.913302898406982 1.608621835708618 0.000000000000000
-1.240908145904541 7.366631984710693 1.352616071701050 0.000000000000000
-2.396639823913574 29.361942291259766 0.335657864809036 0.003921568859369
-1.217525959014893 7.389290809631348 1.356206178665161 0.000000000000000
-0.586117029190063 2.330926418304443 0.428669124841690 0.000000000000000
-0.921724915504456 6.812991619110107 0.119112737476826 0.000000000000000
-2.112602949142456 20.357969284057617 3.721547603607178 0.003921568859369
-0.312560945749283 2.250346660614014 0.092776298522949 0.000000000000000
-0.598965704441071 9.500628471374512 2.546001911163330 0.000000000000000
-0.181566596031189 4.705494403839111 0.858620345592499 0.000000000000000
2.001504898071289 25.407135009765625 0.293259412050247 0.003921568859369
2.191987037658691 25.525850296020508 0.294878691434860 0.003921568859369
2.386392593383789 24.771152496337891 0.286724805831909 0.003921568859369
-0.160584956407547 12.847213745117188 3.440907001495361 0.000000000000000
-0.181060686707497 7.827873229980469 2.097244739532471 0.000000000000000
2.645955324172974 25.506900787353516 0.295486152172089 0.003921568859369
-0.133934378623962 6.296647548675537 1.687647461891174 0.000000000000000
0.114169567823410 3.843962430953979 0.316140055656433 0.000000000000000
0.095833182334900 3.421553373336792 0.141056209802628 0.000000000000000
1.350795269012451 24.836555480957031 0.575610041618347 0.003921568859369
1.625208616256714 25.070133209228516 1.460659027099609 0.003921568859369
4.395973205566406 25.091840744018555 0.294489562511444 0.003921568859369
1.978325843811035 24.912921905517578 0.578802049160004 0.003921568859369
2.100613594055176 25.283199310302734 0.587599575519562 0.003921568859369
2.218361854553223 25.625492095947266 0.595750331878662 0.003921568859369
-0.098457977175713 2.994422197341919 0.088133186101913 0.000000000000000
0.696314394474030 8.936274528503418 2.407873392105103 0.000000000000000
2.552550554275513 25.337461471557617 0.590053081512451 0.003921568859369
0.191260635852814 3.358054876327515 0.079654484987259 0.000000000000000
2.227691173553467 25.615959167480469 0.146386429667473 0.003921568859369
2.493230819702148 25.564720153808594 0.146336376667023 0.003921568859369
0.997495293617249 6.552872180938721 1.787284731864929 0.000000000000000
1.539481282234192 12.185391426086426 0.357822358608246 0.000000000000000
9.267134666442871 28.374174118041992 0.346823602914810 0.003921568859369
9.264754295349121 28.041563034057617 0.343208163976669 0.003921568859369
9.268299102783203 27.748809814453125 0.340052276849747 0.003921568859369
9.269566535949707 27.439565658569336 0.336712718009949 0.003921568859369
9.290707588195801 27.178079605102539 0.333974808454514 0.003921568859369
9.284643173217773 26.874885559082031 0.330678611993790 0.003921568859369
9.293458938598633 26.604267120361328 0.327799379825592 0.003921568859369
9.306447029113770 26.336013793945312 0.324967354536057 0.003921568859369
9.297078132629395 26.054241180419922 0.321898996829987 0.003921568859369
9.313828468322754 25.518732070922852 0.316236793994904 0.003921568859369
9.351967811584473 25.350585937500000 0.314601361751556 0.003921568859369
9.470652580261230 25.369678497314453 0.315327763557434 0.003921568859369
5.527385234832764 15.032627105712891 2.933772087097168 0.003921568859369
4.512089729309082 14.305142402648926 4.036426544189453 0.000000000000000
10.128678321838379 23.127887725830078 0.294702500104904 0.003921568859369
3.510868072509766 9.555518150329590 1.870204448699951 0.000000000000000
11.256941795349121 25.400979995727539 0.324112236499786 0.003921568859369
9.498892784118652 27.745861053466797 0.682824373245239 0.003921568859369
9.506254196166992 27.445827484130859 0.676336884498596 0.003921568859369
9.510416030883789 27.155731201171875 0.670058786869049 0.003921568859369
5.199048042297363 13.054137229919434 2.576008319854736 0.000000000000000
9.522815704345703 26.879278182983398 0.664152681827545 0.003921568859369
3.546523809432983 10.251412391662598 2.924993276596069 0.000000000000000
8.683785438537598 20.458208084106445 4.066532611846924 0.003921568859369
8.737762451171875 20.387416839599609 4.058664798736572 0.003921568859369
9.150012016296387 28.294097900390625 0.171881064772606 0.003921568859369
9.581387519836426 25.367582321166992 0.631944000720978 0.003921568859369
8.817199707031250 20.365308761596680 4.060840606689453 0.003921568859369
9.684329032897949 25.383438110351562 0.633176088333130 0.003921568859369
8.895924568176270 20.360429763793945 4.065882682800293 0.003921568859369
11.502245903015137 22.891740798950195 0.299475491046906 0.003921568859369
4.603267192840576 10.653981208801270 2.131429672241211 0.000000000000000
1.847401976585388 4.502058029174805 0.902752161026001 0.000000000000000
7.815509319305420 23.149938583374023 0.141637429594994 0.003921568859369
11.655260086059570 22.777532577514648 0.299116134643555 0.003921568859369
11.831309318542480 22.920225143432617 0.301555722951889 0.003921568859369
12.216350555419922 23.073484420776367 0.305299401283264 0.003921568859369
3.250775337219238 8.243020057678223 1.097400069236755 0.000000000000000
10.547247886657715 25.460420608520508 0.642529487609863 0.003921568859369
12.231984138488770 22.910490036010742 0.303745716810226 0.003921568859369
1.959093928337097 4.476237773895264 0.906328201293945 0.000000000000000
10.635784149169922 25.409854888916016 0.642278969287872 0.003921568859369
10.846728324890137 25.423589706420898 0.644558966159821 0.003921568859369
3.441366195678711 8.135446548461914 2.387983798980713 0.000000000000000
1.475034832954407 3.242235183715820 0.149247303605080 0.000000000000000
11.336483955383301 22.931417465209961 0.597162783145905 0.003921568859369
4.683359146118164 8.461290359497070 1.779417157173157 0.000000000000000
11.817685127258301 23.278913497924805 0.609497666358948 0.003921568859369
14.549219131469727 22.798603057861328 0.316772550344467 0.003921568859369
2.139252662658691 3.931344985961914 0.186692237854004 0.000000000000000
8.540641784667969 14.821699142456055 3.135353326797485 0.003921568859369
1.916604042053223 3.496508121490479 0.166842058300972 0.000000000000000
1.543151736259460 3.219140768051147 0.978180706501007 0.000000000000000
13.106520652770996 23.318252563476562 0.624737501144409 0.003921568859369
4.206837654113770 7.677978992462158 1.085403323173523 0.000000000000000
16.172893524169922 22.950811386108398 0.329063057899475 0.003921568859369
16.442781448364258 22.988613128662109 0.331300467252731 0.003921568859369
8.645232200622559 13.541897773742676 2.946103811264038 0.003921568859369
13.471320152282715 23.199676513671875 0.626687407493591 0.003921568859369
16.029542922973633 24.518690109252930 2.399496555328369 0.003921568859369
8.712932586669922 13.237831115722656 2.906697034835815 0.003921568859369
16.983081817626953 22.884098052978516 -0.331607043743134 0.003921568859369
16.990144729614258 22.893791198730469 0.334309667348862 0.003921568859369
15.072377204895020 25.115226745605469 1.711282849311829 0.003921568859369
17.019941329956055 22.753870010375977 -0.330612123012543 0.003921568859369
15.332530021667480 25.327619552612305 1.729430675506592 0.003921568859369
17.092889785766602 22.693609237670898 -0.330544143915176 0.003921568859369
17.505048751831055 23.068416595458984 -0.336892664432526 0.003921568859369
17.741752624511719 23.209371566772461 -0.339845687150955 0.003921568859369
15.524734497070312 25.058500289916992 1.722059011459351 0.003921568859369
17.707366943359375 22.998289108276367 -0.337637126445770 0.003921568859369
17.659393310546875 22.771987915039062 -0.335196346044540 0.003921568859369
2.656280994415283 3.976367950439453 0.888415277004242 0.000000000000000
18.075401306152344 23.136968612670898 -0.341496348381042 0.003921568859369
3.673019170761108 5.928593158721924 1.891259074211121 0.000000000000000
18.251466751098633 23.027904510498047 -0.341728687286377 0.003921568859369
18.334249496459961 22.966636657714844 -0.341751843690872 0.003921568859369
10.241792678833008 14.186234474182129 3.207445859909058 0.003921568859369
18.854597091674805 23.092880249023438 -0.346629828214645 0.003921568859369
18.964244842529297 23.069797515869141 -0.347212880849838 0.003921568859369
16.810575485229492 22.471017837524414 -0.817996025085449 0.003921568859369
17.237787246704102 22.879356384277344 -0.165766268968582 0.003921568859369
17.298093795776367 22.793136596679688 -0.165559366345406 0.003921568859369
17.761072158813477 23.229513168334961 -0.852242469787598 0.003921568859369
17.594867706298828 23.014093399047852 -0.167601451277733 0.003921568859369
17.775846481323242 23.081609725952148 -0.849080622196198 0.003921568859369
17.309629440307617 22.481250762939453 -0.164125740528107 0.003921568859369
17.817821502685547 22.805173873901367 -0.843455195426941 0.003921568859369
17.924633026123047 22.776817321777344 -0.844712793827057 0.003921568859369
4.579198360443115 6.589685440063477 2.172888994216919 0.000000000000000
18.640466690063477 23.164163589477539 -0.866342246532440 0.003921568859369
16.803785324096680 22.952955245971680 -0.662658751010895 0.003921568859369
8.289263725280762 10.244845390319824 2.418940305709839 0.000000000000000
12.334852218627930 15.059322357177734 3.565617799758911 0.003921568859369
19.137012481689453 22.946317672729492 -0.870540499687195 0.003921568859369
2.427360057830811 3.344341039657593 0.098804548382759 0.000000000000000
5.634923934936523 6.775856018066406 1.623194813728333 0.000000000000000
17.498704910278320 22.728038787841797 -0.668100655078888 0.003921568859369
4.088800430297852 5.324597835540771 0.158978432416916 0.000000000000000
9.896789550781250 11.455820083618164 2.777097702026367 0.000000000000000
18.429738998413086 23.229608535766602 -0.690490782260895 0.003921568859369
2.921757936477661 3.402507781982422 0.833106338977814 0.000000000000000
16.940166473388672 22.972976684570312 0.167367905378342 0.003921568859369
16.966730117797852 22.833435058593750 0.166828274726868 0.003921568859369
17.227706909179688 23.022619247436523 0.168640151619911 0.003921568859369
8.947628021240234 10.804454803466797 1.733038783073425 0.000000000000000
8.097621917724609 8.811134338378906 2.198009729385376 0.000000000000000
3.199437379837036 3.405803680419922 0.866806149482727 0.000000000000000
3.910352230072021 4.435322761535645 0.735937416553497 0.000000000000000
2.365278959274292 2.426158666610718 0.632878363132477 0.000000000000000
5.374429702758789 5.882820606231689 0.988530218601227 0.000000000000000
12.245315551757812 12.875641822814941 4.781041145324707 0.003921568859369
8.104496002197266 7.760005950927734 2.060198545455933 0.000000000000000
10.203047752380371 9.548852920532227 2.562563896179199 0.000000000000000
10.021689414978027 10.127047538757324 3.837836742401123 0.000000000000000
1.935316205024719 1.787100553512573 0.110722415149212 0.000000000000000
1.788869380950928 1.790950059890747 0.696336984634399 0.000000000000000
6.398617267608643 6.014061450958252 2.371665716171265 0.000000000000000
4.974752902984619 4.253877639770508 1.206916451454163 0.000000000000000
8.361655235290527 6.950793743133545 1.996355533599854 0.000000000000000
8.359221458435059 6.460197925567627 1.938899517059326 0.000000000000000
6.535730838775635 4.957267284393311 1.508309006690979 0.000000000000000
7.529313087463379 5.652745723724365 1.727829337120056 0.000000000000000
6.766923904418945 5.311790943145752 2.320861816406250 0.000000000000000
4.518104076385498 3.146894693374634 1.015215992927551 0.000000000000000
2.864344835281372 2.207416772842407 0.450452148914337 0.000000000000000
5.570690631866455 4.249903202056885 1.891061782836914 0.000000000000000
17.023834228515625 11.031599998474121 3.709236383438110 0.003921568859369
8.818809509277344 6.182846069335938 0.000838493928313 0.003921568859369
2.956285476684570 2.269924402236938 -0.065331116318703 0.000000000000000
