# This PCD file was generated using the MATLAB® pcwrite function
# from Computer Vision Toolbox®.
# .PCD v.7 - Point Cloud Data file format
VERSION .7
FIELDS x y z intensity
SIZE 8 8 8 8
TYPE F F F F
COUNT 1 1 1 1
WIDTH 648
HEIGHT 1
VIEWPOINT 0 0 0 1 0 0 0
POINTS 648
DATA ascii
-18.358943939208984 7.020788669586182 5.145113468170166 0.003921568859369
-13.074165344238281 6.459873676300049 0.178506538271904 0.000000000000000
-17.324031829833984 7.644112586975098 0.769113838672638 0.003921568859369
-17.326263427734375 6.678228378295898 2.234096050262451 0.003921568859369
-18.171636581420898 7.084606647491455 0.461682647466660 0.003921568859369
-17.497638702392578 6.813923835754395 1.082158923149109 0.003921568859369
-17.246076583862305 6.917605400085449 2.235824108123779 0.003921568859369
-12.899675369262695 6.644796371459961 0.177413403987885 0.000000000000000
-6.623295783996582 2.193203926086426 -0.252601861953735 0.000000000000000
-12.884313583374023 6.697127819061279 -0.149204120039940 0.000000000000000
-17.491180419921875 7.161120891571045 1.089478373527527 0.003921568859369
-17.535003662109375 7.248951911926270 0.448462635278702 0.003921568859369
-18.380434036254883 7.610730171203613 1.148152470588684 0.000000000000000
-13.505517959594727 7.152672290802002 0.186659649014473 0.000000000000000
-17.603687286376953 7.347407341003418 -0.845312833786011 0.000000000000000
-6.188629150390625 2.427623033523560 1.650693535804749 0.000000000000000
-12.721055030822754 6.827199935913086 -0.148527204990387 0.003921568859369
-17.566322326660156 7.470956325531006 1.100560903549194 0.000000000000000
-18.054632186889648 6.895290374755859 -0.746146678924561 0.003921568859369
-17.807657241821289 6.938693523406982 0.560467243194580 0.003921568859369
-12.917352676391602 6.436088562011719 0.257374495267868 0.003921568859369
-4.988636970520020 2.037476062774658 0.291311681270599 0.000000000000000
-13.563638687133789 6.882773399353027 0.271481126546860 0.000000000000000
-12.706080436706543 7.208020687103271 -0.808743059635162 0.000000000000000
-6.389577865600586 2.728675127029419 -0.290849536657333 0.000000000000000
-6.516138553619385 2.844055175781250 0.162431180477142 0.000000000000000
-13.142521858215332 6.778060913085938 0.263569146394730 0.003921568859369
-17.861988067626953 7.238561153411865 -0.745319783687592 0.003921568859369
-17.407518386840820 7.118574142456055 0.124893806874752 0.003921568859369
-8.282622337341309 3.719706296920776 0.209807842969894 0.000000000000000
-13.459884643554688 7.008210182189941 1.213218808174133 0.000000000000000
-17.880884170532227 7.389001846313477 -0.748471796512604 0.003921568859369
-17.731109619140625 7.474851608276367 -0.308257579803467 0.003921568859369
-12.982562065124512 7.741863727569580 0.183786600828171 0.003921568859369
-12.961913108825684 6.912724018096924 1.173335313796997 0.000000000000000
-7.782637596130371 3.637980222702026 2.178602695465088 0.000000000000000
-17.817512512207031 7.724842071533203 -0.311434626579285 0.003921568859369
-13.055579185485840 6.345087528228760 0.340373426675797 0.000000000000000
-12.689261436462402 6.925547122955322 1.154149174690247 0.000000000000000
-6.018857479095459 3.140718460083008 -0.506549775600433 0.000000000000000
-13.103713989257812 7.213727474212646 0.603494644165039 0.000000000000000
-12.657077789306641 6.957683086395264 1.153120040893555 0.000000000000000
-9.851897239685059 5.346475124359131 1.966936469078064 0.000000000000000
-12.832178115844727 7.118974685668945 -0.730323970317841 0.000000000000000
-16.606801986694336 8.352275848388672 0.017019832506776 0.003921568859369
-12.218403816223145 7.095247745513916 0.250998198986053 0.003921568859369
-11.491651535034180 5.945012569427490 3.351102113723755 0.000000000000000
-13.172463417053223 6.910566806793213 0.013663453049958 0.000000000000000
-7.327867507934570 3.292141437530518 -0.474088132381439 0.000000000000000
-13.326558113098145 7.053351879119873 0.353492349386215 0.000000000000000
-11.612853050231934 6.833887100219727 0.542013704776764 0.000000000000000
-15.169797897338867 9.032621383666992 3.149390459060669 0.003921568859369
-12.630707740783691 7.520648002624512 0.592754483222961 0.000000000000000
-12.718813896179199 6.833705425262451 1.727668523788452 0.000000000000000
-12.403564453125000 7.440450668334961 1.155559897422791 0.003921568859369
-16.391294479370117 9.944309234619141 3.427192926406860 0.003921568859369
-11.923755645751953 7.191112995147705 0.247137010097504 0.003921568859369
-9.404104232788086 4.495169162750244 0.299972623586655 0.000000000000000
-11.826485633850098 7.187655448913574 0.245566859841347 0.000000000000000
-13.057019233703613 7.138867378234863 1.782476067543030 0.000000000000000
-12.534571647644043 7.760815143585205 0.594524800777435 0.000000000000000
-12.779955863952637 7.094701766967773 -0.646403193473816 0.000000000000000
-12.788386344909668 7.157585620880127 0.012827016413212 0.000000000000000
-10.260680198669434 6.340668678283691 2.127818346023560 0.000000000000000
-12.848429679870605 7.251369476318359 0.845162034034729 0.000000000000000
-12.615588188171387 7.115305900573730 1.734435558319092 0.000000000000000
-12.707902908325195 8.054533004760742 0.267087370157242 0.000000000000000
-12.835571289062500 7.300032615661621 -0.653521656990051 0.003921568859369
-12.756401062011719 7.313638687133789 1.761783123016357 0.000000000000000
-11.719861030578613 7.511912345886230 1.111553549766541 0.003921568859369
-12.188877105712891 7.139304161071777 0.330250293016434 0.003921568859369
-12.936428070068359 7.598865509033203 1.798877716064453 0.000000000000000
-8.965332031250000 5.751524925231934 1.870598316192627 0.000000000000000
-13.029341697692871 6.894605159759521 0.096166491508484 0.000000000000000
-12.187704086303711 7.194654464721680 0.330872058868408 0.000000000000000
-11.882409095764160 7.797648906707764 1.135664820671082 0.000000000000000
-12.534235000610352 7.522447586059570 0.837246060371399 0.003921568859369
-11.895547866821289 7.123141765594482 1.658591389656067 0.000000000000000
-11.410270690917969 7.584446430206299 2.429031372070312 0.000000000000000
-12.921111106872559 7.826429367065430 1.811906814575195 0.003921568859369
-12.478376388549805 7.728271484375000 0.840988218784332 0.003921568859369
-12.988504409790039 8.059156417846680 1.834970951080322 0.000000000000000
-11.954469680786133 8.269257545471191 1.162900924682617 0.000000000000000
-10.628709793090820 7.311830043792725 2.284599781036377 0.000000000000000
-12.769325256347656 8.039249420166016 1.810865402221680 0.003921568859369
-7.091779232025146 4.822996139526367 1.493650913238525 0.000000000000000
-12.593986511230469 7.325682163238525 -0.892622828483582 0.000000000000000
-12.578557968139648 7.374018669128418 -0.893430888652802 0.000000000000000
-12.338050842285156 8.048637390136719 1.767024159431458 0.003921568859369
-12.957521438598633 7.666751861572266 0.097357705235481 0.000000000000000
-16.243337631225586 10.792867660522461 5.124443531036377 0.003921568859369
-8.696155548095703 6.218880176544189 1.881343960762024 0.000000000000000
-11.037170410156250 6.532838344573975 -0.493260979652405 0.000000000000000
-6.307140350341797 4.433093547821045 1.335899949073792 0.000000000000000
-11.184466361999512 7.489843368530273 1.611317276954651 0.000000000000000
-3.940552949905396 2.406483888626099 1.127790689468384 0.000000000000000
-12.320168495178223 8.345509529113770 1.786571860313416 0.000000000000000
-5.474857330322266 3.154342889785767 -0.232772126793861 0.000000000000000
-12.354174613952637 8.434800148010254 1.796311736106873 0.000000000000000
-11.747781753540039 7.256437301635742 0.400364816188812 0.000000000000000
-12.149679183959961 8.474223136901855 1.778533577919006 0.000000000000000
-8.210783004760742 6.250720977783203 1.816051125526428 0.000000000000000
-7.371949195861816 4.564969539642334 -0.135817080736160 0.000000000000000
-5.992743492126465 4.047968387603760 0.843347549438477 0.000000000000000
-10.554968833923340 7.420316696166992 3.355845451354980 0.000000000000000
-12.045889854431152 8.581763267517090 1.775936603546143 0.000000000000000
-12.356394767761230 8.941959381103516 1.833110213279724 0.000000000000000
-11.999112129211426 8.742895126342773 1.783834815025330 0.000000000000000
-7.915062904357910 6.232062339782715 1.773236274719238 0.000000000000000
-7.329124450683594 5.230677604675293 2.311957597732544 0.000000000000000
-7.733659267425537 6.166219711303711 1.740082859992981 0.003921568859369
-11.775287628173828 8.760500907897949 1.763127803802490 0.003921568859369
-7.710301876068115 5.603050708770752 2.453990221023560 0.000000000000000
-3.325631380081177 2.209080457687378 0.004899320192635 0.003921568859369
-7.898310661315918 6.487149238586426 1.801076054573059 0.000000000000000
-7.718869686126709 5.773155212402344 2.483938694000244 0.000000000000000
-7.707704067230225 5.805589199066162 2.487017393112183 0.000000000000000
-7.821323394775391 6.552819252014160 0.809205830097198 0.000000000000000
-8.093061447143555 7.546985626220703 0.131668642163277 0.000000000000000
-7.503978729248047 5.810693264007568 2.447285652160645 0.000000000000000
-12.155700683593750 10.969951629638672 2.928618907928467 0.003921568859369
-6.003839015960693 5.219975471496582 1.389963746070862 0.000000000000000
-11.794111251831055 10.779538154602051 2.856608629226685 0.000000000000000
-6.571726322174072 5.838920593261719 1.543044209480286 0.000000000000000
-8.132652282714844 7.387516975402832 0.439956843852997 0.000000000000000
-7.955916404724121 6.543320178985596 1.225922107696533 0.000000000000000
-8.018113136291504 7.379114627838135 0.436266362667084 0.003921568859369
-7.625247955322266 6.342023849487305 1.178897142410278 0.000000000000000
-8.151802062988281 7.676151275634766 0.196082189679146 0.000000000000000
-7.658969879150391 6.560284614562988 1.200579166412354 0.000000000000000
-7.351981639862061 7.744089126586914 0.126398324966431 0.000000000000000
-10.185224533081055 8.997472763061523 3.553832769393921 0.000000000000000
-6.166155338287354 5.851742744445801 1.492979645729065 0.000000000000000
-7.522742748260498 7.400530338287354 0.840040266513824 0.000000000000000
-7.265379428863525 7.915109157562256 0.127072244882584 0.000000000000000
-7.327918052673340 7.240539073944092 0.412039130926132 0.000000000000000
-7.372555255889893 7.339516639709473 0.827883362770081 0.003921568859369
-7.292207241058350 7.305399894714355 -0.517319023609161 0.000000000000000
-6.861250877380371 7.672081470489502 0.121521800756454 0.003921568859369
-19.331104278564453 22.807767868041992 -0.334631472826004 0.003921568859369
-7.245282173156738 6.730711460113525 1.178480982780457 0.000000000000000
-7.071016311645508 7.485959529876709 0.179755806922913 0.000000000000000
-6.726754665374756 7.097769737243652 1.730251669883728 0.000000000000000
-6.712310791015625 7.131406784057617 1.733092427253723 0.000000000000000
-5.225950717926025 4.529158592224121 0.196302071213722 0.000000000000000
-6.628618240356445 7.136714935302734 0.774712562561035 0.000000000000000
-6.932861804962158 6.791111946105957 2.517357826232910 0.000000000000000
-7.122457504272461 7.758384704589844 0.839650511741638 0.000000000000000
-8.306735038757324 7.579428672790527 0.323941498994827 0.000000000000000
-6.721511363983154 7.405684471130371 0.400158941745758 0.000000000000000
-7.288512706756592 7.424760818481445 0.240323841571808 0.000000000000000
-5.977306842803955 6.622528076171875 1.576086878776550 0.000000000000000
-9.452952384948730 11.029321670532227 2.600358247756958 0.000000000000000
-6.400476932525635 7.333830833435059 -0.049966625869274 0.003921568859369
-7.245537281036377 8.496694564819336 0.892636656761169 0.003921568859369
-7.319143295288086 7.890860557556152 1.288987398147583 0.000000000000000
-14.667840003967285 18.191627502441406 4.216620922088623 0.003921568859369
-7.314085960388184 7.302361011505127 -0.402657032012939 0.003921568859369
-6.632327079772949 8.199926376342773 0.422848671674728 0.000000000000000
-6.624316692352295 7.457200527191162 0.568585991859436 0.000000000000000
-6.135083198547363 6.866942882537842 1.099087595939636 0.000000000000000
-6.830047607421875 7.818471908569336 0.239661514759064 0.000000000000000
-6.658736705780029 8.478106498718262 1.920098423957825 0.000000000000000
-3.685742378234863 4.048860549926758 0.639947772026062 0.003921568859369
-7.915748119354248 9.561687469482422 3.256707668304443 0.000000000000000
-5.569173336029053 7.320163726806641 1.633245944976807 0.000000000000000
-7.743063926696777 8.755045890808105 0.336861521005630 0.000000000000000
-5.794158935546875 7.929542541503906 1.747966647148132 0.000000000000000
-13.982917785644531 20.214960098266602 4.441595077514648 0.003921568859369
-13.877418518066406 20.209688186645508 4.430026054382324 0.003921568859369
-5.828738212585449 7.354313850402832 1.123318076133728 0.003921568859369
-11.858657836914062 17.303604125976562 3.784551143646240 0.003921568859369
-9.443363189697266 12.669825553894043 4.170626640319824 0.003921568859369
-4.495187759399414 6.445043087005615 1.392231583595276 0.000000000000000
-6.809365272521973 9.236621856689453 3.011419773101807 0.000000000000000
-5.769558429718018 7.783289909362793 1.162428855895996 0.000000000000000
-6.430671215057373 9.736381530761719 2.088384628295898 0.000000000000000
-6.255362510681152 9.677289962768555 2.062432527542114 0.000000000000000
-5.014127731323242 7.694683551788330 1.636668086051941 0.000000000000000
-6.564507007598877 10.458076477050781 2.214328289031982 0.000000000000000
-2.932412624359131 3.861786842346191 1.236954450607300 0.000000000000000
-7.897262573242188 12.933323860168457 2.726642131805420 0.000000000000000
-5.007127761840820 7.158092498779297 1.046890735626221 0.000000000000000
-5.926059722900391 14.391540527343750 2.812284469604492 0.000000000000000
-3.724523544311523 7.996424198150635 2.323560714721680 0.000000000000000
-7.338848590850830 20.608585357666016 3.965180397033691 0.003921568859369
-3.637190103530884 9.462546348571777 1.230095744132996 0.000000000000000
-4.895620346069336 16.585006713867188 3.133469581604004 0.003921568859369
-2.692091226577759 7.300099372863770 0.941679954528809 0.000000000000000
-3.990001201629639 12.272590637207031 1.571477651596069 0.000000000000000
-1.818685054779053 5.077136039733887 0.649897038936615 0.000000000000000
-2.339936971664429 7.468041896820068 2.071077585220337 0.000000000000000
-3.190625429153442 11.336153030395508 3.131379842758179 0.000000000000000
-2.621277093887329 9.637631416320801 2.653323411941528 0.000000000000000
-3.181389093399048 24.908180236816406 0.286752671003342 0.003921568859369
-3.101471900939941 24.981582641601562 0.287420570850372 0.003921568859369
-2.992918252944946 24.792251586914062 0.285089492797852 0.003921568859369
-2.637741088867188 25.602975845336914 0.293562620878220 0.003921568859369
-2.553177833557129 25.666654586791992 0.294137805700302 0.003921568859369
-2.445708036422729 25.459005355834961 0.291627645492554 0.003921568859369
-2.222471952438354 24.874906539916992 0.284705787897110 0.003921568859369
-2.163200378417969 25.399946212768555 0.290716350078583 0.003921568859369
-1.092726945877075 6.328405380249023 0.520506978034973 0.000000000000000
-2.085748672485352 25.633972167968750 0.293242245912552 0.003921568859369
-1.981913328170776 25.352313995361328 0.289921373128891 0.003921568859369
-0.702076911926270 4.567770957946777 0.080460719764233 0.000000000000000
-3.427287101745605 24.814813613891602 0.577328681945801 0.003921568859369
-3.341127872467041 24.829507827758789 0.577364861965179 0.003921568859369
-1.206530332565308 12.328692436218262 2.251768827438354 0.000000000000000
-2.971017837524414 24.654687881469727 0.572174727916718 0.003921568859369
-0.525431931018829 3.645974874496460 0.666462898254395 0.000000000000000
-1.563025236129761 12.010179519653320 3.233737707138062 0.000000000000000
-2.767504692077637 25.250524520874023 1.472264528274536 0.003921568859369
-2.602154254913330 25.438478469848633 1.482102394104004 0.003921568859369
-0.924926102161407 16.591728210449219 3.023734807968140 0.003921568859369
-1.461162686347961 13.959107398986816 3.750740289688110 0.000000000000000
-2.279705524444580 25.905963897705078 0.599069893360138 0.003921568859369
-2.902185916900635 24.880319595336914 0.140590906143188 0.003921568859369
-2.526124000549316 25.710916519165039 0.144884124398232 0.003921568859369
-2.437033653259277 25.726531982421875 0.144875422120094 0.003921568859369
-0.644985795021057 10.292878150939941 0.598374903202057 0.000000000000000
-2.107060909271240 24.917798995971680 0.140104457736015 0.003921568859369
-0.427121281623840 6.633339881896973 1.777194976806641 0.000000000000000
-1.790893316268921 25.407638549804688 0.142493754625320 0.003921568859369
-0.224919229745865 3.942333936691284 0.484401494264603 0.000000000000000
4.732571125030518 29.545475006103516 0.339169919490814 0.003921568859369
4.744398117065430 29.060575485229492 0.333762764930725 0.003921568859369
4.751417636871338 28.507177352905273 0.327586352825165 0.003921568859369
4.778628826141357 27.975957870483398 0.322012513875961 0.003921568859369
4.784445285797119 27.458591461181641 0.316240042448044 0.003921568859369
4.794078826904297 26.980844497680664 0.310920238494873 0.003921568859369
4.803516864776611 26.026187896728516 0.300285339355469 0.003921568859369
4.852429866790771 25.355943679809570 0.292903840541840 0.003921568859369
4.944130420684814 25.353607177734375 0.293044179677963 0.003921568859369
0.323889493942261 4.437581062316895 1.198755621910095 0.000000000000000
6.552972793579102 25.405618667602539 0.297748744487762 0.003921568859369
6.654416561126709 25.411424636840820 0.298072129487991 0.003921568859369
4.995917320251465 28.031587600708008 0.655201256275177 0.003921568859369
1.410072088241577 8.834908485412598 2.406322479248047 0.000000000000000
4.993158340454102 27.511222839355469 0.643425762653351 0.003921568859369
5.148977756500244 25.393583297729492 0.596574723720551 0.003921568859369
3.567471742630005 23.040729522705078 0.129583582282066 0.003921568859369
7.168418407440186 22.825071334838867 0.271634310483932 0.003921568859369
4.339777469635010 20.846002578735352 5.711889266967773 0.003921568859369
3.743143320083618 23.100374221801758 0.130001157522202 0.003921568859369
3.820422172546387 23.091005325317383 0.129991903901100 0.003921568859369
0.725111663341522 4.224826812744141 1.160333752632141 0.000000000000000
3.351523876190186 12.360018730163574 2.342742681503296 0.000000000000000
5.898108959197998 25.408395767211914 0.600421011447906 0.003921568859369
5.994380474090576 25.417913436889648 0.601119697093964 0.003921568859369
2.399606943130493 10.737587928771973 2.959352731704712 0.000000000000000
3.784069061279297 13.129353523254395 2.498931407928467 0.000000000000000
7.341091156005859 23.061338424682617 4.417166709899902 0.003921568859369
8.877791404724121 23.275146484375000 0.282715916633606 0.003921568859369
2.397816658020020 7.718005657196045 1.484145045280457 0.000000000000000
4.884624958038330 14.707413673400879 2.833862304687500 0.000000000000000
7.033030509948730 20.417282104492188 3.943259000778198 0.003921568859369
3.943569898605347 13.468573570251465 1.726943016052246 0.000000000000000
7.191023349761963 20.398225784301758 3.949655532836914 0.003921568859369
7.273015975952148 20.401824951171875 3.955360651016235 0.003921568859369
7.351029396057129 20.394027709960938 3.958917856216431 0.003921568859369
7.460835456848145 20.470697402954102 3.978944301605225 0.003921568859369
2.575956821441650 8.504173278808594 2.395782470703125 0.000000000000000
9.996820449829102 22.990091323852539 0.284596771001816 0.003921568859369
10.241352081298828 22.880130767822266 0.284864157438278 0.003921568859369
10.285389900207520 22.776344299316406 0.283984482288361 0.003921568859369
1.254203557968140 3.440369129180908 0.064985252916813 0.000000000000000
11.425890922546387 25.230474472045898 2.258999824523926 0.003921568859369
7.970460414886475 23.045175552368164 0.135363638401031 0.003921568859369
10.703531265258789 26.561004638671875 0.659556865692139 0.003921568859369
8.011634826660156 22.881883621215820 0.134567961096764 0.003921568859369
10.754881858825684 26.397079467773438 0.656500518321991 0.003921568859369
11.467755317687988 24.638967514038086 2.216795682907104 0.003921568859369
12.359516143798828 23.287685394287109 0.299559026956558 0.003921568859369
11.144313812255859 26.818090438842773 1.686881661415100 0.003921568859369
12.304081916809082 22.821405410766602 -0.311202436685562 0.003921568859369
12.237076759338379 22.698738098144531 0.293020009994507 0.003921568859369
3.204469442367554 6.930188655853271 1.405322194099426 0.000000000000000
12.609169960021973 22.790473937988281 -0.312226414680481 0.003921568859369
12.720193862915039 22.792173385620117 -0.312918066978455 0.003921568859369
3.279088020324707 6.764242649078369 0.307983607053757 0.000000000000000
3.728039741516113 7.641243457794189 1.562929868698120 0.000000000000000
13.223030090332031 23.112535476684570 -0.319305181503296 0.003921568859369
13.356105804443359 23.155384063720703 -0.320571392774582 0.003921568859369
11.531931877136230 25.451238632202148 1.623505115509033 0.003921568859369
11.885524749755859 25.307191848754883 0.644185304641724 0.003921568859369
11.686537742614746 24.889331817626953 1.597745299339294 0.003921568859369
3.489505290985107 7.698056221008301 1.045291066169739 0.000000000000000
12.572857856750488 22.717176437377930 -0.158903270959854 0.003921568859369
12.308600425720215 25.039077758789062 0.643144249916077 0.003921568859369
14.918474197387695 23.341321945190430 -0.331992417573929 0.003921568859369
15.075982093811035 23.396444320678711 -0.333592057228088 0.003921568859369
1.445732116699219 2.767857074737549 0.130469739437103 0.000000000000000
12.929154396057129 24.760791778564453 0.643824279308319 0.003921568859369
0.851327359676361 1.708895564079285 0.363317191600800 0.000000000000000
13.662641525268555 22.940177917480469 -0.787547826766968 0.003921568859369
5.009521007537842 8.590727806091309 0.406317263841629 0.000000000000000
7.084532737731934 12.030804634094238 2.557675838470459 0.000000000000000
16.565874099731445 24.713418960571289 -0.356108278036118 0.003921568859369
5.008425712585449 8.375546455383301 1.792198896408081 0.000000000000000
16.472711563110352 23.860309600830078 -0.347130656242371 0.003921568859369
16.866245269775391 24.243967056274414 -0.353607833385468 0.003921568859369
2.269078254699707 4.263500213623047 0.601893007755280 0.000000000000000
7.709344863891602 13.586863517761230 0.910447180271149 0.000000000000000
6.573439598083496 10.337269783020020 2.246243476867676 0.000000000000000
7.561892032623291 11.764507293701172 2.562090396881104 0.000000000000000
17.171682357788086 23.434637069702148 -0.347401618957520 0.003921568859369
17.632574081420898 23.874593734741211 -0.354920804500580 0.003921568859369
16.367927551269531 24.599882125854492 -0.180302232503891 0.003921568859369
17.536447525024414 23.581916809082031 -0.351445525884628 0.003921568859369
12.302796363830566 22.964130401611328 0.145222306251526 0.003921568859369
12.497588157653809 22.939670562744141 0.145586758852005 0.003921568859369
4.301934242248535 7.217628955841064 1.039579391479492 0.000000000000000
2.170070648193359 3.380630254745483 0.747193992137909 0.000000000000000
16.808801651000977 24.337043762207031 -0.180576831102371 0.003921568859369
5.408986568450928 7.978058815002441 1.770756721496582 0.000000000000000
15.957242012023926 22.961139678955078 -0.823976039886475 0.003921568859369
17.128425598144531 24.430313110351562 -0.182198211550713 0.003921568859369
18.399665832519531 23.513256072998047 -0.357185930013657 0.003921568859369
16.437908172607422 23.110301971435547 -0.835779547691345 0.003921568859369
18.409461975097656 23.357551574707031 -0.355813264846802 0.003921568859369
6.975883960723877 11.027462959289551 3.514782428741455 0.000000000000000
16.426122665405273 22.941406250000000 -0.831559598445892 0.003921568859369
16.638504028320312 23.051525115966797 -0.837176918983459 0.003921568859369
18.733104705810547 23.264787673950195 -0.356781154870987 0.003921568859369
1.450156569480896 2.390128374099731 0.167172864079475 0.000000000000000
5.647682666778564 7.779407978057861 1.765838265419006 0.000000000000000
17.324932098388672 23.134902954101562 -0.851227819919586 0.003921568859369
17.439472198486328 23.118347167968750 -0.852886378765106 0.003921568859369
17.678091049194336 23.263156890869141 -0.860538303852081 0.003921568859369
9.278186798095703 13.626491546630859 4.434309959411621 0.003921568859369
18.026699066162109 23.210659027099609 -0.865630984306335 0.003921568859369
3.643182992935181 4.834310054779053 1.118245244026184 0.000000000000000
16.158329010009766 23.061807632446289 -0.664403498172760 0.003921568859369
2.383041143417358 3.201497554779053 0.165667876601219 0.000000000000000
6.123335838317871 7.945429325103760 1.842450380325317 0.000000000000000
16.338472366333008 23.144842147827148 -0.668467521667480 0.003921568859369
18.289743423461914 23.041133880615234 -0.865831553936005 0.003921568859369
7.369619369506836 10.307174682617188 3.412694454193115 0.000000000000000
16.517709732055664 22.880184173583984 -0.665269076824188 0.003921568859369
18.611320495605469 23.110725402832031 -0.873372018337250 0.003921568859369
17.116466522216797 23.358543395996094 -0.682706654071808 0.003921568859369
16.551298141479492 24.880620956420898 0.166981726884842 0.003921568859369
17.319606781005859 23.461843490600586 -0.687519550323486 0.003921568859369
17.475763320922852 23.329860687255859 -0.687262356281281 0.003921568859369
17.801092147827148 23.419095993041992 -0.693593919277191 0.003921568859369
16.985265731811523 24.588972091674805 0.166933491826057 0.003921568859369
17.853410720825195 23.318374633789062 -0.692476630210876 0.003921568859369
17.961687088012695 23.290189743041992 -0.693524360656738 0.003921568859369
17.159616470336914 24.459096908569336 0.167376235127449 0.003921568859369
18.356033325195312 23.119771957397461 -0.695473909378052 0.003921568859369
4.447265148162842 5.032236099243164 1.237990856170654 0.000000000000000
18.833232879638672 22.886182785034180 -0.698349714279175 0.003921568859369
7.106314659118652 8.122385025024414 2.909239053726196 0.000000000000000
5.356868267059326 5.501755237579346 1.412887930870056 0.000000000000000
9.054258346557617 8.474142074584961 2.272181749343872 0.000000000000000
5.961279869079590 6.101887226104736 2.303194046020508 0.000000000000000
6.576576232910156 5.675988674163818 1.595112085342407 0.000000000000000
14.055221557617188 10.725524902343750 3.231192350387573 0.003921568859369
7.323447227478027 5.991530895233154 2.548758029937744 0.000000000000000
10.754073143005371 8.217365264892578 1.666115760803223 0.000000000000000
11.021447181701660 7.539513587951660 2.442188739776611 0.000000000000000
7.084381580352783 4.684223175048828 1.556787967681885 0.000000000000000
23.571891784667969 14.668928146362305 5.066703796386719 0.003921568859369
7.927233695983887 4.838916301727295 1.700328826904297 0.000000000000000
11.597898483276367 6.624754905700684 1.092184185981750 0.000000000000000
8.220227241516113 4.774864673614502 1.169934034347534 0.000000000000000
4.394203186035156 2.163511276245117 -0.000115792114229 0.000000000000000
13.473949432373047 4.464614391326904 -0.827474117279053 0.000000000000000
7.430915355682373 2.203958988189697 -0.451391398906708 0.000000000000000
10.562849998474121 4.209880828857422 3.046817779541016 0.000000000000000
6.478278160095215 2.529682159423828 1.863497138023376 0.000000000000000
6.276711940765381 2.027701377868652 0.268438041210175 0.000000000000000
10.998700141906738 3.471042394638062 -0.066766574978828 0.000000000000000
8.086056709289551 2.960196018218994 0.501069426536560 0.000000000000000
9.686392784118652 3.133301734924316 2.723133802413940 0.000000000000000
7.682104110717773 2.047304391860962 0.138682425022125 0.000000000000000
14.040864944458008 3.746370792388916 2.646601676940918 0.000000000000000
6.735533237457275 1.744236707687378 0.282875210046768 0.000000000000000
8.821944236755371 1.832408189773560 -0.313663303852081 0.000000000000000
12.491091728210449 3.803259849548340 1.601364850997925 0.000000000000000
13.168663024902344 2.498751163482666 -0.466885894536972 0.000000000000000
16.988754272460938 3.968314647674561 -0.505853712558746 0.000000000000000
18.162881851196289 4.243071556091309 -0.974858760833740 0.003921568859369
9.751903533935547 2.782164096832275 1.242133617401123 0.000000000000000
19.043525695800781 4.449095726013184 1.595256924629211 0.000000000000000
3.865192413330078 0.883262217044830 0.068790644407272 0.000000000000000
18.154226303100586 4.174366950988770 -0.973605513572693 0.003921568859369
2.140638113021851 0.478309392929077 -0.012600129470229 0.000000000000000
8.304398536682129 2.305548667907715 0.500650584697723 0.000000000000000
18.149204254150391 4.106665134429932 -0.972561359405518 0.003921568859369
2.795621871948242 0.760161042213440 0.000027121917810 0.000000000000000
8.209845542907715 1.823903799057007 -0.438802897930145 0.000000000000000
2.045819520950317 0.449423283338547 0.168557167053223 0.000000000000000
8.676960945129395 2.376833200454712 2.403324365615845 0.000000000000000
10.121076583862305 2.773846864700317 -0.242967143654823 0.000000000000000
18.165731430053711 3.977504253387451 -0.971936643123627 0.003921568859369
12.579613685607910 2.070840358734131 0.148756012320518 0.000000000000000
18.179504394531250 3.914179086685181 -0.971937894821167 0.003921568859369
4.977874755859375 1.322947859764099 0.629027903079987 0.000000000000000
18.212596893310547 3.854940414428711 -0.972984492778778 0.003921568859369
14.834007263183594 2.230997085571289 0.175117775797844 0.000000000000000
6.603394508361816 1.659638762474060 -0.473770260810852 0.000000000000000
7.230930805206299 2.113627672195435 -0.130357816815376 0.000000000000000
4.359619140625000 1.269616842269897 0.131212711334229 0.000000000000000
6.966200351715088 1.318719148635864 -0.369083851575851 0.000000000000000
7.039030551910400 1.664779305458069 0.167831078171730 0.000000000000000
3.816200256347656 0.870353639125824 0.090293914079666 0.000000000000000
5.431192874908447 0.948624432086945 0.447117567062378 0.000000000000000
6.069346904754639 1.635825514793396 -0.108695119619370 0.000000000000000
10.187938690185547 2.227373361587524 2.784574270248413 0.000000000000000
14.002893447875977 3.736118555068970 0.421750247478485 0.000000000000000
13.124120712280273 2.161318063735962 2.418850183486938 0.000000000000000
10.945943832397461 1.762452721595764 0.902602910995483 0.000000000000000
11.234265327453613 1.172644495964050 -0.130275249481201 0.000000000000000
7.912290096282959 1.215859413146973 0.325000703334808 0.000000000000000
17.031099319458008 2.624245405197144 3.135954141616821 0.003921568859369
1.607514142990112 0.387654989957809 -0.102942846715450 0.003921568859369
8.396117210388184 1.229435682296753 0.689322710037231 0.000000000000000
7.177092075347900 1.385346770286560 -0.337652653455734 0.000000000000000
9.923070907592773 1.422707915306091 0.815118968486786 0.000000000000000
9.114647865295410 1.761888742446899 2.475068330764771 0.000000000000000
6.264742374420166 1.184358596801758 0.147638678550720 0.000000000000000
17.966627120971680 3.414535284042358 2.241241693496704 0.003921568859369
11.663447380065918 1.054926514625549 -0.406223475933075 0.000000000000000
6.639245510101318 0.902584016323090 0.271400481462479 0.000000000000000
11.471538543701172 2.052989244461060 0.676827371120453 0.000000000000000
10.263557434082031 1.290284156799316 0.180541291832924 0.000000000000000
7.194168090820312 1.259690880775452 -0.168266996741295 0.000000000000000
7.585554122924805 0.552075684070587 -0.263308435678482 0.000000000000000
12.724442481994629 2.143722772598267 0.749752759933472 0.000000000000000
8.353047370910645 1.404303908348083 1.034598469734192 0.000000000000000
6.085120201110840 0.697193443775177 0.247884094715118 0.000000000000000
7.968185901641846 1.280951023101807 2.149845838546753 0.000000000000000
13.229057312011719 1.475883245468140 2.419062376022339 0.000000000000000
13.727723121643066 2.852882385253906 -0.242147222161293 0.000000000000000
8.455970764160156 1.328274846076965 0.000798550550826 0.003921568859369
13.532155990600586 2.812033653259277 0.402049541473389 0.000000000000000
7.968923091888428 0.804741501808167 0.324570029973984 0.000000000000000
3.391774892807007 0.659021139144897 0.019859082996845 0.000000000000000
11.168092727661133 0.506407082080841 0.130531176924706 0.000000000000000
3.696493625640869 0.524602830410004 0.214102506637573 0.000000000000000
23.747001647949219 2.243317604064941 1.945101022720337 0.003921568859369
10.631016731262207 0.481949388980865 -0.368502229452133 0.000000000000000
4.357486248016357 0.603930473327637 -0.201892524957657 0.000000000000000
8.744503021240234 1.656650781631470 -0.359321624040604 0.000000000000000
9.870849609375000 0.856621503829956 0.402154773473740 0.000000000000000
15.903227806091309 2.116818189620972 0.373711794614792 0.000000000000000
12.936000823974609 1.036015629768372 0.527602016925812 0.000000000000000
16.045907974243164 2.019530057907104 0.940155923366547 0.000000000000000
13.946534156799316 2.448642730712891 -0.572902679443359 0.000000000000000
3.156806945800781 0.227344483137131 0.566151857376099 0.000000000000000
8.185431480407715 0.568226277828217 -0.426137953996658 0.000000000000000
13.511156082153320 1.603921651840210 1.664720892906189 0.000000000000000
8.865404129028320 1.017684817314148 -0.205051422119141 0.000000000000000
9.513410568237305 1.532890439033508 -0.165883287787437 0.000000000000000
12.041531562805176 1.943282842636108 0.071988262236118 0.000000000000000
14.927903175354004 0.212776869535446 0.174773618578911 0.000000000000000
14.623743057250977 0.869672000408173 2.660040616989136 0.000000000000000
12.441162109375000 0.650596022605896 -0.070538930594921 0.000000000000000
4.774179458618164 0.247283354401588 0.859129488468170 0.000000000000000
5.160358428955078 0.500893056392670 -0.237852066755295 0.000000000000000
9.117243766784668 0.445639997720718 0.740399539470673 0.000000000000000
4.747462272644043 0.230329260230064 0.854101896286011 0.000000000000000
8.329867362976074 -0.027325218543410 -0.095347620546818 0.000000000000000
3.898117303848267 -0.026052700355649 -0.044399529695511 0.000000000000000
12.254812240600586 -0.082800060510635 -0.424119770526886 0.000000000000000
18.806222915649414 2.573322772979736 0.112450242042542 0.000000000000000
9.636639595031738 0.805047333240509 0.001062711002305 0.003921568859369
10.889719963073730 0.910466134548187 0.633573412895203 0.000000000000000
7.865042686462402 0.629926025867462 0.000791142461821 0.000000000000000
9.133735656738281 0.288061618804932 -0.051753144711256 0.000000000000000
14.458726882934570 1.873929500579834 0.424126148223877 0.000000000000000
11.592397689819336 0.890666604042053 0.674371480941772 0.000000000000000
15.643611907958984 1.148443341255188 0.911074101924896 0.000000000000000
14.024070739746094 0.933480262756348 1.717876791954041 0.000000000000000
2.104482173919678 0.128016501665115 -0.000099074648460 0.000000000000000
10.200757980346680 0.111209586262703 1.846593737602234 0.000000000000000
9.517507553100586 0.532646238803864 0.001170555595309 0.003921568859369
23.211975097656250 0.093142196536064 -0.131030663847923 0.003921568859369
2.101758003234863 0.008094197139144 -0.106038175523281 0.000000000000000
3.706882238388062 0.357477933168411 0.021366601809859 0.000000000000000
6.641893386840820 0.646840691566467 0.192583307623863 0.000000000000000
14.859797477722168 0.730422079563141 3.967185258865356 0.000000000000000
23.560722351074219 0.012198387645185 4.284637451171875 0.003921568859369
9.206013679504395 0.867518663406372 -0.158855199813843 0.000000000000000
19.840127944946289 -0.058393090963364 -0.112007483839989 0.000000000000000
10.243776321411133 -0.100992634892464 -0.294557422399521 0.000000000000000
18.040243148803711 1.581010460853577 -0.731840193271637 0.003921568859369
8.133319854736328 0.285505473613739 -0.186582684516907 0.000000000000000
12.538411140441895 0.397708475589752 1.531085491180420 0.000000000000000
5.409936904907227 -0.090141825377941 0.970512390136719 0.000000000000000
5.145301342010498 -0.103238716721535 0.206413522362709 0.000000000000000
10.182176589965820 -0.239502519369125 0.177563458681107 0.000000000000000
9.962803840637207 -0.268734902143478 -0.286094516515732 0.000000000000000
9.949401855468750 -0.268418401479721 0.173468023538589 0.000000000000000
11.546202659606934 0.168053284287453 0.268255650997162 0.000000000000000
17.974731445312500 1.137888550758362 0.524495542049408 0.003921568859369
12.442840576171875 0.744779348373413 0.362026333808899 0.000000000000000
8.421663284301758 0.471661418676376 0.243953242897987 0.000000000000000
8.899304389953613 0.067673213779926 0.514173269271851 0.000000000000000
6.765319824218750 0.332340508699417 -0.115870438516140 0.000000000000000
3.634585142135620 0.003084079595283 0.000162460200954 0.000000000000000
2.092432498931885 0.001722721382976 -0.093374751508236 0.000000000000000
13.489541053771973 -0.643713474273682 2.447816371917725 0.000000000000000
7.711797714233398 -0.420672804117203 -0.221251949667931 0.000000000000000
11.917004585266113 -0.652898609638214 0.968582987785339 0.000000000000000
15.338227272033691 -0.095588937401772 -0.352465897798538 0.000000000000000
10.488883972167969 -0.137717828154564 0.243341222405434 0.000000000000000
8.780597686767578 -0.539973616600037 0.355506837368011 0.000000000000000
2.979319095611572 0.072346970438957 -0.050211079418659 0.000000000000000
12.511980056762695 -0.294591546058655 0.725011050701141 0.000000000000000
16.926763534545898 0.370386004447937 -0.682687222957611 0.003921568859369
11.071324348449707 -0.832721710205078 2.007695913314819 0.000000000000000
11.288608551025391 -0.929781734943390 2.048626661300659 0.000000000000000
7.784862041473389 0.087217897176743 0.224701195955276 0.000000000000000
15.037032127380371 -1.293787121772766 2.735990047454834 0.000000000000000
5.599325656890869 -0.206392005085945 -0.127474412322044 0.000000000000000
2.066979646682739 0.015757154673338 -0.080256149172783 0.003921568859369
2.098997831344604 0.008690392598510 -0.081552907824516 0.003921568859369
24.355775833129883 -2.357085227966309 4.447554588317871 0.003921568859369
12.872778892517090 -0.033214055001736 -0.220454797148705 0.000000000000000
6.938006877899170 -0.089326515793800 0.040626734495163 0.000000000000000
5.649422168731689 -0.362071961164474 0.323867797851562 0.000000000000000
5.551317214965820 -0.107309460639954 0.158992379903793 0.000000000000000
11.931982040405273 -1.395124793052673 2.172289133071899 0.000000000000000
2.671999454498291 -0.175981312990189 -0.059783417731524 0.000000000000000
5.856431007385254 -0.134340822696686 -0.233458280563354 0.000000000000000
12.762703895568848 -1.540199398994446 2.326001167297363 0.000000000000000
17.681766510009766 -0.472085565328598 -0.303458869457245 0.003921568859369
10.284921646118164 -1.274482846260071 0.838641703128815 0.000000000000000
4.721879005432129 -0.577737808227539 0.847714841365814 0.000000000000000
9.315785408020020 -0.407825082540512 0.269445419311523 0.000000000000000
4.478909492492676 -0.437299013137817 0.000368506298400 0.000000000000000
4.318288803100586 -0.435249865055084 0.000328685739078 0.000000000000000
10.454527854919434 -1.071438670158386 0.243526160717010 0.000000000000000
3.690588951110840 -0.370245724916458 0.440860271453857 0.000000000000000
6.043409347534180 -0.385021954774857 -0.102831490337849 0.000000000000000
17.789756774902344 -2.082360744476318 4.770918846130371 0.003921568859369
9.273644447326660 -1.110750079154968 0.001475603901781 0.003921568859369
6.123159885406494 -0.728573739528656 0.743168234825134 0.000000000000000
3.046542882919312 -0.355107069015503 -0.068557821214199 0.000000000000000
12.410399436950684 -1.578769564628601 1.523613214492798 0.000000000000000
5.860537528991699 -0.919025838375092 1.555688142776489 0.000000000000000
5.259977817535400 -0.822423994541168 -0.120320484042168 0.000000000000000
10.029142379760742 -1.164367318153381 -0.172170430421829 0.000000000000000
4.965435028076172 -0.568777620792389 0.028804153203964 0.000000000000000
2.562384605407715 -0.407432615756989 0.302608698606491 0.000000000000000
3.966314792633057 -0.464137673377991 -0.067179426550865 0.000000000000000
5.670930385589600 -0.727056622505188 0.163057044148445 0.000000000000000
26.891769409179688 -5.443502426147461 7.321440696716309 0.003921568859369
26.454065322875977 -8.189903259277344 -0.315204292535782 0.003921568859369
8.078581809997559 -1.271283507347107 -0.138968944549561 0.000000000000000
26.577459335327148 -8.636921882629395 0.329658597707748 0.003921568859369
24.754577636718750 -8.413394927978516 -0.297256410121918 0.003921568859369
26.324977874755859 -8.950573921203613 0.327897816896439 0.003921568859369
24.728839874267578 -8.500534057617188 -0.297325521707535 0.003921568859369
26.070556640625000 -8.964750289916992 0.325068771839142 0.003921568859369
24.803298950195312 -7.199438571929932 2.102275609970093 0.003921568859369
25.014448165893555 -8.701641082763672 0.312164127826691 0.003921568859369
25.259889602661133 -8.979672431945801 -0.304922759532928 0.003921568859369
21.587730407714844 -7.666566371917725 0.269638806581497 0.003921568859369
25.235719680786133 -9.070086479187012 0.316036641597748 0.003921568859369
3.554293632507324 -1.244761943817139 -0.042149893939495 0.000000000000000
26.764156341552734 -6.973090171813965 7.378527641296387 0.003921568859369
23.751825332641602 -8.810292243957520 0.298586636781693 0.003921568859369
2.968918561935425 -0.756611645221710 -0.000068280962296 0.000000000000000
22.976831436157227 -8.789621353149414 0.289811134338379 0.003921568859369
25.364046096801758 -8.422125816345215 -0.767319738864899 0.003921568859369
22.072336196899414 -8.533534049987793 0.278659552335739 0.003921568859369
28.044120788574219 -10.965888023376465 0.355276554822922 0.003921568859369
26.366445541381836 -10.411864280700684 0.334281802177429 0.003921568859369
21.449726104736328 -7.525578022003174 -0.126353338360786 0.003921568859369
25.692190170288086 -9.126353263854980 2.219446659088135 0.003921568859369
4.419277667999268 -1.307890892028809 1.193989992141724 0.000000000000000
24.614692687988281 -8.929813385009766 -0.145210355520248 0.003921568859369
25.687906265258789 -9.616520881652832 2.232421159744263 0.003921568859369
19.801103591918945 -7.554916381835938 1.721712231636047 0.003921568859369
25.101654052734375 -9.693966865539551 -0.772395908832550 0.003921568859369
23.739377975463867 -7.862482547760010 0.584066450595856 0.003921568859369
20.580898284912109 -7.936935424804688 1.792540311813354 0.003921568859369
19.859203338623047 -7.735513210296631 1.731462597846985 0.003921568859369
21.698455810546875 -8.458912849426270 4.222416877746582 0.003921568859369
25.342044830322266 -9.991271972656250 2.216931581497192 0.003921568859369
24.848184585571289 -9.895094871520996 2.176418304443359 0.003921568859369
22.709951400756836 -8.396608352661133 2.957950592041016 0.003921568859369
26.990682601928711 -8.627487182617188 0.171030551195145 0.003921568859369
14.715713500976562 -6.302344322204590 2.891768932342529 0.003921568859369
21.220983505249023 -9.209585189819336 1.880030393600464 0.003921568859369
14.571070671081543 -6.299394607543945 2.867321252822876 0.000000000000000
4.331920623779297 -1.383961796760559 -0.076063819229603 0.000000000000000
19.860033035278320 -8.778092384338379 1.763744115829468 0.003921568859369
25.012821197509766 -11.077545166015625 4.963869571685791 0.003921568859369
24.390405654907227 -9.506452560424805 0.611408412456512 0.003921568859369
23.647117614746094 -10.660415649414062 4.705150604248047 0.003921568859369
26.764850616455078 -12.186593055725098 -0.844524919986725 0.003921568859369
19.883058547973633 -7.892482280731201 2.610883951187134 0.003921568859369
20.469913482666016 -8.371045112609863 2.699029445648193 0.003921568859369
14.688754081726074 -6.831358432769775 1.311609745025635 0.000000000000000
24.705791473388672 -8.839549064636230 0.158262670040131 0.003921568859369
20.491165161132812 -7.400202274322510 0.634263217449188 0.003921568859369
13.513115882873535 -6.391189575195312 0.604876458644867 0.000000000000000
24.450540542602539 -10.213023185729980 3.238388776779175 0.003921568859369
24.271911621093750 -8.873558998107910 0.155782490968704 0.003921568859369
13.602242469787598 -6.491634845733643 0.609938263893127 0.000000000000000
25.934965133666992 -12.573923110961914 5.230441093444824 0.003921568859369
26.449438095092773 -12.936416625976562 -0.845258414745331 0.003921568859369
25.619373321533203 -11.018425941467285 -0.638148844242096 0.003921568859369
13.575783729553223 -6.708159923553467 0.612813055515289 0.000000000000000
20.515130996704102 -8.972759246826172 2.733043909072876 0.003921568859369
21.169334411621094 -10.514253616333008 1.920698523521423 0.003921568859369
21.198419570922852 -10.712979316711426 1.930106401443481 0.003921568859369
27.339099884033203 -12.320956230163574 0.701005041599274 0.003921568859369
27.288658142089844 -12.412275314331055 0.700777649879456 0.003921568859369
14.451944351196289 -7.393237590789795 1.313836693763733 0.000000000000000
22.525058746337891 -11.681672096252441 4.599619388580322 0.003921568859369
22.117219924926758 -10.322647094726562 2.980343341827393 0.003921568859369
25.123155593872070 -11.843232154846191 -0.635394334793091 0.003921568859369
13.372250556945801 -6.317352294921875 3.917387008666992 0.000000000000000
22.217910766601562 -11.915458679199219 4.570023536682129 0.003921568859369
13.312974929809570 -6.342494487762451 3.905968666076660 0.000000000000000
19.368631362915039 -11.887972831726074 -0.258311748504639 0.003921568859369
5.819792747497559 -2.766492843627930 1.678836822509766 0.000000000000000
14.608452796936035 -7.151698589324951 0.940072238445282 0.003921568859369
20.952524185180664 -12.174904823303223 4.390313625335693 0.003921568859369
14.079296112060547 -6.466455936431885 0.448749542236328 0.000000000000000
11.915865898132324 -6.172338962554932 3.548376560211182 0.000000000000000
20.824501037597656 -12.872904777526855 -0.701899707317352 0.003921568859369
21.010023117065430 -13.293809890747070 -0.138316005468369 0.003921568859369
20.630235671997070 -13.252286911010742 -0.703244984149933 0.003921568859369
9.987726211547852 -5.685331821441650 3.030096769332886 0.000000000000000
20.133306503295898 -13.128137588500977 -0.689362168312073 0.003921568859369
13.279466629028320 -6.884454727172852 0.432735919952393 0.000000000000000
20.601781845092773 -12.138864517211914 0.557182013988495 0.003921568859369
19.498502731323242 -12.898712158203125 -0.670513272285461 0.003921568859369
20.495447158813477 -12.176421165466309 0.555449306964874 0.003921568859369
17.998302459716797 -13.288363456726074 0.262107431888580 0.003921568859369
19.818679809570312 -11.117503166198730 0.660784184932709 0.003921568859369
19.719810485839844 -11.241990089416504 0.660006940364838 0.003921568859369
19.844575881958008 -14.031388282775879 1.973279595375061 0.003921568859369
19.291500091552734 -13.729942321777344 -0.679231047630310 0.003921568859369
19.756006240844727 -12.664660453796387 1.360228180885315 0.003921568859369
20.554594039916992 -12.196305274963379 0.695187628269196 0.003921568859369
17.639595031738281 -14.478798866271973 -0.259977340698242 0.003921568859369
23.934860229492188 -18.093231201171875 -0.861893951892853 0.003921568859369
17.553373336791992 -14.612801551818848 -0.260289072990417 0.003921568859369
21.145452499389648 -14.402965545654297 -0.585398256778717 0.003921568859369
17.402322769165039 -14.691684722900391 -0.259640544652939 0.003921568859369
