# This PCD file was generated using the MATLAB® pcwrite function
# from Computer Vision Toolbox®.
# .PCD v.7 - Point Cloud Data file format
VERSION .7
FIELDS x y z intensity
SIZE 8 8 8 8
TYPE F F F F
COUNT 1 1 1 1
WIDTH 645
HEIGHT 1
VIEWPOINT 0 0 0 1 0 0 0
POINTS 645
DATA ascii
-12.110301971435547 10.891354560852051 2.898699045181274 0.003921568859369
-21.361362457275391 20.122383117675781 5.276602745056152 0.003921568859369
-4.948825836181641 4.125728607177734 1.627555131912231 0.000000000000000
-5.392107009887695 5.073626995086670 0.286539822816849 0.000000000000000
-7.276103973388672 5.808326244354248 0.049819588661194 0.000000000000000
-12.286261558532715 11.370359420776367 4.386392593383789 0.003921568859369
-3.591609001159668 3.088028669357300 0.538403332233429 0.000000000000000
-4.897357463836670 4.866915702819824 1.198170661926270 0.000000000000000
-4.035902976989746 3.946771383285522 0.216200724244118 0.000000000000000
-14.486085891723633 16.323179244995117 3.918594360351562 0.003921568859369
-11.604275703430176 12.515519142150879 2.053661108016968 0.003921568859369
-7.723401069641113 8.152896881103516 2.922774791717529 0.000000000000000
-16.642480850219727 20.213748931884766 4.715148925781250 0.003921568859369
-12.385551452636719 13.880355834960938 2.243564367294312 0.003921568859369
-10.490476608276367 13.570728302001953 3.074748516082764 0.003921568859369
-17.331468582153320 23.866975784301758 1.698258876800537 0.003921568859369
-13.263518333435059 20.135412216186523 4.350055217742920 0.003921568859369
-13.237969398498535 20.258798599243164 4.366602420806885 0.003921568859369
-13.144973754882812 20.252239227294922 4.356618881225586 0.003921568859369
-13.059642791748047 20.273084640502930 4.351658821105957 0.003921568859369
-12.949485778808594 20.253410339355469 4.338096141815186 0.003921568859369
-12.855180740356445 20.274450302124023 4.332424640655518 0.003921568859369
-12.842538833618164 20.397417068481445 4.350397586822510 0.003921568859369
-3.528002262115479 5.351120471954346 1.128168821334839 0.000000000000000
-5.773502826690674 8.525346755981445 1.235268831253052 0.000000000000000
-10.890296936035156 18.800846099853516 3.921577215194702 0.003921568859369
-6.524854183197021 9.963540077209473 3.131047964096069 0.000000000000000
-13.562279701232910 24.192535400390625 5.018032550811768 0.003921568859369
-6.910226821899414 12.051137924194336 2.495651483535767 0.000000000000000
-2.856334686279297 4.566575050354004 0.944766581058502 0.000000000000000
-4.699101924896240 7.206873893737793 2.246483564376831 0.000000000000000
-7.232211112976074 12.665408134460449 3.854846954345703 0.000000000000000
-9.558818817138672 19.172302246093750 3.873049736022949 0.003921568859369
-5.403874874114990 10.563826560974121 2.131127834320068 0.000000000000000
-8.041025161743164 16.277097702026367 3.277903795242310 0.003921568859369
-9.286664962768555 17.329574584960938 5.216955184936523 0.003921568859369
-3.222205162048340 6.369230747222900 1.271381974220276 0.000000000000000
-4.218428134918213 7.657727718353271 1.051359653472900 0.000000000000000
-2.428613662719727 4.071265697479248 1.220297336578369 0.000000000000000
-2.682634353637695 4.621478557586670 0.633929729461670 0.000000000000000
-4.074738025665283 8.448945999145508 1.680962562561035 0.000000000000000
-12.775417327880859 25.243280410766602 0.652876853942871 0.003921568859369
-7.025950431823730 13.633879661560059 4.062261581420898 0.000000000000000
-4.647213935852051 9.064412117004395 1.229809284210205 0.000000000000000
-3.772634506225586 7.482540607452393 2.201614618301392 0.000000000000000
-3.700991392135620 8.846359252929688 0.385903298854828 0.000000000000000
-7.877174377441406 24.886117935180664 0.304402768611908 0.003921568859369
-7.684258460998535 24.907079696655273 0.304163724184036 0.003921568859369
-7.427894592285156 24.702302932739258 0.301169157028198 0.003921568859369
-7.305734157562256 24.566509246826172 0.299311012029648 0.003921568859369
-7.192201614379883 25.522609710693359 0.309988647699356 0.003921568859369
-6.748052597045898 24.902868270874023 0.301856845617294 0.003921568859369
-6.785301685333252 25.417509078979492 0.307862728834152 0.003921568859369
-6.667214870452881 25.362085342407227 0.306957036256790 0.003921568859369
-7.931079864501953 24.834222793579102 0.605906963348389 0.003921568859369
-4.581968784332275 15.361964225769043 4.271273136138916 0.003921568859369
-7.120647907257080 25.311422348022461 0.612019956111908 0.003921568859369
-7.153070926666260 25.813192367553711 0.623588800430298 0.003921568859369
-1.699383974075317 5.132103443145752 1.423835992813110 0.000000000000000
-2.641537666320801 9.086639404296875 2.513201236724854 0.000000000000000
-1.721914649009705 7.231739997863770 1.344194889068604 0.000000000000000
-0.870773434638977 3.169126272201538 0.587598145008087 0.000000000000000
-7.185587882995605 25.577138900756836 0.156142368912697 0.003921568859369
-7.027469158172607 25.358425140380859 0.154727905988693 0.003921568859369
-4.150237083435059 24.654487609863281 2.040598154067993 0.003921568859369
-6.380891799926758 25.409313201904297 0.154500529170036 0.003921568859369
-1.663540720939636 9.276145935058594 2.513720750808716 0.000000000000000
-3.559518575668335 24.955785751342773 3.094180107116699 0.003921568859369
-1.254887223243713 7.859651565551758 2.123311758041382 0.000000000000000
-1.212126612663269 12.772296905517578 2.337677955627441 0.000000000000000
-0.862433195114136 5.772505283355713 1.555795669555664 0.000000000000000
0.088825613260269 22.862314224243164 0.271748065948486 0.003921568859369
-0.569698274135590 6.016261577606201 1.615923166275024 0.000000000000000
-0.381063252687454 5.844178199768066 1.568368673324585 0.000000000000000
-1.347493052482605 23.106466293334961 0.138940215110779 0.003921568859369
0.380465179681778 27.899759292602539 0.655645072460175 0.003921568859369
2.991137742996216 22.813306808471680 0.274733662605286 0.003921568859369
3.605298280715942 23.045541763305664 0.278847008943558 0.003921568859369
3.822498798370361 23.281883239746094 0.281866282224655 0.003921568859369
1.452389121055603 11.161590576171875 2.062694787979126 0.000000000000000
1.437188148498535 11.563483238220215 3.135174989700317 0.000000000000000
2.483138084411621 13.922458648681641 2.591533422470093 0.000000000000000
5.617558002471924 22.975488662719727 0.283269733190536 0.003921568859369
0.145769178867340 2.599970102310181 0.706465959548950 0.000000000000000
3.359247922897339 23.013977050781250 2.866688013076782 0.003921568859369
1.972613096237183 13.801322937011719 1.720315456390381 0.000000000000000
1.981967687606812 10.541029930114746 1.967856407165527 0.000000000000000
1.374823093414307 7.528215408325195 1.406778812408447 0.000000000000000
1.282618522644043 6.980486392974854 1.305490136146545 0.000000000000000
4.937718391418457 21.546930313110352 4.047216415405273 0.003921568859369
0.293509244918823 2.136617183685303 0.403162717819214 0.000000000000000
0.296898543834686 2.077468633651733 0.392334014177322 0.000000000000000
6.198015689849854 24.863237380981445 2.103753089904785 0.003921568859369
6.615616798400879 26.101589202880859 2.210536003112793 0.003921568859369
6.519521236419678 25.005035400390625 2.121808528900146 0.003921568859369
6.522551059722900 24.673692703247070 2.095724105834961 0.003921568859369
6.769631862640381 25.230018615722656 2.145053625106812 0.003921568859369
6.893176555633545 25.348659515380859 2.157164812088013 0.003921568859369
3.969590187072754 23.118459701538086 0.689825415611267 0.003921568859369
4.040055751800537 23.048612594604492 0.688215374946594 0.003921568859369
6.928446292877197 24.808010101318359 2.115440607070923 0.003921568859369
6.185622215270996 25.870172500610352 0.627186536788940 0.003921568859369
8.198890686035156 22.996257781982422 -0.277730286121368 0.003921568859369
7.677931308746338 25.347791671752930 2.175060749053955 0.003921568859369
8.425109863281250 23.112970352172852 -0.279812008142471 0.003921568859369
4.704429626464844 22.958576202392578 0.689380586147308 0.003921568859369
8.309693336486816 22.588045120239258 -0.273739814758301 0.003921568859369
8.575361251831055 23.047632217407227 -0.279668360948563 0.003921568859369
8.866059303283691 23.080772399902344 -0.281131029129028 0.003921568859369
9.044499397277832 23.035364151000977 -0.281642735004425 0.003921568859369
3.825378417968750 9.751794815063477 -0.119300916790962 0.000000000000000
1.277988791465759 4.165028095245361 0.182102352380753 0.000000000000000
8.029666900634766 22.764904022216797 -0.133758366107941 0.003921568859369
8.118073463439941 22.540897369384766 -0.132709294557571 0.003921568859369
8.177105903625488 22.459224700927734 -0.132372587919235 0.003921568859369
3.738244056701660 11.816035270690918 3.342597961425781 0.000000000000000
7.738086223602295 20.402967453002930 3.999276876449585 0.003921568859369
7.904382705688477 20.392305374145508 4.007641792297363 0.003921568859369
9.070798873901367 23.075511932373047 -0.716718614101410 0.003921568859369
10.553112030029297 23.391517639160156 -0.292103946208954 0.003921568859369
7.986404418945312 20.380710601806641 4.011257648468018 0.003921568859369
11.566123008728027 25.373043060302734 0.333880662918091 0.003921568859369
3.219956636428833 8.436013221740723 0.373947232961655 0.000000000000000
8.056901931762695 20.360731124877930 4.012715339660645 0.003921568859369
4.338475227355957 12.838735580444336 3.653352022171021 0.000000000000000
10.747287750244141 23.181877136230469 -0.290804028511047 0.003921568859369
3.037012100219727 7.827458381652832 -0.046361934393644 0.000000000000000
3.861149311065674 8.603370666503906 0.114052504301071 0.000000000000000
10.981078147888184 23.265419006347656 -0.292757481336594 0.003921568859369
3.920238494873047 9.774152755737305 1.937764525413513 0.000000000000000
12.008003234863281 25.176708221435547 0.334154218435287 0.003921568859369
12.111639976501465 25.166261672973633 0.334609359502792 0.003921568859369
1.711109876632690 4.449334621429443 0.199303999543190 0.000000000000000
2.984007596969604 8.356541633605957 0.002926792483777 0.003921568859369
12.087574958801270 24.678764343261719 -0.312614351511002 0.003921568859369
4.132206916809082 9.772707939147949 1.952015399932861 0.000000000000000
12.150296211242676 24.356954574584961 -0.309969544410706 0.003921568859369
12.128383636474609 24.314060211181641 0.325248241424561 0.003921568859369
8.890834808349609 23.090612411499023 -0.570741176605225 0.003921568859369
11.798080444335938 23.247789382934570 -0.296865165233612 0.003921568859369
12.329039573669434 24.080867767333984 -0.308033794164658 0.003921568859369
12.579993247985840 24.355730056762695 0.328248590230942 0.003921568859369
12.799783706665039 24.565649032592773 -0.315355241298676 0.003921568859369
13.283010482788086 24.846563339233398 0.337444663047791 0.003921568859369
7.084288597106934 15.139835357666016 3.067938327789307 0.003921568859369
11.786721229553223 24.481430053710938 -0.150593355298042 0.003921568859369
13.036102294921875 23.600107192993164 -0.307201147079468 0.003921568859369
13.668762207031250 24.133375167846680 -0.315965950489044 0.003921568859369
13.644661903381348 24.091669082641602 0.331358641386032 0.003921568859369
13.941003799438477 24.410228729248047 0.336428523063660 0.003921568859369
13.435897827148438 23.348545074462891 -0.306868821382523 0.003921568859369
13.735945701599121 23.863264083862305 0.329591512680054 0.003921568859369
7.017034530639648 13.858957290649414 2.852260351181030 0.000000000000000
14.242843627929688 24.535146713256836 0.339567929506302 0.003921568859369
14.359187126159668 24.526840209960938 0.340209960937500 0.003921568859369
12.049447059631348 22.952951431274414 -0.749619185924530 0.003921568859369
13.833501815795898 23.462179183959961 -0.310218751430511 0.003921568859369
2.909547090530396 5.802486419677734 1.201208829879761 0.000000000000000
13.867857933044434 23.334302902221680 -0.309151917695999 0.003921568859369
14.063354492187500 23.473182678222656 -0.311633020639420 0.003921568859369
3.205662012100220 7.055619716644287 2.100022315979004 0.000000000000000
10.878371238708496 23.030441284179688 -0.587566494941711 0.003921568859369
1.692595720291138 3.816311597824097 0.523181676864624 0.000000000000000
12.779664993286133 23.133621215820312 -0.764436244964600 0.003921568859369
6.497459888458252 11.914000511169434 2.493607997894287 0.000000000000000
12.862396240234375 23.082515716552734 -0.764300346374512 0.003921568859369
13.237488746643066 23.563892364501953 -0.781701803207397 0.003921568859369
13.220183372497559 23.343532562255859 -0.775914072990417 0.003921568859369
13.315594673156738 23.320873260498047 -0.776701986789703 0.003921568859369
14.753898620605469 22.946399688720703 -0.310943484306335 0.003921568859369
12.589877128601074 24.575847625732422 0.651656031608582 0.003921568859369
13.362603187561035 23.029657363891602 -0.770088076591492 0.003921568859369
14.923810005187988 23.031305313110352 -0.312791079282761 0.003921568859369
13.762210845947266 23.521522521972656 -0.151392430067062 0.003921568859369
4.350873947143555 7.634992122650146 0.157734021544456 0.000000000000000
8.388922691345215 14.452526092529297 3.067736864089966 0.003921568859369
12.401001930236816 23.387924194335938 -0.611108779907227 0.003921568859369
11.729666709899902 24.772716522216797 0.166335269808769 0.003921568859369
4.448577404022217 8.513060569763184 2.597184896469116 0.000000000000000
10.209118843078613 17.097373962402344 3.651570558547974 0.003921568859369
13.962323188781738 23.100416183471680 -0.780920445919037 0.003921568859369
11.716691970825195 24.525854110717773 0.164979800581932 0.003921568859369
12.563986778259277 23.299644470214844 -0.611071586608887 0.003921568859369
12.487037658691406 22.967851638793945 -0.603499054908752 0.003921568859369
16.402849197387695 23.795793533325195 -0.329686015844345 0.003921568859369
13.471095085144043 24.351331710815430 0.656491816043854 0.003921568859369
5.204938411712646 8.575321197509766 1.847635984420776 0.000000000000000
13.713273048400879 24.582187652587891 0.664030373096466 0.003921568859369
6.832337379455566 11.089323043823242 2.394372463226318 0.000000000000000
4.026595115661621 6.592325687408447 1.426643729209900 0.000000000000000
13.021987915039062 23.177097320556641 -0.613651931285858 0.003921568859369
13.886236190795898 24.497583389282227 0.664349973201752 0.003921568859369
4.111114501953125 6.673764705657959 1.447483539581299 0.000000000000000
13.285828590393066 23.450086593627930 -0.622107625007629 0.003921568859369
9.796335220336914 15.434119224548340 3.354238271713257 0.003921568859369
14.858789443969727 23.101119995117188 -0.152811959385872 0.003921568859369
3.243905067443848 5.844582080841064 0.832811295986176 0.000000000000000
2.858830213546753 4.152739524841309 -0.057931724935770 0.000000000000000
16.741788864135742 23.054719924926758 -0.325359225273132 0.003921568859369
8.590980529785156 13.243749618530273 2.897781133651733 0.003921568859369
13.748344421386719 23.473426818847656 -0.628175258636475 0.003921568859369
15.296571731567383 23.223005294799805 -0.804723203182220 0.003921568859369
15.210585594177246 22.919836044311523 -0.796050071716309 0.003921568859369
17.169614791870117 23.295713424682617 -0.330435097217560 0.003921568859369
6.894031524658203 11.712579727172852 3.666399002075195 0.000000000000000
4.910671710968018 7.496797561645508 1.652105689048767 0.000000000000000
12.869763374328613 23.861227035522461 0.164424315094948 0.003921568859369
9.312722206115723 13.915843963623047 3.073107719421387 0.003921568859369
13.930987358093262 23.050905227661133 -0.621934771537781 0.003921568859369
5.714703083038330 9.381250381469727 2.968068838119507 0.000000000000000
3.671065568923950 6.066032409667969 1.923624038696289 0.000000000000000
16.633476257324219 23.774885177612305 -0.161716058850288 0.003921568859369
6.691423416137695 10.775035858154297 3.423994541168213 0.000000000000000
13.614974021911621 23.823398590087891 0.166549891233444 0.003921568859369
13.706079483032227 23.771820068359375 0.166112065315247 0.003921568859369
13.867972373962402 23.857851028442383 0.167067393660545 0.003921568859369
17.194961547851562 23.842390060424805 -0.164242833852768 0.003921568859369
13.977661132812500 23.853544235229492 0.167396590113640 0.003921568859369
18.902503967285156 23.166503906250000 0.356593012809753 0.003921568859369
19.064317703247070 22.870855331420898 0.355161488056183 0.003921568859369
17.467798233032227 22.864383697509766 -0.832835495471954 0.003921568859369
1.858805060386658 2.878225326538086 0.431690365076065 0.000000000000000
10.107670783996582 13.308700561523438 3.067212820053101 0.003921568859369
16.866497039794922 24.288423538208008 0.697038054466248 0.003921568859369
17.823022842407227 22.983503341674805 -0.841811597347260 0.003921568859369
16.606447219848633 23.027565002441406 -0.656058073043823 0.003921568859369
3.166117668151855 4.408082962036133 1.476864218711853 0.000000000000000
15.911960601806641 23.438034057617188 0.171341359615326 0.003921568859369
19.156246185302734 22.830293655395508 -0.862852632999420 0.003921568859369
17.706592559814453 23.153125762939453 -0.673472583293915 0.003921568859369
16.475349426269531 23.692296981811523 0.174054533243179 0.003921568859369
5.003795146942139 6.604987144470215 2.242383718490601 0.000000000000000
17.691949844360352 22.954940795898438 -0.669996440410614 0.003921568859369
3.973508358001709 4.745536804199219 1.144608497619629 0.000000000000000
17.813205718994141 22.961896896362305 -0.671831130981445 0.003921568859369
4.682753086090088 5.526380062103271 1.337108492851257 0.000000000000000
17.917047500610352 22.921136856079102 -0.672556877136230 0.003921568859369
18.108711242675781 22.999063491821289 -0.676697015762329 0.003921568859369
18.640649795532227 23.341964721679688 -0.690512895584106 0.003921568859369
2.131765604019165 2.783412218093872 0.960813939571381 0.000000000000000
18.802829742431641 23.045328140258789 -0.687525808811188 0.003921568859369
19.053649902343750 23.029561996459961 0.703755021095276 0.003921568859369
4.131564140319824 5.070245742797852 1.775159358978271 0.000000000000000
5.376975059509277 5.939582824707031 1.477916121482849 0.000000000000000
18.932619094848633 22.714151382446289 -0.683525025844574 0.003921568859369
17.655673980712891 18.926004409790039 4.738481521606445 0.003921568859369
5.991976261138916 6.150093078613281 1.581910371780396 0.000000000000000
19.528280258178711 18.195594787597656 4.885359764099121 0.003921568859369
6.233453273773193 5.742555618286133 1.559302687644958 0.000000000000000
6.918354034423828 6.275723934173584 1.717290401458740 0.000000000000000
2.930139780044556 2.962481498718262 -0.454845726490021 0.000000000000000
5.405538082122803 4.784657001495361 1.330234050750732 0.000000000000000
8.620170593261719 8.077808380126953 3.185668468475342 0.000000000000000
5.604896545410156 4.676846027374268 1.343717336654663 0.000000000000000
6.209993362426758 5.141425609588623 -0.424372524023056 0.000000000000000
4.408104896545410 3.641469478607178 1.055063605308533 0.000000000000000
6.081799030303955 4.963613986968994 1.444247484207153 0.000000000000000
4.519007205963135 3.276010274887085 -0.526093780994415 0.000000000000000
11.296573638916016 8.584342956542969 2.599306583404541 0.000000000000000
2.846880674362183 2.351652383804321 1.004907965660095 0.000000000000000
7.378256797790527 5.425766944885254 1.681729555130005 0.000000000000000
5.910054683685303 4.988587379455566 0.227467283606529 0.000000000000000
7.973525524139404 4.462210178375244 1.673242449760437 0.000000000000000
6.246549606323242 3.213328361511230 1.286203145980835 0.000000000000000
6.266860961914062 3.114035844802856 0.408924996852875 0.000000000000000
8.427429199218750 4.628953456878662 0.280294328927994 0.000000000000000
5.362771511077881 2.568455219268799 0.731358230113983 0.000000000000000
10.702459335327148 3.722086906433105 -0.660217523574829 0.000000000000000
8.444602012634277 3.306514978408813 1.655416131019592 0.000000000000000
7.083149433135986 3.152150392532349 2.080045938491821 0.000000000000000
6.219569206237793 1.968187808990479 0.075946427881718 0.000000000000000
7.746578693389893 3.439683198928833 -0.542805612087250 0.000000000000000
8.974328041076660 3.471639156341553 2.575556278228760 0.000000000000000
11.139889717102051 3.567006587982178 2.130653619766235 0.000000000000000
4.997741699218750 1.579325437545776 0.213015213608742 0.000000000000000
12.652898788452148 4.003298282623291 2.417614698410034 0.000000000000000
2.186746597290039 0.791392266750336 -0.000074060510087 0.000000000000000
14.210618972778320 4.390419483184814 0.605254411697388 0.000000000000000
2.057756185531616 0.736411452293396 -0.000071427602961 0.000000000000000
5.945104122161865 1.744549870491028 1.127725839614868 0.000000000000000
10.697258949279785 2.542144060134888 -0.383847832679749 0.000000000000000
6.041859626770020 1.750141263008118 1.144943594932556 0.000000000000000
11.531032562255859 2.526705503463745 -0.412027686834335 0.000000000000000
7.702230930328369 1.660987377166748 -0.091847933828831 0.000000000000000
11.159127235412598 2.984753131866455 -0.067510597407818 0.000000000000000
8.765185356140137 2.243784666061401 -0.263140201568604 0.000000000000000
17.729528427124023 4.543810844421387 -0.958902299404144 0.003921568859369
17.679449081420898 4.465315341949463 -0.955340504646301 0.003921568859369
17.639896392822266 4.393196105957031 -0.952407121658325 0.003921568859369
8.517993927001953 1.682685256004333 -0.302885860204697 0.000000000000000
4.970345973968506 1.215016126632690 -0.267371952533722 0.000000000000000
5.683288097381592 1.967560887336731 0.173765689134598 0.000000000000000
17.618877410888672 4.252050876617432 -0.949418425559998 0.003921568859369
14.195589065551758 4.166560173034668 1.812013745307922 0.000000000000000
17.598642349243164 4.182299613952637 -0.947531640529633 0.003921568859369
10.596920013427734 3.636436223983765 -0.455989122390747 0.000000000000000
9.872684478759766 2.343119859695435 1.843978762626648 0.000000000000000
17.589078903198242 4.118548393249512 -0.946273565292358 0.003921568859369
17.595561981201172 4.055429935455322 -0.945853590965271 0.003921568859369
7.667033195495605 1.374176263809204 -0.271474599838257 0.000000000000000
17.597929000854492 3.991440057754517 -0.945224165916443 0.003921568859369
5.916130065917969 1.958042740821838 -0.253150850534439 0.000000000000000
18.298866271972656 5.100914478302002 5.081025123596191 0.003921568859369
6.202768325805664 1.065168380737305 -0.073352672159672 0.000000000000000
17.585149765014648 3.920933961868286 -0.943756401538849 0.003921568859369
11.613455772399902 3.188512802124023 1.474346995353699 0.000000000000000
10.536149024963379 1.778953433036804 -0.124717995524406 0.000000000000000
17.620788574218750 3.870910406112671 -0.945013046264648 0.003921568859369
17.635522842407227 3.803335428237915 -0.945012152194977 0.003921568859369
11.205901145935059 2.992549180984497 1.419774889945984 0.000000000000000
6.916166305541992 1.487632274627686 0.574604690074921 0.000000000000000
10.832351684570312 2.294218301773071 0.449198752641678 0.000000000000000
17.664318084716797 3.745181560516357 -0.945849537849426 0.003921568859369
17.646001815795898 3.677078962326050 -0.944172263145447 0.003921568859369
9.489855766296387 2.462403774261475 1.199535369873047 0.000000000000000
3.673749685287476 0.748641073703766 0.064626313745975 0.000000000000000
17.688768386840820 3.628145933151245 -0.945847928524017 0.003921568859369
3.605724811553955 0.904801607131958 -0.000296968035400 0.000000000000000
20.695026397705078 5.229202270507812 1.240113496780396 0.003921568859369
17.949529647827148 4.534439563751221 -0.862126469612122 0.000000000000000
17.745019912719727 3.572089195251465 -0.948152244091034 0.003921568859369
21.378108978271484 5.320386409759521 1.278942942619324 0.003921568859369
17.932704925537109 4.461285114288330 -0.860446691513062 0.000000000000000
17.810588836669922 3.518823146820068 -0.950817704200745 0.003921568859369
8.927890777587891 1.282461285591125 -0.105305761098862 0.000000000000000
17.900836944580078 4.390486240386963 -0.858208715915680 0.000000000000000
17.869209289550781 3.469034194946289 -0.953332185745239 0.003921568859369
17.889623641967773 4.318421363830566 -0.856902718544006 0.000000000000000
17.975973129272461 3.421633720397949 -0.958362042903900 0.003921568859369
17.864982604980469 4.249937057495117 -0.855037689208984 0.000000000000000
18.324874877929688 3.425387620925903 -0.976389408111572 0.003921568859369
10.117554664611816 2.363761663436890 0.601900935173035 0.000000000000000
17.853204727172852 4.178194522857666 -0.853731572628021 0.000000000000000
18.600543975830078 3.406668424606323 -0.990433573722839 0.003921568859369
6.388200283050537 1.165208220481873 1.176066756248474 0.000000000000000
17.856002807617188 4.113290309906006 -0.853171288967133 0.000000000000000
11.410763740539551 2.583467006683350 -0.000979249831289 0.003921568859369
5.946546077728271 1.649152398109436 0.035060036927462 0.000000000000000
17.846876144409180 4.045760631561279 -0.852051734924316 0.000000000000000
7.431463241577148 2.063758134841919 -0.313324630260468 0.000000000000000
8.141868591308594 2.234709262847900 0.048096936196089 0.000000000000000
17.859495162963867 3.989803791046143 -0.852050781250000 0.000000000000000
8.494337081909180 1.463466167449951 0.699640214443207 0.000000000000000
16.739143371582031 2.830612421035767 -0.494258433580399 0.000000000000000
17.885019302368164 3.930161714553833 -0.852609038352966 0.000000000000000
7.924425601959229 1.706188678741455 0.469048768281937 0.000000000000000
17.903211593627930 3.865572214126587 -0.852794289588928 0.000000000000000
4.992220401763916 1.309375166893005 0.148556962609291 0.000000000000000
17.912685394287109 3.802368879318237 -0.852606773376465 0.000000000000000
17.921285629272461 3.742266416549683 -0.852419197559357 0.000000000000000
10.756711006164551 2.795558929443359 -0.452141314744949 0.000000000000000
12.749424934387207 2.017720460891724 2.345093011856079 0.000000000000000
9.387393951416016 1.447329282760620 0.383921295404434 0.000000000000000
17.972396850585938 3.682399272918701 -0.854088783264160 0.000000000000000
18.008640289306641 3.624556303024292 -0.855206310749054 0.000000000000000
18.060380935668945 3.569612503051758 -0.857069730758667 0.000000000000000
10.328096389770508 2.528437614440918 0.060383033007383 0.000000000000000
8.289640426635742 1.604712128639221 0.194397211074829 0.000000000000000
18.111337661743164 3.517503261566162 -0.858933150768280 0.000000000000000
10.683367729187012 1.536294817924500 1.957587718963623 0.000000000000000
6.231031417846680 1.496528029441833 -0.408278763294220 0.000000000000000
18.273246765136719 3.479766130447388 -0.866018116474152 0.000000000000000
18.528776168823242 3.461764812469482 -0.877578794956207 0.000000000000000
7.590009212493896 1.412562251091003 0.940953254699707 0.000000000000000
8.659009933471680 1.121366143226624 1.581818938255310 0.000000000000000
8.135031700134277 1.810267806053162 0.240186989307404 0.000000000000000
11.919844627380371 2.054742097854614 1.477760553359985 0.000000000000000
11.145106315612793 0.742994010448456 0.128321662545204 0.000000000000000
9.764804840087891 2.105835199356079 -0.406021505594254 0.000000000000000
8.601634025573730 1.357598662376404 -0.001123977126554 0.003921568859369
8.704160690307617 0.943835020065308 0.150651827454567 0.000000000000000
11.768621444702148 0.702030360698700 -0.410994738340378 0.000000000000000
4.843459129333496 0.743184566497803 -0.000711926491931 0.000000000000000
13.475395202636719 2.761288642883301 0.077912144362926 0.000000000000000
17.547830581665039 0.987267315387726 0.201889440417290 0.003921568859369
8.050775527954102 1.241460800170898 -0.189214587211609 0.000000000000000
12.345057487487793 1.211305737495422 -0.073239833116531 0.000000000000000
4.066091060638428 0.395063459873199 0.163352996110916 0.000000000000000
12.630884170532227 1.150924921035767 -0.368878960609436 0.000000000000000
14.759206771850586 2.073929309844971 -0.347196131944656 0.000000000000000
4.798333168029785 0.184702068567276 -0.166243419051170 0.000000000000000
15.325935363769531 2.810312986373901 -0.272809565067291 0.000000000000000
12.049882888793945 1.013403177261353 -0.071386888623238 0.000000000000000
21.762887954711914 3.995320081710815 0.639612019062042 0.003921568859369
8.194794654846191 0.261560678482056 -0.474978715181351 0.000000000000000
19.764528274536133 2.573580503463745 2.437505960464478 0.003921568859369
9.158554077148438 0.292541980743408 -0.318993508815765 0.000000000000000
6.341809272766113 1.113401651382446 -0.409698933362961 0.000000000000000
12.265810012817383 0.950194239616394 0.497268825769424 0.000000000000000
5.578168392181396 0.978058516979218 -0.229084521532059 0.000000000000000
8.940656661987305 0.658604025840759 -0.260262966156006 0.000000000000000
12.121196746826172 1.489707589149475 -0.001488326117396 0.000000000000000
6.333058834075928 0.135833337903023 -0.073892489075661 0.000000000000000
6.021912097930908 0.129086196422577 -0.208796858787537 0.000000000000000
19.232713699340820 1.290035009384155 0.332657396793365 0.003921568859369
16.643005371093750 0.243405491113663 -0.580975115299225 0.003921568859369
11.976280212402344 1.260121107101440 0.695497334003448 0.000000000000000
13.753181457519531 1.351648807525635 0.798768818378448 0.000000000000000
10.151772499084473 0.468682885169983 -0.295142650604248 0.000000000000000
8.605094909667969 0.396895796060562 1.556382060050964 0.000000000000000
10.652257919311523 -0.066144146025181 -0.370989531278610 0.000000000000000
9.329879760742188 -0.090161420404911 -0.109111867845058 0.000000000000000
3.515403032302856 0.463506132364273 -0.061321616172791 0.000000000000000
11.525233268737793 1.498199701309204 0.065473340451717 0.000000000000000
9.895994186401367 0.317793041467667 1.790848016738892 0.000000000000000
6.723158836364746 0.541359663009644 -0.156346738338470 0.000000000000000
6.209248065948486 0.758192718029022 -0.252706319093704 0.000000000000000
5.849109649658203 0.408729046583176 0.133490175008774 0.000000000000000
3.508770465850830 0.242965191602707 -0.160802841186523 0.000000000000000
6.666650772094727 -0.177876129746437 -0.231194183230400 0.000000000000000
9.000370979309082 0.101574085652828 -0.053313482552767 0.000000000000000
4.405415058135986 0.473897248506546 0.125729694962502 0.000000000000000
12.772025108337402 1.345513701438904 -0.224825724959373 0.000000000000000
8.116152763366699 0.456631928682327 -0.001374322222546 0.003921568859369
9.856328010559082 0.555628299713135 2.621773242950439 0.000000000000000
12.840444564819336 1.312277436256409 0.371219456195831 0.000000000000000
11.504218101501465 0.012371109798551 -0.334251552820206 0.000000000000000
10.894120216369629 1.033969998359680 -0.191391333937645 0.000000000000000
8.286778450012207 0.381730318069458 2.199604749679565 0.000000000000000
11.910356521606445 -0.028323655948043 2.154873847961426 0.000000000000000
11.918495178222656 -0.648950815200806 -0.139834955334663 0.000000000000000
13.125635147094727 1.157770872116089 0.074013859033585 0.000000000000000
13.214736938476562 0.472560703754425 -0.002324734348804 0.000000000000000
16.550958633422852 -0.211785718798637 2.998416185379028 0.003921568859369
9.423811912536621 0.303527265787125 0.215543508529663 0.000000000000000
18.532094955444336 0.473829001188278 -0.432387351989746 0.000000000000000
13.988803863525391 0.260099828243256 -0.002427312545478 0.000000000000000
10.425817489624023 0.663337588310242 0.058274917304516 0.000000000000000
14.855611801147461 0.173336952924728 1.810375332832336 0.000000000000000
6.539218902587891 -0.013125451281667 -0.001271188259125 0.000000000000000
10.427801132202148 -0.562288045883179 0.842210769653320 0.000000000000000
7.359269618988037 -0.040110446512699 -0.170439720153809 0.000000000000000
13.165824890136719 -0.757328689098358 -0.383328616619110 0.000000000000000
14.988677024841309 -0.134531632065773 -0.349269419908524 0.000000000000000
7.693185329437256 0.276189386844635 0.219456568360329 0.000000000000000
5.403612136840820 0.118851155042648 -0.217305004596710 0.000000000000000
3.408030748367310 -0.260495752096176 -0.271642804145813 0.000000000000000
4.367800235748291 0.081524744629860 -0.274534612894058 0.000000000000000
6.680005550384521 -0.217798203229904 0.151744723320007 0.000000000000000
16.152149200439453 -0.643851876258850 1.969343066215515 0.003921568859369
13.261135101318359 -0.576320946216583 -0.309021264314651 0.000000000000000
10.950961112976074 0.017627550289035 0.313079029321671 0.000000000000000
2.048680782318115 -0.098071128129959 0.518999755382538 0.000000000000000
8.120682716369629 -0.042861673980951 -0.328155398368835 0.000000000000000
11.213339805603027 -0.098260082304478 -0.196208864450455 0.000000000000000
5.193786144256592 -0.613683402538300 0.088107004761696 0.000000000000000
6.790604591369629 -0.500477612018585 0.820817351341248 0.000000000000000
10.619156837463379 -0.272792935371399 -0.430531680583954 0.000000000000000
9.087924003601074 -1.630745172500610 0.104328602552414 0.000000000000000
7.122092247009277 -0.946109890937805 0.286628425121307 0.000000000000000
7.324666023254395 -0.262779980897903 -0.295747250318527 0.000000000000000
14.142195701599121 -1.250151038169861 3.768390655517578 0.000000000000000
6.547932624816895 -0.300283491611481 0.185557901859283 0.000000000000000
2.710468769073486 -0.395292282104492 -0.077096343040466 0.000000000000000
7.052484989166260 -1.108361124992371 0.120823018252850 0.000000000000000
4.767918586730957 -0.527243375778198 0.271038472652435 0.000000000000000
3.279055356979370 -0.225379735231400 -0.203884631395340 0.000000000000000
6.364031314849854 -0.774797916412354 0.144786402583122 0.000000000000000
4.874374866485596 -0.355216532945633 0.137380555272102 0.000000000000000
4.571922779083252 -0.552249968051910 0.259918063879013 0.000000000000000
5.681665897369385 -0.987889826297760 0.097145386040211 0.000000000000000
9.036696434020996 -1.138008475303650 2.405959367752075 0.000000000000000
14.067064285278320 -1.828660488128662 1.722366809844971 0.000000000000000
3.805524110794067 -0.678435206413269 -0.022877069190145 0.000000000000000
8.274884223937988 -0.693188071250916 0.235697403550148 0.000000000000000
16.027109146118164 -2.255157470703125 4.297882556915283 0.003921568859369
4.739392757415771 -1.001585602760315 0.080970071256161 0.000000000000000
12.962902069091797 -2.185604572296143 -0.003022503806278 0.000000000000000
12.035066604614258 -2.027073383331299 3.232403516769409 0.000000000000000
2.842696905136108 -0.605701088905334 -0.017120499163866 0.000000000000000
17.890777587890625 -3.143858671188354 4.825247764587402 0.003921568859369
28.265935897827148 -5.387852668762207 7.665908813476562 0.003921568859369
6.678415775299072 -1.323038816452026 1.785024762153625 0.000000000000000
3.974147081375122 -0.596161127090454 0.111568622291088 0.000000000000000
9.373456001281738 -1.999290466308594 2.525546550750732 0.000000000000000
13.541429519653320 -2.278226375579834 -0.240697100758553 0.000000000000000
27.276103973388672 -5.990687847137451 7.435936927795410 0.003921568859369
27.985675811767578 -9.387145042419434 0.335536360740662 0.003921568859369
28.101100921630859 -9.753216743469238 0.338205665349960 0.003921568859369
24.418701171875000 -6.161077499389648 3.068115234375000 0.003921568859369
21.918165206909180 -8.189258575439453 -0.276002407073975 0.003921568859369
26.689397811889648 -10.303583145141602 0.324914932250977 0.003921568859369
28.529924392700195 -9.672192573547363 -0.181165859103203 0.003921568859369
22.808664321899414 -8.076076507568359 -0.145368278026581 0.003921568859369
4.603754043579102 -1.863969206809998 -0.057558953762054 0.000000000000000
26.259666442871094 -10.975084304809570 0.322915554046631 0.003921568859369
17.511245727539062 -7.365763664245605 0.214767992496490 0.003921568859369
20.786222457885742 -9.013214111328125 -0.267191201448441 0.003921568859369
23.700237274169922 -10.582095146179199 0.294449567794800 0.003921568859369
18.289663314819336 -7.179000854492188 0.789154946804047 0.003921568859369
26.744548797607422 -9.352108955383301 0.647931694984436 0.003921568859369
17.963476181030273 -7.254747867584229 0.777422547340393 0.003921568859369
25.649660110473633 -12.096298217773438 0.321621477603912 0.003921568859369
17.233932495117188 -6.203699111938477 4.856754779815674 0.003921568859369
22.207622528076172 -9.255781173706055 4.349818706512451 0.003921568859369
25.730226516723633 -12.353895187377930 0.323776394128799 0.003921568859369
26.183378219604492 -12.910704612731934 0.331309318542480 0.003921568859369
25.695390701293945 -12.768656730651855 -0.338669866323471 0.003921568859369
21.992744445800781 -11.015472412109375 0.278808981180191 0.003921568859369
26.036144256591797 -13.290763854980469 0.331875264644623 0.003921568859369
17.001123428344727 -7.631412029266357 0.317757755517960 0.003921568859369
25.570953369140625 -13.147466659545898 -0.339539676904678 0.003921568859369
25.488382339477539 -13.228135108947754 -0.339081585407257 0.003921568859369
16.914033889770508 -7.728438377380371 0.316706061363220 0.003921568859369
15.917510986328125 -7.461806774139404 0.704563677310944 0.003921568859369
16.910745620727539 -7.094755649566650 1.052731633186340 0.003921568859369
25.772289276123047 -10.856298446655273 -0.653830528259277 0.003921568859369
20.069923400878906 -9.692676544189453 1.799764037132263 0.003921568859369
25.800415039062500 -12.598765373229980 -0.172821253538132 0.003921568859369
17.500352859497070 -8.514917373657227 0.331786960363388 0.003921568859369
25.779993057250977 -12.694281578063965 -0.172939464449883 0.003921568859369
18.777482986450195 -8.264529228210449 2.491992235183716 0.003921568859369
25.514972686767578 -13.113067626953125 -0.172820642590523 0.003921568859369
25.002441406250000 -14.536090850830078 0.327927440404892 0.003921568859369
20.578811645507812 -9.494639396667480 2.754049777984619 0.003921568859369
16.568897247314453 -8.693406105041504 -0.544156730175018 0.000000000000000
21.330314636230469 -11.602905273437500 1.961757898330688 0.003921568859369
25.501613616943359 -14.125485420227051 -0.175372153520584 0.003921568859369
16.544630050659180 -9.122978210449219 3.407572746276855 0.003921568859369
24.775897979736328 -13.827449798583984 -0.827460169792175 0.003921568859369
25.532030105590820 -14.252871513366699 -0.176174789667130 0.003921568859369
16.227033615112305 -9.014458656311035 0.315892279148102 0.003921568859369
19.961357116699219 -11.202523231506348 1.847643136978149 0.003921568859369
25.647819519042969 -12.946239471435547 0.656548976898193 0.003921568859369
20.826801300048828 -11.793554306030273 1.932705521583557 0.003921568859369
15.537747383117676 -8.906731605529785 0.717491328716278 0.003921568859369
21.622934341430664 -12.847530364990234 -0.732833147048950 0.003921568859369
19.502202987670898 -9.227571487426758 0.616292357444763 0.003921568859369
14.820232391357422 -8.903809547424316 1.392138957977295 0.003921568859369
15.832222938537598 -9.664526939392090 1.493881464004517 0.003921568859369
25.394502639770508 -15.708588600158691 -0.870864152908325 0.003921568859369
20.105278015136719 -9.854608535766602 0.639398396015167 0.003921568859369
22.039936065673828 -12.176283836364746 -0.588111639022827 0.003921568859369
21.390991210937500 -11.904940605163574 2.975373983383179 0.003921568859369
20.113405227661133 -12.503498077392578 1.911980867385864 0.003921568859369
19.805742263793945 -12.400875091552734 1.886366128921509 0.003921568859369
15.358511924743652 -9.662714004516602 0.726915359497070 0.003921568859369
22.527154922485352 -12.952600479125977 1.495317339897156 0.003921568859369
20.021602630615234 -12.829005241394043 4.295414924621582 0.003921568859369
17.619163513183594 -11.363839149475098 1.691071033477783 0.003921568859369
15.329887390136719 -8.916471481323242 4.695356369018555 0.003921568859369
15.315079689025879 -8.971779823303223 4.699512481689453 0.003921568859369
15.459160804748535 -10.399597167968750 1.500452280044556 0.003921568859369
15.705760955810547 -9.492691040039062 4.858673095703125 0.003921568859369
25.622713088989258 -14.274668693542480 0.161258921027184 0.003921568859369
25.003114700317383 -15.565145492553711 1.696157336235046 0.003921568859369
15.841036796569824 -10.905927658081055 1.549541831016541 0.000000000000000
16.622142791748047 -11.536172866821289 3.649070501327515 0.003921568859369
1.969288587570190 -1.107190012931824 0.550539255142212 0.000000000000000
15.118977546691895 -10.792844772338867 1.496427178382874 0.003921568859369
10.058878898620605 -7.176314830780029 0.990011572837830 0.000000000000000
15.264968872070312 -12.149245262145996 -0.679345428943634 0.003921568859369
15.369742393493652 -11.211133003234863 0.762254297733307 0.003921568859369
16.291410446166992 -10.720005035400391 2.364322900772095 0.003921568859369
16.231649398803711 -13.295400619506836 -0.246869638562202 0.003921568859369
15.718352317810059 -11.804236412048340 -0.571312010288239 0.000000000000000
9.449124336242676 -6.381124496459961 2.997911691665649 0.000000000000000
20.371768951416016 -15.462734222412109 4.621665954589844 0.003921568859369
9.398278236389160 -6.393303871154785 2.988617658615112 0.003921568859369
9.360100746154785 -6.414101600646973 2.983460903167725 0.000000000000000
9.319860458374023 -6.430890083312988 2.977268695831299 0.000000000000000
15.819978713989258 -12.312543869018555 0.804131090641022 0.003921568859369
14.964676856994629 -12.854190826416016 -0.686844885349274 0.003921568859369
9.309932708740234 -6.471509933471680 2.981421709060669 0.000000000000000
14.738102912902832 -11.623351097106934 -0.545231223106384 0.000000000000000
14.749105453491211 -11.711527824401855 -0.547116994857788 0.000000000000000
16.347856521606445 -13.091732025146484 -0.608964979648590 0.003921568859369
16.629898071289062 -13.416431427001953 -0.621355235576630 0.003921568859369
17.608579635620117 -12.851019859313965 5.780409336090088 0.003921568859369
17.352132797241211 -12.749121665954590 5.709064960479736 0.003921568859369
16.480482101440430 -13.484435081481934 -0.619183063507080 0.003921568859369
15.452152252197266 -12.719824790954590 -0.581659615039825 0.000000000000000
17.551805496215820 -13.757647514343262 2.706954002380371 0.003921568859369
18.496242523193359 -17.927093505859375 -0.303106486797333 0.003921568859369
14.675021171569824 -11.718365669250488 -0.437216848134995 0.003921568859369
14.933228492736816 -13.439477920532227 0.805815637111664 0.003921568859369
16.435625076293945 -13.424274444580078 -0.494510084390640 0.003921568859369
15.836084365844727 -11.775197982788086 0.107974506914616 0.000000000000000
13.787615776062012 -12.476991653442383 0.745233118534088 0.003921568859369
15.474419593811035 -12.716292381286621 -0.466495066881180 0.000000000000000
15.733557701110840 -13.029577255249023 -0.475851953029633 0.003921568859369
14.065680503845215 -14.245734214782715 -0.696877002716064 0.003921568859369
13.731450080871582 -12.693798065185547 -0.111929193139076 0.003921568859369
13.733624458312988 -14.093706130981445 -0.684893429279327 0.003921568859369
13.554727554321289 -14.195402145385742 -0.683066070079803 0.003921568859369
14.659982681274414 -11.689423561096191 -0.328821748495102 0.003921568859369
16.194686889648438 -12.936794281005859 -0.841511130332947 0.003921568859369
14.652092933654785 -11.762390136718750 -0.329500585794449 0.003921568859369
13.969450950622559 -14.218976974487305 -0.119331747293472 0.000000000000000
13.784147262573242 -14.025200843811035 1.584631800651550 0.003921568859369
13.630071640014648 -14.155585289001465 -0.570693552494049 0.000000000000000
12.844493865966797 -14.808530807495117 -0.230016753077507 0.003921568859369
13.431705474853516 -14.046405792236328 1.566258072853088 0.000000000000000
13.509076118469238 -14.328275680541992 1.587436795234680 0.003921568859369
13.507107734680176 -14.416759490966797 1.592664480209351 0.003921568859369
14.739484786987305 -13.411258697509766 0.568225026130676 0.003921568859369
15.119520187377930 -13.765092849731445 -0.829795777797699 0.003921568859369
14.790240287780762 -13.748637199401855 0.576071619987488 0.003921568859369
14.678235054016113 -13.830603599548340 -0.818320333957672 0.003921568859369
14.460467338562012 -13.716698646545410 -0.808627843856812 0.003921568859369
6.776135444641113 -8.798722267150879 0.124627701938152 0.003921568859369
17.838462829589844 -19.653215408325195 3.228031635284424 0.003921568859369
7.941730022430420 -8.620472908020020 1.410971879959106 0.000000000000000
14.587236404418945 -16.819980621337891 1.280279994010925 0.003921568859369
13.751385688781738 -14.646156311035156 0.573782503604889 0.003921568859369
6.864775180816650 -8.834052085876465 0.189272597432137 0.000000000000000
6.751362323760986 -8.809488296508789 -0.320199489593506 0.000000000000000
6.765918731689453 -8.829157829284668 -0.066209621727467 0.000000000000000
2.234958171844482 -2.166036367416382 -0.052283920347691 0.000000000000000
13.418241500854492 -14.783119201660156 -0.809764087200165 0.003921568859369
13.408806800842285 -14.876771926879883 -0.812341749668121 0.003921568859369
14.895043373107910 -22.664396286010742 -0.317582249641418 0.003921568859369
14.527508735656738 -22.092407226562500 0.302069127559662 0.003921568859369
13.101679801940918 -14.630491256713867 -0.796436727046967 0.003921568859369
13.294145584106445 -14.955758094787598 -0.811608314514160 0.003921568859369
14.231204032897949 -21.958906173706055 0.299034386873245 0.003921568859369
13.080390930175781 -18.116336822509766 4.036905765533447 0.003921568859369
14.194921493530273 -22.071681976318359 0.299966096878052 0.003921568859369
13.373965263366699 -15.256299018859863 -0.822978556156158 0.003921568859369
12.061768531799316 -18.825122833251953 0.255153745412827 0.003921568859369
14.472436904907227 -16.656953811645508 -0.895709097385406 0.003921568859369
15.907118797302246 -20.419780731201172 0.592936336994171 0.003921568859369
15.773476600646973 -20.378421783447266 0.589974164962769 0.003921568859369
12.089097023010254 -19.606975555419922 -0.269385546445847 0.003921568859369
12.314759254455566 -20.796739578247070 0.276464730501175 0.003921568859369
12.856565475463867 -19.469850540161133 1.886609673500061 0.003921568859369
12.546545028686523 -19.275234222412109 1.859726548194885 0.003921568859369
11.858644485473633 -20.490385055541992 0.270923256874084 0.003921568859369
11.426795005798340 -20.031631469726562 -0.269421845674515 0.003921568859369
8.319090843200684 -11.843834877014160 3.824357271194458 0.003921568859369
13.719370841979980 -20.940378189086914 0.574350118637085 0.003921568859369
11.641541481018066 -20.060724258422852 -0.136926069855690 0.003921568859369
13.774087905883789 -20.070692062377930 0.698409020900726 0.003921568859369
12.152865409851074 -19.664005279541016 -0.537278294563293 0.003921568859369
6.870070934295654 -14.630960464477539 -0.934458255767822 0.003921568859369
6.934612274169922 -15.065114974975586 -0.959035158157349 0.003921568859369
4.172156810760498 -7.756267070770264 1.574509501457214 0.000000000000000
11.963571548461914 -18.865285873413086 0.124960817396641 0.003921568859369
4.302036285400391 -8.238895416259766 0.370488524436951 0.000000000000000
4.015414714813232 -8.790833473205566 0.109458588063717 0.000000000000000
6.322555065155029 -12.560403823852539 2.533682346343994 0.000000000000000
3.548869609832764 -7.750243186950684 0.096208177506924 0.000000000000000
6.575061798095703 -15.096240043640137 -0.952287375926971 0.003921568859369
2.709073066711426 -5.002535343170166 0.449824780225754 0.000000000000000
6.259716987609863 -12.546581268310547 2.526543855667114 0.000000000000000
