# This PCD file was generated using the MATLAB® pcwrite function
# from Computer Vision Toolbox®.
# .PCD v.7 - Point Cloud Data file format
VERSION .7
FIELDS x y z intensity
SIZE 8 8 8 8
TYPE F F F F
COUNT 1 1 1 1
WIDTH 643
HEIGHT 1
VIEWPOINT 0 0 0 1 0 0 0
POINTS 643
DATA ascii
-7.986059188842773 0.662116289138794 0.610948383808136 0.000000000000000
-4.841383934020996 -0.032395772635937 -0.162391811609268 0.000000000000000
-18.809629440307617 1.701132297515869 0.760494351387024 0.003921568859369
-20.316448211669922 2.816224336624146 -0.675107955932617 0.003921568859369
-20.168062210083008 2.864503145217896 -0.670344233512878 0.003921568859369
-9.537719726562500 0.021746017038822 -0.350333392620087 0.000000000000000
-19.814517974853516 2.877518415451050 -0.658459186553955 0.003921568859369
-12.002490997314453 1.184195518493652 0.944812655448914 0.000000000000000
-19.370962142944336 2.882553577423096 -0.644117295742035 0.003921568859369
-11.302034378051758 0.100709840655327 0.074461862444878 0.000000000000000
-12.724828720092773 0.114314652979374 0.365070074796677 0.000000000000000
-19.219129562377930 2.922255277633667 -0.639212012290955 0.003921568859369
-4.813014984130859 0.462684273719788 -0.016567833721638 0.000000000000000
-9.252400398254395 0.956546187400818 0.717704772949219 0.000000000000000
-19.062784194946289 2.963562011718750 -0.634170830249786 0.003921568859369
-10.681126594543457 1.115829110145569 1.852822542190552 0.000000000000000
-7.271207809448242 0.759405791759491 -0.029296115040779 0.000000000000000
-18.634193420410156 2.959030151367188 -0.619677603244781 0.003921568859369
-18.584327697753906 3.015170812606812 -0.618334054946899 0.003921568859369
-17.947233200073242 2.970194339752197 -0.596578419208527 0.003921568859369
-6.671047687530518 0.754762530326843 0.504703998565674 0.000000000000000
-19.484235763549805 3.301851511001587 -0.650445580482483 0.003921568859369
-8.398427963256836 0.588284134864807 -0.170581266283989 0.000000000000000
-8.454982757568359 1.005772113800049 -0.218890354037285 0.000000000000000
-12.517881393432617 0.943076848983765 0.290251970291138 0.000000000000000
-19.362409591674805 3.347867727279663 -0.646637558937073 0.003921568859369
-19.035991668701172 3.355754613876343 -0.635704755783081 0.003921568859369
-9.820029258728027 1.705173254013062 -0.314834147691727 0.000000000000000
-21.460592269897461 2.903772354125977 -0.592678964138031 0.003921568859369
-12.380662918090820 0.479856312274933 0.081439062952995 0.000000000000000
-8.480796813964844 0.704811513423920 0.193370789289474 0.000000000000000
-20.963485717773438 2.906741857528687 -0.578721642494202 0.003921568859369
-9.817610740661621 0.407069176435471 0.278546839952469 0.000000000000000
-20.507953643798828 2.913756608963013 -0.566533088684082 0.003921568859369
-15.019964218139648 1.395904898643494 0.856177389621735 0.000000000000000
-19.797780990600586 2.809423685073853 -0.997412204742432 0.003921568859369
-3.947050571441650 0.651553511619568 -0.110810458660126 0.000000000000000
-20.233255386352539 2.939884424209595 -0.558937370777130 0.000000000000000
-18.596689224243164 0.920030236244202 0.121729403734207 0.000000000000000
-15.309261322021484 1.473125338554382 0.873566508293152 0.000000000000000
-19.559234619140625 2.838570117950439 -0.985446393489838 0.003921568859369
-10.337380409240723 0.973483443260193 -0.215464711189270 0.000000000000000
-19.827671051025391 2.947556257247925 -0.547587931156158 0.000000000000000
-11.499541282653809 0.594374120235443 0.328947395086288 0.000000000000000
-5.749747753143311 0.784898340702057 -0.262865155935287 0.000000000000000
-23.453353881835938 3.506505727767944 4.229272842407227 0.003921568859369
-19.556568145751953 2.973548173904419 -0.540105998516083 0.000000000000000
-16.088689804077148 1.660450100898743 0.920336067676544 0.000000000000000
-18.311681747436523 2.777691364288330 -0.921197474002838 0.003921568859369
-10.720013618469238 0.622162818908691 -0.164568409323692 0.000000000000000
-19.249992370605469 2.991975545883179 -0.531599402427673 0.000000000000000
-8.186271667480469 0.837512254714966 0.009928910061717 0.000000000000000
-18.305816650390625 2.840008258819580 -0.921429455280304 0.003921568859369
-18.616695404052734 3.799345493316650 -0.625369071960449 0.003921568859369
-11.249711036682129 1.706696033477783 1.971962332725525 0.000000000000000
-19.006652832031250 3.018666267395020 -0.524912714958191 0.000000000000000
-8.234963417053223 0.869775950908661 0.009953446686268 0.000000000000000
-14.685130119323730 2.308270692825317 -0.732052028179169 0.000000000000000
-12.158457756042480 2.476520299911499 -0.399308264255524 0.000000000000000
-18.818557739257812 3.052970886230469 -0.519818603992462 0.000000000000000
-18.254037857055664 2.957992076873779 -0.919826269149780 0.003921568859369
-19.433296203613281 4.109207630157471 -0.655041813850403 0.003921568859369
-18.772323608398438 3.110334157943726 -0.518820941448212 0.000000000000000
-5.587507724761963 0.601701498031616 0.298638701438904 0.000000000000000
-18.172735214233398 3.007312059402466 -0.916129827499390 0.003921568859369
-19.430543899536133 4.177396297454834 -0.655482947826385 0.003921568859369
-12.221941947937012 0.875402867794037 -0.190048113465309 0.000000000000000
-17.856035232543945 3.011976957321167 -0.492671102285385 0.000000000000000
-8.370235443115234 0.966119468212128 0.191379114985466 0.000000000000000
-17.910831451416016 3.021391391754150 -0.902919828891754 0.003921568859369
-19.533569335937500 4.266108989715576 -0.659624993801117 0.003921568859369
-18.719800949096680 3.224927425384521 -0.517961025238037 0.000000000000000
-19.210268020629883 3.312224388122559 -0.971806466579437 0.003921568859369
-14.651231765747070 2.499896049499512 1.176179170608521 0.000000000000000
-8.257592201232910 0.629210650920868 -0.123434953391552 0.000000000000000
-18.747192382812500 3.298343658447266 -0.519127309322357 0.000000000000000
-21.330970764160156 2.732388973236084 -0.953729093074799 0.003921568859369
-19.213718414306641 3.383134365081787 -0.972662568092346 0.003921568859369
-18.727705001831055 3.360084295272827 -0.518926739692688 0.000000000000000
-20.858036041259766 2.741786718368530 -0.932287096977234 0.003921568859369
-19.233213424682617 3.453798770904541 -0.974344670772552 0.003921568859369
-9.947994232177734 1.262860894203186 1.164897322654724 0.000000000000000
-5.067415714263916 1.048765540122986 -0.151324346661568 0.000000000000000
-18.729330062866211 3.427619218826294 -0.519906640052795 0.000000000000000
-6.691494941711426 0.543384253978729 0.186045244336128 0.000000000000000
-20.462251663208008 2.759967088699341 -0.915173530578613 0.003921568859369
-19.148136138916016 3.506742000579834 -0.971337795257568 0.003921568859369
-13.609800338745117 1.807200312614441 1.622882008552551 0.000000000000000
-12.583779335021973 2.264930486679077 2.231540441513062 0.000000000000000
-18.717861175537109 3.487630844116211 -0.519932150840759 0.000000000000000
-20.191904067993164 2.788511753082275 -0.903084337711334 0.000000000000000
-19.242305755615234 3.588558912277222 -0.976949036121368 0.003921568859369
-18.790576934814453 4.431750297546387 -0.636862218379974 0.003921568859369
-11.021007537841797 1.482509255409241 2.825420856475830 0.000000000000000
-9.400442123413086 1.691974520683289 1.639746069908142 0.000000000000000
-7.396335124969482 0.964585661888123 -0.149931266903877 0.000000000000000
-18.724573135375977 3.557767152786255 -0.520529985427856 0.000000000000000
-9.088439941406250 1.237545490264893 0.010276790708303 0.003921568859369
-9.485014915466309 0.856204092502594 0.062388595193624 0.000000000000000
-19.916654586791992 2.821444749832153 -0.890813767910004 0.000000000000000
-4.370919704437256 0.927728474140167 -0.127601444721222 0.000000000000000
-20.596782684326172 2.921126365661621 -0.451908230781555 0.003921568859369
-18.705461502075195 3.613038301467896 -0.520326673984528 0.000000000000000
-7.120457172393799 0.970522165298462 0.161788776516914 0.000000000000000
-27.481733322143555 6.747099399566650 0.343723565340042 0.003921568859369
-7.115349769592285 0.647670984268188 0.198874369263649 0.000000000000000
-19.548070907592773 2.828268289566040 -0.874132931232452 0.000000000000000
-9.952615737915039 0.930850207805634 -0.370870977640152 0.000000000000000
-4.329213142395020 0.929746270179749 -0.126234859228134 0.000000000000000
-13.016446113586426 1.853354454040527 3.370209932327271 0.000000000000000
-20.223642349243164 2.929449558258057 -0.443607449531555 0.000000000000000
-18.696014404296875 3.680073499679565 -0.520469188690186 0.000000000000000
-19.209753036499023 2.847360134124756 -0.858923792839050 0.000000000000000
-19.888639450073242 2.951580286026001 -0.436214923858643 0.000000000000000
-18.686317443847656 3.747088432312012 -0.520612001419067 0.000000000000000
-27.323137283325195 6.915692329406738 0.342260777950287 0.003921568859369
-18.433385848999023 2.795217037200928 -0.823336303234100 0.000000000000000
-19.569545745849609 2.973776340484619 -0.429183661937714 0.000000000000000
-18.712245941162109 3.818365812301636 -0.521778583526611 0.000000000000000
-8.576654434204102 1.276288509368896 0.009912068024278 0.003921568859369
-27.047389984130859 6.942762374877930 0.339035749435425 0.003921568859369
-9.509097099304199 1.426250696182251 0.534460783004761 0.000000000000000
-18.837770462036133 2.923876762390137 -0.842637956142426 0.000000000000000
-9.283799171447754 1.827422738075256 -0.453458249568939 0.000000000000000
-19.361627578735352 3.008177280426025 -0.424684703350067 0.000000000000000
-18.694896697998047 3.880628347396851 -0.521692514419556 0.000000000000000
-18.433149337768555 2.922692298889160 -0.824304580688477 0.000000000000000
-14.124620437622070 2.217140674591064 3.679380416870117 0.000000000000000
-19.228681564331055 3.053468227386475 -0.421905130147934 0.000000000000000
-17.980609893798828 2.039186477661133 -0.288817524909973 0.003921568859369
-18.709959030151367 3.943340539932251 -0.522514998912811 0.000000000000000
-18.274120330810547 2.953554153442383 -0.817350685596466 0.000000000000000
-19.095119476318359 4.027145385742188 -0.974248647689819 0.003921568859369
-19.112503051757812 3.094071149826050 -0.419484883546829 0.000000000000000
-18.715600967407227 4.010762214660645 -0.523112773895264 0.000000000000000
-26.848443984985352 7.175018787384033 0.337293595075607 0.003921568859369
-18.169174194335938 2.998969793319702 -0.812969386577606 0.000000000000000
-19.139448165893555 4.104553222656250 -0.977380871772766 0.003921568859369
-14.056095123291016 2.296658277511597 1.686418652534485 0.000000000000000
-17.911176681518555 2.955025434494019 -0.392171561717987 0.000000000000000
-18.731266021728516 4.087232589721680 -0.524055242538452 0.000000000000000
-26.913627624511719 7.301156044006348 -0.296811729669571 0.003921568859369
-26.759037017822266 7.258522987365723 0.336462289094925 0.003921568859369
-17.901685714721680 3.021548748016357 -0.801062703132629 0.000000000000000
-19.123546600341797 4.175604820251465 -0.977412700653076 0.003921568859369
-19.124771118164062 3.235692262649536 -0.420355409383774 0.000000000000000
-11.317082405090332 1.373429656028748 -0.176361382007599 0.000000000000000
-18.748062133789062 4.157558441162109 -0.524995207786560 0.000000000000000
-26.433238983154297 7.265152931213379 0.332603394985199 0.003921568859369
-19.200914382934570 3.315691471099854 -0.862231433391571 0.000000000000000
-19.062187194824219 3.291105270385742 -0.419205218553543 0.000000000000000
-18.755975723266602 4.221662044525146 -0.526198387145996 0.000000000000000
-26.823778152465820 7.466481208801270 -0.296883076429367 0.003921568859369
-26.523311614990234 7.381175041198730 0.333791196346283 0.003921568859369
-19.286455154418945 3.393264770507812 -0.867489278316498 0.000000000000000
-21.411996841430664 2.738292455673218 -0.836478292942047 0.003921568859369
-16.263208389282227 3.642965316772461 2.943742990493774 0.003921568859369
-18.998386383056641 3.341080427169800 -0.418506145477295 0.000000000000000
-9.985774040222168 1.266825556755066 -0.154317587614059 0.000000000000000
-18.760581970214844 4.289554595947266 -0.526796638965607 0.000000000000000
-27.131441116333008 7.654620170593262 0.341808438301086 0.003921568859369
-9.222205162048340 1.163697600364685 0.262962102890015 0.000000000000000
-19.278421401977539 3.459141254425049 -0.867699861526489 0.000000000000000
-20.958707809448242 2.750866174697876 -0.818552911281586 0.003921568859369
-18.986610412597656 3.405224800109863 -0.418532669544220 0.000000000000000
-18.788263320922852 4.363132476806641 -0.528079092502594 0.000000000000000
-26.905370712280273 7.688557147979736 -0.298521578311920 0.003921568859369
-19.203414916992188 3.512388706207275 -0.864788234233856 0.000000000000000
-26.424865722656250 6.198247909545898 2.187354564666748 0.003921568859369
-20.553098678588867 2.766903400421143 -0.802550256252289 0.003921568859369
-18.962820053100586 3.467098712921143 -0.418287515640259 0.000000000000000
-18.779914855957031 4.431600570678711 -0.528337240219116 0.000000000000000
-22.290256500244141 6.425303459167480 0.280762583017349 0.003921568859369
-21.214952468872070 3.970810413360596 -0.959594488143921 0.003921568859369
-19.368400573730469 4.574992656707764 -0.995419144630432 0.003921568859369
-20.261888504028320 2.799908638000488 -0.791196644306183 0.003921568859369
-18.977472305297852 3.539617300033569 -0.418949902057648 0.000000000000000
-18.815572738647461 4.504293441772461 -0.529846727848053 0.000000000000000
-21.162456512451172 4.031394004821777 -0.957786381244659 0.003921568859369
-19.936101913452148 2.818862676620483 -0.778397142887115 0.003921568859369
-7.887661933898926 2.181344985961914 -0.256073594093323 0.000000000000000
-4.107314109802246 0.863944888114929 0.662608325481415 0.000000000000000
-18.938163757324219 3.595090150833130 -0.418341219425201 0.000000000000000
-20.657772064208984 4.008693695068359 -0.934857010841370 0.003921568859369
-27.830430984497070 6.843096256256104 2.312122344970703 0.003921568859369
-19.593605041503906 2.839954614639282 -0.764958202838898 0.003921568859369
-18.956232070922852 3.668493509292603 -0.419094592332840 0.000000000000000
-18.962320327758789 2.808035850524902 0.124234177172184 0.000000000000000
-20.205829620361328 3.985888957977295 -0.914311528205872 0.003921568859369
-18.279035568237305 4.502378940582275 -0.939824640750885 0.003921568859369
-27.421295166015625 6.834803104400635 2.279301166534424 0.003921568859369
-19.268020629882812 2.854489803314209 -0.752157211303711 0.003921568859369
-18.979232788085938 3.736467361450195 -0.419936120510101 0.000000000000000
-19.456199645996094 3.901875972747803 -0.879805088043213 0.000000000000000
-18.263206481933594 4.564003944396973 -0.939853191375732 0.003921568859369
-26.424688339233398 6.676703929901123 2.196654081344604 0.003921568859369
-13.745644569396973 2.056112527847290 -0.528368473052979 0.000000000000000
-18.966077804565430 3.800542116165161 -0.419963538646698 0.000000000000000
-9.809587478637695 1.474184632301331 -0.151983991265297 0.000000000000000
-19.371393203735352 3.956057786941528 -0.876528143882751 0.000000000000000
-18.223178863525391 4.622567653656006 -0.938641250133514 0.003921568859369
-26.481014251708984 6.792529106140137 2.203493833541870 0.003921568859369
-18.816957473754883 2.918887615203857 -0.734733879566193 0.003921568859369
-19.980222702026367 4.087186813354492 5.320408821105957 0.003921568859369
-18.983324050903320 3.874379396438599 -0.420717567205429 0.000000000000000
-27.086666107177734 7.049033641815186 -0.776538193225861 0.003921568859369
-19.380908966064453 4.026525020599365 -0.877658784389496 0.000000000000000
-18.361335754394531 4.725111961364746 -0.946950793266296 0.003921568859369
-27.042684555053711 7.038743495941162 2.253273725509644 0.003921568859369
-18.526626586914062 2.936476230621338 -0.723375320434570 0.003921568859369
-18.997053146362305 3.944336891174316 -0.421379804611206 0.000000000000000
-19.191061019897461 4.053655624389648 -0.869419932365417 0.000000000000000
-18.387153625488281 4.798478126525879 -0.949257254600525 0.003921568859369
-27.872348785400391 7.361735820770264 2.325995922088623 0.003921568859369
-18.421661376953125 2.983122110366821 -0.719552159309387 0.003921568859369
-18.983171463012695 4.008472442626953 -0.421407759189606 0.000000000000000
-4.570829868316650 0.676420092582703 0.030521981418133 0.000000000000000
-22.205028533935547 7.061547279357910 0.281778156757355 0.003921568859369
-19.102678298950195 4.102018833160400 -0.865957617759705 0.000000000000000
-18.416526794433594 4.873136997222900 -0.951770961284637 0.003921568859369
-27.865713119506836 7.462102413177490 2.327589511871338 0.003921568859369
-17.950214385986328 2.966363191604614 -0.700816571712494 0.003921568859369
-12.050758361816406 2.538660287857056 3.150706052780151 0.000000000000000
-19.004199981689453 4.080357074737549 -0.422251671552658 0.000000000000000
-26.636404037475586 7.214976310729980 -0.137019246816635 0.003921568859369
-27.106002807617188 7.346276760101318 2.265258073806763 0.003921568859369
-19.548952102661133 3.302960634231567 -0.767023205757141 0.003921568859369
-5.501339435577393 1.356851935386658 0.933775961399078 0.000000000000000
-19.027999877929688 4.148588657379150 -0.423634558916092 0.000000000000000
-26.970451354980469 7.406469345092773 -0.776823520660400 0.003921568859369
-9.419766426086426 2.017084836959839 0.220337405800819 0.000000000000000
-21.677280426025391 7.047180652618408 0.275371372699738 0.003921568859369
-19.360977172851562 4.292229652404785 -0.880248248577118 0.000000000000000
-27.187658309936523 7.468936443328857 2.274390697479248 0.003921568859369
-19.368101119995117 3.338945150375366 -0.760152578353882 0.003921568859369
-19.087469100952148 4.229820251464844 -0.425385892391205 0.000000000000000
-20.230510711669922 3.563343286514282 -0.331411242485046 0.003921568859369
-21.944284439086914 7.219395160675049 0.279086321592331 0.003921568859369
-26.271564483642578 5.969542026519775 1.554720520973206 0.003921568859369
-11.122266769409180 2.445148468017578 -0.491947144269943 0.000000000000000
-19.254085540771484 3.385842084884644 -0.756008446216583 0.003921568859369
-19.131017684936523 4.307888507843018 -0.426774740219116 0.000000000000000
-26.955268859863281 7.601362228393555 -0.139310479164124 0.003921568859369
-26.732444763183594 6.172961711883545 1.583807587623596 0.003921568859369
-27.115722656250000 7.648805141448975 2.272664308547974 0.003921568859369
-19.316822052001953 3.464742422103882 -0.759082734584808 0.003921568859369
-19.162565231323242 4.383559226989746 -0.427891820669174 0.000000000000000
-18.677770614624023 4.335488319396973 -0.850192666053772 0.000000000000000
-21.256521224975586 3.898581981658936 -0.838836133480072 0.003921568859369
-7.287131786346436 1.952892303466797 1.277753233909607 0.000000000000000
-22.150642395019531 7.541564941406250 0.282624989748001 0.003921568859369
-19.182746887207031 4.525281429290771 -0.874849855899811 0.000000000000000
-26.882019042968750 7.780498027801514 2.257174253463745 0.003921568859369
-21.246711730957031 3.971394777297974 -0.839026212692261 0.003921568859369
-20.178171157836914 3.840407609939575 -0.331524938344955 0.003921568859369
-22.205799102783203 7.649856567382812 0.283655464649200 0.003921568859369
-4.660682201385498 0.795090019702911 -0.257671475410461 0.000000000000000
-27.142004013061523 6.568800449371338 1.612573146820068 0.003921568859369
-6.551105976104736 1.783542633056641 0.260968863964081 0.000000000000000
-19.216455459594727 4.605816364288330 -0.877269804477692 0.000000000000000
-23.157211303710938 6.767480850219727 1.939929723739624 0.003921568859369
-21.243776321411133 4.049325942993164 -0.839538693428040 0.003921568859369
-20.090127944946289 3.893804788589478 -0.330272525548935 0.003921568859369
-22.107418060302734 7.699580669403076 0.282690912485123 0.003921568859369
-27.451967239379883 6.745072841644287 1.632730126380920 0.003921568859369
-20.508373260498047 3.977202653884888 -0.810049057006836 0.003921568859369
-20.127363204956055 3.972164869308472 -0.331177443265915 0.003921568859369
-27.203588485717773 6.781027317047119 0.659187376499176 0.003921568859369
-5.127591609954834 0.919714808464050 0.141671344637871 0.000000000000000
-18.479150772094727 4.555971145629883 -0.843873620033264 0.000000000000000
-22.240688323974609 6.657412052154541 1.865144252777100 0.003921568859369
-11.717461585998535 2.260590314865112 -0.450534880161285 0.000000000000000
-22.038120269775391 6.676095485687256 -0.113412939012051 0.003921568859369
-26.074375152587891 6.588299274444580 1.551854848861694 0.003921568859369
-18.320001602172852 4.581306934356689 -0.837100565433502 0.000000000000000
-22.243961334228516 6.741196155548096 1.867400884628296 0.003921568859369
-8.007134437561035 1.532476425170898 -0.298770695924759 0.000000000000000
-27.196092605590820 6.877472877502441 -0.618643105030060 0.003921568859369
-21.874706268310547 6.702643394470215 -0.112669497728348 0.003921568859369
-22.075754165649414 7.938618659973145 0.283207178115845 0.003921568859369
-5.081437587738037 1.410138130187988 0.390283316373825 0.000000000000000
-7.252270698547363 2.094761610031128 1.279124498367310 0.000000000000000
-27.115114212036133 6.950395107269287 -0.617322087287903 0.003921568859369
-21.927396774291992 6.801151275634766 -0.113127239048481 0.003921568859369
-22.081634521484375 8.026111602783203 0.283605337142944 0.003921568859369
-25.947906494140625 6.739949226379395 1.546843528747559 0.003921568859369
-19.474609375000000 4.041903018951416 -0.770050823688507 0.003921568859369
-27.198902130126953 7.071657180786133 -0.619906127452850 0.003921568859369
-18.474821090698242 4.817504882812500 -0.847554087638855 0.000000000000000
-19.443199157714844 4.102689266204834 -0.770030558109283 0.003921568859369
-8.883388519287109 1.834211468696594 0.058810237795115 0.000000000000000
-26.660905838012695 7.122059822082520 0.648438096046448 0.003921568859369
-19.311689376831055 4.142535209655762 -0.765243172645569 0.003921568859369
-26.565265655517578 7.198311805725098 0.646679043769836 0.003921568859369
-19.163808822631836 4.181241035461426 -0.759815037250519 0.003921568859369
-26.421899795532227 7.250880718231201 0.643685579299927 0.003921568859369
-21.761562347412109 7.075329780578613 1.838389635086060 0.003921568859369
-19.169322967529297 4.247245311737061 -0.760643959045410 0.003921568859369
-26.781047821044922 7.450429916381836 0.653171002864838 0.003921568859369
-22.004863739013672 7.239852428436279 1.861611127853394 0.003921568859369
-16.486520767211914 4.584914207458496 2.044537544250488 0.003921568859369
-19.465183258056641 4.457228183746338 -0.774185895919800 0.003921568859369
-9.527711868286133 2.140847206115723 -0.364365100860596 0.000000000000000
-21.850843429565430 6.289239406585693 1.307673215866089 0.003921568859369
-19.294599533081055 4.551524639129639 -0.768462479114532 0.003921568859369
-6.761598587036133 1.523265242576599 -0.250564098358154 0.000000000000000
-5.010783195495605 1.106972694396973 -0.072305932641029 0.000000000000000
-4.743612766265869 1.039994239807129 0.031832356005907 0.000000000000000
-21.991613388061523 7.654030799865723 1.871575951576233 0.003921568859369
-18.494783401489258 4.489396572113037 -0.736730456352234 0.003921568859369
-18.455764770507812 4.545934677124023 -0.735794901847839 0.003921568859369
-21.516674041748047 6.509016036987305 0.526308298110962 0.003921568859369
-9.126546859741211 2.202689409255981 -0.555081844329834 0.000000000000000
-22.031261444091797 7.837453365325928 1.879687190055847 0.003921568859369
-27.326793670654297 7.006373405456543 0.180474624037743 0.003921568859369
-20.972652435302734 6.420945167541504 0.513232827186584 0.003921568859369
-17.166246414184570 6.127838611602783 1.456569433212280 0.000000000000000
-21.392065048217773 6.632970333099365 0.524239599704742 0.003921568859369
-22.678890228271484 7.120178222656250 1.368625760078430 0.003921568859369
-5.874140739440918 2.014973163604736 0.106105446815491 0.000000000000000
-5.474362373352051 1.594434142112732 1.385135173797607 0.000000000000000
-9.899084091186523 3.549858570098877 1.826868772506714 0.000000000000000
-26.604398727416992 7.196983337402344 0.176189571619034 0.003921568859369
-16.300777435302734 6.950593471527100 -0.987985253334045 0.003921568859369
-21.441320419311523 8.032341957092285 1.840244531631470 0.003921568859369
-22.231525421142578 7.319175243377686 0.548135638237000 0.003921568859369
-16.140195846557617 7.016332149505615 -0.981130480766296 0.003921568859369
-16.383371353149414 7.252967357635498 -0.189694553613663 0.003921568859369
-21.947492599487305 7.381755828857422 1.332500338554382 0.003921568859369
-17.046773910522461 5.688690662384033 2.152096033096313 0.003921568859369
-17.251674652099609 5.824709892272949 2.181439638137817 0.003921568859369
-20.723539352416992 7.116157054901123 0.512508749961853 0.003921568859369
-22.690977096557617 6.616033554077148 0.688449025154114 0.003921568859369
-15.409861564636230 6.068699359893799 1.320060729980469 0.000000000000000
-15.370164871215820 6.112796783447266 1.318395733833313 0.000000000000000
-21.262601852416992 6.428227424621582 0.646225392818451 0.003921568859369
-16.624355316162109 7.779422760009766 0.220096886157990 0.003921568859369
-21.144687652587891 6.470403194427490 0.643230140209198 0.003921568859369
-15.215053558349609 7.156277656555176 0.201443254947662 0.003921568859369
-17.427188873291016 7.240504741668701 0.333268523216248 0.003921568859369
-15.131559371948242 6.254624843597412 1.305300474166870 0.000000000000000
-22.098731994628906 6.931639671325684 0.147589132189751 0.003921568859369
-16.294822692871094 7.752248764038086 0.216309607028961 0.003921568859369
-20.970773696899414 6.568581104278564 0.639136970043182 0.003921568859369
-21.339521408081055 7.826497554779053 1.307761073112488 0.003921568859369
-16.459140777587891 6.890914916992188 1.426065564155579 0.000000000000000
-17.387222290039062 7.362782478332520 0.333419561386108 0.003921568859369
-21.145584106445312 9.009716033935547 1.848309159278870 0.003921568859369
-15.230964660644531 7.358390808105469 0.202609479427338 0.003921568859369
-22.267324447631836 7.157923698425293 0.680993080139160 0.003921568859369
-17.235660552978516 6.416646957397461 2.205408811569214 0.003921568859369
-21.170749664306641 9.110861778259277 1.853505015373230 0.003921568859369
-15.933081626892090 7.778189659118652 0.212440982460976 0.003921568859369
-16.431793212890625 7.079296588897705 -0.897484660148621 0.003921568859369
-16.394088745117188 7.126760005950928 1.428889513015747 0.000000000000000
-15.754114151000977 6.901865005493164 0.691474258899689 0.003921568859369
-16.398199081420898 7.260842323303223 -0.494177967309952 0.000000000000000
-15.991239547729492 7.074519634246826 0.308317542076111 0.003921568859369
-12.985126495361328 6.446023464202881 -0.477797538042068 0.000000000000000
-20.672080993652344 7.018778800964355 0.634753227233887 0.003921568859369
-16.144268035888672 7.210651397705078 0.311798632144928 0.003921568859369
-15.526117324829102 6.992685317993164 0.684581875801086 0.003921568859369
-15.138153076171875 6.811698436737061 1.324800848960876 0.003921568859369
-7.451933860778809 2.818095922470093 2.001785993576050 0.000000000000000
-15.125102996826172 6.867630004882812 1.325754165649414 0.003921568859369
-16.251243591308594 8.428591728210449 0.219147741794586 0.003921568859369
-15.083045005798340 6.909841537475586 1.324089407920837 0.000000000000000
-11.920469284057617 5.405141353607178 2.302996158599854 0.000000000000000
-15.970796585083008 6.492869377136230 2.064949274063110 0.003921568859369
-11.560050010681152 4.679888248443604 3.212021827697754 0.000000000000000
-17.143184661865234 7.122790813446045 0.432599008083344 0.003921568859369
-21.645713806152344 7.861376762390137 0.670127630233765 0.003921568859369
-21.603176116943359 7.929272174835205 0.669617593288422 0.003921568859369
-16.248914718627930 7.802996158599854 0.725687980651855 0.003921568859369
-15.842828750610352 7.667351245880127 0.310156852006912 0.003921568859369
-15.166573524475098 7.391848087310791 0.297102808952332 0.003921568859369
-15.939076423645020 6.923367977142334 2.082364797592163 0.003921568859369
-15.793665885925293 7.913205146789551 1.413233160972595 0.000000000000000
-9.009738922119141 4.464347839355469 -0.772219359874725 0.000000000000000
-6.047182559967041 2.267786741256714 0.179900541901588 0.000000000000000
-15.931632041931152 8.190427780151367 1.433749437332153 0.000000000000000
-16.128501892089844 8.364557266235352 0.320131927728653 0.003921568859369
-15.895918846130371 8.240283012390137 1.433063507080078 0.000000000000000
-7.472433090209961 3.778124094009399 1.444569587707520 0.000000000000000
-15.447017669677734 7.532194614410400 0.011372644454241 0.003921568859369
-16.020511627197266 6.895603179931641 0.504683375358582 0.003921568859369
-4.645956516265869 2.091539621353149 -0.208353459835052 0.000000000000000
-16.275369644165039 7.345429420471191 0.516956508159637 0.003921568859369
-15.486627578735352 7.232665538787842 0.107744365930557 0.000000000000000
-16.101367950439453 8.492328643798828 0.423723220825195 0.000000000000000
-7.498558998107910 4.249890804290771 1.493117570877075 0.000000000000000
-15.808886528015137 8.401946067810059 0.416591495275497 0.000000000000000
-2.961085796356201 1.487730026245117 0.522503077983856 0.000000000000000
-14.794272422790527 7.909293174743652 2.011772632598877 0.003921568859369
-11.546429634094238 6.883651256561279 2.375221014022827 0.000000000000000
-4.504587650299072 2.057808637619019 -0.280654996633530 0.000000000000000
-8.389526367187500 4.649112224578857 1.128228187561035 0.000000000000000
-12.323513031005859 6.979217052459717 3.680345058441162 0.000000000000000
-8.968409538269043 5.032504081726074 2.639435768127441 0.000000000000000
-15.745505332946777 8.159399032592773 0.513313651084900 0.003921568859369
-15.913859367370605 8.318979263305664 0.519889235496521 0.003921568859369
-4.349512100219727 2.371673822402954 0.005597132258117 0.000000000000000
-10.049537658691406 6.772299289703369 2.138716936111450 0.000000000000000
-16.186950683593750 10.098623275756836 2.298768997192383 0.003921568859369
-9.912857055664062 6.927465915679932 2.135012388229370 0.000000000000000
-4.150010585784912 2.741195201873779 0.835406303405762 0.000000000000000
-7.850964546203613 5.061869621276855 2.395211219787598 0.000000000000000
-7.041214942932129 4.674257278442383 0.992141783237457 0.000000000000000
-16.024850845336914 12.472696304321289 3.638672590255737 0.003921568859369
-2.598392963409424 1.536200284957886 0.322532087564468 0.000000000000000
-11.094023704528809 8.632598876953125 2.497448682785034 0.000000000000000
-7.359755039215088 5.671505928039551 1.628489494323730 0.000000000000000
-7.545822620391846 5.307916641235352 1.089154243469238 0.000000000000000
-7.239181995391846 5.613445281982422 1.604759335517883 0.000000000000000
-6.232704639434814 4.411112308502197 0.893644392490387 0.000000000000000
-5.436890125274658 3.824269771575928 0.771958291530609 0.000000000000000
-4.312513828277588 3.038349628448486 0.603338599205017 0.000000000000000
-15.475332260131836 13.293861389160156 3.659507274627686 0.003921568859369
-10.434141159057617 8.164942741394043 1.586677789688110 0.000000000000000
-10.310379981994629 9.027267456054688 2.438507795333862 0.000000000000000
-21.273538589477539 19.639558792114258 5.223680973052979 0.003921568859369
-4.984698295593262 4.334622383117676 1.143081903457642 0.000000000000000
-9.461836814880371 8.249721527099609 1.503607153892517 0.000000000000000
-9.919876098632812 8.672016143798828 3.440724372863770 0.000000000000000
-10.543103218078613 9.308423995971680 1.689673304557800 0.000000000000000
-9.332139015197754 8.663734436035156 3.326398849487305 0.000000000000000
-9.788106918334961 10.119146347045898 2.513758897781372 0.000000000000000
-3.663748025894165 3.588269710540771 0.879749894142151 0.000000000000000
-14.606386184692383 15.259542465209961 5.582362651824951 0.003921568859369
-5.575075626373291 6.347767353057861 1.490605592727661 0.000000000000000
-5.179281234741211 5.387677669525146 0.884514510631561 0.000000000000000
-6.083716392517090 6.652110576629639 1.074814558029175 0.000000000000000
-4.366221904754639 5.182017803192139 1.188088774681091 0.000000000000000
-9.244849205017090 12.181406974792480 2.745131254196167 0.000000000000000
-10.004884719848633 13.331286430358887 2.996380567550659 0.003921568859369
-4.395589828491211 5.084693431854248 0.794882655143738 0.000000000000000
-4.024383544921875 5.216258525848389 0.261743456125259 0.000000000000000
-2.450494050979614 2.923185348510742 0.650136888027191 0.000000000000000
-5.768476963043213 7.814482688903809 1.728392004966736 0.000000000000000
-13.191965103149414 17.138397216796875 5.730935573577881 0.003921568859369
-2.120263338088989 2.531646251678467 0.558137834072113 0.000000000000000
-6.737148761749268 9.607270240783691 2.099328041076660 0.000000000000000
-5.396092891693115 7.620863914489746 1.662147760391235 0.000000000000000
-12.573332786560059 18.940483093261719 4.107001781463623 0.003921568859369
-12.823904037475586 19.480810165405273 4.214632987976074 0.003921568859369
-4.678335666656494 6.950888156890869 1.489656805992126 0.000000000000000
-12.747741699218750 20.295618057250977 4.334133148193359 0.003921568859369
-4.979807853698730 6.788310527801514 2.194583177566528 0.000000000000000
-12.636219024658203 20.271104812622070 4.319736480712891 0.003921568859369
-10.570624351501465 15.232225418090820 2.252145290374756 0.003921568859369
-12.537116050720215 20.266328811645508 4.309646606445312 0.003921568859369
-12.450249671936035 20.281412124633789 4.303862571716309 0.003921568859369
-12.345473289489746 20.265611648559570 4.291619777679443 0.003921568859369
-12.266722679138184 20.293514251708984 4.288707256317139 0.003921568859369
-5.492063999176025 7.898546695709229 2.518643379211426 0.000000000000000
-8.831624984741211 14.996271133422852 3.138758659362793 0.003921568859369
-12.214888572692871 24.761739730834961 0.322997391223907 0.003921568859369
-12.111292839050293 24.766622543334961 0.322483509778976 0.003921568859369
-4.417163372039795 6.695054054260254 2.093828678131104 0.000000000000000
-11.801308631896973 25.454982757568359 0.327982306480408 0.003921568859369
-11.612504005432129 25.315620422363281 0.325515121221542 0.003921568859369
-5.724561214447021 9.560987472534180 2.935460090637207 0.000000000000000
-11.357249259948730 25.431453704833984 0.325426012277603 0.003921568859369
-11.185664176940918 25.522043228149414 0.325518697500229 0.003921568859369
-11.031682014465332 25.404544830322266 0.323516637086868 0.003921568859369
-2.354456424713135 3.652573585510254 0.511614322662354 0.000000000000000
-4.364859580993652 8.612367630004883 1.731530189514160 0.000000000000000
-3.896719694137573 7.834953308105469 1.567807435989380 0.000000000000000
-12.466061592102051 24.860210418701172 0.646658003330231 0.003921568859369
-12.344530105590820 24.830127716064453 0.644749701023102 0.003921568859369
-2.816369056701660 5.034183502197266 1.500051021575928 0.000000000000000
-12.216458320617676 24.785072326660156 0.642469167709351 0.003921568859369
-12.051260948181152 24.659881591796875 0.638140082359314 0.003921568859369
-2.368124961853027 4.859637737274170 0.959273874759674 0.000000000000000
-11.892959594726562 25.253847122192383 1.619431972503662 0.003921568859369
-11.819018363952637 25.313707351684570 1.620785236358643 0.003921568859369
-11.574490547180176 25.252510070800781 1.611622929573059 0.003921568859369
-11.654852867126465 25.662145614624023 0.655198156833649 0.003921568859369
-11.677352905273438 22.848714828491211 0.151642441749573 0.003921568859369
-12.313359260559082 24.554868698120117 0.162135824561119 0.003921568859369
-12.119754791259766 24.802951812744141 0.162822932004929 0.003921568859369
-3.080875158309937 6.598481178283691 1.913840651512146 0.000000000000000
-12.055965423583984 25.141794204711914 0.164299920201302 0.003921568859369
-2.195183515548706 4.526984691619873 1.310272455215454 0.000000000000000
-1.616136789321899 3.119041681289673 0.902381658554077 0.000000000000000
-1.618860721588135 3.159523010253906 0.912728548049927 0.000000000000000
-11.823557853698730 25.581903457641602 0.165893897414207 0.003921568859369
-8.619605064392090 24.629795074462891 2.122202634811401 0.003921568859369
-11.348249435424805 24.974454879760742 0.161457136273384 0.003921568859369
-7.083742141723633 25.179300308227539 0.304481804370880 0.003921568859369
-6.087999820709229 23.058267593383789 0.277639567852020 0.003921568859369
-5.916025161743164 23.087940216064453 0.277425885200500 0.003921568859369
-1.788097620010376 4.154979228973389 0.258357137441635 0.000000000000000
-4.778873443603516 12.883937835693359 3.651605367660522 0.000000000000000
-5.465935707092285 22.953968048095703 0.274567574262619 0.003921568859369
-5.408602237701416 23.056724548339844 0.275551497936249 0.003921568859369
-5.217628955841064 22.997455596923828 0.274347871541977 0.003921568859369
-4.811729431152344 23.059206008911133 0.273946613073349 0.003921568859369
-4.731948852539062 23.078556060791016 0.273958861827850 0.003921568859369
-2.032715320587158 5.878813266754150 0.752999663352966 0.000000000000000
-4.457639217376709 22.942029953002930 0.271732598543167 0.003921568859369
-4.384988307952881 22.975210189819336 0.271931618452072 0.003921568859369
-2.375643968582153 8.935424804687500 0.749813973903656 0.000000000000000
-4.060362815856934 23.121376037597656 0.272845774888992 0.003921568859369
-1.470876693725586 6.482905864715576 0.539184212684631 0.000000000000000
-1.822189092636108 7.283183574676514 0.174842044711113 0.000000000000000
-2.344357967376709 10.011816978454590 2.737858295440674 0.000000000000000
-2.910869836807251 11.064471244812012 0.332317471504211 0.000000000000000
-1.500358939170837 7.636563301086426 0.451629012823105 0.000000000000000
-1.502210617065430 7.652577877044678 2.076324701309204 0.000000000000000
-1.119047641754150 3.962993860244751 0.119695708155632 0.000000000000000
-2.232792854309082 11.629478454589844 0.344284355640411 0.000000000000000
-2.604864835739136 25.424980163574219 0.593421101570129 0.003921568859369
-0.115663781762123 23.001052856445312 0.534198939800262 0.003921568859369
-0.034519806504250 23.080301284790039 0.536024272441864 0.003921568859369
0.161985576152802 7.449805259704590 0.610192716121674 0.000000000000000
1.318994641304016 25.337087631225586 2.070719480514526 0.003921568859369
1.366012692451477 24.710784912109375 2.020016431808472 0.003921568859369
1.466711282730103 25.035577774047852 2.046954870223999 0.003921568859369
1.641340255737305 26.218175888061523 2.144055843353271 0.003921568859369
1.646944642066956 24.851171493530273 2.032994031906128 0.003921568859369
1.711862325668335 24.574100494384766 2.010879039764404 0.003921568859369
0.677035212516785 10.858965873718262 1.987718701362610 0.000000000000000
0.092493325471878 8.678066253662109 2.328067064285278 0.000000000000000
0.966919779777527 13.598705291748047 2.489514112472534 0.000000000000000
0.128601282835007 8.812585830688477 1.083912849426270 0.000000000000000
2.118872165679932 25.266773223876953 2.069901227951050 0.003921568859369
-0.274245947599411 23.182090759277344 0.673689961433411 0.003921568859369
2.213918447494507 25.373769760131836 2.079297304153442 0.003921568859369
0.941100835800171 23.113777160644531 0.537253797054291 0.003921568859369
1.102381706237793 26.179527282714844 1.524956226348877 0.003921568859369
2.230249643325806 24.610889434814453 2.017552852630615 0.003921568859369
1.116218090057373 23.336269378662109 0.542569756507874 0.003921568859369
0.249714285135269 8.774421691894531 1.079981327056885 0.000000000000000
1.382778882980347 14.739058494567871 2.703768253326416 0.000000000000000
3.608283519744873 22.897302627563477 -0.272382974624634 0.003921568859369
2.912537574768066 26.633817672729492 4.888023853302002 0.003921568859369
3.763040065765381 23.292850494384766 -0.277319133281708 0.003921568859369
0.427773237228394 5.616420745849609 1.032747149467468 0.000000000000000
3.811224937438965 23.138277053833008 -0.275637745857239 0.003921568859369
3.975252628326416 23.100666046142578 -0.275587499141693 0.003921568859369
0.025830686092377 3.438822269439697 0.081706225872040 0.003921568859369
3.121634721755981 25.374307632446289 2.087570905685425 0.003921568859369
1.157647371292114 15.613903999328613 1.924623847007751 0.000000000000000
0.563037216663361 9.073307991027832 2.441734075546265 0.000000000000000
4.318177223205566 23.165599822998047 -0.277184844017029 0.003921568859369
3.494997024536133 25.486951828002930 2.100792646408081 0.003921568859369
4.483809471130371 23.152645111083984 -0.277464032173157 0.003921568859369
4.528579235076904 22.943244934082031 -0.275169551372528 0.003921568859369
4.621137619018555 22.938146591186523 -0.275245875120163 0.003921568859369
4.924196243286133 23.187320709228516 -0.278945177793503 0.003921568859369
5.007742881774902 23.180810928344727 -0.279107362031937 0.003921568859369
3.162696838378906 25.678791046142578 0.600636959075928 0.003921568859369
5.235995292663574 23.082611083984375 -0.278647094964981 0.003921568859369
4.057332038879395 23.084527969360352 -0.138586521148682 0.003921568859369
5.637756824493408 23.668167114257812 -0.286557912826538 0.003921568859369
3.564640998840332 25.924148559570312 1.523734688758850 0.003921568859369
5.566653728485107 23.022102355957031 -0.278964787721634 0.003921568859369
5.689805030822754 23.129529953002930 -0.280445933341980 0.003921568859369
4.645385265350342 23.045095443725586 -0.687773823738098 0.003921568859369
6.108661651611328 23.416120529174805 -0.285060614347458 0.003921568859369
6.195734977722168 23.097660064697266 -0.281741619110107 0.003921568859369
1.971738219261169 12.584339141845703 3.423393487930298 0.000000000000000
4.026521682739258 22.866376876831055 -0.543269157409668 0.003921568859369
7.383762359619141 24.656679153442383 0.297478377819061 0.003921568859369
7.178362846374512 23.698425292968750 -0.291869103908539 0.003921568859369
7.392195224761963 24.381809234619141 0.294479489326477 0.003921568859369
7.681250572204590 24.999486923217773 0.302207559347153 0.003921568859369
4.671908378601074 22.750867843627930 -0.543618440628052 0.003921568859369
8.008108139038086 24.822027206420898 0.301351577043533 0.003921568859369
7.851469039916992 23.523874282836914 -0.292534708976746 0.003921568859369
8.577484130859375 24.489110946655273 0.299846470355988 0.003921568859369
8.402077674865723 23.510158538818359 -0.294495463371277 0.003921568859369
7.409477233886719 24.435337066650391 -0.151594325900078 0.003921568859369
7.481458663940430 24.366598129272461 -0.151349082589149 0.003921568859369
7.698782444000244 24.444025039672852 -0.152224048972130 0.003921568859369
7.424894332885742 23.062669754028320 -0.709802806377411 0.003921568859369
9.174956321716309 24.034351348876953 0.297232955694199 0.003921568859369
0.887408018112183 3.237985372543335 0.624437153339386 0.000000000000000
4.268812179565430 12.899022102355957 2.488839626312256 0.000000000000000
7.306912422180176 25.294925689697266 0.611310720443726 0.003921568859369
9.410113334655762 23.409669876098633 -0.297706693410873 0.003921568859369
9.798007011413574 24.353075027465820 0.303300887346268 0.003921568859369
1.343217492103577 5.168736457824707 1.446933388710022 0.000000000000000
9.517344474792480 23.425951004028320 -0.298385322093964 0.003921568859369
7.557226181030273 25.168949127197266 0.610148012638092 0.003921568859369
8.335873603820801 23.290107727050781 -0.724811553955078 0.003921568859369
9.860169410705566 23.781061172485352 0.297476142644882 0.003921568859369
8.421500205993652 23.296880722045898 -0.725879490375519 0.003921568859369
8.651359558105469 23.650711059570312 -0.737953722476959 0.003921568859369
2.426624774932861 6.966730594635010 0.303733885288239 0.000000000000000
8.762898445129395 23.179998397827148 -0.726043522357941 0.003921568859369
3.444510459899902 10.750284194946289 3.041266918182373 0.000000000000000
10.275158882141113 22.943031311035156 -0.296685516834259 0.003921568859369
8.139334678649902 24.300817489624023 1.493562459945679 0.003921568859369
10.393693923950195 22.989864349365234 -0.297787368297577 0.003921568859369
3.160037040710449 8.343959808349609 1.640065073966980 0.000000000000000
8.250067710876465 24.347455978393555 -0.602456569671631 0.003921568859369
7.150521755218506 24.767124176025391 0.147629037499428 0.003921568859369
8.423879623413086 24.312089920043945 0.597513973712921 0.003921568859369
8.511966705322266 24.559875488281250 1.514850139617920 0.003921568859369
7.259182453155518 24.504724502563477 0.146351069211960 0.003921568859369
8.310205459594727 23.728511810302734 0.583915829658508 0.003921568859369
11.597807884216309 24.491638183593750 -0.319989860057831 0.003921568859369
7.720235347747803 18.730758666992188 3.705830574035645 0.003921568859369
9.846731185913086 23.049953460693359 -0.734502196311951 0.003921568859369
11.850171089172363 24.328823089599609 -0.319388180971146 0.003921568859369
2.470342636108398 7.031858444213867 2.014832019805908 0.000000000000000
8.492117881774902 22.940488815307617 -0.573305070400238 0.003921568859369
11.980803489685059 24.388959884643555 -0.320725053548813 0.003921568859369
11.881182670593262 23.969106674194336 -0.315776944160461 0.003921568859369
9.341506958007812 24.662322998046875 0.612408399581909 0.003921568859369
7.922514915466309 24.203451156616211 0.145852833986282 0.003921568859369
9.007403373718262 20.530906677246094 4.099394321441650 0.003921568859369
4.098732471466064 10.872047424316406 3.131205081939697 0.000000000000000
9.030367851257324 20.391101837158203 4.077877521514893 0.003921568859369
9.696973800659180 24.806308746337891 0.618461668491364 0.003921568859369
9.122738838195801 20.405326843261719 4.087183952331543 0.003921568859369
9.196943283081055 20.388624191284180 4.090040206909180 0.003921568859369
5.074762344360352 12.954463958740234 0.324505418539047 0.000000000000000
9.277991294860840 20.377147674560547 4.094328403472900 0.003921568859369
10.781210899353027 23.399656295776367 -0.755211114883423 0.003921568859369
8.251270294189453 23.810821533203125 0.144284248352051 0.003921568859369
6.607061386108398 14.497269630432129 2.918045520782471 0.003921568859369
11.060774803161621 23.779317855834961 -0.156039401888847 0.003921568859369
12.213303565979004 23.015773773193359 -0.307705819606781 0.003921568859369
11.438331604003906 24.139802932739258 -0.158987939357758 0.003921568859369
2.533908128738403 6.444585323333740 1.875109076499939 0.000000000000000
9.493257522583008 22.901258468627930 -0.581329762935638 0.003921568859369
12.524017333984375 23.184713363647461 -0.311007320880890 0.003921568859369
12.417357444763184 25.919418334960938 -0.170928075909615 0.003921568859369
12.956947326660156 23.777364730834961 -0.319619327783585 0.003921568859369
12.944462776184082 23.560159683227539 -0.317316681146622 0.003921568859369
13.133974075317383 26.678615570068359 2.430463075637817 0.003921568859369
4.531954288482666 10.724939346313477 3.138404369354248 0.000000000000000
12.991176605224609 26.174909591674805 2.388550281524658 0.003921568859369
11.925430297851562 23.850313186645508 -0.158610865473747 0.003921568859369
9.494683265686035 24.054071426391602 0.148007422685623 0.003921568859369
13.460322380065918 26.189987182617188 2.407006263732910 0.003921568859369
13.558225631713867 26.165782928466797 2.408941268920898 0.003921568859369
13.893395423889160 23.701681137084961 -0.324457019567490 0.003921568859369
3.230909824371338 7.283761978149414 0.987630069255829 0.000000000000000
5.711892604827881 12.326455116271973 3.658826828002930 0.000000000000000
