# This PCD file was generated using the MATLAB® pcwrite function
# from Computer Vision Toolbox®.
# .PCD v.7 - Point Cloud Data file format
VERSION .7
FIELDS x y z intensity
SIZE 8 8 8 8
TYPE F F F F
COUNT 1 1 1 1
WIDTH 647
HEIGHT 1
VIEWPOINT 0 0 0 1 0 0 0
POINTS 647
DATA ascii
-15.940778732299805 7.341982841491699 3.102594375610352 0.003921568859369
-20.098194122314453 7.236055850982666 0.116350039839745 0.003921568859369
-20.626705169677734 7.511582851409912 0.618461608886719 0.003921568859369
-14.531185150146484 6.022008419036865 0.882761657238007 0.000000000000000
-19.939990997314453 7.327784061431885 0.115721218287945 0.003921568859369
-20.518230438232422 7.630219936370850 0.119279563426971 0.003921568859369
-21.051803588867188 7.912234306335449 0.634006023406982 0.003921568859369
-20.374500274658203 7.893975734710693 0.616087079048157 0.003921568859369
-4.213540554046631 1.760620951652527 0.499015629291534 0.000000000000000
-11.692000389099121 6.049999713897705 2.308439970016479 0.000000000000000
-20.360803604125977 8.532553672790527 0.622800409793854 0.003921568859369
-7.463080883026123 3.059743404388428 0.219507977366447 0.000000000000000
-11.768755912780762 5.063963413238525 0.356543153524399 0.000000000000000
-14.743269920349121 8.225134849548340 2.988307237625122 0.003921568859369
-12.332359313964844 6.131596088409424 3.557305335998535 0.000000000000000
-7.992782592773438 4.457151889801025 1.581505894660950 0.000000000000000
-4.295915603637695 1.802820324897766 -0.071823365986347 0.000000000000000
-11.544602394104004 6.683157920837402 2.344381809234619 0.000000000000000
-8.735893249511719 5.015347957611084 1.749848604202271 0.000000000000000
-16.167299270629883 9.646374702453613 3.343648195266724 0.003921568859369
-7.733455657958984 4.472439765930176 0.690499305725098 0.000000000000000
-6.776995658874512 3.557142734527588 0.881767511367798 0.000000000000000
-10.528536796569824 6.362225055694580 0.965560019016266 0.000000000000000
-6.610393524169922 3.575414180755615 0.865242719650269 0.000000000000000
-11.851560592651367 6.770954608917236 1.617112755775452 0.000000000000000
-10.285726547241211 6.959676742553711 1.471439361572266 0.000000000000000
-13.398044586181641 10.161067008972168 2.988864660263062 0.003921568859369
-6.060194969177246 4.435496807098389 1.294443368911743 0.000000000000000
-4.960322856903076 3.259807825088501 0.677113234996796 0.000000000000000
-15.528466224670410 11.422048568725586 2.314115285873413 0.003921568859369
-4.733623981475830 3.552296638488770 1.007165670394897 0.000000000000000
-13.661635398864746 11.374026298522949 3.168186902999878 0.003921568859369
-10.609544754028320 9.117555618286133 2.481156110763550 0.000000000000000
-9.725984573364258 8.996575355529785 2.350160837173462 0.000000000000000
-7.764452457427979 7.186130523681641 1.864311456680298 0.000000000000000
-4.739369869232178 4.227012634277344 0.490011602640152 0.000000000000000
-6.717123031616211 5.694593429565430 1.036311030387878 0.000000000000000
-13.840079307556152 13.460044860839844 3.454507589340210 0.003921568859369
-10.511491775512695 10.390978813171387 2.631144046783447 0.000000000000000
-6.065985202789307 5.875202655792236 0.330499857664108 0.000000000000000
-13.023636817932129 14.140975952148438 3.444747447967529 0.003921568859369
-5.131661891937256 5.040969848632812 0.843739926815033 0.000000000000000
-6.932857513427734 8.118020057678223 1.893290638923645 0.000000000000000
-5.675094127655029 6.047581195831299 0.981052696704865 0.000000000000000
-10.491858482360840 11.707971572875977 1.892246365547180 0.000000000000000
-3.364705324172974 3.577784299850464 1.238042116165161 0.000000000000000
-16.596052169799805 24.688898086547852 0.340580582618713 0.003921568859369
-16.097337722778320 25.450464248657227 0.345054268836975 0.003921568859369
-15.992292404174805 25.458539962768555 0.344520300626755 0.003921568859369
-10.078220367431641 12.776082038879395 4.286099910736084 0.003921568859369
-15.733992576599121 25.449892044067383 0.343147635459900 0.003921568859369
-7.169577598571777 9.062270164489746 3.024935483932495 0.000000000000000
-10.673478126525879 15.285483360290527 3.353085041046143 0.003921568859369
-10.212117195129395 13.548364639282227 4.475573539733887 0.003921568859369
-13.242790222167969 23.684440612792969 0.311718523502350 0.003921568859369
-9.032962799072266 12.948252677917480 4.165340900421143 0.003921568859369
-5.379014492034912 8.367661476135254 1.773193478584290 0.000000000000000
-16.568063735961914 24.658172607421875 0.683232069015503 0.003921568859369
-16.614406585693359 25.100183486938477 0.692423760890961 0.003921568859369
-5.689067363739014 8.159448623657227 2.601896047592163 0.000000000000000
-6.068900585174561 10.009564399719238 2.095147609710693 0.000000000000000
-6.265611171722412 10.118609428405762 3.131817102432251 0.000000000000000
-16.370592117309570 25.332242965698242 0.171801581978798 0.003921568859369
-10.230777740478516 20.295351028442383 4.110273838043213 0.003921568859369
-10.141141891479492 20.290496826171875 4.102399826049805 0.003921568859369
-10.056730270385742 20.295925140380859 4.096677780151367 0.003921568859369
-9.977440834045410 20.311685562133789 4.093106746673584 0.003921568859369
-9.908360481262207 20.339750289916992 4.092403411865234 0.003921568859369
-13.843362808227539 22.867364883422852 0.152495145797729 0.003921568859369
-13.739290237426758 22.872663497924805 0.152237877249718 0.003921568859369
-13.521373748779297 22.891145706176758 0.151896715164185 0.003921568859369
-13.323966026306152 22.906806945800781 0.151448175311089 0.003921568859369
-1.264614582061768 2.041956186294556 0.405951291322708 0.000000000000000
-12.317917823791504 24.826974868774414 3.380379438400269 0.003921568859369
-3.115346193313599 5.663048267364502 1.684230566024780 0.000000000000000
-8.224172592163086 22.973609924316406 0.282287150621414 0.003921568859369
-8.925029754638672 25.316480636596680 0.310576379299164 0.003921568859369
-7.370839595794678 17.786460876464844 3.483970880508423 0.003921568859369
-2.724947452545166 6.145160675048828 1.199841022491455 0.000000000000000
-3.270949602127075 6.783664703369141 1.976133465766907 0.000000000000000
-2.784790277481079 6.822740077972412 0.591624915599823 0.000000000000000
-4.284822940826416 9.650833129882812 2.790685653686523 0.000000000000000
-1.998753547668457 4.863137722015381 0.090577155351639 0.000000000000000
-4.265883922576904 10.680829048156738 3.047423362731934 0.000000000000000
-6.723766326904297 25.389862060546875 0.304772049188614 0.003921568859369
-1.739609956741333 4.648800849914551 0.198619335889816 0.000000000000000
-3.737803697586060 9.871689796447754 2.795953035354614 0.000000000000000
-5.704846382141113 23.018938064575195 0.275359272956848 0.003921568859369
-5.668087005615234 23.228506088256836 0.277646124362946 0.003921568859369
-4.505309581756592 12.547206878662109 1.622873663902283 0.000000000000000
-8.632235527038574 25.338008880615234 0.619903266429901 0.003921568859369
-4.222801685333252 12.140995025634766 0.742677509784698 0.000000000000000
-1.696214437484741 5.050590515136719 0.953894317150116 0.000000000000000
-5.026877880096436 23.024963378906250 0.273892462253571 0.003921568859369
-4.713101863861084 22.695541381835938 0.269480079412460 0.003921568859369
-3.035596847534180 9.303862571716309 2.595222711563110 0.000000000000000
-7.479353904724121 25.379657745361328 0.613325953483582 0.003921568859369
-3.395302057266235 10.977019309997559 1.399318099021912 0.000000000000000
-7.324521064758301 25.548362731933594 0.616241872310638 0.003921568859369
-7.452729225158691 26.379568099975586 0.635662138462067 0.003921568859369
-7.525327682495117 27.043163299560547 0.650998830795288 0.003921568859369
-7.643347263336182 27.859848022460938 0.670048773288727 0.003921568859369
-7.713055610656738 28.531759262084961 0.685572028160095 0.003921568859369
-3.388543367385864 22.541648864746094 0.265462666749954 0.003921568859369
-2.503737211227417 9.962797164916992 2.732961893081665 0.000000000000000
-2.872285366058350 24.609968185424805 2.020482063293457 0.003921568859369
-1.413293361663818 23.088533401489258 0.270031005144119 0.003921568859369
-1.321667909622192 23.072216033935547 0.269786983728409 0.003921568859369
-2.432909011840820 24.658626556396484 2.021183252334595 0.003921568859369
-1.614497542381287 15.129711151123047 2.769668340682983 0.000000000000000
-2.331110954284668 24.475154876708984 2.005578279495239 0.003921568859369
-0.989341318607330 22.744201660156250 0.265883117914200 0.003921568859369
-0.873922944068909 24.471702575683594 0.285959154367447 0.003921568859369
-1.322658181190491 15.585744857788086 2.848633289337158 0.000000000000000
-0.442853748798370 23.029832839965820 -0.267055273056030 0.003921568859369
-1.583688020706177 25.079635620117188 2.050905466079712 0.003921568859369
-0.271802544593811 23.114168167114258 -0.268038362264633 0.003921568859369
-1.415929317474365 25.255235671997070 2.064598798751831 0.003921568859369
-1.241636514663696 25.437837600708008 2.078944206237793 0.003921568859369
-1.067984342575073 25.427690505981445 2.077668666839600 0.003921568859369
-0.994503021240234 9.153976440429688 2.460854053497314 0.000000000000000
-0.896644651889801 25.912551879882812 -0.149700343608856 0.003921568859369
-0.628981590270996 14.186138153076172 2.588276863098145 0.000000000000000
-0.754445731639862 23.034971237182617 -0.132922008633614 0.003921568859369
-2.130375623703003 26.648033142089844 1.556321024894714 0.003921568859369
-0.671204388141632 22.860427856445312 -0.131885409355164 0.003921568859369
-1.713250875473022 22.906265258789062 0.534869074821472 0.003921568859369
-1.904326677322388 26.010461807250977 1.518452763557434 0.003921568859369
-0.481102705001831 14.047071456909180 2.562470912933350 0.000000000000000
-0.474410474300385 19.820211410522461 3.614940643310547 0.003921568859369
-1.667223453521729 25.111454010009766 0.586016654968262 0.003921568859369
-0.308008104562759 2.407713890075684 0.197727933526039 0.000000000000000
-1.578939080238342 25.104114532470703 0.585750401020050 0.003921568859369
-0.698654592037201 7.898441314697266 2.120270252227783 0.000000000000000
-1.415959358215332 25.387950897216797 1.480831027030945 0.003921568859369
-1.319348692893982 25.304115295410156 1.475729465484619 0.003921568859369
-0.557097911834717 7.101536750793457 0.873669862747192 0.000000000000000
0.137915253639221 23.117937088012695 -0.671836972236633 0.003921568859369
-0.606481432914734 10.330477714538574 2.770421504974365 0.000000000000000
-0.581625580787659 12.470784187316895 1.532701730728149 0.000000000000000
0.114039778709412 15.809781074523926 2.884661912918091 0.003921568859369
-0.496612101793289 23.012552261352539 -0.534554541110992 0.003921568859369
-0.904218494892120 22.926990509033203 0.134208127856255 0.003921568859369
2.656604528427124 23.693628311157227 -0.276586115360260 0.003921568859369
0.028895586729050 11.973438262939453 3.210428237915039 0.000000000000000
2.702438354492188 23.393610000610352 -0.273178845643997 0.003921568859369
3.098042011260986 24.454738616943359 -0.285983443260193 0.003921568859369
-0.185641855001450 2.245166540145874 0.277014762163162 0.000000000000000
3.177712440490723 24.403219223022461 0.288352191448212 0.003921568859369
3.223332881927490 24.117897033691406 -0.282285779714584 0.003921568859369
3.277781724929810 24.493942260742188 0.289575874805450 0.003921568859369
3.337482690811157 24.307312011718750 -0.284646242856979 0.003921568859369
3.360631227493286 23.340906143188477 -0.273554831743240 0.003921568859369
1.012786865234375 11.382425308227539 2.089780092239380 0.000000000000000
2.677187681198120 24.479349136352539 -0.141990751028061 0.003921568859369
2.678791046142578 23.159730911254883 -0.678122520446777 0.003921568859369
3.939753532409668 23.740894317626953 0.282166957855225 0.003921568859369
4.222876548767090 24.348196029663086 -0.286722779273987 0.003921568859369
2.924550056457520 23.766485214233398 -0.138025268912315 0.003921568859369
1.769232749938965 23.048038482666016 -0.537204205989838 0.003921568859369
4.430811882019043 24.060415267944336 0.286932140588760 0.003921568859369
4.579283237457275 23.508495330810547 -0.277870535850525 0.003921568859369
4.878507614135742 24.060882568359375 0.287957161664963 0.003921568859369
4.946358680725098 23.968553543090820 0.287081480026245 0.003921568859369
4.791384696960449 22.868341445922852 -0.271098136901855 0.003921568859369
5.215240001678467 24.790006637573242 0.297121614217758 0.003921568859369
4.934728145599365 23.115076065063477 -0.274247974157333 0.003921568859369
2.622339248657227 23.252275466918945 -0.543933212757111 0.003921568859369
2.935819625854492 25.139417648315430 0.590964019298553 0.003921568859369
2.938737869262695 24.477813720703125 0.575707674026489 0.003921568859369
5.242962360382080 23.750402450561523 0.285397112369537 0.003921568859369
2.815906047821045 22.880575180053711 -0.535904169082642 0.003921568859369
2.874059677124023 22.747705459594727 6.153943061828613 0.003921568859369
5.476299285888672 23.629346847534180 0.284682065248489 0.003921568859369
4.614280700683594 24.025217056274414 -0.141011238098145 0.003921568859369
2.190613985061646 16.039802551269531 4.348330974578857 0.003921568859369
3.582076311111450 24.044103622436523 1.419220566749573 0.003921568859369
0.412630558013916 3.129109144210815 0.131330981850624 0.000000000000000
5.838850975036621 22.970592498779297 -0.275034844875336 0.003921568859369
1.115457892417908 8.363188743591309 2.271482229232788 0.000000000000000
3.513000965118408 23.114217758178711 -0.543592453002930 0.003921568859369
3.628373384475708 23.310045242309570 -0.548511564731598 0.003921568859369
3.782510995864868 23.726135253906250 0.561342418193817 0.003921568859369
4.174411773681641 24.977231979370117 0.591624379158020 0.003921568859369
6.717979431152344 23.913467407226562 -0.288252055644989 0.003921568859369
7.060052394866943 24.432760238647461 -0.295174539089203 0.003921568859369
7.122151851654053 24.330581665039062 -0.294235527515411 0.003921568859369
1.590914964675903 7.305236339569092 0.307912468910217 0.000000000000000
4.337524414062500 23.040447235107422 -0.545222997665405 0.003921568859369
6.979911804199219 23.562791824340820 -0.285213977098465 0.003921568859369
6.895141124725342 22.998794555664062 -0.278654903173447 0.003921568859369
7.741716384887695 25.730407714843750 0.315354883670807 0.003921568859369
0.827625334262848 5.158918380737305 0.307808369398117 0.000000000000000
7.418357849121094 23.802494049072266 -0.289355695247650 0.003921568859369
5.045621395111084 23.196283340454102 -0.552121400833130 0.003921568859369
6.496078014373779 23.748388290405273 -0.141849145293236 0.003921568859369
3.913888216018677 14.636752128601074 2.775127649307251 0.000000000000000
7.814217567443848 23.053258895874023 -0.282533943653107 0.003921568859369
6.859717369079590 24.033441543579102 -0.144039124250412 0.003921568859369
4.389218807220459 23.727256774902344 0.141799867153168 0.003921568859369
6.919183731079102 23.957406997680664 -0.143706679344177 0.003921568859369
1.065591335296631 5.246383666992188 0.126767754554749 0.000000000000000
8.107237815856934 27.943477630615234 2.382098436355591 0.003921568859369
3.115669012069702 11.200019836425781 2.132147312164307 0.000000000000000
8.146195411682129 27.702854156494141 2.364203691482544 0.003921568859369
8.249837875366211 27.696346282958984 2.366167783737183 0.003921568859369
8.433732032775879 23.783618927001953 -0.292900413274765 0.003921568859369
8.121174812316895 26.955919265747070 2.305297613143921 0.003921568859369
4.670154094696045 23.401279449462891 0.140298262238503 0.003921568859369
8.198064804077148 26.530725479125977 2.274064302444458 0.003921568859369
8.649851799011230 23.592767715454102 -0.291664898395538 0.003921568859369
8.291851043701172 26.504961013793945 2.274400234222412 0.003921568859369
8.384314537048340 26.475078582763672 2.274410724639893 0.003921568859369
9.790062904357910 25.510902404785156 0.320827305316925 0.003921568859369
8.587276458740234 26.134122848510742 2.252877950668335 0.003921568859369
8.701592445373535 26.171171188354492 2.258748054504395 0.003921568859369
9.996143341064453 25.511005401611328 0.321733623743057 0.003921568859369
8.808459281921387 26.185132980346680 2.262664794921875 0.003921568859369
9.345063209533691 23.656143188476562 -0.295255124568939 0.003921568859369
6.992501258850098 20.691802978515625 3.996452093124390 0.003921568859369
8.117356300354004 27.943086624145508 1.699750781059265 0.003921568859369
8.995770454406738 26.149435043334961 2.264962673187256 0.003921568859369
9.316330909729004 26.746431350708008 2.319669723510742 0.003921568859369
6.718071460723877 22.941190719604492 -0.556156635284424 0.003921568859369
8.117310523986816 23.124742507934570 -0.141203805804253 0.003921568859369
9.344791412353516 26.532960891723633 2.304052114486694 0.003921568859369
11.266155242919922 27.320196151733398 -0.343035519123077 0.003921568859369
9.582100868225098 26.926162719726562 2.340851545333862 0.003921568859369
8.437392234802246 27.619791030883789 1.687227964401245 0.003921568859369
1.013286113739014 3.915510416030884 1.100479006767273 0.000000000000000
7.043180465698242 23.167509078979492 -0.563381850719452 0.003921568859369
8.490204811096191 27.418910980224609 1.677002310752869 0.003921568859369
10.211592674255371 28.015676498413086 2.442128658294678 0.003921568859369
4.585325717926025 14.954730987548828 4.209726333618164 0.003921568859369
3.738289117813110 10.407404899597168 2.031003236770630 0.000000000000000
1.286742448806763 5.403905868530273 0.164134576916695 0.000000000000000
8.624801635742188 26.833148956298828 1.646710515022278 0.003921568859369
9.355356216430664 24.886693954467773 2.178028821945190 0.003921568859369
7.344147205352783 22.939746856689453 -0.560442149639130 0.003921568859369
10.107588768005371 26.594680786132812 -0.164021417498589 0.003921568859369
7.786987781524658 24.031566619873047 0.590842306613922 0.003921568859369
8.886698722839355 27.339572906494141 1.679524064064026 0.003921568859369
9.476732254028320 24.968053817749023 2.187804460525513 0.003921568859369
8.902454376220703 22.996389389038086 -0.718158960342407 0.003921568859369
9.107828140258789 27.349435806274414 1.684197306632996 0.003921568859369
10.616641998291016 23.630979537963867 -0.300750434398651 0.003921568859369
9.062170028686523 26.907587051391602 3.495889663696289 0.003921568859369
2.693538188934326 7.241454124450684 1.423161387443542 0.000000000000000
7.770884037017822 22.909286499023438 -0.562911927700043 0.003921568859369
9.136723518371582 22.884971618652344 -0.717669486999512 0.003921568859369
10.607175827026367 23.181509017944336 0.299605101346970 0.003921568859369
9.102084159851074 26.422840118408203 3.441298723220825 0.003921568859369
11.117622375488281 27.491809844970703 -0.170946478843689 0.003921568859369
10.413644790649414 25.782787322998047 2.278045177459717 0.003921568859369
9.105152130126953 25.882345199584961 3.378905057907104 0.003921568859369
10.022901535034180 24.589700698852539 2.175818920135498 0.003921568859369
9.004753112792969 25.296936035156250 0.628084719181061 0.003921568859369
10.811321258544922 22.987676620483398 0.298602074384689 0.003921568859369
9.294091224670410 26.092639923095703 3.411096334457397 0.003921568859369
10.809683799743652 22.779840469360352 0.296414524316788 0.003921568859369
9.915223121643066 23.606403350830078 -0.147518336772919 0.003921568859369
9.640703201293945 26.468519210815430 3.469138383865356 0.003921568859369
10.118774414062500 24.081855773925781 2.140681982040405 0.003921568859369
8.586040496826172 23.631591796875000 -0.585074126720428 0.003921568859369
9.979114532470703 23.504863739013672 -0.147177129983902 0.003921568859369
12.204148292541504 25.193016052246094 0.328760445117950 0.003921568859369
10.106847763061523 23.800537109375000 2.118791580200195 0.003921568859369
3.919322490692139 10.940190315246582 3.132883310317993 0.000000000000000
8.447868347167969 22.986885070800781 -0.569900155067444 0.003921568859369
10.115307807922363 23.615766525268555 -0.148071512579918 0.003921568859369
9.893801689147949 26.580827713012695 3.492478609085083 0.003921568859369
10.147990226745605 23.456287384033203 2.094388246536255 0.003921568859369
12.715299606323242 25.563884735107422 0.335325747728348 0.003921568859369
10.378936767578125 23.755140304565430 2.124350547790527 0.003921568859369
8.715910911560059 22.978719711303711 -0.571921885013580 0.003921568859369
7.710623741149902 23.510566711425781 0.145621910691261 0.003921568859369
9.662279129028320 25.172119140625000 0.630673944950104 0.003921568859369
12.787294387817383 25.495990753173828 0.335006982088089 0.003921568859369
10.044148445129395 26.147758483886719 1.637004017829895 0.003921568859369
10.005152702331543 26.048597335815430 3.436432361602783 0.003921568859369
10.454383850097656 23.712680816650391 2.123707056045532 0.003921568859369
8.818299293518066 23.016080856323242 -0.573587357997894 0.003921568859369
11.546446800231934 22.851110458374023 0.300912022590637 0.003921568859369
10.094707489013672 25.996276855468750 3.434491157531738 0.003921568859369
10.439146995544434 23.448381423950195 2.103528499603271 0.003921568859369
11.570662498474121 22.712606430053711 0.299611240625381 0.003921568859369
10.163188934326172 25.917776107788086 3.428648233413696 0.003921568859369
10.540069580078125 23.463748931884766 2.108094453811646 0.003921568859369
6.958623886108398 15.634383201599121 3.136085033416748 0.003921568859369
10.367617607116699 26.428394317626953 -0.660556495189667 0.003921568859369
12.945057868957520 25.140117645263672 -0.328285127878189 0.003921568859369
11.757561683654785 22.867853164672852 0.302235662937164 0.003921568859369
10.256621360778809 25.875965118408203 3.428169727325439 0.003921568859369
10.367880821228027 25.890794754028320 3.435004949569702 0.003921568859369
10.839070320129395 23.668195724487305 2.133507490158081 0.003921568859369
11.991816520690918 22.934328079223633 -0.300471305847168 0.003921568859369
10.443093299865723 25.829933166503906 3.431600093841553 0.003921568859369
11.562051773071289 25.002481460571289 2.257242441177368 0.003921568859369
10.691617012023926 22.942142486572266 -0.737267971038818 0.003921568859369
10.270568847656250 25.160713195800781 1.588659048080444 0.003921568859369
10.458490371704102 25.613023757934570 3.407716274261475 0.003921568859369
10.846117019653320 23.268384933471680 2.104219198226929 0.003921568859369
12.104045867919922 22.760734558105469 0.303060591220856 0.003921568859369
12.530638694763184 23.326606750488281 -0.307458013296127 0.003921568859369
12.415332794189453 26.071271896362305 2.365598440170288 0.003921568859369
12.571538925170898 23.208469390869141 -0.306475877761841 0.003921568859369
12.492293357849121 25.998462677001953 2.363001823425293 0.003921568859369
11.059854507446289 22.866876602172852 -0.739882588386536 0.003921568859369
12.644563674926758 23.159048080444336 -0.306375950574875 0.003921568859369
12.568929672241211 23.022594451904297 0.308220654726028 0.003921568859369
12.560856819152832 25.920507431030273 2.359753847122192 0.003921568859369
2.923635959625244 7.184957027435303 2.098519086837769 0.000000000000000
3.355654001235962 7.196867465972900 1.463302850723267 0.000000000000000
11.612849235534668 27.024250030517578 3.622215509414673 0.003921568859369
13.028548240661621 26.636617660522461 2.429114341735840 0.003921568859369
9.900658607482910 20.330461502075195 4.139284133911133 0.003921568859369
13.441407203674316 24.207519531250000 -0.321490287780762 0.003921568859369
10.113739967346191 23.377527236938477 1.489267468452454 0.003921568859369
10.031392097473145 20.423612594604492 4.165124416351318 0.003921568859369
11.765893936157227 26.874399185180664 3.612967967987061 0.003921568859369
12.354825973510742 24.851778030395508 2.274145841598511 0.003921568859369
10.109717369079590 20.401884078979492 4.168001174926758 0.003921568859369
10.120470046997070 22.946071624755859 0.586909592151642 0.003921568859369
10.202273368835449 20.399091720581055 4.175184249877930 0.003921568859369
11.699741363525391 23.149435043334961 -0.755535840988159 0.003921568859369
13.236591339111328 23.270069122314453 -0.310840398073196 0.003921568859369
10.135446548461914 22.777006149291992 0.583468854427338 0.003921568859369
11.928634643554688 26.736089706420898 3.605670928955078 0.003921568859369
10.295014381408691 20.413557052612305 4.185237407684326 0.003921568859369
12.776956558227539 22.292911529541016 0.302050083875656 0.003921568859369
11.229504585266113 24.960514068603516 3.371628522872925 0.003921568859369
10.396139144897461 26.221885681152344 0.165953874588013 0.003921568859369
12.887042999267578 22.302753448486328 0.302804887294769 0.003921568859369
3.636646986007690 7.314727306365967 1.505658507347107 0.000000000000000
11.105276107788086 27.686733245849609 0.175448045134544 0.003921568859369
11.352499961853027 24.759447097778320 3.355553865432739 0.003921568859369
11.795969963073730 22.556093215942383 -0.146675556898117 0.003921568859369
10.602143287658691 22.949203491210938 0.591698229312897 0.003921568859369
11.549369812011719 24.965396881103516 3.388719081878662 0.003921568859369
12.393865585327148 23.682373046875000 2.190838098526001 0.003921568859369
12.113455772399902 22.749965667724609 -0.148580119013786 0.003921568859369
10.836118698120117 23.006828308105469 0.595073044300079 0.003921568859369
10.920363426208496 23.183055877685547 1.498321056365967 0.003921568859369
11.731835365295410 24.879304885864258 3.388154983520508 0.003921568859369
12.144955635070801 22.619127273559570 -0.147995591163635 0.003921568859369
10.672942161560059 22.464103698730469 0.582034826278687 0.003921568859369
13.515564918518066 22.450336456298828 0.307926297187805 0.003921568859369
13.113381385803223 24.196409225463867 2.255239963531494 0.003921568859369
12.368450164794922 22.651561737060547 -0.148767381906509 0.003921568859369
13.715272903442383 25.084629058837891 2.342508554458618 0.003921568859369
10.834771156311035 22.202404022216797 0.578234672546387 0.003921568859369
12.704866409301758 23.069173812866211 2.158550262451172 0.003921568859369
13.385473251342773 24.090908050537109 5.042057991027832 0.003921568859369
12.777404785156250 22.822818756103516 -0.761936426162720 0.003921568859369
12.184089660644531 24.493391036987305 3.370158433914185 0.003921568859369
13.261054039001465 23.675670623779297 2.224010944366455 0.003921568859369
11.193617820739746 22.335397720336914 0.584777832031250 0.003921568859369
13.988926887512207 24.756778717041016 2.330166101455688 0.003921568859369
12.491883277893066 24.684238433837891 3.408206701278687 0.003921568859369
14.072943687438965 24.713132858276367 2.330498933792114 0.003921568859369
13.011787414550781 22.697481155395508 -0.762148797512054 0.003921568859369
14.733509063720703 25.662054061889648 2.424606800079346 0.003921568859369
13.184451103210449 22.995576858520508 4.850481033325195 0.003921568859369
14.931852340698242 23.107427597045898 -0.319458842277527 0.003921568859369
1.967704057693481 3.605672597885132 -0.023447010666132 0.000000000000000
12.793712615966797 24.604221343994141 3.415933847427368 0.003921568859369
13.446208000183105 22.864046096801758 -0.152941122651100 0.003921568859369
12.893843650817871 24.596195220947266 3.420816421508789 0.003921568859369
4.969778060913086 8.622693061828613 1.830667376518250 0.000000000000000
11.740240097045898 25.122426986694336 0.163127079606056 0.003921568859369
13.312007904052734 22.469358444213867 4.778645515441895 0.003921568859369
10.948609352111816 23.231101989746094 0.151171356439590 0.003921568859369
13.133619308471680 24.426731109619141 3.416448831558228 0.003921568859369
12.402340888977051 23.082668304443359 -0.609922826290131 0.003921568859369
14.089426040649414 23.201698303222656 2.224628925323486 0.003921568859369
6.760425567626953 12.613314628601074 3.856594800949097 0.000000000000000
13.597838401794434 22.401746749877930 4.795169830322266 0.003921568859369
15.573506355285645 22.852270126342773 -0.321146249771118 0.003921568859369
12.024824142456055 22.030838012695312 0.587453126907349 0.003921568859369
13.278442382812500 24.297451019287109 3.411098957061768 0.003921568859369
15.627509117126465 22.751728057861328 -0.320536106824875 0.003921568859369
12.374378204345703 22.467933654785156 0.600319802761078 0.003921568859369
12.860569953918457 23.339673995971680 3.283351659774780 0.003921568859369
15.633484840393066 22.591581344604492 -0.319044768810272 0.003921568859369
12.125379562377930 21.842283248901367 1.461125135421753 0.003921568859369
13.762537956237793 22.146497726440430 4.771507740020752 0.003921568859369
15.699785232543945 22.535301208496094 -0.318946093320847 0.003921568859369
12.706109046936035 25.540737152099609 0.167850837111473 0.003921568859369
14.918816566467285 23.818399429321289 -0.162035644054413 0.003921568859369
14.272004127502441 22.797506332397461 4.921497344970703 0.003921568859369
16.105634689331055 22.924365997314453 -0.325341880321503 0.003921568859369
13.640294075012207 24.139474868774414 3.416002988815308 0.003921568859369
14.000840187072754 22.179973602294922 2.150097370147705 0.003921568859369
12.648584365844727 22.224430084228516 1.495582818984985 0.003921568859369
13.734380722045898 24.108348846435547 3.418447971343994 0.003921568859369
14.841988563537598 23.123548507690430 -0.158474415540695 0.003921568859369
13.882486343383789 24.152376174926758 3.431516885757446 0.003921568859369
14.378068923950195 22.408376693725586 2.181913614273071 0.003921568859369
14.493782043457031 22.587148666381836 4.909928798675537 0.003921568859369
14.861844062805176 22.978019714355469 -0.797121942043304 0.003921568859369
12.927098274230957 22.328136444091797 0.603707492351532 0.003921568859369
16.674322128295898 23.193069458007812 0.335423916578293 0.003921568859369
15.025339126586914 23.228603363037109 2.266902208328247 0.003921568859369
14.585433006286621 22.555660247802734 4.914240360260010 0.003921568859369
13.138565063476562 22.526868820190430 3.213080167770386 0.003921568859369
14.820609092712402 22.759086608886719 4.968784809112549 0.003921568859369
16.596389770507812 22.749700546264648 -0.327050387859344 0.003921568859369
12.798290252685547 21.758586883544922 1.476196050643921 0.003921568859369
13.200592041015625 22.434732437133789 3.207235574722290 0.003921568859369
15.209165573120117 22.997747421264648 -0.803147256374359 0.003921568859369
15.279790878295898 23.103559494018555 -0.159743815660477 0.003921568859369
15.167086601257324 22.935426712036133 5.030512332916260 0.003921568859369
15.159372329711914 22.742294311523438 -0.796167910099030 0.003921568859369
15.279477119445801 22.920763015747070 -0.158859521150589 0.003921568859369
15.156546592712402 22.738761901855469 4.999661445617676 0.003921568859369
13.690964698791504 22.902004241943359 -0.621089816093445 0.003921568859369
15.297028541564941 22.774734497070312 -0.799183309078217 0.003921568859369
1.227967381477356 1.834593653678894 -0.025925284251571 0.000000000000000
12.394388198852539 23.059110641479492 0.154095724225044 0.003921568859369
15.341432571411133 22.840269088745117 -0.158668547868729 0.003921568859369
14.688122749328613 21.877428054809570 2.159808397293091 0.003921568859369
15.388261795043945 22.746482849121094 -0.799990952014923 0.003921568859369
15.426121711730957 22.801973342895508 -0.158755093812943 0.003921568859369
14.113263130187988 23.242294311523438 3.350129842758179 0.003921568859369
17.714939117431641 23.410791397094727 -0.340940356254578 0.003921568859369
14.549326896667480 23.757028579711914 3.432055473327637 0.003921568859369
15.584822654724121 22.683975219726562 -0.801721572875977 0.003921568859369
13.980210304260254 22.502435684204102 3.264327526092529 0.003921568859369
15.897645950317383 22.801944732666016 -0.809728026390076 0.003921568859369
16.224142074584961 23.265872955322266 -0.163557201623917 0.003921568859369
12.459091186523438 17.917261123657227 3.996455192565918 0.003921568859369
14.212813377380371 22.687278747558594 -0.623190343379974 0.003921568859369
15.991243362426758 22.742971420288086 -0.809835910797119 0.003921568859369
14.147810935974121 22.386903762817383 1.548279166221619 0.003921568859369
13.640127182006836 21.591728210449219 3.146722078323364 0.003921568859369
18.113555908203125 23.073450088500977 -0.340709298849106 0.003921568859369
12.842803001403809 22.372301101684570 0.151801541447639 0.003921568859369
16.304367065429688 22.685703277587891 -0.813770413398743 0.003921568859369
14.834807395935059 22.764881134033203 1.588556766510010 0.003921568859369
14.884849548339844 22.840700149536133 -0.634603321552277 0.003921568859369
14.953445434570312 22.771438598632812 -0.634132981300354 0.003921568859369
14.566873550415039 22.029718399047852 3.254028558731079 0.003921568859369
9.817655563354492 13.444826126098633 3.052000761032104 0.003921568859369
15.079956054687500 22.797742843627930 -0.636264622211456 0.003921568859369
16.938125610351562 22.889081954956055 -0.164250254631042 0.003921568859369
14.597130775451660 21.909072875976562 3.243794202804565 0.003921568859369
15.375946044921875 23.066322326660156 -0.645271718502045 0.003921568859369
17.000564575195312 22.797872543334961 -0.828384697437286 0.003921568859369
17.053159713745117 22.867883682250977 -0.164544463157654 0.003921568859369
14.271816253662109 21.256853103637695 3.155054330825806 0.003921568859369
15.224737167358398 22.661762237548828 -0.635509550571442 0.003921568859369
17.186841964721680 22.887277603149414 -0.165093317627907 0.003921568859369
15.266747474670410 20.351732254028320 4.655899047851562 0.003921568859369
15.775322914123535 23.133159637451172 -0.651758253574371 0.003921568859369
17.283134460449219 22.683549880981445 -0.830691993236542 0.003921568859369
17.997920989990234 23.422641754150391 -0.860328078269958 0.003921568859369
14.900053977966309 23.925102233886719 0.165704578161240 0.003921568859369
15.655158996582031 22.596189498901367 3.386093139648438 0.003921568859369
15.560634613037109 22.138401031494141 3.333441972732544 0.003921568859369
17.806671142578125 22.688974380493164 -0.840089678764343 0.003921568859369
17.997846603393555 22.766965866088867 -0.845314204692841 0.003921568859369
15.258945465087891 23.762575149536133 0.166053682565689 0.003921568859369
16.247772216796875 22.768774032592773 -0.651096224784851 0.003921568859369
18.102220535278320 22.734735488891602 -0.846471071243286 0.003921568859369
15.225924491882324 23.531173706054688 0.164820551872253 0.003921568859369
18.215185165405273 22.720811843872070 -0.848209202289581 0.003921568859369
16.505861282348633 20.604452133178711 4.830211639404297 0.003921568859369
18.363948822021484 22.734048843383789 -0.851225256919861 0.003921568859369
18.506544113159180 22.746669769287109 -0.854125261306763 0.003921568859369
11.807684898376465 14.473349571228027 3.422254800796509 0.003921568859369
17.059543609619141 23.046518325805664 -0.667423188686371 0.003921568859369
18.745275497436523 22.720752716064453 -0.857949972152710 0.003921568859369
18.998582839965820 22.689323425292969 -0.861904263496399 0.003921568859369
19.168214797973633 22.729141235351562 -0.865967154502869 0.003921568859369
17.360757827758789 20.599840164184570 4.927719593048096 0.003921568859369
17.652770996093750 22.980222702026367 -0.674487769603729 0.003921568859369
18.273479461669922 23.612051010131836 0.698070824146271 0.003921568859369
17.855768203735352 23.075763702392578 -0.679128944873810 0.003921568859369
18.052227020263672 23.160732269287109 -0.683491408824921 0.003921568859369
6.405636310577393 7.323409557342529 1.789622068405151 0.000000000000000
19.077661514282227 22.626504898071289 -0.688864171504974 0.003921568859369
7.347200393676758 7.807717323303223 1.969689011573792 0.000000000000000
6.837523460388184 7.317130088806152 2.702912807464600 0.000000000000000
12.453934669494629 11.922721862792969 3.157983303070068 0.003921568859369
4.735591888427734 4.529435157775879 1.208982110023499 0.000000000000000
4.058096408843994 4.265294075012207 1.597118020057678 0.000000000000000
4.299921989440918 4.318126201629639 1.650906920433044 0.000000000000000
5.506810188293457 4.914193153381348 1.994604825973511 0.000000000000000
6.685947895050049 5.913580417633057 2.408755779266357 0.000000000000000
3.488902091979980 2.203676223754883 0.242640003561974 0.000000000000000
6.374660968780518 3.848515272140503 2.002498865127563 0.000000000000000
3.753027200698853 1.944379091262817 -0.347021937370300 0.000000000000000
8.984539031982422 3.783378839492798 0.113917484879494 0.000000000000000
17.353849411010742 7.514044284820557 3.449762344360352 0.003921568859369
8.239678382873535 3.435742139816284 1.629487395286560 0.000000000000000
6.646045684814453 3.105232715606689 1.968153476715088 0.000000000000000
7.221992015838623 2.519204854965210 -0.222600772976875 0.000000000000000
11.221001625061035 3.914155721664429 2.166775941848755 0.000000000000000
10.501329421997070 3.536822319030762 -0.322317719459534 0.000000000000000
1.068499684333801 0.459097534418106 -0.074003964662552 0.003921568859369
1.007820725440979 0.428438752889633 -0.069654591381550 0.003921568859369
7.745388507843018 2.821541547775269 -0.191693842411041 0.000000000000000
19.892126083374023 5.942234516143799 1.693855404853821 0.003921568859369
10.336119651794434 2.427216768264771 -0.370295941829681 0.000000000000000
12.543396949768066 2.902765512466431 -0.149899363517761 0.000000000000000
17.316310882568359 4.910658359527588 3.277862071990967 0.003921568859369
19.402246475219727 6.470163822174072 1.189688682556152 0.003921568859369
17.332500457763672 4.853279113769531 3.277861833572388 0.003921568859369
13.307572364807129 4.330188751220703 1.715673685073853 0.000000000000000
13.054007530212402 4.144629955291748 0.796259939670563 0.000000000000000
25.033504486083984 7.766924858093262 3.215537071228027 0.003921568859369
9.030967712402344 2.321987390518188 0.759409129619598 0.000000000000000
7.965477466583252 2.047417402267456 1.495736122131348 0.000000000000000
18.344589233398438 4.653874874114990 -0.991117775440216 0.003921568859369
18.312734603881836 4.575383663177490 -0.988124072551727 0.003921568859369
18.242485046386719 4.493674278259277 -0.983517646789551 0.003921568859369
9.088973045349121 2.235121726989746 1.700818538665771 0.000000000000000
17.993490219116211 4.362451553344727 0.322224348783493 0.003921568859369
18.231658935546875 4.420298576354980 -0.982052206993103 0.003921568859369
3.731479167938232 1.279483199119568 -0.251212030649185 0.000000000000000
18.229919433593750 4.359369754791260 -0.981215000152588 0.003921568859369
11.925745010375977 2.241287469863892 -0.423057824373245 0.000000000000000
18.234111785888672 4.289890289306641 -0.980587124824524 0.003921568859369
6.565935134887695 1.881495714187622 0.834767758846283 0.000000000000000
8.427721023559570 1.978918313980103 0.703984141349792 0.000000000000000
18.221735000610352 4.220006942749023 -0.979121685028076 0.003921568859369
10.246204376220703 1.812433600425720 0.120455369353294 0.000000000000000
18.232460021972656 4.155587673187256 -0.978912591934204 0.003921568859369
5.868311405181885 1.332822203636169 0.488565474748611 0.000000000000000
8.311804771423340 2.321614503860474 2.304220438003540 0.000000000000000
10.699082374572754 2.398504018783569 0.445162802934647 0.000000000000000
18.242242813110352 4.094332218170166 -0.978703498840332 0.003921568859369
18.294462203979492 3.108946800231934 -0.216128349304199 0.003921568859369
18.253227233886719 4.026697635650635 -0.978494465351105 0.003921568859369
18.270381927490234 3.967090129852295 -0.978704154491425 0.003921568859369
4.046502113342285 0.654829919338226 -0.237222880125046 0.000000000000000
18.273080825805664 3.897710323333740 -0.978076279163361 0.003921568859369
18.294395446777344 3.835645437240601 -0.978495419025421 0.003921568859369
18.337352752685547 3.775943279266357 -0.979689896106720 0.003921568859369
4.107961654663086 1.048933744430542 0.515420138835907 0.000000000000000
13.983421325683594 2.877409934997559 1.161700248718262 0.000000000000000
18.353691101074219 3.716046571731567 -0.979899764060974 0.003921568859369
9.744253158569336 1.933816194534302 0.172275438904762 0.000000000000000
6.717946529388428 2.025019645690918 -0.447568237781525 0.000000000000000
18.679210662841797 4.671524047851562 -0.895665526390076 0.000000000000000
18.370468139648438 3.652883291244507 -0.980109572410583 0.003921568859369
18.629461288452148 4.590147018432617 -0.892500698566437 0.000000000000000
18.441907882690430 3.600378274917603 -0.983251154422760 0.003921568859369
11.500861167907715 1.627078056335449 0.134290143847466 0.000000000000000
8.576456069946289 2.077765464782715 0.511211872100830 0.000000000000000
18.574701309204102 4.511463165283203 -0.889149606227875 0.000000000000000
18.485128402709961 3.545364379882812 -0.984926819801331 0.003921568859369
11.475051879882812 1.580684065818787 0.133918002247810 0.000000000000000
10.152900695800781 2.422267436981201 0.605136156082153 0.000000000000000
18.548366546630859 4.433267116546631 -0.887101948261261 0.000000000000000
18.764928817749023 3.528035879135132 -0.999167561531067 0.003921568859369
9.830304145812988 1.810998201370239 -0.058298923075199 0.000000000000000
7.808827877044678 2.239353179931641 0.234887436032295 0.000000000000000
18.508522033691406 4.359022617340088 -0.884495675563812 0.000000000000000
8.889466285705566 2.056047439575195 0.528647720813751 0.000000000000000
18.488597869873047 4.286386966705322 -0.882820367813110 0.000000000000000
13.066253662109375 2.976236820220947 0.777639985084534 0.000000000000000
18.473022460937500 4.211627006530762 -0.881331264972687 0.000000000000000
4.380021095275879 0.770694673061371 0.803235709667206 0.000000000000000
2.796767950057983 0.629793107509613 -0.066095843911171 0.000000000000000
13.479350090026855 2.338331937789917 0.555233776569366 0.000000000000000
18.491508483886719 4.148139953613281 -0.881517946720123 0.000000000000000
8.549809455871582 1.913065075874329 -0.203359052538872 0.000000000000000
9.078579902648926 1.089021444320679 0.105557069182396 0.000000000000000
18.509777069091797 4.084567070007324 -0.881704509258270 0.000000000000000
18.511507034301758 4.020752906799316 -0.881146371364594 0.000000000000000
18.555103302001953 3.960471391677856 -0.882226109504700 0.000000000000000
8.728752136230469 1.825715184211731 -0.000518799934071 0.003921568859369
8.513418197631836 2.217118740081787 0.254087805747986 0.000000000000000
18.560995101928711 3.894213676452637 -0.881854236125946 0.000000000000000
14.499588966369629 3.039759635925293 1.812279343605042 0.000000000000000
12.960099220275879 2.017102718353271 0.227451473474503 0.000000000000000
18.594039916992188 3.833616733551025 -0.882785856723785 0.000000000000000
8.227426528930664 2.111723184585571 -0.344564229249954 0.000000000000000
18.630804061889648 3.773640871047974 -0.883903622627258 0.000000000000000
15.348400115966797 1.575657367706299 -0.537706971168518 0.003921568859369
18.686965942382812 3.717353582382202 -0.885952413082123 0.000000000000000
18.762567520141602 3.664560079574585 -0.888932406902313 0.000000000000000
8.696347236633301 1.693186879158020 1.081193923950195 0.000000000000000
14.812615394592285 3.596022844314575 0.441521495580673 0.000000000000000
18.829549789428711 3.613070487976074 -0.891539812088013 0.000000000000000
19.002397537231445 3.581199169158936 -0.899175107479095 0.000000000000000
4.335709095001221 0.594679772853851 -0.227139949798584 0.000000000000000
19.132165908813477 4.581298828125000 -0.800243079662323 0.003921568859369
13.171244621276855 2.431918859481812 -0.000620176841039 0.000000000000000
19.309440612792969 3.569633245468140 -0.913141608238220 0.000000000000000
10.606586456298828 0.791995108127594 -0.370221257209778 0.000000000000000
11.746336936950684 1.454839348793030 2.148248910903931 0.000000000000000
12.708270072937012 2.206992387771606 -0.299588024616241 0.000000000000000
15.681056976318359 2.614118576049805 4.242783546447754 0.003921568859369
5.711843490600586 0.904251813888550 -0.616992413997650 0.000000000000000
9.445670127868652 1.945378541946411 -0.614890217781067 0.000000000000000
8.191274642944336 1.274771332740784 2.204528808593750 0.000000000000000
6.029411792755127 1.215523481369019 -0.106869541108608 0.000000000000000
3.577989578247070 0.364172518253326 -0.021035265177488 0.000000000000000
15.856223106384277 2.420077562332153 0.371019005775452 0.000000000000000
13.433939933776855 1.332648992538452 1.096363067626953 0.000000000000000
12.682235717773438 2.474138021469116 -0.825015187263489 0.000000000000000
9.863507270812988 0.942323148250580 0.400553524494171 0.000000000000000
9.718639373779297 1.407340645790100 2.614455699920654 0.000000000000000
8.610701560974121 1.185001611709595 2.312185287475586 0.000000000000000
7.579236030578613 0.277134805917740 0.086991205811501 0.000000000000000
12.704339981079102 1.086342692375183 0.220769733190536 0.000000000000000
20.309503555297852 2.741593599319458 1.189047574996948 0.003921568859369
11.190388679504395 0.917149484157562 -0.325694084167480 0.000000000000000
12.769548416137695 1.581886887550354 3.427976131439209 0.000000000000000
17.096212387084961 2.913518667221069 0.501690566539764 0.003921568859369
8.295540809631348 0.937236905097961 0.191902667284012 0.000000000000000
9.283062934875488 0.595902919769287 -0.484543442726135 0.000000000000000
13.084458351135254 0.841767907142639 1.063700437545776 0.000000000000000
18.983537673950195 1.163675546646118 0.770909905433655 0.003921568859369
9.948883056640625 0.573203682899475 0.171937420964241 0.000000000000000
10.857345581054688 1.116768836975098 -0.000798739958555 0.003921568859369
23.362812042236328 3.406573772430420 0.135616809129715 0.003921568859369
10.497646331787109 0.495548605918884 0.181413322687149 0.000000000000000
6.093543052673340 0.582152903079987 1.620596647262573 0.000000000000000
15.200201034545898 0.663458168506622 -0.088957764208317 0.000000000000000
9.970128059387207 0.329996109008789 0.171825274825096 0.000000000000000
7.096939563751221 0.901413798332214 -0.454105049371719 0.000000000000000
17.783508300781250 -0.395207166671753 -0.207318410277367 0.003921568859369
13.941262245178223 1.682446479797363 -0.244729995727539 0.000000000000000
9.668140411376953 0.690770447254181 1.179312229156494 0.000000000000000
6.737849235534668 -0.193909838795662 -0.078295789659023 0.000000000000000
8.927341461181641 0.576909244060516 0.515430808067322 0.000000000000000
13.799189567565918 0.894568622112274 3.682489395141602 0.000000000000000
19.684158325195312 1.137532830238342 -0.001241005724296 0.003921568859369
19.161449432373047 0.173525288701057 0.331835269927979 0.003921568859369
9.280497550964355 0.533853590488434 1.130578041076660 0.000000000000000
14.264653205871582 0.081977099180222 -0.083480954170227 0.000000000000000
14.502910614013672 -0.621812820434570 -0.505145549774170 0.000000000000000
14.912479400634766 0.085703387856483 2.703096151351929 0.000000000000000
16.885879516601562 1.683579683303833 0.490379512310028 0.003921568859369
12.755181312561035 0.026801817119122 0.220237806439400 0.000000000000000
6.731616497039795 -0.009117030538619 0.270182669162750 0.000000000000000
18.450412750244141 -0.025318188592792 3.347974300384521 0.003921568859369
14.962920188903809 0.605438888072968 -0.347543329000473 0.000000000000000
10.367527008056641 0.886657893657684 -0.181046769022942 0.000000000000000
15.724210739135742 0.581771433353424 -0.365255326032639 0.000000000000000
17.325984954833984 1.426404833793640 -0.705857515335083 0.003921568859369
10.530512809753418 0.315556675195694 -0.001017834292725 0.003921568859369
9.557469367980957 -0.176561772823334 -0.056007128208876 0.000000000000000
13.270952224731445 0.398368537425995 0.766768217086792 0.000000000000000
