# This PCD file was generated using the MATLAB® pcwrite function
# from Computer Vision Toolbox®.
# .PCD v.7 - Point Cloud Data file format
VERSION .7
FIELDS x y z intensity
SIZE 8 8 8 8
TYPE F F F F
COUNT 1 1 1 1
WIDTH 643
HEIGHT 1
VIEWPOINT 0 0 0 1 0 0 0
POINTS 643
DATA ascii
1.205132722854614 0.088570937514305 0.068831078708172 0.003921568859369
1.125759959220886 0.078946337103844 0.064179971814156 0.003921568859369
2.665118455886841 -0.078059740364552 -0.030738186091185 0.000000000000000
1.130012512207031 0.075380139052868 0.064412526786327 0.003921568859369
1.142235875129700 0.072106957435608 0.065110191702843 0.003921568859369
13.261522293090820 0.812812864780426 -0.000007980535884 0.000000000000000
7.339818477630615 0.091214165091515 0.297970712184906 0.000000000000000
29.457937240600586 0.058631543070078 -0.856552302837372 0.003921568859369
2.718403100967407 0.005425972864032 -0.015651442110538 0.000000000000000
12.724494934082031 0.025336027145386 0.221637994050980 0.000000000000000
6.212461948394775 0.012378836981952 1.127865076065063 0.000000000000000
29.497728347778320 -0.043861828744411 -0.857601046562195 0.003921568859369
7.552062511444092 0.726278722286224 0.219916522502899 0.000000000000000
29.529382705688477 -0.146875396370888 -0.858531892299652 0.003921568859369
29.844453811645508 -0.262922137975693 -0.867724478244781 0.003921568859369
14.410696983337402 0.576297938823700 -0.000009253845747 0.000000000000000
7.766909122467041 0.310084640979767 0.450918495655060 0.000000000000000
16.770980834960938 0.670874297618866 2.057144880294800 0.003921568859369
8.682438850402832 -0.103427328169346 0.352517336606979 0.000000000000000
9.273188591003418 -0.110493928194046 1.685341954231262 0.000000000000000
7.090766906738281 -0.158348873257637 -0.370127350091934 0.000000000000000
13.418861389160156 0.913897216320038 0.077986694872379 0.000000000000000
7.659979820251465 0.120546191930771 0.936923921108246 0.000000000000000
8.449604034423828 -0.278547167778015 0.687684953212738 0.000000000000000
10.267177581787109 -0.370896637439728 -0.298127770423889 0.000000000000000
17.049594879150391 -0.676178872585297 -0.495711982250214 0.000000000000000
4.639731884002686 -0.199780955910683 -0.134173303842545 0.000000000000000
2.821975946426392 0.015424098819494 -0.000007446121799 0.000000000000000
4.284179687500000 -0.184351414442062 -0.222958892583847 0.000000000000000
6.996035099029541 -0.643901824951172 -0.244164973497391 0.000000000000000
13.282929420471191 -0.574861466884613 2.417882680892944 0.000000000000000
10.166723251342773 -0.972876489162445 0.118497572839260 0.000000000000000
11.183786392211914 0.528852105140686 -0.194848313927650 0.000000000000000
14.096253395080566 0.666972279548645 0.409700691699982 0.000000000000000
8.498740196228027 -0.129169911146164 -0.197000965476036 0.000000000000000
7.588813781738281 -0.564624845981598 -0.044039323925972 0.000000000000000
10.436425209045410 -0.267738878726959 1.277669191360474 0.000000000000000
10.317147254943848 -0.802864551544189 0.180030256509781 0.000000000000000
11.685879707336426 -0.909740447998047 2.130893230438232 0.000000000000000
8.850958824157715 -0.286985099315643 -0.205282658338547 0.000000000000000
13.543147087097168 0.126377135515213 -0.235758185386658 0.000000000000000
4.257309436798096 -0.181493744254112 -0.196742117404938 0.000000000000000
3.133733987808228 0.007432555779815 0.017985338345170 0.000000000000000
8.785080909729004 -0.437552422285080 1.075365662574768 0.000000000000000
8.485562324523926 -0.038867849856615 0.049089346081018 0.000000000000000
17.184959411621094 -1.761086702346802 0.300868511199951 0.003921568859369
6.867029666900635 -0.701331317424774 0.560429632663727 0.000000000000000
8.265385627746582 -0.066573187708855 0.047810800373554 0.000000000000000
14.394985198974609 -1.525189757347107 2.632406949996948 0.000000000000000
12.051239967346191 -0.727156877517700 3.224875211715698 0.000000000000000
7.240853786468506 -0.108564570546150 0.041859686374664 0.000000000000000
8.747434616088867 -0.707033395767212 -0.406878501176834 0.000000000000000
11.203745841979980 -0.437227696180344 -0.455118626356125 0.000000000000000
10.846775054931641 -1.143898367881775 0.632774472236633 0.000000000000000
13.712760925292969 -0.820182204246521 0.079588301479816 0.000000000000000
3.758549690246582 -0.778689801692963 -0.132626965641975 0.000000000000000
8.389580726623535 -0.559298753738403 -0.146052062511444 0.000000000000000
11.694524765014648 -1.936068892478943 0.964321374893188 0.000000000000000
12.503757476806641 -0.965752780437469 0.072613403201103 0.000000000000000
21.753087997436523 -3.918684005737305 1.800745606422424 0.003921568859369
6.581882953643799 -0.598564445972443 0.038138717412949 0.000000000000000
14.084622383117676 -1.285743236541748 0.410280346870422 0.000000000000000
13.442643165588379 -1.321321368217468 0.391778975725174 0.000000000000000
17.626363754272461 -1.795970559120178 0.514307320117950 0.003921568859369
9.609934806823730 -2.002058267593384 0.398106545209885 0.000000000000000
8.040398597717285 -1.269482493400574 -0.377098917961121 0.000000000000000
8.388013839721680 -1.746269345283508 1.554041385650635 0.000000000000000
4.963620662689209 -1.300405263900757 -0.059193797409534 0.000000000000000
16.454891204833984 -3.613683938980103 3.062890052795410 0.003921568859369
4.015309810638428 -0.686557173728943 0.234405890107155 0.000000000000000
7.883541107177734 -1.783050179481506 0.140236377716064 0.000000000000000
6.432520389556885 -1.476240515708923 -0.038090556859970 0.000000000000000
23.722846984863281 -4.354447364807129 6.449756145477295 0.003921568859369
21.765958786010742 -5.102530479431152 4.067354202270508 0.003921568859369
13.831774711608887 -2.634677171707153 0.817189574241638 0.000000000000000
7.008729457855225 -1.005562663078308 0.040857955813408 0.000000000000000
9.869917869567871 -2.967291593551636 -0.119448482990265 0.000000000000000
11.145954132080078 -2.239913702011108 3.033347368240356 0.000000000000000
7.807083129882812 -1.593258857727051 -0.000116823342978 0.000000000000000
6.802908420562744 -1.734460353851318 1.270539879798889 0.000000000000000
23.810850143432617 -5.055065631866455 2.982132911682129 0.003921568859369
11.259499549865723 -3.005185842514038 0.472545057535172 0.000000000000000
23.696052551269531 -5.116969108581543 2.969947099685669 0.003921568859369
14.570437431335449 -3.248145818710327 1.826402783393860 0.000000000000000
15.489345550537109 -4.255279541015625 2.919222593307495 0.003921568859369
6.402969360351562 -1.443947792053223 -0.000105179235106 0.000000000000000
4.519735336303711 -1.504114151000977 -0.164676204323769 0.000000000000000
11.300539016723633 -2.640472650527954 1.418411850929260 0.000000000000000
6.881026268005371 -1.254533648490906 -0.282942801713943 0.000000000000000
8.613636016845703 -1.631677746772766 -0.152238577604294 0.000000000000000
14.864395141601562 -5.155468940734863 0.182396709918976 0.000000000000000
23.964368820190430 -5.781213760375977 6.591346740722656 0.003921568859369
1.328048586845398 -0.316535621881485 0.076153241097927 0.003921568859369
1.319136857986450 -0.319232195615768 0.075688272714615 0.003921568859369
11.561896324157715 -2.997072458267212 -0.276966363191605 0.000000000000000
16.228870391845703 -5.189579963684082 3.096207380294800 0.003921568859369
16.280635833740234 -6.163272857666016 0.201619237661362 0.003921568859369
9.546334266662598 -2.086553812026978 -0.396117776632309 0.000000000000000
15.335900306701660 -5.865473270416260 -0.571919202804565 0.003921568859369
9.969244956970215 -2.730499267578125 2.754578351974487 0.000000000000000
16.150199890136719 -5.291646957397461 3.088316202163696 0.003921568859369
7.109121799468994 -2.734020471572876 -0.088294595479965 0.000000000000000
16.146646499633789 -5.349666595458984 1.383756518363953 0.000000000000000
15.327546119689941 -5.920441627502441 -0.572338163852692 0.003921568859369
15.934655189514160 -5.279179096221924 3.050293922424316 0.003921568859369
16.066247940063477 -6.274442195892334 0.199759736657143 0.003921568859369
16.255395889282227 -5.451839923858643 1.394819378852844 0.000000000000000
15.261078834533691 -5.958865165710449 -0.570662081241608 0.003921568859369
15.877902030944824 -5.324784278869629 3.043119668960571 0.003921568859369
13.349954605102539 -5.258055686950684 0.166054487228394 0.000000000000000
6.231354713439941 -1.445967197418213 0.184332281351089 0.000000000000000
13.197804450988770 -5.250990867614746 -0.165108352899551 0.000000000000000
16.042854309082031 -6.387901306152344 0.199992269277573 0.003921568859369
16.404201507568359 -6.603509426116943 -0.205867454409599 0.003921568859369
15.676685333251953 -5.438342571258545 3.014204740524292 0.003921568859369
14.960699081420898 -6.080825328826904 -0.937815308570862 0.003921568859369
15.342115402221680 -5.381702899932861 2.953228950500488 0.003921568859369
17.537790298461914 -5.276998043060303 -0.000675720977597 0.003921568859369
16.054487228393555 -6.592454910278320 0.200741872191429 0.003921568859369
14.991066932678223 -6.154103279113770 -0.941072642803192 0.003921568859369
15.734724044799805 -5.581551074981689 3.032855987548828 0.003921568859369
13.027523040771484 -5.392428398132324 -0.164042532444000 0.000000000000000
16.129718780517578 -6.682601451873779 0.201949611306190 0.003921568859369
15.126515388488770 -6.265379905700684 -0.950844764709473 0.003921568859369
15.520854949951172 -5.560175895690918 2.994835853576660 0.003921568859369
16.230476379394531 -6.794127941131592 -0.204840257763863 0.003921568859369
6.515907287597656 -1.656169056892395 0.038388643413782 0.000000000000000
15.060886383056641 -5.456911563873291 0.277999550104141 0.000000000000000
14.271650314331055 -5.169777870178223 1.233875393867493 0.000000000000000
14.618552207946777 -6.116803646087646 -0.552017450332642 0.003921568859369
13.238979339599609 -5.591311454772949 -0.167216613888741 0.000000000000000
13.474635124206543 -5.691301822662354 0.169063642621040 0.000000000000000
15.094295501708984 -5.528563022613525 0.278975248336792 0.003921568859369
16.055166244506836 -6.848922729492188 -0.203206345438957 0.003921568859369
11.353676795959473 -2.979647159576416 0.339408040046692 0.000000000000000
13.728055953979492 -5.077616214752197 2.657675504684448 0.000000000000000
13.255681991577148 -5.704689025878906 -0.167916655540466 0.000000000000000
15.263251304626465 -5.772132873535156 -0.473864138126373 0.000000000000000
13.659873962402344 -5.938701629638672 -0.173331394791603 0.000000000000000
15.223483085632324 -5.757032394409180 0.660142540931702 0.003921568859369
14.581973075866699 -5.513448238372803 1.267385721206665 0.000000000000000
13.775963783264160 -5.262252807617188 0.255836725234985 0.000000000000000
14.484473228454590 -5.534110069274902 1.260553479194641 0.000000000000000
16.709341049194336 -6.454556941986084 -0.104442708194256 0.000000000000000
13.640016555786133 -6.043254375457764 0.172454848885536 0.003921568859369
15.033865928649902 -5.804953575134277 0.653634011745453 0.003921568859369
14.638648033142090 -4.846858024597168 4.115664958953857 0.000000000000000
14.902379035949707 -5.753973007202148 2.901578664779663 0.003921568859369
14.917661666870117 -5.813655376434326 0.277860224246979 0.000000000000000
15.118091583251953 -6.757842063903809 -0.961779713630676 0.003921568859369
14.536554336547852 -5.664515495300293 1.268361687660217 0.000000000000000
14.893881797790527 -5.862480163574219 0.277507424354553 0.000000000000000
14.880201339721680 -6.711427211761475 -0.948035895824432 0.003921568859369
14.361001014709473 -6.476214408874512 -0.548874258995056 0.003921568859369
15.816013336181641 -5.417678356170654 4.462224960327148 0.003921568859369
16.422510147094727 -6.602569580078125 -0.103411696851254 0.000000000000000
15.840796470642090 -5.487859249114990 4.474646091461182 0.003921568859369
15.200978279113770 -6.171019554138184 -0.857473969459534 0.003921568859369
14.877453804016113 -5.210760116577148 1.927159309387207 0.000000000000000
15.974624633789062 -5.596745967864990 4.518121719360352 0.003921568859369
14.575244903564453 -5.915891170501709 2.856174707412720 0.000000000000000
13.286852836608887 -5.441791057586670 0.248810321092606 0.000000000000000
16.792692184448242 -6.884775638580322 0.736057698726654 0.003921568859369
13.229236602783203 -4.680035591125488 3.742812395095825 0.000000000000000
13.234601974487305 -5.420282363891602 2.595786809921265 0.000000000000000
14.000133514404297 -5.011715412139893 1.817511677742004 0.000000000000000
14.450477600097656 -6.038516044616699 -0.454854875802994 0.000000000000000
16.176538467407227 -6.763084411621094 0.304115474224091 0.003921568859369
15.723429679870605 -6.572876453399658 0.690997362136841 0.003921568859369
16.228532791137695 -6.784910202026367 1.430153608322144 0.000000000000000
14.456332206726074 -5.229755401611328 4.102000713348389 0.000000000000000
14.449888229370117 -6.948027133941650 -0.186800330877304 0.000000000000000
14.781245231628418 -7.108080387115479 0.189425200223923 0.003921568859369
13.636863708496094 -5.755572795867920 0.256542056798935 0.000000000000000
14.930223464965820 -6.304086208343506 0.656998693943024 0.003921568859369
14.287651062011719 -6.031569957733154 1.260345697402954 0.000000000000000
15.299119949340820 -6.460531711578369 3.016137838363647 0.003921568859369
16.004871368408203 -6.825590610504150 -0.101655974984169 0.000000000000000
15.048161506652832 -5.566525459289551 0.371106028556824 0.000000000000000
13.613013267517090 -5.801337242126465 0.256472468376160 0.000000000000000
14.121802330017090 -5.222351074218750 1.840415835380554 0.000000000000000
13.652248382568359 -5.818134307861328 2.694060325622559 0.003921568859369
4.936568737030029 -1.828121304512024 0.302616089582443 0.000000000000000
13.758722305297852 -5.139195442199707 1.795094728469849 0.000000000000000
16.962493896484375 -6.408994674682617 -0.000906545494217 0.003921568859369
14.341755867004395 -7.078020095825195 0.184692084789276 0.003921568859369
15.259452819824219 -7.533011436462402 -0.988525807857513 0.003921568859369
15.190546035766602 -6.599067687988281 0.671476960182190 0.003921568859369
13.074147224426270 -4.934139728546143 3.727285146713257 0.000000000000000
12.696463584899902 -6.317324161529541 0.163668975234032 0.000000000000000
13.526224136352539 -6.732329368591309 -0.526372134685516 0.000000000000000
13.024373054504395 -4.967072963714600 3.717969417572021 0.000000000000000
14.708504676818848 -6.508962631225586 -0.467302799224854 0.000000000000000
16.749799728393555 -6.460283756256104 -0.001132677192800 0.003921568859369
15.913287162780762 -7.044651031494141 -0.101883158087730 0.000000000000000
16.140731811523438 -6.224389553070068 1.002611517906189 0.000000000000000
15.453807830810547 -6.840352058410645 -0.883464157581329 0.003921568859369
14.881815910339355 -5.736804485321045 1.949363112449646 0.003921568859369
16.835170745849609 -6.560743331909180 -0.001138376188464 0.003921568859369
14.418610572814941 -7.302255153656006 -0.938706636428833 0.003921568859369
15.433480262756348 -6.895648479461670 -0.883673489093781 0.003921568859369
13.926306724548340 -5.422432899475098 1.826080679893494 0.000000000000000
15.069035530090332 -6.732070922851562 1.341128110885620 0.000000000000000
15.245844841003418 -5.938799858093262 4.365741252899170 0.003921568859369
13.834033012390137 -7.062323093414307 -0.181120187044144 0.000000000000000
15.975734710693359 -6.285329818725586 0.396891832351685 0.000000000000000
12.688163757324219 -6.474394798278809 0.164170846343040 0.003921568859369
15.804555892944336 -7.124977588653564 0.300406783819199 0.003921568859369
14.952115058898926 -7.635997772216797 -0.975248336791992 0.003921568859369
15.373394966125488 -6.047310829162598 4.408179759979248 0.003921568859369
14.894190788269043 -5.920866489410400 0.370427966117859 0.000000000000000
13.200690269470215 -6.798277854919434 0.171172782778740 0.000000000000000
16.019042968750000 -6.370128631591797 0.999126255512238 0.000000000000000
13.534348487854004 -6.971024513244629 -0.530489146709442 0.000000000000000
15.218365669250488 -6.050337791442871 4.369881153106689 0.003921568859369
13.861207962036133 -7.198345184326172 -0.907051563262939 0.000000000000000
14.046474456787109 -5.636105537414551 1.849470376968384 0.003921568859369
15.205383300781250 -6.103430271148682 4.371951103210449 0.003921568859369
13.238665580749512 -5.363881111145020 -0.000951950438321 0.000000000000000
14.141568183898926 -7.407287597656250 -0.186169356107712 0.000000000000000
13.514883995056152 -7.077413082122803 -0.531606853008270 0.003921568859369
15.176831245422363 -6.153313159942627 4.369881153106689 0.003921568859369
13.140813827514648 -6.084537029266357 2.627869844436646 0.000000000000000
14.457238197326660 -5.860219955444336 -0.362525910139084 0.000000000000000
14.066166877746582 -7.430108547210693 -0.185514390468597 0.000000000000000
13.461437225341797 -7.109093189239502 -0.884008526802063 0.000000000000000
15.043687820434570 -7.949029445648193 -0.593115627765656 0.003921568859369
15.183843612670898 -6.217769145965576 4.378161907196045 0.003921568859369
12.617286682128906 -5.894217491149902 2.526733160018921 0.000000000000000
14.473871231079102 -7.711110115051270 -0.191265508532524 0.003921568859369
12.731925010681152 -6.778585910797119 0.166258856654167 0.000000000000000
13.471744537353516 -7.174643516540527 -0.886335730552673 0.000000000000000
14.663267135620117 -6.917603492736816 0.656947731971741 0.003921568859369
15.030029296875000 -6.215641498565674 4.339864253997803 0.003921568859369
14.643965721130371 -7.867745876312256 -0.193883702158928 0.003921568859369
12.676509857177734 -6.805646419525146 0.165841847658157 0.000000000000000
12.960362434387207 -6.165605068206787 0.248476460576057 0.000000000000000
13.541494369506836 -7.272601127624512 -0.892619729042053 0.000000000000000
13.651095390319824 -7.331765174865723 -0.539993584156036 0.003921568859369
16.112623214721680 -6.797159671783447 -0.001109353615902 0.003921568859369
12.922475814819336 -6.202708721160889 -0.083899885416031 0.003921568859369
14.952129364013672 -6.305474758148193 0.375071167945862 0.003921568859369
14.050840377807617 -7.610702037811279 0.184297069907188 0.003921568859369
14.645361900329590 -7.934338092803955 -0.967565178871155 0.003921568859369
14.172718048095703 -6.806059837341309 1.277378320693970 0.000000000000000
13.807994842529297 -7.478514194488525 -0.547262430191040 0.003921568859369
13.350966453552246 -7.289943218231201 -0.177376851439476 0.003921568859369
14.157426834106445 -7.732593059539795 0.186059460043907 0.003921568859369
16.382572174072266 -6.054262638092041 0.505299448966980 0.003921568859369
13.653316497802734 -5.811200618743896 0.859478712081909 0.000000000000000
14.166006088256836 -6.863594055175781 0.637757599353790 0.000000000000000
13.735562324523926 -5.846383571624756 1.824132084846497 0.003921568859369
13.582530975341797 -6.579495429992676 1.225987076759338 0.000000000000000
15.977822303771973 -6.805644035339355 -0.403741747140884 0.000000000000000
14.658761024475098 -8.074166297912598 -0.195191830396652 0.003921568859369
16.757434844970703 -6.259748935699463 0.102462075650692 0.000000000000000
14.133848190307617 -7.783659934997559 0.186106204986572 0.003921568859369
14.708404541015625 -8.101648330688477 -0.975477933883667 0.003921568859369
14.212159156799316 -6.108767986297607 0.896191656589508 0.003921568859369
14.156084060668945 -6.084544658660889 1.883093357086182 0.000000000000000
14.838923454284668 -6.379487514495850 4.309846878051758 0.003921568859369
13.583206176757812 -7.538351535797119 -0.181324049830437 0.000000000000000
14.330677986145020 -7.955436229705811 0.188812032341957 0.003921568859369
14.530636787414551 -8.067023277282715 -0.965454638004303 0.003921568859369
13.826274871826172 -5.997342586517334 -0.350326746702194 0.000000000000000
15.259884834289551 -6.682547569274902 -0.001287710620090 0.003921568859369
13.450057983398438 -7.522333145141602 -0.179872825741768 0.000000000000000
13.502233505249023 -5.141658782958984 0.082418158650398 0.003921568859369
13.230441093444824 -7.398827552795410 0.174543157219887 0.000000000000000
16.237522125244141 -6.188979148864746 0.502400398254395 0.003921568859369
14.865094184875488 -6.508820056915283 0.939892530441284 0.000000000000000
13.526422500610352 -7.565280437469482 -0.540198504924774 0.003921568859369
13.984521865844727 -7.009071350097656 -0.454570949077606 0.000000000000000
12.944850921630859 -7.294513702392578 0.171068906784058 0.000000000000000
14.431214332580566 -7.234134674072266 0.279381006956100 0.003921568859369
14.264473915100098 -7.150119304656982 0.646166086196899 0.003921568859369
15.476803779602051 -6.839065074920654 -0.786376237869263 0.003921568859369
13.885703086853027 -6.959283351898193 -0.811796844005585 0.000000000000000
16.098190307617188 -6.261029243469238 0.499381154775620 0.003921568859369
14.313012123107910 -8.135701179504395 -0.956374406814575 0.003921568859369
14.649168014526367 -7.407855987548828 0.664864540100098 0.003921568859369
15.726302146911621 -7.015354633331299 -0.800353169441223 0.000000000000000
13.286190032958984 -5.921712875366211 1.776668071746826 0.000000000000000
14.861715316772461 -7.515876293182373 1.352946758270264 0.000000000000000
13.883452415466309 -7.957546710968018 -0.186797723174095 0.000000000000000
14.334996223449707 -8.217743873596191 -0.959865689277649 0.003921568859369
13.858727455139160 -7.069806575775146 2.823482513427734 0.003921568859369
14.184764862060547 -7.299364089965820 -0.093581072986126 0.000000000000000
13.557671546936035 -6.974981784820557 0.263797670602798 0.000000000000000
14.309674263000488 -8.269481658935547 -0.960097968578339 0.003921568859369
14.552348136901855 -7.489511489868164 -0.855598092079163 0.003921568859369
14.802212715148926 -6.728148460388184 4.337579250335693 0.003921568859369
16.294563293457031 -6.537660598754883 -0.306619435548782 0.003921568859369
13.490691184997559 -6.999810218811035 0.262963116168976 0.000000000000000
15.092756271362305 -7.835629940032959 -0.889130413532257 0.003921568859369
13.406275749206543 -6.146821022033691 1.801517963409424 0.003921568859369
14.803244590759277 -8.625090599060059 -0.597387552261353 0.003921568859369
13.438271522521973 -6.161564350128174 3.942191839218140 0.000000000000000
16.242010116577148 -6.582180023193359 -0.306059032678604 0.003921568859369
13.275807380676270 -7.792695045471191 -0.179682731628418 0.003921568859369
14.122840881347656 -7.392115116119385 -0.093509897589684 0.000000000000000
14.616364479064941 -7.651791572570801 -0.862513482570648 0.003921568859369
13.481927871704102 -6.238544464111328 1.814673662185669 0.000000000000000
14.728294372558594 -8.650038719177246 -0.595569133758545 0.003921568859369
13.571503639221191 -7.102001667022705 2.779731750488281 0.000000000000000
16.326202392578125 -6.682686805725098 -0.308090299367905 0.003921568859369
13.815747261047363 -7.291901588439941 -0.453985869884491 0.003921568859369
14.114620208740234 -7.450486660003662 -0.093626938760281 0.000000000000000
14.173189163208008 -8.388879776000977 0.189742714166641 0.003921568859369
16.765594482421875 -6.863354682922363 0.523883700370789 0.003921568859369
14.321817398071289 -8.477322578430176 -0.966847300529480 0.003921568859369
13.519644737243652 -8.000047683715820 -0.547606110572815 0.003921568859369
16.262145996093750 -6.722507953643799 -0.307319730520248 0.003921568859369
13.846612930297852 -7.370010852813721 -0.455851078033447 0.003921568859369
14.030603408813477 -8.370154380798340 -0.190726146101952 0.003921568859369
14.308044433593750 -6.744211673736572 0.365297764539719 0.003921568859369
14.980170249938965 -6.190145492553711 0.468492329120636 0.003921568859369
14.281863212585449 -8.520846366882324 -0.966148316860199 0.003921568859369
14.944065093994141 -7.957252979278564 0.685841381549835 0.003921568859369
15.051570892333984 -6.219797134399414 -0.662026822566986 0.003921568859369
13.558073043823242 -6.388860225677490 3.997049808502197 0.000000000000000
13.691891670227051 -7.345415115356445 -0.451536536216736 0.000000000000000
14.000208854675293 -7.511711120605469 -0.093203447759151 0.000000000000000
15.984679222106934 -6.669232368469238 0.500775039196014 0.003921568859369
14.132730484008789 -5.892972946166992 -0.978223741054535 0.000000000000000
14.253529548645020 -8.567916870117188 -0.966147720813751 0.003921568859369
14.716095924377441 -7.897851467132568 -0.873200774192810 0.003921568859369
14.430049896240234 -6.017596721649170 -0.635446906089783 0.000000000000000
13.351968765258789 -8.023166656494141 -0.542990565299988 0.003921568859369
13.634427070617676 -6.480187416076660 4.026031494140625 0.000000000000000
13.965223312377930 -7.492815971374512 2.876560688018799 0.003921568859369
13.619220733642578 -7.370437622070312 -0.450020343065262 0.000000000000000
12.848051071166992 -7.782740116119385 -0.175328329205513 0.000000000000000
13.680727958679199 -6.563702106475830 0.350354939699173 0.000000000000000
12.281056404113770 -7.437300682067871 0.165282070636749 0.000000000000000
13.688466072082520 -5.765512943267822 0.429126262664795 0.000000000000000
14.012876510620117 -7.584626674652100 0.275766611099243 0.000000000000000
14.215209960937500 -8.615677833557129 -0.965681552886963 0.003921568859369
13.874279975891113 -7.509204864501953 1.281400918960571 0.000000000000000
15.037224769592285 -6.336681365966797 -0.663331151008606 0.003921568859369
13.322472572326660 -8.071781158447266 -0.542990028858185 0.003921568859369
16.007358551025391 -6.811409473419189 -0.303974688053131 0.003921568859369
12.773721694946289 -7.795838356018066 -0.174826607108116 0.003921568859369
14.392764091491699 -8.789977073669434 0.194065511226654 0.003921568859369
12.605360984802246 -6.873306751251221 0.248089626431465 0.000000000000000
14.161863327026367 -8.648213386535645 -0.964035868644714 0.003921568859369
14.551177978515625 -7.940885543823242 -0.866711616516113 0.003921568859369
14.817297935485840 -7.173466205596924 2.011302947998047 0.003921568859369
13.838058471679688 -7.549612522125244 1.279890537261963 0.000000000000000
13.277814865112305 -8.105374336242676 -0.542357206344604 0.003921568859369
12.882476806640625 -7.924301624298096 -0.176699489355087 0.000000000000000
14.392603874206543 -8.858837127685547 0.194482848048210 0.003921568859369
14.124798774719238 -8.693123817443848 -0.963569462299347 0.003921568859369
13.826377868652344 -6.750667572021484 1.879271626472473 0.000000000000000
13.246042251586914 -8.149299621582031 -0.542216658592224 0.003921568859369
13.681516647338867 -7.587786674499512 -0.454774975776672 0.000000000000000
12.844554901123047 -7.962602615356445 -0.176558300852776 0.000000000000000
13.923796653747559 -8.635706901550293 0.188512146472931 0.003921568859369
13.525094032287598 -5.861390113830566 0.425558477640152 0.000000000000000
14.237666130065918 -6.171987533569336 -0.630762934684753 0.000000000000000
13.207340240478516 -8.188873291015625 -0.541796326637268 0.003921568859369
13.621711730957031 -6.708939075469971 4.048598766326904 0.003921568859369
14.514962196350098 -8.052617073059082 3.012620210647583 0.003921568859369
14.108002662658691 -7.890004158020020 -0.469937354326248 0.000000000000000
12.755727767944336 -7.968808174133301 -0.175714537501335 0.000000000000000
14.427512168884277 -8.069676399230957 -0.097176074981689 0.003921568859369
13.608820915222168 -7.609269142150879 1.265909194946289 0.003921568859369
13.219287872314453 -8.260183334350586 -0.543474137783051 0.003921568859369
14.442174911499023 -8.077887535095215 3.003297328948975 0.003921568859369
16.176355361938477 -7.144444942474365 -0.309020370244980 0.003921568859369
12.625861167907715 -7.942286968231201 -0.174261942505836 0.000000000000000
13.138744354248047 -7.399042606353760 -0.088636554777622 0.000000000000000
14.210942268371582 -8.945538520812988 0.193235203623772 0.003921568859369
13.952962875366211 -6.157722949981689 -0.974331676959991 0.000000000000000
14.807312011718750 -8.415742874145508 -0.495246648788452 0.000000000000000
13.208783149719238 -7.502426147460938 -0.089294642210007 0.000000000000000
12.589944839477539 -7.983931064605713 0.171432957053185 0.000000000000000
14.224493026733398 -8.082743644714355 0.282928556203842 0.003921568859369
14.815086364746094 -7.490065097808838 0.961283087730408 0.003921568859369
14.428570747375488 -7.293637752532959 -0.751364767551422 0.000000000000000
14.545365333557129 -6.484201431274414 -0.647399425506592 0.000000000000000
14.115860939025879 -7.134705066680908 -0.367885768413544 0.000000000000000
13.161715507507324 -7.536240100860596 -0.089152961969376 0.003921568859369
13.934617042541504 -8.910162925720215 0.190320476889610 0.003921568859369
12.796075820922852 -7.325633525848389 0.254837334156036 0.000000000000000
14.927438735961914 -7.612509727478027 0.970342457294464 0.000000000000000
14.276705741882324 -8.178448677062988 0.666117846965790 0.003921568859369
14.385244369506836 -7.334574699401855 -0.750432312488556 0.000000000000000
14.715634346008301 -6.621972084045410 -0.656043827533722 0.003921568859369
13.681153297424316 -7.895625591278076 -0.459204494953156 0.000000000000000
13.236977577209473 -7.637817382812500 -0.089834600687027 0.000000000000000
12.989632606506348 -7.494251251220703 0.259218543767929 0.000000000000000
14.887150764465332 -7.653971195220947 2.045409679412842 0.003921568859369
13.453495979309082 -6.912998676300049 4.033075332641602 0.000000000000000
13.662473678588867 -7.951492309570312 -0.459553807973862 0.000000000000000
13.667754173278809 -8.873291015625000 -0.190417826175690 0.003921568859369
12.956893920898438 -7.538497447967529 -0.088116832077503 0.000000000000000
14.407925605773926 -9.356555938720703 0.197728753089905 0.003921568859369
10.351583480834961 -5.357652664184570 3.103637695312500 0.000000000000000
12.830593109130859 -7.524465560913086 -0.087434098124504 0.003921568859369
12.883320808410645 -7.615962028503418 -0.087974525988102 0.000000000000000
13.123721122741699 -6.919573783874512 0.342268139123917 0.000000000000000
12.692057609558105 -8.362422943115234 0.174815952777863 0.000000000000000
14.101898193359375 -8.340698242187500 -0.856644034385681 0.003921568859369
13.684095382690430 -8.092189788818359 1.290952444076538 0.000000000000000
14.368699073791504 -8.563650131225586 -0.486378431320190 0.000000000000000
14.053602218627930 -8.374839782714844 -0.855385661125183 0.003921568859369
14.047082901000977 -7.468768596649170 1.943586111068726 0.000000000000000
14.251804351806641 -7.578201293945312 4.305284500122070 0.003921568859369
14.796394348144531 -8.890919685363770 -0.502114295959473 0.000000000000000
13.959244728088379 -7.485142707824707 -0.001653838204220 0.000000000000000
6.349359035491943 -4.218294620513916 -0.088952720165253 0.000000000000000
13.580862045288086 -7.281045436859131 0.891628205776215 0.003921568859369
13.333636283874512 -7.147664070129395 4.032874107360840 0.003921568859369
14.748193740844727 -8.931832313537598 -0.501530051231384 0.000000000000000
13.599210739135742 -7.351981639862061 -0.001623181859031 0.000000000000000
14.300150871276855 -6.855423927307129 0.457736909389496 0.000000000000000
13.976880073547363 -8.462114334106445 -0.854341208934784 0.003921568859369
13.233933448791504 -7.153266906738281 4.010105133056641 0.000000000000000
13.343711853027344 -8.076460838317871 2.829532861709595 0.000000000000000
13.386622428894043 -7.290614604949951 -0.001605583587661 0.000000000000000
13.476271629333496 -9.144464492797852 -0.190484672784805 0.003921568859369
13.977749824523926 -8.522571563720703 1.329112052917480 0.000000000000000
12.909825325012207 -7.029302120208740 3.917993307113647 0.000000000000000
15.019026756286621 -9.161164283752441 3.193136692047119 0.003921568859369
14.000212669372559 -7.626843452453613 -0.370986640453339 0.000000000000000
13.558038711547852 -8.333318710327148 -0.462791889905930 0.000000000000000
14.346014976501465 -8.820567131042480 -0.099198959767818 0.000000000000000
14.315990447998047 -7.867837905883789 0.945509552955627 0.003921568859369
14.459188461303711 -8.012647628784180 -0.001706393435597 0.003921568859369
12.502686500549316 -6.922277927398682 0.329365819692612 0.000000000000000
13.541975021362305 -7.501470565795898 0.895810723304749 0.000000000000000
15.026564598083496 -9.313608169555664 3.208916187286377 0.003921568859369
14.626414299011230 -8.172515869140625 -0.001723489374854 0.003921568859369
14.043297767639160 -6.970448493957520 0.452516317367554 0.003921568859369
14.210679054260254 -8.873847961425781 -0.876142263412476 0.003921568859369
15.060609817504883 -9.407579421997070 3.223260641098022 0.003921568859369
13.581521987915039 -8.544550895690918 -0.466639727354050 0.000000000000000
12.363591194152832 -6.957579135894775 0.326955765485764 0.000000000000000
12.461683273315430 -7.835748672485352 0.595378935337067 0.000000000000000
15.670304298400879 -7.919190406799316 -0.307001441717148 0.003921568859369
13.436999320983887 -8.518520355224609 -0.462671905755997 0.000000000000000
13.617817878723145 -8.633845329284668 -0.094978034496307 0.000000000000000
13.693565368652344 -8.682153701782227 0.280152499675751 0.003921568859369
13.372523307800293 -7.590527057647705 0.889774262905121 0.000000000000000
13.825410842895508 -7.849192619323730 -0.369956552982330 0.000000000000000
13.796508789062500 -7.024595260620117 -0.270604789257050 0.000000000000000
13.401948928833008 -8.558441162109375 -0.462437748908997 0.000000000000000
14.743940353393555 -8.438384056091309 -0.789791107177734 0.000000000000000
13.967323303222656 -8.921707153320312 -0.866705060005188 0.003921568859369
10.907306671142578 -6.955559730529785 2.344733238220215 0.000000000000000
13.906747817993164 -7.956561565399170 -0.372850358486176 0.000000000000000
13.553940773010254 -6.962806701660156 -0.266326576471329 0.000000000000000
13.370491027832031 -8.607207298278809 -0.462436825037003 0.000000000000000
14.435274124145508 -9.296843528747559 0.695003807544708 0.003921568859369
14.780377388000488 -7.596664905548096 -0.675830841064453 0.003921568859369
5.891051292419434 -3.762747287750244 1.261094093322754 0.000000000000000
14.340941429138184 -8.276168823242188 -0.385361015796661 0.000000000000000
13.997690200805664 -7.253812789916992 -0.275582939386368 0.000000000000000
14.304641723632812 -7.413810253143311 0.091545656323433 0.000000000000000
12.032726287841797 -7.800084114074707 -0.084467381238937 0.000000000000000
13.286908149719238 -7.726143360137939 0.354408234357834 0.000000000000000
14.312368392944336 -9.287911415100098 0.690616846084595 0.003921568859369
14.207979202270508 -7.363430976867676 -0.650705754756927 0.000000000000000
13.614753723144531 -7.917970180511475 -0.366499930620193 0.000000000000000
12.646668434143066 -7.410554885864258 -0.001554050599225 0.003921568859369
14.923048973083496 -7.802164077758789 0.095719426870346 0.000000000000000
13.617302894592285 -7.115738868713379 -0.981703042984009 0.000000000000000
6.699388504028320 -4.352225780487061 -0.416151463985443 0.000000000000000
13.736381530761719 -8.053211212158203 1.944843530654907 0.003921568859369
12.145575523376465 -7.114965915679932 3.751368045806885 0.000000000000000
13.559778213500977 -7.140441417694092 -0.268003702163696 0.000000000000000
12.978469848632812 -6.832378387451172 0.083046749234200 0.000000000000000
13.702280998229980 -9.019804000854492 0.283208996057510 0.003921568859369
12.380296707153320 -8.144099235534668 0.599085688591003 0.000000000000000
14.557088851928711 -7.668962001800537 -0.669194400310516 0.003921568859369
13.903633117675781 -9.153119087219238 3.020091772079468 0.003921568859369
12.864207267761230 -7.654127597808838 -0.001778222387657 0.000000000000000
12.699542045593262 -7.555489540100098 0.340393155813217 0.000000000000000
14.346556663513184 -8.542013168334961 0.966199219226837 0.000000000000000
14.326403617858887 -9.504906654357910 0.695598244667053 0.003921568859369
13.594862937927246 -8.091783523559570 -0.368294894695282 0.000000000000000
14.407073974609375 -7.717990398406982 0.471567869186401 0.003921568859369
12.656633377075195 -8.454015731811523 0.262651681900024 0.000000000000000
5.942704200744629 -4.369091510772705 -0.426667153835297 0.000000000000000
14.253341674804688 -9.527795791625977 0.693649649620056 0.003921568859369
14.122434616088867 -8.474469184875488 2.011370658874512 0.003921568859369
13.747972488403320 -8.248434066772461 -0.373244702816010 0.003921568859369
13.648203849792480 -7.370251655578613 -0.991129875183105 0.000000000000000
13.548330307006836 -9.122086524963379 0.660667777061462 0.003921568859369
14.486198425292969 -8.762821197509766 2.067878246307373 0.003921568859369
2.709138631820679 -1.777637958526611 0.258006095886230 0.000000000000000
13.050703048706055 -7.948379039764404 -0.001803562394343 0.000000000000000
4.572130203247070 -3.061752080917358 -0.692376315593719 0.000000000000000
12.756743431091309 -6.940320491790771 0.082224860787392 0.003921568859369
13.808515548706055 -9.364932060241699 0.674966931343079 0.003921568859369
13.881400108337402 -8.457662582397461 -0.755694210529327 0.000000000000000
15.336813926696777 -8.353517532348633 -0.710478186607361 0.003921568859369
13.507411956787109 -8.228377342224121 -0.368199020624161 0.000000000000000
12.694845199584961 -7.793946743011475 -0.001768631744199 0.003921568859369
12.264152526855469 -6.728654861450195 0.403242886066437 0.003921568859369
10.501296043395996 -7.164064884185791 1.030463218688965 0.000000000000000
13.705579757690430 -7.584123611450195 -0.273964375257492 0.000000000000000
13.342144966125488 -7.381737709045410 0.439785003662109 0.000000000000000
13.981431961059570 -8.653041839599609 -0.764456927776337 0.000000000000000
14.824187278747559 -8.207016944885254 -0.689262628555298 0.003921568859369
13.592208862304688 -8.410660743713379 -0.372120320796967 0.000000000000000
12.909157752990723 -8.047568321228027 -0.001794964540750 0.003921568859369
13.977359771728516 -7.799111366271973 0.090719081461430 0.000000000000000
12.200636863708496 -6.801610946655273 0.402663975954056 0.000000000000000
13.493380546569824 -9.357162475585938 0.664246857166290 0.003921568859369
14.131969451904297 -8.814922332763672 2.034270286560059 0.003921568859369
13.275987625122070 -7.405353069305420 -0.618112802505493 0.000000000000000
4.677197456359863 -3.550204038619995 -0.203652709722519 0.000000000000000
13.583088874816895 -8.470511436462402 -0.372679889202118 0.000000000000000
13.179458618164062 -7.414398193359375 0.085660926997662 0.000000000000000
14.031884193420410 -8.823556900024414 0.382113248109818 0.003921568859369
13.451507568359375 -7.568463325500488 -0.986259162425995 0.000000000000000
9.120949745178223 -6.355052947998047 0.448638230562210 0.000000000000000
12.666934013366699 -7.959944725036621 1.826268672943115 0.000000000000000
13.297447204589844 -7.481219768524170 -0.620396733283997 0.000000000000000
13.613642692565918 -7.722752094268799 -0.273751795291901 0.003921568859369
9.920294761657715 -6.270404815673828 -0.001485750195570 0.003921568859369
12.328742980957031 -6.989226341247559 0.408581525087357 0.000000000000000
7.386069297790527 -4.167597770690918 -0.539982259273529 0.000000000000000
13.281662940979004 -7.533238887786865 -0.620885670185089 0.000000000000000
13.553290367126465 -7.747627735137939 -0.273049473762512 0.000000000000000
12.703017234802246 -8.103598594665527 -0.001779527286999 0.000000000000000
14.926410675048828 -8.537562370300293 -0.699540317058563 0.003921568859369
13.973854064941406 -8.988428115844727 0.383043199777603 0.000000000000000
13.230044364929199 -8.507024765014648 0.910015463829041 0.000000000000000
14.140253067016602 -9.096147537231445 -0.781794369220734 0.000000000000000
13.204319000244141 -8.552805900573730 0.909808874130249 0.000000000000000
8.024012565612793 -5.174416065216064 1.161685228347778 0.000000000000000
5.623813629150391 -4.007635593414307 0.556665897369385 0.000000000000000
13.234262466430664 -7.746047973632812 -0.268340468406677 0.000000000000000
12.373282432556152 -7.296557426452637 0.081120789051056 0.003921568859369
13.596269607543945 -8.943449974060059 0.374861359596252 0.003921568859369
14.613931655883789 -8.627538681030273 -0.690456688404083 0.003921568859369
14.135714530944824 -8.409931182861328 0.093027383089066 0.003921568859369
13.688048362731934 -9.072662353515625 0.378291010856628 0.000000000000000
7.340729713439941 -5.367608547210693 0.735132038593292 0.000000000000000
13.613150596618652 -9.091073036193848 0.377087622880936 0.000000000000000
12.816895484924316 -7.680772781372070 0.430659025907516 0.000000000000000
7.632205009460449 -5.624203681945801 1.714067935943604 0.000000000000000
13.739871025085449 -8.302937507629395 -0.280973851680756 0.000000000000000
12.788301467895508 -7.724123477935791 0.084413982927799 0.000000000000000
12.708022117614746 -7.675285339355469 0.427876740694046 0.000000000000000
12.935178756713867 -7.875025272369385 0.085580356419086 0.000000000000000
13.727272987365723 -8.422982215881348 -0.281884640455246 0.003921568859369
12.359091758728027 -8.432729721069336 1.826079964637756 0.000000000000000
14.340276718139648 -8.801601409912109 -0.684575617313385 0.003921568859369
8.760283470153809 -6.605380058288574 1.985849857330322 0.000000000000000
14.269368171691895 -8.822875022888184 0.483891695737839 0.003921568859369
13.729118347167969 -8.556241989135742 -0.283146262168884 0.003921568859369
12.795803070068359 -7.970749378204346 0.085194632411003 0.000000000000000
11.948239326477051 -8.272864341735840 0.840169608592987 0.000000000000000
13.717572212219238 -8.612112045288086 -0.283496290445328 0.003921568859369
12.705051422119141 -7.972243785858154 0.084761343896389 0.000000000000000
5.048157215118408 -4.263659954071045 -0.229506999254227 0.000000000000000
13.458036422729492 -8.513544082641602 -0.278721421957016 0.000000000000000
12.852586746215820 -8.127958297729492 0.085950724780560 0.000000000000000
12.890711784362793 -8.215690612792969 0.086182355880737 0.000000000000000
13.464617729187012 -8.650210380554199 -0.280263811349869 0.000000000000000
14.008489608764648 -9.067642211914062 0.481013596057892 0.003921568859369
14.070331573486328 -9.177610397338867 0.484260886907578 0.003921568859369
6.955865859985352 -5.002223968505859 1.041249632835388 0.000000000000000
13.553387641906738 -8.908960342407227 -0.284053176641464 0.003921568859369
13.373109817504883 -8.789613723754883 0.461192280054092 0.000000000000000
8.248375892639160 -5.990323543548584 0.587659597396851 0.000000000000000
14.047485351562500 -9.236014366149902 -0.684131205081940 0.003921568859369
3.272798538208008 -2.350767612457275 -0.277492970228195 0.000000000000000
13.488497734069824 -8.926633834838867 0.466178387403488 0.003921568859369
6.124568462371826 -5.445700168609619 -0.474648833274841 0.000000000000000
13.298108100891113 -8.866493225097656 -0.279906421899796 0.000000000000000
6.085803031921387 -4.499130725860596 -0.525365412235260 0.000000000000000
3.583930492401123 -2.897773027420044 -0.371403604745865 0.000000000000000
3.146920680999756 -2.341201782226562 -0.000964964332525 0.000000000000000
7.307661533355713 -6.113703727722168 0.770440280437469 0.000000000000000
5.280470371246338 -4.008922576904297 -0.459691584110260 0.000000000000000
5.948250293731689 -5.032425403594971 -0.983854174613953 0.000000000000000
17.315620422363281 -14.904140472412109 4.148828029632568 0.003921568859369
9.298126220703125 -8.077185630798340 0.997482538223267 0.000000000000000
15.483993530273438 -12.229990005493164 5.263572692871094 0.003921568859369
5.836308002471924 -4.594264030456543 0.426680475473404 0.000000000000000
4.245977878570557 -4.075222969055176 -0.068958245217800 0.000000000000000
9.876721382141113 -7.128478527069092 -0.495068192481995 0.000000000000000
5.855030059814453 -5.196719169616699 1.412659883499146 0.000000000000000
7.342811584472656 -7.263035297393799 -0.121180556714535 0.000000000000000
6.800032138824463 -6.092337608337402 0.737810313701630 0.000000000000000
8.521428108215332 -6.320191860198975 0.304664403200150 0.000000000000000
9.566563606262207 -7.855683326721191 1.508673667907715 0.000000000000000
4.056540012359619 -3.012599229812622 -0.088028386235237 0.000000000000000
5.909944534301758 -5.467728137969971 0.323377996683121 0.000000000000000
7.110155105590820 -5.450067043304443 -0.156751602888107 0.000000000000000
5.788076400756836 -5.390593528747559 -0.047152575105429 0.000000000000000
10.187510490417480 -9.561137199401855 0.240241125226021 0.000000000000000
6.385682106018066 -5.957060337066650 0.705184161663055 0.000000000000000
8.012283325195312 -7.498954296112061 1.985424041748047 0.000000000000000
7.838484764099121 -7.388350486755371 0.184784293174744 0.000000000000000
6.389925956726074 -6.044995307922363 0.710386693477631 0.000000000000000
2.533586978912354 -2.134250879287720 -0.227347016334534 0.000000000000000
2.538081169128418 -2.153297662734985 -0.228464588522911 0.000000000000000
15.032459259033203 -13.195655822753906 2.443536520004272 0.003921568859369
4.598506927490234 -4.030457019805908 1.616736769676208 0.000000000000000
4.881736755371094 -4.314556121826172 0.789240300655365 0.000000000000000
5.584928512573242 -5.535146713256836 1.419008731842041 0.000000000000000
5.857652664184570 -4.804242610931396 -0.132537364959717 0.000000000000000
5.516943454742432 -4.988108634948730 -0.001678993226960 0.000000000000000
14.673999786376953 -13.428770065307617 5.305576324462891 0.003921568859369
3.351561784744263 -3.012002706527710 0.256612867116928 0.000000000000000
6.556351661682129 -6.740693092346191 1.699227571487427 0.000000000000000
5.442480564117432 -5.128528118133545 0.170563757419586 0.000000000000000
4.789462089538574 -4.532547950744629 0.150115892291069 0.000000000000000
6.805912494659424 -6.483869075775146 0.541092395782471 0.000000000000000
6.485408306121826 -6.807874202728271 1.699233412742615 0.000000000000000
7.252835273742676 -6.964883804321289 -0.002009770367295 0.003921568859369
5.461185932159424 -5.755122184753418 0.640091359615326 0.000000000000000
10.823310852050781 -11.517194747924805 2.865751266479492 0.000000000000000
5.151007175445557 -6.025669574737549 -0.093183942139149 0.000000000000000
1.748299598693848 -1.461427450180054 0.062998458743095 0.000000000000000
4.074854373931885 -3.556298971176147 0.153695583343506 0.000000000000000
2.839685916900635 -2.720661640167236 0.223439663648605 0.000000000000000
5.625089168548584 -6.095370769500732 0.669217228889465 0.000000000000000
3.960901021957397 -4.405441761016846 -0.308237046003342 0.000000000000000
11.083781242370605 -11.379656791687012 1.938194632530212 0.000000000000000
9.309203147888184 -9.539321899414062 3.548409461975098 0.000000000000000
6.748935699462891 -6.287122249603271 0.264074444770813 0.000000000000000
7.338086605072021 -8.386005401611328 -0.066595554351807 0.000000000000000
4.170576572418213 -4.778236865997314 0.510346651077271 0.000000000000000
6.478552341461182 -7.547221183776855 -0.059476677328348 0.000000000000000
5.813388824462891 -6.124964237213135 0.485532522201538 0.000000000000000
7.072515010833740 -8.309525489807129 1.974440455436707 0.000000000000000
5.906966686248779 -6.308855533599854 0.197260305285454 0.000000000000000
11.112503051757812 -13.219759941101074 0.296928465366364 0.003921568859369
5.103129863739014 -5.996918201446533 0.315923511981964 0.000000000000000
4.558812618255615 -5.380825519561768 -0.042367573827505 0.000000000000000
4.402278900146484 -4.703076362609863 0.368958026170731 0.000000000000000
7.611986160278320 -9.141495704650879 -0.071203663945198 0.000000000000000
10.518165588378906 -12.684160232543945 2.988023519515991 0.003921568859369
6.004685878753662 -7.233214378356934 0.759443342685699 0.000000000000000
6.997157096862793 -8.451674461364746 1.985057115554810 0.000000000000000
9.821380615234375 -12.004924774169922 0.626022517681122 0.000000000000000
