# This PCD file was generated using the MATLAB® pcwrite function
# from Computer Vision Toolbox®.
# .PCD v.7 - Point Cloud Data file format
VERSION .7
FIELDS x y z intensity
SIZE 8 8 8 8
TYPE F F F F
COUNT 1 1 1 1
WIDTH 645
HEIGHT 1
VIEWPOINT 0 0 0 1 0 0 0
POINTS 645
DATA ascii
-21.384031295776367 4.450056076049805 -0.976249039173126 0.003921568859369
-19.001203536987305 4.889654159545898 -0.984957277774811 0.003921568859369
-25.089904785156250 6.509927749633789 2.081844091415405 0.003921568859369
-20.777311325073242 3.299517393112183 -0.819431543350220 0.003921568859369
-20.188558578491211 4.193898677825928 -0.453238099813461 0.003921568859369
-21.184097290039062 4.486105442047119 -0.967590510845184 0.003921568859369
-25.077426910400391 6.602697849273682 2.082810878753662 0.003921568859369
-20.370897293090820 3.307367086410522 -0.803327143192291 0.003921568859369
-20.173055648803711 4.265598297119141 -0.453248113393784 0.003921568859369
-21.075479507446289 4.533527851104736 -0.963173329830170 0.003921568859369
-19.240186691284180 5.092692852020264 -0.999724984169006 0.003921568859369
-20.210107803344727 3.347267866134644 -0.797211945056915 0.003921568859369
-20.178319931030273 4.334748268127441 -0.453714191913605 0.003921568859369
-25.232093811035156 8.143216133117676 0.316354513168335 0.003921568859369
-20.318126678466797 4.441480159759521 -0.928137600421906 0.003921568859369
-14.843176841735840 2.483854293823242 -0.578078866004944 0.000000000000000
-20.220813751220703 4.419604301452637 -0.455095112323761 0.003921568859369
-25.570224761962891 7.007011890411377 -0.739535748958588 0.003921568859369
-25.365705490112305 8.273766517639160 0.318362951278687 0.003921568859369
-9.983700752258301 2.142275094985962 0.567637383937836 0.000000000000000
-20.343025207519531 4.512253284454346 -0.929991066455841 0.003921568859369
-24.836618423461914 6.801450252532959 2.068050622940063 0.003921568859369
-20.280897140502930 4.498107910156250 -0.456840306520462 0.003921568859369
-11.667381286621094 2.008802175521851 -0.187173858284950 0.000000000000000
-25.231464385986328 8.334092140197754 0.317044138908386 0.003921568859369
-10.252404212951660 1.751415848731995 -0.619308829307556 0.000000000000000
-20.158212661743164 4.548994064331055 -0.922070443630219 0.003921568859369
-19.177606582641602 4.321148395538330 2.351932764053345 0.003921568859369
-19.465551376342773 3.426931858062744 -0.768232703208923 0.003921568859369
-20.302427291870117 4.582642078399658 -0.457765191793442 0.003921568859369
-8.393483161926270 1.441486358642578 0.053402107208967 0.000000000000000
-20.103324890136719 4.607975482940674 -0.920235812664032 0.003921568859369
-19.406312942504883 3.483953475952148 -0.766307294368744 0.003921568859369
-20.403057098388672 4.678937435150146 -0.460516929626465 0.003921568859369
-19.046226501464844 3.477144479751587 -0.315316110849380 0.003921568859369
-29.724349975585938 6.980464935302734 0.713044822216034 0.003921568859369
-25.183204650878906 8.499765396118164 0.317108690738678 0.003921568859369
-19.715738296508789 4.579702854156494 -0.902536630630493 0.000000000000000
-18.861145019531250 3.442160606384277 -0.744399785995483 0.003921568859369
-20.442699432373047 4.754126548767090 -0.461805671453476 0.003921568859369
-20.284837722778320 3.785537958145142 -0.803386330604553 0.003921568859369
-20.526153564453125 4.851375102996826 -0.464192777872086 0.003921568859369
-20.193729400634766 3.835361242294312 -0.800171971321106 0.003921568859369
-20.258613586425781 3.919309854507446 -0.803403794765472 0.003921568859369
-14.432469367980957 4.193613529205322 2.642383813858032 0.000000000000000
-26.116682052612305 6.495595932006836 1.547996878623962 0.003921568859369
-20.054136276245117 4.951333999633789 -0.922319769859314 0.003921568859369
-22.224376678466797 4.392106056213379 -0.885279774665833 0.003921568859369
-24.651767730712891 6.211986064910889 1.460623741149902 0.003921568859369
-7.254539489746094 1.716638326644897 -0.312832564115524 0.000000000000000
-22.251962661743164 4.476437568664551 -0.887062549591064 0.003921568859369
-24.243679046630859 6.194627761840820 1.437190055847168 0.003921568859369
-21.536127090454102 4.404595375061035 -0.858226895332336 0.003921568859369
-5.361776351928711 1.263068914413452 -0.222999662160873 0.000000000000000
-21.481540679931641 4.469250679016113 -0.856625378131866 0.003921568859369
-9.470269203186035 2.825793027877808 1.703963279724121 0.000000000000000
-19.253055572509766 5.029043197631836 -0.887497007846832 0.000000000000000
-21.496257781982422 4.552534580230713 -0.857925355434418 0.003921568859369
-6.864986896514893 2.020190477371216 1.205646514892578 0.000000000000000
-25.732433319091797 6.861960887908936 0.620853483676910 0.003921568859369
-19.252582550048828 5.091804027557373 -0.888244569301605 0.000000000000000
-21.552091598510742 4.633676528930664 -0.860835433006287 0.003921568859369
-11.783857345581055 3.094138145446777 1.432775616645813 0.000000000000000
-20.537561416625977 4.482214927673340 -0.819589257240295 0.003921568859369
-25.581680297851562 6.914346218109131 -0.588247060775757 0.003921568859369
-25.623579025268555 7.025125980377197 1.527989625930786 0.003921568859369
-19.438783645629883 5.287748813629150 -0.898966908454895 0.000000000000000
-20.392423629760742 4.525817394256592 -0.814281463623047 0.003921568859369
-9.903874397277832 3.107738256454468 1.795260190963745 0.000000000000000
-20.385095596313477 4.593208312988281 -0.814613401889801 0.003921568859369
-20.142518997192383 4.612381935119629 -0.805276513099670 0.003921568859369
-25.740276336669922 7.342701435089111 1.539654254913330 0.003921568859369
-20.114633560180664 4.677748680114746 -0.804803133010864 0.003921568859369
-19.978630065917969 4.713109016418457 -0.799816787242889 0.003921568859369
-20.429182052612305 4.898530006408691 -0.819655001163483 0.003921568859369
-4.127055168151855 1.445095896720886 -0.127607092261314 0.000000000000000
-20.372327804565430 4.961448669433594 -0.818054437637329 0.003921568859369
-20.393615722656250 5.040306568145752 -0.819676935672760 0.003921568859369
-7.786496639251709 3.004437685012817 -0.264971882104874 0.000000000000000
-24.158241271972656 7.327460289001465 1.451055884361267 0.003921568859369
-23.644256591796875 8.423539161682129 4.487994194030762 0.003921568859369
-26.405374526977539 8.125127792358398 0.644635200500488 0.003921568859369
-19.508253097534180 4.952149391174316 -0.784238874912262 0.003921568859369
-25.572927474975586 7.958959579467773 0.624643445014954 0.003921568859369
-19.494707107543945 5.019157886505127 -0.784410655498505 0.003921568859369
-24.537597656250000 7.716700077056885 1.479111671447754 0.003921568859369
-5.369463443756104 1.799294352531433 0.213868439197540 0.000000000000000
-6.361028671264648 1.595074892044067 -0.376691162586212 0.000000000000000
-10.647755622863770 3.357511520385742 0.008343719877303 0.003921568859369
-24.276079177856445 7.911658763885498 1.468058109283447 0.003921568859369
-8.021391868591309 2.480319738388062 2.104700803756714 0.000000000000000
-25.088104248046875 8.278153419494629 1.520025253295898 0.003921568859369
-25.593423843383789 7.198358535766602 0.165906369686127 0.003921568859369
-24.911863327026367 8.506567955017090 0.614000976085663 0.003921568859369
-24.524356842041016 7.170116424560547 0.159488096833229 0.003921568859369
-12.929168701171875 5.154025554656982 2.447963237762451 0.000000000000000
-24.487442016601562 7.428098678588867 0.159692853689194 0.003921568859369
-10.971428871154785 4.378970623016357 2.063289642333984 0.000000000000000
-4.861947059631348 1.853314757347107 0.855363845825195 0.000000000000000
-25.490812301635742 8.113348007202148 0.166867420077324 0.003921568859369
-25.425971984863281 8.284469604492188 0.166784852743149 0.003921568859369
-10.063919067382812 3.237432241439819 0.299812525510788 0.000000000000000
-4.422027111053467 1.341650962829590 0.029368316754699 0.000000000000000
-4.443720817565918 1.364384055137634 0.029539555311203 0.000000000000000
-13.097167968750000 5.850335121154785 2.529080390930176 0.000000000000000
-7.802328586578369 3.406590938568115 1.463568329811096 0.000000000000000
-19.586656570434570 9.208720207214355 3.863411664962769 0.003921568859369
-7.274213790893555 3.299883365631104 0.311030864715576 0.000000000000000
-8.417705535888672 4.110139846801758 1.623086094856262 0.000000000000000
-2.489838838577271 0.925960540771484 0.067241802811623 0.000000000000000
-20.411321640014648 12.517509460449219 4.293396472930908 0.003921568859369
-4.314416408538818 2.645148754119873 0.846475958824158 0.000000000000000
-8.922342300415039 6.091331005096436 1.897294282913208 0.000000000000000
-9.004136085510254 6.205678462982178 1.923154115676880 0.000000000000000
-5.780365943908691 3.898945093154907 0.272733271121979 0.000000000000000
-12.750996589660645 9.073959350585938 2.784924745559692 0.000000000000000
-11.102647781372070 7.907715320587158 2.416188001632690 0.000000000000000
-15.405621528625488 12.051112174987793 3.502716064453125 0.003921568859369
-2.448850631713867 1.620326280593872 0.107565246522427 0.000000000000000
-4.687448501586914 3.209610223770142 0.312241286039352 0.000000000000000
-4.844779968261719 3.849367141723633 1.063331365585327 0.000000000000000
-5.242877960205078 3.831924200057983 1.638578772544861 0.000000000000000
-9.778169631958008 8.344073295593262 2.282136917114258 0.000000000000000
-7.844038963317871 6.942283153533936 1.850146770477295 0.000000000000000
-3.410172700881958 2.511450052261353 0.477567017078400 0.000000000000000
-7.916595458984375 7.156906604766846 1.886760354042053 0.000000000000000
-7.008119583129883 6.324605941772461 1.661828517913818 0.000000000000000
-15.765957832336426 15.358759880065918 3.959043264389038 0.003921568859369
-10.554431915283203 9.238310813903809 3.667742252349854 0.000000000000000
-7.004158020019531 6.591213703155518 1.695536255836487 0.000000000000000
-7.523674488067627 6.551862239837646 1.187499046325684 0.000000000000000
-5.633230686187744 4.859179973602295 0.875245511531830 0.000000000000000
-8.565221786499023 7.681159019470215 1.376072764396667 0.000000000000000
-8.251286506652832 7.589249134063721 1.340353131294250 0.000000000000000
-9.919865608215332 10.919865608215332 2.640105724334717 0.000000000000000
-7.132073879241943 7.805589675903320 1.877059698104858 0.000000000000000
-9.691848754882812 9.932776451110840 1.671391963958740 0.000000000000000
-5.989394187927246 6.706305503845215 1.590333342552185 0.000000000000000
-10.589034080505371 11.292093276977539 1.870129346847534 0.000000000000000
-14.055438995361328 16.863626480102539 3.958227396011353 0.003921568859369
-8.937840461730957 9.655990600585938 3.449605941772461 0.000000000000000
-4.285273551940918 4.414509773254395 1.569802403450012 0.000000000000000
-7.979366779327393 9.594466209411621 2.228915691375732 0.000000000000000
-5.696980476379395 6.088691711425781 0.991725683212280 0.000000000000000
-6.915725708007812 7.732407569885254 1.243726730346680 0.000000000000000
-17.270195007324219 24.310779571533203 2.423924446105957 0.003921568859369
-6.064527034759521 7.326929092407227 2.480463027954102 0.000000000000000
-2.798619985580444 3.112512350082397 1.050532221794128 0.000000000000000
-18.096820831298828 24.217430114746094 0.708031535148621 0.003921568859369
-7.027905941009521 10.589178085327148 2.280829668045044 0.000000000000000
-12.886768341064453 23.127023696899414 0.314243286848068 0.003921568859369
-12.760757446289062 23.085660934448242 0.313072204589844 0.003921568859369
-4.670537948608398 6.351508140563965 2.051288843154907 0.000000000000000
-12.641071319580078 23.045112609863281 0.311950415372849 0.003921568859369
-13.508084297180176 25.308897018432617 0.340263545513153 0.003921568859369
-13.391658782958984 25.341056823730469 0.339979141950607 0.003921568859369
-8.287939071655273 13.888929367065430 2.916921615600586 0.003921568859369
-4.039690494537354 6.436345577239990 1.351285338401794 0.000000000000000
-3.591091394424438 5.082882881164551 1.609841942787170 0.000000000000000
-5.581603527069092 9.338512420654297 1.950927615165710 0.000000000000000
-4.069718360900879 6.040188312530518 1.895746469497681 0.000000000000000
-6.437684059143066 10.120627403259277 3.160680055618286 0.000000000000000
-6.045939922332764 11.183334350585938 2.288981676101685 0.000000000000000
-10.255570411682129 22.818521499633789 0.296618282794952 0.003921568859369
-7.560244560241699 14.567575454711914 1.331105351448059 0.000000000000000
-9.855384826660156 22.102357864379883 0.286974698305130 0.003921568859369
-11.414319992065430 26.016094207763672 0.336520344018936 0.003921568859369
-11.443872451782227 26.329118728637695 0.340011924505234 0.003921568859369
-11.567045211791992 27.463981628417969 0.352822422981262 0.003921568859369
-11.599868774414062 27.808809280395508 0.356686562299728 0.003921568859369
-1.253217935562134 1.875016808509827 0.088132791221142 0.000000000000000
-13.268229484558105 25.324275970458984 0.669481575489044 0.003921568859369
-9.509536743164062 20.330307006835938 4.068724632263184 0.003921568859369
-13.178774833679199 25.356081008911133 0.669161736965179 0.003921568859369
-9.419713020324707 20.310039520263672 4.058641433715820 0.003921568859369
-9.340847015380859 20.323373794555664 4.055018901824951 0.003921568859369
-9.244304656982422 20.305486679077148 4.044932842254639 0.003921568859369
-9.169130325317383 20.316621780395508 4.041311264038086 0.003921568859369
-9.101244926452637 20.354335784912109 4.042715072631836 0.003921568859369
-4.706483840942383 9.029695510864258 2.686845541000366 0.000000000000000
-1.861557841300964 3.534857749938965 0.071277603507042 0.000000000000000
-12.185554504394531 25.356765747070312 0.658769428730011 0.003921568859369
-2.386553049087524 4.322812557220459 1.280126571655273 0.000000000000000
-12.049757957458496 25.529409408569336 0.661028444766998 0.003921568859369
-12.080878257751465 25.835912704467773 0.667821586132050 0.003921568859369
-12.187398910522461 26.563795089721680 0.684306800365448 0.003921568859369
-12.244048118591309 26.919134140014648 0.692411780357361 0.003921568859369
-2.518697261810303 4.421565532684326 0.147612005472183 0.000000000000000
-9.864001274108887 23.276599884033203 0.591959357261658 0.003921568859369
-9.627152442932129 23.156507492065430 0.587207853794098 0.003921568859369
-4.252445220947266 9.791707038879395 2.826374530792236 0.000000000000000
-5.452619075775146 13.097476959228516 3.768859148025513 0.000000000000000
-3.832791328430176 9.125802040100098 2.620092391967773 0.000000000000000
-5.804629325866699 14.637695312500000 4.189150810241699 0.003921568859369
-6.757239818572998 25.659883499145508 0.313375979661942 0.003921568859369
-6.546051979064941 25.571619033813477 0.311705440282822 0.003921568859369
-6.459218025207520 26.422185897827148 0.321037620306015 0.003921568859369
-7.103395462036133 24.521734237670898 2.081665754318237 0.003921568859369
-5.367770671844482 22.815868377685547 -0.267024159431458 0.003921568859369
-7.233651161193848 25.341623306274414 2.149056434631348 0.003921568859369
-1.376298785209656 3.119855880737305 0.883001089096069 0.000000000000000
-6.799763202667236 24.747371673583984 2.092920064926147 0.003921568859369
-6.846965789794922 25.291038513183594 2.136854171752930 0.003921568859369
-5.013837814331055 23.102798461914062 -0.269605934619904 0.003921568859369
-4.738732814788818 22.977333068847656 -0.267667382955551 0.003921568859369
-4.565083503723145 22.991601943969727 -0.267694473266602 0.003921568859369
-5.547288894653320 22.896186828613281 -0.678446412086487 0.003921568859369
-5.548453330993652 23.278766632080078 -0.133808508515358 0.003921568859369
-4.172952651977539 23.120775222778320 -0.268558114767075 0.003921568859369
-5.307340621948242 22.950836181640625 -0.131731748580933 0.003921568859369
-4.089663505554199 23.118169784545898 -0.268405765295029 0.003921568859369
-5.819861412048340 25.761764526367188 -0.148233905434608 0.003921568859369
-4.009581565856934 23.135013580322266 -0.268485665321350 0.003921568859369
-5.652730464935303 25.861986160278320 -0.148678079247475 0.003921568859369
-3.519943714141846 23.250099182128906 -0.269329726696014 0.003921568859369
-1.722681879997253 5.978213310241699 1.647836923599243 0.000000000000000
-4.406653881072998 23.066688537597656 -0.677427709102631 0.003921568859369
-3.209285497665405 23.375040054321289 -0.270435541868210 0.003921568859369
-3.124378681182861 23.357093811035156 -0.270142525434494 0.003921568859369
-4.907778263092041 27.028995513916016 5.002202033996582 0.003921568859369
-3.027223110198975 23.231559753417969 -0.268592983484268 0.003921568859369
-1.445373892784119 6.661831855773926 1.234869718551636 0.000000000000000
-2.930543184280396 23.101663589477539 -0.266996532678604 0.003921568859369
-1.432628154754639 6.883135318756104 1.274317264556885 0.000000000000000
-1.289025425910950 6.112987518310547 1.131512522697449 0.000000000000000
-5.092375278472900 23.155414581298828 -0.545543611049652 0.003921568859369
-2.145649433135986 12.596140861511230 2.323919773101807 0.000000000000000
-1.528139829635620 8.967263221740723 1.652978062629700 0.000000000000000
-3.190068483352661 23.268566131591797 -0.132646143436432 0.003921568859369
-0.696701645851135 5.459152698516846 -0.060387250036001 0.000000000000000
-1.707219243049622 23.061141967773438 -0.265909880399704 0.003921568859369
-1.044824481010437 6.536635875701904 1.202308177947998 0.000000000000000
-2.024157762527466 10.992422103881836 2.984050989151001 0.000000000000000
-1.597547531127930 24.328598022460938 0.286476254463196 0.003921568859369
-1.307123303413391 23.485389709472656 -0.270883798599243 0.003921568859369
-1.346547126770020 24.432514190673828 0.287449896335602 0.003921568859369
-0.947950959205627 6.860335826873779 0.565628528594971 0.000000000000000
-2.565315723419189 24.661695480346680 4.518274784088135 0.003921568859369
-1.222393274307251 23.416730880737305 -0.270074784755707 0.003921568859369
-0.989951491355896 7.620416164398193 1.397997975349426 0.000000000000000
-1.154155969619751 23.807464599609375 -0.274630993604660 0.003921568859369
-1.098307251930237 24.549684524536133 0.288610339164734 0.003921568859369
-1.583106637001038 6.992117881774902 0.210244908928871 0.000000000000000
-0.824371099472046 23.552633285522461 -0.271671593189240 0.003921568859369
-1.267841577529907 13.452196121215820 2.461908578872681 0.000000000000000
-1.956477999687195 24.468751907348633 -0.139549687504768 0.003921568859369
-1.656828165054321 24.045688629150391 -0.137193411588669 0.003921568859369
-0.929675579071045 11.029655456542969 0.904811024665833 0.000000000000000
-0.401391923427582 23.133811950683594 -0.266969442367554 0.003921568859369
-1.689318180084229 14.561982154846191 0.854972600936890 0.000000000000000
-1.586116075515747 13.940519332885742 1.721949219703674 0.000000000000000
-2.620519638061523 26.307075500488281 7.079164505004883 0.003921568859369
-0.495023906230927 4.682815551757812 0.857542276382446 0.000000000000000
0.344953954219818 23.316942214965820 -0.269562542438507 0.003921568859369
0.409903466701508 23.046937942504883 -0.266456514596939 0.003921568859369
0.523791611194611 23.887622833251953 0.280187726020813 0.003921568859369
-0.646616518497467 3.047063350677490 0.092268161475658 0.000000000000000
-1.755973935127258 22.975496292114258 -0.532957315444946 0.003921568859369
-0.558707952499390 23.701793670654297 -0.135461837053299 0.003921568859369
-1.667180418968201 24.342832565307617 0.570011436939240 0.003921568859369
-0.527867317199707 4.003848552703857 1.077561974525452 0.000000000000000
-1.571919202804565 24.151771545410156 0.565424978733063 0.003921568859369
0.836414098739624 23.530366897583008 0.276085764169693 0.003921568859369
-0.854047715663910 11.154162406921387 1.374096512794495 0.000000000000000
1.140504002571106 23.060791015625000 -0.267271101474762 0.003921568859369
0.091505974531174 23.266324996948242 -0.675136685371399 0.003921568859369
1.414058208465576 23.343576431274414 -0.270937830209732 0.003921568859369
-0.879970788955688 23.729927062988281 0.554679453372955 0.003921568859369
-0.158768460154533 4.331068038940430 0.356464058160782 0.000000000000000
-0.519108891487122 12.774944305419922 3.426203727722168 0.000000000000000
0.503508448600769 23.015989303588867 -0.668371200561523 0.003921568859369
-0.648444533348083 24.950813293457031 1.455445528030396 0.003921568859369
-1.762608289718628 24.539247512817383 0.145472034811974 0.003921568859369
-0.478071361780167 24.840188980102539 0.580190956592560 0.003921568859369
-1.651010513305664 24.087169647216797 0.704697728157043 0.003921568859369
-0.297414094209671 10.141881942749023 2.720154047012329 0.000000000000000
-0.214042648673058 12.363280296325684 3.315339088439941 0.000000000000000
-1.240648388862610 24.256696701049805 0.143514588475227 0.003921568859369
2.368827819824219 23.013641357421875 -0.268514871597290 0.003921568859369
1.261038064956665 23.412277221679688 -0.134835794568062 0.003921568859369
-1.067995786666870 24.620681762695312 0.719165027141571 0.003921568859369
2.707443475723267 23.794679641723633 -0.278148144483566 0.003921568859369
2.812600374221802 23.922388076782227 -0.279816061258316 0.003921568859369
2.316724300384521 23.979688644409180 -0.139067932963371 0.003921568859369
3.596630334854126 23.987728118896484 -0.282165586948395 0.003921568859369
3.576200008392334 23.342647552490234 -0.274690181016922 0.003921568859369
3.567276000976562 22.792663574218750 -0.268338680267334 0.003921568859369
3.803528547286987 23.689666748046875 -0.279195308685303 0.003921568859369
0.372938066720963 23.810424804687500 0.140171378850937 0.003921568859369
1.567347764968872 23.108081817626953 -0.538049399852753 0.003921568859369
4.007710933685303 23.430025100708008 -0.276690959930420 0.003921568859369
3.403240442276001 27.028078079223633 2.227468490600586 0.003921568859369
1.431283116340637 8.601655006408691 -0.100319318473339 0.000000000000000
3.688796997070312 26.936807632446289 2.223112344741821 0.003921568859369
3.905280590057373 26.508728027343750 2.191164016723633 0.003921568859369
3.702932357788086 25.217103958129883 4.654867172241211 0.003921568859369
4.024782657623291 26.602737426757812 2.200237751007080 0.003921568859369
4.836877346038818 23.678886413574219 -0.281690865755081 0.003921568859369
4.925499439239502 23.688285827636719 -0.282043933868408 0.003921568859369
3.781621456146240 24.029098510742188 -0.141012191772461 0.003921568859369
1.481304168701172 10.360673904418945 1.917345523834229 0.000000000000000
5.415247917175293 25.497154235839844 0.304189145565033 0.003921568859369
4.226792335510254 26.112392425537109 2.163413763046265 0.003921568859369
3.916058063507080 23.859905242919922 -0.140211299061775 0.003921568859369
4.241391181945801 25.713315963745117 2.131525278091431 0.003921568859369
0.474297761917114 5.712961673736572 0.709448933601379 0.000000000000000
4.332352161407471 25.652664184570312 2.127919435501099 0.003921568859369
5.247538566589355 23.578479766845703 -0.281719297170639 0.003921568859369
6.510339260101318 28.980527877807617 0.346135079860687 0.003921568859369
1.714239835739136 10.819193840026855 2.006946802139282 0.000000000000000
5.218436717987061 23.125167846679688 0.276887804269791 0.003921568859369
6.460855007171631 27.888900756835938 0.333650261163712 0.003921568859369
3.631226539611816 27.862588882446289 1.638872742652893 0.003921568859369
4.772125244140625 26.501804351806641 2.202266931533813 0.003921568859369
5.534527778625488 23.660324096679688 -0.283505558967590 0.003921568859369
3.188505172729492 24.044000625610352 0.565945208072662 0.003921568859369
5.386429786682129 23.054256439208984 0.276442974805832 0.003921568859369
5.079707145690918 27.571361541748047 2.292626619338989 0.003921568859369
5.558047771453857 23.419729232788086 -0.280851960182190 0.003921568859369
4.421660900115967 22.885065078735352 -0.679372251033783 0.003921568859369
5.433574676513672 27.834310531616211 2.319204330444336 0.003921568859369
3.464699506759644 24.168661117553711 -0.568356096744537 0.003921568859369
4.489400386810303 22.830287933349609 -0.678226828575134 0.003921568859369
3.543300628662109 24.144374847412109 0.569375276565552 0.003921568859369
7.144342899322510 28.530199050903320 0.342607676982880 0.003921568859369
4.152278900146484 28.015409469604492 1.651972770690918 0.003921568859369
2.368315696716309 23.610128402709961 0.139061853289604 0.003921568859369
7.117738723754883 28.024545669555664 0.336854726076126 0.003921568859369
5.678170204162598 28.056293487548828 2.340932846069336 0.003921568859369
4.841600894927979 23.278448104858398 -0.693235456943512 0.003921568859369
0.246924579143524 4.228343486785889 0.126045033335686 0.000000000000000
3.631355047225952 23.100904464721680 -0.544462144374847 0.003921568859369
6.250422477722168 23.394769668579102 -0.282822221517563 0.003921568859369
4.290111064910889 25.931152343750000 3.232836961746216 0.003921568859369
5.929553508758545 27.352460861206055 2.289130687713623 0.003921568859369
2.787124395370483 23.616319656372070 0.139265283942223 0.003921568859369
5.974125385284424 27.109231948852539 2.270572662353516 0.003921568859369
5.131057739257812 29.465490341186523 0.696982741355896 0.003921568859369
5.303293228149414 23.763956069946289 1.992240428924561 0.003921568859369
5.330430030822754 23.511621475219727 -0.140327930450439 0.003921568859369
5.432124137878418 23.573690414428711 -0.140846073627472 0.003921568859369
6.581206798553467 23.282487869262695 0.282226711511612 0.003921568859369
4.677469253540039 25.947099685668945 3.242933034896851 0.003921568859369
4.176402568817139 23.309900283813477 -0.551642298698425 0.003921568859369
1.040099740028381 5.253742694854736 -0.281688660383224 0.000000000000000
4.814674854278564 26.195722579956055 3.276036739349365 0.003921568859369
5.542972087860107 23.686223983764648 1.990548133850098 0.003921568859369
4.752573490142822 25.377639770507812 0.602090239524841 0.003921568859369
4.460337162017822 23.891912460327148 1.418471932411194 0.003921568859369
5.594225883483887 23.521690368652344 1.978496074676514 0.003921568859369
5.097950458526611 26.664005279541016 1.583804965019226 0.003921568859369
6.833063602447510 28.114576339721680 2.366307020187378 0.003921568859369
5.647253513336182 23.048723220825195 -0.692320585250854 0.003921568859369
4.566279888153076 23.150905609130859 -0.549886226654053 0.003921568859369
5.360527992248535 26.526887893676758 3.329011201858521 0.003921568859369
7.090657711029053 27.128562927246094 2.293682336807251 0.003921568859369
3.063926696777344 12.231799125671387 2.311295270919800 0.000000000000000
4.941864013671875 23.729137420654297 -0.564986944198608 0.003921568859369
7.710644245147705 24.297147750854492 -0.298212468624115 0.003921568859369
6.208659172058105 29.037256240844727 1.732039093971252 0.003921568859369
5.559633731842041 26.114074707031250 3.284605503082275 0.003921568859369
6.246339321136475 23.676937103271484 2.004021167755127 0.003921568859369
3.677728176116943 14.303747177124023 2.704966306686401 0.000000000000000
7.328830718994141 22.842906951904297 -0.280562430620193 0.003921568859369
6.327496528625488 29.070211410522461 1.735256791114807 0.003921568859369
6.213470458984375 23.217340469360352 1.966925978660583 0.003921568859369
6.433100700378418 29.042079925537109 1.734996676445007 0.003921568859369
5.114325523376465 22.930078506469727 0.548052787780762 0.003921568859369
5.843020439147949 26.051860809326172 3.284513950347900 0.003921568859369
7.061814308166504 25.229768753051758 -0.153059989213943 0.003921568859369
8.152949333190918 24.456121444702148 0.300302058458328 0.003921568859369
6.639374732971191 29.010383605957031 1.735872507095337 0.003921568859369
7.747118949890137 27.597711563110352 2.344594717025757 0.003921568859369
6.580672264099121 28.344352722167969 0.677993059158325 0.003921568859369
6.643413543701172 23.488567352294922 1.997723221778870 0.003921568859369
6.714733123779297 23.413516998291016 1.993474841117859 0.003921568859369
5.388717651367188 22.670759201049805 0.543611884117126 0.003921568859369
7.674222946166992 26.309949874877930 2.242125034332275 0.003921568859369
8.088435173034668 23.219884872436523 -0.287805765867233 0.003921568859369
7.706908226013184 26.104312896728516 2.226824760437012 0.003921568859369
6.152025222778320 25.016052246093750 3.169898271560669 0.003921568859369
2.503079175949097 10.717975616455078 2.965140342712402 0.000000000000000
6.544845581054688 26.173559188842773 3.319421529769897 0.003921568859369
1.958794832229614 7.028598308563232 1.343773126602173 0.000000000000000
7.115967750549316 23.285070419311523 -0.711008310317993 0.003921568859369
6.643236160278320 26.176622390747070 3.322807312011719 0.003921568859369
1.925274133682251 6.837024211883545 1.308630466461182 0.000000000000000
7.806545257568359 25.166236877441406 -0.154164493083954 0.003921568859369
6.336980819702148 24.660097122192383 3.133296251296997 0.003921568859369
7.644755363464355 24.657936096191406 2.112639665603638 0.003921568859369
8.473241806030273 26.894924163818359 2.306681871414185 0.003921568859369
6.504510879516602 24.559999465942383 3.126420974731445 0.003921568859369
7.583360195159912 23.580717086791992 -0.144881665706635 0.003921568859369
6.633747100830078 24.693214416503906 3.146371603012085 0.003921568859369
8.698383331298828 26.947103500366211 2.316386938095093 0.003921568859369
5.793673515319824 26.234142303466797 0.156319290399551 0.003921568859369
8.614526748657227 22.646835327148438 0.282260984182358 0.003921568859369
7.431954860687256 22.606403350830078 -0.139172241091728 0.003921568859369
7.102052688598633 21.628965377807617 4.163162708282471 0.003921568859369
7.668051242828369 23.052120208740234 -0.709634542465210 0.003921568859369
5.261922359466553 23.207960128784180 0.138691201806068 0.003921568859369
6.237840175628662 22.387826919555664 0.542074203491211 0.003921568859369
5.165115833282471 22.797754287719727 0.681888222694397 0.003921568859369
9.040443420410156 27.059099197387695 2.333871603012085 0.003921568859369
6.272070884704590 22.186313629150391 0.537789523601532 0.003921568859369
7.063753604888916 24.888481140136719 3.183793067932129 0.003921568859369
7.978269577026367 23.659503936767578 2.043584585189819 0.003921568859369
6.633548736572266 23.422080993652344 -0.568166851997375 0.003921568859369
7.719828605651855 22.659513473510742 -0.140083998441696 0.003921568859369
7.203176021575928 25.041664123535156 1.520700812339783 0.003921568859369
4.047261238098145 12.180316925048828 2.353962182998657 0.000000000000000
7.888980865478516 22.886243820190430 -0.707243919372559 0.003921568859369
7.824271202087402 22.703281402587891 -0.140553414821625 0.003921568859369
9.421943664550781 27.209051132202148 2.355576515197754 0.003921568859369
8.021116256713867 23.255393981933594 4.497952461242676 0.003921568859369
8.066761970520020 23.143417358398438 -0.143507897853851 0.003921568859369
8.090222358703613 23.205705642700195 4.493631362915039 0.003921568859369
5.622404575347900 22.936595916748047 0.688866198062897 0.003921568859369
8.150136947631836 27.220922470092773 1.657850980758667 0.003921568859369
8.085891723632812 22.709083557128906 -0.704381346702576 0.003921568859369
9.727209091186523 23.558872222900391 -0.298794329166412 0.003921568859369
7.660029888153076 25.313535690307617 0.616366863250732 0.003921568859369
7.582573890686035 25.064071655273438 1.528277516365051 0.003921568859369
7.346702575683594 24.305345535278320 3.125236034393311 0.003921568859369
8.210487365722656 23.047780990600586 2.002856254577637 0.003921568859369
5.800694942474365 22.909631729125977 0.689267992973328 0.003921568859369
7.414913177490234 24.178968429565430 3.112548828125000 0.003921568859369
7.504703521728516 24.183805465698242 3.116426706314087 0.003921568859369
4.843449592590332 13.523654937744141 2.632783889770508 0.000000000000000
7.676921844482422 24.428741455078125 3.151477575302124 0.003921568859369
8.357335090637207 22.682199478149414 1.978754043579102 0.003921568859369
8.605844497680664 23.338357925415039 4.548038482666016 0.003921568859369
8.473131179809570 22.736299514770508 1.986210227012634 0.003921568859369
9.156197547912598 24.296810150146484 -0.758776187896729 0.003921568859369
6.123762130737305 22.868034362792969 0.690469861030579 0.003921568859369
8.637074470520020 22.947351455688477 4.483466148376465 0.003921568859369
8.751100540161133 22.982976913452148 -0.718737781047821 0.003921568859369
8.519276618957520 22.158197402954102 1.943575859069824 0.003921568859369
10.337399482727051 23.142589569091797 -0.297276824712753 0.003921568859369
6.548326969146729 23.412752151489258 0.708972871303558 0.003921568859369
9.425309181213379 24.209251403808594 2.126219272613525 0.003921568859369
10.364944458007812 23.011213302612305 -0.296023577451706 0.003921568859369
7.428010463714600 22.080795288085938 0.543264448642731 0.003921568859369
6.236100673675537 22.071172714233398 0.669048309326172 0.003921568859369
9.168394088745117 23.350191116333008 2.053397178649902 0.003921568859369
7.765114307403564 23.055772781372070 -0.568257808685303 0.003921568859369
12.363564491271973 27.084283828735352 0.345898717641830 0.003921568859369
7.999249458312988 23.206853866577148 -0.573436021804810 0.003921568859369
10.458478927612305 25.777643203735352 2.276296138763428 0.003921568859369
8.618674278259277 24.369964599609375 3.181489467620850 0.003921568859369
9.182200431823730 22.435512542724609 4.433140754699707 0.003921568859369
9.269639968872070 22.424371719360352 4.437425613403320 0.003921568859369
7.906849384307861 25.429510116577148 0.154513210058212 0.003921568859369
6.957372188568115 22.451738357543945 0.685498356819153 0.003921568859369
2.388813257217407 6.934353351593018 1.984611153602600 0.000000000000000
9.810781478881836 23.043373107910156 -0.732234835624695 0.003921568859369
9.902667045593262 23.254520416259766 -0.148407474160194 0.003921568859369
6.938687324523926 22.126010894775391 0.676316380500793 0.003921568859369
8.789736747741699 23.811471939086914 3.124425411224365 0.003921568859369
11.053906440734863 22.579677581787109 -0.295023113489151 0.003921568859369
8.127130508422852 25.488693237304688 0.155181527137756 0.003921568859369
2.865673065185547 8.034603118896484 2.305414676666260 0.000000000000000
9.398336410522461 21.871955871582031 4.354179382324219 0.003921568859369
9.839765548706055 22.683706283569336 4.521950721740723 0.003921568859369
9.981886863708496 22.569673538208008 -0.721676468849182 0.003921568859369
11.436984062194824 22.758134841918945 -0.298980504274368 0.003921568859369
10.170179367065430 22.984308242797852 4.596485137939453 0.003921568859369
7.559755325317383 22.688161849975586 0.138884916901588 0.003921568859369
8.659618377685547 22.283674240112305 0.557303488254547 0.003921568859369
8.560151100158691 22.033092498779297 1.380213379859924 0.003921568859369
10.255248069763184 22.958702087402344 4.598618507385254 0.003921568859369
10.597786903381348 26.869390487670898 1.685224890708923 0.003921568859369
11.982970237731934 23.232154846191406 0.303891569375992 0.003921568859369
9.972921371459961 21.942937850952148 1.973521709442139 0.003921568859369
9.749203681945801 24.265501022338867 3.218793392181396 0.003921568859369
10.601386070251465 23.063615798950195 4.641622543334961 0.003921568859369
9.276601791381836 22.874519348144531 -0.576954126358032 0.003921568859369
12.682039260864258 27.007240295410156 -0.872429668903351 0.003921568859369
10.840666770935059 23.142087936401367 4.673137187957764 0.003921568859369
10.758921623229980 22.768054962158203 -0.736483454704285 0.003921568859369
10.796445846557617 22.845808029174805 -0.148544460535049 0.003921568859369
10.871454238891602 22.606796264648438 -0.733712792396545 0.003921568859369
8.323356628417969 22.803247451782227 0.707758903503418 0.003921568859369
12.531902313232422 22.872781753540039 -0.306301593780518 0.003921568859369
9.640908241271973 22.628753662109375 -0.575076043605804 0.003921568859369
12.910873413085938 23.371223449707031 -0.313611686229706 0.003921568859369
9.963209152221680 23.160009384155273 -0.589486896991730 0.003921568859369
11.409605979919434 23.080732345581055 -0.753156244754791 0.003921568859369
13.071265220642090 23.455339431762695 -0.315418064594269 0.003921568859369
9.554018974304199 22.005462646484375 2.954176902770996 0.003921568859369
11.206555366516113 22.675603866577148 2.070576906204224 0.003921568859369
11.353779792785645 22.779922485351562 2.083560705184937 0.003921568859369
11.327365875244141 22.533348083496094 -0.148400381207466 0.003921568859369
11.741125106811523 26.457101821899414 0.673901438713074 0.003921568859369
9.556364059448242 21.412525177001953 2.887889862060547 0.003921568859369
9.325267791748047 18.456233978271484 3.785320997238159 0.003921568859369
12.152842521667480 26.845476150512695 0.685961425304413 0.003921568859369
13.518738746643066 26.343278884887695 2.422222375869751 0.003921568859369
13.444231986999512 23.162942886352539 -0.314585953950882 0.003921568859369
12.378859519958496 27.099657058715820 1.737957358360291 0.003921568859369
4.996495723724365 9.876704216003418 2.033591985702515 0.000000000000000
10.082607269287109 21.943906784057617 2.973590612411499 0.003921568859369
13.735008239746094 26.319896697998047 2.428686857223511 0.003921568859369
13.852030754089355 26.307403564453125 2.432242631912231 0.003921568859369
10.222294807434082 21.834056854248047 2.968688488006592 0.003921568859369
12.515285491943359 23.032314300537109 -0.766953885555267 0.003921568859369
12.431743621826172 22.880554199218750 -0.153357431292534 0.003921568859369
5.528212547302246 11.671624183654785 3.481759548187256 0.000000000000000
12.554394721984863 22.904085159301758 -0.153848439455032 0.003921568859369
10.758165359497070 22.156570434570312 3.032917976379395 0.003921568859369
14.399777412414551 23.265747070312500 -0.321585923433304 0.003921568859369
7.071462631225586 12.936661720275879 2.703947067260742 0.000000000000000
11.237130165100098 22.926141738891602 -0.597256302833557 0.003921568859369
12.641698837280273 22.696180343627930 -0.760225772857666 0.003921568859369
11.065545082092285 22.393802642822266 3.075747728347778 0.003921568859369
14.158529281616211 25.379575729370117 2.377842187881470 0.003921568859369
12.771432876586914 25.328004837036133 1.654948115348816 0.003921568859369
14.457719802856445 25.269359588623047 2.381772994995117 0.003921568859369
13.365836143493652 23.382514953613281 4.924549579620361 0.003921568859369
12.859437942504883 25.067142486572266 0.655854046344757 0.003921568859369
1.527063369750977 2.911504983901978 -0.175675332546234 0.000000000000000
11.244490623474121 21.959768295288086 3.037737846374512 0.003921568859369
13.922880172729492 24.150726318359375 2.281003475189209 0.003921568859369
13.582993507385254 23.381275177001953 -0.159345313906670 0.003921568859369
12.880190849304199 24.894002914428711 1.635398626327515 0.003921568859369
15.017631530761719 25.634445190429688 2.430475473403931 0.003921568859369
5.107550621032715 9.992291450500488 3.028379678726196 0.000000000000000
13.463402748107910 22.830383300781250 -0.775572359561920 0.003921568859369
13.448704719543457 25.564605712890625 1.685275793075562 0.003921568859369
14.385356903076172 24.373050689697266 2.315732479095459 0.003921568859369
12.057383537292480 22.954015731811523 -0.606585919857025 0.003921568859369
13.364369392395020 24.984748840332031 0.659570693969727 0.003921568859369
13.371958732604980 24.998409271240234 1.654137015342712 0.003921568859369
13.814258575439453 25.814109802246094 3.603133440017700 0.003921568859369
15.316256523132324 25.525106430053711 2.435299873352051 0.003921568859369
13.525439262390137 25.051883697509766 0.662701666355133 0.003921568859369
13.714982986450195 25.398197174072266 1.684063076972961 0.003921568859369
3.104492425918579 5.353193283081055 1.145035862922668 0.000000000000000
12.305070877075195 22.820327758789062 -0.606632769107819 0.003921568859369
13.440182685852051 24.710874557495117 1.641337394714355 0.003921568859369
14.598743438720703 23.963787078857422 2.296169281005859 0.003921568859369
12.417509078979492 20.424270629882812 4.373043060302734 0.003921568859369
13.603902816772461 24.803178787231445 0.658502578735352 0.003921568859369
14.535035133361816 23.675029754638672 2.273404121398926 0.003921568859369
14.818558692932129 23.944572448730469 2.304262638092041 0.003921568859369
4.085692405700684 6.800688266754150 1.463379263877869 0.000000000000000
13.002387046813965 23.526758193969727 -0.629020750522614 0.003921568859369
13.981338500976562 25.050270080566406 1.673630714416504 0.003921568859369
12.744752883911133 22.860733032226562 -0.612333834171295 0.003921568859369
16.321769714355469 23.325183868408203 0.330401420593262 0.003921568859369
13.893446922302246 24.493900299072266 0.655457675457001 0.003921568859369
14.445078849792480 25.454305648803711 3.601637840270996 0.003921568859369
15.962046623229980 22.481489181518555 0.320049434900284 0.003921568859369
14.354911804199219 25.093875885009766 3.557786703109741 0.003921568859369
16.007637023925781 22.379676818847656 0.319390445947647 0.003921568859369
14.023954391479492 24.326025009155273 1.638284206390381 0.003921568859369
14.464423179626465 25.080772399902344 3.563128709793091 0.003921568859369
13.725638389587402 23.624856948852539 0.636052787303925 0.003921568859369
14.837598800659180 25.515577316284180 3.632275104522705 0.003921568859369
15.289820671081543 23.568632125854492 2.298735857009888 0.003921568859369
5.037835121154785 7.930967807769775 1.729309201240540 0.000000000000000
13.609892845153809 23.428337097167969 -0.633997499942780 0.003921568859369
14.762417793273926 22.601211547851562 -0.790052056312561 0.003921568859369
16.239976882934570 22.378787994384766 0.320930510759354 0.003921568859369
14.829036712646484 25.308574676513672 3.609855651855469 0.003921568859369
15.328332901000977 23.457393646240234 2.292871952056885 0.003921568859369
4.737288475036621 8.270725250244141 2.576011896133423 0.000000000000000
9.312283515930176 14.346632003784180 3.133961677551270 0.003921568859369
12.068770408630371 22.965467453002930 0.149906426668167 0.003921568859369
15.394664764404297 23.379940032958984 2.290582656860352 0.003921568859369
17.407869338989258 23.624536514282227 0.340439707040787 0.003921568859369
2.308317184448242 3.684607982635498 0.181499138474464 0.000000000000000
15.387388229370117 23.193031311035156 2.277568101882935 0.003921568859369
13.708141326904297 23.048860549926758 -0.627589821815491 0.003921568859369
15.172840118408203 22.702119827270508 -0.799205899238586 0.003921568859369
12.169744491577148 22.770492553710938 0.149169683456421 0.003921568859369
14.487619400024414 24.152585983276367 0.655538082122803 0.003921568859369
15.008820533752441 25.011034011840820 3.589839935302734 0.003921568859369
5.735408782958984 9.722086906433105 3.046857118606567 0.000000000000000
15.213755607604980 22.592254638671875 -0.797233879566193 0.003921568859369
16.606256484985352 22.221031188964844 0.321935623884201 0.003921568859369
15.038057327270508 24.863077163696289 3.576187133789062 0.003921568859369
14.502751350402832 23.801189422607422 0.648747265338898 0.003921568859369
15.506348609924316 22.665225982666016 -0.803594589233398 0.003921568859369
16.960866928100586 22.351066589355469 0.325611054897308 0.003921568859369
15.141867637634277 24.628602981567383 1.686536908149719 0.003921568859369
15.085331916809082 24.537057876586914 3.544589281082153 0.003921568859369
15.647045135498047 22.699031829833984 -0.806761324405670 0.003921568859369
14.520197868347168 23.444463729858398 1.608986139297485 0.003921568859369
14.729435920715332 23.595516204833984 0.647398948669434 0.003921568859369
16.630678176879883 21.605617523193359 0.316458016633987 0.003921568859369
14.561469078063965 23.328937530517578 1.604561924934387 0.003921568859369
15.137656211853027 24.242034912109375 3.517284870147705 0.003921568859369
16.139486312866211 22.723194122314453 -0.815690875053406 0.003921568859369
16.224117279052734 22.682004928588867 -0.816170454025269 0.003921568859369
16.383157730102539 22.734640121459961 -0.820155143737793 0.003921568859369
16.954938888549805 23.520072937011719 2.372093677520752 0.003921568859369
16.438772201538086 22.644538879394531 -0.819000065326691 0.003921568859369
17.428092956542969 21.532968521118164 0.321442216634750 0.003921568859369
15.002661705017090 22.784727096557617 -0.638531982898712 0.003921568859369
17.444719314575195 21.400417327880859 0.320369988679886 0.003921568859369
16.960636138916016 20.664215087890625 0.310265749692917 0.003921568859369
17.352890014648438 20.975948333740234 0.315941900014877 0.003921568859369
15.157305717468262 22.486932754516602 1.582233548164368 0.003921568859369
15.371164321899414 22.631017684936523 1.596150636672974 0.003921568859369
15.735916137695312 22.820108413696289 0.645097672939301 0.003921568859369
17.573823928833008 22.979520797729492 2.366578817367554 0.003921568859369
15.666288375854492 22.551696777343750 0.639063596725464 0.003921568859369
17.498199462890625 20.559654235839844 0.313315272331238 0.003921568859369
17.433872222900391 22.634138107299805 2.337314128875732 0.003921568859369
17.691581726074219 22.801889419555664 -0.844582974910736 0.003921568859369
15.833064079284668 22.620979309082031 1.610959410667419 0.003921568859369
17.785409927368164 22.921224594116211 2.373379707336426 0.003921568859369
17.825492858886719 22.808603286743164 -0.847164750099182 0.003921568859369
17.796213150024414 20.614023208618164 0.316013574600220 0.003921568859369
16.474452972412109 23.184017181396484 1.659220695495605 0.003921568859369
16.994056701660156 23.908596038818359 3.609700202941895 0.003921568859369
17.121519088745117 21.610557556152344 -0.162772938609123 0.003921568859369
16.523197174072266 23.089937210083008 1.656423211097717 0.003921568859369
16.448211669921875 22.985649108886719 3.478667497634888 0.003921568859369
7.398645877838135 9.438734054565430 2.202346563339233 0.000000000000000
18.209789276123047 22.809293746948242 -0.854208886623383 0.003921568859369
16.782831192016602 23.277626037597656 3.531745195388794 0.003921568859369
16.464887619018555 22.841209411621094 -0.659059584140778 0.003921568859369
18.331037521362305 22.788461685180664 -0.855973720550537 0.003921568859369
18.509935379028320 23.009025573730469 -0.174405097961426 0.003921568859369
18.551761627197266 20.886102676391602 0.324083238840103 0.003921568859369
17.094444274902344 23.525337219238281 -0.680664420127869 0.003921568859369
18.541954040527344 22.884899139404297 -0.862059891223907 0.003921568859369
17.983022689819336 22.200157165527344 -0.168731212615967 0.003921568859369
19.842971801757812 22.172542572021484 0.345046222209930 0.003921568859369
19.800291061401367 21.966848373413086 0.343010663986206 0.003921568859369
16.816059112548828 22.803663253784180 1.652767777442932 0.003921568859369
16.934019088745117 22.962032318115234 3.510874271392822 0.003921568859369
18.809532165527344 22.880310058593750 -0.866624295711517 0.003921568859369
19.960496902465820 21.988668441772461 0.344429820775986 0.003921568859369
18.914882659912109 22.844764709472656 -0.867803454399109 0.003921568859369
18.607675552368164 22.476173400878906 -0.172215521335602 0.003921568859369
18.523263931274414 22.374494552612305 2.375998973846436 0.003921568859369
18.629459381103516 22.342821121215820 2.379563331604004 0.003921568859369
19.125553131103516 22.772287368774414 -0.870161771774292 0.003921568859369
16.576484680175781 21.837852478027344 0.638005971908569 0.003921568859369
19.551124572753906 21.092767715454102 0.333604037761688 0.003921568859369
17.894731521606445 23.560646057128906 1.725620627403259 0.003921568859369
19.295652389526367 22.811473846435547 -0.874260425567627 0.003921568859369
