# This PCD file was generated using the MATLAB® pcwrite function
# from Computer Vision Toolbox®.
# .PCD v.7 - Point Cloud Data file format
VERSION .7
FIELDS x y z intensity
SIZE 8 8 8 8
TYPE F F F F
COUNT 1 1 1 1
WIDTH 645
HEIGHT 1
VIEWPOINT 0 0 0 1 0 0 0
POINTS 645
DATA ascii
-12.957220077514648 1.092691183090210 1.517317295074463 0.000000000000000
-20.040472030639648 3.655590772628784 -0.689382672309875 0.003921568859369
-14.802039146423340 1.306654095649719 0.000072275870480 0.000000000000000
-8.554524421691895 0.729403913021088 0.185528352856636 0.000000000000000
-19.972631454467773 3.712690353393555 -0.687412500381470 0.003921568859369
-7.940044403076172 1.033670067787170 1.343333005905151 0.000000000000000
-19.465244293212891 3.683325529098511 -0.669760346412659 0.003921568859369
-4.003160953521729 0.167763650417328 -0.213807329535484 0.000000000000000
-12.261239051818848 1.194559454917908 0.680152356624603 0.000000000000000
-5.264292716979980 0.953690707683563 0.056129347532988 0.000000000000000
-19.373329162597656 2.059139490127563 -0.000433948705904 0.003921568859369
-8.331988334655762 1.615049958229065 -0.731815278530121 0.000000000000000
-22.530755996704102 3.573946952819824 -0.645890593528748 0.003921568859369
-4.680536746978760 0.861598134040833 -0.142583832144737 0.000000000000000
-22.163209915161133 3.591042041778564 -0.635367929935455 0.003921568859369
-13.535722732543945 2.150507688522339 -0.075586318969727 0.000000000000000
-4.019063472747803 0.240079015493393 -0.057777408510447 0.000000000000000
-21.773853302001953 3.603551626205444 -0.624496400356293 0.003921568859369
-3.833385705947876 0.226848512887955 -0.129052117466927 0.000000000000000
-21.737510681152344 3.673190355300903 -0.623785018920898 0.003921568859369
-21.332178115844727 3.669612884521484 -0.612096190452576 0.003921568859369
-14.463871955871582 3.154754400253296 -0.494814842939377 0.000000000000000
-20.878589630126953 3.662067413330078 -0.599005162715912 0.003921568859369
-20.676950454711914 3.697857141494751 -0.593389093875885 0.003921568859369
-17.726381301879883 2.296720743179321 -0.000191942090169 0.003921568859369
-5.292854785919189 0.624609231948853 1.259092092514038 0.000000000000000
-12.555725097656250 1.053924560546875 -0.208467185497284 0.000000000000000
-6.769886970520020 1.152801036834717 -0.180422499775887 0.000000000000000
-8.784191131591797 0.720036089420319 0.048304483294487 0.000000000000000
-16.840038299560547 2.234848022460938 2.007835865020752 0.003921568859369
-25.603466033935547 3.443760156631470 6.750988483428955 0.003921568859369
-10.965931892395020 1.942206263542175 1.916308999061584 0.000000000000000
-20.148023605346680 3.741231679916382 -0.578420221805573 0.000000000000000
-12.573850631713867 1.688796997070312 -0.280052185058594 0.000000000000000
-20.154462814331055 3.813138961791992 -0.578994154930115 0.000000000000000
-6.952315807342529 0.915303468704224 0.149468511343002 0.000000000000000
-23.241477966308594 4.415769100189209 4.198010444641113 0.003921568859369
-19.345001220703125 3.722761392593384 -0.555277764797211 0.000000000000000
-21.114850997924805 4.149450778961182 -0.608402192592621 0.003921568859369
-9.764369010925293 2.317901372909546 -0.327900946140289 0.000000000000000
-5.072574138641357 0.689783751964569 1.203223943710327 0.000000000000000
-15.243108749389648 3.011859655380249 2.718734264373779 0.000000000000000
-22.748384475708008 4.641494274139404 -0.658009946346283 0.003921568859369
-14.431706428527832 1.561548948287964 -0.242301106452942 0.000000000000000
-22.733625411987305 4.721096038818359 -0.658350229263306 0.003921568859369
-8.221395492553711 0.858491361141205 0.045278221368790 0.000000000000000
-21.787363052368164 3.448194742202759 -0.999143779277802 0.003921568859369
-22.601896286010742 3.580904960632324 -0.518699944019318 0.003921568859369
-23.115531921386719 4.884815692901611 -0.670249164104462 0.003921568859369
-21.440185546875000 3.466212987899780 -0.983275592327118 0.003921568859369
-22.238195419311523 3.599092483520508 -0.510368406772614 0.003921568859369
-7.381136894226074 1.146885395050049 0.001020239433274 0.000000000000000
-21.148895263671875 3.487655162811279 -0.970019996166229 0.003921568859369
-12.565453529357910 2.633574485778809 2.229001045227051 0.000000000000000
-21.824022293090820 3.602364301681519 -0.500822484493256 0.003921568859369
-12.560058593750000 2.676479578018188 -0.355307191610336 0.000000000000000
-20.884641647338867 3.515517950057983 -0.958070099353790 0.003921568859369
-21.559154510498047 3.632547855377197 -0.494828790426254 0.003921568859369
-19.967342376708984 3.425845384597778 -0.915152311325073 0.000000000000000
-21.176214218139648 3.639995336532593 -0.486030817031860 0.003921568859369
-19.888418197631836 3.481239318847656 -0.911971032619476 0.000000000000000
-20.962688446044922 3.675407171249390 -0.481252878904343 0.003921568859369
-9.032569885253906 1.977486252784729 -0.250320851802826 0.000000000000000
-19.789703369140625 3.532501697540283 -0.907857179641724 0.000000000000000
-20.650854110717773 3.691243171691895 -0.474138140678406 0.003921568859369
-20.897680282592773 4.845802307128906 -0.606778979301453 0.003921568859369
-19.796888351440430 3.603047609329224 -0.908780097961426 0.000000000000000
-20.445274353027344 3.724894046783447 -0.469547569751740 0.003921568859369
-20.973888397216797 4.939164161682129 -0.609570264816284 0.003921568859369
-19.721403121948242 3.657898902893066 -0.905785620212555 0.000000000000000
-20.322181701660156 3.772966146469116 -0.466920167207718 0.003921568859369
-19.610475540161133 3.705379486083984 -0.901112198829651 0.000000000000000
-20.293188095092773 3.838621377944946 -0.466536164283752 0.003921568859369
-19.374044418334961 3.727179527282715 -0.890469491481781 0.000000000000000
-19.503091812133789 3.752779722213745 -0.448018759489059 0.000000000000000
-20.668914794921875 4.057485580444336 -0.952764451503754 0.003921568859369
-20.246307373046875 3.971829652786255 -0.466048568487167 0.003921568859369
-29.154676437377930 5.881363391876221 1.695471525192261 0.003921568859369
-20.636642456054688 4.125758171081543 -0.952382206916809 0.003921568859369
-20.218248367309570 4.039433956146240 -0.465946197509766 0.003921568859369
-8.684952735900879 1.283527851104736 -0.141686677932739 0.000000000000000
-20.564958572387695 5.212531089782715 -0.600177228450775 0.003921568859369
-28.883844375610352 5.928454399108887 1.680629134178162 0.003921568859369
-20.637760162353516 4.198882579803467 -0.953118085861206 0.003921568859369
-22.280586242675781 3.448739051818848 -0.894259274005890 0.003921568859369
-20.223596572875977 4.111921787261963 -0.466403365135193 0.003921568859369
-20.206539154052734 5.191958904266357 -0.589892923831940 0.003921568859369
-20.607347488403320 4.265402317047119 -0.952361404895782 0.003921568859369
-10.020081520080566 2.005343914031982 1.180960178375244 0.000000000000000
-21.858161926269531 3.457530498504639 -0.877268671989441 0.003921568859369
-10.601058959960938 2.645015716552734 1.883434534072876 0.000000000000000
-20.213031768798828 4.181167125701904 -0.466486603021622 0.003921568859369
-20.192150115966797 5.261336326599121 -0.589998960494995 0.003921568859369
-8.101570129394531 1.623360753059387 0.000982263823971 0.000000000000000
-21.597587585449219 3.490310668945312 -0.866972327232361 0.003921568859369
-20.213947296142578 4.252929210662842 -0.466850221157074 0.003921568859369
-21.285823822021484 3.512601852416992 -0.854553759098053 0.003921568859369
-20.187263488769531 4.318708896636963 -0.466559559106827 0.003921568859369
-20.930849075317383 3.525243997573853 -0.840339660644531 0.003921568859369
-20.187675476074219 4.390489101409912 -0.466923117637634 0.003921568859369
-20.741947174072266 3.561228990554810 -0.832983195781708 0.003921568859369
-20.219791412353516 4.466018199920654 -0.468034774065018 0.003921568859369
-11.215407371520996 1.912974238395691 -0.438052117824554 0.000000000000000
-20.219663619995117 4.538016796112061 -0.468398183584213 0.003921568859369
-20.174177169799805 3.601686954498291 -0.810433506965637 0.003921568859369
-15.252610206604004 4.205182552337646 2.776271820068359 0.000000000000000
-20.250413894653320 4.617391109466553 -0.469509214162827 0.003921568859369
-29.561178207397461 6.914324760437012 0.691218674182892 0.003921568859369
-6.686668395996094 1.766205549240112 -0.514665842056274 0.000000000000000
-28.925937652587891 6.762386322021484 1.693748116493225 0.003921568859369
-9.099625587463379 2.025374889373779 -0.405223309993744 0.000000000000000
-19.910093307495117 3.622705936431885 -0.799975275993347 0.003921568859369
-20.226394653320312 4.684033393859863 -0.469311892986298 0.003921568859369
-19.795265197753906 3.670480012893677 -0.795720934867859 0.003921568859369
-20.213806152343750 4.753387928009033 -0.469394862651825 0.003921568859369
-19.464593887329102 3.675407648086548 -0.782487869262695 0.003921568859369
-20.266983032226562 4.838972091674805 -0.471066415309906 0.003921568859369
-19.360174179077148 3.724897861480713 -0.333929449319839 0.003921568859369
-20.817438125610352 4.014530181884766 -0.839779376983643 0.003921568859369
-20.239833831787109 4.907481670379639 -0.471057116985321 0.003921568859369
-7.499475955963135 2.110650062561035 -0.376537591218948 0.000000000000000
-20.811134338378906 4.086630821228027 -0.840095460414886 0.003921568859369
-20.307855606079102 4.997612476348877 -0.473102182149887 0.003921568859369
-20.812400817871094 4.160352706909180 -0.840737998485565 0.003921568859369
-8.712933540344238 2.513193130493164 1.547885775566101 0.000000000000000
-20.359991073608398 5.084295272827148 -0.474773496389389 0.003921568859369
-29.270229339599609 7.484825134277344 1.724019646644592 0.003921568859369
-19.610824584960938 4.962259769439697 -0.914923965930939 0.000000000000000
-20.723430633544922 4.215264320373535 -0.837625920772552 0.003921568859369
-20.361467361450195 5.158254623413086 -0.475229918956757 0.003921568859369
-19.593385696411133 5.028555870056152 -0.914913654327393 0.000000000000000
-28.962738037109375 7.616348266601562 1.708727240562439 0.003921568859369
-19.436792373657227 5.057467937469482 -0.908189117908478 0.000000000000000
-13.414424896240234 4.119544982910156 1.098682522773743 0.000000000000000
-22.083986282348633 4.657195568084717 -0.895717740058899 0.003921568859369
-28.848699569702148 7.686204910278320 1.703401923179626 0.003921568859369
-19.481601715087891 5.136667728424072 -0.911163389682770 0.000000000000000
-4.438458919525146 1.245303869247437 -0.209603831171989 0.000000000000000
-21.795211791992188 4.668171405792236 -0.884280502796173 0.003921568859369
-28.875587463378906 7.799596786499023 1.706668019294739 0.003921568859369
-19.652284622192383 5.254594802856445 -0.920291483402252 0.000000000000000
-21.770982742309570 4.740342140197754 -0.883942902088165 0.003921568859369
-19.645368576049805 5.324263095855713 -0.920840442180634 0.000000000000000
-20.916473388671875 4.623389720916748 -0.848836958408356 0.003921568859369
-19.822713851928711 5.446267127990723 -0.930341243743896 0.000000000000000
-20.907995223999023 4.696053504943848 -0.849152624607086 0.003921568859369
-19.899593353271484 5.540877342224121 -0.934992909431458 0.003921568859369
-20.883693695068359 4.765046119689941 -0.848815441131592 0.003921568859369
-20.714490890502930 4.803098201751709 -0.842438340187073 0.003921568859369
-20.696065902709961 4.871585369110107 -0.842755854129791 0.003921568859369
-9.058365821838379 2.525352716445923 0.000963130500168 0.003921568859369
-18.027959823608398 5.403453350067139 0.424735337495804 0.000000000000000
-20.188697814941406 5.039169311523438 -0.824269294738770 0.003921568859369
-20.839996337890625 5.282137870788574 -0.852494657039642 0.003921568859369
-19.874387741088867 5.242683410644531 -0.813945174217224 0.003921568859369
-19.867525100708008 5.313126564025879 -0.814424216747284 0.003921568859369
-20.002040863037109 5.499920368194580 -0.821746468544006 0.003921568859369
-9.094523429870605 3.332817077636719 1.664881944656372 0.000000000000000
-5.567559719085693 1.972941637039185 0.094827413558960 0.000000000000000
-22.051893234252930 8.508172035217285 4.209411144256592 0.003921568859369
-9.274374961853027 3.026605606079102 0.215014815330505 0.000000000000000
-12.941566467285156 5.094851016998291 0.233997717499733 0.000000000000000
-15.079847335815430 5.976902961730957 0.639206171035767 0.000000000000000
-6.460970878601074 1.840058684349060 0.180300325155258 0.000000000000000
-16.907545089721680 6.264916896820068 4.683974742889404 0.003921568859369
-19.217737197875977 6.278090953826904 0.572466790676117 0.003921568859369
-9.434819221496582 4.015508174896240 1.773972868919373 0.000000000000000
-9.843766212463379 4.318708896636963 0.835548162460327 0.000000000000000
-11.505671501159668 4.776461124420166 1.466266632080078 0.000000000000000
-8.640903472900391 3.558679580688477 1.084312915802002 0.000000000000000
-14.292846679687500 6.111265659332275 1.845319867134094 0.000000000000000
-15.504108428955078 7.604345798492432 3.056455373764038 0.003921568859369
-18.245281219482422 9.234560966491699 3.636730670928955 0.003921568859369
-10.360156059265137 4.564099311828613 1.327460169792175 0.000000000000000
-8.777533531188965 4.434853076934814 1.702360510826111 0.000000000000000
-12.663188934326172 6.160331249237061 1.668583273887634 0.000000000000000
-5.124526500701904 2.363355398178101 0.632736802101135 0.000000000000000
-10.938573837280273 6.180745601654053 2.203801631927490 0.000000000000000
-7.644241333007812 4.394370079040527 1.523132205009460 0.000000000000000
-6.124727249145508 3.112548828125000 0.150016263127327 0.000000000000000
-11.700856208801270 6.376947879791260 3.443367242813110 0.000000000000000
-3.887094259262085 1.923963904380798 0.225978165864944 0.000000000000000
-9.829518318176270 6.018253803253174 2.018099784851074 0.000000000000000
-8.214086532592773 4.747915744781494 2.419738292694092 0.000000000000000
-5.130415916442871 2.909239768981934 1.458149671554565 0.000000000000000
-12.200538635253906 7.740767478942871 3.754045009613037 0.000000000000000
-5.784898281097412 3.923681974411011 1.197582602500916 0.000000000000000
-7.844149589538574 5.037374496459961 2.381515026092529 0.000000000000000
-15.329278945922852 10.659388542175293 4.890717029571533 0.003921568859369
-9.419459342956543 6.644636154174805 2.977819204330444 0.000000000000000
-6.311595916748047 5.174429893493652 1.419361233711243 0.000000000000000
-6.961532592773438 5.248243808746338 2.230502843856812 0.000000000000000
-7.484193325042725 6.487429141998291 1.738641858100891 0.000000000000000
-7.738186836242676 7.065827369689941 1.846297860145569 0.000000000000000
-11.454922676086426 9.766317367553711 3.934519290924072 0.000000000000000
-13.234756469726562 12.689373016357422 3.279768466949463 0.003921568859369
-4.006306648254395 3.245240688323975 1.284404635429382 0.000000000000000
-18.647235870361328 23.003032684326172 0.343418300151825 0.003921568859369
-18.436166763305664 23.056747436523438 0.342428207397461 0.003921568859369
-6.820430278778076 7.369342327117920 1.774704217910767 0.000000000000000
-18.318862915039062 23.071838378906250 0.341747015714645 0.003921568859369
-9.893074035644531 11.017281532287598 2.644319057464600 0.000000000000000
-18.046686172485352 22.892745971679688 0.338175863027573 0.003921568859369
-5.192280292510986 5.070087432861328 0.851920306682587 0.000000000000000
-13.152639389038086 15.043097496032715 3.588572502136230 0.003921568859369
-17.777013778686523 22.861892700195312 0.336019158363342 0.003921568859369
-6.731194972991943 6.772577762603760 1.133684515953064 0.000000000000000
-17.464982986450195 22.783525466918945 0.333207011222839 0.003921568859369
-6.851643562316895 7.847757816314697 1.846503376960754 0.000000000000000
-7.655973434448242 8.063155174255371 1.328219890594482 0.000000000000000
-5.092488765716553 5.727824687957764 1.344247102737427 0.000000000000000
-14.844521522521973 18.063680648803711 4.211479187011719 0.003921568859369
-8.621438980102539 10.392550468444824 2.410512447357178 0.000000000000000
-5.901340007781982 7.074195384979248 1.628423094749451 0.000000000000000
-6.884837627410889 7.844653606414795 2.719467401504517 0.000000000000000
-9.665292739868164 12.614646911621094 2.849735260009766 0.000000000000000
-9.037403106689453 12.096864700317383 2.706260681152344 0.000000000000000
-14.521941184997559 23.099218368530273 0.317608714103699 0.003921568859369
-4.426291942596436 5.287952423095703 1.775310635566711 0.000000000000000
-13.998630523681641 22.424921035766602 0.307724952697754 0.003921568859369
-14.101255416870117 22.773962020874023 0.311851114034653 0.003921568859369
-16.394214630126953 22.827377319335938 0.650521695613861 0.003921568859369
-6.577656745910645 9.767066955566406 2.105773687362671 0.000000000000000
-16.282510757446289 22.836946487426758 0.649234831333160 0.003921568859369
-16.050472259521484 22.841365814208984 0.646288335323334 0.003921568859369
-5.328861713409424 7.263879299163818 1.077374577522278 0.000000000000000
-5.341784477233887 7.998650074005127 2.517805576324463 0.000000000000000
-7.484879970550537 12.962903976440430 2.693648815155029 0.000000000000000
-1.604180932044983 1.945745587348938 0.281174778938293 0.000000000000000
-6.432831287384033 11.123295783996582 1.034343242645264 0.000000000000000
-1.632105469703674 2.007717132568359 0.289465665817261 0.000000000000000
-1.916880369186401 2.805568456649780 0.261302322149277 0.000000000000000
-13.767005920410156 22.970247268676758 0.621009826660156 0.003921568859369
-1.954454541206360 2.644751071929932 0.821825623512268 0.000000000000000
-2.817515373229980 4.163017749786377 1.289838910102844 0.000000000000000
-3.380627632141113 5.824717044830322 1.193807363510132 0.000000000000000
-13.337123870849609 22.962722778320312 0.615947902202606 0.003921568859369
-4.032070636749268 6.424463272094727 0.907312095165253 0.000000000000000
-3.867034435272217 6.130791187286377 1.887291193008423 0.000000000000000
-10.565900802612305 20.296884536743164 4.140551567077637 0.003921568859369
-10.489737510681152 20.321613311767578 4.138411998748779 0.003921568859369
-10.304547309875488 20.302982330322266 4.120497703552246 0.003921568859369
-7.302159786224365 12.641289710998535 0.840746402740479 0.000000000000000
-10.002825736999512 23.082237243652344 -0.287750065326691 0.003921568859369
-12.751031875610352 23.046295166015625 0.611286580562592 0.003921568859369
-11.132962226867676 25.800420761108398 0.328752666711807 0.003921568859369
-3.943951845169067 6.603144168853760 0.921967983245850 0.000000000000000
-9.884133338928223 23.023124694824219 -0.286577343940735 0.003921568859369
-10.869271278381348 25.416061401367188 0.323433011770248 0.003921568859369
-3.203269004821777 5.264094829559326 1.599466443061829 0.000000000000000
-6.521220207214355 11.608730316162109 1.613471508026123 0.000000000000000
-1.744722485542297 2.583390712738037 0.359226912260056 0.000000000000000
-10.967825889587402 26.708995819091797 0.337963789701462 0.003921568859369
-10.698750495910645 26.569486618041992 0.335328489542007 0.003921568859369
-8.973533630371094 22.822660446166992 -0.280427545309067 0.003921568859369
-11.100531578063965 24.741203308105469 2.203752040863037 0.003921568859369
-9.926175117492676 25.908252716064453 0.325010776519775 0.003921568859369
-10.004975318908691 22.863811492919922 -0.718546807765961 0.003921568859369
-8.898794174194336 23.366748809814453 -0.286036074161530 0.003921568859369
-8.419161796569824 23.045011520385742 -0.280609726905823 0.003921568859369
-9.693142890930176 23.016147613525391 -0.140967860817909 0.003921568859369
-9.618686676025391 23.063312530517578 -0.141045317053795 0.003921568859369
-9.532612800598145 23.093240737915039 -0.141007065773010 0.003921568859369
-8.044860839843750 22.999170303344727 -0.278656542301178 0.003921568859369
-7.601104259490967 23.029899597167969 -0.277386218309402 0.003921568859369
-4.471468925476074 9.723669052124023 2.828703641891479 0.000000000000000
-7.437283992767334 23.084760665893555 -0.277404487133026 0.003921568859369
-10.987642288208008 25.997110366821289 0.656812667846680 0.003921568859369
-10.769147872924805 25.460861206054688 1.604836463928223 0.003921568859369
-7.262540340423584 23.691843032836914 -0.283501476049423 0.003921568859369
-7.063467979431152 23.278875350952148 -0.278262913227081 0.003921568859369
-7.027921676635742 23.463678359985352 -0.280191719532013 0.003921568859369
-6.898631095886230 23.317220687866211 -0.278143376111984 0.003921568859369
-10.631114959716797 26.405767440795898 0.662678241729736 0.003921568859369
-6.799996852874756 23.345905303955078 -0.278249293565750 0.003921568859369
-6.790742397308350 23.634536743164062 -0.281427025794983 0.003921568859369
-6.580701351165771 23.475475311279297 -0.278996855020523 0.003921568859369
-2.589557409286499 5.948727130889893 1.703115105628967 0.000000000000000
-6.420041084289551 23.211627960205078 -0.275561064481735 0.003921568859369
-6.260782241821289 23.264890670776367 -0.275673598051071 0.003921568859369
-6.072463512420654 23.200527191162109 -0.274399220943451 0.003921568859369
-6.387256145477295 24.482301712036133 0.297334104776382 0.003921568859369
-5.999262332916260 23.234838485717773 -0.274571835994720 0.003921568859369
-2.777576684951782 8.376724243164062 0.713868319988251 0.000000000000000
-5.816105842590332 23.616878509521484 -0.278496205806732 0.003921568859369
-5.707949161529541 23.522644042968750 -0.277142584323883 0.003921568859369
-5.900233268737793 24.368970870971680 0.294692307710648 0.003921568859369
-5.521722793579102 23.420841217041016 -0.275500386953354 0.003921568859369
-5.728165626525879 24.358264923095703 0.294154495000839 0.003921568859369
-5.443447589874268 23.474765777587891 -0.275903254747391 0.003921568859369
-9.970635414123535 25.805301666259766 0.163433670997620 0.003921568859369
-6.286356449127197 23.719100952148438 -0.138454988598824 0.003921568859369
-5.054541110992432 24.109910964965820 -0.282113641500473 0.003921568859369
-6.347319126129150 24.342720031738281 -0.141995340585709 0.003921568859369
-5.085821151733398 24.731166839599609 -0.289217948913574 0.003921568859369
-6.248200416564941 24.305135726928711 -0.141638115048409 0.003921568859369
-4.665469646453857 23.017681121826172 -0.268999159336090 0.003921568859369
-4.068179607391357 15.574712753295898 2.922302007675171 0.003921568859369
-3.262932777404785 10.134521484375000 0.002399620600045 0.003921568859369
-4.723776340484619 23.787906646728516 -0.277862429618835 0.003921568859369
-3.851965188980103 14.897994041442871 2.793109655380249 0.000000000000000
-3.298247814178467 12.727978706359863 2.384698390960693 0.000000000000000
-4.471161842346191 23.788209915161133 0.284806519746780 0.003921568859369
-5.592052936553955 24.168081283569336 -0.716055989265442 0.003921568859369
-4.298004627227783 23.748592376708984 0.284032493829727 0.003921568859369
-4.793296337127686 20.478204727172852 3.823897361755371 0.003921568859369
-4.016747474670410 23.607398986816406 0.281910687685013 0.003921568859369
-3.361942052841187 14.623082160949707 2.724981546401978 0.000000000000000
-4.697570323944092 23.221017837524414 -0.684060037136078 0.003921568859369
-6.186780929565430 24.489429473876953 0.589331567287445 0.003921568859369
-4.657814502716064 23.437467575073242 -0.134957864880562 0.003921568859369
-3.705029010772705 25.093631744384766 0.298597544431686 0.003921568859369
-3.418412923812866 23.578220367431641 0.280545771121979 0.003921568859369
-1.149333715438843 3.473427057266235 0.209550857543945 0.000000000000000
-3.391916990280151 24.029249191284180 0.285765349864960 0.003921568859369
-3.225775241851807 23.372884750366211 -0.270447760820389 0.003921568859369
-5.853804111480713 24.591051101684570 0.589942038059235 0.003921568859369
-4.297694206237793 23.304569244384766 -0.684350550174713 0.003921568859369
-3.140835046768188 23.354993820190430 -0.270113110542297 0.003921568859369
-3.227408170700073 24.077728271484375 0.286116927862167 0.003921568859369
-2.126244068145752 10.497595787048340 1.943987607955933 0.000000000000000
-4.223873138427734 23.363157272338867 -0.134051561355591 0.003921568859369
-3.689787387847900 29.697549819946289 -0.343594938516617 0.003921568859369
-5.537665367126465 24.373598098754883 0.583444714546204 0.003921568859369
-2.160627841949463 11.687970161437988 2.159351825714111 0.000000000000000
-1.712378144264221 5.507348537445068 0.167191892862320 0.000000000000000
-5.202913761138916 24.957860946655273 1.484426498413086 0.003921568859369
-1.259552359580994 5.016503334045410 0.628371596336365 0.000000000000000
-4.556476116180420 22.919557571411133 -0.538929522037506 0.003921568859369
-3.157812833786011 23.546329498291016 -0.134219929575920 0.003921568859369
-5.404294013977051 23.774585723876953 0.710845947265625 0.003921568859369
-1.715944051742554 23.168029785156250 -0.266595870256424 0.003921568859369
-5.446835041046143 24.440004348754883 0.148428902029991 0.003921568859369
-4.273484230041504 24.828475952148438 0.588493943214417 0.003921568859369
-3.951628684997559 25.055320739746094 0.592649042606354 0.003921568859369
-1.943709373474121 11.757459640502930 3.182843446731567 0.000000000000000
-3.025808334350586 20.142230987548828 2.498561382293701 0.003921568859369
-2.124228239059448 23.141084671020508 -0.131340771913528 0.003921568859369
-2.079574346542358 23.690027236938477 -0.134443446993828 0.003921568859369
-0.665013909339905 23.719139099121094 -0.272516727447510 0.003921568859369
-0.581982970237732 23.700214385986328 -0.272275865077972 0.003921568859369
-0.508303284645081 24.320911407470703 -0.279426544904709 0.003921568859369
-0.515648841857910 3.523351907730103 0.645357191562653 0.000000000000000
-1.385559439659119 22.996715545654297 -0.666509270668030 0.003921568859369
-0.623017668724060 3.478412151336670 0.937654614448547 0.000000000000000
0.074691444635391 23.634510040283203 -0.271459728479385 0.003921568859369
-1.046060919761658 5.987064838409424 0.177471682429314 0.000000000000000
0.331496447324753 23.753211975097656 -0.273004978895187 0.003921568859369
-0.896173596382141 26.755569458007812 2.188560485839844 0.003921568859369
0.562880396842957 25.558828353881836 0.301554799079895 0.003921568859369
-0.718984425067902 27.715818405151367 2.266777038574219 0.003921568859369
0.570736646652222 23.381368637084961 -0.268773347139359 0.003921568859369
-0.611046373844147 26.740411758422852 2.186964750289917 0.003921568859369
0.644027948379517 23.274429321289062 -0.267563819885254 0.003921568859369
0.637936711311340 23.126512527465820 0.273080706596375 0.003921568859369
-0.522243022918701 26.725334167480469 2.185671806335449 0.003921568859369
-0.243254661560059 26.351388931274414 2.155077457427979 0.003921568859369
-0.170438155531883 23.013242721557617 -0.666271030902863 0.003921568859369
-0.012184798717499 22.823835372924805 -0.660800755023956 0.003921568859369
0.023305803537369 25.615802764892578 2.095157861709595 0.003921568859369
-0.447119116783142 3.937642574310303 1.057748317718506 0.000000000000000
0.077465891838074 22.814701080322266 -0.660697102546692 0.003921568859369
1.210985064506531 23.068658828735352 0.272673577070236 0.003921568859369
0.121924370527267 25.558723449707031 2.090457916259766 0.003921568859369
0.199299842119217 24.959222793579102 2.041596651077271 0.003921568859369
1.374886274337769 23.097475051879883 0.273160278797150 0.003921568859369
0.352797716856003 27.807069778442383 2.274560451507568 0.003921568859369
0.332723110914230 23.422552108764648 -0.132722124457359 0.003921568859369
1.447941660881042 22.991800308227539 0.271995365619659 0.003921568859369
1.909544825553894 27.794141769409180 0.328615754842758 0.003921568859369
-0.734444975852966 23.631090164184570 1.379859209060669 0.003921568859369
0.538459658622742 27.522930145263672 2.251775264739990 0.003921568859369
0.598144531250000 26.579679489135742 2.174892902374268 0.003921568859369
2.458474874496460 29.541271209716797 0.349641859531403 0.003921568859369
0.750199079513550 23.705205917358398 1.940659523010254 0.003921568859369
-0.405173242092133 22.972904205322266 -0.531246423721313 0.003921568859369
0.786529183387756 22.720052719116211 -0.658530473709106 0.003921568859369
1.950104832649231 23.209421157836914 0.275097519159317 0.003921568859369
-0.329683065414429 26.230052947998047 3.224391460418701 0.003921568859369
0.871744275093079 22.831943511962891 -0.661885738372803 0.003921568859369
-0.244915843009949 22.913131713867188 -0.529837667942047 0.003921568859369
-0.275830715894699 3.368358850479126 0.904435992240906 0.000000000000000
-0.164019361138344 23.072772979736328 -0.533536911010742 0.003921568859369
-0.063608199357986 24.161294937133789 1.410534143447876 0.003921568859369
-0.048217445611954 25.863771438598633 3.179393529891968 0.003921568859369
1.074568033218384 23.401775360107422 1.917093873023987 0.003921568859369
-0.073107987642288 23.100187301635742 -0.534315228462219 0.003921568859369
1.310413837432861 25.895368576049805 -0.751442611217499 0.003921568859369
2.280597925186157 23.144086837768555 -0.267583400011063 0.003921568859369
1.169602870941162 23.610235214233398 -0.134057641029358 0.003921568859369
2.353652238845825 23.067434310913086 -0.266789942979813 0.003921568859369
2.334958553314209 22.904464721679688 0.271897464990616 0.003921568859369
0.175850838422775 28.547134399414062 1.666498303413391 0.003921568859369
0.269068837165833 28.217973709106445 1.647412061691284 0.003921568859369
0.229232966899872 26.197275161743164 3.220886945724487 0.003921568859369
0.165643602609634 22.936780929565430 -0.530579984188080 0.003921568859369
2.784675359725952 25.271965026855469 -0.292638033628464 0.003921568859369
0.304192543029785 25.469612121582031 0.596322774887085 0.003921568859369
2.507340192794800 22.988849639892578 0.273134171962738 0.003921568859369
1.491206407546997 23.485797882080078 1.926259994506836 0.003921568859369
0.347045660018921 23.732580184936523 -0.549105346202850 0.003921568859369
1.553701639175415 23.285034179687500 1.910302877426147 0.003921568859369
0.018508553504944 3.839842557907104 0.704094529151917 0.000000000000000
3.022059202194214 25.100809097290039 -0.290995955467224 0.003921568859369
1.667993783950806 23.726760864257812 -0.134876236319542 0.003921568859369
2.909148454666138 22.972877502441406 -0.266456663608551 0.003921568859369
0.880313932895660 28.826805114746094 1.684040904045105 0.003921568859369
3.040005922317505 23.346261978149414 -0.270928382873535 0.003921568859369
-0.411257386207581 24.532588958740234 0.717327058315277 0.003921568859369
1.999741077423096 23.706150054931641 1.947814583778381 0.003921568859369
0.936635375022888 23.792095184326172 1.390703201293945 0.003921568859369
1.013227820396423 25.300125122070312 3.113992691040039 0.003921568859369
2.082033395767212 23.550874710083008 1.935623049736023 0.003921568859369
0.958559513092041 22.735767364501953 0.533035218715668 0.003921568859369
1.175801753997803 26.746656417846680 3.292539119720459 0.003921568859369
2.112148046493530 23.078956604003906 1.897511005401611 0.003921568859369
0.169485896825790 8.189818382263184 2.199869394302368 0.000000000000000
0.725580453872681 9.671361923217773 1.775035262107849 0.000000000000000
3.290944099426270 22.756237030029297 -0.264715015888214 0.003921568859369
1.432970285415649 29.574062347412109 0.693110227584839 0.003921568859369
-0.205425351858139 7.847739696502686 0.230329453945160 0.000000000000000
2.227876901626587 23.399507522583008 1.924561500549316 0.003921568859369
0.165350824594498 7.621210098266602 2.047639131546021 0.000000000000000
1.225874781608582 23.175405502319336 1.355803370475769 0.003921568859369
1.369899988174438 25.402776718139648 3.129151105880737 0.003921568859369
2.963783264160156 28.404079437255859 2.337711095809937 0.003921568859369
2.398744106292725 22.706193923950195 -0.129535451531410 0.003921568859369
1.407725095748901 24.588556289672852 3.029646396636963 0.003921568859369
1.413315415382385 14.338136672973633 2.635008335113525 0.000000000000000
1.481844544410706 24.539590835571289 3.024288654327393 0.003921568859369
1.695106983184814 25.061052322387695 3.090161561965942 0.003921568859369
3.856218099594116 22.741756439208984 -0.265585988759995 0.003921568859369
1.729630351066589 24.409059524536133 3.010655879974365 0.003921568859369
3.168621301651001 26.173875808715820 2.158883571624756 0.003921568859369
2.831700563430786 22.990121841430664 -0.131419137120247 0.003921568859369
1.798235774040222 24.208086013793945 2.986761331558228 0.003921568859369
1.718218922615051 22.352619171142578 0.525457739830017 0.003921568859369
2.012790679931641 25.659898757934570 3.166776657104492 0.003921568859369
3.587804794311523 27.855136871337891 2.299657583236694 0.003921568859369
3.768548727035522 28.322353363037109 2.339250326156616 0.003921568859369
0.790812730789185 11.367534637451172 3.061439037322998 0.000000000000000
2.070424556732178 24.272735595703125 0.570719599723816 0.003921568859369
1.988259077072144 23.419347763061523 1.373434066772461 0.003921568859369
3.287639379501343 23.755250930786133 1.964260458946228 0.003921568859369
4.362382888793945 22.752159118652344 0.273722916841507 0.003921568859369
4.095548629760742 28.511835098266602 2.358500957489014 0.003921568859369
3.305141687393188 22.808082580566406 -0.668566524982452 0.003921568859369
1.242110490798950 26.171632766723633 0.155701979994774 0.003921568859369
3.391241073608398 22.810636520385742 -0.669022619724274 0.003921568859369
2.218804359436035 22.476497650146484 0.529380679130554 0.003921568859369
4.475565433502197 22.483648300170898 0.270921319723129 0.003921568859369
2.277014493942261 23.004131317138672 1.351108908653259 0.003921568859369
1.131553769111633 8.355813980102539 1.546736836433411 0.000000000000000
2.505935192108154 22.945510864257812 1.349268317222595 0.003921568859369
1.126960873603821 8.153059005737305 1.510129928588867 0.000000000000000
3.367059707641602 29.178291320800781 0.688000082969666 0.003921568859369
1.471456646919250 23.116462707519531 0.677803754806519 0.003921568859369
2.742524623870850 24.161922454833984 2.993047714233398 0.003921568859369
2.636348724365234 22.692533493041992 0.535582542419434 0.003921568859369
2.836230993270874 24.258144378662109 3.006226301193237 0.003921568859369
2.929171800613403 24.310153961181641 3.014039754867554 0.003921568859369
2.811818361282349 22.694351196289062 1.336812615394592 0.003921568859369
3.865671873092651 22.241685867309570 1.849829912185669 0.003921568859369
4.125997543334961 23.648326873779297 4.388516902923584 0.003921568859369
1.821403622627258 23.282693862915039 0.138900503516197 0.003921568859369
1.897481560707092 23.263732910156250 0.138837352395058 0.003921568859369
3.613484382629395 27.231300354003906 3.380746841430664 0.003921568859369
0.196072399616241 2.341187000274658 0.436202228069305 0.000000000000000
3.351922750473022 24.737979888916016 3.072947740554810 0.003921568859369
4.295418262481689 23.203416824340820 4.314603328704834 0.003921568859369
1.989118933677673 22.498243331909180 0.661031901836395 0.003921568859369
3.051708459854126 22.135906219482422 1.306566476821899 0.003921568859369
4.452946186065674 23.168149948120117 -0.684741914272308 0.003921568859369
3.257995843887329 22.994417190551758 0.544457554817200 0.003921568859369
2.246892452239990 23.464468002319336 0.689867556095123 0.003921568859369
0.725436449050903 6.267396926879883 1.701664447784424 0.000000000000000
3.576179027557373 23.458021163940430 2.921763658523560 0.003921568859369
4.596970558166504 22.679681777954102 4.232089042663574 0.003921568859369
3.495992183685303 22.473339080810547 2.800792455673218 0.003921568859369
4.657713890075684 22.578014373779297 4.216303348541260 0.003921568859369
2.419924497604370 22.181312561035156 0.653258383274078 0.003921568859369
2.617750406265259 16.849058151245117 4.582737922668457 0.003921568859369
4.717807769775391 22.476200103759766 4.200518131256104 0.003921568859369
3.626674652099609 22.764808654785156 -0.534185349941254 0.003921568859369
5.014197349548340 23.005825042724609 -0.133957311511040 0.003921568859369
3.059350728988647 25.179252624511719 0.150746762752533 0.003921568859369
4.007877349853516 23.457954406738281 2.930433034896851 0.003921568859369
4.914962291717529 22.215967178344727 4.161629676818848 0.003921568859369
5.257394790649414 23.300750732421875 -0.693528473377228 0.003921568859369
4.129224777221680 23.631759643554688 -0.556091129779816 0.003921568859369
5.422980785369873 23.633125305175781 -0.137966021895409 0.003921568859369
3.948271751403809 22.221031188964844 1.320008754730225 0.003921568859369
4.033754825592041 22.673250198364258 -0.533831238746643 0.003921568859369
4.135532855987549 22.775987625122070 -0.536605656147003 0.003921568859369
6.513265609741211 22.559638977050781 -0.270843446254730 0.003921568859369
5.034433364868164 26.479429244995117 3.318768024444580 0.003921568859369
5.729920864105225 28.912700653076172 0.690672039985657 0.003921568859369
4.473429203033447 22.830924987792969 -0.539359211921692 0.003921568859369
5.699785232543945 22.731494903564453 4.287301540374756 0.003921568859369
5.802511692047119 22.797319412231445 -0.683149755001068 0.003921568859369
5.566042900085449 27.208814620971680 3.419778108596802 0.003921568859369
6.560443878173828 25.655977249145508 2.170434713363647 0.003921568859369
5.652567386627197 27.149566650390625 3.414908170700073 0.003921568859369
5.923748970031738 22.932645797729492 4.333256244659424 0.003921568859369
4.055760860443115 25.216791152954102 0.151762813329697 0.003921568859369
6.800922393798828 25.796354293823242 2.186249971389771 0.003921568859369
6.011831283569336 22.903432846069336 4.331676006317139 0.003921568859369
6.902607917785645 25.813911437988281 2.189841270446777 0.003921568859369
6.603268623352051 24.399181365966797 2.071908235549927 0.003921568859369
4.949658393859863 22.007249832153320 2.779169082641602 0.003921568859369
7.738226413726807 26.993051528930664 2.301303625106812 0.003921568859369
7.884965896606445 27.140748977661133 2.316298723220825 0.003921568859369
5.625686645507812 23.406730651855469 -0.558340311050415 0.003921568859369
8.086935997009277 27.123977661132812 -0.822092115879059 0.003921568859369
6.886273860931396 23.211341857910156 4.430075645446777 0.003921568859369
7.141498565673828 28.634548187255859 3.634344577789307 0.003921568859369
3.405520915985107 11.725072860717773 2.240720272064209 0.000000000000000
5.674706459045410 22.612531661987305 2.872874259948730 0.003921568859369
6.627225399017334 25.849637985229492 1.560652136802673 0.003921568859369
5.732174873352051 22.472854614257812 2.857609987258911 0.003921568859369
8.080036163330078 26.107465744018555 2.239927291870117 0.003921568859369
9.891164779663086 26.847358703613281 0.337605565786362 0.003921568859369
7.023421287536621 26.964647293090820 3.431755781173706 0.003921568859369
8.693968772888184 27.702552795410156 2.379375219345093 0.003921568859369
3.598531007766724 11.873646736145020 2.276519536972046 0.000000000000000
5.670766830444336 21.630157470703125 2.755672454833984 0.003921568859369
7.236870765686035 27.005237579345703 3.443478345870972 0.003921568859369
7.534353256225586 27.336221694946289 0.664629697799683 0.003921568859369
7.255079269409180 26.006141662597656 0.632980823516846 0.003921568859369
8.883815765380859 26.686212539672852 2.305455923080444 0.003921568859369
9.166812896728516 27.204465866088867 2.353030204772949 0.003921568859369
7.843932628631592 23.109483718872070 -0.709184646606445 0.003921568859369
6.413545608520508 22.488174438476562 2.882050752639771 0.003921568859369
8.972657203674316 26.343448638916016 2.281361103057861 0.003921568859369
5.100105762481689 15.250432968139648 2.947700262069702 0.003921568859369
7.472023487091064 25.742494583129883 0.628520309925079 0.003921568859369
10.568730354309082 26.387870788574219 0.335549652576447 0.003921568859369
7.463281631469727 25.713504791259766 1.566307067871094 0.003921568859369
9.069874763488770 26.326221466064453 2.282671213150024 0.003921568859369
6.622272491455078 22.899679183959961 -0.553121924400330 0.003921568859369
7.991633892059326 23.014944076538086 -0.708012104034424 0.003921568859369
2.846563100814819 8.601272583007812 1.667120814323425 0.000000000000000
2.868558168411255 8.568292617797852 1.662816166877747 0.000000000000000
8.167607307434082 22.959360122680664 -0.708272159099579 0.003921568859369
4.820100784301758 13.648899078369141 2.654737710952759 0.000000000000000
9.377907752990723 25.730472564697266 2.245067834854126 0.003921568859369
8.446757316589355 26.903488159179688 3.473639726638794 0.003921568859369
8.521787643432617 22.942512512207031 -0.711381077766418 0.003921568859369
8.366009712219238 26.337049484252930 3.404379844665527 0.003921568859369
9.548799514770508 25.640529632568359 2.243126392364502 0.003921568859369
11.374495506286621 26.218967437744141 0.337256550788879 0.003921568859369
8.450430870056152 26.284317016601562 3.401460170745850 0.003921568859369
9.215939521789551 24.508649826049805 2.147023916244507 0.003921568859369
2.397637844085693 6.786563873291016 1.327526569366455 0.000000000000000
8.562648773193359 26.330774307250977 3.411222696304321 0.003921568859369
11.712009429931641 26.493305206298828 -0.334666520357132 0.003921568859369
10.351332664489746 26.911714553833008 2.363690614700317 0.003921568859369
7.525688171386719 22.951328277587891 -0.560631275177002 0.003921568859369
9.017114639282227 23.273328781127930 -0.725512325763702 0.003921568859369
6.536739349365234 23.488391876220703 0.144965991377831 0.003921568859369
11.807654380798340 26.458761215209961 0.341920524835587 0.003921568859369
8.614113807678223 25.881010055541992 1.595793366432190 0.003921568859369
9.337006568908691 24.080425262451172 2.118046522140503 0.003921568859369
9.515904426574707 24.283786773681641 2.138904094696045 0.003921568859369
7.795958518981934 27.154449462890625 0.167786493897438 0.003921568859369
8.018916130065918 27.555574417114258 0.170432999730110 0.003921568859369
10.487709045410156 26.178514480590820 2.312241792678833 0.003921568859369
12.436667442321777 26.820247650146484 0.348662376403809 0.003921568859369
9.477108955383301 27.135919570922852 3.540845394134521 0.003921568859369
2.805693387985229 8.434788703918457 2.401442289352417 0.000000000000000
8.857207298278809 25.120223999023438 0.624468803405762 0.003921568859369
8.791406631469727 24.937974929809570 1.546988606452942 0.003921568859369
9.492296218872070 26.881618499755859 3.512072801589966 0.003921568859369
8.147720336914062 23.152906417846680 -0.569838464260101 0.003921568859369
8.831145286560059 24.776611328125000 0.616725981235504 0.003921568859369
9.599680900573730 26.884902954101562 3.516957759857178 0.003921568859369
8.255229949951172 22.947702407836914 -0.566209614276886 0.003921568859369
9.414296150207520 25.815034866333008 3.385756015777588 0.003921568859369
9.424614906311035 25.569522857666016 3.357958316802979 0.003921568859369
10.052839279174805 23.662517547607422 2.108489751815796 0.003921568859369
9.517388343811035 25.279346466064453 3.328704118728638 0.003921568859369
10.451363563537598 24.119121551513672 2.155740737915039 0.003921568859369
9.084474563598633 23.903577804565430 0.599770545959473 0.003921568859369
9.563880920410156 25.137939453125000 3.314564466476440 0.003921568859369
9.873530387878418 25.669116973876953 3.389203548431396 0.003921568859369
7.591959953308105 22.854272842407227 0.143179640173912 0.003921568859369
10.470347404479980 26.912305831909180 0.677003383636475 0.003921568859369
9.826961517333984 25.290565490722656 3.343845129013062 0.003921568859369
10.357065200805664 23.243988037109375 2.087342500686646 0.003921568859369
10.184909820556641 25.941261291503906 0.653479337692261 0.003921568859369
10.419135093688965 23.176225662231445 2.084415674209595 0.003921568859369
10.889648437500000 24.203226089477539 4.857645511627197 0.003921568859369
9.965820312500000 25.115032196044922 3.329542160034180 0.003921568859369
10.347743988037109 22.788076400756836 2.052658319473267 0.003921568859369
0.790666043758392 1.863731741905212 -0.023437993600965 0.000000000000000
8.194295883178711 20.529508590698242 5.945111274719238 0.003921568859369
11.218282699584961 24.446170806884766 4.922091007232666 0.003921568859369
13.182955741882324 25.131662368774414 0.334733694791794 0.003921568859369
10.077702522277832 24.889970779418945 1.571121931076050 0.003921568859369
10.072778701782227 24.878341674804688 3.307604551315308 0.003921568859369
11.031899452209473 23.829479217529297 4.805814743041992 0.003921568859369
10.608760833740234 22.724321365356445 -0.729321658611298 0.003921568859369
13.365170478820801 25.261030197143555 0.337084323167801 0.003921568859369
10.772364616394043 23.068912506103516 2.088184833526611 0.003921568859369
10.653432846069336 22.614374160766602 -0.726995408535004 0.003921568859369
11.779824256896973 22.121603012084961 0.295867025852203 0.003921568859369
11.285555839538574 23.932752609252930 2.169960737228394 0.003921568859369
11.230312347412109 23.817949295043945 4.819464206695557 0.003921568859369
10.805452346801758 22.727539062500000 -0.731863677501678 0.003921568859369
13.458796501159668 25.014797210693359 0.335079312324524 0.003921568859369
12.588107109069824 26.411745071411133 2.398663520812988 0.003921568859369
11.289382934570312 23.728338241577148 4.809420585632324 0.003921568859369
12.831879615783691 23.465166091918945 0.315627425909042 0.003921568859369
11.421674728393555 23.374202728271484 4.762063503265381 0.003921568859369
14.052423477172852 25.257247924804688 -0.334218114614487 0.003921568859369
10.986900329589844 22.303161621093750 2.039675951004028 0.003921568859369
13.915100097656250 24.811004638671875 -0.328942626714706 0.003921568859369
13.877473831176758 24.744911193847656 0.334732413291931 0.003921568859369
11.140228271484375 22.413433074951172 2.053364038467407 0.003921568859369
11.502356529235840 25.995458602905273 3.503263473510742 0.003921568859369
11.191232681274414 22.320459365844727 2.048482656478882 0.003921568859369
10.633734703063965 23.841476440429688 0.612047255039215 0.003921568859369
12.184481620788574 24.061063766479492 2.211535692214966 0.003921568859369
11.076362609863281 24.589000701904297 3.323598623275757 0.003921568859369
11.620694160461426 22.768344879150391 2.096545219421387 0.003921568859369
11.769545555114746 25.852081298828125 3.500179529190063 0.003921568859369
13.614728927612305 26.377655029296875 2.433395862579346 0.003921568859369
12.049704551696777 23.386032104492188 4.815046310424805 0.003921568859369
10.389667510986328 22.866962432861328 -0.583461225032806 0.003921568859369
11.332082748413086 24.679105758666992 1.588961482048035 0.003921568859369
11.235247611999512 24.471820831298828 3.318732976913452 0.003921568859369
13.585806846618652 26.100131988525391 2.412226915359497 0.003921568859369
13.280197143554688 25.317359924316406 5.231371402740479 0.003921568859369
12.091920852661133 22.889017105102539 -0.752967119216919 0.003921568859369
14.658754348754883 24.697210311889648 -0.332225710153580 0.003921568859369
13.230870246887207 25.013587951660156 5.178261280059814 0.003921568859369
2.731635808944702 5.387122154235840 -0.176903292536736 0.000000000000000
13.444162368774414 25.189224243164062 5.224923610687256 0.003921568859369
12.412644386291504 20.623870849609375 0.284196943044662 0.003921568859369
12.955871582031250 26.697978973388672 3.656799793243408 0.003921568859369
13.580342292785645 22.022796630859375 0.305359095335007 0.003921568859369
11.215096473693848 22.757913589477539 0.595117926597595 0.003921568859369
13.181805610656738 21.219894409179688 0.294906497001648 0.003921568859369
11.817532539367676 23.960908889770508 1.563625812530518 0.003921568859369
11.342708587646484 20.452205657958984 4.283212184906006 0.003921568859369
