# This PCD file was generated using the MATLAB® pcwrite function
# from Computer Vision Toolbox®.
# .PCD v.7 - Point Cloud Data file format
VERSION .7
FIELDS x y z intensity
SIZE 8 8 8 8
TYPE F F F F
COUNT 1 1 1 1
WIDTH 637
HEIGHT 1
VIEWPOINT 0 0 0 1 0 0 0
POINTS 637
DATA ascii
14.638249397277832 1.863935947418213 -0.256987601518631 0.000000000000000
18.062110900878906 1.350098967552185 1.049986124038696 0.000000000000000
7.499770164489746 0.924207508563995 -0.305536150932312 0.000000000000000
6.644636631011963 0.171188503503799 1.198346734046936 0.000000000000000
8.832490921020508 0.168495520949364 0.714770495891571 0.000000000000000
6.457470417022705 0.703048467636108 -0.261963903903961 0.000000000000000
10.016002655029297 0.088777191936970 0.810350775718689 0.000000000000000
10.729496955871582 0.095133185386658 1.940786600112915 0.000000000000000
14.110158920288086 0.811838150024414 -0.327732920646667 0.000000000000000
16.087873458862305 1.654656291007996 0.092759482562542 0.000000000000000
10.093124389648438 0.052784785628319 -0.058880984783173 0.000000000000000
16.500501632690430 0.829438984394073 -0.000784901669249 0.003921568859369
12.392231941223145 1.227043747901917 0.071192994713783 0.000000000000000
4.340659141540527 0.201787069439888 -0.000596131896600 0.000000000000000
8.749277114868164 -0.013298717327416 -0.051048863679171 0.000000000000000
11.662298202514648 0.508064329624176 -0.000710864725988 0.003921568859369
9.962622642517090 0.918742477893829 0.288133800029755 0.000000000000000
7.616649627685547 -0.093117386102676 1.373311519622803 0.000000000000000
7.918828487396240 -0.148827731609344 0.136167183518410 0.000000000000000
5.330310344696045 0.414236217737198 -0.338049054145813 0.000000000000000
4.474281787872314 0.131332010030746 -0.102864138782024 0.000000000000000
17.661615371704102 0.460930705070496 1.023367762565613 0.000000000000000
19.630548477172852 -0.507839024066925 -0.569983124732971 0.000000000000000
12.281110763549805 -0.316902816295624 -0.071661889553070 0.000000000000000
5.372802257537842 0.325104683637619 -0.093045569956303 0.000000000000000
12.534199714660645 -0.451450258493423 2.269260406494141 0.000000000000000
15.941334724426270 0.864536345005035 0.461085617542267 0.000000000000000
6.607863903045654 -0.601913332939148 -0.229247584939003 0.000000000000000
12.129736900329590 -0.520948350429535 2.196084260940552 0.000000000000000
14.587030410766602 0.028371786698699 0.843317270278931 0.000000000000000
8.742896080017090 -0.406120449304581 0.352089226245880 0.000000000000000
12.156967163085938 0.571566581726074 0.350722372531891 0.000000000000000
4.611639499664307 -0.227966308593750 -0.237869352102280 0.000000000000000
6.028013229370117 0.281259626150131 -0.242827117443085 0.000000000000000
7.599235534667969 0.329422444105148 -0.131900459527969 0.000000000000000
7.110417366027832 -0.378593176603317 -0.205295771360397 0.000000000000000
19.612997055053711 -1.053148627281189 3.563446521759033 0.003921568859369
13.891130447387695 -0.790302038192749 -0.403126239776611 0.000000000000000
9.924236297607422 -0.118025220930576 0.228037938475609 0.000000000000000
7.266590595245361 -0.111162930727005 0.417173832654953 0.000000000000000
7.059390544891357 0.209533751010895 -0.122398465871811 0.000000000000000
11.292541503906250 0.297450453042984 -0.456969350576401 0.000000000000000
6.951509475708008 -0.176647156476974 -0.000805405899882 0.000000000000000
9.449448585510254 0.085255697369576 0.271203309297562 0.000000000000000
7.858386993408203 0.043678145855665 0.224922791123390 0.000000000000000
11.886207580566406 -0.509907722473145 1.447383284568787 0.000000000000000
8.744340896606445 -0.404153436422348 -0.000846177688800 0.003921568859369
5.488591194152832 -0.516523778438568 0.219688683748245 0.000000000000000
12.170594215393066 -1.157349109649658 2.209611654281616 0.000000000000000
12.063547134399414 -0.099687382578850 -0.209708690643311 0.000000000000000
7.107727527618408 -0.058356598019600 -0.286245852708817 0.000000000000000
4.417853355407715 -0.459512233734131 0.790616333484650 0.000000000000000
10.605958938598633 -0.195487827062607 0.060033705085516 0.000000000000000
9.093947410583496 -1.530022144317627 0.105111852288246 0.000000000000000
13.818806648254395 -0.303232342004776 0.397963404655457 0.000000000000000
6.523540019989014 -0.476153790950775 1.721817255020142 0.000000000000000
15.222940444946289 -1.233749628067017 4.061331272125244 0.000000000000000
6.849016666412354 -0.571307241916656 0.829282343387604 0.000000000000000
13.645451545715332 -1.817169427871704 2.488570451736450 0.000000000000000
3.916665554046631 -0.162554994225502 -0.244879588484764 0.000000000000000
7.505107879638672 -0.678967773914337 0.910674154758453 0.000000000000000
8.610093116760254 -1.292371630668640 -0.050905201584101 0.000000000000000
4.749462127685547 -0.752486586570740 0.190073013305664 0.000000000000000
6.989659786224365 -0.460560142993927 -0.121116146445274 0.000000000000000
25.986730575561523 -4.396678447723389 4.781882286071777 0.003921568859369
5.180422306060791 -0.607326328754425 -0.119481816887856 0.000000000000000
7.372108936309814 -1.283188819885254 1.341394901275635 0.000000000000000
5.394313812255859 -1.009207367897034 -0.032145448029041 0.000000000000000
2.876537561416626 -0.398678004741669 0.340849816799164 0.000000000000000
19.035247802734375 -3.003031969070435 -0.001435587415472 0.003921568859369
10.409315109252930 -1.632653117179871 1.276504397392273 0.000000000000000
6.090203285217285 -1.031946182250977 0.741383194923401 0.000000000000000
8.022361755371094 -1.480389237403870 0.984572350978851 0.000000000000000
4.927772045135498 -0.915082514286041 -0.001089174766093 0.000000000000000
4.317495822906494 -1.012026786804199 -0.026042291894555 0.000000000000000
3.358797311782837 -0.779628157615662 0.602355957031250 0.000000000000000
23.999992370605469 -5.960252285003662 4.481738567352295 0.003921568859369
9.885946273803711 -2.470251798629761 -0.293805658817291 0.000000000000000
11.062229156494141 -1.693675875663757 -0.194168493151665 0.000000000000000
6.357535362243652 -1.322881221771240 0.146719902753830 0.000000000000000
24.744657516479492 -5.326833248138428 6.743054389953613 0.003921568859369
24.067169189453125 -7.781331539154053 0.291075050830841 0.003921568859369
8.009393692016602 -2.169312953948975 -0.238705009222031 0.000000000000000
28.808271408081055 -8.225862503051758 2.431672811508179 0.003921568859369
6.925196647644043 -2.147846698760986 -0.208038017153740 0.000000000000000
23.314849853515625 -6.209161281585693 2.942486524581909 0.003921568859369
25.113569259643555 -8.017239570617676 2.138228654861450 0.003921568859369
10.374520301818848 -2.740182638168335 2.834237098693848 0.000000000000000
26.532703399658203 -8.473110198974609 5.049705982208252 0.003921568859369
24.669298171997070 -6.659447193145752 1.477590918540955 0.003921568859369
5.512287139892578 -1.741015791893005 0.228381156921387 0.000000000000000
25.427350997924805 -7.056995391845703 1.525564432144165 0.003921568859369
25.435655593872070 -8.410266876220703 2.172246932983398 0.003921568859369
27.371704101562500 -9.372207641601562 5.244668960571289 0.003921568859369
27.989868164062500 -8.193278312683105 0.672789275646210 0.003921568859369
27.093559265136719 -9.381684303283691 5.197324275970459 0.003921568859369
28.785898208618164 -8.754405975341797 0.694241642951965 0.003921568859369
24.915058135986328 -8.914452552795410 2.145561218261719 0.003921568859369
23.709846496582031 -8.480439186096191 4.561060905456543 0.003921568859369
4.968949794769287 -1.787890911102295 -0.031075719743967 0.000000000000000
25.805517196655273 -8.226258277893066 3.304415464401245 0.003921568859369
26.769454956054688 -9.993549346923828 2.317961454391479 0.003921568859369
26.513057708740234 -10.003665924072266 5.134765625000000 0.003921568859369
23.218852996826172 -7.575342178344727 1.410610556602478 0.003921568859369
5.638175487518311 -1.796360611915588 0.704979538917542 0.000000000000000
25.532283782958984 -8.429112434387207 3.278935432434082 0.003921568859369
23.933385848999023 -7.994428157806396 0.581140816211700 0.003921568859369
24.447599411010742 -8.167494773864746 3.142487764358521 0.003921568859369
23.720422744750977 -8.014398574829102 1.446393013000488 0.003921568859369
27.545989990234375 -9.316493988037109 3.547925233840942 0.003921568859369
24.732898712158203 -9.920904159545898 2.160048007965088 0.003921568859369
15.393187522888184 -6.206922531127930 2.995041608810425 0.003921568859369
15.279379844665527 -6.225183963775635 2.977108240127563 0.003921568859369
25.571634292602539 -9.237367630004883 1.571637749671936 0.003921568859369
23.712003707885742 -10.072792053222656 4.664062976837158 0.003921568859369
27.029529571533203 -10.190526008605957 7.691650390625000 0.003921568859369
24.016143798828125 -9.137133598327637 3.131615638732910 0.003921568859369
26.994602203369141 -10.602381706237793 3.537525653839111 0.003921568859369
24.978586196899414 -9.805227279663086 7.142007350921631 0.003921568859369
23.825687408447266 -10.812348365783691 2.119884729385376 0.003921568859369
22.345911026000977 -10.135643005371094 4.440976619720459 0.003921568859369
23.545276641845703 -10.782870292663574 2.098090410232544 0.003921568859369
24.916696548461914 -9.980980873107910 7.144073963165283 0.003921568859369
26.685459136962891 -10.797013282775879 3.511206626892090 0.003921568859369
23.236053466796875 -10.733063697814941 4.633924484252930 0.003921568859369
22.316909790039062 -10.403996467590332 4.456752777099609 0.003921568859369
26.987535476684570 -11.244379997253418 3.565148591995239 0.003921568859369
25.307128906250000 -10.539253234863281 7.295053482055664 0.003921568859369
24.643886566162109 -11.801773071289062 2.213740587234497 0.003921568859369
24.488374710083008 -10.395645141601562 3.242077827453613 0.003921568859369
24.317090988159180 -10.422127723693848 3.224046945571899 0.003921568859369
23.643325805664062 -12.137514114379883 4.811659336090088 0.003921568859369
23.837247848510742 -10.902827262878418 3.194312095642090 0.003921568859369
13.388378143310547 -6.191781520843506 3.900893211364746 0.000000000000000
25.935136795043945 -12.303947448730469 3.499200105667114 0.003921568859369
26.116670608520508 -13.985151290893555 2.400924444198608 0.003921568859369
24.678319931030273 -11.903049468994141 3.338886499404907 0.003921568859369
26.585216522216797 -12.944489479064941 1.708492398262024 0.003921568859369
24.759582519531250 -13.575488090515137 2.287735462188721 0.003921568859369
24.541414260864258 -13.566009521484375 2.271797180175781 0.003921568859369
3.724739551544189 -1.980366230010986 -0.025026949122548 0.000000000000000
24.894435882568359 -14.001032829284668 5.172291755676270 0.003921568859369
25.426803588867188 -12.938203811645508 1.648075222969055 0.003921568859369
22.314842224121094 -11.532199859619141 3.058076381683350 0.003921568859369
20.003038406372070 -11.673155784606934 1.872913002967834 0.003921568859369
25.357357025146484 -13.332653999328613 1.654432177543640 0.003921568859369
5.177783489227295 -2.976130485534668 -0.035364825278521 0.000000000000000
24.365381240844727 -12.920302391052246 3.360170364379883 0.003921568859369
20.275560379028320 -12.118867874145508 1.910636901855469 0.003921568859369
18.805767059326172 -11.324238777160645 3.966438055038452 0.003921568859369
24.609968185424805 -13.492595672607422 3.420097112655640 0.003921568859369
23.242410659790039 -12.736306190490723 7.048385143280029 0.003921568859369
24.979782104492188 -14.037762641906738 1.654885768890381 0.003921568859369
18.856523513793945 -11.806054115295410 1.798752427101135 0.003921568859369
20.736356735229492 -12.996553421020508 4.426191806793213 0.003921568859369
9.257930755615234 -5.769509792327881 -0.064359866082668 0.000000000000000
20.669153213500977 -11.684278488159180 6.309349060058594 0.003921568859369
25.431247711181641 -14.632757186889648 1.694232463836670 0.003921568859369
19.828929901123047 -11.472353935241699 6.083574771881104 0.003921568859369
4.536902904510498 -3.147853374481201 -0.063949309289455 0.000000000000000
17.667413711547852 -11.732560157775879 1.713412284851074 0.003921568859369
17.969581604003906 -12.025981903076172 1.747234344482422 0.003921568859369
20.522230148315430 -12.353746414184570 6.364067554473877 0.003921568859369
18.032854080200195 -12.159793853759766 1.757640719413757 0.003921568859369
19.939241409301758 -12.188356399536133 6.207773685455322 0.003921568859369
2.773528814315796 -1.588414430618286 -0.001642774324864 0.000000000000000
21.735330581665039 -13.402680397033691 1.473055362701416 0.003921568859369
18.036001205444336 -12.345139503479004 1.766420245170593 0.003921568859369
17.858779907226562 -12.313662528991699 1.753085732460022 0.003921568859369
22.802574157714844 -15.765764236450195 5.017769813537598 0.003921568859369
1.731018781661987 -0.854548692703247 -0.031718056648970 0.003921568859369
18.092771530151367 -12.750080108642578 1.788439273834229 0.003921568859369
9.979057312011719 -6.262042999267578 3.101522207260132 0.000000000000000
19.876024246215820 -12.718962669372559 2.870230197906494 0.003921568859369
20.478815078735352 -14.560555458068848 2.032672643661499 0.003921568859369
9.914978027343750 -6.268719196319580 3.088066339492798 0.000000000000000
21.613092422485352 -13.944616317749023 1.483405709266663 0.003921568859369
12.689600944519043 -9.021099090576172 0.624090313911438 0.000000000000000
21.628316879272461 -15.495220184326172 2.153325557708740 0.003921568859369
9.832649230957031 -6.260680198669434 3.068399906158447 0.000000000000000
16.653772354125977 -11.892283439636230 3.693654775619507 0.003921568859369
21.525789260864258 -15.534556388854980 2.148446798324585 0.003921568859369
19.744014739990234 -12.920542716979980 2.870227813720703 0.003921568859369
20.642629623413086 -14.999629974365234 2.064541578292847 0.003921568859369
12.632995605468750 -9.179572105407715 0.626040220260620 0.000000000000000
12.258792877197266 -9.033160209655762 -0.089868143200874 0.000000000000000
21.224266052246094 -14.326438903808594 3.117252111434937 0.003921568859369
19.336032867431641 -13.135659217834473 6.208703517913818 0.003921568859369
8.506990432739258 -5.724356651306152 -0.002150316722691 0.003921568859369
21.577472686767578 -14.779803276062012 6.950880527496338 0.003921568859369
12.655464172363281 -8.850924491882324 -0.002451995620504 0.000000000000000
8.587200164794922 -6.040158748626709 -0.002166016260162 0.003921568859369
21.899772644042969 -15.678535461425781 3.279554128646851 0.003921568859369
23.304140090942383 -16.812137603759766 3.500763654708862 0.003921568859369
17.440652847290039 -12.629403114318848 2.616897106170654 0.003921568859369
10.850055694580078 -9.584484100341797 0.164019301533699 0.000000000000000
18.381359100341797 -15.158651351928711 -0.690595626831055 0.003921568859369
21.689294815063477 -16.213499069213867 7.198312282562256 0.003921568859369
7.301882743835449 -4.844192981719971 0.047629393637180 0.000000000000000
6.165567874908447 -4.063097476959229 0.206754043698311 0.000000000000000
21.510440826416016 -16.300952911376953 3.285945177078247 0.003921568859369
20.342735290527344 -15.855738639831543 3.139278411865234 0.003921568859369
19.417806625366211 -15.240016937255859 6.557604789733887 0.003921568859369
11.797965049743652 -9.242774009704590 -0.002414909424260 0.003921568859369
10.812501907348633 -9.471170425415039 -0.084818527102470 0.003921568859369
11.911366462707520 -10.456928253173828 1.275936245918274 0.000000000000000
10.682636260986328 -9.474197387695312 0.243435576558113 0.003921568859369
12.778609275817871 -9.390159606933594 0.452882111072540 0.000000000000000
11.942660331726074 -10.694806098937988 1.290266633033752 0.000000000000000
17.691398620605469 -15.959619522094727 4.305595397949219 0.003921568859369
11.002943992614746 -9.491631507873535 -0.002377126365900 0.003921568859369
10.227064132690430 -9.908346176147461 -0.083969503641129 0.003921568859369
10.622678756713867 -9.606853485107422 -0.002352779032663 0.003921568859369
10.459331512451172 -9.652362823486328 -0.002348119160160 0.000000000000000
10.410125732421875 -9.605729103088379 -0.327284544706345 0.000000000000000
10.401971817016602 -9.804760932922363 -0.002350399736315 0.003921568859369
14.845221519470215 -17.397340774536133 0.261431246995926 0.003921568859369
18.794343948364258 -20.602434158325195 2.258058071136475 0.003921568859369
10.667873382568359 -9.568634033203125 0.079724147915840 0.000000000000000
14.344224929809570 -17.513229370117188 0.258791267871857 0.003921568859369
14.410146713256836 -17.721715927124023 0.261158466339111 0.003921568859369
14.630887985229492 -16.296985626220703 1.769797325134277 0.003921568859369
10.422001838684082 -9.600514411926270 -0.246037900447845 0.000000000000000
14.315733909606934 -17.857637405395508 0.261717051267624 0.003921568859369
17.495906829833984 -17.974521636962891 1.446502804756165 0.003921568859369
12.528240203857422 -15.795237541198730 -0.235112473368645 0.003921568859369
14.950097084045410 -17.245689392089844 -0.134167954325676 0.003921568859369
18.437221527099609 -19.484270095825195 1.547658443450928 0.003921568859369
14.973193168640137 -17.519277572631836 -0.135476589202881 0.003921568859369
15.866884231567383 -16.841230392456055 1.333149433135986 0.003921568859369
17.823034286499023 -19.359724044799805 1.518146157264709 0.003921568859369
13.546772956848145 -16.272954940795898 1.710644006729126 0.003921568859369
10.457889556884766 -12.659245491027832 1.322876095771790 0.003921568859369
5.029109477996826 -5.339864253997803 1.910101294517517 0.000000000000000
5.376693248748779 -5.811162948608398 2.066406250000000 0.000000000000000
13.548989295959473 -18.665086746215820 0.263871759176254 0.003921568859369
10.382740020751953 -11.770982742309570 1.900277733802795 0.000000000000000
15.548370361328125 -18.058563232421875 1.373650074005127 0.003921568859369
13.931183815002441 -16.726392745971680 0.499474376440048 0.003921568859369
8.946318626403809 -13.120973587036133 0.180575072765350 0.003921568859369
11.356426239013672 -15.117484092712402 -0.983842074871063 0.003921568859369
8.466208457946777 -12.566507339477539 -0.874605000019073 0.000000000000000
11.305213928222656 -15.255783081054688 -0.987787187099457 0.003921568859369
16.181009292602539 -24.649185180664062 -0.343953251838684 0.003921568859369
15.629014015197754 -23.791559219360352 0.326741129159927 0.003921568859369
14.822645187377930 -16.590261459350586 0.638866424560547 0.003921568859369
8.456117630004883 -12.838626861572266 -0.887632071971893 0.000000000000000
6.654408454895020 -10.074648857116699 0.136376008391380 0.003921568859369
14.626380920410156 -17.190095901489258 0.127475276589394 0.003921568859369
17.073451995849609 -24.679441452026367 -0.176088899374008 0.003921568859369
14.142208099365234 -16.608495712280273 0.626433849334717 0.003921568859369
8.239126205444336 -12.992383003234863 -0.888558864593506 0.000000000000000
4.236853599548340 -6.429720401763916 -0.265080094337463 0.000000000000000
14.259920120239258 -16.869300842285156 0.634455621242523 0.003921568859369
14.330316543579102 -17.075494766235352 0.640384972095490 0.003921568859369
14.166453361511230 -16.996507644653320 -0.895790815353394 0.003921568859369
14.383244514465332 -17.623535156250000 0.128546714782715 0.003921568859369
1.844214916229248 -1.917194724082947 -0.101627163589001 0.000000000000000
10.515472412109375 -14.456735610961914 0.409228652715683 0.000000000000000
6.576789379119873 -10.165741920471191 0.206118732690811 0.000000000000000
4.226883411407471 -6.444579601287842 -0.396912246942520 0.000000000000000
7.218275070190430 -13.514428138732910 -0.885479688644409 0.000000000000000
7.121965408325195 -13.665665626525879 -0.890827715396881 0.000000000000000
6.033288955688477 -11.682411193847656 -0.759159028530121 0.003921568859369
8.804728507995605 -13.126034736633301 0.088515728712082 0.003921568859369
10.181854248046875 -22.685550689697266 0.285545885562897 0.003921568859369
5.073996067047119 -9.664752960205078 0.436024397611618 0.000000000000000
4.237972736358643 -6.409686088562012 -0.307431399822235 0.003921568859369
6.492516517639160 -12.912121772766113 -0.751422822475433 0.003921568859369
12.380193710327148 -26.024057388305664 -0.836631119251251 0.003921568859369
5.700357437133789 -13.362223625183105 -0.840300321578979 0.000000000000000
4.820655345916748 -12.770190238952637 -0.789808750152588 0.003921568859369
5.562468051910400 -14.867536544799805 -0.827365159988403 0.000000000000000
3.321655273437500 -10.483806610107422 0.124625220894814 0.003921568859369
6.340353488922119 -13.998999595642090 -0.977096676826477 0.003921568859369
4.304595470428467 -12.625727653503418 1.077101588249207 0.000000000000000
3.050850391387939 -10.498110771179199 -0.128216132521629 0.003921568859369
4.283120155334473 -15.354094505310059 -0.924645721912384 0.003921568859369
5.505333423614502 -14.628499031066895 -0.723887205123901 0.000000000000000
3.900891065597534 -14.640622138977051 -0.878819584846497 0.000000000000000
5.478974819183350 -14.709562301635742 -0.727050185203552 0.000000000000000
3.572427749633789 -13.700572013854980 -0.821153223514557 0.000000000000000
3.060370206832886 -13.339215278625488 -0.794168710708618 0.003921568859369
3.011493444442749 -13.336638450622559 -0.793470799922943 0.000000000000000
2.957533836364746 -13.282008171081543 -0.789750397205353 0.000000000000000
2.825936079025269 -9.945148468017578 0.414875626564026 0.000000000000000
5.412116050720215 -14.478181838989258 -0.626204311847687 0.000000000000000
3.864465951919556 -15.132339477539062 -0.815571963787079 0.000000000000000
3.343247652053833 -13.071488380432129 -0.704227387905121 0.000000000000000
5.000593662261963 -14.087186813354492 -0.951725006103516 0.000000000000000
3.764706611633301 -15.195697784423828 -0.817663848400116 0.000000000000000
2.465636491775513 -12.094155311584473 -0.430523186922073 0.000000000000000
4.769098281860352 -14.172048568725586 -0.952219545841217 0.000000000000000
4.597814559936523 -14.140283584594727 -0.947102904319763 0.000000000000000
2.514367818832397 -10.920773506164551 -0.584928810596466 0.003921568859369
3.303373336791992 -15.332893371582031 -0.819737672805786 0.000000000000000
4.327250480651855 -13.753243446350098 -0.918455779552460 0.000000000000000
4.126559734344482 -13.931241035461426 -0.925858736038208 0.003921568859369
4.152165412902832 -14.217598915100098 -0.944016754627228 0.003921568859369
3.989725112915039 -13.793766975402832 -0.915116667747498 0.000000000000000
3.949455499649048 -14.252718925476074 -0.942992508411407 0.003921568859369
1.735723018646240 -13.636578559875488 -0.480461657047272 0.003921568859369
2.253832101821899 -12.864717483520508 -0.683071672916412 0.003921568859369
1.639882802963257 -13.638563156127930 -0.799494087696075 0.000000000000000
2.647614717483521 -29.526912689208984 0.343048036098480 0.003921568859369
3.835690021514893 -15.102213859558105 -0.994125187397003 0.000000000000000
3.330040693283081 -13.276238441467285 -0.872906506061554 0.000000000000000
1.390588045120239 -15.623980522155762 -0.913625895977020 0.003921568859369
3.583123683929443 -29.479684829711914 -0.173979386687279 0.003921568859369
2.105434417724609 -29.009637832641602 0.336608976125717 0.003921568859369
1.339482069015503 -15.687011718750000 -0.917112767696381 0.000000000000000
1.999411463737488 -28.927419662475586 0.335582464933395 0.003921568859369
3.290820598602295 -29.683450698852539 2.432762145996094 0.003921568859369
1.601374387741089 -7.986395835876465 2.160501003265381 0.000000000000000
1.615827322006226 -29.457958221435547 0.341555088758469 0.003921568859369
1.433261871337891 -29.541057586669922 0.342499107122421 0.003921568859369
2.739697694778442 -13.392956733703613 -0.872897207736969 0.003921568859369
0.619317293167114 -10.793402671813965 0.123546779155731 0.000000000000000
0.640881299972534 -15.791586875915527 -0.921752035617828 0.000000000000000
0.534186661243439 -15.940282821655273 -0.930352866649628 0.000000000000000
2.703601360321045 -15.092566490173340 -0.980043411254883 0.000000000000000
0.475437015295029 -15.756802558898926 -0.919660568237305 0.000000000000000
0.420414447784424 -15.768783569335938 -0.920358121395111 0.000000000000000
2.509245395660400 -14.446972846984863 0.422698736190796 0.003921568859369
0.213676661252975 -15.918663024902344 -0.929182291030884 0.003921568859369
0.217790633440018 -12.631816864013672 -0.737889885902405 0.000000000000000
0.175100445747375 -12.666881561279297 -0.739982128143311 0.003921568859369
0.038938522338867 -12.703063011169434 -0.742307305335999 0.000000000000000
0.659538507461548 -12.679662704467773 1.033203363418579 0.000000000000000
0.657569646835327 -15.864480018615723 -0.833493888378143 0.003921568859369
0.598422527313232 -15.753263473510742 -0.827636063098907 0.000000000000000
0.494175493717194 -15.857706069946289 -0.833076417446136 0.000000000000000
0.413707405328751 -11.178047180175781 0.453301310539246 0.003921568859369
0.554091513156891 -1.952590465545654 0.521404087543488 0.000000000000000
0.549151182174683 -1.999204516410828 0.533828914165497 0.000000000000000
0.270550101995468 -13.026593208312988 1.061526656150818 0.000000000000000
0.786990523338318 -10.612036705017090 2.842790842056274 0.000000000000000
0.253317922353745 -9.621074676513672 0.389906287193298 0.000000000000000
0.749428987503052 -10.593771934509277 2.837613582611084 0.000000000000000
0.713399708271027 -10.556021690368652 2.827259302139282 0.000000000000000
-0.520394504070282 -12.619389533996582 -0.739293098449707 0.000000000000000
0.186972349882126 -9.591374397277832 0.388764888048172 0.000000000000000
0.112610578536987 -10.836627960205078 0.439609497785568 0.000000000000000
0.635862886905670 -10.433886528015137 2.794125556945801 0.000000000000000
-0.636938691139221 -12.433333396911621 -0.729067981243134 0.000000000000000
1.392863273620605 -16.716585159301758 -0.684010803699493 0.003921568859369
-0.869633078575134 -12.290240287780762 -0.433885961771011 0.000000000000000
-1.053885698318481 -12.737927436828613 -0.749297320842743 0.000000000000000
-0.191564172506332 -9.439852714538574 0.383370429277420 0.000000000000000
0.785795211791992 -15.432755470275879 -0.991269350051880 0.000000000000000
-1.228663444519043 -13.037941932678223 -0.767892420291901 0.000000000000000
-1.309403896331787 -13.025699615478516 -0.767897367477417 0.000000000000000
-1.381170749664307 -13.205175399780273 -0.778821110725403 0.000000000000000
-0.691156387329102 -12.390154838562012 -0.364343315362930 0.003921568859369
-0.309526234865189 -8.381394386291504 -0.051202766597271 0.000000000000000
-0.338780134916306 -8.378558158874512 -0.051203262060881 0.003921568859369
-1.472815394401550 -13.220133781433105 -0.780449509620667 0.000000000000000
-1.503245234489441 -13.094421386718750 -0.773478388786316 0.000000000000000
-0.397257238626480 -8.372578620910645 -0.051204264163971 0.003921568859369
0.328932672739029 -10.901636123657227 0.315164148807526 0.003921568859369
-1.022491931915283 -12.237617492675781 -0.648362934589386 0.000000000000000
-1.188845157623291 -13.286338806152344 -0.704010248184204 0.003921568859369
-1.293475270271301 -13.034777641296387 -0.691671669483185 0.000000000000000
-0.161052346229553 -15.557533264160156 -0.999957978725433 0.000000000000000
-1.841911673545837 -12.236515998840332 -0.727711617946625 0.000000000000000
-0.425814986228943 -12.642929077148438 -0.814616382122040 0.003921568859369
-1.116444110870361 -12.814773559570312 -0.603844285011292 0.000000000000000
-0.633603155612946 -12.509610176086426 -0.807207345962524 0.000000000000000
-2.810151576995850 -17.368923187255859 -0.928683102130890 0.003921568859369
-0.739366590976715 -12.249784469604492 -0.503800511360168 0.000000000000000
-1.914223790168762 -11.429481506347656 0.201789826154709 0.000000000000000
-1.081541180610657 -12.293377876281738 -0.507229447364807 0.000000000000000
-1.199032306671143 -12.862577438354492 -0.833810806274414 0.003921568859369
-1.274312019348145 -13.078087806701660 -0.539922118186951 0.000000000000000
-1.415230274200439 -13.086118698120117 -0.849921166896820 0.000000000000000
-2.562804698944092 -12.035543441772461 -0.653454661369324 0.000000000000000
-1.414216876029968 -9.295831680297852 0.218691602349281 0.000000000000000
-2.605809688568115 -12.028543472290039 -0.653665423393250 0.000000000000000
-1.640959858894348 -13.097827911376953 -0.543026447296143 0.003921568859369
-1.790685057640076 -8.533571243286133 -0.465845048427582 0.000000000000000
-1.644648432731628 -12.841910362243652 -0.532782077789307 0.003921568859369
-4.500556945800781 -18.250690460205078 -0.111924946308136 0.000000000000000
-2.248713016510010 -15.139102935791016 -0.988492608070374 0.000000000000000
-4.733557224273682 -15.114311218261719 -0.934153318405151 0.003921568859369
-2.271754741668701 -9.390430450439453 0.396934747695923 0.000000000000000
-2.550024986267090 -8.681459426879883 0.104897692799568 0.003921568859369
-2.271410465240479 -9.316529273986816 0.394145995378494 0.000000000000000
-2.338254690170288 -9.413183212280273 0.398709148168564 0.000000000000000
-2.552782058715820 -12.053731918334961 -0.291770905256271 0.003921568859369
-7.327652454376221 -21.384693145751953 0.263509392738342 0.003921568859369
-2.424165487289429 -9.231200218200684 -0.058703947812319 0.000000000000000
-2.246776342391968 -8.678649902343750 -0.480101943016052 0.003921568859369
-4.929447650909424 -17.035518646240234 1.458694338798523 0.003921568859369
-1.813253641128540 -8.547949790954590 -0.415386557579041 0.000000000000000
-5.041547775268555 -16.986537933349609 1.457712292671204 0.000000000000000
-5.478297710418701 -15.686553955078125 -0.588782727718353 0.003921568859369
-2.500565767288208 -9.033705711364746 0.385982573032379 0.000000000000000
-5.218504428863525 -14.693969726562500 -0.553236365318298 0.003921568859369
-5.484587192535400 -15.216453552246094 -0.573593974113464 0.003921568859369
-6.607552051544189 -17.716733932495117 -0.669111967086792 0.003921568859369
-2.372871398925781 -8.308676719665527 -0.258756726980209 0.000000000000000
-2.361730098724365 -8.276945114135742 0.150749370455742 0.000000000000000
-8.725342750549316 -22.306324005126953 0.279695510864258 0.003921568859369
-2.062646627426147 -8.555788993835449 -0.419119477272034 0.000000000000000
-5.210005760192871 -13.709656715393066 -0.521392703056335 0.000000000000000
-2.238863945007324 -10.714246749877930 0.062112353742123 0.000000000000000
-8.820686340332031 -22.088415145874023 0.277768820524216 0.003921568859369
-6.975826263427734 -20.467084884643555 1.778608798980713 0.003921568859369
-5.479504585266113 -14.212052345275879 -0.541185736656189 0.003921568859369
-1.634128093719482 -8.271812438964844 0.047329071909189 0.000000000000000
-5.038754940032959 -15.036538124084473 -0.842715144157410 0.003921568859369
-5.319564342498779 -15.791867256164551 1.373442530632019 0.000000000000000
-4.351768970489502 -11.442258834838867 -0.436938971281052 0.000000000000000
-4.999793529510498 -14.781345367431641 -0.461521655321121 0.000000000000000
-5.011373519897461 -14.812239646911621 -0.831216633319855 0.000000000000000
-7.110767364501953 -20.404191970825195 1.777625083923340 0.003921568859369
-5.698236942291260 -14.453230857849121 -0.551922321319580 0.003921568859369
-5.001835823059082 -14.623703002929688 -0.821809291839600 0.000000000000000
-7.379338264465332 -20.886604309082031 1.822241187095642 0.003921568859369
-2.441291570663452 -9.211361885070801 -0.227721586823463 0.000000000000000
-3.204030513763428 -8.515119552612305 -0.327398240566254 0.000000000000000
-2.698982477188110 -8.302720069885254 -0.261905938386917 0.000000000000000
-9.579782485961914 -22.573207855224609 -0.289599478244781 0.003921568859369
-5.659626960754395 -13.836867332458496 -0.531723618507385 0.000000000000000
-5.474569320678711 -15.258551597595215 -0.479440897703171 0.000000000000000
-9.440859794616699 -22.069568634033203 0.280695736408234 0.003921568859369
-5.635698318481445 -13.672005653381348 -0.526217639446259 0.000000000000000
-9.924995422363281 -22.304239273071289 0.285549193620682 0.003921568859369
-9.990337371826172 -22.251277923583984 0.285310715436935 0.003921568859369
-3.061648368835449 -8.713299751281738 0.767962038516998 0.000000000000000
-4.876032352447510 -14.961245536804199 -0.743424594402313 0.003921568859369
-9.006859779357910 -22.562583923339844 -0.143779858946800 0.003921568859369
-4.955640316009521 -15.008731842041016 -0.746772348880768 0.000000000000000
-6.311073780059814 -16.204202651977539 1.435070157051086 0.000000000000000
-5.047100543975830 -15.102733612060547 -0.752349793910980 0.000000000000000
-5.685031890869141 -14.453328132629395 -0.460196465253830 0.000000000000000
-9.158633232116699 -22.493274688720703 -0.143765270709991 0.003921568859369
-4.994512557983398 -14.802495956420898 -0.738414824008942 0.003921568859369
-5.355919361114502 -13.691606521606445 -0.783710300922394 0.003921568859369
-9.409811019897461 -22.855175018310547 -0.146250218153000 0.003921568859369
-4.985237121582031 -14.622364997863770 -0.730426430702209 0.000000000000000
-2.670160055160522 -8.517006874084473 -0.214379832148552 0.000000000000000
-5.277504444122314 -13.255148887634277 -0.761136412620544 0.000000000000000
-9.441860198974609 -22.521862030029297 -0.144405171275139 0.003921568859369
-2.437309265136719 -9.057013511657715 0.275402903556824 0.003921568859369
-6.044849872589111 -14.741104125976562 -0.848652839660645 0.003921568859369
-6.024511337280273 -14.566248893737793 -0.839877128601074 0.003921568859369
-5.651978969573975 -13.610275268554688 -0.437504291534424 0.000000000000000
-9.660535812377930 -22.379405975341797 -0.144189983606339 0.003921568859369
-6.887865066528320 -21.699718475341797 0.666609168052673 0.003921568859369
-5.506422996520996 -15.217286109924316 -0.765098810195923 0.003921568859369
-9.731892585754395 -22.329032897949219 -0.144102990627289 0.003921568859369
-5.706892013549805 -13.604647636413574 -0.787211000919342 0.003921568859369
-7.841393470764160 -18.073490142822266 -0.581742465496063 0.000000000000000
-10.541175842285156 -21.112394332885742 0.276448845863342 0.003921568859369
-7.152019977569580 -21.980415344238281 0.676872193813324 0.003921568859369
-5.210543632507324 -14.194900512695312 -0.715870678424835 0.000000000000000
-9.960160255432129 -22.421318054199219 -0.145143732428551 0.003921568859369
-10.040077209472656 -22.388040542602539 -0.145171463489532 0.003921568859369
-6.545429706573486 -13.293743133544922 -0.528569161891937 0.000000000000000
-11.161808967590332 -21.556011199951172 -0.286992728710175 0.003921568859369
-9.038041114807129 -19.912874221801758 1.803589105606079 0.003921568859369
-4.929986000061035 -14.822765350341797 -0.645983636379242 0.000000000000000
-6.892859458923340 -13.394688606262207 -0.180502668023109 0.003921568859369
-5.478500843048096 -13.764651298522949 -0.702442228794098 0.000000000000000
-5.043200492858887 -14.682241439819336 -0.642332613468170 0.000000000000000
-11.563432693481445 -21.414106369018555 -0.287705749273300 0.003921568859369
-10.640100479125977 -19.785749435424805 0.263541042804718 0.003921568859369
-6.964344978332520 -13.303711891174316 -0.536041259765625 0.003921568859369
-5.592044830322266 -12.241011619567871 2.497645378112793 0.003921568859369
-9.361273765563965 -22.165317535400391 0.564302980899811 0.003921568859369
-7.659370422363281 -18.370727539062500 -0.469908356666565 0.003921568859369
-6.226013183593750 -15.033980369567871 -0.385766863822937 0.000000000000000
-5.671250820159912 -13.568289756774902 -0.697813212871552 0.003921568859369
-9.385934829711914 -21.230062484741211 0.544658362865448 0.003921568859369
-9.400069236755371 -21.068655014038086 0.541383504867554 0.003921568859369
-6.676110267639160 -13.562317848205566 2.802704334259033 0.003921568859369
-11.742570877075195 -20.104396820068359 -0.275664269924164 0.003921568859369
-8.759462356567383 -21.892093658447266 0.691995859146118 0.003921568859369
-7.534825325012207 -13.131481170654297 -0.541161596775055 0.003921568859369
-11.375862121582031 -21.457963943481445 -0.715948879718781 0.003921568859369
-7.551001548767090 -13.055552482604980 -0.539216816425323 0.003921568859369
-6.821085929870605 -13.074442863464355 -0.439299941062927 0.000000000000000
-7.122590065002441 -13.496313095092773 -0.454261511564255 0.000000000000000
-3.460965156555176 -9.036423683166504 0.285868376493454 0.003921568859369
-2.957872867584229 -5.516271591186523 -0.079156070947647 0.000000000000000
-9.466551780700684 -22.225360870361328 0.140997350215912 0.003921568859369
-3.538635730743408 -9.124224662780762 0.289136588573456 0.000000000000000
-7.194978713989258 -13.513027191162109 1.271347284317017 0.003921568859369
-5.690789699554443 -13.765453338623047 -0.618269383907318 0.003921568859369
-7.311173439025879 -12.103506088256836 -0.170302897691727 0.000000000000000
-5.863283634185791 -14.007328987121582 -0.630127727985382 0.000000000000000
-8.344838142395020 -13.687054634094238 -0.572650015354156 0.003921568859369
-8.618837356567383 -13.999787330627441 -0.586992681026459 0.003921568859369
-7.433144569396973 -12.109461784362793 -0.171141520142555 0.000000000000000
-9.365031242370605 -21.226657867431641 0.681435167789459 0.003921568859369
-8.983136177062988 -18.060787200927734 -0.953512728214264 0.003921568859369
-5.692055225372314 -13.394965171813965 -0.604637503623962 0.000000000000000
-7.395287990570068 -11.956904411315918 -0.169437125325203 0.000000000000000
-9.399988174438477 -21.099685668945312 0.678510069847107 0.003921568859369
-11.161580085754395 -21.975643157958984 -0.580741107463837 0.003921568859369
-11.936059951782227 -20.752307891845703 -0.706432104110718 0.003921568859369
-11.180480957031250 -21.846508026123047 -0.578234612941742 0.003921568859369
-8.723115921020508 -15.312211036682129 1.462050676345825 0.003921568859369
-8.720970153808594 -17.007339477539062 -0.904750168323517 0.000000000000000
-6.802020072937012 -13.389155387878418 -0.001783258747309 0.000000000000000
-8.906970977783203 -17.196863174438477 -0.916637539863586 0.000000000000000
-7.651121139526367 -13.145506858825684 -0.453540205955505 0.000000000000000
-8.848290443420410 -16.689434051513672 -0.894743800163269 0.000000000000000
-9.853309631347656 -14.641096115112305 -0.211079403758049 0.003921568859369
-9.352114677429199 -17.289316177368164 1.160582661628723 0.003921568859369
-7.242377758026123 -12.018392562866211 -0.085386194288731 0.000000000000000
-7.737464904785156 -14.145146369934082 2.014520168304443 0.003921568859369
-7.385546207427979 -11.982078552246094 -0.421176880598068 0.000000000000000
-7.399899005889893 -12.003535270690918 -0.085798494517803 0.003921568859369
-6.612180709838867 -13.404839515686035 0.086795844137669 0.000000000000000
-8.021162033081055 -11.489338874816895 -0.503855168819427 0.000000000000000
-10.883217811584473 -20.807222366333008 0.137544825673103 0.003921568859369
-4.346382617950439 -8.020410537719727 0.216912373900414 0.000000000000000
-9.312466621398926 -17.963726043701172 -0.837163388729095 0.003921568859369
-7.594292163848877 -13.276236534118652 -0.364915251731873 0.000000000000000
-6.924314975738525 -13.417975425720215 -0.270334661006927 0.000000000000000
-9.547223091125488 -18.089166641235352 -0.846263945102692 0.003921568859369
-4.469861507415771 -7.223881721496582 -0.259669303894043 0.000000000000000
-11.492630958557129 -21.378410339355469 0.142254263162613 0.003921568859369
-7.681574344635010 -13.108478546142578 -0.362707436084747 0.000000000000000
-9.457254409790039 -14.215884208679199 -0.508587479591370 0.000000000000000
-4.362423419952393 -7.743892192840576 -0.002547045703977 0.003921568859369
-11.627415657043457 -19.058023452758789 0.526168823242188 0.003921568859369
-0.945236027240753 -2.403596401214600 -0.003333515487611 0.000000000000000
-8.364282608032227 -13.675130844116211 -0.382364869117737 0.000000000000000
-8.003314971923828 -11.737392425537109 -0.425816357135773 0.000000000000000
-7.005129814147949 -12.738762855529785 -0.606655240058899 0.000000000000000
-8.934626579284668 -15.836429595947266 -0.754815518856049 0.003921568859369
-8.056136131286621 -11.553718566894531 -0.422471851110458 0.000000000000000
-11.143593788146973 -19.051116943359375 0.129419669508934 0.003921568859369
-7.509014606475830 -13.068004608154297 -0.628746867179871 0.000000000000000
-5.929660797119141 -7.670058250427246 0.114865608513355 0.000000000000000
-7.653041839599609 -12.816721916198730 -0.268059372901917 0.000000000000000
-7.710830688476562 -12.807834625244141 -0.268479675054550 0.000000000000000
-7.520625114440918 -9.149964332580566 -0.144984647631645 0.000000000000000
-8.309341430664062 -13.612322807312012 -0.665053248405457 0.003921568859369
-7.393980026245117 -12.125984191894531 -0.255615741014481 0.000000000000000
-6.305232524871826 -7.628607273101807 0.117461182177067 0.000000000000000
-9.025874137878418 -14.383889198303223 -0.707251667976379 0.003921568859369
-8.041174888610840 -11.560013771057129 -0.338178277015686 0.000000000000000
-7.472117424011230 -9.691921234130859 1.029159903526306 0.000000000000000
-7.584271430969238 -9.825854301452637 2.333189964294434 0.000000000000000
-9.293736457824707 -14.239393234252930 -0.708579242229462 0.003921568859369
-6.582284450531006 -9.216037750244141 3.135637521743774 0.000000000000000
-10.076664924621582 -14.813735008239746 -0.320378780364990 0.003921568859369
-5.492688655853271 -7.659122943878174 2.627017021179199 0.000000000000000
-9.454862594604492 -13.852234840393066 -0.699768185615540 0.003921568859369
-7.747782230377197 -9.294452667236328 2.280742645263672 0.003921568859369
-7.340807437896729 -8.717464447021484 0.962607204914093 0.000000000000000
-5.811409473419189 -7.725865840911865 0.583703339099884 0.000000000000000
-7.081954002380371 -8.378551483154297 2.075367927551270 0.000000000000000
-7.647417545318604 -8.875088691711426 0.989666700363159 0.000000000000000
-7.635818958282471 -8.803977012634277 0.984770417213440 0.000000000000000
-7.451254367828369 -9.430795669555664 1.524561166763306 0.000000000000000
-6.740464210510254 -8.603078842163086 3.037180185317993 0.000000000000000
-8.395339965820312 -10.309329032897949 1.682201504707336 0.003921568859369
-7.640753269195557 -8.506690025329590 0.967461049556732 0.000000000000000
-5.890945911407471 -6.711194038391113 1.706246137619019 0.000000000000000
-5.409999370574951 -6.133999824523926 -0.253894120454788 0.000000000000000
-6.122474193572998 -7.505058288574219 0.586213946342468 0.000000000000000
-7.486387729644775 -8.121182441711426 0.936137855052948 0.000000000000000
-5.374905586242676 -6.550922393798828 1.091060638427734 0.000000000000000
-6.078118324279785 -7.167329311370850 0.570319831371307 0.000000000000000
-6.076360702514648 -6.452350616455078 1.698281764984131 0.000000000000000
-8.714031219482422 -9.825414657592773 1.665562748908997 0.000000000000000
-6.505190849304199 -6.134275913238525 -0.332367688417435 0.000000000000000
-9.766939163208008 -11.897179603576660 -0.277806967496872 0.000000000000000
-5.217150688171387 -6.078829765319824 2.263277530670166 0.000000000000000
-12.789971351623535 -15.238735198974609 -0.829036891460419 0.003921568859369
-6.120292663574219 -6.915885925292969 1.186692833900452 0.000000000000000
-8.821181297302246 -8.769414901733398 1.052159786224365 0.000000000000000
-12.896190643310547 -15.251432418823242 -0.832289636135101 0.003921568859369
-13.093299865722656 -15.364816665649414 -0.841055870056152 0.003921568859369
-12.956850051879883 -15.105941772460938 -0.829552173614502 0.003921568859369
-8.790601730346680 -8.619210243225098 2.330156087875366 0.000000000000000
-6.213528633117676 -7.583277702331543 0.295506417751312 0.000000000000000
-13.020730018615723 -15.082017898559570 -0.830746769905090 0.003921568859369
-13.237794876098633 -15.214070320129395 -0.840646266937256 0.003921568859369
-1.400465965270996 -2.249727964401245 -0.057302426546812 0.000000000000000
-12.870038032531738 -13.337041854858398 1.105759620666504 0.000000000000000
-20.449438095092773 -18.860694885253906 2.311886072158813 0.003921568859369
-13.163590431213379 -15.027228355407715 -0.833036959171295 0.003921568859369
-7.107146263122559 -7.660292625427246 2.923107147216797 0.000000000000000
-20.496963500976562 -18.777322769165039 2.310240507125854 0.003921568859369
-11.103182792663574 -10.443878173828125 2.868009090423584 0.003921568859369
-20.376909255981445 -18.539934158325195 2.290005922317505 0.003921568859369
-20.000398635864258 -18.080507278442383 2.242053508758545 0.003921568859369
-7.246804237365723 -7.638798236846924 2.945880174636841 0.000000000000000
-19.443349838256836 -17.469703674316406 2.174862146377563 0.003921568859369
-5.778121948242188 -6.178458690643311 2.390618324279785 0.000000000000000
-20.736783981323242 -18.203330993652344 2.294164896011353 0.003921568859369
-21.136590957641602 -18.161815643310547 2.317770242691040 0.003921568859369
-21.147617340087891 -18.042369842529297 2.312209129333496 0.003921568859369
-21.173440933227539 -17.942054748535156 2.308605194091797 0.003921568859369
-7.537225246429443 -7.447350502014160 2.969647645950317 0.000000000000000
-20.741529464721680 -17.462623596191406 2.256408929824829 0.003921568859369
-7.718259334564209 -7.558172702789307 3.025582551956177 0.000000000000000
-18.219299316406250 -15.406006813049316 4.445665836334229 0.003921568859369
-16.622768402099609 -13.806020736694336 1.806325078010559 0.003921568859369
-11.392818450927734 -10.564315795898438 0.932597398757935 0.000000000000000
-16.602113723754883 -13.691068649291992 1.799136757850647 0.003921568859369
-8.488216400146484 -7.263033866882324 2.130395412445068 0.003921568859369
-19.764566421508789 -16.080501556396484 2.123271703720093 0.003921568859369
-14.439694404602051 -11.891906738281250 3.506295919418335 0.003921568859369
-20.125564575195312 -17.950227737426758 3.374435186386108 0.003921568859369
-21.529909133911133 -17.343832015991211 2.300655364990234 0.003921568859369
-16.390487670898438 -14.727088928222656 6.041148185729980 0.003921568859369
-20.299661636352539 -17.973045349121094 3.392480373382568 0.003921568859369
-21.974712371826172 -17.564197540283203 2.340422153472900 0.003921568859369
-16.450605392456055 -14.674937248229980 6.044241905212402 0.003921568859369
-16.655757904052734 -13.439975738525391 3.998894691467285 0.003921568859369
-3.621898651123047 -3.659851551055908 0.325456410646439 0.000000000000000
-22.042207717895508 -17.489864349365234 2.341055870056152 0.003921568859369
-18.140941619873047 -16.009334564208984 6.621241569519043 0.003921568859369
-14.497934341430664 -11.682495117187500 3.491178989410400 0.003921568859369
-20.426481246948242 -17.836387634277344 3.394569635391235 0.003921568859369
-22.273397445678711 -17.548448562622070 2.359797000885010 0.003921568859369
-18.204139709472656 -15.958451271057129 6.627581119537354 0.003921568859369
-14.550253868103027 -11.646143913269043 3.496265172958374 0.003921568859369
-18.368417739868164 -15.984394073486328 3.054285764694214 0.003921568859369
-22.350402832031250 -17.480224609375000 2.361408233642578 0.003921568859369
-16.613809585571289 -14.512062072753906 6.051567554473877 0.003921568859369
-17.640434265136719 -15.270583152770996 2.929295539855957 0.003921568859369
-17.567249298095703 -15.208792686462402 6.367523193359375 0.003921568859369
-12.884916305541992 -10.227951049804688 3.097672700881958 0.003921568859369
-20.861984252929688 -17.827621459960938 1.629325985908508 0.003921568859369
-19.786756515502930 -15.316161155700684 4.662482261657715 0.003921568859369
-20.871631622314453 -17.709190368652344 1.625342607498169 0.003921568859369
-16.672807693481445 -14.260324478149414 2.758402109146118 0.003921568859369
-20.666370391845703 -15.858754158020020 2.171545743942261 0.003921568859369
-18.520944595336914 -15.777311325073242 6.661705017089844 0.003921568859369
