# This PCD file was generated using the MATLAB® pcwrite function
# from Computer Vision Toolbox®.
# .PCD v.7 - Point Cloud Data file format
VERSION .7
FIELDS x y z intensity
SIZE 8 8 8 8
TYPE F F F F
COUNT 1 1 1 1
WIDTH 644
HEIGHT 1
VIEWPOINT 0 0 0 1 0 0 0
POINTS 644
DATA ascii
4.168024063110352 1.535983920097351 -0.283441185951233 0.000000000000000
5.327682971954346 1.394412636756897 0.223606228828430 0.000000000000000
7.978597640991211 2.090890169143677 1.500331044197083 0.000000000000000
11.149480819702148 3.426040410995483 1.429916024208069 0.000000000000000
7.062980651855469 1.796560525894165 1.325250744819641 0.000000000000000
9.820820808410645 2.463659048080444 1.842600703239441 0.000000000000000
6.475511074066162 1.599970579147339 0.271010756492615 0.000000000000000
7.796940803527832 1.927502751350403 1.460867047309875 0.000000000000000
6.988008499145508 2.066657066345215 0.423322856426239 0.000000000000000
6.530812263488770 1.589579939842224 0.547158956527710 0.000000000000000
17.894306182861328 5.233679771423340 1.084908366203308 0.000000000000000
18.552915573120117 5.426568984985352 5.174589157104492 0.003921568859369
7.133915424346924 1.682984590530396 0.297889947891235 0.000000000000000
13.528431892395020 3.195806741714478 -0.727277815341949 0.000000000000000
10.638915061950684 2.512212276458740 0.890917718410492 0.000000000000000
19.341239929199219 4.497591495513916 0.808243095874786 0.003921568859369
9.628840446472168 2.235542297363281 0.804713666439056 0.000000000000000
11.554192543029785 2.643687248229980 -0.343848109245300 0.000000000000000
6.142879486083984 1.402291893959045 0.512031674385071 0.000000000000000
5.984892845153809 1.676088452339172 1.657557010650635 0.000000000000000
12.694098472595215 2.858691215515137 -0.680101215839386 0.000000000000000
6.710127353668213 1.483415007591248 0.278865814208984 0.000000000000000
10.847090721130371 2.924801588058472 0.652764499187469 0.000000000000000
11.242108345031738 3.031649589538574 3.112263202667236 0.000000000000000
3.319764852523804 0.876520276069641 0.000008121431165 0.000000000000000
3.241561412811279 0.843687474727631 0.000006086585927 0.000000000000000
3.991173982620239 0.836181640625000 -0.023498678579926 0.000000000000000
11.205286026000977 2.896420240402222 0.000222752307309 0.003921568859369
11.376450538635254 2.940787792205811 0.272964477539062 0.000000000000000
11.034470558166504 2.285027503967285 2.049332380294800 0.000000000000000
12.032030105590820 3.066054582595825 1.521175146102905 0.000000000000000
6.248623371124268 1.564320802688599 0.787364304065704 0.000000000000000
14.590268135070801 2.132042407989502 0.171637028455734 0.000000000000000
7.886701583862305 1.545737266540527 0.139894962310791 0.000000000000000
18.517414093017578 3.637346267700195 3.435702562332153 0.003921568859369
11.727944374084473 2.858225584030151 1.478757262229919 0.000000000000000
5.802170753479004 1.386565566062927 0.345215350389481 0.000000000000000
19.856924057006836 4.768791675567627 -0.948806881904602 0.003921568859369
12.338220596313477 2.959441900253296 -0.293985009193420 0.000000000000000
19.694602966308594 4.657206535339355 -0.940250396728516 0.003921568859369
19.631319046020508 4.577260971069336 -0.936529636383057 0.003921568859369
10.641403198242188 2.476874828338623 1.336942195892334 0.000000000000000
12.317783355712891 1.627457976341248 -0.432122111320496 0.000000000000000
19.612123489379883 4.500803470611572 -0.934854447841644 0.003921568859369
19.577056884765625 4.420989513397217 -0.932435333728790 0.003921568859369
14.366034507751465 2.513393402099609 2.652212381362915 0.000000000000000
19.592369079589844 4.352762699127197 -0.932434082031250 0.003921568859369
10.881550788879395 2.935489892959595 0.327145218849182 0.000000000000000
5.913248538970947 0.988160789012909 0.104056842625141 0.000000000000000
19.564510345458984 4.275091171264648 -0.930387139320374 0.003921568859369
5.218964576721191 1.133957982063293 1.420481085777283 0.000000000000000
18.892433166503906 3.172032594680786 3.486088275909424 0.003921568859369
19.575407028198242 4.206068038940430 -0.930199921131134 0.003921568859369
10.552543640136719 1.731022953987122 -0.558037102222443 0.000000000000000
2.858471155166626 0.606771767139435 0.353904157876968 0.000000000000000
2.271287441253662 0.472198337316513 -0.000025900473702 0.000000000000000
8.257404327392578 0.914588928222656 0.096450418233871 0.000000000000000
19.570425033569336 4.133720874786377 -0.929268777370453 0.000000000000000
19.576911926269531 4.063892364501953 -0.928895592689514 0.000000000000000
16.347385406494141 3.332796812057495 0.969785869121552 0.000000000000000
19.590976715087891 3.995677471160889 -0.928894400596619 0.000000000000000
15.336479187011719 1.594451785087585 -0.536563634872437 0.003921568859369
4.716072082519531 0.703054487705231 -0.027412069961429 0.000000000000000
6.616055488586426 1.657897472381592 0.197481215000153 0.000000000000000
19.632228851318359 3.932919263839722 -0.930195093154907 0.003921568859369
14.509347915649414 2.175578117370605 1.194862604141235 0.000000000000000
6.702710151672363 1.001782536506653 1.228458762168884 0.000000000000000
19.691297531127930 3.871546268463135 -0.931712985038757 0.003921568859369
19.669384002685547 3.796137571334839 -0.930038094520569 0.003921568859369
8.572385787963867 0.798263967037201 -0.298610150814056 0.000000000000000
9.253419876098633 1.780782699584961 2.511870384216309 0.000000000000000
11.781305313110352 2.227405071258545 0.000407283601817 0.003921568859369
7.468311786651611 1.408478975296021 0.175891399383545 0.000000000000000
19.717847824096680 3.734336376190186 -0.931710064411163 0.003921568859369
10.808391571044922 2.042701959609985 1.344825148582458 0.000000000000000
11.091115951538086 1.504776597023010 0.194872245192528 0.000000000000000
19.718336105346680 3.666905164718628 -0.931150853633881 0.003921568859369
19.789974212646484 3.609014511108398 -0.933938503265381 0.003921568859369
19.991231918334961 3.573919534683228 -0.942862272262573 0.003921568859369
3.239439010620117 0.722228348255157 -0.209513440728188 0.000000000000000
20.298749923706055 3.556125164031982 -0.956806600093842 0.003921568859369
20.906337738037109 1.517375469207764 0.244296714663506 0.003921568859369
8.332207679748535 1.845283269882202 0.247165188193321 0.000000000000000
20.610311508178711 3.536913394927979 -0.970936596393585 0.003921568859369
13.840195655822754 1.634870648384094 0.242893368005753 0.000000000000000
16.589450836181641 2.785844564437866 0.977369248867035 0.000000000000000
20.949567794799805 3.520216226577759 -0.986368358135223 0.003921568859369
8.966550827026367 1.057090282440186 0.733216285705566 0.000000000000000
10.794591903686523 2.315321445465088 -0.191478475928307 0.000000000000000
18.262351989746094 1.197269916534424 -0.211738973855972 0.003921568859369
6.823882579803467 1.116644740104675 0.843028962612152 0.000000000000000
8.455305099487305 0.966744005680084 0.690883159637451 0.000000000000000
9.299283981323242 1.524751782417297 2.511875867843628 0.000000000000000
11.201627731323242 1.243175029754639 -0.064818486571312 0.000000000000000
11.842191696166992 1.272927403450012 -0.068507418036461 0.000000000000000
8.650740623474121 1.790600419044495 0.255908429622650 0.000000000000000
9.871553421020508 1.024531364440918 -0.056933555752039 0.000000000000000
25.672267913818359 1.414643883705139 0.299925684928894 0.003921568859369
13.088867187500000 2.007925987243652 0.768235564231873 0.000000000000000
14.220643043518066 1.478693008422852 1.162851691246033 0.000000000000000
11.356620788574219 1.740934371948242 -0.265473157167435 0.000000000000000
9.536934852600098 0.956157147884369 -0.276797920465469 0.000000000000000
7.499836444854736 0.360190808773041 0.086969718337059 0.000000000000000
6.548063755035400 0.954714357852936 0.382059991359711 0.000000000000000
8.271226882934570 0.800976157188416 0.336384713649750 0.000000000000000
11.067974090576172 1.073795557022095 0.903284311294556 0.000000000000000
8.593875885009766 0.413141757249832 -0.297991096973419 0.000000000000000
6.539073944091797 0.609193325042725 0.265293210744858 0.000000000000000
9.868782043457031 0.887733280658722 0.401608020067215 0.000000000000000
4.982999801635742 0.671823859214783 0.289415746927261 0.000000000000000
13.860453605651855 1.883379220962524 1.710685372352600 0.000000000000000
10.260635375976562 1.830022454261780 -0.180470719933510 0.000000000000000
4.360335826873779 0.771448850631714 0.025464704260230 0.000000000000000
18.532428741455078 1.477029204368591 3.379484176635742 0.003921568859369
6.844185352325439 0.853584647178650 0.839657664299011 0.000000000000000
15.103392601013184 1.892832398414612 4.063110828399658 0.000000000000000
22.665557861328125 3.730635166168213 0.667854845523834 0.003921568859369
7.910653114318848 0.133181869983673 -0.456911146640778 0.000000000000000
7.038619041442871 0.460056573152542 0.571091771125793 0.000000000000000
9.123188018798828 1.044082999229431 2.444638490676880 0.000000000000000
9.129813194274902 0.122105956077576 -0.105042099952698 0.000000000000000
13.785849571228027 0.856177389621735 2.506153821945190 0.000000000000000
18.801219940185547 1.103621721267700 3.421988487243652 0.003921568859369
17.529607772827148 0.970554172992706 0.306189477443695 0.003921568859369
9.777641296386719 1.017207026481628 2.615562438964844 0.000000000000000
8.011258125305176 0.413677334785461 0.139126762747765 0.000000000000000
5.273568630218506 0.785178303718567 -0.337031126022339 0.000000000000000
12.840432167053223 0.665181815624237 -0.669440984725952 0.000000000000000
15.081076622009277 1.519915580749512 1.853220343589783 0.000000000000000
11.941044807434082 0.576814889907837 -0.068459615111351 0.000000000000000
4.328384876251221 0.206955358386040 -0.223271101713181 0.000000000000000
7.684507846832275 0.370043396949768 1.390073657035828 0.000000000000000
11.572701454162598 1.083607316017151 0.673360288143158 0.000000000000000
15.350988388061523 0.689048647880554 0.623985826969147 0.000000000000000
5.213099956512451 0.231975376605988 0.938616275787354 0.000000000000000
16.007081985473633 2.234518766403198 0.094382166862488 0.000000000000000
10.873724937438965 0.449390143156052 -0.062299508601427 0.000000000000000
7.482659816741943 0.308367103338242 0.302522003650665 0.000000000000000
16.588230133056641 0.687110722064972 3.015037059783936 0.003921568859369
10.947031974792480 0.948105454444885 0.254568845033646 0.000000000000000
12.308257102966309 1.672376513481140 0.360058039426804 0.000000000000000
8.409830093383789 -0.119003504514694 -0.096705265343189 0.000000000000000
12.349145889282227 -0.175279498100281 0.143602237105370 0.000000000000000
6.862912654876709 0.568220973014832 -0.476311594247818 0.000000000000000
10.839829444885254 0.372701406478882 0.439525246620178 0.000000000000000
14.210057258605957 1.133123755455017 0.330811113119125 0.000000000000000
15.099458694458008 0.467564225196838 0.613388597965240 0.000000000000000
5.720905303955078 0.435001552104950 0.330186486244202 0.000000000000000
3.326428890228271 0.398745924234390 -0.057216405868530 0.000000000000000
21.128305435180664 1.539673209190369 2.593621253967285 0.003921568859369
8.927045822143555 0.584850609302521 0.516736686229706 0.000000000000000
13.633109092712402 1.520610094070435 -0.554764151573181 0.000000000000000
6.795794486999512 0.398087322711945 0.156814917922020 0.000000000000000
7.975774765014648 0.081683844327927 0.138202399015427 0.000000000000000
11.636949539184570 0.079149618744850 -0.066480256617069 0.000000000000000
11.545149803161621 0.040502585470676 -0.065951921045780 0.000000000000000
7.425390243530273 -0.333126157522202 -0.256357073783875 0.000000000000000
11.922378540039062 -0.580691397190094 -0.137299448251724 0.000000000000000
11.965325355529785 -0.001529043423943 2.167485237121582 0.000000000000000
15.077179908752441 0.678966343402863 1.844089388847351 0.000000000000000
8.361910820007324 0.753977656364441 -0.144719168543816 0.000000000000000
15.508311271667480 -0.861891508102417 -0.178877145051956 0.000000000000000
22.523557662963867 0.941433966159821 0.524186015129089 0.003921568859369
10.783977508544922 -0.597896635532379 0.125421717762947 0.000000000000000
10.188457489013672 0.424088746309280 1.242655634880066 0.000000000000000
13.797658920288086 0.575431108474731 -0.318609327077866 0.000000000000000
12.329358100891113 1.072084426879883 0.358530133962631 0.000000000000000
6.048902034759521 0.207688838243484 0.733412325382233 0.000000000000000
6.074128627777100 0.208585515618324 1.606996893882751 0.000000000000000
19.357408523559570 -0.271740138530731 3.516200065612793 0.003921568859369
9.440728187561035 0.296187639236450 0.000507645134348 0.003921568859369
9.279889106750488 -0.158536031842232 -0.052965570241213 0.000000000000000
15.641440391540527 0.492310911417007 -0.361268848180771 0.000000000000000
6.615293502807617 0.181473195552826 0.152188852429390 0.000000000000000
12.773136138916016 0.352621614933014 0.739691376686096 0.000000000000000
8.350217819213867 -0.173978716135025 0.674835085868835 0.000000000000000
12.099174499511719 0.880245923995972 0.070765748620033 0.000000000000000
11.271356582641602 0.784276604652405 0.326883256435394 0.000000000000000
14.812275886535645 0.260198116302490 0.858475089073181 0.000000000000000
7.338899612426758 0.100341714918613 0.000392005546018 0.000000000000000
12.146719932556152 0.756911873817444 0.352327167987823 0.000000000000000
1.332123637199402 0.078037992119789 -0.050771564245224 0.003921568859369
8.443587303161621 0.496642410755157 -0.145562037825584 0.000000000000000
1.328385472297668 0.073686674237251 -0.050608962774277 0.003921568859369
8.579481124877930 0.089390292763710 2.275002479553223 0.000000000000000
2.950636863708496 -0.139563485980034 0.233693107962608 0.000000000000000
29.042722702026367 -1.414720177650452 5.287243366241455 0.003921568859369
3.333782434463501 -0.169641807675362 -0.094437636435032 0.000000000000000
13.171515464782715 -0.045054987072945 0.000904195243493 0.000000000000000
8.852276802062988 -0.458661973476410 0.357946336269379 0.000000000000000
8.939377784729004 -0.061308227479458 0.000535224738996 0.003921568859369
6.485693454742432 -0.044256433844566 0.149111762642860 0.000000000000000
8.913034439086914 -0.061102058738470 1.083707690238953 0.000000000000000
8.452095985412598 0.323082000017166 -0.145557478070259 0.000000000000000
10.958513259887695 0.379723489284515 0.316935688257217 0.000000000000000
6.798748016357422 -0.093059673905373 0.822762370109558 0.000000000000000
5.337941169738770 -0.329042196273804 0.428554654121399 0.000000000000000
10.516258239746094 -0.177576825022697 0.000750456063543 0.003921568859369
27.471256256103516 -0.466944217681885 1.596573710441589 0.003921568859369
9.693130493164062 -0.197013914585114 0.223904207348824 0.000000000000000
16.542346954345703 -0.337822973728180 0.959004759788513 0.000000000000000
11.266546249389648 -0.268361479043961 0.000825427065138 0.003921568859369
7.784133434295654 0.190913379192352 0.224124550819397 0.000000000000000
17.911613464355469 -1.300717473030090 3.257398605346680 0.003921568859369
16.492612838745117 -0.454085707664490 4.395049571990967 0.003921568859369
10.275135040283203 -0.281832337379456 -0.236089169979095 0.000000000000000
5.076347827911377 -0.415605902671814 -0.028784319758415 0.000000000000000
3.698435783386230 0.051794294267893 -0.146462500095367 0.000000000000000
14.502865791320801 -0.547462105751038 0.840441048145294 0.000000000000000
8.168394088745117 -0.759168565273285 1.477818846702576 0.000000000000000
7.052006721496582 -0.335793763399124 1.864950895309448 0.000000000000000
4.751615047454834 -0.240881636738777 0.271353393793106 0.000000000000000
12.334479331970215 -0.078217633068562 0.356735736131668 0.000000000000000
8.174856185913086 -0.445995420217514 0.992111980915070 0.000000000000000
10.162465095520020 -0.136232674121857 -0.643393874168396 0.000000000000000
21.018922805786133 -1.376473665237427 5.616281032562256 0.003921568859369
11.364805221557617 -0.229146614670753 0.328476697206497 0.000000000000000
7.092218399047852 -0.142079621553421 -0.446987748146057 0.000000000000000
9.753237724304199 -0.229987412691116 -0.392161279916763 0.000000000000000
4.492434501647949 -0.119674570858479 0.127714246511459 0.000000000000000
9.027542114257812 -0.274940252304077 0.052511509507895 0.000000000000000
7.702322959899902 -0.260569930076599 -0.132040977478027 0.000000000000000
8.590498924255371 -0.706921041011810 1.045298337936401 0.000000000000000
7.793246269226074 -0.317392200231552 0.045220721513033 0.000000000000000
3.873818397521973 -0.728143274784088 0.044740341603756 0.000000000000000
8.487241744995117 -0.401209980249405 -0.145510450005531 0.000000000000000
11.308918952941895 -1.086266398429871 1.381067872047424 0.000000000000000
9.609333992004395 -0.491567403078079 0.277280598878860 0.000000000000000
15.955145835876465 -2.385060548782349 2.921005725860596 0.003921568859369
18.860136032104492 -2.886286735534668 3.458747625350952 0.003921568859369
10.067318916320801 -0.651176095008850 -0.173103496432304 0.000000000000000
10.490617752075195 -1.745535850524902 1.918037891387939 0.000000000000000
12.451739311218262 -0.896004319190979 -0.214634850621223 0.000000000000000
17.259536743164062 -2.946785688400269 3.172290086746216 0.003921568859369
8.659940719604492 -1.495612978935242 -0.049654621630907 0.000000000000000
9.486539840698242 -1.370567321777344 2.534204483032227 0.000000000000000
3.852481842041016 -0.598111152648926 0.000148771563545 0.000000000000000
3.854210853576660 -0.612391948699951 0.000149442465045 0.000000000000000
9.486066818237305 -2.043864488601685 0.168028980493546 0.000000000000000
10.379263877868652 -1.866896152496338 1.278767824172974 0.000000000000000
12.290060043334961 -2.834836721420288 2.275779247283936 0.000000000000000
8.917162895202637 -2.079968690872192 0.737084150314331 0.000000000000000
15.362354278564453 -3.607942819595337 2.853790521621704 0.000000000000000
9.681010246276855 -1.327903628349304 -0.167125239968300 0.000000000000000
27.212297439575195 -6.717407226562500 2.280444145202637 0.003921568859369
6.403239250183105 -1.253825902938843 0.372386068105698 0.000000000000000
23.962076187133789 -5.994751930236816 4.481556415557861 0.003921568859369
29.221376419067383 -5.930180549621582 1.732143044471741 0.003921568859369
28.856430053710938 -5.960227966308594 1.711629748344421 0.003921568859369
27.446569442749023 -7.074800491333008 2.306199073791504 0.003921568859369
12.565275192260742 -2.621475934982300 1.560364842414856 0.000000000000000
27.403676986694336 -7.160241127014160 2.304569005966187 0.003921568859369
14.969886779785156 -3.185763120651245 1.863921403884888 0.000000000000000
28.837217330932617 -7.649317264556885 2.428128957748413 0.003921568859369
24.778299331665039 -5.293321132659912 6.755232810974121 0.003921568859369
29.168058395385742 -6.337364673614502 1.734010338783264 0.003921568859369
19.366979598999023 -4.267678260803223 5.279194831848145 0.003921568859369
26.327821731567383 -7.267016410827637 2.221354722976685 0.003921568859369
28.781408309936523 -8.055975914001465 2.431986331939697 0.003921568859369
6.996402740478516 -1.594420552253723 0.863500356674194 0.000000000000000
26.429801940917969 -7.493309974670410 2.234396219253540 0.003921568859369
28.594244003295898 -8.218017578125000 2.420899391174316 0.003921568859369
27.773414611816406 -6.639446735382080 1.658275842666626 0.003921568859369
9.821850776672363 -2.359817028045654 1.223210334777832 0.000000000000000
24.069875717163086 -7.182894229888916 2.042021512985229 0.003921568859369
27.836463928222656 -6.951774597167969 1.666203379631042 0.003921568859369
24.054815292358398 -7.260315418243408 2.042673110961914 0.003921568859369
7.062481880187988 -1.734935641288757 1.909729480743408 0.000000000000000
28.756195068359375 -7.288977622985840 1.723093271255493 0.003921568859369
27.646274566650391 -8.561370849609375 2.354706287384033 0.003921568859369
28.170700073242188 -8.837488174438477 5.360681533813477 0.003921568859369
23.578311920166016 -6.235793590545654 2.979784250259399 0.003921568859369
4.806717872619629 -1.270691871643066 0.112392574548721 0.000000000000000
10.272581100463867 -2.279247283935547 0.302855312824249 0.000000000000000
24.370920181274414 -8.098041534423828 2.087566375732422 0.003921568859369
26.825738906860352 -9.028049468994141 2.302134752273560 0.003921568859369
24.912441253662109 -7.052928447723389 6.899676799774170 0.003921568859369
28.719316482543945 -8.234892845153809 3.653595209121704 0.003921568859369
24.526470184326172 -8.334901809692383 2.105825185775757 0.003921568859369
26.885293960571289 -9.246258735656738 5.159872531890869 0.003921568859369
24.528200149536133 -7.220111370086670 1.483636260032654 0.003921568859369
24.201843261718750 -8.515549659729004 4.653607845306396 0.003921568859369
24.831882476806641 -8.826023101806641 2.142668724060059 0.003921568859369
19.245140075683594 -7.976763725280762 0.243643283843994 0.003921568859369
9.783549308776855 -2.449588537216187 0.290102601051331 0.000000000000000
3.315532445907593 -1.140131473541260 0.611409902572632 0.000000000000000
26.607500076293945 -8.327574729919434 3.407345771789551 0.003921568859369
25.883174896240234 -9.702682495117188 2.247584581375122 0.003921568859369
22.472120285034180 -8.415403366088867 4.349337100982666 0.003921568859369
26.622201919555664 -10.203712463378906 2.318677186965942 0.003921568859369
22.483255386352539 -8.606968879699707 4.363696098327637 0.003921568859369
24.763874053955078 -9.679645538330078 4.822583675384521 0.003921568859369
23.594114303588867 -8.012322425842285 1.445371389389038 0.003921568859369
24.726453781127930 -9.763978004455566 2.161150217056274 0.003921568859369
25.754732131958008 -8.851366043090820 1.580644726753235 0.003921568859369
18.847261428833008 -7.501569271087646 1.645863890647888 0.003921568859369
21.140237808227539 -7.336715221405029 0.520230412483215 0.003921568859369
21.096940994262695 -7.399538516998291 0.519760608673096 0.003921568859369
25.261833190917969 -8.872520446777344 3.271627664566040 0.003921568859369
20.939413070678711 -8.506714820861816 4.095101833343506 0.003921568859369
23.966575622558594 -8.507961273193359 0.591837048530579 0.003921568859369
15.237299919128418 -6.232320308685303 2.974805355072021 0.003921568859369
20.933261871337891 -8.669586181640625 4.103913784027100 0.003921568859369
24.734262466430664 -10.358476638793945 2.179639816284180 0.003921568859369
26.918285369873047 -9.871367454528809 1.664391756057739 0.003921568859369
24.974494934082031 -10.659206390380859 2.207358837127686 0.003921568859369
23.871164321899414 -10.287842750549316 2.112441778182983 0.003921568859369
22.655286788940430 -8.565732955932617 0.563455581665039 0.003921568859369
19.606351852416992 -7.481273174285889 0.487596243619919 0.003921568859369
25.128217697143555 -9.608396530151367 7.167390823364258 0.003921568859369
25.137727737426758 -9.712233543395996 7.179820537567139 0.003921568859369
26.410305023193359 -10.318241119384766 1.645950794219971 0.003921568859369
20.309104919433594 -9.076849937438965 1.805836319923401 0.003921568859369
25.130723953247070 -9.814952850341797 7.188106060028076 0.003921568859369
20.391384124755859 -9.194725990295410 1.815945029258728 0.003921568859369
23.612052917480469 -10.952875137329102 2.114932298660278 0.003921568859369
20.210962295532227 -9.362225532531738 4.032979488372803 0.003921568859369
8.556694984436035 -3.051230907440186 -0.154198676347733 0.000000000000000
20.052579879760742 -9.791459083557129 1.811221480369568 0.003921568859369
26.312847137451172 -11.327687263488770 7.633803367614746 0.003921568859369
20.086101531982422 -9.894454956054688 1.817415952682495 0.003921568859369
24.270002365112305 -10.541709899902344 7.047424316406250 0.003921568859369
20.532306671142578 -9.245488166809082 0.523575782775879 0.003921568859369
20.904462814331055 -8.218979835510254 0.652198255062103 0.003921568859369
8.810607910156250 -5.097080230712891 0.117866940796375 0.000000000000000
4.932587623596191 -1.990990877151489 -0.089059822261333 0.000000000000000
13.174855232238770 -6.224554061889648 3.857679605484009 0.000000000000000
19.405004501342773 -9.379655838012695 0.500945985317230 0.003921568859369
8.746141433715820 -5.303643226623535 0.118469856679440 0.000000000000000
21.186788558959961 -10.523931503295898 6.294412612915039 0.003921568859369
23.478981018066406 -13.241261482238770 2.190752506256104 0.003921568859369
22.058740615844727 -12.433426856994629 4.589004993438721 0.003921568859369
21.301832199096680 -10.849370956420898 1.385468959808350 0.003921568859369
18.239604949951172 -10.417811393737793 3.799835443496704 0.003921568859369
19.816509246826172 -11.697179794311523 1.867631435394287 0.003921568859369
18.095762252807617 -10.670503616333008 3.800536394119263 0.003921568859369
3.849988460540771 -2.186692237854004 0.074388787150383 0.000000000000000
20.021533966064453 -11.913483619689941 1.891117215156555 0.003921568859369
20.429830551147461 -12.255364418029785 1.934178352355957 0.003921568859369
19.344841003417969 -10.615465164184570 2.690395832061768 0.003921568859369
19.297855377197266 -9.483676910400391 0.624050498008728 0.003921568859369
24.069309234619141 -14.921187400817871 2.302172422409058 0.003921568859369
20.427150726318359 -12.643210411071777 4.351416110992432 0.003921568859369
22.269233703613281 -13.890679359436035 2.132086277008057 0.003921568859369
6.588826656341553 -3.216870307922363 0.042426079511642 0.000000000000000
22.193685531616211 -13.950451850891113 2.129469633102417 0.003921568859369
24.977785110473633 -14.071022033691406 7.635466575622559 0.003921568859369
18.114690780639648 -10.335599899291992 5.540473461151123 0.003921568859369
20.900705337524414 -13.745373725891113 2.031545400619507 0.003921568859369
17.683284759521484 -11.606640815734863 3.826501607894897 0.003921568859369
18.293251037597656 -12.103314399719238 3.969436168670654 0.003921568859369
23.903703689575195 -14.463062286376953 7.440626621246338 0.003921568859369
18.376512527465820 -12.436441421508789 4.016107559204102 0.003921568859369
18.321628570556641 -12.475437164306641 4.010533332824707 0.003921568859369
4.676632404327393 -3.421405315399170 -0.064682416617870 0.000000000000000
25.029153823852539 -15.496615409851074 3.596086502075195 0.003921568859369
19.616020202636719 -12.113653182983398 6.129113674163818 0.003921568859369
7.392700672149658 -4.032440185546875 0.240365058183670 0.000000000000000
19.575740814208984 -12.177864074707031 6.129108428955078 0.003921568859369
17.774795532226562 -11.129611015319824 5.570633888244629 0.003921568859369
22.638145446777344 -14.330654144287109 3.270828247070312 0.003921568859369
19.389408111572266 -13.615310668945312 1.923026680946350 0.003921568859369
25.124027252197266 -16.043500900268555 3.641961336135864 0.003921568859369
23.169401168823242 -14.891448020935059 3.363111257553101 0.003921568859369
19.513225555419922 -12.618491172790527 6.178812026977539 0.003921568859369
7.670411109924316 -5.443140029907227 -0.052181076258421 0.000000000000000
9.754806518554688 -6.278815269470215 3.058028936386108 0.000000000000000
21.323213577270508 -14.014145851135254 3.114036798477173 0.003921568859369
9.723175048828125 -6.305597305297852 3.054917335510254 0.000000000000000
11.945601463317871 -9.617860794067383 0.179000571370125 0.000000000000000
19.643424987792969 -14.411862373352051 1.978130221366882 0.003921568859369
9.647629737854004 -6.300498962402344 3.037300586700439 0.000000000000000
20.502964019775391 -13.673860549926758 1.428645014762878 0.003921568859369
19.542594909667969 -14.447079658508301 1.973227739334106 0.003921568859369
20.968545913696289 -13.988458633422852 6.707203865051270 0.003921568859369
18.490901947021484 -12.393176078796387 2.712727785110474 0.003921568859369
15.674161911010742 -10.480247497558594 5.001853466033936 0.003921568859369
19.056228637695312 -14.168101310729980 4.298623085021973 0.003921568859369
18.308071136474609 -12.463470458984375 2.699039459228516 0.003921568859369
21.058107376098633 -14.468486785888672 3.117560386657715 0.003921568859369
21.440050125122070 -16.325626373291016 2.189356088638306 0.003921568859369
20.161235809326172 -15.340937614440918 4.588805675506592 0.003921568859369
9.685520172119141 -7.321568965911865 -0.067474015057087 0.000000000000000
21.577960968017578 -16.544860839843750 2.209253311157227 0.003921568859369
15.278013229370117 -10.677492141723633 0.003457857761532 0.003921568859369
17.666595458984375 -13.806001663208008 1.818941116333008 0.003921568859369
3.907216310501099 -2.377821922302246 -0.075887009501457 0.000000000000000
17.096750259399414 -13.542192459106445 1.768998384475708 0.003921568859369
21.736654281616211 -17.271183013916016 5.032680034637451 0.003921568859369
18.800260543823242 -13.573275566101074 2.827421903610229 0.003921568859369
8.705835342407227 -6.236783027648926 0.001678274013102 0.003921568859369
15.941388130187988 -11.570564270019531 2.398151159286499 0.003921568859369
21.925054550170898 -16.079034805297852 3.318844318389893 0.003921568859369
17.086822509765625 -13.813549995422363 1.781807184219360 0.003921568859369
18.279758453369141 -14.792914390563965 4.256259441375732 0.003921568859369
16.155088424682617 -11.975126266479492 2.448041200637817 0.003921568859369
15.746458053588867 -11.667730331420898 5.200799465179443 0.003921568859369
14.835376739501953 -11.061161994934082 2.250728130340576 0.003921568859369
13.707296371459961 -11.282120704650879 3.204569339752197 0.003921568859369
5.121057510375977 -3.716919183731079 0.000688040279783 0.000000000000000
14.804924964904785 -11.114274978637695 2.251698493957520 0.003921568859369
19.084671020507812 -15.898660659790039 4.498305320739746 0.003921568859369
14.712466239929199 -11.208385467529297 2.249731302261353 0.003921568859369
15.801462173461914 -12.223381996154785 5.303335189819336 0.003921568859369
6.976229667663574 -5.324355602264404 1.054179191589355 0.000000000000000
16.507087707519531 -14.220192909240723 1.767041802406311 0.003921568859369
18.798524856567383 -16.225538253784180 4.497535228729248 0.003921568859369
8.418440818786621 -5.959422588348389 0.060333583503962 0.000000000000000
4.684939861297607 -3.574579954147339 0.698622763156891 0.000000000000000
21.217515945434570 -17.195804595947266 7.268989562988281 0.003921568859369
16.607004165649414 -14.904216766357422 4.037124156951904 0.003921568859369
12.896222114562988 -11.600603103637695 1.403193473815918 0.000000000000000
8.667404174804688 -7.771038055419922 0.936182320117950 0.000000000000000
17.278434753417969 -15.845691680908203 1.902486205101013 0.003921568859369
6.768162250518799 -5.037677764892578 -0.142434686422348 0.000000000000000
5.293638706207275 -4.304484844207764 0.000748983409721 0.000000000000000
13.463382720947266 -12.465673446655273 1.485399484634399 0.000000000000000
13.128427505493164 -12.320363998413086 1.457316994667053 0.000000000000000
13.485739707946777 -11.478791236877441 4.695088863372803 0.003921568859369
7.368578910827637 -6.245700359344482 0.551848351955414 0.000000000000000
15.170062065124512 -13.208380699157715 5.338600158691406 0.003921568859369
16.442567825317383 -14.740022659301758 5.867008686065674 0.003921568859369
12.435763359069824 -12.312362670898438 3.158506393432617 0.003921568859369
16.426826477050781 -15.144041061401367 5.937425136566162 0.003921568859369
16.873884201049805 -15.672462463378906 6.121850013732910 0.003921568859369
14.120155334472656 -14.606997489929199 3.672139167785645 0.003921568859369
16.239280700683594 -16.962633132934570 4.250412464141846 0.003921568859369
14.919157028198242 -15.766758918762207 1.760138154029846 0.003921568859369
13.375998497009277 -14.203722953796387 3.525548219680786 0.003921568859369
7.529129028320312 -9.173627853393555 0.137609973549843 0.000000000000000
12.745562553405762 -14.385482788085938 3.472346544265747 0.003921568859369
13.595331192016602 -15.481675148010254 3.725196838378906 0.003921568859369
15.908535957336426 -16.940088272094727 2.833219289779663 0.003921568859369
7.440732479095459 -9.594165802001953 -0.137682631611824 0.000000000000000
4.712157726287842 -5.987535476684570 -0.215614244341850 0.000000000000000
5.931397438049316 -7.704483032226562 0.167471155524254 0.000000000000000
14.726740837097168 -17.997955322265625 6.182779788970947 0.003921568859369
6.404689311981201 -9.412901878356934 -0.129246577620506 0.000000000000000
6.758197307586670 -9.304977416992188 0.198938161134720 0.000000000000000
5.930649757385254 -7.852278709411621 0.001042411313392 0.003921568859369
6.614390850067139 -8.810327529907227 0.253198891878128 0.000000000000000
6.332432746887207 -9.494771957397461 -0.064054489135742 0.000000000000000
7.275356292724609 -9.172461509704590 -0.199235633015633 0.000000000000000
6.923298835754395 -10.831124305725098 1.036454081535339 0.003921568859369
12.295265197753906 -19.961174011230469 1.903388023376465 0.003921568859369
5.588733196258545 -9.912940979003906 -0.129596948623657 0.003921568859369
8.185409545898438 -15.059928894042969 -0.986951470375061 0.003921568859369
4.670839309692383 -6.026090145111084 0.043681122362614 0.000000000000000
12.735805511474609 -24.201976776123047 -0.312559038400650 0.003921568859369
9.519040107727051 -18.236326217651367 0.240407004952431 0.003921568859369
6.854327201843262 -11.507452011108398 -0.691630840301514 0.000000000000000
6.120974540710449 -9.558325767517090 0.001165683264844 0.003921568859369
5.648557186126709 -9.914319992065430 -0.064327821135521 0.003921568859369
6.002266883850098 -9.587270736694336 0.001126661081798 0.003921568859369
6.507721424102783 -9.366189956665039 0.066451549530029 0.003921568859369
5.566178321838379 -9.926314353942871 -0.064192533493042 0.003921568859369
9.133476257324219 -16.852035522460938 -0.993537127971649 0.003921568859369
5.852241516113281 -9.560209274291992 -0.255657553672791 0.000000000000000
8.687849998474121 -16.415983200073242 1.505639910697937 0.000000000000000
5.397031307220459 -10.093184471130371 0.460593432188034 0.003921568859369
8.704171180725098 -16.862373352050781 0.768986642360687 0.003921568859369
10.806048393249512 -24.219320297241211 0.310542911291122 0.003921568859369
6.719367027282715 -15.166947364807129 -0.956282556056976 0.003921568859369
6.689365863800049 -15.244383811950684 -0.959778010845184 0.003921568859369
7.622154235839844 -13.689887046813965 1.904978752136230 0.003921568859369
12.968655586242676 -24.374263763427734 -0.634403944015503 0.003921568859369
7.962996006011963 -17.257595062255859 0.770376145839691 0.003921568859369
8.335845947265625 -15.944305419921875 2.190999269485474 0.003921568859369
9.402219772338867 -23.838548660278320 0.299755632877350 0.003921568859369
7.923204421997070 -17.329643249511719 -0.988687574863434 0.003921568859369
6.119534015655518 -13.574173927307129 0.601998746395111 0.000000000000000
8.586359024047852 -17.336843490600586 2.358355045318604 0.003921568859369
7.434714794158936 -17.007499694824219 1.505562186241150 0.000000000000000
9.388788223266602 -25.381568908691406 0.316627770662308 0.003921568859369
7.320054531097412 -16.897193908691406 0.746355175971985 0.003921568859369
7.220313549041748 -16.821430206298828 0.741919457912445 0.003921568859369
7.375302314758301 -17.352003097534180 3.413532733917236 0.003921568859369
6.121391296386719 -14.385724067687988 0.632470309734344 0.000000000000000
7.223066806793213 -17.145215988159180 1.509067296981812 0.003921568859369
4.169520854949951 -11.290428161621094 0.139155685901642 0.003921568859369
7.197137832641602 -17.797208786010742 0.778421938419342 0.003921568859369
5.664727687835693 -14.545482635498047 0.271344840526581 0.003921568859369
5.640985965728760 -14.639122962951660 0.272736221551895 0.003921568859369
7.866621494293213 -18.011037826538086 -0.906512200832367 0.003921568859369
7.818534851074219 -18.048101425170898 -0.907085895538330 0.003921568859369
6.627159118652344 -15.306310653686523 -0.768434405326843 0.000000000000000
4.264326095581055 -13.192298889160156 0.160659462213516 0.003921568859369
4.096715927124023 -13.128272056579590 -0.158326432108879 0.000000000000000
7.606800079345703 -18.442987442016602 0.462957292795181 0.000000000000000
6.678795814514160 -14.278647422790527 -0.998500704765320 0.003921568859369
3.921383619308472 -13.019084930419922 0.157494470477104 0.003921568859369
6.102226257324219 -22.237482070922852 0.268909156322479 0.003921568859369
3.710426568984985 -13.499131202697754 -0.809193909168243 0.003921568859369
8.543018341064453 -28.426744461059570 -0.857773423194885 0.003921568859369
3.589837074279785 -13.622508049011230 -0.814585030078888 0.000000000000000
8.004857063293457 -26.867202758789062 -0.810107231140137 0.003921568859369
3.547920942306519 -13.636362075805664 -0.814833521842957 0.000000000000000
10.731636047363281 -26.644727706909180 0.169732734560966 0.003921568859369
3.940399169921875 -16.117219924926758 0.192655503749847 0.003921568859369
5.831185340881348 -14.583510398864746 -0.996031641960144 0.000000000000000
4.967341899871826 -21.810085296630859 0.260543674230576 0.003921568859369
8.529082298278809 -25.900426864624023 -0.628907144069672 0.003921568859369
3.679995298385620 -13.315492630004883 0.558942854404449 0.000000000000000
2.964379310607910 -11.238371849060059 0.469503909349442 0.000000000000000
3.456272602081299 -13.397915840148926 -0.719953715801239 0.000000000000000
3.390458345413208 -13.738015174865723 -0.736546933650970 0.003921568859369
3.675652980804443 -13.665013313293457 -0.654164433479309 0.000000000000000
2.680955171585083 -12.298230171203613 0.509276747703552 0.000000000000000
4.087804794311523 -13.091111183166504 -0.236919149756432 0.003921568859369
3.988966464996338 -13.089332580566406 -0.236472532153130 0.003921568859369
3.766872167587280 -12.799776077270508 -0.847604870796204 0.003921568859369
1.836059927940369 -12.920723915100098 -0.757569134235382 0.003921568859369
3.487375736236572 -19.720176696777344 0.348710417747498 0.003921568859369
1.629969954490662 -11.794060707092285 -0.691188395023346 0.000000000000000
3.606289625167847 -12.910492897033691 -0.852017939090729 0.000000000000000
3.366951227188110 -12.457303047180176 -0.820199072360992 0.000000000000000
2.152941465377808 -7.404885768890381 -0.310423910617828 0.000000000000000
1.857759952545166 -12.983922004699707 -0.685199379920959 0.000000000000000
3.248119831085205 -13.640230178833008 -0.892606914043427 0.003921568859369
1.524530649185181 -14.467829704284668 2.644535064697266 0.003921568859369
2.715376377105713 -13.620345115661621 -0.562871754169464 0.000000000000000
2.416013002395630 -12.325524330139160 -0.800458192825317 0.000000000000000
2.367440462112427 -12.325101852416992 -0.799968242645264 0.000000000000000
2.677526473999023 -14.652212142944336 -0.950174152851105 0.000000000000000
0.424672544002533 -13.871682167053223 -0.809282898902893 0.003921568859369
1.039699912071228 -12.538634300231934 2.287597656250000 0.003921568859369
-0.001627564430237 -28.337541580200195 0.328885406255722 0.003921568859369
2.101197719573975 -13.262440681457520 -0.857158422470093 0.003921568859369
-0.492057532072067 -28.213304519653320 -0.329948902130127 0.003921568859369
-0.506897926330566 -28.645008087158203 0.332390695810318 0.003921568859369
-0.662098824977875 -27.790323257446289 0.322320103645325 0.003921568859369
0.607863843441010 -17.024456024169922 0.692389130592346 0.003921568859369
0.520832479000092 -10.757406234741211 0.186269909143448 0.000000000000000
0.531084060668945 -12.761535644531250 -0.670298337936401 0.003921568859369
1.591772794723511 -11.705301284790039 -0.754661083221436 0.000000000000000
1.528114318847656 -11.462708473205566 -0.738837718963623 0.000000000000000
-0.327484011650085 -14.608755111694336 -0.853868246078491 0.003921568859369
0.410359591245651 -10.308698654174805 0.840049326419830 0.000000000000000
-0.411330461502075 -14.307899475097656 -0.836708545684814 0.000000000000000
1.436755418777466 -13.568797111511230 -0.872863352298737 0.000000000000000
-0.507327020168304 -12.920463562011719 -0.756568849086761 0.000000000000000
-0.378329277038574 -28.214017868041992 -0.165400043129921 0.003921568859369
0.054441064596176 -11.505804061889648 0.467325210571289 0.000000000000000
-2.526136875152588 -29.030149459838867 0.337344110012054 0.003921568859369
-2.629580736160278 -29.039371490478516 0.337527841329575 0.003921568859369
-1.085920810699463 -13.734951972961426 -0.807365536689758 0.000000000000000
-0.181384742259979 -10.201381683349609 0.414575368165970 0.003921568859369
-1.309075355529785 -15.244727134704590 -0.896258413791656 0.000000000000000
-3.083487749099731 -29.438491821289062 0.342539459466934 0.003921568859369
-1.329936981201172 -14.948677062988281 -0.879301667213440 0.000000000000000
-0.382583916187286 -12.010370254516602 0.488626688718796 0.003921568859369
-0.296800702810287 -10.469038009643555 0.425686269998550 0.000000000000000
-1.459450602531433 -14.802218437194824 -0.872021019458771 0.000000000000000
-0.363843828439713 -10.367555618286133 0.421742379665375 0.000000000000000
-1.607770681381226 -15.928005218505859 -0.563574135303497 0.003921568859369
-0.465493828058243 -10.731907844543457 0.436847597360611 0.000000000000000
-0.504792571067810 -10.748414039611816 0.437643110752106 0.000000000000000
0.318691253662109 -13.969477653503418 -0.897057950496674 0.003921568859369
0.283346116542816 -13.410085678100586 -0.861277043819427 0.003921568859369
-1.584179878234863 -17.793043136596680 -0.941463768482208 0.003921568859369
-1.352171063423157 -15.346707344055176 -0.812678217887878 0.000000000000000
-3.162358045578003 -29.443914413452148 -0.175429686903954 0.003921568859369
-0.745604038238525 -9.754620552062988 0.169271722435951 0.000000000000000
0.067976534366608 -14.806497573852539 -0.951211750507355 0.003921568859369
0.081921190023422 -12.790102958679199 -0.822073698043823 0.003921568859369
-1.502783536911011 -14.848278999328613 -0.787857055664062 0.000000000000000
-0.111249208450317 -14.160936355590820 -0.910388529300690 0.003921568859369
-0.159422099590302 -14.078854560852051 -0.905298531055450 0.003921568859369
-0.133265912532806 -12.621405601501465 -0.811953127384186 0.003921568859369
-0.419125437736511 -14.483646392822266 -0.932360768318176 0.000000000000000
-0.357869744300842 -12.823201179504395 -0.525839984416962 0.000000000000000
-0.455969929695129 -12.964593887329102 -0.835466086864471 0.003921568859369
-0.505969047546387 -12.992807388305664 -0.837537348270416 0.003921568859369
-0.772847294807434 -12.941115379333496 -0.835884094238281 0.000000000000000
-3.520110130310059 -15.667362213134766 -0.946140706539154 0.003921568859369
-3.616200923919678 -15.811563491821289 -0.955721259117126 0.003921568859369
-2.190835952758789 -12.907594680786133 -0.694466650485992 0.003921568859369
-1.084781527519226 -13.785635948181152 -0.892133593559265 0.003921568859369
-1.676203846931458 -17.785261154174805 -0.732927620410919 0.003921568859369
-2.536659240722656 -13.405655860900879 1.119126200675964 0.000000000000000
-1.860707402229309 -9.958299636840820 0.414039909839630 0.000000000000000
-4.085948944091797 -15.812154769897461 -0.579257130622864 0.003921568859369
-4.115537166595459 -15.709942817687988 -0.958077013492584 0.003921568859369
-4.187513828277588 -15.785504341125488 -0.963817954063416 0.003921568859369
-4.352454662322998 -16.132036209106445 -0.985988378524780 0.003921568859369
-4.417407035827637 -16.133121490478516 -0.987185657024384 0.003921568859369
-2.964313507080078 -13.755343437194824 1.154930353164673 0.000000000000000
-1.334803104400635 -7.138288497924805 1.342242836952209 0.000000000000000
-4.559918880462646 -16.017520904541016 -0.983311057090759 0.003921568859369
-2.682348966598511 -11.797616004943848 -0.074674271047115 0.003921568859369
-3.772852182388306 -15.805545806884766 -0.862589836120605 0.003921568859369
-5.094339370727539 -17.279964447021484 -0.639342486858368 0.003921568859369
-3.823752641677856 -15.775030136108398 -0.861780285835266 0.003921568859369
-5.823907375335693 -23.013229370117188 4.347970485687256 0.003921568859369
-4.788123130798340 -15.960052490234375 -0.984364092350006 0.003921568859369
-2.231473445892334 -9.867796897888184 0.414072036743164 0.000000000000000
-1.985061645507812 -8.984353065490723 1.697818160057068 0.000000000000000
-1.988271474838257 -8.683266639709473 0.365061581134796 0.000000000000000
-4.179501056671143 -15.802886962890625 -0.868791520595551 0.003921568859369
-2.053338289260864 -7.193691730499268 0.085533857345581 0.000000000000000
-2.130461692810059 -7.327406883239746 0.087265230715275 0.000000000000000
-1.924978733062744 -9.442854881286621 2.611742496490479 0.000000000000000
-1.547379493713379 -6.648641586303711 1.267410874366760 0.000000000000000
-0.792223036289215 -3.536518573760986 -0.046918656677008 0.000000000000000
-2.522477865219116 -11.404079437255859 0.271149307489395 0.000000000000000
-2.606116294860840 -11.562925338745117 -0.003675853367895 0.003921568859369
-1.219916582107544 -6.466278076171875 0.152890101075172 0.000000000000000
-2.289769649505615 -8.697194099426270 0.156070977449417 0.000000000000000
-1.864439249038696 -8.831216812133789 2.449220180511475 0.000000000000000
-6.099172592163086 -19.933116912841797 1.709827542304993 0.003921568859369
-2.208156585693359 -9.733283996582031 0.231807604432106 0.000000000000000
-6.297288894653320 -17.455099105834961 0.212621629238129 0.003921568859369
-2.398872375488281 -7.439652919769287 -0.096951007843018 0.000000000000000
-1.596403598785400 -7.377346038818359 -0.003336889669299 0.000000000000000
-6.308995723724365 -19.896459579467773 1.712473392486572 0.003921568859369
-6.575593948364258 -17.628421783447266 0.215546354651451 0.003921568859369
-1.092918634414673 -5.576462268829346 0.335497438907623 0.000000000000000
-6.386747360229492 -19.907491683959961 1.715360045433044 0.003921568859369
-6.443593502044678 -17.129453659057617 0.209646463394165 0.003921568859369
-4.857567787170410 -13.245630264282227 -0.838232696056366 0.000000000000000
-4.027640819549561 -12.846912384033203 1.108853340148926 0.000000000000000
-2.068146467208862 -8.556577682495117 0.517591118812561 0.000000000000000
-2.170064210891724 -8.780074119567871 0.531726539134979 0.000000000000000
-2.379750728607178 -11.238755226135254 0.334359019994736 0.000000000000000
-0.657925724983215 -3.279393672943115 0.058092262595892 0.000000000000000
-2.272386312484741 -9.000534057617188 -0.223179474473000 0.000000000000000
-2.240638732910156 -10.555454254150391 -0.448462516069412 0.000000000000000
-1.493692517280579 -7.450054645538330 0.221557557582855 0.000000000000000
-3.896265029907227 -11.602686882019043 0.501778900623322 0.003921568859369
-5.054455757141113 -12.605971336364746 -0.808956801891327 0.000000000000000
-3.826807498931885 -11.188172340393066 0.205188155174255 0.000000000000000
-5.817913532257080 -18.521106719970703 2.399669408798218 0.003921568859369
-7.502978324890137 -20.158658981323242 1.765997171401978 0.003921568859369
-1.443571209907532 -4.375400543212891 -0.171482667326927 0.000000000000000
-5.195423126220703 -12.463114738464355 -0.804852128028870 0.000000000000000
-4.093146800994873 -15.823430061340332 -0.676637232303619 0.003921568859369
-1.793938755989075 -7.900514125823975 0.236410737037659 0.000000000000000
-5.949115276336670 -18.492258071899414 2.401546001434326 0.003921568859369
-8.094467163085938 -24.303037643432617 3.160939216613770 0.003921568859369
-6.939695358276367 -20.841020584106445 2.713517427444458 0.003921568859369
-1.475196719169617 -6.574322700500488 -0.123520806431770 0.000000000000000
-5.372475624084473 -12.383106231689453 -0.484943389892578 0.000000000000000
-5.815196037292480 -13.194853782653809 -0.517419695854187 0.000000000000000
-5.404472827911377 -12.230003356933594 -0.480636805295944 0.000000000000000
