# This PCD file was generated using the MATLAB® pcwrite function
# from Computer Vision Toolbox®.
# .PCD v.7 - Point Cloud Data file format
VERSION .7
FIELDS x y z intensity
SIZE 8 8 8 8
TYPE F F F F
COUNT 1 1 1 1
WIDTH 640
HEIGHT 1
VIEWPOINT 0 0 0 1 0 0 0
POINTS 640
DATA ascii
-9.100034713745117 0.016554592177272 1.031993627548218 0.000000000000000
-11.591678619384766 0.022627051919699 2.920347452163696 0.000000000000000
-10.727627754211426 0.017983218654990 -0.237591266632080 0.000000000000000
-18.630187988281250 0.978839397430420 3.267586231231689 0.003921568859369
-4.206406593322754 0.032000754028559 0.001221744343638 0.000000000000000
-10.738348007202148 -0.403227239847183 0.289879083633423 0.000000000000000
-11.272500038146973 0.612122416496277 0.427805632352829 0.000000000000000
-6.159514427185059 0.317723155021667 0.447947591543198 0.000000000000000
-8.920106887817383 0.507231116294861 0.671551883220673 0.000000000000000
-13.629233360290527 -0.429536461830139 -0.231632873415947 0.000000000000000
-12.576293945312500 0.232321158051491 3.186556100845337 0.000000000000000
-18.053859710693359 1.247161388397217 0.699988484382629 0.003921568859369
-11.680559158325195 0.288993388414383 -0.004597009625286 0.003921568859369
-10.493458747863770 0.775642514228821 -0.291155099868774 0.000000000000000
-4.067648887634277 -0.063581667840481 0.021173475310206 0.000000000000000
-2.600257873535156 0.059178449213505 0.115142464637756 0.003921568859369
-8.687874794006348 0.268340736627579 -0.002361695747823 0.003921568859369
-12.749659538269043 0.404146313667297 0.698677003383636 0.000000000000000
-7.894646644592285 0.242821052670479 0.886435389518738 0.000000000000000
-14.798202514648438 1.165848255157471 1.149872422218323 0.000000000000000
-9.884555816650391 0.307939410209656 -0.217959344387054 0.000000000000000
-2.662448883056641 0.172720387578011 0.165898412466049 0.000000000000000
-11.858335494995117 0.999723196029663 0.190724983811378 0.000000000000000
-12.130009651184082 -0.100045450031757 -0.471697211265564 0.000000000000000
-6.965385437011719 0.296959668397903 -0.001115683931857 0.000000000000000
-9.748642921447754 -0.016493201255798 0.261513501405716 0.000000000000000
-5.228343963623047 0.440062195062637 0.374303370714188 0.000000000000000
-9.630818367004395 0.016185251995921 -0.159320309758186 0.000000000000000
-14.848847389221191 1.463499784469604 -0.090995602309704 0.000000000000000
-8.948684692382812 0.071839570999146 0.238744586706161 0.000000000000000
-9.152057647705078 0.104348585009575 -0.150865092873573 0.000000000000000
-3.524011135101318 0.176754042506218 0.068420752882957 0.000000000000000
-10.021570205688477 1.065965056419373 -0.278485685586929 0.000000000000000
-3.883527755737305 0.379976332187653 0.057808168232441 0.000000000000000
-7.274990558624268 0.777919769287109 0.542351186275482 0.000000000000000
-15.081822395324707 1.694834589958191 2.639786481857300 0.000000000000000
-11.409202575683594 0.807494461536407 0.246102005243301 0.000000000000000
-9.407201766967773 0.687988281250000 -0.003282013814896 0.003921568859369
-14.997056961059570 1.834892272949219 -0.092533908784389 0.000000000000000
-8.067564964294434 0.950343191623688 1.359923362731934 0.000000000000000
-4.509164333343506 0.317339390516281 0.000658207340166 0.000000000000000
-7.564741134643555 0.910506725311279 1.268492698669434 0.000000000000000
-2.893922805786133 0.192841902375221 0.001959825400263 0.000000000000000
-8.827193260192871 0.757448077201843 -0.002927352674305 0.003921568859369
-13.440902709960938 0.556695997714996 0.366379588842392 0.000000000000000
-12.993466377258301 1.144240260124207 1.515068650245667 0.000000000000000
-15.534962654113770 2.117717981338501 2.730875492095947 0.000000000000000
-13.578167915344238 1.878697037696838 -0.083405077457428 0.000000000000000
-14.793918609619141 1.354503273963928 0.322651952505112 0.000000000000000
-10.504761695861816 0.944375932216644 0.571938395500183 0.000000000000000
-13.403070449829102 1.270553708076477 -0.006773149594665 0.000000000000000
-11.436531066894531 1.611714720726013 1.981733560562134 0.000000000000000
-21.685445785522461 2.236973762512207 -0.013591525144875 0.003921568859369
-9.793315887451172 0.523536980152130 0.263334691524506 0.000000000000000
-5.294000148773193 0.978287935256958 -0.055891692638397 0.003921568859369
-10.933524131774902 1.642971396446228 -0.065837897360325 0.000000000000000
-2.384915828704834 0.192481264472008 -0.038472291082144 0.003921568859369
-3.866433143615723 0.366611123085022 0.076515041291714 0.000000000000000
-8.783534049987793 1.741217017173767 0.093073919415474 0.000000000000000
-10.888172149658203 1.672840237617493 0.417593419551849 0.000000000000000
-13.088636398315430 1.411266088485718 -0.298043489456177 0.000000000000000
-11.682556152343750 1.841364026069641 -0.331707596778870 0.000000000000000
-11.495677947998047 1.850208044052124 0.892706036567688 0.000000000000000
-9.606197357177734 1.529076814651489 1.653157591819763 0.000000000000000
-8.837751388549805 1.044467329978943 -0.003187220310792 0.003921568859369
-24.462453842163086 4.309913635253906 -0.722064554691315 0.003921568859369
-12.590572357177734 1.564347505569458 -0.286760926246643 0.000000000000000
-24.054084777832031 4.320490360260010 -0.710144817829132 0.003921568859369
-8.599133491516113 0.677103459835052 0.043744459748268 0.000000000000000
-20.258630752563477 3.623787879943848 3.622253179550171 0.003921568859369
-23.712730407714844 4.340835094451904 -0.700260937213898 0.003921568859369
-14.546895980834961 1.279828071594238 -0.251229435205460 0.000000000000000
-23.359745025634766 4.356592178344727 -0.690015137195587 0.003921568859369
-28.728673934936523 5.391001701354980 5.191451549530029 0.003921568859369
-23.212560653686523 4.411973953247070 -0.686129927635193 0.003921568859369
-22.781366348266602 4.408060550689697 -0.673485994338989 0.003921568859369
-3.999831914901733 0.334743052721024 0.099398508667946 0.000000000000000
-10.540661811828613 0.981901049613953 -0.409911185503006 0.000000000000000
-22.667882919311523 4.465493679046631 -0.670551538467407 0.003921568859369
-12.232686996459961 1.190746307373047 0.062063094228506 0.000000000000000
-21.978797912597656 4.481252670288086 -0.650529205799103 0.003921568859369
-17.258935928344727 2.652497053146362 2.056234598159790 0.003921568859369
-9.927828788757324 1.953643798828125 1.726468086242676 0.000000000000000
-21.963027954101562 4.555735588073730 -0.650589466094971 0.003921568859369
-21.274974822998047 4.484209537506104 -0.630018651485443 0.003921568859369
-22.711536407470703 4.876964092254639 -0.674701035022736 0.003921568859369
-7.957954406738281 0.881983935832977 0.212312236428261 0.000000000000000
-9.481122016906738 1.989161849021912 1.648545861244202 0.000000000000000
-24.649351119995117 5.481022834777832 -0.735534250736237 0.003921568859369
-12.163882255554199 2.634213209152222 2.148974895477295 0.000000000000000
-24.735237121582031 5.589202880859375 -0.738840699195862 0.003921568859369
-7.042144775390625 1.487726807594299 0.534698009490967 0.000000000000000
-24.629135131835938 4.341898918151855 -0.584954023361206 0.003921568859369
-3.203436374664307 0.474972933530807 -0.120339229702950 0.000000000000000
-24.229209899902344 4.350414752960205 -0.575559377670288 0.003921568859369
-24.553255081176758 5.725569248199463 -0.734628558158875 0.003921568859369
-3.372758150100708 0.802892446517944 -0.032416813075542 0.000000000000000
-23.750989913940430 4.351721286773682 -0.564290106296539 0.003921568859369
-6.606986999511719 0.846892654895782 -0.106861136853695 0.000000000000000
-22.301145553588867 5.266568183898926 4.050126552581787 0.003921568859369
-23.441877365112305 4.371973991394043 -0.557114303112030 0.003921568859369
-23.426479339599609 4.451600551605225 -0.557178854942322 0.003921568859369
-22.630308151245117 4.376020908355713 -0.538033425807953 0.003921568859369
-22.840545654296875 5.640838623046875 -0.684362947940826 0.003921568859369
-22.646257400512695 4.459161281585693 -0.538867652416229 0.003921568859369
-22.836210250854492 5.722346782684326 -0.684902429580688 0.003921568859369
-12.234221458435059 2.393579006195068 -0.559006154537201 0.000000000000000
-22.317235946655273 4.471448421478271 -0.531205058097839 0.003921568859369
-7.868038177490234 1.894352436065674 -0.046770393848419 0.000000000000000
-22.191913604736328 4.524168491363525 -0.528561890125275 0.003921568859369
-24.793817520141602 6.406800270080566 -0.747077167034149 0.003921568859369
-9.312226295471191 1.857098221778870 2.375876665115356 0.000000000000000
-22.203371047973633 4.605266094207764 -0.529297947883606 0.003921568859369
-22.840717315673828 5.972282886505127 -0.687120139598846 0.003921568859369
-5.002116680145264 0.951790153980255 0.260571837425232 0.000000000000000
-22.159812927246094 4.674631595611572 -0.528681755065918 0.003921568859369
-16.225509643554688 4.253743648529053 0.647483885288239 0.003921568859369
-22.158985137939453 4.753232955932617 -0.529127776622772 0.003921568859369
-3.703792333602905 0.852811157703400 0.583235144615173 0.000000000000000
-4.564333915710449 0.885356724262238 -0.093970656394958 0.000000000000000
-22.010793685913086 5.990078926086426 -0.663400888442993 0.003921568859369
-22.125282287597656 4.903460502624512 -0.529246330261230 0.003921568859369
-9.371307373046875 2.486663341522217 -0.269761532545090 0.000000000000000
-9.919977188110352 2.157294511795044 -0.227178350090981 0.000000000000000
-7.854025840759277 1.335889577865601 -0.131207123398781 0.000000000000000
-9.573188781738281 2.110516548156738 0.531448960304260 0.000000000000000
-11.215143203735352 3.051637411117554 2.004484176635742 0.000000000000000
-22.064767837524414 5.049664974212646 -0.528747022151947 0.003921568859369
-21.170425415039062 4.914617538452148 -0.999791562557220 0.003921568859369
-12.591157913208008 3.492847681045532 2.266439199447632 0.000000000000000
-22.124797821044922 5.143113613128662 -0.530736446380615 0.003921568859369
-22.029905319213867 5.195567131042480 -0.528858959674835 0.003921568859369
-11.592590332031250 2.142079591751099 -0.201270863413811 0.000000000000000
-21.866348266601562 4.144846916198730 -0.897163033485413 0.003921568859369
-22.062116622924805 5.282729625701904 -0.530172049999237 0.003921568859369
-8.369377136230469 1.940379261970520 0.461971908807755 0.000000000000000
-21.820394515991211 4.212784290313721 -0.895892024040222 0.003921568859369
-6.431811332702637 1.456940889358521 1.604928731918335 0.000000000000000
-22.043544769287109 5.357570171356201 -0.530229032039642 0.003921568859369
-21.738969802856445 4.273317337036133 -0.893124282360077 0.003921568859369
-10.905007362365723 3.155906915664673 1.955812215805054 0.000000000000000
-22.113872528076172 5.454953193664551 -0.532508432865143 0.003921568859369
-21.790472030639648 4.360734939575195 -0.896009325981140 0.003921568859369
-22.342550277709961 5.593760013580322 -0.538750588893890 0.003921568859369
-8.122554779052734 2.359583377838135 0.133559018373489 0.000000000000000
-21.661684036254883 4.410869121551514 -0.891245245933533 0.003921568859369
-22.156520843505859 5.626139163970947 -0.534651398658752 0.003921568859369
-19.374315261840820 4.970928192138672 1.116215467453003 0.000000000000000
-21.372549057006836 4.425999164581299 -0.879662215709686 0.003921568859369
-22.302974700927734 5.745325565338135 -0.538864552974701 0.003921568859369
-8.327327728271484 2.484136104583740 1.473199367523193 0.000000000000000
-22.262342453002930 5.896611690521240 -0.538977563381195 0.003921568859369
-22.231456756591797 5.972021102905273 -0.538789331912994 0.003921568859369
-11.113627433776855 3.504340648651123 -0.329303830862045 0.000000000000000
-6.907534599304199 1.789577484130859 0.379188030958176 0.000000000000000
-10.614910125732422 2.841655254364014 1.271761655807495 0.000000000000000
-8.444705963134766 2.281887292861938 0.471646100282669 0.000000000000000
-15.029697418212891 3.441380739212036 -0.613722026348114 0.000000000000000
-4.495065689086914 0.943749248981476 -0.163178727030754 0.000000000000000
-11.077281951904297 3.696098804473877 2.017701148986816 0.000000000000000
-12.231079101562500 3.517245292663574 -0.007633978035301 0.000000000000000
-10.796842575073242 2.547046899795532 -0.433848530054092 0.000000000000000
-9.931112289428711 2.891417503356934 0.221735209226608 0.000000000000000
-7.556994915008545 2.182364702224731 -0.003237920813262 0.000000000000000
-14.535650253295898 3.740303277969360 -0.597413897514343 0.000000000000000
-4.430740833282471 1.250040054321289 -0.000272523146123 0.000000000000000
-7.271126270294189 1.818811655044556 0.198738694190979 0.000000000000000
-21.632072448730469 5.805027961730957 -0.905092597007751 0.003921568859369
-21.714078903198242 5.986640453338623 -0.910522103309631 0.003921568859369
-11.107652664184570 4.128271579742432 2.051820278167725 0.000000000000000
-21.739151000976562 6.073565483093262 -0.912571430206299 0.003921568859369
-21.791810989379883 6.164857864379883 -0.915782868862152 0.003921568859369
-7.237339019775391 2.394014120101929 0.161149144172668 0.000000000000000
-11.366481781005859 4.536609649658203 2.123025655746460 0.000000000000000
-12.237607002258301 4.383265495300293 0.716902077198029 0.000000000000000
-9.868694305419922 4.021422386169434 1.838302731513977 0.000000000000000
-11.483765602111816 4.143811702728271 1.424222826957703 0.000000000000000
-3.125376701354980 0.827549755573273 -0.107981652021408 0.000000000000000
-9.267448425292969 3.336326599121094 1.136837720870972 0.000000000000000
-9.029988288879395 4.018689155578613 1.701175928115845 0.000000000000000
-10.876825332641602 4.985971450805664 0.926647543907166 0.000000000000000
-5.932585716247559 2.278875350952148 1.557993292808533 0.000000000000000
-4.132730484008789 1.769026875495911 0.323925077915192 0.000000000000000
-6.046848297119141 2.462101221084595 0.347128540277481 0.000000000000000
-10.327720642089844 4.973527431488037 1.988641619682312 0.000000000000000
-8.406101226806641 3.556583642959595 2.299635887145996 0.000000000000000
-12.831496238708496 5.664830207824707 1.648308515548706 0.000000000000000
-7.140064239501953 3.468588590621948 0.603033542633057 0.000000000000000
-11.579569816589355 5.856160640716553 2.265564441680908 0.000000000000000
-9.087384223937988 4.049353122711182 2.522458553314209 0.000000000000000
-18.936195373535156 9.934877395629883 3.790604829788208 0.003921568859369
-3.696426868438721 1.709903717041016 0.650515913963318 0.000000000000000
-3.944705009460449 1.859628319740295 0.314521461725235 0.000000000000000
-16.566160202026367 7.803468704223633 4.755829811096191 0.003921568859369
-3.714891433715820 1.733554005622864 0.655506074428558 0.000000000000000
-19.587951660156250 10.031550407409668 2.624369859695435 0.003921568859369
-6.228634357452393 3.043165683746338 0.787722945213318 0.000000000000000
-8.146699905395508 4.669213294982910 1.619534611701965 0.000000000000000
-2.682673692703247 1.210194468498230 -0.170509323477745 0.000000000000000
-6.419970512390137 3.785449504852295 0.118356086313725 0.000000000000000
-6.943152427673340 3.753617763519287 1.983764171600342 0.000000000000000
-4.571360588073730 2.381785869598389 0.271196305751801 0.000000000000000
-13.575079917907715 7.759757518768311 1.850763916969299 0.000000000000000
-6.719713687896729 3.765553474426270 0.884344935417175 0.000000000000000
-10.272637367248535 6.657482624053955 0.953935265541077 0.000000000000000
-6.306870937347412 3.974663019180298 1.272629976272583 0.000000000000000
-9.865094184875488 6.193960189819336 1.367481827735901 0.000000000000000
-6.185618400573730 4.164387226104736 1.276181101799011 0.000000000000000
-8.026679039001465 5.560426235198975 1.695077061653137 0.000000000000000
-9.428041458129883 6.948403835296631 2.051228046417236 0.000000000000000
-2.600342750549316 1.476141810417175 0.313518911600113 0.000000000000000
-2.549955844879150 1.451066970825195 0.306744486093521 0.000000000000000
-2.593218564987183 1.492939710617065 0.313997060060501 0.000000000000000
-10.141796112060547 8.123439788818359 2.287481546401978 0.000000000000000
-5.777995586395264 4.506419181823730 1.259741544723511 0.000000000000000
-7.085247993469238 5.702558517456055 1.580891251564026 0.000000000000000
-14.275946617126465 10.888698577880859 2.140877962112427 0.003921568859369
-16.467807769775391 12.984912872314453 5.494058132171631 0.003921568859369
-2.887621641159058 1.821321964263916 -0.192313998937607 0.000000000000000
-5.896088123321533 4.549843788146973 1.886627912521362 0.000000000000000
-8.425884246826172 6.971746444702148 2.820210456848145 0.000000000000000
-6.165249347686768 5.018532752990723 2.022764444351196 0.000000000000000
-6.787383079528809 5.615925788879395 2.254951953887939 0.000000000000000
-2.947577714920044 2.433375120162964 0.140396326780319 0.000000000000000
-7.285295963287354 6.968974113464355 0.788069009780884 0.000000000000000
-6.175401687622070 5.323254585266113 2.081595182418823 0.000000000000000
-9.540530204772949 8.905187606811523 3.393971443176270 0.000000000000000
-7.020318984985352 6.518346786499023 0.531879127025604 0.000000000000000
-18.951660156250000 23.398233413696289 -0.372141033411026 0.003921568859369
-5.837504386901855 6.144412517547607 1.481039047241211 0.000000000000000
-18.940986633300781 23.544862747192383 0.323100239038467 0.003921568859369
-18.199140548706055 22.947761535644531 -0.361501038074493 0.003921568859369
-9.144981384277344 9.398730278015137 1.561181545257568 0.000000000000000
-6.567264556884766 6.606405258178711 2.402533292770386 0.000000000000000
-9.734813690185547 11.077665328979492 2.621874809265137 0.000000000000000
-17.627508163452148 23.010854721069336 0.310501128435135 0.003921568859369
-17.781627655029297 23.732128143310547 0.317707985639572 0.003921568859369
-18.653644561767578 23.037820816040039 -0.878116726875305 0.003921568859369
-18.753129959106445 23.163824081420898 -0.195474430918694 0.003921568859369
-17.424987792968750 23.784721374511719 0.316436529159546 0.003921568859369
-18.616624832153320 23.148366928100586 -0.880038738250732 0.003921568859369
-18.876174926757812 23.479290008544922 -0.197651565074921 0.003921568859369
-17.246606826782227 23.700506210327148 0.314590483903885 0.003921568859369
-16.808004379272461 23.426307678222656 -0.355643033981323 0.003921568859369
-17.112806320190430 23.863031387329102 0.315196305513382 0.003921568859369
-16.951604843139648 23.808740615844727 -0.360606431961060 0.003921568859369
-17.081787109375000 23.996643066406250 0.316187143325806 0.003921568859369
-17.753944396972656 22.859106063842773 -0.857375919818878 0.003921568859369
-16.153728485107422 22.998252868652344 -0.346555471420288 0.003921568859369
-17.356626510620117 22.826858520507812 -0.849460363388062 0.003921568859369
-15.730021476745605 22.888504028320312 -0.342431336641312 0.003921568859369
-17.266035079956055 23.222661972045898 -0.857184767723083 0.003921568859369
-15.717558860778809 23.412240982055664 -0.347466349601746 0.003921568859369
-2.516657114028931 3.170372962951660 0.043262105435133 0.000000000000000
-15.533597946166992 23.307580947875977 -0.345107108354568 0.003921568859369
-18.607345581054688 22.975399017333984 -0.704703211784363 0.003921568859369
-16.958715438842773 23.481565475463867 -0.189599573612213 0.003921568859369
-18.494073867797852 23.171001434326172 -0.706736803054810 0.003921568859369
-15.223915100097656 23.534122467041016 0.301580101251602 0.003921568859369
-18.109437942504883 22.998331069946289 -0.697758793830872 0.003921568859369
-17.196613311767578 24.348989486694336 -0.195268511772156 0.003921568859369
-17.752334594726562 23.028554916381836 -0.693126559257507 0.003921568859369
-15.893534660339355 23.139879226684570 -0.183661058545113 0.003921568859369
-17.436468124389648 22.939897537231445 -0.686849594116211 0.003921568859369
-14.313002586364746 23.533788681030273 -0.339059829711914 0.003921568859369
-15.308073997497559 22.791044235229492 -0.179173529148102 0.003921568859369
-14.174467086791992 23.675048828125000 -0.339692294597626 0.003921568859369
-15.319428443908691 23.160137176513672 -0.181272789835930 0.003921568859369
-15.083968162536621 25.653491973876953 0.320981085300446 0.003921568859369
-14.763137817382812 22.798614501953125 -0.804327845573425 0.003921568859369
-14.948436737060547 25.812334060668945 -0.367653489112854 0.003921568859369
-13.613680839538574 23.630521774291992 -0.335694581270218 0.003921568859369
-14.873008728027344 23.351657867431641 -0.180735006928444 0.003921568859369
-14.772732734680176 25.942983627319336 0.322103619575500 0.003921568859369
-13.184908866882324 23.241468429565430 -0.328824192285538 0.003921568859369
-14.731557846069336 26.061529159545898 0.323020130395889 0.003921568859369
-13.212626457214355 23.486097335815430 -0.331662833690643 0.003921568859369
-12.924377441406250 22.955965042114258 0.284295290708542 0.003921568859369
-13.148633003234863 23.592523574829102 -0.332106620073318 0.003921568859369
-17.780099868774414 23.252326965332031 0.146436348557472 0.003921568859369
-3.634947299957275 4.765761852264404 1.535973787307739 0.000000000000000
-17.481420516967773 23.010862350463867 0.144589409232140 0.003921568859369
-12.817859649658203 23.162387847900391 0.286169111728668 0.003921568859369
-1.881343603134155 2.191297054290771 0.704179823398590 0.000000000000000
-14.600528717041016 24.019355773925781 -0.183183848857880 0.003921568859369
-12.371003150939941 22.706689834594727 0.279580593109131 0.003921568859369
-1.875815629959106 2.199579238891602 0.705212295055389 0.000000000000000
-15.185773849487305 22.950204849243164 -0.655564486980438 0.003921568859369
-15.049651145935059 22.913925170898438 -0.653051793575287 0.003921568859369
-6.318560123443604 9.374173164367676 0.637703955173492 0.000000000000000
-11.881424903869629 20.373085021972656 4.243125915527344 0.003921568859369
-13.078105926513672 25.547384262084961 0.310487359762192 0.003921568859369
-11.839007377624512 20.464485168457031 4.253847122192383 0.003921568859369
-13.405622482299805 23.467576980590820 -0.175975456833839 0.003921568859369
-13.301746368408203 23.500864028930664 -0.175464153289795 0.003921568859369
-11.683268547058105 23.165981292724609 0.281191706657410 0.003921568859369
-13.189616203308105 23.470956802368164 -0.174923896789551 0.003921568859369
-13.773681640625000 24.543787002563477 2.260175466537476 0.003921568859369
-11.480784416198730 23.138736724853516 -0.317135214805603 0.003921568859369
-13.082922935485840 23.469627380371094 -0.174568161368370 0.003921568859369
-11.337885856628418 22.839624404907227 0.276411503553391 0.003921568859369
-13.250266075134277 23.979036331176758 2.199950218200684 0.003921568859369
-12.437527656555176 25.597667694091797 -0.349889576435089 0.003921568859369
-14.773307800292969 24.126588821411133 0.632380425930023 0.003921568859369
-11.298874855041504 23.172349929809570 0.279514461755753 0.003921568859369
-14.361340522766113 23.434028625488281 1.567710757255554 0.003921568859369
-12.631997108459473 23.016424179077148 2.107817411422729 0.003921568859369
-15.779635429382324 23.339292526245117 0.141565859317780 0.003921568859369
-12.739892959594727 26.481235504150391 0.318593710660934 0.003921568859369
-14.281497955322266 23.485984802246094 1.567947983741760 0.003921568859369
-12.739210128784180 23.615783691406250 -0.174310326576233 0.003921568859369
-14.223648071289062 23.575584411621094 1.570707321166992 0.003921568859369
-12.625465393066406 23.598249435424805 -0.173847272992134 0.003921568859369
-12.577182769775391 23.504247665405273 2.140715360641479 0.003921568859369
-13.607357025146484 22.704864501953125 -0.630306959152222 0.003921568859369
-12.524772644042969 23.605119705200195 -0.173569723963737 0.003921568859369
-12.387729644775391 23.337230682373047 2.121718406677246 0.003921568859369
-13.514051437377930 22.726503372192383 -0.629624068737030 0.003921568859369
-10.810709953308105 23.175821304321289 -0.313942521810532 0.003921568859369
-10.678443908691406 22.880596160888672 0.273915529251099 0.003921568859369
-13.942347526550293 23.659900665283203 1.566836237907410 0.003921568859369
-12.306195259094238 23.378866195678711 2.121730804443359 0.003921568859369
-13.484246253967285 22.858871459960938 -0.632024109363556 0.003921568859369
-15.350713729858398 23.573411941528320 0.141411766409874 0.003921568859369
-10.367935180664062 22.397211074829102 0.267779588699341 0.003921568859369
-3.522615671157837 6.211258411407471 1.262298941612244 0.000000000000000
-15.093134880065918 23.544614791870117 0.141059711575508 0.003921568859369
-11.935588836669922 23.269718170166016 2.101203918457031 0.003921568859369
-11.965003967285156 23.535274505615234 2.121519565582275 0.003921568859369
-10.359957695007324 23.272684097290039 -0.312404602766037 0.003921568859369
-12.816043853759766 22.614349365234375 0.581688344478607 0.003921568859369
-9.930923461914062 22.269075393676758 0.265065610408783 0.003921568859369
-13.392049789428711 26.676443099975586 2.400296211242676 0.003921568859369
-11.477288246154785 22.946275711059570 -0.166135862469673 0.003921568859369
-13.255559921264648 26.631818771362305 2.392254829406738 0.003921568859369
-11.276360511779785 22.732158660888672 -0.164271369576454 0.003921568859369
-12.562929153442383 22.524440765380859 0.577216804027557 0.003921568859369
-12.785038948059082 22.935831069946289 1.498965382575989 0.003921568859369
-9.940845489501953 22.954515457153320 -0.306685715913773 0.003921568859369
-10.016292572021484 23.135896682739258 0.274142593145370 0.003921568859369
-10.227974891662598 24.107900619506836 -0.321268945932388 0.003921568859369
-9.526665687561035 22.385812759399414 0.264625698328018 0.003921568859369
-12.412693023681641 25.787092208862305 2.301435470581055 0.003921568859369
-12.657610893249512 23.270402908325195 -0.630767405033112 0.003921568859369
-6.405539512634277 11.490129470825195 -0.008125985972583 0.000000000000000
-9.535227775573730 22.632656097412109 0.267160773277283 0.003921568859369
-12.438090324401855 23.047636032104492 1.495338797569275 0.003921568859369
-9.829710960388184 23.853950500488281 -0.316440284252167 0.003921568859369
-10.647835731506348 22.623159408569336 -0.161780983209610 0.003921568859369
-11.737137794494629 22.279966354370117 0.563817799091339 0.003921568859369
-12.608169555664062 27.205654144287109 2.412370204925537 0.003921568859369
-11.638680458068848 22.288766860961914 0.563469886779785 0.003921568859369
-12.241703987121582 23.484226226806641 1.513199925422668 0.003921568859369
-10.654073715209961 23.294757843017578 -0.165468156337738 0.003921568859369
-9.246104240417480 23.094690322875977 0.271157771348953 0.003921568859369
-13.511260986328125 26.228319168090820 3.579249143600464 0.003921568859369
-9.133561134338379 23.286596298217773 -0.306356430053711 0.003921568859369
-10.335761070251465 23.005929946899414 -0.162854433059692 0.003921568859369
-11.431452751159668 22.659246444702148 0.568913698196411 0.003921568859369
-11.954650878906250 23.733448028564453 1.518757224082947 0.003921568859369
-13.197680473327637 26.285633087158203 3.568636417388916 0.003921568859369
-11.654973030090332 23.118692398071289 -0.616231858730316 0.003921568859369
-13.047447204589844 23.236896514892578 0.135122507810593 0.003921568859369
-12.998851776123047 26.108442306518555 3.538619995117188 0.003921568859369
-10.056588172912598 22.794450759887695 2.003828287124634 0.003921568859369
-12.753445625305176 25.829896926879883 3.495041608810425 0.003921568859369
-9.938398361206055 22.736112594604492 1.995785236358643 0.003921568859369
-10.874963760375977 22.101415634155273 0.552226185798645 0.003921568859369
-10.870741844177246 22.092203140258789 1.406833291053772 0.003921568859369
-11.982897758483887 24.437719345092773 3.301306486129761 0.003921568859369
-9.511721611022949 21.933494567871094 1.922621965408325 0.003921568859369
-11.811437606811523 24.294717788696289 3.276617527008057 0.003921568859369
-10.091706275939941 23.797996520996094 -0.166942745447159 0.003921568859369
-11.243032455444336 23.297128677368164 -0.615779161453247 0.003921568859369
-10.744225502014160 22.429096221923828 1.421328425407410 0.003921568859369
-11.455298423767090 23.969978332519531 3.222396373748779 0.003921568859369
-9.308406829833984 22.094270706176758 1.928473353385925 0.003921568859369
-9.597527503967285 22.809881210327148 4.466772079467773 0.003921568859369
-10.798099517822266 22.754728317260742 0.564871549606323 0.003921568859369
-10.843491554260254 22.853700637817383 1.445893049240112 0.003921568859369
-11.379816055297852 24.026483535766602 3.224833250045776 0.003921568859369
-9.791488647460938 23.528600692749023 2.050674915313721 0.003921568859369
-8.149724006652832 22.848806381225586 -0.296669363975525 0.003921568859369
-11.348557472229004 24.204252243041992 0.600166380405426 0.003921568859369
-10.683218955993652 22.735439300537109 -0.597588300704956 0.003921568859369
-9.252287864685059 22.898174285888672 -0.730867505073547 0.003921568859369
-8.852204322814941 21.863201141357422 1.898239135742188 0.003921568859369
-9.092210769653320 22.719894409179688 -0.724165558815002 0.003921568859369
-10.249394416809082 22.397811889648438 1.408669233322144 0.003921568859369
-11.068399429321289 24.257266998291016 3.235934019088745 0.003921568859369
-9.396347045898438 23.512145996093750 2.038528680801392 0.003921568859369
-11.247156143188477 24.898548126220703 3.316370964050293 0.003921568859369
-8.692312240600586 21.903112411499023 1.896660804748535 0.003921568859369
-9.208199501037598 23.262323379516602 4.518668174743652 0.003921568859369
-10.339717864990234 26.527214050292969 2.293640613555908 0.003921568859369
-8.746787071228027 22.279621124267578 4.322192192077637 0.003921568859369
-10.307073593139648 22.963043212890625 -0.598859727382660 0.003921568859369
-7.817981243133545 23.748359680175781 0.273519933223724 0.003921568859369
-10.638435363769531 24.179199218750000 3.206445693969727 0.003921568859369
-8.710340499877930 22.649991989135742 4.382962703704834 0.003921568859369
-9.014400482177734 23.733085632324219 4.586623668670654 0.003921568859369
-10.402845382690430 24.329252243041992 3.212310314178467 0.003921568859369
-4.200063705444336 9.259911537170410 2.676995754241943 0.000000000000000
-7.514211177825928 23.945621490478516 0.274700909852982 0.003921568859369
-10.235443115234375 24.161830902099609 3.185681104660034 0.003921568859369
-7.418232440948486 23.962612152099609 0.274996459484100 0.003921568859369
-9.011908531188965 21.398639678955078 1.328807353973389 0.003921568859369
-8.944568634033203 21.447189331054688 1.329970955848694 0.003921568859369
-8.407545089721680 23.354434967041016 2.000060558319092 0.003921568859369
-9.543279647827148 22.947139739990234 -0.591061890125275 0.003921568859369
-8.165106773376465 22.910943984985352 -0.719668984413147 0.003921568859369
-6.841083049774170 22.580371856689453 -0.288070470094681 0.003921568859369
-8.258631706237793 23.185699462890625 -0.157977730035782 0.003921568859369
-9.437431335449219 22.912082672119141 3.008777618408203 0.003921568859369
-3.952240467071533 9.039013862609863 2.598668575286865 0.000000000000000
-9.272628784179688 22.728244781494141 0.552066206932068 0.003921568859369
-7.904154300689697 22.661195755004883 -0.710089206695557 0.003921568859369
-6.714427947998047 22.736679077148438 -0.289459288120270 0.003921568859369
-7.989705562591553 22.914968490600586 4.386344909667969 0.003921568859369
-8.675429344177246 21.645044326782227 2.830992937088013 0.003921568859369
-8.682584762573242 25.297687530517578 2.156269073486328 0.003921568859369
-7.967376232147217 23.117141723632812 4.419951915740967 0.003921568859369
-6.558688163757324 22.791942596435547 -0.289562404155731 0.003921568859369
-7.917570590972900 23.240694046020508 1.978871583938599 0.003921568859369
-9.972185134887695 22.200134277343750 0.124728791415691 0.003921568859369
-8.899633407592773 22.704196929931641 0.548620462417603 0.003921568859369
-7.567523479461670 22.976676940917969 4.373582839965820 0.003921568859369
-9.257114410400391 24.403087615966797 3.171251535415649 0.003921568859369
-7.447785854339600 23.145513534545898 4.396492958068848 0.003921568859369
-7.201365947723389 22.672948837280273 -0.152100488543510 0.003921568859369
-8.136899948120117 26.070957183837891 2.203690290451050 0.003921568859369
-8.297496795654297 23.050088882446289 2.977442979812622 0.003921568859369
-7.242280960083008 23.686826705932617 1.998187065124512 0.003921568859369
-7.771082878112793 25.845556259155273 2.177948951721191 0.003921568859369
-9.417467117309570 23.352357864379883 0.129698947072029 0.003921568859369
-7.039955139160156 24.232927322387695 2.036355018615723 0.003921568859369
-7.865173816680908 22.813602447509766 -0.573631107807159 0.003921568859369
-7.434968948364258 26.022108078002930 2.184501171112061 0.003921568859369
-7.729916572570801 22.668485641479492 -0.569297850131989 0.003921568859369
-7.816722393035889 23.222414016723633 2.979014635086060 0.003921568859369
-7.286006450653076 21.816333770751953 2.795819044113159 0.003921568859369
-7.158463954925537 25.712310791015625 2.154539585113525 0.003921568859369
-7.114881515502930 25.913337707519531 2.169410228729248 0.003921568859369
-4.910387039184570 23.029352188110352 -0.286594688892365 0.003921568859369
-3.191947698593140 14.338059425354004 -0.858695805072784 0.000000000000000
-6.802461624145508 25.879144668579102 2.161219120025635 0.003921568859369
-5.600781440734863 26.990631103515625 0.304185628890991 0.003921568859369
-3.135253429412842 14.300342559814453 -0.855859041213989 0.000000000000000
-5.622627735137939 27.617761611938477 0.311030656099319 0.003921568859369
-3.090549468994141 14.337409973144531 -0.857489287853241 0.000000000000000
-3.037554502487183 14.331163406372070 -0.856532692909241 0.000000000000000
-6.934976100921631 22.650415420532227 -0.562781453132629 0.003921568859369
-2.974940299987793 14.285900115966797 -0.853223860263824 0.000000000000000
-2.924348354339600 14.291021347045898 -0.852972507476807 0.000000000000000
-2.882217168807983 14.314743995666504 -0.853898465633392 0.000000000000000
-7.974226474761963 27.270887374877930 3.459125041961670 0.003921568859369
-6.979507446289062 29.136034011840820 2.421251535415649 0.003921568859369
-2.825881719589233 14.316462516784668 -0.853410184383392 0.000000000000000
-7.759922504425049 26.901790618896484 3.408732652664185 0.003921568859369
-6.521000385284424 27.608665466308594 2.292474746704102 0.003921568859369
-2.770572662353516 14.293494224548340 -0.851512670516968 0.000000000000000
-7.740856647491455 27.203355789184570 3.443664789199829 0.003921568859369
-6.391241550445557 27.478134155273438 2.279912948608398 0.003921568859369
-2.722614526748657 14.313649177551270 -0.852201461791992 0.000000000000000
-6.184212684631348 26.984603881835938 2.237327098846436 0.003921568859369
-5.515369415283203 19.266551971435547 5.331672191619873 0.003921568859369
-2.661209106445312 14.313914299011230 -0.851511299610138 0.000000000000000
-5.140751361846924 22.938993453979492 -0.694983661174774 0.003921568859369
-2.613727092742920 14.305336952209473 -0.850556373596191 0.000000000000000
-7.516032218933105 27.510951995849609 3.473791837692261 0.003921568859369
-3.910636425018311 23.008789062500000 -0.283561944961548 0.003921568859369
-4.541986465454102 27.084260940551758 0.303992629051208 0.003921568859369
-2.561949253082275 14.301323890686035 -0.849834799766541 0.000000000000000
-5.733010768890381 26.225870132446289 2.170369625091553 0.003921568859369
-2.511414766311646 14.305019378662109 -0.849583268165588 0.000000000000000
-5.739190578460693 26.729124069213867 2.210441112518311 0.003921568859369
-5.527933120727539 20.462415695190430 5.642926216125488 0.003921568859369
-6.096086502075195 22.713933944702148 -0.558452248573303 0.003921568859369
-4.837206363677979 22.711034774780273 -0.686467111110687 0.003921568859369
-5.830690383911133 27.735401153564453 -0.180284723639488 0.003921568859369
-2.453565597534180 14.293472290039062 -0.848389863967896 0.000000000000000
-5.741709232330322 27.281551361083984 2.254391431808472 0.003921568859369
-2.263196229934692 9.687570571899414 1.795814275741577 0.000000000000000
-2.401390314102173 14.284925460815430 -0.847433090209961 0.000000000000000
-5.818151473999023 28.184749603271484 2.327405214309692 0.003921568859369
-2.358723163604736 14.307126045227051 -0.848357975482941 0.000000000000000
-2.760449886322021 12.641920089721680 2.339944362640381 0.000000000000000
-6.855971336364746 22.398010253906250 0.122160539031029 0.003921568859369
-2.307147502899170 14.302192687988281 -0.847636044025421 0.000000000000000
-5.416867256164551 27.076105117797852 2.233162641525269 0.003921568859369
-4.887323856353760 24.243671417236328 4.482806682586670 0.003921568859369
-2.253136157989502 14.297406196594238 -0.846913099288940 0.000000000000000
-5.296746730804443 26.980773925781250 2.223827838897705 0.003921568859369
-2.200645685195923 14.284171104431152 -0.845720946788788 0.000000000000000
-5.231299877166748 27.717237472534180 -0.179280444979668 0.003921568859369
-2.150770425796509 14.290555953979492 -0.845703721046448 0.000000000000000
-5.087507247924805 26.896869659423828 2.214198827743530 0.003921568859369
-3.629211902618408 26.714345932006836 0.298854142427444 0.003921568859369
-2.102882146835327 14.292494773864746 -0.845452308654785 0.000000000000000
-4.556297779083252 24.354852676391602 2.003976821899414 0.003921568859369
-2.017306566238403 9.661074638366699 1.783017158508301 0.000000000000000
-3.530555963516235 26.765308380126953 0.299747705459595 0.003921568859369
-2.042346954345703 14.294549942016602 -0.845003843307495 0.000000000000000
-4.474412441253662 24.447937011718750 2.010855674743652 0.003921568859369
-1.990140795707703 14.280584335327148 -0.843812227249146 0.000000000000000
-4.913511753082275 27.628564834594727 2.270935297012329 0.003921568859369
-1.991077303886414 9.983037948608398 1.840364933013916 0.000000000000000
-6.120348930358887 27.222126007080078 0.632203161716461 0.003921568859369
-1.936904072761536 14.278610229492188 -0.843324422836304 0.000000000000000
-3.199098825454712 26.328073501586914 0.294626295566559 0.003921568859369
-1.889542698860168 14.283839225769043 -0.843308091163635 0.000000000000000
-5.513397693634033 24.767711639404297 1.459712028503418 0.003921568859369
-6.290813446044922 28.484933853149414 3.556614398956299 0.003921568859369
-1.873913764953613 9.695034027099609 1.785323977470398 0.000000000000000
-1.838835358619690 14.281228065490723 -0.842821002006531 0.000000000000000
-1.786486148834229 14.286636352539062 -0.842802703380585 0.000000000000000
-3.989822626113892 24.166198730468750 1.982240200042725 0.003921568859369
-3.688600063323975 22.660188674926758 -0.678511738777161 0.003921568859369
-1.740818858146667 14.283171653747559 -0.842317104339600 0.000000000000000
-5.158693313598633 24.318298339843750 1.430334091186523 0.003921568859369
-5.392399787902832 20.559837341308594 0.604719638824463 0.003921568859369
-1.690573811531067 14.284010887145996 -0.842064678668976 0.000000000000000
-1.640346407890320 14.284672737121582 -0.841812074184418 0.000000000000000
-5.705868244171143 28.105152130126953 1.650601506233215 0.003921568859369
-5.388034820556641 26.438552856445312 3.289985179901123 0.003921568859369
-1.588327527046204 14.293331146240234 -0.842028260231018 0.000000000000000
-3.465177536010742 22.819900512695312 1.868301391601562 0.003921568859369
-4.909296035766602 24.902038574218750 0.575524032115936 0.003921568859369
-1.538430809974670 14.297612190246582 -0.842010319232941 0.000000000000000
-5.281204223632812 26.923099517822266 3.345824241638184 0.003921568859369
-3.391316652297974 22.874147415161133 1.871881604194641 0.003921568859369
-3.310679435729980 22.853998184204102 -0.682536900043488 0.003921568859369
-5.258550167083740 27.313840866088867 0.630734860897064 0.003921568859369
-1.489088892936707 14.277635574340820 -0.840584099292755 0.000000000000000
-4.633018016815186 23.840660095214844 1.397785067558289 0.003921568859369
-5.191205978393555 26.935430526733398 3.345366477966309 0.003921568859369
-3.890194177627563 27.300302505493164 2.232800006866455 0.003921568859369
-4.544584751129150 23.885009765625000 0.551853895187378 0.003921568859369
-1.429698228836060 14.289517402648926 -0.840847134590149 0.000000000000000
-5.350087642669678 28.441806793212891 3.530671834945679 0.003921568859369
-1.817275524139404 11.768486022949219 2.157449960708618 0.000000000000000
-1.376150846481323 14.277532577514648 -0.839889466762543 0.000000000000000
-4.655495643615723 25.047294616699219 1.467050909996033 0.003921568859369
-4.967228412628174 26.848081588745117 3.330825805664062 0.003921568859369
-1.327697396278381 14.301026344299316 -0.841045558452606 0.000000000000000
-3.052531719207764 22.839262008666992 1.866198897361755 0.003921568859369
-4.223425388336182 23.526138305664062 0.542679131031036 0.003921568859369
-1.277245879173279 14.296463966369629 -0.840558111667633 0.000000000000000
-2.953999996185303 22.686256408691406 1.852974891662598 0.003921568859369
-1.230338931083679 14.307508468627930 -0.841010630130768 0.000000000000000
-3.076108932495117 24.449985504150391 1.996171355247498 0.003921568859369
-2.992661476135254 23.700668334960938 4.336102008819580 0.003921568859369
-3.318656682968140 14.304720878601074 -0.943550467491150 0.000000000000000
-1.179437398910522 14.294631004333496 -0.840053498744965 0.000000000000000
-4.450429916381836 25.987957000732422 3.216927528381348 0.003921568859369
-3.083115816116333 25.307615280151367 2.065362453460693 0.003921568859369
-2.904804229736328 23.662872314453125 4.327546596527100 0.003921568859369
-4.031951904296875 23.921314239501953 0.550920248031616 0.003921568859369
-1.126820564270020 14.293671607971191 -0.839799702167511 0.000000000000000
-4.332068920135498 25.853790283203125 3.198521137237549 0.003921568859369
-2.816015005111694 23.652584075927734 4.323999404907227 0.003921568859369
-1.467136263847351 21.725513458251953 0.243109971284866 0.003921568859369
-1.077546119689941 14.308340072631836 -0.840485632419586 0.000000000000000
-2.630966663360596 22.661216735839844 1.848233699798584 0.003921568859369
-3.816378116607666 23.063653945922852 -0.554563820362091 0.003921568859369
-2.547950506210327 22.638059616088867 -0.673047006130219 0.003921568859369
-1.374669551849365 21.389789581298828 0.239366143941879 0.003921568859369
-1.027014374732971 14.298910140991211 -0.839763104915619 0.000000000000000
-4.087648391723633 25.449048995971680 3.145209074020386 0.003921568859369
-2.565880060195923 22.811958312988281 1.859896063804626 0.003921568859369
-0.980136752128601 14.313119888305664 -0.840449750423431 0.000000000000000
-3.971462488174438 25.241315841674805 3.118066310882568 0.003921568859369
-2.844279766082764 26.554201126098633 2.164061784744263 0.003921568859369
-2.608761072158813 24.060899734497070 4.394177913665771 0.003921568859369
-2.634369611740112 25.287183761596680 -0.160075023770332 0.003921568859369
-3.060311079025269 14.311630249023438 -0.940638124942780 0.000000000000000
-0.930167794227600 14.315313339233398 -0.840431213378906 0.000000000000000
-3.524713993072510 22.710649490356445 1.324083685874939 0.003921568859369
-1.371771931648254 7.416543483734131 2.003823041915894 0.000000000000000
-2.526552438735962 24.088310241699219 4.397783279418945 0.003921568859369
-3.016229152679443 14.352471351623535 -0.942689061164856 0.000000000000000
-0.881592631340027 14.353243827819824 -0.842525184154510 0.000000000000000
-3.783846855163574 25.183526992797852 3.107933759689331 0.003921568859369
-2.348863840103149 23.029468536376953 4.203260421752930 0.003921568859369
-2.955218076705933 14.357824325561523 -0.942208528518677 0.000000000000000
-0.824257194995880 14.438881874084473 -0.847251296043396 0.000000000000000
-2.251986265182495 22.961769104003906 4.190040111541748 0.003921568859369
-2.376944541931152 25.473035812377930 -0.160644203424454 0.003921568859369
-2.904754400253296 14.350784301757812 -0.941162288188934 0.000000000000000
-3.612945079803467 25.289058685302734 3.118574619293213 0.003921568859369
-2.852836847305298 14.364104270935059 -0.941405057907104 0.000000000000000
-3.463891267776489 24.855855941772461 3.063768863677979 0.003921568859369
-3.201056241989136 22.788406372070312 -0.545547962188721 0.003921568859369
-2.798596620559692 14.349271774291992 -0.939841687679291 0.000000000000000
-3.385839700698853 24.937616348266602 3.072530984878540 0.003921568859369
-2.256678819656372 26.318702697753906 2.141704082489014 0.003921568859369
-2.743830919265747 14.330298423767090 -0.938020229339600 0.000000000000000
-1.902933835983276 22.594768524169922 1.838469147682190 0.003921568859369
-1.975079059600830 23.610738754272461 4.303892135620117 0.003921568859369
-2.697607517242432 14.346143722534180 -0.938522279262543 0.000000000000000
-4.243920803070068 24.181945800781250 0.700783312320709 0.003921568859369
-3.086094141006470 25.391563415527344 0.581982195377350 0.003921568859369
-4.081099033355713 23.701894760131836 0.686546504497528 0.003921568859369
-1.848632097244263 25.590755462646484 2.080721616744995 0.003921568859369
-1.503108501434326 22.535612106323242 -0.667022347450256 0.003921568859369
-1.577630996704102 25.526790618896484 4.647449970245361 0.003921568859369
-0.233855739235878 27.042913436889648 0.302722156047821 0.003921568859369
-2.508873462677002 23.082319259643555 1.339281320571899 0.003921568859369
-1.482027053833008 25.389501571655273 4.621727466583252 0.003921568859369
-2.680841922760010 25.965633392333984 0.594610989093781 0.003921568859369
-1.274891018867493 22.857048034667969 1.857450485229492 0.003921568859369
-1.382726192474365 25.381504058837891 4.619985103607178 0.003921568859369
-1.203868865966797 23.109144210815430 -0.683164775371552 0.003921568859369
-3.534036874771118 23.486312866210938 0.678732812404633 0.003921568859369
-2.272919654846191 14.312108039855957 -0.932007670402527 0.000000000000000
-2.491596221923828 24.843130111694336 3.050381660461426 0.003921568859369
-1.293207287788391 25.361503601074219 4.615723609924316 0.003921568859369
-1.114863634109497 22.876386642456055 -0.676150918006897 0.003921568859369
-2.226123094558716 14.342624664306641 -0.933540463447571 0.000000000000000
-1.208018898963928 25.459180831909180 4.632925987243652 0.003921568859369
-2.175025463104248 14.341320037841797 -0.933009147644043 0.000000000000000
-2.123946905136108 14.339838027954102 -0.932477831840515 0.000000000000000
-1.053655743598938 26.287025451660156 4.782524585723877 0.003921568859369
-3.351584672927856 24.713468551635742 0.132997080683708 0.003921568859369
-2.075836420059204 14.361942291259766 -0.933494210243225 0.000000000000000
-0.729281008243561 5.715759754180908 1.533995389938354 0.000000000000000
-2.022370576858521 14.340286254882812 -0.931672811508179 0.000000000000000
-0.828567624092102 24.351839065551758 4.429852962493896 0.003921568859369
-3.058599710464478 24.440210342407227 0.704268455505371 0.003921568859369
-0.627959072589874 22.293125152587891 1.810453653335571 0.003921568859369
0.636163234710693 24.817239761352539 0.278827726840973 0.003921568859369
-1.862586855888367 14.270171165466309 -0.925950407981873 0.000000000000000
-0.549921572208405 22.274173736572266 1.808864712715149 0.003921568859369
-1.583570599555969 22.602249145507812 -0.536786139011383 0.003921568859369
-0.803722560405731 9.362141609191895 2.508424282073975 0.000000000000000
-1.643342614173889 27.184589385986328 3.329747676849365 0.003921568859369
-0.309888988733292 21.478057861328125 1.744548201560974 0.003921568859369
-0.313673645257950 26.018062591552734 4.732358455657959 0.003921568859369
-2.430871248245239 22.393981933593750 0.644757330417633 0.003921568859369
-2.359275579452515 22.472963333129883 0.646839618682861 0.003921568859369
