# This PCD file was generated using the MATLAB® pcwrite function
# from Computer Vision Toolbox®.
# .PCD v.7 - Point Cloud Data file format
VERSION .7
FIELDS x y z intensity
SIZE 8 8 8 8
TYPE F F F F
COUNT 1 1 1 1
WIDTH 644
HEIGHT 1
VIEWPOINT 0 0 0 1 0 0 0
POINTS 644
DATA ascii
-14.008899688720703 23.075887680053711 -0.311763674020767 0.003921568859369
-16.858879089355469 22.552064895629883 0.649020373821259 0.003921568859369
-6.968006610870361 8.103634834289551 -0.666976213455200 0.000000000000000
-2.331675291061401 2.885911226272583 -0.180865496397018 0.000000000000000
-16.545885086059570 24.559703826904297 2.397526741027832 0.003921568859369
-15.335339546203613 22.887674331665039 -0.794864952564240 0.003921568859369
-15.184300422668457 22.655607223510742 -0.157217770814896 0.003921568859369
-16.890159606933594 22.761566162109375 0.653392851352692 0.003921568859369
-1.823341846466064 2.372990846633911 -0.159987479448318 0.000000000000000
-16.988416671752930 22.897514343261719 1.645218253135681 0.003921568859369
-9.756175041198730 14.315482139587402 -0.895214676856995 0.003921568859369
-2.606999158859253 3.331020832061768 0.724655091762543 0.000000000000000
-15.170595169067383 22.817031860351562 -0.157962322235107 0.003921568859369
-2.829254150390625 3.010536909103394 -0.246358782052994 0.000000000000000
-9.690645217895508 14.329399108886719 -0.893958508968353 0.003921568859369
-16.378389358520508 24.687723159790039 2.398828506469727 0.003921568859369
-13.613173484802246 22.958854675292969 -0.308269768953323 0.003921568859369
-9.625490188598633 14.338061332702637 -0.892492949962616 0.003921568859369
-14.950852394104004 22.824808120727539 -0.157310813665390 0.003921568859369
-9.590381622314453 14.393637657165527 -0.893958508968353 0.003921568859369
-14.282672882080078 21.773868560791016 2.106259584426880 0.003921568859369
-16.995386123657227 23.428546905517578 -0.667677402496338 0.003921568859369
-9.589501380920410 14.498226165771484 -0.898564517498016 0.003921568859369
-16.132215499877930 22.539335250854492 0.638972759246826 0.003921568859369
-16.536598205566406 23.120128631591797 1.640567541122437 0.003921568859369
-10.386537551879883 14.287106513977051 -0.811006546020508 0.000000000000000
-9.578695297241211 14.599380493164062 -0.902751803398132 0.003921568859369
-15.006528854370117 23.451204299926758 -0.160568252205849 0.003921568859369
-10.320707321166992 14.298731803894043 -0.809703528881073 0.000000000000000
-9.531895637512207 14.637978553771973 -0.903170466423035 0.003921568859369
-14.407149314880371 22.486303329467773 4.826350212097168 0.003921568859369
-16.248968124389648 22.876890182495117 -0.647201478481293 0.003921568859369
-10.257169723510742 14.313371658325195 -0.808586657047272 0.000000000000000
-9.566672325134277 14.809053421020508 -0.911754369735718 0.003921568859369
-14.059201240539551 19.856159210205078 6.451745986938477 0.003921568859369
-13.279300689697266 23.494247436523438 -0.311809957027435 0.003921568859369
-17.111402511596680 24.479427337646484 1.724745512008667 0.003921568859369
-10.189410209655762 14.316124916076660 -0.806911289691925 0.000000000000000
-9.573802947998047 14.931241035461426 -0.917407333850861 0.003921568859369
-10.105809211730957 14.300421714782715 -0.804119169712067 0.000000000000000
-9.577586174011230 15.055233955383301 -0.923060059547424 0.003921568859369
-13.399266242980957 21.351217269897461 2.038894176483154 0.003921568859369
-14.070718765258789 22.457391738891602 4.789759635925293 0.003921568859369
-17.700176239013672 23.193170547485352 0.167914763092995 0.003921568859369
-14.200989723205566 22.851446151733398 -0.155146822333336 0.003921568859369
-15.660237312316895 22.687564849853516 0.635623514652252 0.003921568859369
-10.044704437255859 14.317485809326172 -0.803188443183899 0.000000000000000
-9.568258285522461 15.158900260925293 -0.927456676959991 0.003921568859369
-12.604804039001465 22.843782424926758 -0.301465690135956 0.003921568859369
-16.257545471191406 23.771795272827148 1.663126349449158 0.003921568859369
-9.960160255432129 14.314303398132324 -0.801139473915100 0.000000000000000
-9.570706367492676 15.300365447998047 -0.934154808521271 0.003921568859369
-13.370652198791504 21.660150527954102 2.059724807739258 0.003921568859369
-12.519641876220703 22.866352081298828 -0.301232784986496 0.003921568859369
-14.008500099182129 22.899803161621094 -0.154841750860214 0.003921568859369
-9.895013809204102 14.319164276123047 -0.799650251865387 0.000000000000000
-9.568819046020508 15.413053512573242 -0.939179480075836 0.003921568859369
-15.161438941955566 24.844034194946289 2.357826232910156 0.003921568859369
-13.670076370239258 22.329109191894531 4.733083248138428 0.003921568859369
-14.727490425109863 21.802337646484375 0.606599926948547 0.003921568859369
-9.813983917236328 14.310324668884277 -0.797230362892151 0.000000000000000
-9.538592338562012 15.491209030151367 -0.941901147365570 0.003921568859369
-13.401012420654297 22.059255599975586 2.089014291763306 0.003921568859369
-12.415238380432129 20.382946014404297 4.311219215393066 0.003921568859369
-13.699816703796387 22.748744964599609 -0.766581296920776 0.003921568859369
-15.277346611022949 22.814018249511719 0.633300364017487 0.003921568859369
-14.861978530883789 22.175825119018555 1.540812134742737 0.003921568859369
-9.750895500183105 14.322910308837891 -0.796113610267639 0.000000000000000
-6.612501621246338 9.500929832458496 3.037469625473022 0.000000000000000
-13.594262123107910 22.740720748901367 -0.764835596084595 0.003921568859369
-9.679495811462402 14.316825866699219 -0.794065952301025 0.000000000000000
-13.180647850036621 22.026283264160156 2.077623844146729 0.003921568859369
-15.273264884948730 23.150918960571289 1.601504087448120 0.003921568859369
-9.638086318969727 14.362484931945801 -0.794810473918915 0.000000000000000
-13.032202720642090 21.946208953857422 2.065908193588257 0.003921568859369
-14.097555160522461 24.004590988159180 -0.160658389329910 0.003921568859369
-15.956183433532715 24.412420272827148 0.673118531703949 0.003921568859369
-14.590390205383301 22.265098571777344 1.536626338958740 0.003921568859369
-9.602542877197266 14.423113822937012 -0.796299695968628 0.000000000000000
-9.603323936462402 14.536138534545898 -0.800767064094543 0.000000000000000
-13.965114593505859 21.446971893310547 3.113906621932983 0.003921568859369
-13.811018943786621 23.693332672119141 4.961235046386719 0.003921568859369
-11.858865737915039 22.967161178588867 -0.298763453960419 0.003921568859369
-16.155176162719727 22.578338623046875 0.159810781478882 0.003921568859369
-9.584337234497070 14.618875503540039 -0.803559303283691 0.000000000000000
-13.382035255432129 23.121940612792969 4.832092761993408 0.003921568859369
-9.577537536621094 14.722016334533691 -0.807468295097351 0.000000000000000
-14.935876846313477 26.108934402465820 2.438210010528564 0.003921568859369
-12.917074203491211 22.475618362426758 4.687883853912354 0.003921568859369
-12.161014556884766 23.982168197631836 0.310712188482285 0.003921568859369
-9.581111907958984 14.837289810180664 -0.812121868133545 0.000000000000000
-9.591835975646973 14.971389770507812 -0.817706167697906 0.000000000000000
-13.148006439208984 23.475488662719727 -0.777285516262054 0.003921568859369
-15.942082405090332 22.955308914184570 0.160951614379883 0.003921568859369
-14.552677154541016 26.065971374511719 -0.172451689839363 0.003921568859369
-3.150387048721313 4.498579025268555 -0.368036448955536 0.000000000000000
-9.575022697448730 15.078374862670898 -0.821799814701080 0.000000000000000
-12.539167404174805 22.352666854858398 2.075673818588257 0.003921568859369
-12.751794815063477 22.744792938232422 4.717302322387695 0.003921568859369
-9.575948715209961 15.199225425720215 -0.826639473438263 0.000000000000000
-15.182658195495605 24.505153656005859 3.512650012969971 0.003921568859369
-12.595918655395508 22.645601272583008 4.687886714935303 0.003921568859369
-14.150341033935547 22.791734695434570 -0.619274497032166 0.003921568859369
-9.578185081481934 15.323704719543457 -0.831665456295013 0.000000000000000
-13.927794456481934 22.600467681884766 3.232848644256592 0.003921568859369
-12.748237609863281 23.122014999389648 4.777568817138672 0.003921568859369
-14.113777160644531 22.911613464355469 -0.621228992938995 0.003921568859369
-9.577632904052734 15.444939613342285 -0.836505174636841 0.000000000000000
-12.679011344909668 23.186763763427734 2.141087055206299 0.003921568859369
-12.485349655151367 22.820514678955078 4.706540584564209 0.003921568859369
-13.925617218017578 22.776977539062500 -0.616296172142029 0.003921568859369
-9.608122825622559 15.607920646667480 -0.843764662742615 0.000000000000000
-14.843186378479004 24.499399185180664 3.490714073181152 0.003921568859369
-12.963631629943848 23.906499862670898 2.203896760940552 0.003921568859369
-15.122230529785156 22.582498550415039 0.156514942646027 0.003921568859369
-13.386212348937988 22.219493865966797 3.158755064010620 0.003921568859369
-5.456768512725830 8.632701873779297 2.678235769271851 0.000000000000000
-13.175292015075684 24.749074935913086 2.272890090942383 0.003921568859369
-3.939872264862061 6.082229137420654 1.883157849311829 0.000000000000000
-13.895873069763184 26.601491928100586 2.434308052062988 0.003921568859369
-13.349873542785645 22.699998855590820 -0.608012735843658 0.003921568859369
-13.614830970764160 23.354272842407227 0.624092996120453 0.003921568859369
-13.786833763122559 26.616304397583008 2.431379079818726 0.003921568859369
-14.572967529296875 22.591621398925781 0.154842525720596 0.003921568859369
-11.691273689270020 22.640712738037109 2.064609289169312 0.003921568859369
-11.566405296325684 22.577278137207031 -0.146439105272293 0.003921568859369
-13.483451843261719 23.493719100952148 3.300605773925781 0.003921568859369
-11.654957771301270 22.756616592407227 2.071768999099731 0.003921568859369
-13.753662109375000 24.196166992187500 3.392738342285156 0.003921568859369
-12.845955848693848 22.550416946411133 -0.599354505538940 0.003921568859369
-12.623197555541992 22.321262359619141 3.124148130416870 0.003921568859369
-12.859629631042480 25.655208587646484 2.327892541885376 0.003921568859369
-5.432931900024414 9.181822776794434 2.804538011550903 0.000000000000000
-12.861741065979004 22.956563949584961 -0.607823848724365 0.003921568859369
-10.224115371704102 23.489810943603516 -0.296474874019623 0.003921568859369
-14.065099716186523 22.658033370971680 0.153660446405411 0.003921568859369
-12.524508476257324 25.656536102294922 2.316176652908325 0.003921568859369
-12.102440834045410 22.294023513793945 3.091001033782959 0.003921568859369
-12.320808410644531 22.710332870483398 -0.596841335296631 0.003921568859369
-10.170901298522949 18.770637512207031 5.669098377227783 0.003921568859369
-12.217478752136230 22.705650329589844 -0.595631361007690 0.003921568859369
-14.621830940246582 24.540496826171875 0.164717629551888 0.003921568859369
-15.028722763061523 25.437135696411133 0.170408800244331 0.003921568859369
-11.010338783264160 26.930204391479492 0.336831331253052 0.003921568859369
-10.917713165283203 26.970777511596680 0.336877971887589 0.003921568859369
-12.305677413940430 23.462314605712891 3.229927062988281 0.003921568859369
-12.130620956420898 26.219272613525391 2.344490289688110 0.003921568859369
-12.078345298767090 26.634672164916992 2.374108552932739 0.003921568859369
-4.897867679595947 9.033265113830566 2.704118967056274 0.000000000000000
-10.595436096191406 26.987712860107422 -0.335973203182220 0.003921568859369
-13.092681884765625 25.686508178710938 0.666615605354309 0.003921568859369
-11.581295967102051 25.720647811889648 2.289494037628174 0.003921568859369
-4.011785507202148 7.376613616943359 2.200983047485352 0.000000000000000
-10.170482635498047 22.934154510498047 -0.725606262683868 0.003921568859369
-10.445716857910156 23.580087661743164 -0.149062439799309 0.003921568859369
-11.238777160644531 25.689552307128906 2.276151418685913 0.003921568859369
-6.299900054931641 12.274378776550293 3.649310111999512 0.000000000000000
-11.205907821655273 22.477882385253906 -0.580458104610443 0.003921568859369
-10.159214973449707 26.995475769042969 0.334088653326035 0.003921568859369
-11.172101020812988 25.782415390014648 2.281033039093018 0.003921568859369
-10.123049736022949 20.407840728759766 6.057322502136230 0.003921568859369
-10.083786010742188 27.052368164062500 -0.334621816873550 0.003921568859369
-11.100195884704590 25.838239669799805 2.282985687255859 0.003921568859369
-12.770785331726074 26.413875579833984 0.678617358207703 0.003921568859369
-12.370389938354492 25.559082031250000 1.643602848052979 0.003921568859369
-9.990717887878418 20.478796005249023 2.776592493057251 0.003921568859369
-11.028096199035645 25.919700622558594 2.286890983581543 0.003921568859369
-11.212018966674805 26.632623672485352 2.346446752548218 0.003921568859369
-12.621974945068359 23.502708435058594 0.153872609138489 0.003921568859369
-9.454185485839844 22.757921218872070 -0.712920367717743 0.003921568859369
-4.618319988250732 9.260689735412598 2.726894617080688 0.000000000000000
-8.502457618713379 24.252721786499023 0.297645568847656 0.003921568859369
-8.323014259338379 24.278362274169922 0.297273337841034 0.003921568859369
-10.404315948486328 26.231214523315430 2.292101383209229 0.003921568859369
-11.962232589721680 23.419496536254883 0.151738211512566 0.003921568859369
-3.951351881027222 8.195522308349609 2.394577264785767 0.000000000000000
-11.905054092407227 23.510040283203125 0.152063488960266 0.003921568859369
-10.498775482177734 27.043630599975586 2.356864452362061 0.003921568859369
-8.901800155639648 27.003665924072266 0.329531043767929 0.003921568859369
-10.387708663940430 27.033889770507812 2.352959156036377 0.003921568859369
-10.182431221008301 22.963624954223633 -0.581013381481171 0.003921568859369
-10.248837471008301 26.961780548095703 2.343521595001221 0.003921568859369
-2.804423332214355 5.723567485809326 1.664719223976135 0.000000000000000
-10.196674346923828 27.082588195800781 2.351332187652588 0.003921568859369
-11.158593177795410 22.786182403564453 0.146395549178123 0.003921568859369
-8.540659904479980 26.834928512573242 0.326412737369537 0.003921568859369
-8.887873649597168 23.740282058715820 2.058435440063477 0.003921568859369
-3.383438110351562 7.231982707977295 2.097457885742188 0.000000000000000
-11.071606636047363 22.818262100219727 0.146349146962166 0.003921568859369
-10.035128593444824 27.258995056152344 2.360444784164429 0.003921568859369
-7.658797740936279 24.531377792358398 0.297786295413971 0.003921568859369
-8.817042350769043 24.057199478149414 2.080891132354736 0.003921568859369
-10.699739456176758 25.925405502319336 1.625006198883057 0.003921568859369
-8.234406471252441 22.934915542602539 1.979030370712280 0.003921568859369
-10.118762016296387 24.729557037353516 1.547803282737732 0.003921568859369
-8.123445510864258 22.884258270263672 1.972196221351624 0.003921568859369
-7.980272293090820 22.722118377685547 1.955924272537231 0.003921568859369
-7.579031467437744 26.306224822998047 0.317432492971420 0.003921568859369
-7.752517700195312 22.819696426391602 -0.698017716407776 0.003921568859369
-10.074839591979980 25.649639129638672 1.596869349479675 0.003921568859369
-7.797387599945068 22.958526611328125 1.969593048095703 0.003921568859369
-2.284869194030762 5.901184082031250 1.130737185478210 0.000000000000000
-7.670039653778076 22.850381851196289 -0.698134005069733 0.003921568859369
-12.033257484436035 27.064350128173828 0.171162500977516 0.003921568859369
-7.659853935241699 22.818454742431641 1.955273747444153 0.003921568859369
-5.772102832794189 20.562698364257812 0.247424587607384 0.003921568859369
-7.447095394134521 22.421688079833984 1.919149756431580 0.003921568859369
-6.988565444946289 25.544582366943359 -0.307270467281342 0.003921568859369
-8.939187049865723 23.383142471313477 0.579355895519257 0.003921568859369
-5.686842441558838 20.514648437500000 0.246633395552635 0.003921568859369
-9.196117401123047 24.084873199462891 1.493622303009033 0.003921568859369
-7.383332729339600 22.772630691528320 -0.693478524684906 0.003921568859369
-7.059881210327148 26.215900421142578 -0.315049290657043 0.003921568859369
-7.810860157012939 24.162355422973633 2.063646078109741 0.003921568859369
-7.301968574523926 22.776611328125000 -0.692896604537964 0.003921568859369
-7.487867355346680 23.388086318969727 4.456878185272217 0.003921568859369
-7.178730010986328 22.655120849609375 -0.688474059104919 0.003921568859369
-8.962291717529297 24.229146957397461 0.598056375980377 0.003921568859369
-10.371708869934082 28.207101821899414 1.742672324180603 0.003921568859369
-7.437857627868652 23.518293380737305 4.476967334747314 0.003921568859369
-2.300026655197144 5.515288352966309 0.717564046382904 0.000000000000000
-7.076859951019287 22.636013031005859 1.927288532257080 0.003921568859369
-6.941819190979004 22.467979431152344 1.911016464233398 0.003921568859369
-6.996103763580322 22.950410842895508 1.950069665908813 0.003921568859369
-7.249886989593506 23.829082489013672 4.522170066833496 0.003921568859369
-6.852752208709717 22.751684188842773 -0.688588023185730 0.003921568859369
-9.496896743774414 26.956254959106445 0.662161052227020 0.003921568859369
-5.191173076629639 20.712226867675781 0.247520312666893 0.003921568859369
-6.863499641418457 22.789377212524414 1.934448480606079 0.003921568859369
-3.312587499618530 8.796804428100586 2.485681772232056 0.000000000000000
-8.229710578918457 23.745414733886719 0.581963896751404 0.003921568859369
-6.904121875762939 23.538480758666992 4.454011917114258 0.003921568859369
-6.585371494293213 22.697713851928711 -0.684979975223541 0.003921568859369
-8.232583999633789 24.034957885742188 0.588383555412292 0.003921568859369
-5.077341079711914 21.209831237792969 0.252873748540878 0.003921568859369
-6.438177108764648 18.551380157470703 5.230157375335693 0.003921568859369
-6.835426807403564 23.610496520996094 4.463338375091553 0.003921568859369
-7.905492305755615 23.035396575927734 -0.564068257808685 0.003921568859369
-6.503185272216797 22.724210739135742 -0.685096204280853 0.003921568859369
-6.670893192291260 23.345312118530273 4.408812046051025 0.003921568859369
-5.211317062377930 22.556150436401367 0.268514364957809 0.003921568859369
-7.699980258941650 22.948150634765625 1.402935147285461 0.003921568859369
-7.585552692413330 27.089551925659180 2.288530349731445 0.003921568859369
-6.598502159118652 23.385097503662109 4.412398815155029 0.003921568859369
-7.576559066772461 22.836511611938477 1.394563794136047 0.003921568859369
-6.614828586578369 23.779691696166992 4.482710361480713 0.003921568859369
-7.940734863281250 24.300050735473633 1.482231497764587 0.003921568859369
-7.881669044494629 24.110521316528320 3.100763559341431 0.003921568859369
-5.021185398101807 22.853355407714844 0.271447330713272 0.003921568859369
-7.603282928466797 23.505790710449219 1.432235598564148 0.003921568859369
-7.812650680541992 24.185926437377930 3.107100486755371 0.003921568859369
-7.109015464782715 26.839694976806641 2.259243249893188 0.003921568859369
-4.617063999176025 21.671770095825195 -0.257190763950348 0.003921568859369
-9.965623855590820 27.102710723876953 0.167034506797791 0.003921568859369
-5.695931911468506 21.539846420288086 -0.129042476415634 0.003921568859369
-4.561522960662842 21.389194488525391 0.253714203834534 0.003921568859369
-6.158516883850098 23.406227111816406 4.396617889404297 0.003921568859369
-4.520177841186523 21.576541900634766 -0.255886435508728 0.003921568859369
-7.575708866119385 24.337404251098633 3.116852521896362 0.003921568859369
-6.939453125000000 26.959758758544922 2.265426874160767 0.003921568859369
-6.461294174194336 25.385555267333984 2.131344556808472 0.003921568859369
-6.831471920013428 22.400608062744141 6.247822284698486 0.003921568859369
-6.626609325408936 26.479326248168945 4.961259841918945 0.003921568859369
-6.406668186187744 21.208093643188477 0.513119935989380 0.003921568859369
-6.525200843811035 26.462724685668945 4.954084873199463 0.003921568859369
-4.201645851135254 21.538063049316406 -0.254768013954163 0.003921568859369
-7.198624610900879 24.305875778198242 3.100279092788696 0.003921568859369
-5.670093536376953 23.159343719482422 1.939659357070923 0.003921568859369
-4.185003280639648 21.886243820190430 -0.258727133274078 0.003921568859369
-7.607753276824951 26.108573913574219 0.630439937114716 0.003921568859369
-7.232024192810059 24.755580902099609 1.496187210083008 0.003921568859369
-5.637494087219238 23.391635894775391 1.957558870315552 0.003921568859369
-5.562227725982666 23.438819885253906 -0.698825180530548 0.003921568859369
-4.986475944519043 27.024478912353516 0.319117099046707 0.003921568859369
-5.408891201019287 22.748294830322266 1.902233600616455 0.003921568859369
-5.984156608581543 25.338819503784180 4.732390403747559 0.003921568859369
-4.980619907379150 21.168584823608398 -0.125994160771370 0.003921568859369
-5.877205371856689 25.273727416992188 4.716606616973877 0.003921568859369
-6.907658576965332 24.583173751831055 3.123677730560303 0.003921568859369
-6.222624301910400 27.312335968017578 2.280398368835449 0.003921568859369
-6.368236541748047 22.879442214965820 1.377591729164124 0.003921568859369
-6.960019111633301 25.131948471069336 3.190459966659546 0.003921568859369
-5.571423530578613 24.699623107910156 2.060724496841431 0.003921568859369
-6.590601921081543 24.106351852416992 1.450146675109863 0.003921568859369
-7.100059986114502 26.073381423950195 3.306966304779053 0.003921568859369
-7.371357440948486 27.516275405883789 3.486839771270752 0.003921568859369
-4.864842891693115 22.164974212646484 1.846585273742676 0.003921568859369
-5.262193202972412 24.114440917968750 4.487021446228027 0.003921568859369
-5.307003498077393 24.775829315185547 4.606837749481201 0.003921568859369
-7.220186233520508 22.850566864013672 0.694378972053528 0.003921568859369
-4.655386924743652 22.287853240966797 1.853094577789307 0.003921568859369
-5.285928726196289 20.507919311523438 0.490793913602829 0.003921568859369
-4.943005561828613 24.229373931884766 4.496348857879639 0.003921568859369
-4.329764366149902 21.404203414916992 -0.126596197485924 0.003921568859369
-2.140792846679688 7.563955307006836 2.082966804504395 0.000000000000000
-4.744780063629150 24.102149963378906 4.466933250427246 0.003921568859369
-5.715197563171387 23.362541198730469 1.395965576171875 0.003921568859369
-4.547695159912109 23.485942840576172 4.349987506866455 0.003921568859369
-3.022376775741577 21.355566024780273 0.250506490468979 0.003921568859369
-5.608069896697998 23.268186569213867 1.389222025871277 0.003921568859369
-4.835899829864502 25.612916946411133 4.741003990173340 0.003921568859369
-3.079753637313843 22.448699951171875 -0.263334661722183 0.003921568859369
-4.026453495025635 21.434074401855469 -0.126456141471863 0.003921568859369
-6.413262367248535 27.271629333496094 3.430295467376709 0.003921568859369
-3.831532716751099 20.298543930053711 1.681261181831360 0.003921568859369
-5.319354057312012 22.727689743041992 2.856551885604858 0.003921568859369
-2.799881935119629 21.481742858886719 0.251672357320786 0.003921568859369
-4.379798889160156 24.579038619995117 4.541552066802979 0.003921568859369
-3.223159790039062 25.974306106567383 0.304181694984436 0.003921568859369
-3.697975873947144 20.888893127441406 1.727150678634644 0.003921568859369
-2.626746416091919 21.283666610717773 0.249158874154091 0.003921568859369
-3.611402988433838 20.813856124877930 1.719991087913513 0.003921568859369
-4.512672424316406 27.159822463989258 5.010054588317871 0.003921568859369
-4.834846496582031 22.427150726318359 0.532198846340179 0.003921568859369
-2.410435438156128 21.414331436157227 0.250416129827499 0.003921568859369
-5.628213882446289 21.332195281982422 0.639582693576813 0.003921568859369
-2.338668107986450 21.372951507568359 0.249857664108276 0.003921568859369
-5.899058341979980 28.746910095214844 3.595061779022217 0.003921568859369
-5.031097412109375 24.723440170288086 0.585510194301605 0.003921568859369
-2.311093807220459 21.901657104492188 0.255955934524536 0.003921568859369
-2.444993734359741 11.102927207946777 3.028162479400635 0.000000000000000
-4.024596214294434 26.404178619384766 4.860823154449463 0.003921568859369
-3.533309459686279 23.484703063964844 4.321291923522949 0.003921568859369
-2.481272697448730 11.740713119506836 3.197945594787598 0.000000000000000
-3.463200330734253 23.585443496704102 4.337793827056885 0.003921568859369
-3.301330327987671 22.979711532592773 -0.674378871917725 0.003921568859369
-2.112739086151123 22.311868667602539 0.260518372058868 0.003921568859369
-3.652240037918091 25.699815750122070 4.724505901336670 0.003921568859369
-3.250962495803833 23.227954864501953 4.268200397491455 0.003921568859369
-4.634996414184570 24.499040603637695 -0.578854918479919 0.003921568859369
-3.210581541061401 23.654708862304688 -0.693578720092773 0.003921568859369
-3.259791374206543 24.058275222778320 4.418869495391846 0.003921568859369
-2.907658576965332 21.803348541259766 -0.127660408616066 0.003921568859369
-1.806899309158325 22.577943801879883 -0.263468593358994 0.003921568859369
-3.125869989395142 24.375284194946289 4.473396778106689 0.003921568859369
-4.543846607208252 26.179332733154297 3.255790710449219 0.003921568859369
-3.115220069885254 25.053682327270508 4.596083164215088 0.003921568859369
-4.652315616607666 20.794448852539062 0.123390570282936 0.003921568859369
-1.666552066802979 22.883201599121094 0.266805410385132 0.003921568859369
-4.070680141448975 23.770200729370117 2.954537868499756 0.003921568859369
-1.547096252441406 22.168874740600586 -0.258530974388123 0.003921568859369
-1.573260068893433 22.644121170043945 0.263965904712677 0.003921568859369
-1.464345216751099 22.069143295288086 -0.257319837808609 0.003921568859369
-4.891220569610596 22.737926483154297 0.134728923439980 0.003921568859369
-3.544042587280273 21.397560119628906 0.503453373908997 0.003921568859369
-1.472529411315918 23.846817016601562 -0.277999907732010 0.003921568859369
-2.596956491470337 23.359817504882812 1.915912508964539 0.003921568859369
-1.321282505989075 22.324287414550781 -0.260207325220108 0.003921568859369
-4.500433921813965 21.570564270019531 0.639353394508362 0.003921568859369
-3.890974760055542 24.885210037231445 3.086641311645508 0.003921568859369
-2.519868135452271 23.415231704711914 1.919818043708801 0.003921568859369
-2.484875202178955 23.041595458984375 4.219415664672852 0.003921568859369
-1.303887248039246 23.802282333374023 0.277280271053314 0.003921568859369
-3.647564411163330 23.776874542236328 2.947714328765869 0.003921568859369
-2.753450393676758 26.920881271362305 2.206535100936890 0.003921568859369
-2.406545162200928 23.072502136230469 4.223720550537109 0.003921568859369
-3.190747261047363 21.041950225830078 1.236681103706360 0.003921568859369
-2.709028959274292 27.501132965087891 2.253399372100830 0.003921568859369
-2.366212844848633 15.385865211486816 4.158671379089355 0.003921568859369
-2.302466630935669 23.772743225097656 4.349277019500732 0.003921568859369
-4.155622482299805 21.441741943359375 0.633887171745300 0.003921568859369
-3.848034381866455 27.373815536499023 3.388872146606445 0.003921568859369
-2.160967588424683 23.171464920043945 4.238072395324707 0.003921568859369
-4.159704685211182 21.904981613159180 0.129201844334602 0.003921568859369
-3.367401123046875 25.023826599121094 0.586540460586548 0.003921568859369
-3.195778369903564 24.286211013793945 3.002800464630127 0.003921568859369
-1.993222475051880 24.213842391967773 4.425330638885498 0.003921568859369
-3.190380811691284 24.986345291137695 3.088107109069824 0.003921568859369
-3.277705907821655 26.562112808227539 1.556430578231812 0.003921568859369
-2.897711753845215 23.153562545776367 2.860461235046387 0.003921568859369
-1.711170673370361 22.409906387329102 1.832927346229553 0.003921568859369
-2.829236745834351 23.276901245117188 2.874597787857056 0.003921568859369
-1.692273020744324 23.424758911132812 4.278251171112061 0.003921568859369
-1.623539447784424 23.665847778320312 -0.689850151538849 0.003921568859369
-1.664959907531738 24.415634155273438 4.458334922790527 0.003921568859369
-1.488864183425903 22.664035797119141 -0.660523593425751 0.003921568859369
-2.478672027587891 21.430656433105469 1.254357099533081 0.003921568859369
-1.411108613014221 22.695943832397461 -0.661338031291962 0.003921568859369
-2.337804317474365 21.538856506347656 2.656214237213135 0.003921568859369
-1.384770631790161 23.881980895996094 4.358608245849609 0.003921568859369
-2.772988080978394 27.196170806884766 3.352801322937012 0.003921568859369
-1.311133146286011 24.121471405029297 4.401655673980713 0.003921568859369
-1.209714770317078 23.936040878295898 4.367219924926758 0.003921568859369
-1.064205646514893 22.130601882934570 -0.128747060894966 0.003921568859369
-1.234740614891052 27.109825134277344 2.214353084564209 0.003921568859369
-1.138003468513489 24.285139083862305 4.430356502532959 0.003921568859369
-2.071943283081055 22.130908966064453 2.725924015045166 0.003921568859369
-1.044171571731567 23.992897033691406 4.376546859741211 0.003921568859369
0.166948318481445 21.889354705810547 0.254848241806030 0.003921568859369
-2.007356166839600 22.303201675415039 2.746397495269775 0.003921568859369
0.431105583906174 29.364704132080078 0.341902375221252 0.003921568859369
-0.877960324287415 24.052541732788086 4.386591434478760 0.003921568859369
-0.776703655719757 23.201986312866211 1.894439816474915 0.003921568859369
0.402951329946518 22.095071792602539 0.257315993309021 0.003921568859369
-1.742446064949036 21.844394683837891 2.687902212142944 0.003921568859369
-0.749293208122253 26.396417617797852 2.155122756958008 0.003921568859369
-0.713714361190796 24.276281356811523 4.426769733428955 0.003921568859369
-0.606145501136780 22.267854690551758 1.817960381507874 0.003921568859369
-0.536397516727448 23.069034576416016 -0.671459257602692 0.003921568859369
-0.575048506259918 26.942441940307617 4.912493228912354 0.003921568859369
-1.638791084289551 22.618597030639648 -0.527286350727081 0.003921568859369
0.900576353073120 28.456438064575195 -0.331647187471390 0.003921568859369
0.766029238700867 23.357763290405273 -0.272263139486313 0.003921568859369
-0.692037403583527 7.431442737579346 1.993937253952026 0.000000000000000
-0.384520441293716 26.133026123046875 4.764696121215820 0.003921568859369
0.839754581451416 23.113988876342773 -0.269468456506729 0.003921568859369
-2.531778812408447 22.855466842651367 0.133411824703217 0.003921568859369
-1.609451293945312 27.017217636108398 0.629344284534454 0.003921568859369
-0.653253734111786 7.193535327911377 1.929750800132751 0.000000000000000
1.237954854965210 28.997434616088867 -0.338118433952332 0.003921568859369
-1.266246438026428 21.599805831909180 2.654756546020508 0.003921568859369
-0.193934783339500 25.641054153442383 4.675015449523926 0.003921568859369
-1.441035270690918 25.491342544555664 -0.593824982643127 0.003921568859369
-2.228326082229614 21.348321914672852 0.124537773430347 0.003921568859369
-1.262037754058838 23.321641921997070 0.543097674846649 0.003921568859369
-1.217475414276123 22.245679855346680 2.733726024627686 0.003921568859369
1.156531810760498 22.908386230468750 -0.267277181148529 0.003921568859369
-2.254467010498047 23.460384368896484 0.685087919235229 0.003921568859369
-0.218990057706833 5.330971717834473 0.217216283082962 0.000000000000000
-0.849767386913300 16.082757949829102 4.311896324157715 0.003921568859369
0.113119006156921 22.798625946044922 -0.663659393787384 0.003921568859369
1.145967006683350 21.550294876098633 0.251406729221344 0.003921568859369
-1.046947956085205 24.273965835571289 2.981846809387207 0.003921568859369
1.770205736160278 29.341293334960938 -0.342495471239090 0.003921568859369
0.218036353588104 23.979057312011719 4.372963905334473 0.003921568859369
1.873492002487183 29.345867156982422 -0.342634975910187 0.003921568859369
-1.914438247680664 22.187587738037109 0.647390723228455 0.003921568859369
0.365706682205200 23.280685424804688 -0.677856504917145 0.003921568859369
1.975305318832397 29.330139160156250 -0.342541605234146 0.003921568859369
-0.807755172252655 25.016326904296875 1.457142472267151 0.003921568859369
0.474118709564209 27.094844818115234 2.212730884552002 0.003921568859369
1.495763778686523 22.134037017822266 0.258483529090881 0.003921568859369
0.440726935863495 23.083372116088867 1.885331392288208 0.003921568859369
0.515661597251892 22.921195983886719 -0.133347764611244 0.003921568859369
0.449347078800201 21.048698425292969 1.719353675842285 0.003921568859369
0.617536783218384 25.798231124877930 4.706585407257080 0.003921568859369
0.755169093608856 27.017572402954102 2.207198858261108 0.003921568859369
0.662763535976410 24.642763137817383 4.496368408203125 0.003921568859369
0.632422566413879 21.895378112792969 1.788999557495117 0.003921568859369
0.752112805843353 22.614559173583984 -0.658885240554810 0.003921568859369
2.047795534133911 24.559658050537109 0.287163019180298 0.003921568859369
0.795370638370514 21.888895034790039 -0.127414733171463 0.003921568859369
-1.258763074874878 21.657745361328125 0.125958397984505 0.003921568859369
1.296458244323730 29.913629531860352 -0.174163326621056 0.003921568859369
-1.270570039749146 21.920557022094727 0.638550758361816 0.003921568859369
-0.191458567976952 23.733535766601562 2.914092302322388 0.003921568859369
1.147824287414551 27.103776931762695 2.215662956237793 0.003921568859369
-0.110623389482498 23.463098526000977 2.880944728851318 0.003921568859369
1.219355821609497 23.872142791748047 -0.139066427946091 0.003921568859369
0.043688207864761 23.370113372802734 2.869733095169067 0.003921568859369
1.167222261428833 23.045379638671875 1.885008931159973 0.003921568859369
1.454227209091187 27.597305297851562 5.041644573211670 0.003921568859369
1.654400587081909 29.151082992553711 -0.850317001342773 0.003921568859369
0.125548809766769 23.384700775146484 2.871683359146118 0.003921568859369
1.491245985031128 26.699869155883789 2.184420824050903 0.003921568859369
1.322786569595337 22.901803970336914 -0.668193995952606 0.003921568859369
0.211250275373459 23.383035659790039 2.871683359146118 0.003921568859369
1.409471750259399 24.136003494262695 1.975158333778381 0.003921568859369
2.559757709503174 23.115884780883789 0.271103143692017 0.003921568859369
1.620599508285522 25.850446701049805 4.725960731506348 0.003921568859369
1.560772657394409 22.911926269531250 -0.669008135795593 0.003921568859369
0.452628314495087 23.396518707275391 2.874121427536011 0.003921568859369
1.717805624008179 24.860378265380859 2.036017656326294 0.003921568859369
2.849925994873047 23.445581436157227 -0.275422841310501 0.003921568859369
0.529306471347809 23.135751724243164 2.842436313629150 0.003921568859369
1.708311080932617 22.596647262573242 -0.131877094507217 0.003921568859369
0.623385667800903 23.216266632080078 -0.540678560733795 0.003921568859369
2.413500070571899 29.505165100097656 -0.172251805663109 0.003921568859369
0.971169412136078 29.653724670410156 0.690576791763306 0.003921568859369
1.948325634002686 24.401313781738281 2.000220537185669 0.003921568859369
2.172050476074219 26.856086730957031 4.916809082031250 0.003921568859369
2.803217172622681 21.345594406127930 0.251040399074554 0.003921568859369
1.085271835327148 27.651582717895508 1.612257599830627 0.003921568859369
2.165015697479248 24.813192367553711 4.545879840850830 0.003921568859369
2.909736394882202 21.018510818481445 0.247456014156342 0.003921568859369
0.842924535274506 21.218492507934570 1.237393379211426 0.003921568859369
1.104406595230103 26.178741455078125 3.218763351440430 0.003921568859369
0.478556454181671 14.306711196899414 3.838784217834473 0.000000000000000
2.204554080963135 24.342565536499023 4.461218833923340 0.003921568859369
2.240406513214111 23.907962799072266 1.962469100952148 0.003921568859369
2.293495893478394 24.412479400634766 4.475568294525146 0.003921568859369
0.244756996631622 8.739632606506348 2.345929861068726 0.000000000000000
0.642774105072021 5.665610313415527 0.066822506487370 0.000000000000000
1.220512628555298 23.730281829833984 2.919458866119385 0.003921568859369
2.315599918365479 23.073678970336914 1.895427107810974 0.003921568859369
1.186305761337280 23.187623977661133 -0.540677487850189 0.003921568859369
1.308817148208618 23.744710922241211 0.553712487220764 0.003921568859369
3.389408111572266 22.096548080444336 0.260724872350693 0.003921568859369
1.258175134658813 22.985807418823242 1.341574668884277 0.003921568859369
1.535859584808350 27.147268295288086 3.340631008148193 0.003921568859369
2.746890783309937 26.052850723266602 4.781926631927490 0.003921568859369
1.275271415710449 23.241960525512695 -0.542073249816895 0.003921568859369
3.719787597656250 23.578208923339844 -0.278446853160858 0.003921568859369
0.193787664175034 22.085615158081055 0.642859816551208 0.003921568859369
1.431573867797852 24.306793212890625 1.419012784957886 0.003921568859369
1.634511709213257 27.196224212646484 3.347455501556396 0.003921568859369
1.320535659790039 22.725803375244141 -0.530161142349243 0.003921568859369
3.791794776916504 23.553720474243164 -0.278306961059570 0.003921568859369
1.592652320861816 25.455812454223633 3.133945226669312 0.003921568859369
2.391319036483765 21.728075027465820 1.787053108215332 0.003921568859369
2.728487730026245 22.997503280639648 -0.134827390313148 0.003921568859369
0.445513278245926 22.407190322875977 0.652402758598328 0.003921568859369
2.618247747421265 22.150735855102539 1.823505163192749 0.003921568859369
2.977156877517700 24.907707214355469 4.579603672027588 0.003921568859369
3.739738464355469 21.785345077514648 0.257840573787689 0.003921568859369
1.680587053298950 23.090843200683594 1.349483609199524 0.003921568859369
2.642181396484375 21.741428375244141 1.790634989738464 0.003921568859369
2.909165620803833 23.737817764282227 4.366516590118408 0.003921568859369
1.658508658409119 22.828824996948242 -0.533136904239655 0.003921568859369
1.903658986091614 24.806308746337891 3.057415008544922 0.003921568859369
1.881152987480164 24.549001693725586 6.602948665618896 0.003921568859369
2.997600555419922 23.829093933105469 4.385170936584473 0.003921568859369
2.837041378021240 22.082708358764648 -0.129640668630600 0.003921568859369
1.875516772270203 23.537300109863281 2.901912689208984 0.003921568859369
1.080649256706238 14.798675537109375 3.981652736663818 0.000000000000000
2.098570585250854 24.928077697753906 3.074476480484009 0.003921568859369
2.046104431152344 24.374900817871094 6.560503482818604 0.003921568859369
0.822270989418030 22.261022567749023 0.129497125744820 0.003921568859369
2.168735980987549 24.837551116943359 3.064239740371704 0.003921568859369
2.235719442367554 25.521102905273438 6.871083259582520 0.003921568859369
3.451546192169189 25.179502487182617 4.640589237213135 0.003921568859369
3.185115814208984 22.822814941406250 -0.671794831752777 0.003921568859369
1.045338392257690 25.033237457275391 0.145647659897804 0.003921568859369
2.287004709243774 25.139877319335938 0.587955594062805 0.003921568859369
0.426338523626328 6.813498497009277 0.840897858142853 0.000000000000000
2.318942070007324 25.454557418823242 6.855554580688477 0.003921568859369
3.266901254653931 22.798164367675781 -0.671445608139038 0.003921568859369
3.322060823440552 22.657310485839844 -0.133360937237740 0.003921568859369
3.528556823730469 23.961526870727539 4.423197746276855 0.003921568859369
2.451382160186768 24.193098068237305 6.523234367370605 0.003921568859369
3.581718206405640 23.733814239501953 4.383736610412598 0.003921568859369
1.364835381507874 24.497358322143555 0.142650589346886 0.003921568859369
3.382109165191650 22.015464782714844 -0.129732593894005 0.003921568859369
1.212043523788452 22.201429367065430 0.647517323493958 0.003921568859369
2.549530029296875 24.301750183105469 3.003794670104980 0.003921568859369
2.552716016769409 24.329315185546875 6.562574863433838 0.003921568859369
4.262084960937500 27.326810836791992 5.050263881683350 0.003921568859369
4.798040390014648 23.015964508056641 -0.274391114711761 0.003921568859369
4.142601966857910 26.041664123535156 2.156116008758545 0.003921568859369
2.661879777908325 24.522665023803711 6.617444038391113 0.003921568859369
4.640527248382568 21.889636993408203 0.261102527379990 0.003921568859369
1.381498217582703 22.250400543212891 0.649264395236969 0.003921568859369
2.764633893966675 24.569833755493164 6.632975578308105 0.003921568859369
2.668874263763428 23.188804626464844 2.869742870330811 0.003921568859369
3.993709325790405 24.128826141357422 4.466965198516846 0.003921568859369
2.911956548690796 24.362461090087891 3.016471385955811 0.003921568859369
4.498632431030273 26.402158737182617 2.189965009689331 0.003921568859369
2.962987184524536 24.755050659179688 6.688879966735840 0.003921568859369
4.052163600921631 23.922565460205078 4.431809902191162 0.003921568859369
2.725062847137451 22.924789428710938 -0.537972748279572 0.003921568859369
3.723691940307617 21.664331436157227 1.798123836517334 0.003921568859369
0.498175472021103 5.641109466552734 1.524964213371277 0.000000000000000
0.953922271728516 6.583497047424316 1.220426559448242 0.000000000000000
2.886596918106079 23.524660110473633 -0.552303969860077 0.003921568859369
6.398444175720215 27.957147598266602 0.334522634744644 0.003921568859369
4.736628532409668 26.707073211669922 2.217954158782959 0.003921568859369
3.117676019668579 24.664257049560547 6.670245170593262 0.003921568859369
3.962019205093384 22.562826156616211 4.185001373291016 0.003921568859369
2.941517829895020 23.376003265380859 -0.549046695232391 0.003921568859369
4.043887138366699 22.564336776733398 -0.668533325195312 0.003921568859369
1.884728074073792 23.573005676269531 0.688825070858002 0.003921568859369
4.003089904785156 22.350231170654297 1.857356071472168 0.003921568859369
3.234357357025146 24.870428085327148 6.729256153106689 0.003921568859369
1.971484303474426 23.568986892700195 0.688941597938538 0.003921568859369
3.916902303695679 21.469583511352539 1.785431623458862 0.003921568859369
3.227427482604980 24.176757812500000 6.544978141784668 0.003921568859369
4.273454189300537 22.898551940917969 -0.679355502128601 0.003921568859369
3.303079366683960 24.134494781494141 6.536696434020996 0.003921568859369
3.389016628265381 24.133392333984375 6.539802551269531 0.003921568859369
4.654215335845947 24.376575469970703 4.533690929412842 0.003921568859369
3.208138227462769 22.379499435424805 2.780537605285645 0.003921568859369
2.221780776977539 22.812160491943359 0.667765915393829 0.003921568859369
3.904813051223755 26.274278640747070 7.127834796905518 0.003921568859369
4.030173301696777 26.496816635131836 7.192021846771240 0.003921568859369
5.297431945800781 26.152252197265625 4.874488353729248 0.003921568859369
3.289357423782349 21.379930496215820 0.504221856594086 0.003921568859369
4.154155254364014 26.611324310302734 7.227222919464111 0.003921568859369
2.277261972427368 21.194046020507812 0.124018400907516 0.003921568859369
5.864975929260254 27.820442199707031 -0.165587484836578 0.003921568859369
4.320115089416504 26.465740203857422 7.196165084838867 0.003921568859369
4.738975048065186 22.321277618408203 4.169937610626221 0.003921568859369
4.878702640533447 22.576208114624023 4.220878124237061 0.003921568859369
2.659004211425781 22.400121688842773 0.131246209144592 0.003921568859369
5.844449043273926 26.404167175292969 4.940498352050781 0.003921568859369
5.101165771484375 22.463893890380859 4.210116386413574 0.003921568859369
4.357580184936523 24.157911300659180 6.589498519897461 0.003921568859369
5.192494869232178 22.498643875122070 4.220160961151123 0.003921568859369
5.431283950805664 29.237998962402344 0.693010628223419 0.003921568859369
4.459546566009521 24.232728958129883 6.614345073699951 0.003921568859369
3.143503665924072 23.011421203613281 0.135151162743568 0.003921568859369
5.237884044647217 27.749668121337891 7.579216003417969 0.003921568859369
5.424350738525391 28.693315505981445 -0.680630028247833 0.003921568859369
2.892051696777344 20.799819946289062 0.612151920795441 0.003921568859369
5.130453109741211 26.715234756469727 7.301764011383057 0.003921568859369
6.803237438201904 22.801856994628906 0.277821570634842 0.003921568859369
6.437784671783447 26.071577072143555 2.197130441665649 0.003921568859369
5.476451873779297 27.930250167846680 7.639261722564697 0.003921568859369
6.279358863830566 25.050401687622070 -0.150468036532402 0.003921568859369
6.711294174194336 22.196945190429688 0.270746141672134 0.003921568859369
5.709765434265137 28.513536453247070 1.696223139762878 0.003921568859369
5.458576202392578 27.308746337890625 7.474655151367188 0.003921568859369
3.503003597259521 23.138074874877930 0.682082593441010 0.003921568859369
5.413567543029785 26.627271652221680 7.293483734130859 0.003921568859369
6.377233505249023 25.067222595214844 4.726696014404297 0.003921568859369
5.481370925903320 26.490930557250977 -0.630654036998749 0.003921568859369
8.392575263977051 26.589441299438477 0.325405418872833 0.003921568859369
5.770644187927246 22.139612197875977 1.872658133506775 0.003921568859369
7.041759490966797 22.162397384643555 0.271538317203522 0.003921568859369
5.799267768859863 21.941688537597656 1.857687473297119 0.003921568859369
5.574319839477539 26.038721084594727 7.148546218872070 0.003921568859369
6.268732070922852 28.679868698120117 0.684268057346344 0.003921568859369
8.478379249572754 26.228698730468750 0.321727752685547 0.003921568859369
3.943278074264526 23.275543212890625 0.137408182024956 0.003921568859369
6.621136665344238 24.266363143920898 4.597552299499512 0.003921568859369
6.873638153076172 24.828514099121094 2.108285427093506 0.003921568859369
6.893174171447754 24.896768569946289 4.721674442291260 0.003921568859369
5.501097679138184 24.120742797851562 6.643335342407227 0.003921568859369
5.708309173583984 20.487712860107422 3.889411449432373 0.003921568859369
6.618537902832031 23.320959091186523 1.984288692474365 0.003921568859369
5.782012939453125 20.474393844604492 3.890846490859985 0.003921568859369
8.138436317443848 23.821506500244141 0.293933689594269 0.003921568859369
4.014010429382324 21.926647186279297 0.649970054626465 0.003921568859369
5.715730667114258 24.287534713745117 6.700275421142578 0.003921568859369
5.853246688842773 20.465641021728516 3.892998695373535 0.003921568859369
8.943517684936523 25.823497772216797 0.319028615951538 0.003921568859369
4.101615428924561 21.540521621704102 0.639383316040039 0.003921568859369
1.349358320236206 6.240200042724609 0.790202856063843 0.000000000000000
6.848248004913330 27.614509582519531 3.500052213668823 0.003921568859369
6.432304382324219 25.990568161010742 7.188925266265869 0.003921568859369
6.779972553253174 22.397832870483398 -0.136418685317039 0.003921568859369
6.830352783203125 22.285537719726562 -0.135883703827858 0.003921568859369
6.318182468414307 20.667692184448242 3.952550888061523 0.003921568859369
5.664715766906738 22.031137466430664 2.800045013427734 0.003921568859369
6.453921794891357 20.843343734741211 3.990576744079590 0.003921568859369
5.724242687225342 21.961669921875000 2.793708086013794 0.003921568859369
6.526368618011475 24.922964096069336 6.918720245361328 0.003921568859369
7.161121845245361 22.790143966674805 4.367965221405029 0.003921568859369
8.043522834777832 25.197685241699219 -0.154160827398300 0.003921568859369
6.778407573699951 25.482971191406250 7.081257820129395 0.003921568859369
8.208073616027832 25.399534225463867 4.879521369934082 0.003921568859369
7.510789394378662 23.043426513671875 1.984291791915894 0.003921568859369
7.446964740753174 22.853309631347656 4.395229816436768 0.003921568859369
8.442647933959961 25.219743728637695 -0.155020460486412 0.003921568859369
9.475415229797363 24.293233871459961 0.304505854845047 0.003921568859369
