# This PCD file was generated using the MATLAB® pcwrite function
# from Computer Vision Toolbox®.
# .PCD v.7 - Point Cloud Data file format
VERSION .7
FIELDS x y z intensity
SIZE 8 8 8 8
TYPE F F F F
COUNT 1 1 1 1
WIDTH 648
HEIGHT 1
VIEWPOINT 0 0 0 1 0 0 0
POINTS 648
DATA ascii
9.760566711425781 23.967298507690430 2.124980688095093 0.003921568859369
11.051700592041016 23.509557723999023 0.308778434991837 0.003921568859369
10.578700065612793 22.321243286132812 0.293681114912033 0.003921568859369
7.689249992370605 21.215549468994141 0.532083809375763 0.003921568859369
9.641582489013672 26.189357757568359 0.657377123832703 0.003921568859369
9.492929458618164 25.535940170288086 0.641767084598541 0.003921568859369
9.169758796691895 24.413749694824219 0.614430487155914 0.003921568859369
10.139595985412598 23.021839141845703 -0.141477778553963 0.003921568859369
7.993911743164062 20.498174667358398 0.518724381923676 0.003921568859369
11.248188972473145 22.098791122436523 0.294253706932068 0.003921568859369
10.696893692016602 23.598779678344727 -0.145866513252258 0.003921568859369
11.019015312194824 24.075500488281250 -0.149118319153786 0.003921568859369
11.370521545410156 21.958204269409180 0.293376594781876 0.003921568859369
10.454750061035156 22.656978607177734 -0.140536606311798 0.003921568859369
9.776046752929688 23.982059478759766 0.609998166561127 0.003921568859369
11.823785781860352 24.431383132934570 -0.153393194079399 0.003921568859369
11.761528015136719 24.091875076293945 -0.151548311114311 0.003921568859369
9.806598663330078 22.895534515380859 0.586277604103088 0.003921568859369
10.761145591735840 22.072250366210938 2.015764713287354 0.003921568859369
11.488987922668457 23.347316741943359 -0.147112563252449 0.003921568859369
9.785793304443359 22.642686843872070 0.580623567104340 0.003921568859369
13.509423255920410 24.337469100952148 0.329398393630981 0.003921568859369
10.034433364868164 23.201192855834961 6.798484325408936 0.003921568859369
11.403421401977539 23.171695709228516 4.728432655334473 0.003921568859369
13.921484947204590 24.876457214355469 0.337259829044342 0.003921568859369
13.976824760437012 24.762098312377930 0.336369812488556 0.003921568859369
11.038477897644043 22.057872772216797 2.024788379669189 0.003921568859369
12.513281822204590 24.742620468139648 2.275109052658081 0.003921568859369
12.694196701049805 24.891586303710938 2.292674064636230 0.003921568859369
12.094165802001953 23.532239913940430 -0.149798393249512 0.003921568859369
11.667077064514160 22.711664199829102 2.095745563507080 0.003921568859369
11.835644721984863 22.832275390625000 -0.145632311701775 0.003921568859369
14.417940139770508 24.328996658325195 0.334074318408966 0.003921568859369
10.275238037109375 22.048994064331055 3.000357627868652 0.003921568859369
13.129592895507812 24.857126235961914 2.305950641632080 0.003921568859369
14.316029548645020 23.586091995239258 0.325881361961365 0.003921568859369
12.641465187072754 26.085330963134766 0.681109547615051 0.003921568859369
13.829798698425293 22.617181777954102 0.313169896602631 0.003921568859369
13.177129745483398 23.922529220581055 2.240577697753906 0.003921568859369
14.928589820861816 24.034250259399414 0.334030479192734 0.003921568859369
13.547254562377930 24.405206680297852 2.289754629135132 0.003921568859369
13.312896728515625 23.776082992553711 -0.154924437403679 0.003921568859369
13.330066680908203 23.804464340209961 2.238222122192383 0.003921568859369
14.391985893249512 22.650228500366211 0.316837310791016 0.003921568859369
11.770052909851074 23.295269012451172 1.528890013694763 0.003921568859369
12.048292160034180 23.196590423583984 1.530635118484497 0.003921568859369
11.061427116394043 23.915559768676758 0.157908424735069 0.003921568859369
14.411976814270020 21.984708786010742 0.310046404600143 0.003921568859369
15.703610420227051 23.743556976318359 0.335553586483002 0.003921568859369
12.757972717285156 24.144508361816406 1.598840236663818 0.003921568859369
14.938087463378906 24.979913711547852 2.386620998382568 0.003921568859369
13.529946327209473 22.648748397827148 4.829105854034424 0.003921568859369
13.519157409667969 22.455387115478516 2.150037288665771 0.003921568859369
14.563124656677246 24.166738510131836 5.163582801818848 0.003921568859369
11.197402954101562 23.135927200317383 0.153920769691467 0.003921568859369
15.126182556152344 22.202030181884766 0.316667616367340 0.003921568859369
15.918253898620605 23.195880889892578 0.331485301256180 0.003921568859369
13.229138374328613 21.486814498901367 2.070117235183716 0.003921568859369
13.845879554748535 22.304103851318359 -0.149895995855331 0.003921568859369
14.072585105895996 22.129558563232422 2.150602102279663 0.003921568859369
12.048419952392578 23.396251678466797 0.157078683376312 0.003921568859369
14.543768882751465 22.337533950805664 -0.152568474411964 0.003921568859369
16.593391418457031 22.928901672363281 0.333050161600113 0.003921568859369
13.343615531921387 25.231758117675781 0.170169219374657 0.003921568859369
14.185863494873047 21.464302062988281 2.110052108764648 0.003921568859369
15.166732788085938 22.760196685791016 2.242597103118896 0.003921568859369
3.264350652694702 5.041115283966064 0.107602454721928 0.000000000000000
14.034556388854980 23.122072219848633 0.634430229663849 0.003921568859369
16.562471389770508 21.923942565917969 0.323215126991272 0.003921568859369
13.565308570861816 24.613958358764648 0.167427316308022 0.003921568859369
15.398079872131348 22.431373596191406 -0.155984699726105 0.003921568859369
14.225250244140625 23.069969177246094 0.635673522949219 0.003921568859369
13.484594345092773 24.269512176513672 0.165385141968727 0.003921568859369
14.114272117614746 22.714862823486328 0.627237379550934 0.003921568859369
18.077436447143555 23.559385299682617 0.349096536636353 0.003921568859369
14.588247299194336 26.013280868530273 0.177259296178818 0.003921568859369
14.340774536132812 22.890573501586914 0.633180439472198 0.003921568859369
15.376254081726074 22.061779022216797 2.204468965530396 0.003921568859369
16.573383331298828 21.301515579223633 0.317219227552414 0.003921568859369
15.862762451171875 22.247562408447266 -0.156937971711159 0.003921568859369
18.240325927734375 23.083660125732422 0.345569103956223 0.003921568859369
17.335983276367188 21.799324035644531 0.327221751213074 0.003921568859369
15.130773544311523 21.081035614013672 2.127489566802979 0.003921568859369
17.411981582641602 21.738172531127930 0.327190726995468 0.003921568859369
15.359397888183594 21.240127563476562 2.148955583572388 0.003921568859369
14.650382995605469 22.330202102661133 1.562630534172058 0.003921568859369
13.790868759155273 23.260774612426758 0.160646066069603 0.003921568859369
15.039017677307129 22.573461532592773 0.635650277137756 0.003921568859369
15.888843536376953 21.334754943847656 -0.152969419956207 0.003921568859369
14.533973693847656 21.658372879028320 1.526223182678223 0.003921568859369
17.163326263427734 23.029504776000977 2.354004144668579 0.003921568859369
17.140872955322266 22.998102188110352 5.247705936431885 0.003921568859369
14.750456809997559 21.650787353515625 1.532917141914368 0.003921568859369
15.689640045166016 20.764986038208008 2.133801460266113 0.003921568859369
17.346355438232422 22.936336517333984 5.261278152465820 0.003921568859369
15.914575576782227 23.164186477661133 0.658136725425720 0.003921568859369
19.243267059326172 22.837108612060547 0.350326687097549 0.003921568859369
15.984575271606445 20.993963241577148 2.162637233734131 0.003921568859369
18.990293502807617 22.380100250244141 0.344320952892303 0.003921568859369
15.140709877014160 21.883043289184570 1.556453227996826 0.003921568859369
15.855352401733398 20.675804138183594 2.135582923889160 0.003921568859369
14.129907608032227 22.541679382324219 0.157663181424141 0.003921568859369
14.687806129455566 21.069179534912109 1.502419590950012 0.003921568859369
14.593971252441406 22.919404983520508 0.160950377583504 0.003921568859369
16.167081832885742 22.514949798583984 0.649015247821808 0.003921568859369
16.563272476196289 23.061727523803711 1.660367369651794 0.003921568859369
14.403028488159180 22.118061065673828 0.156309455633163 0.003921568859369
19.763519287109375 22.321058273315430 0.349553555250168 0.003921568859369
16.311208724975586 22.375179290771484 0.648305177688599 0.003921568859369
19.854682922363281 22.266347885131836 0.349756360054016 0.003921568859369
19.960588455200195 22.235561370849609 0.350287228822708 0.003921568859369
15.706581115722656 23.211299896240234 0.165574267506599 0.003921568859369
16.102272033691406 21.458354949951172 1.568603634834290 0.003921568859369
17.972579956054688 21.646446228027344 2.304835319519043 0.003921568859369
15.211196899414062 22.134534835815430 0.158668369054794 0.003921568859369
16.621829986572266 21.810529708862305 3.378114938735962 0.003921568859369
15.877847671508789 22.942564010620117 0.164770722389221 0.003921568859369
16.811445236206055 21.915824890136719 0.646314561367035 0.003921568859369
18.239694595336914 21.504287719726562 2.309967041015625 0.003921568859369
18.145685195922852 21.243583679199219 2.288778781890869 0.003921568859369
17.013223648071289 21.858634948730469 3.412176847457886 0.003921568859369
18.431997299194336 21.259283065795898 2.305002927780151 0.003921568859369
17.976968765258789 22.760210037231445 0.678461968898773 0.003921568859369
16.784847259521484 21.259954452514648 3.337031364440918 0.003921568859369
16.592397689819336 23.097280502319336 0.167809277772903 0.003921568859369
17.216360092163086 21.648162841796875 0.647120058536530 0.003921568859369
18.216011047363281 20.732622146606445 2.261003732681274 0.003921568859369
17.411186218261719 21.573183059692383 0.648559093475342 0.003921568859369
18.411506652832031 22.803544998168945 1.713093638420105 0.003921568859369
17.849123001098633 22.110837936401367 3.500307321548462 0.003921568859369
17.512523651123047 21.550291061401367 3.420801401138306 0.003921568859369
17.739105224609375 21.660352706909180 3.447987318038940 0.003921568859369
19.377653121948242 21.424301147460938 2.365669012069702 0.003921568859369
18.563129425048828 22.508789062500000 0.682123363018036 0.003921568859369
17.103530883789062 20.748588562011719 3.311924695968628 0.003921568859369
19.672071456909180 21.603588104248047 2.392665863037109 0.003921568859369
17.580270767211914 23.409006118774414 0.172396406531334 0.003921568859369
18.656978607177734 22.461870193481445 0.682658493518829 0.003921568859369
17.300603866577148 20.837644577026367 3.335794687271118 0.003921568859369
17.931919097900391 21.426040649414062 1.632831215858459 0.003921568859369
16.782213211059570 22.015722274780273 0.163029789924622 0.003921568859369
18.628829956054688 21.941223144531250 0.672894954681396 0.003921568859369
20.266332626342773 21.622875213623047 2.426747083663940 0.003921568859369
19.236797332763672 20.401674270629883 2.296516895294189 0.003921568859369
4.945090293884277 5.882597923278809 2.079669475555420 0.000000000000000
18.280361175537109 21.238784790039062 0.655148804187775 0.003921568859369
19.407838821411133 20.431503295898438 2.307885408401489 0.003921568859369
17.143648147583008 21.856035232543945 0.163501843810081 0.003921568859369
17.898557662963867 20.650810241699219 3.365890026092529 0.003921568859369
17.957441329956055 20.572896957397461 3.363429546356201 0.003921568859369
17.212034225463867 21.638143539428711 0.162709012627602 0.003921568859369
18.001907348632812 20.486089706420898 3.359019994735718 0.003921568859369
19.642711639404297 22.011138916015625 3.631948471069336 0.003921568859369
18.636505126953125 20.751443862915039 0.651785552501678 0.003921568859369
19.297805786132812 21.483474731445312 1.686982274055481 0.003921568859369
20.013092041015625 21.812274932861328 0.691583812236786 0.003921568859369
19.990036010742188 21.193315505981445 0.680603861808777 0.003921568859369
19.019178390502930 22.088317871093750 0.171116679906845 0.003921568859369
19.874242782592773 20.917097091674805 0.674063622951508 0.003921568859369
20.408693313598633 20.736732482910156 0.679430365562439 0.003921568859369
20.873113632202148 21.058975219726562 0.692353248596191 0.003921568859369
20.823717117309570 21.009092330932617 1.727375268936157 0.003921568859369
20.758943557739258 20.510177612304688 0.681404829025269 0.003921568859369
20.280126571655273 21.944646835327148 0.175103083252907 0.003921568859369
20.239141464233398 21.747760772705078 0.174081474542618 0.003921568859369
21.782152175903320 20.494470596313477 0.698020875453949 0.003921568859369
9.321315765380859 7.709017753601074 2.217421054840088 0.000000000000000
15.760643005371094 12.713340759277344 3.703976392745972 0.003921568859369
3.269098043441772 2.249581098556519 -0.046555217355490 0.000000000000000
7.056095123291016 4.728076934814453 -0.497875988483429 0.000000000000000
14.103681564331055 12.566886901855469 0.551776170730591 0.003921568859369
6.477820873260498 5.139754772186279 1.021567463874817 0.000000000000000
7.244037151336670 5.147039413452148 1.629631996154785 0.000000000000000
6.167546749114990 4.323916912078857 0.619274139404297 0.000000000000000
6.466940879821777 4.985146999359131 2.201286792755127 0.000000000000000
5.297888278961182 4.063001632690430 0.826082289218903 0.000000000000000
2.075395822525024 1.584930539131165 -0.286273658275604 0.000000000000000
12.719407081604004 8.545386314392090 2.803311586380005 0.000000000000000
4.512876033782959 2.982949972152710 -0.285538792610168 0.000000000000000
11.708312988281250 7.685670852661133 2.561499357223511 0.000000000000000
4.490903854370117 2.619953155517578 0.061235882341862 0.000000000000000
4.232193470001221 2.736916542053223 0.088942967355251 0.000000000000000
8.332421302795410 5.315824508666992 0.810538709163666 0.000000000000000
6.831472396850586 4.363977909088135 1.486063957214355 0.000000000000000
15.019094467163086 9.335818290710449 3.232253313064575 0.003921568859369
11.189511299133301 7.690041542053223 3.649493455886841 0.000000000000000
7.740800380706787 4.671732902526855 0.369895339012146 0.000000000000000
12.594329833984375 8.387963294982910 1.862250447273254 0.000000000000000
11.690692901611328 6.987348079681396 2.489689111709595 0.000000000000000
9.865225791931152 5.853328227996826 2.097971916198730 0.000000000000000
6.044465541839600 3.484843730926514 0.572605729103088 0.000000000000000
9.898776054382324 5.550079345703125 2.075710296630859 0.000000000000000
2.221590757369995 1.402562022209167 0.713499248027802 0.000000000000000
8.451993942260742 5.762494564056396 -0.657123267650604 0.000000000000000
7.311281204223633 3.969497919082642 1.521833181381226 0.000000000000000
5.408780097961426 3.613823175430298 -0.418414562940598 0.000000000000000
5.756873130798340 3.312932014465332 1.786983847618103 0.000000000000000
7.222595214843750 4.152135372161865 -0.194400683045387 0.000000000000000
3.050226688385010 1.939270257949829 -0.233179092407227 0.000000000000000
11.997545242309570 6.724754333496094 1.692047834396362 0.000000000000000
12.615038871765137 7.770249843597412 -0.950640380382538 0.000000000000000
8.315194129943848 4.542615413665771 2.543710470199585 0.000000000000000
5.775276660919189 2.775448322296143 1.171685814857483 0.000000000000000
8.454788208007812 4.542303085327148 1.180703759193420 0.000000000000000
12.276942253112793 5.789088249206543 2.478134632110596 0.000000000000000
6.479049682617188 2.599517107009888 -0.407645374536514 0.000000000000000
10.275495529174805 5.336712360382080 1.423932790756226 0.000000000000000
5.574593544006348 3.231484889984131 0.188108131289482 0.000000000000000
6.991789340972900 3.605188608169556 0.968172550201416 0.000000000000000
16.459571838378906 7.478821754455566 3.299589157104492 0.003921568859369
4.836293220520020 2.343876361846924 0.661048948764801 0.000000000000000
8.121997833251953 3.932907104492188 2.420487642288208 0.000000000000000
9.023149490356445 3.836198091506958 1.789382934570312 0.000000000000000
6.589496612548828 3.024310827255249 0.422804623842239 0.000000000000000
2.206783056259155 0.983445823192596 -0.000000000000112 0.000000000000000
6.741217613220215 3.378694534301758 -0.483263194561005 0.000000000000000
10.886195182800293 4.805924892425537 0.693017184734344 0.000000000000000
5.416797161102295 1.763161659240723 -0.198927134275436 0.000000000000000
16.848669052124023 6.276012420654297 3.278145313262939 0.003921568859369
16.905326843261719 7.116756916046143 2.252145767211914 0.003921568859369
7.122252941131592 2.540323734283447 0.308072715997696 0.000000000000000
7.145959854125977 2.434856891632080 1.374681115150452 0.000000000000000
6.983596801757812 2.325229644775391 1.340241670608521 0.000000000000000
10.362797737121582 3.411875724792480 1.987431049346924 0.000000000000000
10.188956260681152 3.876783609390259 0.000014923451090 0.003921568859369
10.476668357849121 3.986389875411987 1.375190615653992 0.000000000000000
18.909646987915039 5.937341690063477 1.617294192314148 0.000000000000000
22.734062194824219 7.051741600036621 1.942458152770996 0.003921568859369
7.373468399047852 2.566475391387939 -0.000002001906978 0.000000000000000
4.720038890838623 1.621991276741028 0.289491683244705 0.000000000000000
5.144251823425293 2.012223243713379 -0.352831363677979 0.000000000000000
7.554108619689941 1.720026016235352 -0.089934706687927 0.000000000000000
6.568421840667725 2.160567760467529 -0.482166916131973 0.000000000000000
9.446199417114258 2.050082206726074 -0.900376915931702 0.000000000000000
2.015582323074341 0.643360674381256 0.257308483123779 0.000000000000000
16.648782730102539 4.412209033966064 -0.099811986088753 0.000000000000000
11.468886375427246 3.037824153900146 0.967022418975830 0.000000000000000
10.066716194152832 2.592682838439941 0.422769278287888 0.000000000000000
8.391386985778809 2.602618217468262 1.076372623443604 0.000000000000000
12.297603607177734 3.120219707489014 0.515837669372559 0.000000000000000
13.686271667480469 4.881620883941650 0.422177314758301 0.000000000000000
7.151855468750000 2.159808158874512 1.993948698043823 0.000000000000000
15.699630737304688 3.927469730377197 2.945486783981323 0.003921568859369
7.707256317138672 1.894273996353149 0.138053059577942 0.000000000000000
14.704607963562012 4.335835933685303 1.878932356834412 0.000000000000000
20.556772232055664 4.989053726196289 3.851793766021729 0.003921568859369
5.928926467895508 1.720480203628540 -0.000019804749172 0.000000000000000
6.869049549102783 1.537508130073547 -0.203959122300148 0.000000000000000
9.738315582275391 2.687054157257080 2.699045658111572 0.000000000000000
13.135854721069336 2.900765180587769 -0.390428602695465 0.000000000000000
7.679493427276611 1.693126082420349 0.639572143554688 0.000000000000000
7.231242656707764 1.566206574440002 -0.214419335126877 0.000000000000000
15.457602500915527 4.036353588104248 1.957049250602722 0.003921568859369
6.319386959075928 1.298143625259399 -0.335978627204895 0.000000000000000
10.887464523315430 2.161739110946655 -0.064083360135555 0.000000000000000
9.989671707153320 2.458665847778320 0.000133760360768 0.003921568859369
9.609064102172852 1.324559450149536 -0.112271063029766 0.000000000000000
14.039178848266602 2.640449047088623 2.597587585449219 0.000000000000000
14.100887298583984 2.552936553955078 0.249764367938042 0.000000000000000
12.533853530883789 2.905261039733887 0.747205257415771 0.000000000000000
15.216019630432129 2.755427122116089 0.628736257553101 0.000000000000000
14.657588958740234 3.345377683639526 0.873563766479492 0.000000000000000
7.425092697143555 1.690166234970093 0.930157482624054 0.000000000000000
6.332535743713379 1.440049171447754 -0.150176361203194 0.000000000000000
11.682429313659668 1.448257327079773 -0.136294618248940 0.000000000000000
6.189782619476318 0.765019655227661 -0.216333612799644 0.000000000000000
4.934498786926270 1.083315610885620 -0.000038590311306 0.000000000000000
7.739350318908691 1.704208374023438 0.968195617198944 0.000000000000000
7.306480884552002 1.608469367027283 1.993991374969482 0.000000000000000
13.305222511291504 2.213557004928589 -0.703839361667633 0.000000000000000
12.660415649414062 2.745352506637573 3.458136081695557 0.000000000000000
18.922201156616211 3.151933431625366 3.489042282104492 0.003921568859369
14.839668273925781 3.168105363845825 0.000419011659687 0.000000000000000
14.580517768859863 3.059620380401611 0.345914959907532 0.000000000000000
10.960993766784668 1.708843946456909 0.450180590152740 0.000000000000000
6.572071075439453 1.661277532577515 0.195849254727364 0.000000000000000
11.759594917297363 1.748147368431091 0.206967324018478 0.000000000000000
21.026079177856445 4.187824249267578 -0.995592713356018 0.003921568859369
12.746710777282715 1.895688176155090 2.340786695480347 0.000000000000000
8.286431312561035 1.614536762237549 0.000122797413496 0.003921568859369
20.938623428344727 4.094593524932861 -0.990752100944519 0.003921568859369
10.389618873596191 1.506893754005432 1.905160069465637 0.000000000000000
7.415113449096680 1.418430805206299 0.436823010444641 0.000000000000000
13.158941268920898 1.865997076034546 1.081255674362183 0.000000000000000
8.970205307006836 1.684046149253845 0.528760552406311 0.000000000000000
4.661593437194824 0.624489068984985 0.379778027534485 0.000000000000000
13.077298164367676 2.416977405548096 -0.307919114828110 0.000000000000000
13.859432220458984 1.138062834739685 -0.160791113972664 0.000000000000000
7.558573722839355 1.366083979606628 0.937027037143707 0.000000000000000
18.988491058349609 2.423037052154541 -0.110226586461067 0.000000000000000
14.540089607238770 1.854139685630798 2.663766384124756 0.000000000000000
4.837333679199219 1.077527046203613 0.028390493243933 0.000000000000000
17.326692581176758 2.948697566986084 0.408279925584793 0.000000000000000
3.570850133895874 0.400820702314377 0.288255810737610 0.000000000000000
18.311853408813477 2.083486557006836 3.350036382675171 0.003921568859369
13.555247306823730 0.825815975666046 0.158001691102982 0.000000000000000
9.393085479736328 1.461740374565125 0.220034480094910 0.000000000000000
16.865365982055664 1.796492576599121 1.380393385887146 0.000000000000000
8.961668014526367 1.811176061630249 -0.158356890082359 0.000000000000000
8.382115364074707 0.860294342041016 0.341022998094559 0.000000000000000
16.991512298583984 2.591423988342285 2.103693723678589 0.003921568859369
7.749393939971924 1.564499139785767 -0.319522202014923 0.000000000000000
15.933363914489746 2.315984010696411 0.000660969060846 0.003921568859369
11.053354263305664 1.058884382247925 0.450302094221115 0.000000000000000
21.048286437988281 3.062153100967407 -0.986968874931335 0.003921568859369
12.540946960449219 2.448800802230835 -0.517728626728058 0.000000000000000
6.313134193420410 1.206511735916138 -0.111101888120174 0.000000000000000
21.065711975097656 2.997338771820068 -0.987334191799164 0.003921568859369
6.047306060791016 0.854486405849457 0.742474436759949 0.000000000000000
21.472469329833984 4.131394386291504 -0.887478947639465 0.003921568859369
10.522776603698730 0.974769234657288 1.916032075881958 0.000000000000000
19.107309341430664 2.717941522598267 -0.446811586618423 0.000000000000000
15.428401947021484 1.377506494522095 1.260228395462036 0.000000000000000
21.435708999633789 4.046969890594482 -0.885357379913330 0.003921568859369
11.996498107910156 1.616264343261719 0.000426646874985 0.000000000000000
3.203865766525269 0.425758332014084 0.073660925030708 0.000000000000000
12.799824714660645 1.094822645187378 0.521423876285553 0.000000000000000
21.407171249389648 3.960576772689819 -0.883560776710510 0.003921568859369
6.072444915771484 0.814314484596252 1.625435352325439 0.000000000000000
6.064993381500244 0.813130676746368 -0.140923351049423 0.000000000000000
3.274951219558716 0.423240751028061 0.075041636824608 0.000000000000000
5.298662185668945 0.431953012943268 -0.274836450815201 0.000000000000000
21.375368118286133 3.879837274551392 -0.881121218204498 0.003921568859369
6.077881813049316 0.793276727199554 -0.140911594033241 0.000000000000000
21.349435806274414 3.798431634902954 -0.879486739635468 0.003921568859369
6.391814231872559 0.788813531398773 0.371018081903458 0.000000000000000
21.371086120605469 3.721799373626709 -0.879802525043488 0.003921568859369
12.028120994567871 1.449546813964844 0.000517782755196 0.000000000000000
7.319671630859375 0.878941535949707 0.896634221076965 0.000000000000000
21.372127532958984 3.645399808883667 -0.879306018352509 0.003921568859369
6.502820491790771 0.779811918735504 -0.150643378496170 0.000000000000000
13.758369445800781 2.295824766159058 -0.241657331585884 0.000000000000000
12.524414062500000 0.243976444005966 -0.144315049052238 0.000000000000000
19.468328475952148 3.253597497940063 0.573369860649109 0.003921568859369
13.529977798461914 0.922800660133362 0.236172169446945 0.000000000000000
21.376218795776367 3.573417186737061 -0.878972589969635 0.003921568859369
13.750903129577637 2.243059635162354 -0.241373255848885 0.000000000000000
9.585792541503906 0.151595577597618 -0.110338836908340 0.000000000000000
17.490745544433594 1.130119323730469 -0.100422002375126 0.000000000000000
10.365575790405273 1.687998414039612 -0.424637049436569 0.000000000000000
11.467242240905762 0.739667654037476 2.082655906677246 0.000000000000000
21.409133911132812 3.422139167785645 -0.879279613494873 0.003921568859369
11.120189666748047 0.678426444530487 2.018776416778564 0.000000000000000
2.990891695022583 0.313373506069183 -0.000158401453518 0.000000000000000
2.120085239410400 0.018926298245788 -0.119505666196346 0.000000000000000
17.862293243408203 1.032831430435181 1.455870389938354 0.000000000000000
21.372983932495117 3.343930959701538 -0.877320826053619 0.003921568859369
11.661691665649414 1.243591308593750 3.123935222625732 0.000000000000000
7.903867721557617 0.427371948957443 -0.045327264815569 0.000000000000000
12.162610054016113 0.068079352378845 0.141436725854874 0.000000000000000
21.416128158569336 3.274407625198364 -0.878612458705902 0.003921568859369
10.763177871704102 1.071464061737061 0.250478059053421 0.000000000000000
21.459047317504883 3.204612970352173 -0.879904091358185 0.003921568859369
15.103649139404297 1.456053495407104 0.880314469337463 0.000000000000000
21.524921417236328 3.141783952713013 -0.882171332836151 0.003921568859369
12.473766326904297 1.201660990715027 3.339348554611206 0.000000000000000
21.650495529174805 3.083276510238647 -0.886876344680786 0.003921568859369
10.157359123229980 0.408727705478668 -0.292938053607941 0.000000000000000
11.691523551940918 1.040906906127930 0.679437696933746 0.000000000000000
8.248353958129883 0.331422835588455 0.333330333232880 0.000000000000000
5.351954936981201 0.214029222726822 0.430648654699326 0.000000000000000
9.845609664916992 0.363718271255493 0.171046212315559 0.000000000000000
11.516420364379883 0.425931245088577 0.466841518878937 0.000000000000000
11.760902404785156 0.435232698917389 2.131587266921997 0.000000000000000
9.566126823425293 1.252529501914978 -0.166616663336754 0.000000000000000
15.560419082641602 0.468214213848114 0.271365612745285 0.000000000000000
11.334562301635742 0.852650165557861 0.263187229633331 0.000000000000000
13.365179061889648 1.006511092185974 0.776585698127747 0.000000000000000
6.991988658905029 -0.152717947959900 -0.241089001297951 0.000000000000000
13.873251914978027 0.369322061538696 2.516374111175537 0.000000000000000
12.035460472106934 0.863779664039612 0.279540508985519 0.000000000000000
6.674594879150391 0.153590038418770 0.268875867128372 0.000000000000000
5.306215286254883 0.121873751282692 0.952881574630737 0.000000000000000
11.707416534423828 0.229901283979416 -0.066876843571663 0.000000000000000
9.321772575378418 1.090929865837097 0.271137267351151 0.000000000000000
17.270778656005859 0.340140074491501 3.135900259017944 0.003921568859369
8.832611083984375 -0.285153746604919 0.102405771613121 0.000000000000000
13.969897270202637 0.226121872663498 0.243380546569824 0.000000000000000
16.704236984252930 0.270700305700302 1.358360528945923 0.000000000000000
6.239420890808105 0.100574560463428 1.123019456863403 0.000000000000000
7.968183994293213 -0.284513443708420 0.092261001467705 0.000000000000000
13.121938705444336 0.166841983795166 0.532165110111237 0.000000000000000
2.158863306045532 0.026848215609789 -0.109089426696301 0.000000000000000
9.730798721313477 0.595929503440857 1.187469840049744 0.000000000000000
15.698835372924805 0.200007155537605 2.848768472671509 0.000000000000000
13.059906959533691 0.755756199359894 0.000777619658038 0.000000000000000
7.804350852966309 0.071970075368881 0.135133281350136 0.000000000000000
17.347244262695312 1.005431413650513 1.008378982543945 0.000000000000000
2.115005016326904 0.019191361963749 -0.106790140271187 0.000000000000000
12.293851852416992 1.273340940475464 -0.213676154613495 0.000000000000000
15.137344360351562 0.092627607285976 -0.086439423263073 0.000000000000000
21.884754180908203 0.134209081530571 1.781666755676270 0.003921568859369
8.624716758728027 0.052903432399035 1.558054685592651 0.000000000000000
10.345668792724609 0.027433753013611 -0.059062149375677 0.000000000000000
20.493280410766602 1.052582979202271 -0.474102795124054 0.003921568859369
17.646348953247070 -0.014074464328587 3.202153682708740 0.003921568859369
13.725862503051758 -0.063495337963104 0.239040359854698 0.000000000000000
12.540019989013672 0.551172792911530 3.339609384536743 0.000000000000000
17.009231567382812 0.695106089115143 0.395313739776611 0.000000000000000
13.488048553466797 1.208116292953491 0.392305254936218 0.000000000000000
14.777399063110352 -0.114557616412640 0.257525891065598 0.000000000000000
9.955322265625000 -0.111276000738144 -0.056688982993364 0.000000000000000
12.042193412780762 0.365882962942123 0.697084903717041 0.000000000000000
17.423091888427734 -0.316421151161194 3.161989927291870 0.003921568859369
6.875626087188721 -0.148667812347412 -0.197169736027718 0.000000000000000
7.769885063171387 0.583273231983185 0.045052036643028 0.000000000000000
9.812505722045898 -0.245190203189850 1.773523449897766 0.000000000000000
16.378524780273438 -0.468423128128052 -0.472762763500214 0.000000000000000
17.315767288208008 1.129775404930115 0.503641247749329 0.003921568859369
7.941677570343018 0.130807876586914 0.457585304975510 0.000000000000000
13.682596206665039 0.226035907864571 -0.315269798040390 0.000000000000000
14.542840003967285 0.142096206545830 0.842744767665863 0.000000000000000
19.874223709106445 -0.772451996803284 3.611467361450195 0.003921568859369
6.950203895568848 0.043648954480886 0.000310687348247 0.000000000000000
13.669419288635254 0.749828517436981 0.080021768808365 0.000000000000000
7.911136150360107 -0.332105755805969 -0.044938996434212 0.000000000000000
18.936809539794922 0.119344174861908 0.440081506967545 0.000000000000000
7.113814830780029 -0.322650313377380 0.122901350259781 0.000000000000000
17.658103942871094 -0.869900107383728 0.717912495136261 0.003921568859369
13.721432685852051 -0.008168097585440 3.650516986846924 0.000000000000000
12.999926567077637 0.577492833137512 0.376724332571030 0.000000000000000
16.471017837524414 -0.067396789789200 2.011391639709473 0.003921568859369
19.366844177246094 -1.021924376487732 1.576917767524719 0.000000000000000
12.707402229309082 0.520278453826904 0.074285835027695 0.000000000000000
9.258643150329590 0.378083378076553 0.267252951860428 0.000000000000000
14.604758262634277 -0.161053344607353 0.845945537090302 0.000000000000000
10.977131843566895 -0.158290326595306 2.915148735046387 0.000000000000000
4.861637592315674 -0.318901389837265 -0.138717815279961 0.000000000000000
17.980972290039062 -0.323494672775269 1.043135881423950 0.000000000000000
12.316659927368164 -0.819005489349365 0.499857604503632 0.000000000000000
18.566791534423828 -1.302715301513672 3.376972436904907 0.003921568859369
19.336694717407227 -0.415453910827637 -0.445742577314377 0.000000000000000
16.933553695678711 -1.246508002281189 3.079006910324097 0.003921568859369
18.455810546875000 0.372508019208908 -0.318720072507858 0.003921568859369
14.166703224182129 -0.401618510484695 1.728902459144592 0.000000000000000
15.750369071960449 -0.499107122421265 0.001495568547398 0.000000000000000
13.201755523681641 -1.105174899101257 -0.074953213334084 0.000000000000000
9.202420234680176 -0.321263551712036 1.117523074150085 0.000000000000000
18.298475265502930 -1.535182952880859 3.329816818237305 0.003921568859369
8.967180252075195 -0.343888521194458 1.088733196258545 0.000000000000000
15.784504890441895 -1.433656811714172 -0.456199198961258 0.000000000000000
6.361251354217529 -0.264484345912933 0.145844906568527 0.000000000000000
7.468417644500732 0.022531267255545 0.043169260025024 0.000000000000000
6.577761650085449 -0.026377599686384 0.188459381461143 0.000000000000000
7.530778408050537 -0.757840454578400 1.360168695449829 0.000000000000000
6.818874359130859 -0.096494197845459 -0.116724230349064 0.000000000000000
9.730199813842773 -0.205725044012070 0.056676901876926 0.000000000000000
16.953510284423828 -0.360537379980087 0.492022544145584 0.003921568859369
6.745081424713135 -0.163776263594627 -0.269949108362198 0.000000000000000
6.632058620452881 -0.823909282684326 -0.190471142530441 0.000000000000000
10.035645484924316 -0.800003409385681 1.222118616104126 0.000000000000000
9.850440979003906 -0.784812271595001 2.616064548492432 0.000000000000000
17.162759780883789 -2.281125545501709 3.136974573135376 0.003921568859369
6.561014652252197 -0.248867005109787 -0.112097039818764 0.000000000000000
15.694479942321777 -2.918774366378784 -0.182225108146667 0.000000000000000
6.827307701110840 -0.587885856628418 1.803917884826660 0.000000000000000
13.260553359985352 -1.802987456321716 2.419543743133545 0.000000000000000
16.011541366577148 -1.674393177032471 0.932499945163727 0.000000000000000
11.951704025268555 -1.246297836303711 1.461837768554688 0.000000000000000
8.990171432495117 -1.854912400245667 -0.104450762271881 0.000000000000000
7.889636516571045 -0.463340759277344 0.227045223116875 0.000000000000000
7.497511863708496 -1.220011830329895 0.610913515090942 0.000000000000000
7.584933280944824 -1.259504437446594 0.308668345212936 0.000000000000000
8.234029769897461 -0.823466479778290 -0.141351923346519 0.000000000000000
12.620562553405762 -2.562310695648193 -0.072259366512299 0.000000000000000
5.683613300323486 -1.177864193916321 -0.296383768320084 0.000000000000000
8.109137535095215 -1.290728449821472 -0.186864674091339 0.000000000000000
7.960297584533691 -1.687641501426697 0.653840065002441 0.000000000000000
14.640001296997070 -3.130019426345825 2.706609249114990 0.000000000000000
3.842803955078125 -0.493565857410431 -0.239200696349144 0.000000000000000
26.266231536865234 -6.129449367523193 4.897573947906494 0.003921568859369
5.131883621215820 -0.933633029460907 0.295897036790848 0.000000000000000
27.222578048706055 -5.358915805816650 7.402166366577148 0.003921568859369
17.699110031127930 -4.375316619873047 3.302191972732544 0.003921568859369
5.228310585021973 -1.023533582687378 0.302444189786911 0.000000000000000
8.425570487976074 -2.093007802963257 1.558776378631592 0.000000000000000
24.174045562744141 -6.160496234893799 4.526617527008057 0.003921568859369
4.570356845855713 -1.149619221687317 0.186234161257744 0.000000000000000
12.726271629333496 -2.666708230972290 -0.296915173530579 0.000000000000000
7.204843044281006 -1.549303889274597 0.421329498291016 0.000000000000000
8.497255325317383 -1.923831343650818 -0.397670209407806 0.000000000000000
13.075737953186035 -3.121995449066162 3.564708232879639 0.000000000000000
11.666614532470703 -2.824356794357300 1.457598805427551 0.000000000000000
8.180856704711914 -1.994663596153259 1.015667915344238 0.000000000000000
16.569053649902344 -3.416913747787476 -0.289253443479538 0.003921568859369
24.398082733154297 -6.296660900115967 3.080023050308228 0.003921568859369
19.985681533813477 -6.198141098022461 3.791429281234741 0.003921568859369
9.575497627258301 -3.016946554183960 0.404426157474518 0.000000000000000
16.194408416748047 -5.200513362884521 3.076543331146240 0.003921568859369
12.389655113220215 -4.010905265808105 2.348694801330566 0.000000000000000
12.450266838073730 -4.078355312347412 2.363072633743286 0.000000000000000
13.552181243896484 -3.131578445434570 -0.237430080771446 0.000000000000000
11.229241371154785 -3.758952856063843 2.133159637451172 0.000000000000000
8.404980659484863 -1.957734346389771 -0.146593064069748 0.000000000000000
17.963577270507812 -5.290613651275635 4.977688789367676 0.003921568859369
8.303897857666016 -2.856772899627686 1.572818756103516 0.000000000000000
15.339486122131348 -4.625591278076172 4.252267360687256 0.003921568859369
5.913931369781494 -2.084530830383301 1.114365100860596 0.000000000000000
13.157572746276855 -4.109093666076660 3.652246952056885 0.000000000000000
11.499057769775391 -4.203300476074219 2.205217838287354 0.000000000000000
23.969581604003906 -9.017332077026367 4.646354675292969 0.003921568859369
10.136837959289551 -3.266434669494629 1.289469480514526 0.000000000000000
6.672914505004883 -2.540535688400269 0.285419613122940 0.000000000000000
16.559015274047852 -6.405895233154297 3.212035179138184 0.003921568859369
16.404039382934570 -6.406535625457764 3.184266090393066 0.003921568859369
16.253660202026367 -6.412070274353027 3.159121990203857 0.003921568859369
8.882131576538086 -3.053016662597656 1.133744239807129 0.000000000000000
11.344503402709961 -3.315145015716553 -0.471873432397842 0.000000000000000
19.930791854858398 -8.035765647888184 3.892927885055542 0.003921568859369
8.181352615356445 -2.466734647750854 -0.339457154273987 0.000000000000000
16.835239410400391 -6.176665306091309 4.763616085052490 0.003921568859369
6.978481292724609 -2.175071001052856 -0.289492458105087 0.000000000000000
16.860597610473633 -6.252387523651123 4.777100563049316 0.003921568859369
15.009853363037109 -6.401210308074951 2.948617696762085 0.003921568859369
5.510076522827148 -2.358657121658325 1.061352133750916 0.000000000000000
2.498244762420654 -0.918022692203522 0.664447247982025 0.000000000000000
13.968870162963867 -5.941231727600098 4.023926258087158 0.000000000000000
13.105532646179199 -6.265179157257080 3.845112562179565 0.000000000000000
13.056927680969238 -6.294290065765381 3.836826324462891 0.000000000000000
15.276648521423340 -8.456910133361816 1.415700316429138 0.000000000000000
9.626254081726074 -4.776691913604736 2.831232309341431 0.000000000000000
14.881206512451172 -8.506361961364746 1.389574766159058 0.000000000000000
14.630568504333496 -8.018829345703125 2.029936552047729 0.003921568859369
15.316427230834961 -9.686107635498047 0.736789941787720 0.003921568859369
15.245607376098633 -9.714853286743164 0.734988629817963 0.003921568859369
14.936287879943848 -9.879918098449707 0.728205740451813 0.003921568859369
15.491739273071289 -10.253150939941406 1.507526397705078 0.003921568859369
15.028932571411133 -10.085271835327148 0.736119031906128 0.003921568859369
10.006755828857422 -6.316907405853271 1.432658076286316 0.003921568859369
12.909936904907227 -9.161642074584961 1.282176375389099 0.000000000000000
10.121273994445801 -6.433003902435303 3.162821531295776 0.000000000000000
10.029809951782227 -6.424626827239990 3.141048669815063 0.000000000000000
14.778308868408203 -10.672682762145996 1.479237318038940 0.000000000000000
16.028656005859375 -10.443358421325684 5.079330444335938 0.003921568859369
7.182033061981201 -5.164705753326416 0.355162501335144 0.000000000000000
14.012622833251953 -9.384761810302734 4.471636295318604 0.003921568859369
13.487960815429688 -10.078211784362793 0.684586584568024 0.003921568859369
9.763964653015137 -7.243549346923828 2.185491561889648 0.003921568859369
23.761524200439453 -18.028034210205078 -0.849678099155426 0.003921568859369
15.049502372741699 -10.317071914672852 1.058073282241821 0.000000000000000
13.370438575744629 -10.211261749267578 0.684107601642609 0.003921568859369
13.361044883728027 -10.339884757995605 0.687140524387360 0.003921568859369
13.288531303405762 -10.431124687194824 0.687149226665497 0.003921568859369
12.238440513610840 -8.665072441101074 1.821854352951050 0.000000000000000
12.284827232360840 -9.627636909484863 1.264266371726990 0.000000000000000
17.204319000244141 -12.346517562866211 5.628542900085449 0.003921568859369
12.262339591979980 -9.744468688964844 1.268858075141907 0.003921568859369
19.472200393676758 -15.708232879638672 2.037380218505859 0.003921568859369
10.573908805847168 -8.433786392211914 2.435433626174927 0.003921568859369
9.903375625610352 -7.183568954467773 1.481710076332092 0.003921568859369
15.716956138610840 -11.512709617614746 5.174273490905762 0.003921568859369
12.727889060974121 -10.414569854736328 1.333379983901978 0.000000000000000
18.604934692382812 -14.167901992797852 6.222907543182373 0.003921568859369
18.234611511230469 -14.171715736389160 6.143613815307617 0.003921568859369
14.541681289672852 -12.783322334289551 1.573231816291809 0.000000000000000
6.224633693695068 -5.372667789459229 -0.043755058199167 0.000000000000000
16.794036865234375 -13.597262382507324 1.256391167640686 0.003921568859369
12.574307441711426 -11.255931854248047 1.369168162345886 0.003921568859369
11.720849037170410 -10.623177528381348 1.282367706298828 0.003921568859369
11.987669944763184 -11.014166831970215 1.320081949234009 0.003921568859369
13.738297462463379 -11.474178314208984 4.748901367187500 0.003921568859369
12.927433967590332 -11.981583595275879 1.430835008621216 0.000000000000000
6.694910526275635 -6.163936138153076 -0.048193048685789 0.000000000000000
12.605522155761719 -10.733754158020020 0.959723055362701 0.000000000000000
11.924913406372070 -11.815576553344727 0.683919370174408 0.003921568859369
11.431356430053711 -10.259770393371582 1.867550492286682 0.000000000000000
12.836492538452148 -11.634678840637207 2.109992980957031 0.003921568859369
13.216544151306152 -12.071261405944824 2.181012392044067 0.003921568859369
13.101248741149902 -12.047649383544922 1.033165454864502 0.003921568859369
8.896693229675293 -8.094358444213867 1.456627726554871 0.000000000000000
17.246093750000000 -16.056690216064453 1.372323513031006 0.003921568859369
11.434910774230957 -11.638780593872070 1.323731422424316 0.003921568859369
7.603277683258057 -7.745743751525879 0.874683082103729 0.000000000000000
17.232006072998047 -16.377561569213867 1.384775280952454 0.003921568859369
12.656449317932129 -14.649967193603516 -0.213585853576660 0.003921568859369
1.949723720550537 -1.497695326805115 0.065010927617550 0.000000000000000
11.957986831665039 -12.792276382446289 1.422382950782776 0.000000000000000
8.119922637939453 -7.784681320190430 2.964817047119141 0.003921568859369
8.018234252929688 -7.727155685424805 2.932888269424438 0.003921568859369
9.212856292724609 -8.985378265380859 3.398778676986694 0.003921568859369
16.225440979003906 -16.165885925292969 2.799170732498169 0.003921568859369
6.477903366088867 -5.727686405181885 0.052593387663364 0.000000000000000
13.053213119506836 -14.481209754943848 0.796476900577545 0.003921568859369
3.135802745819092 -2.982719659805298 0.096843309700489 0.000000000000000
2.785707235336304 -2.371067523956299 0.100659161806107 0.000000000000000
7.988422870635986 -10.068349838256836 -0.141406059265137 0.000000000000000
15.408428192138672 -17.897388458251953 1.925036668777466 0.003921568859369
8.359376907348633 -8.111907005310059 0.338359951972961 0.000000000000000
3.590938329696655 -4.588351726531982 0.067668385803699 0.000000000000000
13.093811035156250 -14.716735839843750 5.235774993896484 0.003921568859369
8.047470092773438 -10.115033149719238 -0.067312665283680 0.000000000000000
12.644471168518066 -14.697703361511230 0.010954137891531 0.003921568859369
6.454512596130371 -6.766082286834717 0.270293265581131 0.000000000000000
5.472326755523682 -7.145193576812744 -0.047104455530643 0.000000000000000
7.162511348724365 -10.537688255310059 0.152760267257690 0.000000000000000
7.550679683685303 -10.175625801086426 1.025810003280640 0.000000000000000
13.236721992492676 -18.317264556884766 1.842929601669312 0.003921568859369
8.101662635803223 -10.091981887817383 0.303430974483490 0.000000000000000
1.639044165611267 -1.914624929428101 0.094519972801208 0.000000000000000
13.125019073486328 -18.693143844604492 1.863073468208313 0.003921568859369
7.606185436248779 -9.590456008911133 3.233440399169922 0.003921568859369
12.470450401306152 -17.870487213134766 1.776766657829285 0.003921568859369
13.199247360229492 -19.086118698120117 1.893236637115479 0.003921568859369
12.806442260742188 -18.629636764526367 1.844008564949036 0.003921568859369
12.714845657348633 -18.633245468139648 1.840059041976929 0.003921568859369
11.940610885620117 -17.749443054199219 1.744225740432739 0.003921568859369
4.561935424804688 -5.871057987213135 0.003225214313716 0.000000000000000
11.387956619262695 -17.034223556518555 1.670062065124512 0.003921568859369
5.263850688934326 -7.602079868316650 1.657449245452881 0.000000000000000
12.317136764526367 -18.864942550659180 1.838175773620605 0.003921568859369
11.659400939941406 -17.974348068237305 1.747251987457275 0.003921568859369
5.032454490661621 -7.452941417694092 1.610788583755493 0.003921568859369
11.675806045532227 -18.133485794067383 1.759053707122803 0.003921568859369
11.335730552673340 -15.815294265747070 5.174600124359131 0.003921568859369
12.260218620300293 -19.375345230102539 1.871263623237610 0.003921568859369
8.838168144226074 -13.922059059143066 0.294216096401215 0.003921568859369
11.939081192016602 -19.001733779907227 1.831210255622864 0.003921568859369
5.957075595855713 -8.385248184204102 1.244947195053101 0.003921568859369
10.851212501525879 -17.479465484619141 1.677595257759094 0.003921568859369
12.958873748779297 -20.984804153442383 4.480583667755127 0.003921568859369
3.795989513397217 -5.240469455718994 0.002649542875588 0.000000000000000
11.426064491271973 -17.304729461669922 1.209617376327515 0.003921568859369
6.785604476928711 -10.055761337280273 1.473097085952759 0.000000000000000
11.279943466186523 -17.208477020263672 1.200187921524048 0.003921568859369
5.479798793792725 -7.323667526245117 0.265001207590103 0.000000000000000
4.089847564697266 -6.689976215362549 0.137455195188522 0.000000000000000
11.088769912719727 -17.177925109863281 1.192627310752869 0.003921568859369
6.061948299407959 -9.205412864685059 0.005949656944722 0.003921568859369
2.303579807281494 -3.552402734756470 0.166374027729034 0.000000000000000
10.488196372985840 -18.425437927246094 1.730047464370728 0.003921568859369
11.262202262878418 -19.996913909912109 1.874123930931091 0.003921568859369
4.190544128417969 -7.154676914215088 0.145698979496956 0.003921568859369
11.054154396057129 -19.937280654907227 1.861614108085632 0.003921568859369
5.027032852172852 -7.885415554046631 0.218175292015076 0.000000000000000
6.056459903717041 -11.075656890869141 2.278638362884521 0.003921568859369
4.736015796661377 -8.581794738769531 0.791722178459167 0.000000000000000
4.696676731109619 -8.505239486694336 1.746342301368713 0.003921568859369
9.314511299133301 -17.704299926757812 3.630567073822021 0.003921568859369
4.508121967315674 -6.579747676849365 0.230379313230515 0.000000000000000
7.324862957000732 -13.891210556030273 2.843294143676758 0.000000000000000
6.648343086242676 -10.051370620727539 0.352051347494125 0.000000000000000
10.005103111267090 -19.404741287231445 3.965452432632446 0.003921568859369
4.084067344665527 -5.999664306640625 0.044457983225584 0.000000000000000
11.723999977111816 -20.643583297729492 1.387746810913086 0.003921568859369
4.446233749389648 -8.569595336914062 0.779998838901520 0.000000000000000
10.983584403991699 -20.105545043945312 6.108616352081299 0.003921568859369
6.072328567504883 -12.778657913208008 2.560309410095215 0.003921568859369
8.301360130310059 -17.949432373046875 3.591041326522827 0.003921568859369
