# This PCD file was generated using the MATLAB® pcwrite function
# from Computer Vision Toolbox®.
# .PCD v.7 - Point Cloud Data file format
VERSION .7
FIELDS x y z intensity
SIZE 8 8 8 8
TYPE F F F F
COUNT 1 1 1 1
WIDTH 641
HEIGHT 1
VIEWPOINT 0 0 0 1 0 0 0
POINTS 641
DATA ascii
-8.229988098144531 3.496800661087036 1.034897685050964 0.000000000000000
-5.057838916778564 2.421213150024414 0.209333688020706 0.000000000000000
-10.978334426879883 5.104622840881348 1.423684716224670 0.000000000000000
-16.534235000610352 7.967354774475098 2.189487457275391 0.003921568859369
-6.923744678497314 3.232771873474121 0.877849578857422 0.000000000000000
-2.926653623580933 1.212765216827393 0.329050928354263 0.000000000000000
-11.028642654418945 6.021033763885498 2.202526330947876 0.000000000000000
-9.342242240905762 4.575304031372070 0.577215850353241 0.000000000000000
-15.738359451293945 8.874029159545898 3.205075740814209 0.003921568859369
-6.695773124694824 3.224275827407837 0.852577686309814 0.000000000000000
-23.902191162109375 13.755402565002441 4.937126636505127 0.003921568859369
-9.301055908203125 4.633503913879395 1.215547919273376 0.000000000000000
-7.506612300872803 3.682311058044434 2.108565568923950 0.000000000000000
-7.985686302185059 3.969811439514160 1.035048127174377 0.000000000000000
-11.150729179382324 6.395176410675049 2.256349802017212 0.000000000000000
-21.558624267578125 11.497281074523926 2.937041044235229 0.003921568859369
-8.846465110778809 5.079575538635254 1.773369669914246 0.000000000000000
-15.828678131103516 8.508738517761230 2.146415472030640 0.003921568859369
-7.704181194305420 4.051072120666504 1.010780215263367 0.000000000000000
-5.562016487121582 3.219807863235474 1.088316082954407 0.000000000000000
-8.506280899047852 4.615747451782227 1.130506873130798 0.000000000000000
-2.863180637359619 1.375906348228455 -0.288449525833130 0.000000000000000
-6.008799552917480 3.270361185073853 0.783108592033386 0.000000000000000
-10.595122337341309 6.703571319580078 2.202771663665771 0.000000000000000
-4.519370555877686 2.689168214797974 0.085392527282238 0.000000000000000
-7.316275119781494 4.625197410583496 0.335392534732819 0.000000000000000
-12.787825584411621 8.356604576110840 2.703772544860840 0.000000000000000
-9.111290931701660 6.068774700164795 1.916195392608643 0.000000000000000
-6.143843173980713 3.828960657119751 1.823312044143677 0.000000000000000
-11.105627059936523 7.265279769897461 1.576037168502808 0.000000000000000
-8.997855186462402 6.448681831359863 1.942116022109985 0.000000000000000
-7.048275470733643 5.110236167907715 1.512105226516724 0.000000000000000
-7.045480728149414 4.681205272674561 0.986719727516174 0.000000000000000
-13.638289451599121 9.701363563537598 4.372510910034180 0.003921568859369
-6.529699802398682 5.129017353057861 1.442688465118408 0.000000000000000
-2.264071464538574 1.290387511253357 0.065718963742256 0.000000000000000
-2.278849124908447 1.310780167579651 0.066415034234524 0.000000000000000
-8.324295997619629 6.962257862091064 2.808594703674316 0.000000000000000
-19.616945266723633 20.830591201782227 0.328269422054291 0.003921568859369
-19.447105407714844 20.790811538696289 0.326645731925964 0.003921568859369
-10.016333580017090 9.470517158508301 2.449451923370361 0.000000000000000
-19.342971801757812 21.415668487548828 0.331382095813751 0.003921568859369
-18.696937561035156 20.827806472778320 0.321414232254028 0.003921568859369
-5.089978218078613 4.453464508056641 0.788458883762360 0.000000000000000
-18.222049713134766 21.167541503906250 0.321109414100647 0.003921568859369
-18.314336776733398 21.429180145263672 0.324142336845398 0.003921568859369
-18.677604675292969 22.021652221679688 0.332112550735474 0.003921568859369
-18.481395721435547 21.939683914184570 0.329979538917542 0.003921568859369
-17.671337127685547 21.253093719482422 0.318005025386810 0.003921568859369
-17.644626617431641 21.372215270996094 0.318916231393814 0.003921568859369
-6.862226486206055 6.520660877227783 2.445648193359375 0.000000000000000
-16.950222015380859 21.269964218139648 0.313267976045609 0.003921568859369
-16.983167648315430 21.466852188110352 0.315334022045135 0.003921568859369
-16.712802886962891 21.260837554931641 0.311578840017319 0.003921568859369
-7.195020675659180 7.213354110717773 2.643369674682617 0.000000000000000
-19.241476058959961 22.554368972778320 2.394798517227173 0.003921568859369
-19.283388137817383 22.759634017944336 -0.859890878200531 0.003921568859369
-17.914409637451172 21.101493835449219 2.234593391418457 0.003921568859369
-19.236789703369141 22.865345001220703 -0.861372232437134 0.003921568859369
-18.206550598144531 23.901069641113281 0.346464574337006 0.003921568859369
-18.997755050659180 22.735420227050781 -0.853978097438812 0.003921568859369
-18.882984161376953 22.768764495849609 -0.852775573730469 0.003921568859369
-18.294168472290039 22.039138793945312 2.314005136489868 0.003921568859369
-18.713258743286133 22.720705032348633 -0.848535180091858 0.003921568859369
-15.872909545898438 21.230381011962891 0.305804967880249 0.003921568859369
-17.944982528686523 21.762454986572266 2.278610229492188 0.003921568859369
-15.836121559143066 21.335962295532227 0.306577950716019 0.003921568859369
-18.253286361694336 22.627565383911133 2.349579334259033 0.003921568859369
-18.231872558593750 22.765291213989258 -0.840683162212372 0.003921568859369
-15.743168830871582 21.682140350341797 0.309314250946045 0.003921568859369
-18.100870132446289 22.760805130004883 -0.838195145130157 0.003921568859369
-17.618423461914062 24.524452209472656 0.348707526922226 0.003921568859369
-18.139432907104492 20.788785934448242 0.634536623954773 0.003921568859369
-17.896226882934570 22.657789230346680 2.333759069442749 0.003921568859369
-19.778669357299805 22.717439651489258 -0.694631338119507 0.003921568859369
-17.548400878906250 22.366827011108398 2.297710657119751 0.003921568859369
-19.583169937133789 22.647220611572266 -0.690386950969696 0.003921568859369
-17.798727035522461 22.861434936523438 -0.835051238536835 0.003921568859369
-18.987592697143555 22.254392623901367 0.673260271549225 0.003921568859369
-17.904977798461914 23.167152404785156 2.367352008819580 0.003921568859369
-17.590841293334961 22.917844772338867 -0.832644283771515 0.003921568859369
-17.917089462280273 23.352430343627930 2.380067825317383 0.003921568859369
-19.248155593872070 22.729072570800781 -0.686723828315735 0.003921568859369
-15.494228363037109 22.491203308105469 -0.314310193061829 0.003921568859369
-18.337354660034180 21.792400360107422 1.641464233398438 0.003921568859369
-15.332764625549316 22.401741027832031 -0.312358498573303 0.003921568859369
-18.990839004516602 22.735294342041016 -0.683103859424591 0.003921568859369
-14.986112594604492 22.046056747436523 0.308225631713867 0.003921568859369
-17.448646545410156 20.991874694824219 1.572817444801331 0.003921568859369
-18.823286056518555 22.691089630126953 -0.679795682430267 0.003921568859369
-16.398246765136719 21.960243225097656 -0.157425791025162 0.003921568859369
-17.936901092529297 21.757507324218750 1.625318050384521 0.003921568859369
-18.841348648071289 22.881938934326172 3.604010820388794 0.003921568859369
-17.759006500244141 23.832710266113281 2.404595851898193 0.003921568859369
-19.508693695068359 21.619243621826172 0.166689351201057 0.003921568859369
-17.469308853149414 23.599540710449219 -0.168924927711487 0.003921568859369
-16.444011688232422 22.176097869873047 2.232315540313721 0.003921568859369
-17.038944244384766 22.999359130859375 5.170367717742920 0.003921568859369
-18.629510879516602 22.775024414062500 -0.678414106369019 0.003921568859369
-7.436220645904541 8.811000823974609 3.014142274856567 0.000000000000000
-16.905868530273438 22.983520507812500 5.153909683227539 0.003921568859369
-18.477870941162109 22.747449874877930 -0.675667464733124 0.003921568859369
-16.725801467895508 22.908914566040039 5.123826503753662 0.003921568859369
-16.803974151611328 20.940404891967773 0.618263542652130 0.003921568859369
-16.518917083740234 22.950693130493164 -0.814938008785248 0.003921568859369
-14.120591163635254 21.709245681762695 0.299720555543900 0.003921568859369
-16.282928466796875 22.787189483642578 5.059388637542725 0.003921568859369
-17.797702789306641 22.698543548583984 1.663641452789307 0.003921568859369
-18.011602401733398 22.977350234985352 3.550687551498413 0.003921568859369
-16.759517669677734 23.648981094360352 5.238000869750977 0.003921568859369
-17.821590423583984 22.731189727783203 -0.665766537189484 0.003921568859369
-18.321798324584961 21.300022125244141 0.161146566271782 0.003921568859369
-14.166993141174316 22.297494888305664 0.305889695882797 0.003921568859369
-16.127445220947266 22.894405364990234 5.059457302093506 0.003921568859369
-15.892926216125488 22.748769760131836 -0.799746215343475 0.003921568859369
-16.914222717285156 21.870948791503906 0.637244939804077 0.003921568859369
-13.854241371154785 21.985591888427734 0.301011621952057 0.003921568859369
-15.768621444702148 22.563777923583984 2.227391719818115 0.003921568859369
-16.298631668090820 23.342231750488281 5.145555973052979 0.003921568859369
-17.635488510131836 22.829441070556641 -0.665042161941528 0.003921568859369
-14.270094871520996 22.846757888793945 -0.309744685888290 0.003921568859369
-13.659357070922852 21.837234497070312 0.298403054475784 0.003921568859369
-17.881122589111328 23.322031021118164 3.575638294219971 0.003921568859369
-14.153067588806152 22.823911666870117 -0.308776438236237 0.003921568859369
-13.609527587890625 21.918655395507812 0.298944205045700 0.003921568859369
-15.737486839294434 23.026573181152344 -0.803841471672058 0.003921568859369
-14.918415069580078 21.793054580688477 -0.151273220777512 0.003921568859369
-13.672174453735352 22.198123931884766 0.302129477262497 0.003921568859369
-16.414209365844727 21.667224884033203 1.567917466163635 0.003921568859369
-16.692472457885742 22.043638229370117 3.362834692001343 0.003921568859369
-16.416706085205078 24.045095443725586 5.264000415802002 0.003921568859369
-15.443988800048828 22.765306472778320 -0.792723894119263 0.003921568859369
-17.900695800781250 21.571176528930664 0.161023378372192 0.003921568859369
-14.598088264465332 23.950895309448242 0.325113862752914 0.003921568859369
-16.407773971557617 21.825525283813477 1.575151801109314 0.003921568859369
-16.425918579101562 24.251329421997070 5.296313285827637 0.003921568859369
-15.226569175720215 22.606718063354492 -0.785341262817383 0.003921568859369
-18.494266510009766 22.464487075805664 0.167155534029007 0.003921568859369
-15.789275169372559 23.465085983276367 2.289677619934082 0.003921568859369
-16.427331924438477 24.438699722290039 5.325038909912109 0.003921568859369
-16.933691024780273 22.711843490600586 -0.652906894683838 0.003921568859369
-15.212856292724609 22.758808135986328 -0.788805305957794 0.003921568859369
-13.734517097473145 22.852958679199219 -0.306439638137817 0.003921568859369
-13.183717727661133 21.905536651611328 0.296434700489044 0.003921568859369
-16.461502075195312 22.221820831298828 3.363914728164673 0.003921568859369
-8.868068695068359 11.686713218688965 3.861954212188721 0.000000000000000
-16.134086608886719 24.174169540405273 5.255506515502930 0.003921568859369
-14.866620063781738 22.395690917968750 -0.153934627771378 0.003921568859369
-17.705970764160156 24.127099990844727 0.690525174140930 0.003921568859369
-14.526402473449707 24.409616470336914 0.329395741224289 0.003921568859369
-16.544733047485352 24.999467849731445 2.428284645080566 0.003921568859369
-16.026166915893555 24.192398071289062 5.247653961181641 0.003921568859369
-13.079896926879883 22.062444686889648 0.297470986843109 0.003921568859369
-15.909783363342285 24.178255081176758 5.234059810638428 0.003921568859369
-14.773883819580078 22.579715728759766 -0.777392983436584 0.003921568859369
-14.846373558044434 22.693492889404297 -0.155279397964478 0.003921568859369
-16.230117797851562 22.375997543334961 1.595292448997498 0.003921568859369
-16.116703033447266 22.214143753051758 3.338683843612671 0.003921568859369
-15.216288566589355 23.274646759033203 2.251443147659302 0.003921568859369
-17.317670822143555 21.767677307128906 0.160043612122536 0.003921568859369
-14.701609611511230 22.657228469848633 -0.154607146978378 0.003921568859369
-16.263488769531250 22.605936050415039 3.388412714004517 0.003921568859369
-15.493161201477051 23.911304473876953 5.152372360229492 0.003921568859369
-15.828855514526367 22.149099349975586 3.311962127685547 0.003921568859369
-14.492805480957031 22.674114227294922 -0.775425672531128 0.003921568859369
-18.358207702636719 23.442323684692383 0.171360388398170 0.003921568859369
-17.422624588012695 24.623823165893555 1.742642760276794 0.003921568859369
-15.645344734191895 22.046924591064453 3.289581537246704 0.003921568859369
-14.165269851684570 22.143905639648438 2.128288030624390 0.003921568859369
-15.396710395812988 24.127553939819336 5.177543640136719 0.003921568859369
-12.139331817626953 21.291210174560547 0.284547507762909 0.003921568859369
-13.362873077392578 21.013502120971680 2.015466928482056 0.003921568859369
-15.273203849792480 24.115968704223633 5.163952350616455 0.003921568859369
-12.738560676574707 22.586439132690430 -0.297805011272430 0.003921568859369
-15.341920852661133 21.951404571533203 0.618158817291260 0.003921568859369
-15.231732368469238 24.256748199462891 5.181923866271973 0.003921568859369
-14.869641304016113 23.853879928588867 -0.160959571599960 0.003921568859369
-15.236138343811035 21.960212707519531 0.616986811161041 0.003921568859369
-14.195271492004395 22.738006591796875 2.170998573303223 0.003921568859369
-15.153073310852051 24.318361282348633 5.184112071990967 0.003921568859369
-13.968894958496094 22.525520324707031 -0.763630568981171 0.003921568859369
-15.411811828613281 22.372125625610352 0.627221703529358 0.003921568859369
-14.831307411193848 23.956367492675781 5.097356319427490 0.003921568859369
-15.765122413635254 22.900646209716797 -0.640664696693420 0.003921568859369
-12.787223815917969 23.232513427734375 -0.304619848728180 0.003921568859369
-16.358205795288086 21.597875595092773 0.156229466199875 0.003921568859369
-15.003320693969727 21.925495147705078 3.233237981796265 0.003921568859369
-15.428355216979980 22.567680358886719 -0.629802763462067 0.003921568859369
-12.302872657775879 22.520446777343750 -0.294591307640076 0.003921568859369
-15.912822723388672 21.155755996704102 0.152715489268303 0.003921568859369
-13.406428337097168 21.941659927368164 2.082304954528809 0.003921568859369
-14.661502838134766 24.062171936035156 5.098147869110107 0.003921568859369
-15.400564193725586 22.705959320068359 -0.632099509239197 0.003921568859369
-14.929246902465820 22.149665832519531 0.616840779781342 0.003921568859369
-16.404550552368164 24.401815414428711 3.581659793853760 0.003921568859369
-14.563704490661621 24.078672409057617 5.091726303100586 0.003921568859369
-15.439063072204590 22.929462432861328 -0.636919140815735 0.003921568859369
-12.404838562011719 23.103496551513672 -0.301107674837112 0.003921568859369
-13.152024269104004 22.034877777099609 2.078500509262085 0.003921568859369
-12.197864532470703 23.097423553466797 -0.299873173236847 0.003921568859369
-15.087245941162109 22.918125152587891 3.341084957122803 0.003921568859369
-14.822800636291504 25.129268646240234 5.281202316284180 0.003921568859369
-11.967898368835449 22.832862854003906 -0.295874267816544 0.003921568859369
-14.905920028686523 25.474033355712891 -0.168967351317406 0.003921568859369
-14.897151947021484 22.788827896118164 0.629041135311127 0.003921568859369
-11.203347206115723 21.319112777709961 0.280077666044235 0.003921568859369
-14.481355667114258 22.131965637207031 3.219797849655151 0.003921568859369
-14.321380615234375 24.441259384155273 5.127018451690674 0.003921568859369
-14.547367095947266 22.426292419433594 0.617751836776733 0.003921568859369
-14.971553802490234 23.097879409790039 3.352845668792725 0.003921568859369
-13.814270973205566 23.759325027465820 4.974267005920410 0.003921568859369
-14.648709297180176 22.763889312744141 -0.623648524284363 0.003921568859369
-2.257678985595703 3.312486886978149 -0.019546663388610 0.003921568859369
-13.337063789367676 23.303035736083984 2.176578521728516 0.003921568859369
-13.659152030944824 23.882081985473633 4.980077743530273 0.003921568859369
-14.980317115783691 23.668792724609375 0.647652208805084 0.003921568859369
-12.798888206481934 22.687795639038086 -0.750525414943695 0.003921568859369
-12.825200080871582 22.735557556152344 -0.148891270160675 0.003921568859369
-13.753219604492188 21.827171325683594 0.596350550651550 0.003921568859369
-12.916841506958008 23.104557037353516 -0.151008263230324 0.003921568859369
-13.210325241088867 23.643289566040039 4.902710914611816 0.003921568859369
-14.165807723999023 22.690107345581055 -0.616141736507416 0.003921568859369
-11.353534698486328 23.017518997192383 -0.294476419687271 0.003921568859369
-10.610741615295410 21.453023910522461 0.278713643550873 0.003921568859369
-14.173384666442871 25.639585494995117 2.376785039901733 0.003921568859369
-11.327629089355469 23.171342849731445 -0.295935332775116 0.003921568859369
-13.638860702514648 22.167078018188477 0.601836144924164 0.003921568859369
-12.312803268432617 22.549272537231445 -0.740138173103333 0.003921568859369
-11.241609573364258 23.198394775390625 -0.295762121677399 0.003921568859369
-12.763763427734375 23.403966903686523 -0.152028143405914 0.003921568859369
-14.752419471740723 24.226566314697266 0.656186103820801 0.003921568859369
-14.161221504211426 23.225156784057617 3.314632415771484 0.003921568859369
-13.268753051757812 24.359661102294922 2.249982833862305 0.003921568859369
-12.927144050598145 23.709762573242188 4.889185905456543 0.003921568859369
-12.281645774841309 22.681270599365234 -0.146945074200630 0.003921568859369
-12.892800331115723 21.251718521118164 0.574789404869080 0.003921568859369
-14.144359588623047 23.382545471191406 3.330260038375854 0.003921568859369
-13.192612648010254 24.419296264648438 5.026234626770020 0.003921568859369
-15.056531906127930 22.531139373779297 0.156993746757507 0.003921568859369
-12.165582656860352 22.651508331298828 -0.146444454789162 0.003921568859369
-10.028778076171875 20.978612899780273 0.270976096391678 0.003921568859369
-13.230496406555176 24.703578948974609 2.273478746414185 0.003921568859369
-11.710334777832031 24.880290985107422 -0.315749585628510 0.003921568859369
-10.570252418518066 22.366975784301758 0.288312286138535 0.003921568859369
-11.512840270996094 21.574758529663086 1.982333183288574 0.003921568859369
-13.041604042053223 24.546348571777344 5.034197807312012 0.003921568859369
-11.959758758544922 22.650470733642578 -0.738028347492218 0.003921568859369
-10.338251113891602 22.072151184082031 0.284154474735260 0.003921568859369
-13.096761703491211 22.134904861450195 1.487253427505493 0.003921568859369
-14.950863838195801 25.368835449218750 3.591552019119263 0.003921568859369
-11.443779945373535 21.636220932006836 1.984639644622803 0.003921568859369
-13.745532989501953 26.148004531860352 5.353458881378174 0.003921568859369
-10.280066490173340 22.159538269042969 0.284839034080505 0.003921568859369
-13.049085617065430 22.240268707275391 1.491238355636597 0.003921568859369
-15.137365341186523 23.370309829711914 0.161476075649261 0.003921568859369
-14.656354904174805 25.264329910278320 0.676277399063110 0.003921568859369
-14.150001525878906 24.576366424560547 0.656625270843506 0.003921568859369
-9.676666259765625 21.201677322387695 0.271870523691177 0.003921568859369
-13.418728828430176 23.266180038452148 3.274428367614746 0.003921568859369
-11.342234611511230 22.013105392456055 2.008487224578857 0.003921568859369
-7.661408901214600 12.966193199157715 3.982637643814087 0.000000000000000
-13.195097923278809 25.742160797119141 5.242381095886230 0.003921568859369
-14.055541038513184 24.606561660766602 3.456231832504272 0.003921568859369
-10.447857856750488 20.388374328613281 4.145533561706543 0.003921568859369
-13.140713691711426 22.959613800048828 -0.609333813190460 0.003921568859369
-9.659228324890137 21.570962905883789 0.275794744491577 0.003921568859369
-13.294237136840820 23.425991058349609 3.284243822097778 0.003921568859369
-12.335179328918457 24.437341690063477 4.959803581237793 0.003921568859369
-9.529776573181152 21.465303421020508 0.274101197719574 0.003921568859369
-10.734735488891602 21.338535308837891 1.937323927879333 0.003921568859369
-4.210928916931152 6.962338924407959 2.127743959426880 0.000000000000000
-10.286558151245117 20.410163879394531 4.136264801025391 0.003921568859369
-3.462485074996948 5.638823509216309 0.002388326218352 0.000000000000000
-11.140434265136719 25.504636764526367 -0.319518864154816 0.003921568859369
-14.182053565979004 22.724065780639648 0.155597701668739 0.003921568859369
-13.854331970214844 24.843509674072266 3.469984531402588 0.003921568859369
-10.680873870849609 21.417575836181641 1.941259384155273 0.003921568859369
-10.199938774108887 20.412569046020508 4.129838466644287 0.003921568859369
-11.228422164916992 22.765472412109375 -0.731359779834747 0.003921568859369
-12.799057960510254 26.065795898437500 5.264088153839111 0.003921568859369
-12.612929344177246 22.932357788085938 0.606203675270081 0.003921568859369
-11.088440895080566 22.871177673339844 -0.732343554496765 0.003921568859369
-11.208040237426758 23.126852035522461 -0.146096900105476 0.003921568859369
-14.201977729797363 26.125215530395508 3.628968000411987 0.003921568859369
-11.592471122741699 23.945947647094727 4.820797920227051 0.003921568859369
-11.143844604492188 23.208942413330078 2.089767694473267 0.003921568859369
-11.344395637512207 23.640312194824219 4.751244068145752 0.003921568859369
-11.047122001647949 23.236192703247070 -0.146239370107651 0.003921568859369
-10.155861854553223 21.289028167724609 1.914079070091248 0.003921568859369
-11.340196609497070 23.871448516845703 4.790017604827881 0.003921568859369
-12.116802215576172 22.780359268188477 0.597973406314850 0.003921568859369
-11.116308212280273 21.005895614624023 0.550698220729828 0.003921568859369
-9.344209671020508 22.789762496948242 0.287855923175812 0.003921568859369
-9.271638870239258 22.839569091796875 -0.282385319471359 0.003921568859369
-11.109682083129883 21.175210952758789 0.554167926311493 0.003921568859369
-9.988054275512695 21.504863739013672 1.924582719802856 0.003921568859369
-12.084060668945312 26.203969955444336 5.233498096466064 0.003921568859369
-9.198935508728027 23.141736984252930 -0.285296708345413 0.003921568859369
-9.075478553771973 22.816390991210938 0.287114232778549 0.003921568859369
-10.749094009399414 23.665981292724609 2.111119985580444 0.003921568859369
-10.744208335876465 20.995615005493164 0.546730697154999 0.003921568859369
-8.985681533813477 22.807596206665039 0.286678284406662 0.003921568859369
-12.439776420593262 24.436761856079102 1.588504314422607 0.003921568859369
-11.648584365844727 22.832469940185547 -0.590232014656067 0.003921568859369
-11.233750343322754 22.182289123535156 3.033231496810913 0.003921568859369
-9.759910583496094 21.804567337036133 4.328927040100098 0.003921568859369
-11.037209510803223 21.975381851196289 1.423982620239258 0.003921568859369
-13.181709289550781 26.404649734497070 3.604006052017212 0.003921568859369
-10.633551597595215 24.071580886840820 4.771636009216309 0.003921568859369
-10.805682182312012 21.690483093261719 0.561977386474609 0.003921568859369
-9.103850364685059 23.877052307128906 0.298945248126984 0.003921568859369
-12.612157821655273 22.748798370361328 0.151767000555992 0.003921568859369
-11.902536392211914 24.193391799926758 0.625515699386597 0.003921568859369
-11.004259109497070 22.301671981811523 3.034302711486816 0.003921568859369
-10.383480072021484 23.946283340454102 4.732960224151611 0.003921568859369
-11.247994422912598 22.817544937133789 -0.585722684860229 0.003921568859369
-9.983101844787598 23.216115951538086 2.053061962127686 0.003921568859369
-11.151240348815918 22.819087982177734 -0.584758579730988 0.003921568859369
-10.089772224426270 23.731218338012695 4.677037715911865 0.003921568859369
-11.249749183654785 20.747589111328125 0.683393359184265 0.003921568859369
-11.823559761047363 24.710298538208008 3.345351457595825 0.003921568859369
-9.427851676940918 22.336299896240234 1.969779849052429 0.003921568859369
-9.379578590393066 22.214593887329102 4.372136592864990 0.003921568859369
-11.003339767456055 22.940725326538086 -0.585926592350006 0.003921568859369
-12.132115364074707 22.625888824462891 0.149984121322632 0.003921568859369
-11.203044891357422 20.835048675537109 0.685050904750824 0.003921568859369
-9.314254760742188 22.278884887695312 1.961999654769897 0.003921568859369
-9.461575508117676 22.880521774291992 -0.713546931743622 0.003921568859369
-12.695368766784668 23.915170669555664 0.158135622739792 0.003921568859369
-10.171953201293945 21.535840988159180 0.552748382091522 0.003921568859369
-8.120464324951172 17.014694213867188 5.010029792785645 0.003921568859369
-9.288105964660645 22.670934677124023 1.991030335426331 0.003921568859369
-9.730150222778320 23.794704437255859 4.663537979125977 0.003921568859369
-11.173716545104980 21.321773529052734 0.697348713874817 0.003921568859369
-10.701459884643555 26.544443130493164 2.327624082565308 0.003921568859369
-9.795226097106934 24.208635330200195 4.738192558288574 0.003921568859369
-10.326905250549316 22.488479614257812 1.434273600578308 0.003921568859369
-7.871683120727539 22.974428176879883 0.284631818532944 0.003921568859369
-10.893045425415039 21.122575759887695 0.688572824001312 0.003921568859369
-10.803258895874023 23.789430618286133 3.191038846969604 0.003921568859369
-8.756370544433594 21.978883743286133 1.922767400741577 0.003921568859369
-10.121254920959473 25.835859298706055 2.256771802902222 0.003921568859369
-8.818609237670898 22.374511718750000 4.362307071685791 0.003921568859369
-10.764880180358887 24.147924423217773 3.229614257812500 0.003921568859369
-10.575900077819824 27.317377090454102 2.383105754852295 0.003921568859369
-10.636878013610840 21.350059509277344 0.691369473934174 0.003921568859369
-10.027822494506836 22.882356643676758 3.051268577575684 0.003921568859369
-10.586683273315430 21.448904037475586 0.693404912948608 0.003921568859369
-10.837487220764160 25.061321258544922 3.336859464645386 0.003921568859369
-8.597879409790039 22.762485504150391 4.415418148040771 0.003921568859369
-10.019499778747559 27.010095596313477 5.232019424438477 0.003921568859369
-9.763158798217773 22.723876953125000 -0.569537758827209 0.003921568859369
-9.485914230346680 22.271432876586914 0.562476694583893 0.003921568859369
-9.538235664367676 22.398603439331055 1.411869645118713 0.003921568859369
-9.686798095703125 22.763896942138672 -0.569692790508270 0.003921568859369
-8.453786849975586 23.124227523803711 -0.709791719913483 0.003921568859369
-7.067056179046631 22.651445388793945 0.278403401374817 0.003921568859369
-10.564793586730957 21.993619918823242 0.707567512989044 0.003921568859369
-11.453775405883789 27.340543746948242 3.624581098556519 0.003921568859369
-7.468199253082275 24.338617324829102 0.298665404319763 0.003921568859369
-10.473278045654297 25.184516906738281 3.334073781967163 0.003921568859369
-9.451673507690430 26.589065551757812 2.296690940856934 0.003921568859369
-7.427844047546387 20.654293060302734 3.982162952423096 0.003921568859369
-9.403676033020020 22.748584747314453 -0.566808640956879 0.003921568859369
-11.581790924072266 24.881875991821289 0.160835757851601 0.003921568859369
-9.962410926818848 21.284109115600586 0.681605517864227 0.003921568859369
-8.909370422363281 21.721399307250977 1.361754059791565 0.003921568859369
-10.030591964721680 21.842199325561523 0.141126334667206 0.003921568859369
-7.399805068969727 21.302019119262695 1.834169268608093 0.003921568859369
-6.857349395751953 23.779394149780273 0.290596842765808 0.003921568859369
-7.139976978302002 20.754400253295898 3.982990503311157 0.003921568859369
-9.454157829284668 24.086915969848633 6.899851799011230 0.003921568859369
-8.705783843994141 25.868543624877930 4.958224296569824 0.003921568859369
-9.257962226867676 23.824254989624023 0.594499051570892 0.003921568859369
-3.536675930023193 8.467448234558105 2.424167633056641 0.000000000000000
-7.302557945251465 21.768596649169922 4.168185234069824 0.003921568859369
-7.220955848693848 21.807659149169922 4.170968055725098 0.003921568859369
-9.378721237182617 21.602397918701172 0.683605313301086 0.003921568859369
-8.579236984252930 22.754913330078125 1.411661267280579 0.003921568859369
-10.419977188110352 27.855489730834961 3.639013767242432 0.003921568859369
-9.174823760986328 24.400241851806641 6.953707218170166 0.003921568859369
-9.542956352233887 22.192247390747070 0.701317846775055 0.003921568859369
-9.853400230407715 26.541700363159180 7.555268764495850 0.003921568859369
-7.334777832031250 28.235105514526367 0.342545658349991 0.003921568859369
-9.401823043823242 22.068712234497070 0.696460127830505 0.003921568859369
-9.412385940551758 25.593112945556641 3.335828304290771 0.003921568859369
-6.932456016540527 21.929040908813477 4.176817893981934 0.003921568859369
-10.848219871520996 25.873811721801758 0.164759591221809 0.003921568859369
-8.159101486206055 26.379886627197266 5.018612861633301 0.003921568859369
-9.849450111389160 27.457269668579102 0.678985893726349 0.003921568859369
-10.141244888305664 28.301366806030273 1.746775627136230 0.003921568859369
-9.478201866149902 26.374532699584961 7.479793071746826 0.003921568859369
-9.796465873718262 28.240045547485352 3.658767700195312 0.003921568859369
-7.377199172973633 24.995656967163086 4.736714363098145 0.003921568859369
-2.116886615753174 5.296914577484131 0.687511801719666 0.000000000000000
-8.299532890319824 24.044330596923828 6.787266254425049 0.003921568859369
-8.169204711914062 28.218589782714844 5.341719627380371 0.003921568859369
-8.176045417785645 23.950624465942383 6.753129482269287 0.003921568859369
-7.511752128601074 26.195497512817383 4.954226493835449 0.003921568859369
-8.124842643737793 24.081701278686523 6.783063888549805 0.003921568859369
-7.485634803771973 26.464813232421875 5.000767707824707 0.003921568859369
-6.198230743408203 22.022771835327148 1.863377690315247 0.003921568859369
-8.076835632324219 24.251237869262695 6.822441577911377 0.003921568859369
-7.024949073791504 25.137865066528320 4.745321273803711 0.003921568859369
-7.120573520660400 21.774694442749023 2.802643537521362 0.003921568859369
-8.440130233764648 26.020292282104492 7.303958415985107 0.003921568859369
-7.176122665405273 22.202344894409180 0.543547332286835 0.003921568859369
-7.705043792724609 23.918111801147461 6.707601070404053 0.003921568859369
-6.740962982177734 21.053363800048828 5.897951126098633 0.003921568859369
-7.066701412200928 22.413675308227539 2.875864505767822 0.003921568859369
-5.182295799255371 19.545192718505859 3.673992633819580 0.003921568859369
-7.029986381530762 22.580463409423828 0.551086962223053 0.003921568859369
-5.958921909332275 23.041902542114258 1.939417362213135 0.003921568859369
-7.360201358795166 23.691101074218750 6.622788906097412 0.003921568859369
-6.742050647735596 22.152877807617188 6.180723667144775 0.003921568859369
-6.059195041656494 24.166860580444336 4.530977725982666 0.003921568859369
-5.700275897979736 23.022254943847656 4.312831401824951 0.003921568859369
-6.749068737030029 23.127853393554688 0.561631917953491 0.003921568859369
-5.021555900573730 26.862270355224609 0.321653217077255 0.003921568859369
-4.807437419891357 19.832866668701172 1.662923812866211 0.003921568859369
-6.434472084045410 21.983915328979492 6.115449428558350 0.003921568859369
-6.652496337890625 23.092185974121094 0.560261547565460 0.003921568859369
-6.948640346527100 24.522886276245117 6.808206558227539 0.003921568859369
-5.617394924163818 19.851591110229492 5.506694316864014 0.003921568859369
-5.619488716125488 24.666645050048828 4.602783203125000 0.003921568859369
-5.014993667602539 22.216327667236328 4.142762660980225 0.003921568859369
-5.809458732604980 21.161315917968750 1.276048660278320 0.003921568859369
-6.174398899078369 22.569330215454102 6.249153614044189 0.003921568859369
-4.938898563385010 22.220115661621094 4.140634536743164 0.003921568859369
-5.742680549621582 21.223756790161133 1.278635382652283 0.003921568859369
-5.355426311492920 24.693464279174805 4.597845554351807 0.003921568859369
-5.911478042602539 22.189685821533203 6.133237361907959 0.003921568859369
-7.114352226257324 22.596132278442383 0.140135467052460 0.003921568859369
-7.381169319152832 28.484367370605469 0.686422467231750 0.003921568859369
-5.151338100433350 19.444478988647461 5.370131015777588 0.003921568859369
-7.121291637420654 22.909425735473633 0.698344767093658 0.003921568859369
-4.508131980895996 22.072511672973633 4.099135875701904 0.003921568859369
-5.003313064575195 19.730588912963867 5.435434818267822 0.003921568859369
-4.270414352416992 21.700742721557617 1.804102540016174 0.003921568859369
-4.218327045440674 21.847791671752930 1.815201640129089 0.003921568859369
-3.346139907836914 24.256065368652344 0.288809359073639 0.003921568859369
-3.136386632919312 23.193748474121094 0.276172637939453 0.003921568859369
-4.947257518768311 21.167140960693359 5.808195114135742 0.003921568859369
-3.809188842773438 21.737020492553711 4.017370223999023 0.003921568859369
-2.615210533142090 22.896986007690430 0.272196382284164 0.003921568859369
-1.136903285980225 6.145886898040771 0.508734345436096 0.000000000000000
-5.654971599578857 23.677513122558594 0.709665834903717 0.003921568859369
-5.900017738342285 25.178024291992188 0.153326809406281 0.003921568859369
-3.107488632202148 23.035120010375977 1.898185372352600 0.003921568859369
-6.009409427642822 26.104082107543945 0.158795133233070 0.003921568859369
-2.982099533081055 22.660587310791016 1.866609454154968 0.003921568859369
-4.228833198547363 23.837974548339844 6.476331710815430 0.003921568859369
-2.074510335922241 28.568162918090820 0.338176488876343 0.003921568859369
-3.101121664047241 25.118675231933594 2.067340373992920 0.003921568859369
-3.612583160400391 20.497385025024414 5.566118240356445 0.003921568859369
-1.806900024414062 25.659112930297852 0.303926974534988 0.003921568859369
-5.056302547454834 22.833299636840820 0.682049632072449 0.003921568859369
-2.667928218841553 21.887573242187500 4.017574787139893 0.003921568859369
-3.074649572372437 26.624994277954102 2.189568758010864 0.003921568859369
-5.358693599700928 25.201992034912109 0.152976796030998 0.003921568859369
-2.498753786087036 21.778438568115234 3.994652032852173 0.003921568859369
-3.651886940002441 22.852003097534180 2.839341402053833 0.003921568859369
-2.616856813430786 23.869361877441406 4.376388549804688 0.003921568859369
-3.730375051498413 25.274902343750000 1.489267349243164 0.003921568859369
-3.459350347518921 23.256017684936523 6.292053222656250 0.003921568859369
-2.231703042984009 24.318981170654297 1.995729684829712 0.003921568859369
-3.435496330261230 24.326894760131836 6.575844764709473 0.003921568859369
-3.525708436965942 25.789394378662109 3.195074081420898 0.003921568859369
-2.306228399276733 26.498481750488281 4.849585056304932 0.003921568859369
-3.335278272628784 24.902561187744141 0.587721645832062 0.003921568859369
-0.936380326747894 27.082511901855469 0.320308297872543 0.003921568859369
-2.835178375244141 20.761283874511719 5.607636451721191 0.003921568859369
-3.624731779098511 28.114011764526367 0.662995696067810 0.003921568859369
-2.765392065048218 20.792961120605469 5.613871574401855 0.003921568859369
-0.747479140758514 27.098161697387695 0.320503562688828 0.003921568859369
-2.948580980300903 23.051439285278320 2.852725744247437 0.003921568859369
-1.998169660568237 25.904645919799805 4.737680435180664 0.003921568859369
-3.089256763458252 25.061155319213867 3.100059509277344 0.003921568859369
-2.648982048034668 21.850194931030273 1.283616185188293 0.003921568859369
-2.536543369293213 20.783624649047852 5.604618072509766 0.003921568859369
-2.873883962631226 24.796300888061523 0.584042370319366 0.003921568859369
-2.501287937164307 21.940677642822266 1.287927031517029 0.003921568859369
-2.627229452133179 23.196542739868164 2.866318225860596 0.003921568859369
-2.829678773880005 25.211332321166992 6.793350696563721 0.003921568859369
-1.486003875732422 23.170661926269531 4.234398841857910 0.003921568859369
-1.402814269065857 24.988090515136719 2.046302795410156 0.003921568859369
-1.327318429946899 23.249076843261719 4.247365474700928 0.003921568859369
-1.187721967697144 23.891546249389648 1.956094145774841 0.003921568859369
-3.286624670028687 22.630619049072266 0.667919754981995 0.003921568859369
-1.108996033668518 24.161567687988281 1.977950215339661 0.003921568859369
-1.083518862724304 23.372642517089844 4.268252849578857 0.003921568859369
-3.280201911926270 23.175758361816406 0.683688402175903 0.003921568859369
-1.025177359580994 24.040559768676758 1.967871427536011 0.003921568859369
-2.473096847534180 27.438596725463867 7.379652500152588 0.003921568859369
-3.631311655044556 26.652648925781250 0.160048454999924 0.003921568859369
-1.046558618545532 28.044176101684570 2.295050382614136 0.003921568859369
-0.926370263099670 23.452112197875977 4.281937122344971 0.003921568859369
-2.203542947769165 26.390525817871094 1.545224308967590 0.003921568859369
-2.093217134475708 26.040927886962891 6.998627662658691 0.003921568859369
-0.846105575561523 27.519901275634766 5.023543834686279 0.003921568859369
-2.125392198562622 27.957756042480469 3.444623708724976 0.003921568859369
-0.741697072982788 27.002244949340820 4.928811073303223 0.003921568859369
-1.607017040252686 21.286870956420898 2.622494935989380 0.003921568859369
-0.571534812450409 21.774343490600586 3.974603176116943 0.003921568859369
-1.707810759544373 24.311483383178711 2.994233131408691 0.003921568859369
-0.538066864013672 26.549829483032227 2.172137737274170 0.003921568859369
-1.630647897720337 22.964796066284180 6.167965412139893 0.003921568859369
-0.495563328266144 21.779098510742188 3.975341558456421 0.003921568859369
-0.681995391845703 7.069015502929688 0.414891034364700 0.003921568859369
-1.834496378898621 28.270305633544922 7.590919494628906 0.003921568859369
-1.676040530204773 27.130325317382812 1.586421012878418 0.003921568859369
-0.347448140382767 26.219966888427734 2.145142316818237 0.003921568859369
-1.496680617332458 23.571817398071289 6.328530311584473 0.003921568859369
-1.272762179374695 20.525785446166992 2.526961803436279 0.003921568859369
-0.260500967502594 26.212011337280273 2.144514322280884 0.003921568859369
-1.200750827789307 20.521129608154297 2.526005744934082 0.003921568859369
-1.323102116584778 23.282207489013672 6.248830795288086 0.003921568859369
-1.258245468139648 23.816839218139648 2.930931568145752 0.003921568859369
-0.095762670040131 23.628580093383789 4.312849521636963 0.003921568859369
-1.334513187408447 28.017427444458008 3.447089195251465 0.003921568859369
0.036258488893509 28.079803466796875 2.297423362731934 0.003921568859369
-1.164113521575928 23.385305404663086 6.274766445159912 0.003921568859369
-1.231820344924927 28.021032333374023 3.447117090225220 0.003921568859369
0.054843574762344 22.665100097656250 1.854906082153320 0.003921568859369
-1.260138392448425 28.836835861206055 7.736069679260254 0.003921568859369
-1.139121294021606 28.031906127929688 3.448117971420288 0.003921568859369
0.130236417055130 22.675758361816406 1.855903744697571 0.003921568859369
-1.157766580581665 28.615873336791992 7.676028728485107 0.003921568859369
-2.410385608673096 27.983371734619141 0.167337030172348 0.003921568859369
-0.958935558795929 24.891624450683594 6.676661968231201 0.003921568859369
-2.310389518737793 28.026828765869141 0.167577505111694 0.003921568859369
-0.845870018005371 23.980777740478516 2.949583053588867 0.003921568859369
-0.876712381839752 25.287860870361328 6.782322406768799 0.003921568859369
-0.811781287193298 26.860698699951172 1.568987369537354 0.003921568859369
-0.755825161933899 23.970582962036133 2.947960138320923 0.003921568859369
-1.886098742485046 24.603195190429688 0.147149905562401 0.003921568859369
-0.723994374275208 27.141675949096680 7.278251171112061 0.003921568859369
-2.021737813949585 28.213760375976562 0.168457657098770 0.003921568859369
-0.654162049293518 29.213426589965820 3.591965675354004 0.003921568859369
-0.620203077793121 26.424449920654297 7.085646629333496 0.003921568859369
2.127672672271729 27.154354095458984 0.322525501251221 0.003921568859369
-0.527705669403076 26.398397445678711 7.078421115875244 0.003921568859369
0.836237430572510 28.222887039184570 5.154949188232422 0.003921568859369
-0.435277104377747 26.348842620849609 7.064981937408447 0.003921568859369
0.811359882354736 23.375579833984375 1.914871811866760 0.003921568859369
2.470915794372559 27.720596313476562 0.329607814550400 0.003921568859369
0.803013682365417 21.677766799926758 3.961861610412598 0.003921568859369
1.233568668365479 28.267290115356445 5.166536331176758 0.003921568859369
-1.108931899070740 22.106809616088867 0.647642970085144 0.003921568859369
-1.256886959075928 28.806676864624023 0.171945586800575 0.003921568859369
1.371901750564575 25.870363235473633 4.731550216674805 0.003921568859369
0.234056740999222 27.900671005249023 3.431201457977295 0.003921568859369
1.456615328788757 25.781963348388672 4.716496467590332 0.003921568859369
-0.808481216430664 23.091550827026367 0.676029920578003 0.003921568859369
1.799688100814819 27.741022109985352 2.275937557220459 0.003921568859369
0.303616315126419 22.501319885253906 6.035550594329834 0.003921568859369
-0.662809133529663 23.806232452392578 0.696845114231110 0.003921568859369
-0.583300352096558 24.091289520263672 0.705153226852417 0.003921568859369
2.091710329055786 27.802125930786133 5.092589855194092 0.003921568859369
0.651791691780090 23.325370788574219 2.870562076568604 0.003921568859369
2.078236341476440 26.495868682861328 4.854981422424316 0.003921568859369
0.936656475067139 28.129484176635742 3.461900711059570 0.003921568859369
1.880100250244141 23.381803512573242 1.921456933021545 0.003921568859369
1.011860609054565 27.617853164672852 0.648048102855682 0.003921568859369
1.033368825912476 28.093345642089844 3.458021879196167 0.003921568859369
1.026397585868835 25.994997024536133 3.200438022613525 0.003921568859369
1.418674349784851 27.952442169189453 1.635732054710388 0.003921568859369
1.562957525253296 25.723968505859375 6.914904117584229 0.003921568859369
1.366819143295288 21.981021881103516 2.710533857345581 0.003921568859369
3.295238494873047 27.999837875366211 5.151508808135986 0.003921568859369
1.752041578292847 24.721426010131836 6.650866508483887 0.003921568859369
1.719577670097351 23.320650100708008 6.275966167449951 0.003921568859369
1.889632463455200 24.393636703491211 0.574252426624298 0.003921568859369
1.948940038681030 25.080793380737305 6.751368045806885 0.003921568859369
2.214290142059326 25.070095062255859 0.590768158435822 0.003921568859369
2.015997171401978 23.072357177734375 2.851181507110596 0.003921568859369
2.147945404052734 24.414108276367188 6.578467369079590 0.003921568859369
1.829136848449707 20.462123870849609 5.515849113464355 0.003921568859369
4.494861602783203 27.389614105224609 2.274471282958984 0.003921568859369
4.755264282226562 28.274877548217773 2.349461555480957 0.003921568859369
3.197576999664307 22.139087677001953 0.525477230548859 0.003921568859369
3.484762668609619 22.937459945678711 6.231418609619141 0.003921568859369
6.525840282440186 25.199499130249023 0.308885842561722 0.003921568859369
7.569243907928467 27.180101394653320 0.334749191999435 0.003921568859369
7.659606933593750 27.137290954589844 0.334580093622208 0.003921568859369
5.017760753631592 27.434780120849609 3.434577226638794 0.003921568859369
4.974997997283936 26.731369018554688 3.348719596862793 0.003921568859369
4.121568202972412 21.948966979980469 6.000404357910156 0.003921568859369
2.935280561447144 20.891143798828125 0.618719935417175 0.003921568859369
4.779410362243652 24.370199203491211 6.671586513519287 0.003921568859369
4.655357360839844 22.951450347900391 2.885754108428955 0.003921568859369
5.851338863372803 22.990556716918945 4.340961456298828 0.003921568859369
8.268301963806152 25.816900253295898 0.321728825569153 0.003921568859369
6.526445865631104 24.498411178588867 2.079593181610107 0.003921568859369
3.414111852645874 20.634176254272461 0.613685846328735 0.003921568859369
6.232701301574707 23.119409561157227 1.964540123939514 0.003921568859369
6.212218761444092 22.739984512329102 1.934240102767944 0.003921568859369
7.695116043090820 22.961969375610352 0.287477582693100 0.003921568859369
4.301251411437988 24.115802764892578 0.718172192573547 0.003921568859369
4.339293956756592 23.858255386352539 0.145230874419212 0.003921568859369
9.073015213012695 26.654012680053711 0.333889842033386 0.003921568859369
8.061393737792969 23.503499984741211 0.294949471950531 0.003921568859369
7.061401367187500 23.509838104248047 2.013974189758301 0.003921568859369
8.932109832763672 24.860492706298828 0.313526809215546 0.003921568859369
9.875798225402832 27.129829406738281 0.342473477125168 0.003921568859369
5.971182823181152 23.091873168945312 0.560699641704559 0.003921568859369
5.934146404266357 22.637935638427734 0.550238490104675 0.003921568859369
6.348163604736328 23.831302642822266 1.444223999977112 0.003921568859369
8.965089797973633 27.920312881469727 5.364845752716064 0.003921568859369
10.020604133605957 26.359796524047852 0.334343910217285 0.003921568859369
7.679596900939941 23.703855514526367 2.044132947921753 0.003921568859369
7.754660606384277 23.653478622436523 2.042192220687866 0.003921568859369
8.025591850280762 23.372735977172852 -0.139505565166473 0.003921568859369
6.684728622436523 23.114475250244141 1.409120440483093 0.003921568859369
8.786748886108398 25.532592773437500 2.215015649795532 0.003921568859369
8.018475532531738 23.095161437988281 -0.137990638613701 0.003921568859369
9.180539131164551 22.771377563476562 0.291521430015564 0.003921568859369
9.179961204528809 22.546457290649414 0.289085388183594 0.003921568859369
9.246202468872070 22.484025955200195 0.288722246885300 0.003921568859369
5.725400924682617 23.101650238037109 0.698270499706268 0.003921568859369
8.168952941894531 26.719196319580078 1.635698795318604 0.003921568859369
8.691875457763672 23.922559738159180 -0.143659204244614 0.003921568859369
8.472851753234863 23.335388183593750 2.037435293197632 0.003921568859369
8.255066871643066 26.347772598266602 0.648792862892151 0.003921568859369
9.765309333801270 22.381345748901367 0.289814889431000 0.003921568859369
6.307715415954590 23.013448715209961 0.700007021427155 0.003921568859369
7.762100219726562 23.672172546386719 1.458889126777649 0.003921568859369
8.123465538024902 28.644725799560547 0.178000897169113 0.003921568859369
9.185874938964844 27.255052566528320 0.675558388233185 0.003921568859369
11.986462593078613 26.613838195800781 0.346051841974258 0.003921568859369
6.628674030303955 23.201564788818359 0.144580885767937 0.003921568859369
8.638770103454590 25.379329681396484 0.629929721355438 0.003921568859369
10.613389968872070 22.158248901367188 0.291466116905212 0.003921568859369
11.468352317810059 27.210395812988281 2.421733617782593 0.003921568859369
11.129010200500488 26.152675628662109 -0.160878330469131 0.003921568859369
9.622001647949219 22.457799911499023 2.005191326141357 0.003921568859369
10.583160400390625 21.530740737915039 0.284720391035080 0.003921568859369
10.584338188171387 21.346599578857422 0.282801210880280 0.003921568859369
7.193594455718994 22.221378326416016 0.685344636440277 0.003921568859369
10.942747116088867 25.025537490844727 2.240885496139526 0.003921568859369
7.491972923278809 22.825637817382812 0.704866111278534 0.003921568859369
