# This PCD file was generated using the MATLAB® pcwrite function
# from Computer Vision Toolbox®.
# .PCD v.7 - Point Cloud Data file format
VERSION .7
FIELDS x y z intensity
SIZE 8 8 8 8
TYPE F F F F
COUNT 1 1 1 1
WIDTH 650
HEIGHT 1
VIEWPOINT 0 0 0 1 0 0 0
POINTS 650
DATA ascii
-10.139488220214844 24.562494277954102 4.825322151184082 0.003921568859369
-8.404923439025879 20.394857406616211 4.001386165618896 0.003921568859369
-9.560195922851562 20.740020751953125 2.790530204772949 0.003921568859369
-9.071132659912109 19.631624221801758 5.757242679595947 0.003921568859369
-10.152797698974609 25.368333816528320 4.963274955749512 0.003921568859369
-8.679152488708496 21.761125564575195 4.252115249633789 0.003921568859369
-8.295410156250000 20.972320556640625 4.092648506164551 0.003921568859369
-9.087622642517090 27.372875213623047 0.342348515987396 0.003921568859369
-8.989369392395020 20.035827636718750 2.683443307876587 0.003921568859369
-9.311918258666992 23.953504562377930 4.667869091033936 0.003921568859369
-12.666665077209473 25.364307403564453 0.171206802129745 0.003921568859369
-10.731310844421387 24.329738616943359 0.622384190559387 0.003921568859369
-9.272527694702148 20.895715713500977 6.090737342834473 0.003921568859369
-8.386144638061523 21.698949813842773 4.223229408264160 0.003921568859369
-11.800463676452637 27.107883453369141 0.692260742187500 0.003921568859369
-7.902226448059082 20.607641220092773 1.797042846679688 0.003921568859369
-9.257985115051270 21.065464019775391 6.131153583526611 0.003921568859369
-8.717306137084961 22.843233108520508 4.440175056457520 0.003921568859369
-12.429177284240723 25.322954177856445 0.170387402176857 0.003921568859369
-11.668838500976562 27.058959960937500 0.690018117427826 0.003921568859369
-9.006572723388672 23.896562576293945 2.080958127975464 0.003921568859369
-10.146001815795898 23.625450134277344 0.601847469806671 0.003921568859369
-11.328650474548340 26.740829467773438 0.680084407329559 0.003921568859369
-7.085728168487549 22.694675445556641 0.282361239194870 0.003921568859369
-8.664552688598633 23.979158401489258 2.078054904937744 0.003921568859369
-10.045179367065430 24.091711044311523 6.962154865264893 0.003921568859369
-8.866969108581543 21.367170333862305 6.166431903839111 0.003921568859369
-6.792664051055908 22.858001708984375 0.283290147781372 0.003921568859369
-10.495200157165527 25.986679077148438 7.479203224182129 0.003921568859369
-8.045633316040039 22.948413848876953 4.417969703674316 0.003921568859369
-10.354278564453125 25.893125534057617 1.623393893241882 0.003921568859369
-8.279468536376953 23.928144454956055 2.064054727554321 0.003921568859369
-8.866050720214844 27.656707763671875 5.282706260681152 0.003921568859369
-7.783629417419434 21.190139770507812 6.021295547485352 0.003921568859369
-7.338619709014893 23.555147171020508 4.485380172729492 0.003921568859369
-7.625490188598633 21.481334686279297 6.081412315368652 0.003921568859369
-6.225873947143555 25.698730468750000 0.314069449901581 0.003921568859369
-8.668099403381348 24.890876770019531 3.228726387023926 0.003921568859369
-1.358880281448364 3.531229019165039 0.301696896553040 0.003921568859369
-6.844033718109131 23.444547653198242 1.992309451103210 0.003921568859369
-6.715231418609619 22.977390289306641 4.353053569793701 0.003921568859369
-6.683318138122559 28.580265045166016 0.348612636327744 0.003921568859369
-6.650141716003418 23.361019134521484 1.981553673744202 0.003921568859369
-7.182191371917725 21.156303405761719 5.962112426757812 0.003921568859369
-6.954973697662354 25.194667816162109 4.755338191986084 0.003921568859369
-7.257153511047363 22.183811187744141 2.858629226684570 0.003921568859369
-6.865010261535645 25.209877014160156 4.753907680511475 0.003921568859369
-6.160130500793457 22.802900314331055 4.296342372894287 0.003921568859369
-7.308048725128174 22.881729125976562 6.413880825042725 0.003921568859369
-6.214692115783691 23.324817657470703 4.391166687011719 0.003921568859369
-6.211334228515625 23.679935455322266 1.997905731201172 0.003921568859369
-7.252926826477051 23.003238677978516 6.440826416015625 0.003921568859369
-6.186646938323975 23.579133987426758 4.434990406036377 0.003921568859369
-6.452407836914062 20.589948654174805 2.642329454421997 0.003921568859369
-2.526648044586182 8.874488830566406 0.749089241027832 0.000000000000000
-6.129387378692627 23.702531814575195 4.454391479492188 0.003921568859369
-6.064900398254395 23.818058013916016 2.006075859069824 0.003921568859369
-6.314412117004395 20.701642990112305 2.650959014892578 0.003921568859369
-6.253752708435059 25.036916732788086 2.106714487075806 0.003921568859369
-5.102705478668213 26.211780548095703 0.317254215478897 0.003921568859369
-6.858584880828857 22.879026412963867 2.926853656768799 0.003921568859369
-5.903490543365479 23.903406143188477 4.480792999267578 0.003921568859369
-6.309418201446533 21.227186203002930 2.712984085083008 0.003921568859369
-7.402129650115967 25.125049591064453 6.999117374420166 0.003921568859369
-5.365290641784668 28.809640884399414 0.348134309053421 0.003921568859369
-6.232111454010010 21.236345291137695 2.711524963378906 0.003921568859369
-4.189189910888672 22.481891632080078 0.271840274333954 0.003921568859369
-5.683436393737793 24.079376220703125 2.019941091537476 0.003921568859369
-6.164783954620361 21.266351699829102 5.913319110870361 0.003921568859369
-1.813962936401367 6.692244052886963 0.562034904956818 0.000000000000000
-4.947089195251465 21.475954055786133 4.010328292846680 0.003921568859369
-6.712492942810059 24.289121627807617 3.089495897293091 0.003921568859369
-4.871296882629395 21.487979888916016 4.009614944458008 0.003921568859369
-7.788488388061523 28.793735504150391 1.739506602287292 0.003921568859369
-5.464402198791504 24.721387863159180 2.067602396011353 0.003921568859369
-6.298700809478760 23.017543792724609 6.376470088958740 0.003921568859369
-7.683001995086670 28.800136566162109 1.738346934318542 0.003921568859369
-6.090723991394043 22.536394119262695 6.237640380859375 0.003921568859369
-5.391368389129639 24.803878784179688 4.621623992919922 0.003921568859369
-7.576605796813965 28.802284240722656 1.736953735351562 0.003921568859369
-7.392379760742188 28.065284729003906 7.760691165924072 0.003921568859369
-5.869843006134033 28.197923660278320 2.353135585784912 0.003921568859369
-6.118051528930664 23.342039108276367 6.449013710021973 0.003921568859369
-5.783468246459961 27.755010604858398 5.163960456848145 0.003921568859369
-5.714619636535645 27.974252700805664 2.332690715789795 0.003921568859369
-6.668490409851074 26.005041122436523 7.178218364715576 0.003921568859369
-5.547380447387695 27.101377487182617 5.038765430450439 0.003921568859369
-6.450856208801270 25.477289199829102 7.026958465576172 0.003921568859369
-5.429076194763184 26.967653274536133 5.010757446289062 0.003921568859369
-5.969039916992188 23.833288192749023 3.013167619705200 0.003921568859369
-5.661863327026367 22.888465881347656 0.552987039089203 0.003921568859369
-5.954922676086426 24.150539398193359 3.050771474838257 0.003921568859369
-4.427310943603516 22.512487411499023 1.873951315879822 0.003921568859369
-5.735637664794922 23.204734802246094 6.389790058135986 0.003921568859369
-5.743034362792969 23.591566085815430 6.491329669952393 0.003921568859369
-6.795804977416992 23.281009674072266 0.709337055683136 0.003921568859369
-4.436025619506836 23.470560073852539 1.951289057731628 0.003921568859369
-6.572911262512207 27.666032791137695 7.606142997741699 0.003921568859369
-5.064201354980469 27.678766250610352 2.299440622329712 0.003921568859369
-6.311017990112305 27.886348724365234 3.508816719055176 0.003921568859369
-6.116140365600586 27.419692993164062 1.639015793800354 0.003921568859369
-5.269119262695312 23.391471862792969 2.941424608230591 0.003921568859369
-5.639987945556641 25.599164962768555 0.615073084831238 0.003921568859369
-6.415486335754395 23.494489669799805 0.712530016899109 0.003921568859369
-5.112795829772949 23.460258483886719 2.945829153060913 0.003921568859369
-3.895907163619995 23.237813949584961 4.292509555816650 0.003921568859369
-4.031506538391113 24.773954391479492 2.051288366317749 0.003921568859369
-5.118753433227539 23.967920303344727 6.555411338806152 0.003921568859369
-3.740703821182251 23.382213592529297 1.935141324996948 0.003921568859369
-5.333437442779541 25.508649826049805 6.971908092498779 0.003921568859369
-5.496120452880859 26.837757110595703 1.598456144332886 0.003921568859369
-4.863348007202148 23.543970108032227 2.950046300888062 0.003921568859369
-3.706671714782715 23.729450225830078 1.962877511978149 0.003921568859369
-5.093454837799072 24.740545272827148 6.757450580596924 0.003921568859369
-4.017482280731201 25.919065475463867 4.780037403106689 0.003921568859369
-5.703479766845703 28.452693939208984 1.693437337875366 0.003921568859369
-5.623266220092773 28.026683807373047 3.509124040603638 0.003921568859369
-6.939232349395752 27.970720291137695 0.174090296030045 0.003921568859369
-4.193007469177246 29.364503860473633 2.425209999084473 0.003921568859369
-6.157293319702148 25.823587417602539 0.160475939512253 0.003921568859369
-4.466403484344482 23.655387878417969 0.564979135990143 0.003921568859369
-5.030156612396240 26.886627197265625 1.596379876136780 0.003921568859369
-4.323520183563232 22.835695266723633 2.852411985397339 0.003921568859369
-6.038558959960938 25.714864730834961 0.159687966108322 0.003921568859369
-4.328976154327393 23.348493576049805 1.385659813880920 0.003921568859369
-4.181675434112549 22.968675613403320 2.865602970123291 0.003921568859369
-4.224646091461182 23.224567413330078 6.316121578216553 0.003921568859369
-5.221950531005859 24.056266784667969 0.720539569854736 0.003921568859369
-2.735230922698975 23.297101974487305 1.918022751808167 0.003921568859369
-4.425082206726074 27.450313568115234 3.414721488952637 0.003921568859369
-3.070128917694092 27.526128768920898 5.050652980804443 0.003921568859369
-3.353867530822754 20.742008209228516 2.579318046569824 0.003921568859369
-2.552921772003174 23.108976364135742 4.239027500152588 0.003921568859369
-2.700349330902100 25.577217102050781 4.690094470977783 0.003921568859369
-3.742150783538818 24.637252807617188 6.671320915222168 0.003921568859369
-2.693455219268799 26.561687469482422 4.868943691253662 0.003921568859369
-3.722998619079590 25.756364822387695 1.519446849822998 0.003921568859369
-5.235986232757568 28.154418945312500 0.173001363873482 0.003921568859369
-5.291828632354736 29.013423919677734 0.178147688508034 0.003921568859369
-3.736790657043457 28.132175445556641 3.486526489257812 0.003921568859369
-3.636703014373779 28.128128051757812 3.484577178955078 0.003921568859369
-1.840260744094849 26.494983673095703 2.172970771789551 0.003921568859369
-1.511425733566284 19.628993988037109 1.150240540504456 0.003921568859369
-1.827786207199097 26.216148376464844 0.617208540439606 0.003921568859369
-2.408126115798950 22.561468124389648 0.137138381600380 0.003921568859369
-2.762770414352417 27.409204483032227 0.166288495063782 0.003921568859369
-2.217362403869629 23.134788513183594 0.681148707866669 0.003921568859369
-1.051846385002136 25.142612457275391 3.094392776489258 0.003921568859369
-1.008222699165344 26.637199401855469 3.277955293655396 0.003921568859369
0.321715950965881 27.891609191894531 5.093149662017822 0.003921568859369
-0.860508620738983 24.462182998657227 0.575003445148468 0.003921568859369
1.668315410614014 22.150682449340820 0.264123201370239 0.003921568859369
-0.445528805255890 25.828397750854492 3.177395105361938 0.003921568859369
-0.265157014131546 25.872465133666992 3.182767391204834 0.003921568859369
2.230756521224976 24.583896636962891 0.293393224477768 0.003921568859369
-0.106539696455002 23.207759857177734 2.855189561843872 0.003921568859369
1.265431165695190 24.196563720703125 1.984826326370239 0.003921568859369
2.268844604492188 21.852779388427734 0.261143356561661 0.003921568859369
1.270435571670532 23.017612457275391 1.888610363006592 0.003921568859369
0.329189360141754 23.996856689453125 0.563940763473511 0.003921568859369
1.431691646575928 23.014122009277344 1.889262676239014 0.003921568859369
3.184212207794189 27.204784393310547 0.325228303670883 0.003921568859369
3.260941505432129 27.053697586059570 0.323573023080826 0.003921568859369
0.546902358531952 25.527484893798828 6.849827289581299 0.003921568859369
1.821045756340027 23.850324630737305 1.960037112236023 0.003921568859369
1.791136860847473 22.612133026123047 1.858928680419922 0.003921568859369
2.022352695465088 24.200134277343750 1.990042448043823 0.003921568859369
2.015708923339844 23.271509170532227 1.914373874664307 0.003921568859369
-0.172145426273346 23.894752502441406 0.144007146358490 0.003921568859369
2.134809494018555 23.533046722412109 1.936355590820312 0.003921568859369
0.998064458370209 22.444864273071289 1.314184665679932 0.003921568859369
2.139174222946167 22.791055679321289 1.876021027565002 0.003921568859369
3.555419206619263 23.527544021606445 0.282624989748001 0.003921568859369
2.372614383697510 23.431224822998047 1.930157065391541 0.003921568859369
2.528764009475708 24.059362411499023 1.982662916183472 0.003921568859369
1.228622436523438 21.257787704467773 1.245848655700684 0.003921568859369
4.255125999450684 25.083354949951172 0.302124530076981 0.003921568859369
2.715627193450928 22.911516189575195 1.891343832015991 0.003921568859369
4.176616668701172 24.166620254516602 0.291306465864182 0.003921568859369
2.337032794952393 22.361913681030273 1.315855741500854 0.003921568859369
4.575360298156738 27.910558700561523 5.170727252960205 0.003921568859369
2.963351726531982 25.455507278442383 1.499615550041199 0.003921568859369
1.659104228019714 22.784336090087891 0.670241236686707 0.003921568859369
1.774377346038818 22.181081771850586 0.652735888957977 0.003921568859369
3.092636108398438 23.735406875610352 1.400769352912903 0.003921568859369
5.450401782989502 22.835342407226562 0.278647124767303 0.003921568859369
3.347602367401123 23.742454528808594 1.403330802917480 0.003921568859369
4.526220321655273 23.652030944824219 1.974731445312500 0.003921568859369
3.020799160003662 14.400810241699219 0.261093556880951 0.000000000000000
5.663971900939941 26.012992858886719 2.183075189590454 0.003921568859369
3.642559051513672 21.566585540771484 2.695094108581543 0.003921568859369
5.058849811553955 22.939273834228516 1.926588535308838 0.003921568859369
4.154520511627197 23.926874160766602 2.991835117340088 0.003921568859369
5.186319351196289 23.122425079345703 1.943540573120117 0.003921568859369
5.161493778228760 22.661251068115234 1.906369686126709 0.003921568859369
6.704244613647461 23.582674026489258 0.290773868560791 0.003921568859369
4.896518230438232 26.403808593750000 0.630912303924561 0.003921568859369
6.244166851043701 21.741628646850586 0.268424987792969 0.003921568859369
5.422948837280273 28.574411392211914 0.683162510395050 0.003921568859369
3.046860456466675 22.243314743041992 0.658735036849976 0.003921568859369
1.741042613983154 6.492540836334229 -0.631915926933289 0.000000000000000
7.154680252075195 28.367923736572266 2.398675441741943 0.003921568859369
3.494484901428223 23.041284561157227 0.140109911561012 0.003921568859369
7.764521121978760 25.219766616821289 0.312864392995834 0.003921568859369
1.061556100845337 6.039724349975586 -0.663825392723083 0.000000000000000
6.753646373748779 21.515687942504883 0.267650485038757 0.003921568859369
5.578608512878418 21.406927108764648 1.815383672714233 0.003921568859369
6.064072608947754 28.134729385375977 0.675894737243652 0.003921568859369
6.856441497802734 21.544351577758789 0.268120884895325 0.003921568859369
4.679042339324951 27.312175750732422 0.166150778532028 0.003921568859369
6.243856906890869 22.896656036376953 1.946900606155396 0.003921568859369
7.365215778350830 22.060895919799805 0.275788038969040 0.003921568859369
5.197818279266357 22.788131713867188 2.880823612213135 0.003921568859369
6.062477588653564 21.662975311279297 1.845831871032715 0.003921568859369
8.309225082397461 24.536060333251953 0.306972533464432 0.003921568859369
6.118094921112061 25.846481323242188 0.624018609523773 0.003921568859369
6.491359710693359 27.364578247070312 1.646027684211731 0.003921568859369
6.779264450073242 28.111927032470703 1.692414999008179 0.003921568859369
5.438735485076904 22.083065032958984 1.332015991210938 0.003921568859369
5.526864528656006 22.105625152587891 1.334577918052673 0.003921568859369
7.358031749725342 23.922517776489258 -0.141482710838318 0.003921568859369
6.831246852874756 21.964530944824219 1.887349367141724 0.003921568859369
8.009725570678711 21.678117752075195 0.273873478174210 0.003921568859369
5.585378646850586 21.386207580566406 1.294523954391479 0.003921568859369
6.355900764465332 23.554430007934570 0.573246538639069 0.003921568859369
9.153224945068359 27.881988525390625 2.406297206878662 0.003921568859369
8.624440193176270 25.994421005249023 2.246237754821777 0.003921568859369
9.740137100219727 24.914182662963867 0.316744357347488 0.003921568859369
5.218462467193604 22.849737167358398 0.687661409378052 0.003921568859369
7.459020614624023 21.807788848876953 1.891563177108765 0.003921568859369
6.234734058380127 21.382589340209961 0.523633182048798 0.003921568859369
5.482719421386719 22.875822067260742 0.690226614475250 0.003921568859369
5.482011795043945 22.570932388305664 0.681574463844299 0.003921568859369
6.415727615356445 21.145214080810547 2.724725723266602 0.003921568859369
6.749386787414551 21.967393875122070 0.539996922016144 0.003921568859369
6.875087261199951 22.082592010498047 0.543455481529236 0.003921568859369
9.885386466979980 26.587781906127930 5.190263748168945 0.003921568859369
9.580036163330078 22.218172073364258 0.286476522684097 0.003921568859369
9.102283477783203 24.283700942993164 4.746561527252197 0.003921568859369
6.367455482482910 23.575113296508789 0.716309547424316 0.003921568859369
8.292873382568359 25.574361801147461 3.313694953918457 0.003921568859369
9.193153381347656 27.954442977905273 0.690879344940186 0.003921568859369
7.005436897277832 21.454446792602539 2.783266544342041 0.003921568859369
9.416330337524414 24.575181961059570 2.158945083618164 0.003921568859369
9.488977432250977 24.520858764648438 2.156985759735107 0.003921568859369
9.041841506958008 23.390806198120117 4.590753555297852 0.003921568859369
9.826043128967285 21.941036224365234 0.284672737121582 0.003921568859369
7.388938903808594 25.834999084472656 0.160765275359154 0.003921568859369
9.378922462463379 23.744779586791992 2.094722270965576 0.003921568859369
6.683002948760986 23.167829513549805 0.707415223121643 0.003921568859369
7.169039249420166 20.990877151489258 2.735922574996948 0.003921568859369
7.387393951416016 21.373186111450195 0.531549274921417 0.003921568859369
6.512155532836914 22.309103012084961 0.681936264038086 0.003921568859369
8.546303749084473 24.630649566650391 3.214129209518433 0.003921568859369
10.670111656188965 26.433778762817383 5.216795444488525 0.003921568859369
9.731181144714355 23.880353927612305 2.115367412567139 0.003921568859369
9.939481735229492 27.884893417358398 1.732413530349731 0.003921568859369
8.730434417724609 24.310300827026367 3.184146404266357 0.003921568859369
9.661334991455078 23.264486312866211 4.611347675323486 0.003921568859369
8.384731292724609 23.120510101318359 0.577643930912018 0.003921568859369
10.654709815979004 22.284275054931641 0.292210936546326 0.003921568859369
7.628858089447021 21.085865020751953 2.765488862991333 0.003921568859369
11.130475997924805 26.471006393432617 5.254607200622559 0.003921568859369
11.738357543945312 24.292150497436523 0.319004952907562 0.003921568859369
7.027949333190918 22.553825378417969 0.692948222160339 0.003921568859369
10.109310150146484 23.856008529663086 4.742720603942871 0.003921568859369
9.971470832824707 23.302364349365234 4.640052795410156 0.003921568859369
10.320055961608887 23.884233474731445 4.762814521789551 0.003921568859369
9.292324066162109 24.245231628417969 1.520336985588074 0.003921568859369
11.206706047058105 25.402009963989258 5.081564903259277 0.003921568859369
7.706458568572998 23.251762390136719 0.718520820140839 0.003921568859369
9.519803047180176 21.446928024291992 1.925976157188416 0.003921568859369
9.044486045837402 20.398481369018555 4.087235450744629 0.003921568859369
9.424637794494629 24.086618423461914 0.607451915740967 0.003921568859369
8.223472595214844 21.082077026367188 2.791327953338623 0.003921568859369
9.441978454589844 21.079339981079102 1.895988464355469 0.003921568859369
9.127107620239258 20.391111373901367 4.092257022857666 0.003921568859369
9.213077545166016 20.390562057495117 4.098714828491211 0.003921568859369
8.470086097717285 24.631280899047852 0.155434772372246 0.003921568859369
11.174988746643066 21.581871032714844 0.287327796220779 0.003921568859369
7.414325714111328 21.630245208740234 0.670656800270081 0.003921568859369
10.411030769348145 22.763357162475586 4.582394123077393 0.003921568859369
7.444218635559082 21.475475311279297 0.666682720184326 0.003921568859369
9.875123023986816 24.454189300537109 1.543879151344299 0.003921568859369
9.746788978576660 21.144895553588867 1.910783171653748 0.003921568859369
10.897298812866211 23.591531753540039 4.756839275360107 0.003921568859369
13.240793228149414 25.076887130737305 0.334960311651230 0.003921568859369
10.562209129333496 22.673267364501953 2.052213668823242 0.003921568859369
8.845682144165039 21.526306152343750 1.363070130348206 0.003921568859369
8.732342720031738 21.050395965576172 0.535333275794983 0.003921568859369
11.402917861938477 27.347208023071289 1.733988523483276 0.003921568859369
8.680584907531738 20.928117752075195 2.794539928436279 0.003921568859369
11.468954086303711 24.147304534912109 4.893227100372314 0.003921568859369
8.767647743225098 20.929851531982422 2.798927783966064 0.003921568859369
12.845005035400391 26.533678054809570 2.417511701583862 0.003921568859369
12.131178855895996 25.080919265747070 5.099253654479980 0.003921568859369
10.150543212890625 23.700799942016602 0.605344653129578 0.003921568859369
13.557441711425781 24.625558853149414 0.332068830728531 0.003921568859369
10.825879096984863 25.247608184814453 3.386362552642822 0.003921568859369
10.410653114318848 21.382053375244141 1.951821804046631 0.003921568859369
10.871359825134277 22.310590744018555 4.544317245483398 0.003921568859369
11.397668838500977 26.319074630737305 3.535170555114746 0.003921568859369
10.446510314941406 21.083261489868164 1.931283235549927 0.003921568859369
11.216987609863281 25.426155090332031 3.425870895385742 0.003921568859369
13.388134956359863 23.553527832031250 0.320115983486176 0.003921568859369
8.207412719726562 21.253007888793945 0.668405771255493 0.003921568859369
11.176136970520020 22.152379989624023 4.543582439422607 0.003921568859369
10.572479248046875 20.777906417846680 1.913163781166077 0.003921568859369
12.789954185485840 22.139970779418945 0.301966339349747 0.003921568859369
9.130622863769531 20.186508178710938 2.732853889465332 0.003921568859369
10.730281829833984 20.726989746093750 1.915436863899231 0.003921568859369
9.041666984558105 22.416635513305664 0.708728671073914 0.003921568859369
9.278093338012695 20.135349273681641 2.734798669815063 0.003921568859369
10.810052871704102 20.702842712402344 1.916736364364624 0.003921568859369
11.535198211669922 22.067983627319336 4.559165954589844 0.003921568859369
13.922651290893555 23.504974365234375 0.322515994310379 0.003921568859369
9.596693992614746 20.625926971435547 2.806025743484497 0.003921568859369
10.477014541625977 22.281202316284180 0.578001558780670 0.003921568859369
10.840816497802734 23.041210174560547 3.139730691909790 0.003921568859369
10.085434913635254 21.281120300292969 2.904569864273071 0.003921568859369
12.074820518493652 22.521362304687500 2.096593856811523 0.003921568859369
10.604277610778809 22.148708343505859 0.576498687267303 0.003921568859369
13.809920310974121 22.773237228393555 0.314472645521164 0.003921568859369
12.468857765197754 25.976303100585938 1.686405897140503 0.003921568859369
12.394020080566406 22.719055175781250 2.123304367065430 0.003921568859369
14.265071868896484 23.149995803833008 0.321034878492355 0.003921568859369
10.537155151367188 21.625860214233398 2.967006683349609 0.003921568859369
14.537926673889160 23.233539581298828 0.323559641838074 0.003921568859369
4.538560390472412 8.327733039855957 0.168783262372017 0.000000000000000
14.962554931640625 23.343265533447266 0.327048212289810 0.003921568859369
14.361676216125488 25.014057159423828 2.365165710449219 0.003921568859369
13.776834487915039 21.189216613769531 0.298277586698532 0.003921568859369
9.603248596191406 21.005392074584961 0.677205741405487 0.003921568859369
9.698608398437500 21.018180847167969 0.678720116615295 0.003921568859369
10.975786209106445 21.004491806030273 2.922881364822388 0.003921568859369
15.158088684082031 22.936779022216797 0.324306100606918 0.003921568859369
12.113352775573730 22.953514099121094 3.199973821640015 0.003921568859369
15.068454742431641 25.406913757324219 2.422163724899292 0.003921568859369
14.410179138183594 24.127971649169922 2.304864406585693 0.003921568859369
10.320956230163574 21.555721282958984 0.142292931675911 0.003921568859369
15.422280311584473 22.811269760131836 0.324806183576584 0.003921568859369
10.573400497436523 21.879795074462891 0.712440788745880 0.003921568859369
14.936934471130371 24.408601760864258 2.346879243850708 0.003921568859369
10.694972991943359 21.933506011962891 0.145262449979782 0.003921568859369
10.639066696166992 21.820640563964844 0.711736679077148 0.003921568859369
12.933218002319336 23.280881881713867 0.624522387981415 0.003921568859369
10.666404724121094 21.664800643920898 0.707690417766571 0.003921568859369
12.844940185546875 23.123727798461914 3.260727405548096 0.003921568859369
13.205125808715820 21.261760711669922 2.053120851516724 0.003921568859369
14.382628440856934 25.647172927856445 1.720358729362488 0.003921568859369
13.966400146484375 22.299295425415039 2.158021211624146 0.003921568859369
13.994150161743164 24.374027252197266 0.658967614173889 0.003921568859369
10.605872154235840 20.820901870727539 0.684917867183685 0.003921568859369
14.266836166381836 22.263000488281250 2.168758392333984 0.003921568859369
13.404155731201172 22.805093765258789 0.620383203029633 0.003921568859369
12.517097473144531 21.314105987548828 1.447145462036133 0.003921568859369
12.511329650878906 21.136146545410156 1.438058376312256 0.003921568859369
15.508809089660645 23.454837799072266 2.305895090103149 0.003921568859369
13.038851737976074 21.671398162841797 0.593287050724030 0.003921568859369
13.103951454162598 21.608140945434570 0.592815816402435 0.003921568859369
12.768670082092285 20.727676391601562 1.425043344497681 0.003921568859369
14.061779022216797 22.634305953979492 0.624636054039001 0.003921568859369
11.514300346374512 20.588968276977539 0.691230118274689 0.003921568859369
13.374492645263672 21.365680694580078 1.475334286689758 0.003921568859369
15.525406837463379 24.384286880493164 1.691191196441650 0.003921568859369
14.556903839111328 22.712038040161133 3.325326681137085 0.003921568859369
15.769608497619629 24.203208923339844 0.676983892917633 0.003921568859369
13.644360542297363 20.972866058349609 1.464601635932922 0.003921568859369
13.699676513671875 20.897768020629883 0.585954427719116 0.003921568859369
15.343464851379395 23.209749221801758 1.628061890602112 0.003921568859369
15.160672187805176 22.577932357788086 0.637182354927063 0.003921568859369
16.617616653442383 24.551578521728516 0.694391369819641 0.003921568859369
15.893699645996094 23.307304382324219 0.660879969596863 0.003921568859369
14.666668891906738 21.523990631103516 1.523996233940125 0.003921568859369
16.350444793701172 23.441484451293945 1.671832561492920 0.003921568859369
17.043716430664062 23.899822235107422 3.617229461669922 0.003921568859369
17.881069183349609 21.992681503295898 2.323068141937256 0.003921568859369
17.401020050048828 23.016197204589844 1.687408447265625 0.003921568859369
16.839523315429688 21.951580047607422 0.647915661334991 0.003921568859369
3.455230474472046 4.200103282928467 1.008174419403076 0.000000000000000
18.265228271484375 23.463586807250977 1.738838553428650 0.003921568859369
6.542108535766602 7.706032752990723 1.860091567039490 0.000000000000000
18.366439819335938 23.256439208984375 1.733008623123169 0.003921568859369
18.625486373901367 22.430189132690430 1.704605221748352 0.003921568859369
10.508615493774414 11.440551757812500 2.848940849304199 0.000000000000000
5.196824073791504 5.119373798370361 -0.257005751132965 0.000000000000000
6.456497192382812 7.595351219177246 2.693761110305786 0.000000000000000
13.769368171691895 15.806566238403320 5.638515472412109 0.003921568859369
8.433086395263672 9.591301918029785 3.443332195281982 0.000000000000000
12.428174018859863 12.327769279479980 3.207610368728638 0.003921568859369
6.910713672637939 6.174556732177734 -0.543827295303345 0.000000000000000
4.906881332397461 4.867717266082764 0.571589291095734 0.000000000000000
12.771128654479980 12.054958343505859 3.216790199279785 0.003921568859369
5.871909618377686 5.000653266906738 -0.090042561292648 0.000000000000000
7.126560688018799 6.677627563476562 1.795166730880737 0.000000000000000
8.887470245361328 9.093933105468750 1.571063518524170 0.000000000000000
4.301798343658447 4.232923507690430 0.355894774198532 0.000000000000000
9.366012573242188 9.111249923706055 1.613366007804871 0.000000000000000
6.032518863677979 5.273600101470947 1.474293708801270 0.000000000000000
14.160162925720215 13.350849151611328 2.398901224136353 0.003921568859369
10.172628402709961 9.488549232482910 1.717216491699219 0.000000000000000
2.980732440948486 2.278037071228027 -0.133144587278366 0.000000000000000
15.329406738281250 12.644536018371582 3.637126445770264 0.003921568859369
4.626080989837646 3.699534654617310 0.489300727844238 0.000000000000000
10.783463478088379 9.431599617004395 3.856083631515503 0.000000000000000
2.962044477462769 2.144144296646118 0.043745905160904 0.000000000000000
7.605138301849365 5.954010486602783 1.773442864418030 0.000000000000000
3.300550222396851 2.329962968826294 -0.047419153153896 0.000000000000000
2.793758869171143 2.426746368408203 1.008766889572144 0.000000000000000
8.667497634887695 6.631417274475098 2.002346754074097 0.000000000000000
11.003745079040527 9.092682838439941 3.842609167098999 0.000000000000000
17.889938354492188 13.222765922546387 4.067417144775391 0.003921568859369
14.758853912353516 10.838150978088379 3.349851131439209 0.003921568859369
6.577848911285400 4.513880729675293 0.656557738780975 0.000000000000000
8.372385025024414 6.033493518829346 1.273713469505310 0.000000000000000
9.330268859863281 6.047812938690186 0.912354528903961 0.000000000000000
7.765040397644043 5.516834259033203 0.558074831962585 0.000000000000000
13.958696365356445 9.809539794921875 2.101572275161743 0.003921568859369
7.033441066741943 5.377534866333008 -0.154921948909760 0.000000000000000
7.142292499542236 5.377519130706787 -0.575283348560333 0.000000000000000
5.923525333404541 3.587080478668213 1.270933508872986 0.000000000000000
2.124390602111816 1.286145925521851 -0.206117480993271 0.000000000000000
7.327005863189697 4.863149166107178 0.514966189861298 0.000000000000000
2.907490491867065 2.148863792419434 -0.148741960525513 0.000000000000000
8.590672492980957 5.611978054046631 2.761421203613281 0.000000000000000
9.144959449768066 5.878795623779297 2.925001859664917 0.000000000000000
12.311299324035645 7.077042579650879 2.597638368606567 0.000000000000000
4.746013641357422 3.043208599090576 0.697850465774536 0.000000000000000
6.597354888916016 3.775299310684204 1.394343972206116 0.000000000000000
4.968152523040771 2.827055692672729 1.050647854804993 0.000000000000000
7.597665309906006 4.734219551086426 2.408304929733276 0.000000000000000
8.588152885437012 4.781140804290771 1.798963546752930 0.000000000000000
7.557135105133057 4.674323081970215 1.095612883567810 0.000000000000000
5.679694652557373 3.490496873855591 0.823087394237518 0.000000000000000
12.501351356506348 8.024153709411621 0.433656007051468 0.000000000000000
4.972494125366211 2.872367858886719 0.336720675230026 0.000000000000000
19.129234313964844 9.771699905395508 3.923513174057007 0.003921568859369
5.767589569091797 3.293853759765625 1.787052392959595 0.000000000000000
22.449943542480469 11.061678886413574 4.568454265594482 0.003921568859369
14.004603385925293 6.851435661315918 2.847881317138672 0.000000000000000
6.465459823608398 3.085960388183594 0.587287724018097 0.000000000000000
6.437659740447998 2.906441688537598 0.288638919591904 0.000000000000000
3.744457960128784 1.903446674346924 0.098265893757343 0.000000000000000
10.960126876831055 5.505818843841553 1.508388638496399 0.000000000000000
6.364203929901123 2.793343782424927 1.270753383636475 0.000000000000000
6.045804500579834 2.627591848373413 1.205461502075195 0.000000000000000
11.695611953735352 5.028718948364258 2.324748039245605 0.000000000000000
8.070258140563965 2.981589794158936 -0.301007062196732 0.000000000000000
10.916363716125488 4.649107933044434 2.166899681091309 0.000000000000000
9.403645515441895 3.890082836151123 0.415492743253708 0.000000000000000
7.475985050201416 3.063785076141357 1.476671457290649 0.000000000000000
8.201233863830566 3.801178693771362 0.527029752731323 0.000000000000000
13.186655044555664 6.053132057189941 1.782774209976196 0.000000000000000
17.654117584228516 7.079504013061523 3.469785451889038 0.003921568859369
7.873729705810547 3.582959175109863 0.000056444041547 0.003921568859369
3.016010761260986 1.362583398818970 0.889347076416016 0.000000000000000
5.561765670776367 2.820721864700317 0.181810259819031 0.000000000000000
21.478828430175781 9.495706558227539 -0.546596586704254 0.003921568859369
4.328678131103516 1.634339213371277 0.378553628921509 0.000000000000000
4.046660900115967 1.982186436653137 -0.078766934573650 0.000000000000000
5.089443683624268 1.582506060600281 -0.062117796391249 0.000000000000000
3.363204717636108 1.420830607414246 0.449499249458313 0.000000000000000
11.524497985839844 4.759471416473389 0.290137887001038 0.000000000000000
8.402611732482910 2.934323549270630 -0.259022116661072 0.000000000000000
5.194104671478271 2.103828907012939 -0.000000000000085 0.000000000000000
8.551434516906738 2.986294507980347 0.739440381526947 0.000000000000000
12.231051445007324 4.082964897155762 -0.375267893075943 0.000000000000000
14.960062980651855 4.935985565185547 -0.458466827869415 0.000000000000000
11.834702491760254 4.507408142089844 -0.000000000000085 0.000000000000000
3.389621496200562 1.484414577484131 -0.237154573202133 0.000000000000000
8.131913185119629 2.618702173233032 1.557639122009277 0.000000000000000
15.763278007507324 5.693236351013184 2.056600570678711 0.003921568859369
8.994048118591309 2.688469648361206 1.709692955017090 0.000000000000000
13.543834686279297 3.289157629013062 -0.486412703990936 0.000000000000000
20.268337249755859 5.985405445098877 3.851340770721436 0.003921568859369
7.252655506134033 2.502273797988892 0.940781116485596 0.000000000000000
6.691896915435791 2.653570890426636 -0.460801452398300 0.000000000000000
9.434892654418945 2.713194847106934 0.800575494766235 0.000000000000000
19.216630935668945 6.560921669006348 5.438234806060791 0.003921568859369
11.020479202270508 3.128076314926147 0.934336662292480 0.000000000000000
7.107246398925781 1.620239853858948 -0.254253178834915 0.000000000000000
7.234578132629395 1.999432921409607 -0.043613515794277 0.000000000000000
5.845809936523438 1.546775341033936 0.105112776160240 0.000000000000000
4.822408199310303 1.792525053024292 -0.328579574823380 0.000000000000000
15.655532836914062 4.980881214141846 4.396692752838135 0.003921568859369
10.745992660522461 2.847904205322266 2.023177862167358 0.000000000000000
11.100463867187500 3.489310979843140 0.676395475864410 0.000000000000000
5.594895839691162 2.037768602371216 -0.103693574666977 0.000000000000000
8.758095741271973 2.256493091583252 -0.262726485729218 0.000000000000000
5.186787128448486 1.566724300384521 0.125530093908310 0.000000000000000
10.932941436767578 3.857923507690430 -0.202143564820290 0.000000000000000
13.250979423522949 3.266931533813477 -0.079311393201351 0.000000000000000
4.613932132720947 1.623946189880371 -0.198580518364906 0.000000000000000
8.256011009216309 2.466150045394897 2.303389787673950 0.000000000000000
11.601716041564941 3.426192045211792 1.482797026634216 0.000000000000000
16.300470352172852 3.129207134246826 -0.579016447067261 0.003921568859369
6.949197292327881 2.023512363433838 0.167864575982094 0.000000000000000
17.833839416503906 5.202366352081299 4.972305297851562 0.003921568859369
10.060352325439453 2.369674444198608 -0.300312131643295 0.000000000000000
13.566637992858887 2.456938028335571 -0.160371616482735 0.000000000000000
7.782350540161133 1.379854083061218 -0.091865807771683 0.000000000000000
5.878002166748047 1.957658290863037 0.035799339413643 0.000000000000000
6.468829631805420 2.130124568939209 -0.118633493781090 0.000000000000000
6.207605361938477 1.077646136283875 -0.219393223524094 0.000000000000000
8.994304656982422 2.485365152359009 2.494915962219238 0.000000000000000
4.078829765319824 0.897494435310364 -0.120793104171753 0.000000000000000
8.714441299438477 1.925219058990479 0.725956559181213 0.000000000000000
13.234954833984375 4.264934062957764 0.080468915402889 0.000000000000000
9.793776512145996 2.634368419647217 1.241453528404236 0.000000000000000
6.973464488983154 1.846092820167542 0.418228566646576 0.000000000000000
9.526380538940430 2.992217779159546 0.289583861827850 0.000000000000000
7.392049789428711 1.929894328117371 -0.177220076322556 0.000000000000000
13.719105720520020 2.143646717071533 -0.161439135670662 0.000000000000000
15.189717292785645 3.139405488967896 1.263596653938293 0.000000000000000
7.513819217681885 1.493991732597351 0.622792959213257 0.000000000000000
15.477716445922852 3.030676126480103 -0.458272069692612 0.000000000000000
21.245998382568359 4.162468910217285 3.941640138626099 0.003921568859369
7.322475433349609 2.159977674484253 0.221175715327263 0.000000000000000
6.199665069580078 1.482246398925781 0.778854727745056 0.000000000000000
7.476997375488281 1.758926868438721 0.445439487695694 0.000000000000000
8.709088325500488 2.049970865249634 1.094732165336609 0.000000000000000
7.341863632202148 1.353803515434265 0.606847882270813 0.000000000000000
7.654837131500244 1.775659203529358 -0.000138194649480 0.000000000000000
9.828426361083984 2.792871952056885 0.059057574719191 0.000000000000000
10.808179855346680 1.381346344947815 -0.126547798514366 0.000000000000000
8.442533493041992 1.925880908966064 1.058126449584961 0.000000000000000
14.642334938049316 2.603732347488403 2.703968286514282 0.000000000000000
9.255449295043945 2.557222366333008 -0.167115479707718 0.000000000000000
7.804455757141113 0.968481004238129 0.090914338827133 0.000000000000000
9.408831596374512 1.603071570396423 -0.055415019392967 0.000000000000000
18.535024642944336 3.164810895919800 3.420717000961304 0.003921568859369
9.979648590087891 2.167087793350220 -0.000191021128558 0.003921568859369
6.276915073394775 1.359737873077393 -0.148687809705734 0.000000000000000
7.192680358886719 1.146904587745667 0.126255065202713 0.000000000000000
6.477510452270508 1.689871311187744 -0.271293848752975 0.000000000000000
6.669390678405762 1.714304924011230 -0.279110044240952 0.000000000000000
14.629706382751465 2.970894098281860 -0.346639871597290 0.000000000000000
16.102619171142578 3.212500572204590 0.380933970212936 0.000000000000000
6.788949966430664 1.696300506591797 -0.446095198392868 0.000000000000000
4.724307537078857 0.936760306358337 0.277969449758530 0.000000000000000
16.650306701660156 2.485414028167725 0.684015989303589 0.003921568859369
9.576889038085938 2.361780881881714 0.285705864429474 0.000000000000000
11.726466178894043 1.706997632980347 2.152965068817139 0.000000000000000
6.303179740905762 1.205994844436646 -0.297227084636688 0.000000000000000
10.309940338134766 1.977633237838745 1.283829092979431 0.000000000000000
8.570534706115723 1.214063882827759 0.703144133090973 0.000000000000000
26.293556213378906 4.970208644866943 1.555792689323425 0.003921568859369
18.347475051879883 2.546895265579224 -0.968825876712799 0.003921568859369
4.865597724914551 1.139935970306396 -0.086569778621197 0.000000000000000
12.154520034790039 2.865687847137451 -0.506980657577515 0.000000000000000
4.808254241943359 0.627232551574707 -0.139835163950920 0.000000000000000
6.887814044952393 0.563410401344299 -0.080054163932800 0.000000000000000
11.016379356384277 1.445694327354431 -0.064496621489525 0.000000000000000
7.366032600402832 0.964454650878906 0.300375312566757 0.000000000000000
8.576083183288574 1.095233678817749 0.149811267852783 0.000000000000000
6.765739440917969 1.173202395439148 -0.000213997569517 0.000000000000000
10.051723480224609 1.747349619865417 1.246253132820129 0.000000000000000
6.174273014068604 0.763914108276367 1.124798655509949 0.000000000000000
10.204603195190430 1.232438802719116 -0.297865986824036 0.000000000000000
5.666563510894775 1.247053027153015 0.033212721347809 0.000000000000000
10.208844184875488 1.196987509727478 -0.297864973545074 0.000000000000000
4.377839088439941 0.725688517093658 0.101874716579914 0.000000000000000
7.920894145965576 1.319874286651611 -0.371907472610474 0.000000000000000
12.877511024475098 2.752209186553955 -0.229227796196938 0.000000000000000
10.749080657958984 1.220932722091675 0.438451021909714 0.000000000000000
9.093919754028320 1.482591390609741 1.124877691268921 0.000000000000000
10.215045928955078 2.145703554153442 0.302070915699005 0.000000000000000
12.167496681213379 1.342104792594910 0.212567210197449 0.000000000000000
6.448783874511719 0.371262311935425 -0.223966881632805 0.000000000000000
7.164402961730957 0.387879759073257 0.082740128040314 0.000000000000000
21.134599685668945 1.075666069984436 0.245572224259377 0.003921568859369
7.965914249420166 0.377557247877121 0.092054225504398 0.000000000000000
19.083904266357422 2.786983251571655 1.119976878166199 0.000000000000000
17.697351455688477 2.583987474441528 2.189506769180298 0.003921568859369
12.076051712036133 1.164447307586670 2.202442169189453 0.000000000000000
9.874933242797852 0.915735840797424 -0.287076175212860 0.000000000000000
7.877269268035889 0.729367256164551 0.319556564092636 0.000000000000000
9.593257904052734 0.386368662118912 -0.111281581223011 0.000000000000000
17.562175750732422 0.709295213222504 0.203679665923119 0.003921568859369
8.842135429382324 1.221733808517456 0.516018986701965 0.000000000000000
10.757608413696289 1.488253116607666 1.325676560401917 0.000000000000000
19.007961273193359 2.572030544281006 -0.000287766597467 0.003921568859369
14.306907653808594 0.530065417289734 -0.166179239749908 0.000000000000000
8.693523406982422 0.744766175746918 -0.050593677908182 0.000000000000000
8.787983894348145 0.752921938896179 0.152643680572510 0.000000000000000
16.356414794921875 2.212124824523926 0.957386910915375 0.000000000000000
9.415752410888672 0.807098269462585 0.766212999820709 0.000000000000000
7.896792888641357 0.648512423038483 0.641565978527069 0.000000000000000
7.253200054168701 0.950796008110046 -0.169045746326447 0.000000000000000
6.636391162872314 0.521131098270416 1.202254533767700 0.000000000000000
14.340965270996094 1.081451892852783 0.583173871040344 0.000000000000000
17.662136077880859 2.139553546905518 1.032274365425110 0.000000000000000
3.356548547744751 0.400646150112152 0.407296210527420 0.000000000000000
16.066644668579102 2.744645118713379 -0.661872625350952 0.003921568859369
6.862533569335938 0.802716135978699 -0.000243827977101 0.000000000000000
9.870947837829590 1.157730340957642 -0.460351616144180 0.000000000000000
3.385526418685913 0.392400562763214 0.410708904266357 0.000000000000000
16.507198333740234 1.130170345306396 3.005263090133667 0.003921568859369
11.861695289611816 1.938891649246216 -0.209006756544113 0.000000000000000
16.090524673461914 0.260468959808350 0.186417713761330 0.003921568859369
11.915960311889648 0.151272743940353 -0.138230949640274 0.000000000000000
6.712967395782471 0.410494178533554 -0.038961105048656 0.000000000000000
7.941541671752930 0.486299037933350 0.137572795152664 0.000000000000000
8.431140899658203 0.928671121597290 1.033693671226501 0.000000000000000
13.141004562377930 2.055424690246582 0.076671540737152 0.000000000000000
6.714359760284424 0.387272685766220 -0.038960304111242 0.000000000000000
18.183580398559570 2.847834110260010 0.533571064472198 0.003921568859369
9.287707328796387 0.085545152425766 -0.322407871484756 0.000000000000000
9.615801811218262 1.026400089263916 2.574484348297119 0.000000000000000
8.257035255432129 0.047406107187271 0.095194496214390 0.000000000000000
17.218923568725586 0.938530325889587 1.402489781379700 0.000000000000000
10.945762634277344 0.595464706420898 1.987176179885864 0.000000000000000
10.381772041320801 0.531562626361847 0.420319885015488 0.000000000000000
7.047914981842041 0.678145766258240 1.877711892127991 0.000000000000000
12.127264976501465 1.129220724105835 -0.000288976560114 0.000000000000000
6.843407154083252 0.945863902568817 0.198688983917236 0.000000000000000
9.650495529174805 0.393340915441513 0.167070254683495 0.000000000000000
15.679038047790527 1.352062821388245 0.912025451660156 0.000000000000000
17.478557586669922 0.592944800853729 -0.507132112979889 0.000000000000000
11.162052154541016 -0.164266884326935 0.128884404897690 0.000000000000000
10.678719520568848 1.406089663505554 0.311082571744919 0.000000000000000
11.108462333679199 0.376040071249008 0.449636578559875 0.000000000000000
5.345485210418701 0.699148058891296 -0.217008382081985 0.000000000000000
11.507795333862305 0.950631558895111 3.074487447738647 0.000000000000000
12.013325691223145 0.367180675268173 -0.347948580980301 0.000000000000000
16.858703613281250 1.339144110679626 -0.000289661227725 0.003921568859369
6.124241352081299 0.186188369989395 0.105430893599987 0.000000000000000
7.093337059020996 0.215993955731392 0.573196351528168 0.000000000000000
8.329498291015625 -0.179945930838585 -0.096397884190083 0.000000000000000
11.352363586425781 0.858349740505219 0.262966334819794 0.000000000000000
8.954606056213379 1.114511489868164 0.260241210460663 0.000000000000000
4.111190319061279 0.109500527381897 0.164359152317047 0.000000000000000
21.581417083740234 0.582546114921570 3.922904491424561 0.003921568859369
14.116520881652832 0.331367462873459 2.561133861541748 0.000000000000000
8.076727867126465 0.947667658329010 0.234297752380371 0.000000000000000
12.810685157775879 0.169256165623665 -0.074293017387390 0.000000000000000
5.070743083953857 0.557356119155884 -0.322623580694199 0.000000000000000
6.752460956573486 -0.237750127911568 -0.389541685581207 0.000000000000000
6.545883655548096 0.063425861299038 -0.037859868258238 0.000000000000000
21.933502197265625 0.137713342905045 -0.127268180251122 0.003921568859369
8.520837783813477 0.881257116794586 0.246594905853271 0.000000000000000
12.556555747985840 0.078744985163212 1.018076777458191 0.000000000000000
7.881567478179932 0.049337901175022 1.421747922897339 0.000000000000000
10.914861679077148 0.598338007926941 -0.252759635448456 0.000000000000000
10.742080688476562 0.030061174184084 -0.062237262725830 0.000000000000000
13.519121170043945 -0.619229137897491 0.156348660588264 0.000000000000000
9.900289535522461 0.990652024745941 0.286853760480881 0.000000000000000
18.896442413330078 0.907387495040894 -0.000307310168864 0.003921568859369
10.118578910827637 0.977298378944397 0.293138355016708 0.000000000000000
10.858860015869141 0.519808948040009 -0.251360356807709 0.000000000000000
