# This PCD file was generated using the MATLAB® pcwrite function
# from Computer Vision Toolbox®.
# .PCD v.7 - Point Cloud Data file format
VERSION .7
FIELDS x y z intensity
SIZE 8 8 8 8
TYPE F F F F
COUNT 1 1 1 1
WIDTH 647
HEIGHT 1
VIEWPOINT 0 0 0 1 0 0 0
POINTS 647
DATA ascii
6.590467453002930 5.990663528442383 1.629861712455750 0.000000000000000
6.309632778167725 5.696821212768555 1.555958628654480 0.000000000000000
5.931638717651367 5.281073570251465 1.454071879386902 0.000000000000000
7.992771625518799 7.512567043304443 2.946839809417725 0.000000000000000
9.894441604614258 8.182374954223633 2.346550941467285 0.000000000000000
3.368718147277832 3.077456951141357 1.230323076248169 0.000000000000000
7.832146167755127 6.302277565002441 0.176273778080940 0.000000000000000
5.169095993041992 4.168203353881836 0.544520258903503 0.000000000000000
14.437544822692871 10.477252960205078 -0.623555243015289 0.003921568859369
5.027625560760498 4.025912284851074 0.528246402740479 0.000000000000000
5.864213466644287 4.591575622558594 -0.391333073377609 0.000000000000000
2.869889974594116 2.461054801940918 0.221986725926399 0.000000000000000
5.290708065032959 4.949508666992188 0.211926937103271 0.000000000000000
7.005022048950195 5.094478607177734 1.583759665489197 0.000000000000000
10.742866516113281 8.273153305053711 1.667956471443176 0.000000000000000
3.077457189559937 2.599381208419800 0.118189461529255 0.000000000000000
8.113321304321289 6.163478851318359 2.736532211303711 0.000000000000000
9.982055664062500 6.337384223937988 0.967151880264282 0.000000000000000
5.535123825073242 3.466794490814209 1.194834232330322 0.000000000000000
8.768040657043457 4.662618637084961 -0.928533256053925 0.000000000000000
8.770164489746094 4.624497413635254 -0.927047073841095 0.000000000000000
8.758005142211914 4.579046726226807 -0.924073696136475 0.000000000000000
9.089914321899414 5.333769798278809 0.861986279487610 0.000000000000000
8.731482505798340 4.526426792144775 -0.919613182544708 0.000000000000000
8.749989509582520 4.499194622039795 -0.919985949993134 0.000000000000000
6.124762058258057 4.392614364624023 -0.307538539171219 0.000000000000000
8.747892379760742 4.459522724151611 -0.918127954006195 0.000000000000000
2.357544660568237 1.209314823150635 0.031264025717974 0.000000000000000
8.734953880310059 4.414549827575684 -0.915154576301575 0.000000000000000
10.505245208740234 6.668776988983154 3.338943719863892 0.000000000000000
8.718251228332520 4.367931842803955 -0.911809325218201 0.000000000000000
8.694670677185059 4.316254138946533 -0.907380223274231 0.000000000000000
3.236097335815430 1.611490488052368 -0.126596361398697 0.000000000000000
8.709684371948242 4.285822868347168 -0.907381057739258 0.000000000000000
7.823931694030762 5.400181293487549 -0.387699246406555 0.000000000000000
6.149947643280029 3.001892566680908 -0.640058755874634 0.000000000000000
8.739392280578613 4.224799156188965 -0.907382667064667 0.000000000000000
8.754087448120117 4.194208145141602 -0.907383501529694 0.000000000000000
8.721888542175293 4.141395568847656 -0.902550876140594 0.000000000000000
9.513640403747559 4.516637802124023 -0.614063739776611 0.000000000000000
6.181957721710205 3.317633390426636 -0.368299663066864 0.000000000000000
8.736289978027344 4.110869884490967 -0.902551710605621 0.000000000000000
9.561877250671387 4.498625278472900 -0.616157829761505 0.000000000000000
8.739044189453125 4.076776504516602 -0.901437044143677 0.000000000000000
9.598463058471680 4.476949214935303 -0.617554128170013 0.000000000000000
9.754342079162598 5.770940303802490 3.040743112564087 0.000000000000000
8.774920463562012 4.056198596954346 -0.903668642044067 0.000000000000000
9.559645652770996 4.418262481689453 -0.614066302776337 0.000000000000000
8.013837814331055 4.192314147949219 1.651762366294861 0.000000000000000
8.825244903564453 4.042052745819092 -0.907387495040894 0.000000000000000
9.800171852111816 4.487756252288818 -0.628487169742584 0.000000000000000
8.748604774475098 3.970080614089966 -0.898093223571777 0.000000000000000
8.861488342285156 4.556347370147705 -0.814493417739868 0.000000000000000
9.590255737304688 4.351306915283203 -0.614068031311035 0.000000000000000
8.824180603027344 3.967178821563721 -0.904414594173431 0.000000000000000
8.884446144104004 4.528944492340088 -0.815145254135132 0.000000000000000
9.605387687683105 4.317744731903076 -0.614068925380707 0.000000000000000
8.754692077636719 3.897541046142578 -0.895521521568298 0.000000000000000
8.868660926818848 4.479967594146729 -0.811922907829285 0.000000000000000
9.259568214416504 4.121992588043213 -0.590840101242065 0.000000000000000
8.855722427368164 3.905437707901001 -0.904445171356201 0.000000000000000
8.859287261962891 4.436455726623535 -0.809645235538483 0.000000000000000
9.208120346069336 4.060629844665527 -0.586654305458069 0.000000000000000
8.847396850585938 3.864905834197998 -0.902215003967285 0.000000000000000
8.867573738098145 4.401921272277832 -0.808994889259338 0.000000000000000
10.151906967163086 4.433985710144043 -0.645729184150696 0.000000000000000
8.787714958190918 3.802359104156494 -0.894779622554779 0.000000000000000
8.843527793884277 4.351555824279785 -0.805415332317352 0.000000000000000
9.632136344909668 4.167223453521729 -0.611773788928986 0.000000000000000
8.742350578308105 3.746548891067505 -0.888831496238708 0.000000000000000
8.873000144958496 4.327601909637451 -0.806717753410339 0.000000000000000
9.635609626770020 4.128821372985840 -0.611076712608337 0.000000000000000
8.733373641967773 3.706643819808960 -0.886601388454437 0.000000000000000
8.862918853759766 4.284429073333740 -0.804440140724182 0.000000000000000
9.697759628295898 4.115378856658936 -0.614100813865662 0.000000000000000
8.724225044250488 3.666842937469482 -0.884371221065521 0.000000000000000
8.867033004760742 4.248259067535400 -0.803464293479919 0.000000000000000
9.712066650390625 4.081457614898682 -0.614101469516754 0.000000000000000
8.744325637817383 3.639383316040039 -0.885115325450897 0.000000000000000
8.871001243591309 4.212116718292236 -0.802488505840302 0.000000000000000
9.659879684448242 4.019904136657715 -0.609915792942047 0.000000000000000
8.764344215393066 3.611824035644531 -0.885859489440918 0.000000000000000
8.835134506225586 4.157342433929443 -0.797932446002960 0.000000000000000
8.765833854675293 3.576655387878418 -0.884744703769684 0.000000000000000
8.860437393188477 4.131480693817139 -0.798909485340118 0.000000000000000
8.770259857177734 3.544546842575073 -0.884001612663269 0.000000000000000
8.855989456176758 4.093681812286377 -0.797282636165619 0.000000000000000
8.793673515319824 3.518303871154785 -0.885117650032043 0.000000000000000
8.877475738525391 4.066019535064697 -0.797934234142303 0.000000000000000
8.784030914306641 3.477361440658569 -0.882542729377747 0.000000000000000
8.866616249084473 4.021871089935303 -0.795360386371613 0.000000000000000
10.170119285583496 4.025569438934326 -0.637387573719025 0.000000000000000
8.840619087219238 3.464073896408081 -0.887004613876343 0.000000000000000
8.876963615417480 3.989236593246460 -0.795035302639008 0.000000000000000
8.800666809082031 3.413022279739380 -0.881799936294556 0.000000000000000
8.879905700683594 3.953338623046875 -0.794059276580811 0.000000000000000
10.197974205017090 3.954418182373047 -0.637388467788696 0.000000000000000
9.097990036010742 4.050337791442871 -0.522255659103394 0.000000000000000
16.775644302368164 7.465276718139648 3.349205970764160 0.003921568859369
8.860869407653809 3.400787591934204 -0.886633634567261 0.000000000000000
8.879059791564941 3.915857315063477 -0.792757868766785 0.000000000000000
10.237814903259277 3.928773403167725 -0.639016926288605 0.000000000000000
9.101107597351074 4.013692855834961 -0.521628022193909 0.000000000000000
8.909331321716309 3.385495901107788 -0.890351951122284 0.000000000000000
8.895648956298828 3.887961626052856 -0.793083667755127 0.000000000000000
10.276919364929199 3.904698371887207 -0.640645325183868 0.000000000000000
9.092597961425781 3.418771982192993 -0.907454729080200 0.000000000000000
8.887212753295898 3.847359895706177 -0.791131317615509 0.000000000000000
10.226939201354980 3.844897747039795 -0.636692047119141 0.000000000000000
9.105066299438477 3.385394811630249 -0.907455146312714 0.000000000000000
8.890259742736816 3.810025453567505 -0.790155291557312 0.000000000000000
10.222245216369629 3.800407171249390 -0.635529696941376 0.000000000000000
9.116828918457031 3.353560447692871 -0.907455563545227 0.000000000000000
8.899834632873535 3.777381181716919 -0.789830207824707 0.003921568859369
10.194220542907715 3.749517440795898 -0.632971823215485 0.000000000000000
9.128479957580566 3.321685791015625 -0.907455921173096 0.000000000000000
10.027108192443848 3.648388147354126 -0.621808767318726 0.000000000000000
9.303749084472656 3.352325201034546 -0.923815131187439 0.000000000000000
10.023491859436035 3.611434459686279 -0.620878875255585 0.000000000000000
8.908769607543945 3.673306226730347 -0.787227630615234 0.003921568859369
10.036660194396973 3.574644565582275 -0.620879352092743 0.000000000000000
8.917210578918457 3.642211914062500 -0.786902546882629 0.003921568859369
10.184053421020508 3.589066028594971 -0.629252314567566 0.000000000000000
10.261539459228516 3.572772741317749 -0.632995843887329 0.000000000000000
10.319260597229004 3.552507162094116 -0.635786890983582 0.000000000000000
9.779623031616211 3.330557823181152 -0.964736878871918 0.000000000000000
9.961634635925293 3.351812124252319 -0.981467425823212 0.000000000000000
9.972114562988281 3.320489645004272 -0.981467664241791 0.000000000000000
9.102544784545898 4.056350231170654 -0.464351981878281 0.000000000000000
17.304262161254883 6.716777324676514 3.385059118270874 0.003921568859369
4.293010711669922 1.896086931228638 -0.505889594554901 0.000000000000000
9.983645439147949 3.285643100738525 -0.981467843055725 0.000000000000000
8.595845222473145 3.302837371826172 0.375348150730133 0.000000000000000
9.266444206237793 4.603857517242432 -0.663337111473083 0.000000000000000
16.986568450927734 6.457376480102539 3.314028978347778 0.003921568859369
9.143238067626953 3.436351299285889 -0.797671854496002 0.000000000000000
9.269725799560547 4.561183452606201 -0.662313938140869 0.000000000000000
14.620498657226562 6.325440883636475 4.269496917724609 0.003921568859369
8.494369506835938 3.192575454711914 1.655242681503296 0.000000000000000
9.222443580627441 3.429399251937866 -0.803530395030975 0.000000000000000
9.325059890747070 4.548022270202637 -0.665128350257874 0.000000000000000
8.365297317504883 3.110790252685547 1.627978682518005 0.000000000000000
9.255619049072266 3.408661365509033 -0.805483400821686 0.000000000000000
9.436327934265137 4.565618515014648 -0.672036111354828 0.000000000000000
9.350471496582031 3.404690504074097 -0.812643885612488 0.000000000000000
9.486083030700684 3.416587829589844 -0.823384404182434 0.000000000000000
9.558906555175781 4.540753364562988 -0.678432524204254 0.000000000000000
9.152870178222656 3.259191513061523 1.771446824073792 0.000000000000000
11.880427360534668 4.186087608337402 2.296638965606689 0.000000000000000
9.996842384338379 3.405155658721924 -0.862138032913208 0.000000000000000
10.035117149353027 3.379142761230469 -0.864416241645813 0.000000000000000
10.198159217834473 3.394452810287476 -0.877434551715851 0.000000000000000
10.292673110961914 3.388036489486694 -0.884594619274139 0.000000000000000
9.239078521728516 3.511441230773926 -0.691147148609161 0.003921568859369
10.433927536010742 3.392200708389282 -0.895660161972046 0.000000000000000
9.605035781860352 4.198332309722900 -0.671810090541840 0.000000000000000
15.975949287414551 5.193981647491455 3.062902688980103 0.003921568859369
10.494460105895996 3.373445034027100 -0.899891138076782 0.000000000000000
10.624549865722656 3.372350454330444 -0.909980356693268 0.000000000000000
10.796029090881348 3.385340929031372 -0.923649549484253 0.000000000000000
4.705830097198486 1.732341289520264 -0.233586251735687 0.000000000000000
10.936918258666992 3.388552427291870 -0.934407949447632 0.000000000000000
11.074479103088379 3.388886451721191 -0.945147573947906 0.000000000000000
11.219806671142578 3.390598058700562 -0.956538021564484 0.000000000000000
2.529096603393555 1.031513929367065 -0.047649744898081 0.000000000000000
9.660060882568359 3.944561958312988 -0.668510138988495 0.003921568859369
18.359931945800781 5.479273319244385 3.492670774459839 0.003921568859369
10.334954261779785 3.442725896835327 -0.761482596397400 0.003921568859369
9.849563598632812 3.824835538864136 -0.676951289176941 0.000000000000000
10.457417488098145 3.441022157669067 -0.769573867321014 0.000000000000000
9.382839202880859 3.604016780853271 -0.643949925899506 0.000000000000000
10.567423820495605 3.438447475433350 -0.776828050613403 0.000000000000000
9.409665107727051 3.578571081161499 -0.644972980022430 0.000000000000000
10.697117805480957 3.439426183700562 -0.785477340221405 0.000000000000000
9.493080139160156 3.572437524795532 -0.649833500385284 0.000000000000000
10.853822708129883 3.446890830993652 -0.795819818973541 0.000000000000000
6.901507854461670 1.825307607650757 0.124417558312416 0.000000000000000
9.741473197937012 3.625771999359131 -0.665718317031860 0.000000000000000
5.552330493927002 1.468066334724426 0.233599781990051 0.000000000000000
9.950314521789551 3.624729633331299 -0.678252339363098 0.000000000000000
9.981682777404785 3.596771240234375 -0.679531037807465 0.000000000000000
9.979139328002930 3.556568384170532 -0.678507387638092 0.000000000000000
10.005930900573730 3.528804779052734 -0.679530203342438 0.000000000000000
6.688988685607910 1.946179628372192 1.864476561546326 0.000000000000000
7.985505580902100 1.847731590270996 -0.238354519009590 0.000000000000000
7.018188476562500 1.266494154930115 0.082884281873703 0.000000000000000
11.341180801391602 3.173011302947998 3.153419733047485 0.000000000000000
8.828083992004395 1.944986820220947 -0.052528869360685 0.000000000000000
10.856989860534668 3.490509033203125 -0.730196714401245 0.000000000000000
12.375839233398438 1.967359423637390 -0.145764529705048 0.000000000000000
13.175656318664551 3.345892906188965 1.667631626129150 0.000000000000000
7.855183601379395 1.730982780456543 0.985589802265167 0.000000000000000
7.386328220367432 1.175505757331848 0.609171032905579 0.000000000000000
9.598570823669434 2.471360683441162 0.287919640541077 0.000000000000000
7.319481372833252 1.138715744018555 0.603312492370605 0.000000000000000
8.494357109069824 1.291572928428650 -0.049914274364710 0.000000000000000
16.022291183471680 3.187303781509399 4.373014926910400 0.003921568859369
13.483604431152344 2.003584861755371 2.482457160949707 0.000000000000000
5.024671554565430 0.980109095573425 0.297087758779526 0.000000000000000
9.499530792236328 0.873391687870026 0.110821843147278 0.000000000000000
7.132077693939209 1.365429282188416 0.889552593231201 0.000000000000000
6.237178802490234 0.859041810035706 -0.036596741527319 0.000000000000000
8.544295310974121 1.979265213012695 -0.152847945690155 0.000000000000000
5.702743053436279 1.319499015808105 0.169628724455833 0.000000000000000
7.246956348419189 1.651485919952393 0.215613678097725 0.000000000000000
6.806809425354004 1.156726479530334 0.845167398452759 0.000000000000000
12.982158660888672 1.472765207290649 0.531467497348785 0.000000000000000
9.406380653381348 0.571194529533386 0.109418347477913 0.000000000000000
5.594840049743652 0.319761067628860 0.064881846308708 0.000000000000000
18.286100387573242 1.946372747421265 3.349259614944458 0.003921568859369
17.381549835205078 3.526538133621216 0.102993160486221 0.000000000000000
5.276174068450928 0.541565239429474 0.215126723051071 0.000000000000000
14.088690757751465 2.098096132278442 0.828364551067352 0.000000000000000
7.960270881652832 1.184190273284912 0.985582470893860 0.000000000000000
12.661139488220215 1.885180234909058 -0.297418802976608 0.000000000000000
8.295717239379883 1.590253710746765 -0.147139132022858 0.000000000000000
8.619871139526367 1.220720291137695 0.201915070414543 0.000000000000000
5.270838260650635 0.745150923728943 0.308435946702957 0.000000000000000
11.748640060424805 2.211675643920898 0.347166836261749 0.000000000000000
8.404531478881836 0.717414498329163 0.146716982126236 0.000000000000000
6.521250724792480 0.855717778205872 0.381484359502792 0.000000000000000
2.450924634933472 0.191199913620949 0.098947413265705 0.000000000000000
2.312117099761963 0.171836346387863 0.093245729804039 0.000000000000000
7.093753337860107 0.184277772903442 -0.247056663036346 0.000000000000000
2.025846004486084 0.242410048842430 -0.000226827760343 0.000000000000000
14.068213462829590 1.007416129112244 2.567157268524170 0.000000000000000
6.994423866271973 0.425487279891968 0.121770605444908 0.000000000000000
13.063069343566895 0.114418461918831 0.151832133531570 0.000000000000000
7.563499450683594 1.154057621955872 -0.133251547813416 0.000000000000000
7.936800956726074 0.818112254142761 0.463145434856415 0.000000000000000
2.299226522445679 0.123423755168915 0.092595502734184 0.000000000000000
8.094104766845703 0.407686799764633 -0.047043200582266 0.000000000000000
2.223902940750122 0.111090034246445 0.089301131665707 0.000000000000000
8.179546356201172 0.412056952714920 1.487940073013306 0.000000000000000
14.837128639221191 1.371958971023560 0.000043903739424 0.000000000000000
7.662039279937744 0.683114886283875 -0.000127009901917 0.000000000000000
16.957658767700195 0.624727725982666 3.088857889175415 0.003921568859369
17.839750289916992 2.285776138305664 -0.313350588083267 0.003921568859369
7.288840770721436 0.472544848918915 0.423587143421173 0.000000000000000
3.856330394744873 0.234444871544838 -0.089452303946018 0.000000000000000
7.161262035369873 0.739728450775146 -0.125261634588242 0.000000000000000
10.189763069152832 1.053931951522827 0.297107696533203 0.000000000000000
2.005951166152954 0.204900756478310 -0.127449214458466 0.003921568859369
8.129524230957031 0.045835696160793 0.660898506641388 0.000000000000000
6.137476921081543 -0.286341845989227 -0.071305707097054 0.000000000000000
8.009390830993652 0.798192560672760 0.233167290687561 0.000000000000000
14.724649429321289 0.747793018817902 0.856807172298431 0.000000000000000
7.331963062286377 0.347351759672165 0.425435036420822 0.000000000000000
10.732062339782715 0.471635252237320 0.623673141002655 0.000000000000000
2.365149736404419 0.094813816249371 0.286350369453430 0.000000000000000
2.397220373153687 0.087435618042946 0.290251433849335 0.000000000000000
5.512754917144775 0.165005177259445 -0.383573412895203 0.000000000000000
1.307687282562256 0.038536716252565 -0.030000628903508 0.003921568859369
3.637308597564697 -0.256129086017609 -0.126430317759514 0.000000000000000
1.219862699508667 0.031955141574144 -0.027955936267972 0.003921568859369
7.168483734130859 -0.182593330740929 -0.374224931001663 0.000000000000000
10.934503555297852 -0.853441298007965 -0.127292633056641 0.000000000000000
8.113492965698242 0.554325342178345 0.046950165182352 0.000000000000000
5.858623981475830 0.074721738696098 0.135284602642059 0.000000000000000
4.762970447540283 0.275460004806519 -0.303661167621613 0.000000000000000
9.244905471801758 0.053784068673849 0.536192893981934 0.000000000000000
2.136078834533691 -0.090218029916286 0.382809728384018 0.000000000000000
12.786274909973145 0.564262747764587 -0.222742781043053 0.000000000000000
16.473640441894531 -0.880307137966156 3.001409292221069 0.003921568859369
9.169223785400391 0.372323602437973 0.265906184911728 0.000000000000000
5.867882728576660 0.237782999873161 -0.374230265617371 0.000000000000000
1.211819767951965 0.040283691138029 -0.020883874967694 0.003921568859369
8.533446311950684 -0.125367894768715 0.197638198733330 0.000000000000000
7.716955184936523 0.262140244245529 0.223504617810249 0.000000000000000
4.820043563842773 -0.070479214191437 0.278372436761856 0.000000000000000
12.218652725219727 -0.776113629341125 2.225666284561157 0.000000000000000
1.211952447891235 0.036181464791298 -0.020883694291115 0.003921568859369
5.801653385162354 -0.105145514011383 -0.403386622667313 0.000000000000000
1.272039651870728 0.033704809844494 -0.021928647533059 0.003921568859369
3.681633472442627 -0.079111158847809 0.212054759263992 0.000000000000000
5.708467483520508 -0.680816471576691 -0.199658378958702 0.000000000000000
19.061910629272461 -0.546395003795624 2.336796045303345 0.003921568859369
7.076026439666748 -0.546811938285828 0.575914859771729 0.000000000000000
18.432203292846680 -0.528423249721527 -0.427843123674393 0.000000000000000
13.201626777648926 0.173326209187508 -0.229686945676804 0.000000000000000
8.499362945556641 -0.302012085914612 -0.000102355028503 0.003921568859369
9.864725112915039 -0.901767611503601 1.798689961433411 0.000000000000000
14.406532287597656 0.038724642246962 -0.250646740198135 0.000000000000000
5.598400115966797 -0.004264127463102 0.161514908075333 0.000000000000000
12.846102714538574 -1.265717864036560 2.346255779266357 0.000000000000000
8.284389495849609 -0.843868911266327 0.144560620188713 0.000000000000000
9.515505790710449 -0.969901680946350 0.777487576007843 0.000000000000000
8.682528495788574 -0.125940710306168 -0.150962248444557 0.000000000000000
6.412652969360352 -0.137132883071899 0.185155093669891 0.000000000000000
9.410371780395508 -1.122461199760437 0.770002424716949 0.000000000000000
6.464564323425293 -1.159005522727966 0.075792215764523 0.000000000000000
3.695154905319214 -0.321400046348572 0.449626117944717 0.000000000000000
4.516357421875000 -0.409496843814850 0.551060855388641 0.000000000000000
10.025465965270996 -1.910180091857910 -0.354821830987930 0.000000000000000
14.295507431030273 -2.779128551483154 -0.506756961345673 0.000000000000000
21.469823837280273 -3.173292398452759 3.949573040008545 0.003921568859369
7.948102474212646 -0.806115984916687 0.975332677364349 0.000000000000000
11.747843742370605 -1.235132217407227 0.685416877269745 0.000000000000000
8.327834129333496 -1.314775943756104 0.146247953176498 0.000000000000000
8.966100692749023 -1.003986477851868 0.208748772740364 0.000000000000000
10.249189376831055 -0.681856930255890 -0.655201256275177 0.000000000000000
12.913064002990723 -2.320312976837158 -0.075776718556881 0.000000000000000
5.362657070159912 -0.958266794681549 0.219751477241516 0.000000000000000
7.502367496490479 -0.602795541286469 -0.304805159568787 0.000000000000000
2.040731191635132 -0.366204768419266 0.164914339780807 0.000000000000000
6.198653697967529 -1.489282846450806 0.073503077030182 0.000000000000000
13.240532875061035 -2.567615509033203 1.097344517707825 0.000000000000000
6.262077808380127 -0.918904662132263 0.770997941493988 0.000000000000000
11.553288459777832 -1.701608180999756 3.116280078887939 0.000000000000000
17.570890426635742 -1.783816695213318 0.512872457504272 0.003921568859369
9.395842552185059 -0.984212577342987 -0.164028793573380 0.000000000000000
24.237804412841797 -4.348863124847412 6.585263252258301 0.003921568859369
21.768199920654297 -5.090895652770996 4.067479133605957 0.003921568859369
21.757951736450195 -5.168488979339600 4.068918228149414 0.003921568859369
9.108423233032227 -2.290845632553101 0.762243032455444 0.000000000000000
5.022124767303467 -1.293442130088806 0.418612033128738 0.000000000000000
11.275835037231445 -3.602740287780762 -0.136963754892349 0.000000000000000
23.809082031250000 -5.137073993682861 2.984804630279541 0.003921568859369
16.493940353393555 -3.856391906738281 0.983745992183685 0.000000000000000
24.413656234741211 -5.794040679931641 6.708582878112793 0.003921568859369
7.614731788635254 -2.277998924255371 1.438480973243713 0.000000000000000
6.981131553649902 -1.750037193298340 0.165975600481033 0.000000000000000
7.478379726409912 -2.266565322875977 1.414078950881958 0.000000000000000
7.526808738708496 -2.309892177581787 1.424846410751343 0.000000000000000
12.878245353698730 -3.334641695022583 0.000280077685602 0.000000000000000
12.423975944519043 -3.262524843215942 0.744896829128265 0.000000000000000
11.273895263671875 -2.958957195281982 1.424095392227173 0.000000000000000
11.723797798156738 -3.123376131057739 3.235445737838745 0.000000000000000
2.138069868087769 -0.578996777534485 0.125134095549583 0.000000000000000
2.132449150085449 -0.583689153194427 0.124668382108212 0.000000000000000
8.630885124206543 -2.419357299804688 1.092927932739258 0.000000000000000
15.638239860534668 -5.232708454132080 2.996001958847046 0.003921568859369
18.554662704467773 -5.432381153106689 1.123020529747009 0.000000000000000
13.536765098571777 -4.736898899078369 2.604120969772339 0.000000000000000
13.264416694641113 -5.435819149017334 0.166620776057243 0.000000000000000
13.370922088623047 -5.534085273742676 0.168215647339821 0.000000000000000
13.521035194396973 -4.839838981628418 2.607713937759399 0.000000000000000
14.875953674316406 -6.339758872985840 0.188133865594864 0.003921568859369
12.939277648925781 -4.780868053436279 2.504364013671875 0.000000000000000
14.388192176818848 -6.307364463806152 0.182705268263817 0.000000000000000
13.458572387695312 -5.897887706756592 -0.510456800460815 0.000000000000000
7.932086467742920 -2.580834150314331 2.217539310455322 0.000000000000000
14.352576255798340 -6.348315715789795 0.182519763708115 0.000000000000000
6.316445827484131 -1.739722847938538 0.188580542802811 0.000000000000000
14.657738685607910 -5.647617340087891 1.277614593505859 0.000000000000000
14.326678276062012 -6.396497726440430 0.182474911212921 0.000000000000000
13.591199874877930 -5.289087772369385 0.591998457908630 0.000000000000000
14.321352958679199 -6.456966400146484 0.182711273431778 0.000000000000000
13.501669883728027 -6.085619449615479 -0.514491081237793 0.000000000000000
14.550885200500488 -6.618943691253662 -0.184798970818520 0.000000000000000
14.527444839477539 -5.771993160247803 1.271432042121887 0.000000000000000
13.448472976684570 -5.341166496276855 2.627114057540894 0.000000000000000
14.578539848327637 -6.692909717559814 -0.185444757342339 0.003921568859369
11.614874839782715 -5.325759887695312 0.148368716239929 0.003921568859369
13.429746627807617 -5.387837886810303 2.627115964889526 0.000000000000000
14.225097656250000 -6.589879512786865 0.182342201471329 0.003921568859369
14.216486930847168 -6.646055698394775 0.182531580328941 0.000000000000000
13.311556816101074 -6.220951557159424 -0.510443925857544 0.000000000000000
11.395843505859375 -5.369291782379150 -0.145600467920303 0.000000000000000
13.191099166870117 -5.452141761779785 0.248463496565819 0.000000000000000
13.492505073547363 -5.577281475067139 2.650807857513428 0.000000000000000
12.592971801757812 -5.990422248840332 0.162057891488075 0.000000000000000
5.348568439483643 -1.630304336547852 0.160596862435341 0.000000000000000
13.271557807922363 -5.539694309234619 0.250358015298843 0.000000000000000
14.565843582153320 -5.265539646148682 4.133311271667480 0.000000000000000
13.607210159301758 -5.680439949035645 2.677366733551025 0.000000000000000
14.457126617431641 -6.940866947174072 -0.185388788580894 0.000000000000000
12.580240249633789 -6.035396575927734 0.162153199315071 0.000000000000000
13.728866577148438 -6.589562416076660 -0.882718563079834 0.000000000000000
14.457624435424805 -5.280306339263916 4.107424736022949 0.000000000000000
14.310533523559570 -6.931532859802246 -0.183813750743866 0.000000000000000
13.770410537719727 -6.668663024902344 -0.886897444725037 0.000000000000000
12.821947097778320 -6.206996917724609 -0.494835108518600 0.000000000000000
11.260139465332031 -5.493136405944824 -0.144761607050896 0.003921568859369
11.647870063781738 -5.683520793914795 0.150488302111626 0.000000000000000
13.772594451904297 -6.726911067962646 -0.888289034366608 0.000000000000000
13.374048233032227 -5.742688179016113 0.590713262557983 0.003921568859369
11.423681259155273 -5.622704505920410 -0.147119775414467 0.000000000000000
13.150291442871094 -5.700330734252930 0.249454364180565 0.000000000000000
13.863530158996582 -6.831414699554443 -0.895719468593597 0.000000000000000
13.350255012512207 -5.787485599517822 0.590552031993866 0.000000000000000
13.798587799072266 -5.200594902038574 3.933459520339966 0.000000000000000
11.465802192687988 -5.690700054168701 -0.147904887795448 0.003921568859369
14.901542663574219 -6.522356033325195 -0.093567341566086 0.000000000000000
14.683873176574707 -7.298249721527100 -0.950530946254730 0.003921568859369
13.265138626098633 -5.802516460418701 0.587617695331573 0.000000000000000
14.559619903564453 -5.544072151184082 1.905080556869507 0.003921568859369
2.730316638946533 -0.880720317363739 -0.049265209585428 0.000000000000000
11.474442481994629 -5.744832038879395 -0.148273542523384 0.000000000000000
14.853093147277832 -6.562714576721191 -0.093404553830624 0.003921568859369
13.114839553833008 -5.790834903717041 0.249528065323830 0.000000000000000
14.414278984069824 -5.545916557312012 1.888498902320862 0.003921568859369
12.716453552246094 -5.613897800445557 1.129754543304443 0.003921568859369
13.131883621215820 -6.580026626586914 -0.510151386260986 0.000000000000000
12.707694053649902 -5.662889480590820 1.130733609199524 0.000000000000000
13.132531166076660 -5.102609634399414 3.757421970367432 0.000000000000000
14.071389198303223 -6.335893154144287 0.268739670515060 0.000000000000000
14.348375320434570 -5.638188838958740 1.885088920593262 0.000000000000000
12.705012321472168 -5.717380523681641 1.132364153862000 0.000000000000000
14.754447937011719 -6.703836441040039 -0.093214750289917 0.000000000000000
14.599009513854980 -6.697307586669922 -0.092386253178120 0.000000000000000
13.175318717956543 -6.040846347808838 0.588279426097870 0.000000000000000
12.737193107604980 -5.838814258575439 1.138882756233215 0.003921568859369
12.482835769653320 -6.529751777648926 -0.162793129682541 0.000000000000000
11.308026313781738 -5.227534294128418 -0.071702696382999 0.000000000000000
11.560313224792480 -5.344916820526123 0.221495866775513 0.000000000000000
13.891422271728516 -5.625685214996338 1.832417011260986 0.003921568859369
14.549317359924316 -6.735714435577393 1.304039955139160 0.000000000000000
12.890896797180176 -5.218247890472412 3.708759069442749 0.000000000000000
12.042795181274414 -5.569338798522949 2.407508134841919 0.003921568859369
11.467170715332031 -6.046185016632080 -0.149791494011879 0.000000000000000
13.154530525207520 -6.142362594604492 0.589261770248413 0.003921568859369
12.226722717285156 -4.997447967529297 1.613901734352112 0.000000000000000
13.168854713439941 -6.149065971374512 1.181559562683105 0.000000000000000
12.865456581115723 -5.260019779205322 3.706689596176147 0.000000000000000
15.011110305786133 -7.077903747558594 0.674087762832642 0.003921568859369
12.201870918273926 -5.036797046661377 1.612927913665771 0.003921568859369
12.480806350708008 -5.878927707672119 1.121297359466553 0.000000000000000
12.839122772216797 -6.831466197967529 -0.505125045776367 0.000000000000000
12.599325180053711 -5.983406066894531 -0.403576463460922 0.000000000000000
13.203155517578125 -5.501118659973145 0.331700652837753 0.000000000000000
13.127928733825684 -6.235877990722656 0.589917600154877 0.000000000000000
14.273169517517090 -5.949384689331055 1.890954613685608 0.000000000000000
13.271638870239258 -5.584965229034424 0.333849698305130 0.000000000000000
11.864213943481445 -5.683364391326904 0.228793025016785 0.000000000000000
15.120943069458008 -6.367754936218262 0.951974272727966 0.000000000000000
13.944539070129395 -5.869742870330811 1.849496960639954 0.003921568859369
11.554189682006836 -5.533792495727539 2.323535919189453 0.000000000000000
14.187465667724609 -6.864442825317383 -0.090630054473877 0.000000000000000
11.543730735778809 -4.900755882263184 1.531476497650146 0.003921568859369
14.134691238403320 -6.899557590484619 -0.090444587171078 0.000000000000000
12.233064651489258 -6.722084522247314 0.162178561091423 0.000000000000000
14.078587532043457 -6.042003631591797 4.086748600006104 0.000000000000000
11.370442390441895 -5.542696952819824 2.294110536575317 0.000000000000000
12.695123672485352 -7.035244941711426 -0.167686104774475 0.000000000000000
12.761284828186035 -5.526209354400635 1.699270963668823 0.003921568859369
14.199090957641602 -6.152571201324463 4.128172397613525 0.000000000000000
14.461342811584473 -7.122186660766602 2.927182912826538 0.003921568859369
15.024143218994141 -6.571283340454102 0.000595152785536 0.003921568859369
13.235010147094727 -6.569436073303223 1.201116919517517 0.000000000000000
13.513670921325684 -5.907032966613770 3.933489561080933 0.003921568859369
10.952219963073730 -5.429594516754150 2.216594457626343 0.000000000000000
14.930869102478027 -6.595307826995850 0.947095215320587 0.003921568859369
12.675220489501953 -5.593682289123535 1.692933678627014 0.003921568859369
11.234463691711426 -5.621701240539551 2.278324127197266 0.000000000000000
14.346256256103516 -7.249236106872559 -0.465194642543793 0.000000000000000
14.016825675964355 -7.081852912902832 -0.090299658477306 0.003921568859369
13.118236541748047 -6.625294685363770 0.596454858779907 0.000000000000000
14.058533668518066 -7.103070735931396 -0.821304976940155 0.000000000000000
14.069633483886719 -6.268479347229004 1.883164405822754 0.000000000000000
11.760375022888184 -6.729577064514160 0.157405063509941 0.000000000000000
12.374135017395020 -7.083141803741455 -0.495082169771194 0.000000000000000
12.137882232666016 -6.236216545104980 0.237428680062294 0.000000000000000
12.494908332824707 -7.210568428039551 -0.835766732692719 0.000000000000000
12.843282699584961 -6.600959300994873 0.586018025875092 0.003921568859369
13.576424598693848 -6.163797378540039 3.976990699768066 0.000000000000000
14.788468360900879 -6.773350238800049 0.000595759542193 0.003921568859369
13.717971801757812 -7.978169441223145 -0.183359041810036 0.000000000000000
14.119743347167969 -6.465430259704590 0.360282987356186 0.003921568859369
13.591435432434082 -7.041770458221436 -0.798095881938934 0.003921568859369
13.564012527465820 -6.209409236907959 3.979063272476196 0.003921568859369
11.986750602722168 -7.024301052093506 -0.160505905747414 0.000000000000000
12.569362640380859 -7.367960929870605 -0.844124972820282 0.000000000000000
12.097867012023926 -5.587925434112549 1.628069043159485 0.000000000000000
11.778314590454102 -6.151559829711914 1.079619526863098 0.003921568859369
13.218832969665527 -6.108958721160889 3.883793830871582 0.000000000000000
11.842716217041016 -6.185370445251465 2.424038648605347 0.003921568859369
12.001213073730469 -7.086232662200928 -0.161013454198837 0.000000000000000
12.344377517700195 -6.501223087310791 -0.080240212380886 0.000000000000000
10.852787017822266 -6.403711795806885 0.146301880478859 0.000000000000000
12.565456390380859 -7.421585559844971 -0.845517098903656 0.000000000000000
12.722698211669922 -5.929473400115967 1.715381264686584 0.000000000000000
13.181011199951172 -6.144303798675537 3.878617763519287 0.000000000000000
12.865223884582520 -6.777168273925781 2.639371395111084 0.000000000000000
12.849634170532227 -6.823976516723633 -0.420848488807678 0.000000000000000
12.004467964172363 -7.142115116119385 -0.161335781216621 0.000000000000000
12.543520927429199 -7.465044021606445 -0.845515549182892 0.000000000000000
13.025492668151855 -6.124778270721436 -0.666606485843658 0.000000000000000
12.957468986511230 -6.092417240142822 3.817521810531616 0.000000000000000
12.862860679626465 -7.717069625854492 -0.173268690705299 0.000000000000000
10.818705558776855 -6.482841968536377 0.146398112177849 0.003921568859369
13.195427894592285 -5.491615295410156 0.414216250181198 0.000000000000000
12.241295814514160 -6.553464889526367 1.128162026405334 0.003921568859369
13.131372451782227 -6.230550289154053 3.875514984130859 0.000000000000000
14.303289413452148 -6.854368209838867 0.000575868994929 0.000000000000000
12.304943084716797 -7.441482067108154 -0.166097462177277 0.000000000000000
11.392333984375000 -5.451362609863281 0.292521804571152 0.000000000000000
10.781205177307129 -6.513834476470947 0.146211862564087 0.003921568859369
12.895675659179688 -7.801138401031494 -0.873150229454041 0.000000000000000
12.616184234619141 -6.814939022064209 0.581786274909973 0.000000000000000
12.049071311950684 -6.506584644317627 1.112527132034302 0.000000000000000
11.898837089538574 -7.194258689880371 -0.482675522565842 0.000000000000000
13.480857849121094 -6.457828044891357 3.986321687698364 0.000000000000000
11.510375022888184 -5.555047035217285 0.000349436362740 0.000000000000000
12.232465744018555 -7.452701091766357 -0.165448591113091 0.000000000000000
11.615164756774902 -5.605969905853271 0.298777610063553 0.000000000000000
11.746422767639160 -7.154608249664307 -0.796506941318512 0.000000000000000
12.523416519165039 -6.818055629730225 0.578525066375732 0.003921568859369
14.887241363525391 -6.383168697357178 0.094287559390068 0.003921568859369
12.587527275085449 -7.730706214904785 -0.855728924274445 0.000000000000000
12.471554756164551 -6.845983028411865 0.577221512794495 0.000000000000000
13.117440223693848 -6.392387390136719 3.891053438186646 0.003921568859369
14.058651924133301 -6.917757987976074 0.000567236216739 0.003921568859369
11.742370605468750 -7.267469882965088 -0.799755871295929 0.000000000000000
13.081753730773926 -7.245471477508545 0.606913208961487 0.003921568859369
10.682435989379883 -6.658342361450195 0.146122768521309 0.000000000000000
12.514978408813477 -7.809381961822510 -0.854564964771271 0.000000000000000
12.019614219665527 -6.708205699920654 1.118396639823914 0.003921568859369
11.841241836547852 -7.386200428009033 -0.484481155872345 0.003921568859369
12.225223541259766 -7.683634757995605 0.167826578021049 0.000000000000000
11.756746292114258 -7.387245655059814 -0.804166138172150 0.000000000000000
11.134242057800293 -5.564276695251465 1.519797682762146 0.000000000000000
11.840329170227051 -7.440121173858643 -0.485454976558685 0.000000000000000
13.080839157104492 -6.544190883636475 3.900378704071045 0.000000000000000
13.441002845764160 -6.784216403961182 0.000526882824488 0.000000000000000
14.148422241210938 -6.298976898193359 0.449108809232712 0.000000000000000
12.276066780090332 -7.775567531585693 -0.504536211490631 0.000000000000000
14.513995170593262 -6.520252227783203 -0.275880515575409 0.000000000000000
11.489492416381836 -7.327341556549072 -0.157392710447311 0.000000000000000
12.579845428466797 -8.027666091918945 0.173500925302505 0.000000000000000
14.229481697082520 -6.391684055328369 0.452376961708069 0.003921568859369
11.329344749450684 -5.758800506591797 1.551993608474731 0.003921568859369
11.991224288940430 -7.649614334106445 -0.493809789419174 0.000000000000000
13.888252258300781 -7.069045543670654 -0.360382914543152 0.000000000000000
14.519106864929199 -6.586387157440186 -0.276434540748596 0.000000000000000
11.761364936828613 -7.562582015991211 -0.161508023738861 0.000000000000000
14.724834442138672 -6.680226802825928 0.094135209918022 0.000000000000000
12.056342124938965 -6.186622619628906 -0.942131936550140 0.000000000000000
10.279242515563965 -5.268354415893555 3.076073408126831 0.003921568859369
14.456064224243164 -6.618346691131592 -0.275667846202850 0.000000000000000
13.530817985534668 -7.866248130798340 -0.452863335609436 0.000000000000000
12.290959358215332 -7.966116428375244 -0.169184833765030 0.000000000000000
10.910832405090332 -7.065634250640869 0.150956436991692 0.000000000000000
12.491162300109863 -6.466251850128174 -0.978086113929749 0.000000000000000
12.756098747253418 -8.269619941711426 -0.880802273750305 0.000000000000000
12.083238601684570 -7.019548416137695 0.566954195499420 0.000000000000000
10.226524353027344 -5.286068439483643 3.065719127655029 0.003921568859369
13.302981376647949 -6.945804119110107 0.000529946584720 0.000000000000000
11.665537834167480 -7.613095283508301 -0.160857975482941 0.003921568859369
11.551381111145020 -5.327581882476807 0.073822900652885 0.003921568859369
11.261121749877930 -7.347208499908447 0.156160846352577 0.000000000000000
12.744550704956055 -8.322497367858887 -0.881729722023010 0.000000000000000
12.574538230895996 -8.210716247558594 -0.521384596824646 0.000000000000000
12.805933952331543 -7.559496402740479 -0.430113226175308 0.003921568859369
14.254132270812988 -7.508876323699951 0.000614734191913 0.003921568859369
11.212064743041992 -7.370713710784912 0.155833855271339 0.000000000000000
11.719471931457520 -6.913808345794678 0.236681789159775 0.003921568859369
13.266021728515625 -6.180378437042236 -0.932533025741577 0.000000000000000
12.538982391357422 -8.249755859375000 -0.869419515132904 0.000000000000000
12.912998199462891 -6.014829635620117 -0.576778352260590 0.003921568859369
13.049032211303711 -8.587626457214355 -0.542415559291840 0.003921568859369
11.636736869812012 -7.707283973693848 -0.161179468035698 0.000000000000000
14.266550064086914 -6.706953525543213 0.091741986572742 0.003921568859369
11.871476173400879 -7.057134628295898 0.240259021520615 0.003921568859369
12.849970817565918 -6.819049835205078 -0.673644423484802 0.000000000000000
12.929109573364258 -6.074422836303711 -0.578402042388916 0.000000000000000
13.269881248474121 -8.796975135803223 -0.552860736846924 0.003921568859369
12.959776878356934 -6.877548694610596 3.911781549453735 0.003921568859369
10.979738235473633 -6.523113727569580 2.315676450729370 0.003921568859369
14.349435806274414 -6.807201385498047 -0.275312334299088 0.000000000000000
11.785686492919922 -7.865833282470703 -0.163629651069641 0.000000000000000
12.412943840026855 -8.287549018859863 -0.864539980888367 0.000000000000000
13.009041786193848 -7.799691200256348 0.615574419498444 0.000000000000000
12.817652702331543 -6.076186180114746 -0.574336946010590 0.000000000000000
13.000227928161621 -8.682361602783203 -0.542830884456635 0.003921568859369
12.665006637573242 -7.591989517211914 2.679591178894043 0.000000000000000
11.489923477172852 -7.724935054779053 -0.159882143139839 0.000000000000000
12.308785438537598 -7.435420989990234 -0.082647390663624 0.000000000000000
12.698025703430176 -8.543282508850098 -0.886601865291595 0.000000000000000
12.208240509033203 -6.585368633270264 0.803931891918182 0.000000000000000
13.094415664672852 -7.913300514221191 0.620959341526031 0.003921568859369
12.966531753540039 -8.725149154663086 -0.542690336704254 0.003921568859369
12.439534187316895 -6.710911273956299 3.767840862274170 0.000000000000000
11.412920951843262 -5.503200054168701 -0.219489514827728 0.000000000000000
12.440915107727051 -6.767748355865479 0.328298300504684 0.003921568859369
12.242538452148438 -8.296778678894043 0.171917259693146 0.000000000000000
12.694511413574219 -8.605264663696289 -0.888458609580994 0.000000000000000
13.264074325561523 -8.079711914062500 -0.809561073780060 0.000000000000000
12.833636283874512 -8.700203895568848 -0.538371264934540 0.003921568859369
12.995477676391602 -7.071390628814697 3.944924592971802 0.000000000000000
11.285264015197754 -6.920383930206299 0.230237260460854 0.000000000000000
12.588715553283691 -8.597188949584961 -0.883115768432617 0.000000000000000
12.994650840759277 -7.976618289947510 0.618841409683228 0.000000000000000
11.863646507263184 -7.277742862701416 1.130791783332825 0.000000000000000
11.739221572875977 -8.013068199157715 -0.493381112813950 0.000000000000000
12.903072357177734 -7.079055786132812 3.924214839935303 0.000000000000000
12.527901649475098 -7.688144683837891 2.667393207550049 0.000000000000000
11.441277503967285 -7.866717815399170 -0.160341352224350 0.003921568859369
13.343934059143066 -8.256559371948242 -0.090167172253132 0.000000000000000
12.563006401062012 -7.770219802856445 0.599429428577423 0.000000000000000
13.305678367614746 -8.232757568359375 -0.815620243549347 0.000000000000000
12.163613319396973 -7.521438598632812 2.594898700714111 0.000000000000000
11.531825065612793 -7.988718986511230 -0.162005260586739 0.000000000000000
13.010956764221191 -7.256989479064941 0.345480382442474 0.000000000000000
10.931588172912598 -7.569787502288818 0.154435008764267 0.000000000000000
11.616354942321777 -6.473938465118408 1.624200105667114 0.003921568859369
13.046694755554199 -9.046002388000488 -0.551321029663086 0.003921568859369
11.102758407592773 -5.543970584869385 -0.214965358376503 0.000000000000000
11.918818473815918 -7.484244346618652 -0.407007813453674 0.000000000000000
12.220410346984863 -8.532452583312988 -0.172132849693298 0.000000000000000
12.450976371765137 -7.820809841156006 -0.084498733282089 0.000000000000000
12.805627822875977 -8.045140266418457 -0.788233816623688 0.000000000000000
11.507309913635254 -6.465258598327637 1.612007021903992 0.003921568859369
11.695811271667480 -7.343151092529297 1.121999859809875 0.000000000000000
14.497669219970703 -7.252362251281738 -0.656730115413666 0.003921568859369
11.572915077209473 -8.077186584472656 -0.489895731210709 0.000000000000000
11.896867752075195 -6.685702323913574 3.637366294860840 0.003921568859369
11.031784057617188 -5.551422119140625 -0.213921412825584 0.000000000000000
11.834543228149414 -7.482722282409668 -0.404917746782303 0.000000000000000
12.206601142883301 -8.579779624938965 -0.172316834330559 0.000000000000000
11.640248298645020 -7.358969688415527 -0.079153150320053 0.003921568859369
11.240251541137695 -7.895750999450684 0.159593641757965 0.000000000000000
12.496591567993164 -8.785064697265625 -0.884969115257263 0.000000000000000
12.594952583312988 -7.966982364654541 0.604816854000092 0.003921568859369
12.874358177185059 -6.485915660858154 -0.583752274513245 0.000000000000000
11.576847076416016 -8.134022712707520 -0.491148322820663 0.000000000000000
11.808676719665527 -6.684501647949219 3.616656303405762 0.003921568859369
12.044899940490723 -6.117813587188721 -0.234078004956245 0.003921568859369
11.562712669372559 -7.366039276123047 -0.396444737911224 0.000000000000000
11.027014732360840 -7.802295684814453 -0.155989795923233 0.000000000000000
12.407328605651855 -8.786603927612305 -0.880787670612335 0.000000000000000
11.506072044372559 -8.143915176391602 -0.489336580038071 0.000000000000000
11.678082466125488 -6.663768768310547 3.583519220352173 0.000000000000000
11.886786460876465 -7.629621028900146 -0.408396720886230 0.000000000000000
10.893315315246582 -7.761021614074707 -0.154416263103485 0.000000000000000
12.285164833068848 -6.292400360107422 -0.879108250141144 0.000000000000000
12.351449966430664 -8.808504104614258 -0.878696203231812 0.000000000000000
13.039527893066406 -8.375144958496094 -0.807669937610626 0.000000000000000
11.367992401123047 -8.102018356323242 -0.484460562467575 0.000000000000000
13.058267593383789 -8.387156486511230 2.816699266433716 0.003921568859369
12.029561042785645 -7.784174919128418 -0.414314001798630 0.000000000000000
10.790279388427734 -7.746624946594238 -0.153351530432701 0.000000000000000
12.445834159851074 -8.945122718811035 0.178208321332932 0.003921568859369
10.665844917297363 -6.895095348358154 0.220779180526733 0.000000000000000
11.883160591125488 -6.139821529388428 -0.851764798164368 0.000000000000000
12.247919082641602 -8.801874160766602 -0.873585700988770 0.000000000000000
12.627305984497070 -8.173839569091797 0.610367715358734 0.000000000000000
13.205064773559570 -7.664660930633545 -0.707075059413910 0.003921568859369
11.868021011352539 -7.678814411163330 1.148392081260681 0.003921568859369
10.953839302062988 -7.922977924346924 -0.156079217791557 0.000000000000000
11.358579635620117 -7.402910232543945 -0.077909678220749 0.000000000000000
12.249385833740234 -8.867790222167969 -0.875907063484192 0.000000000000000
12.915830612182617 -8.425929069519043 -0.803695559501648 0.000000000000000
12.544207572937012 -8.181741714477539 1.217130422592163 0.000000000000000
12.641031265258789 -6.643337726593018 -0.247417449951172 0.000000000000000
12.010976791381836 -7.076114654541016 0.000471280189231 0.000000000000000
11.033893585205078 -8.037089347839355 -0.157604485750198 0.000000000000000
