# This PCD file was generated using the MATLAB® pcwrite function
# from Computer Vision Toolbox®.
# .PCD v.7 - Point Cloud Data file format
VERSION .7
FIELDS x y z intensity
SIZE 8 8 8 8
TYPE F F F F
COUNT 1 1 1 1
WIDTH 639
HEIGHT 1
VIEWPOINT 0 0 0 1 0 0 0
POINTS 639
DATA ascii
10.173495292663574 0.549581110477448 0.058767076581717 0.000000000000000
3.555611610412598 0.176653161644936 -0.060853492468596 0.000000000000000
5.346804618835449 -0.245905876159668 -0.030844733119011 0.000000000000000
10.257854461669922 0.021362988278270 0.236575067043304 0.000000000000000
13.711957931518555 0.028261516243219 3.649581432342529 0.000000000000000
6.660983562469482 -0.307544648647308 1.198695302009583 0.000000000000000
7.112803936004639 -0.353089034557343 -0.204750239849091 0.000000000000000
16.144260406494141 -0.022274380549788 0.373878598213196 0.000000000000000
10.767667770385742 -0.572447836399078 0.186598926782608 0.000000000000000
6.278602123260498 -0.331755012273788 0.252154499292374 0.000000000000000
8.453701019287109 -0.039441559463739 1.026553392410278 0.000000000000000
11.343449592590332 -0.053243644535542 3.014813423156738 0.000000000000000
6.500793933868408 -0.053587336093187 -0.448302358388901 0.000000000000000
14.039626121520996 -0.799170017242432 0.244003564119339 0.000000000000000
5.793586730957031 -0.047801684588194 0.699791193008423 0.000000000000000
10.643245697021484 0.427597224712372 -0.430091559886932 0.000000000000000
7.254558563232422 -0.410537689924240 1.307773828506470 0.000000000000000
9.711985588073730 -0.112398833036423 -0.000010631280020 0.003921568859369
9.826992988586426 -0.147791832685471 0.566963732242584 0.000000000000000
12.390329360961914 -0.788777410984039 1.006056189537048 0.000000000000000
13.950228691101074 -0.258670866489410 0.000214151397813 0.000000000000000
12.878935813903809 -0.238710507750511 0.297737538814545 0.000000000000000
13.132335662841797 -0.243587657809258 1.601532578468323 0.000000000000000
9.764554977416992 -0.214089870452881 -0.000021382293198 0.003921568859369
6.191091060638428 -0.134967654943466 0.354410588741302 0.000000000000000
3.273590564727783 0.073623552918434 -0.055754952132702 0.000000000000000
6.905532836914062 -0.174615517258644 0.835339069366455 0.000000000000000
19.598173141479492 -1.455798864364624 3.564863681793213 0.003921568859369
8.449155807495117 0.164703339338303 0.048460572957993 0.000000000000000
9.404636383056641 -0.727283895015717 1.701026082038879 0.000000000000000
5.782984733581543 -0.165545508265495 -0.132494792342186 0.000000000000000
15.762400627136230 0.259894460439682 -0.272957503795624 0.000000000000000
9.239677429199219 -0.295048475265503 0.212653473019600 0.000000000000000
8.121126174926758 -0.258968740701675 0.467074304819107 0.000000000000000
2.767903089523315 -0.216778218746185 0.108468569815159 0.000000000000000
6.186002254486084 -0.196529522538185 0.747057437896729 0.000000000000000
4.545872211456299 0.058193534612656 -0.077875889837742 0.000000000000000
6.062994956970215 -0.505650460720062 -0.174369573593140 0.000000000000000
14.357957839965820 -1.914537191390991 0.167502224445343 0.000000000000000
16.942319869995117 0.220589816570282 0.490604072809219 0.003921568859369
10.820589065551758 -0.909402370452881 0.878044128417969 0.000000000000000
14.435520172119141 -0.563062489032745 0.835571944713593 0.000000000000000
14.931724548339844 -0.582950711250305 3.976755380630493 0.000000000000000
11.089058876037598 0.067256860435009 -0.191669568419456 0.000000000000000
7.009136676788330 -0.295392543077469 -0.322201162576675 0.000000000000000
8.297000885009766 -0.752937138080597 0.671563744544983 0.000000000000000
10.910367965698242 -0.993202447891235 1.978751182556152 0.000000000000000
7.854765415191650 0.020361490547657 0.044941075146198 0.000000000000000
12.678047180175781 -0.581920742988586 0.293046414852142 0.000000000000000
8.313682556152344 -0.007067658938468 -0.143406465649605 0.000000000000000
3.829219818115234 -0.185460776090622 -0.261282354593277 0.000000000000000
14.587328910827637 -2.203288078308105 -0.170529827475548 0.000000000000000
28.350641250610352 -2.894496917724609 5.178122520446777 0.003921568859369
10.864967346191406 -0.084384702146053 -0.187793329358101 0.000000000000000
9.202487945556641 -0.071382746100426 0.052849307656288 0.000000000000000
3.510499954223633 -0.373180091381073 -0.020359935238957 0.000000000000000
12.256196975708008 -0.732632219791412 0.709135055541992 0.000000000000000
15.266306877136230 -0.966474533081055 0.353576242923737 0.000000000000000
8.572311401367188 -0.539668619632721 1.040612936019897 0.000000000000000
11.130906105041504 -0.163267254829407 -0.448841691017151 0.000000000000000
3.692084312438965 -0.065575696527958 -0.062905386090279 0.000000000000000
3.908523559570312 -0.069550700485706 0.021650770679116 0.000000000000000
13.181435585021973 -0.879384696483612 0.762906610965729 0.000000000000000
17.225589752197266 -1.151664972305298 2.106269121170044 0.003921568859369
9.521248817443848 -1.097009181976318 1.726801633834839 0.000000000000000
3.960259199142456 -0.083260416984558 0.021954705938697 0.000000000000000
8.804353713989258 -0.248721942305565 -0.151861429214478 0.000000000000000
7.359080314636230 -0.562616348266602 0.423013180494308 0.000000000000000
16.102567672729492 -0.513403952121735 -0.278862446546555 0.003921568859369
6.743433475494385 -0.538052141666412 -0.000278373889159 0.000000000000000
6.830904006958008 -0.215771943330765 0.195376709103584 0.000000000000000
10.672974586486816 -0.412930637598038 0.061432458460331 0.000000000000000
8.299664497375488 -1.127358555793762 1.506447553634644 0.000000000000000
6.921264648437500 -0.624429345130920 0.839158296585083 0.000000000000000
15.445589065551758 -2.165944576263428 2.823369503021240 0.000000000000000
10.517292022705078 -0.991081118583679 2.800344228744507 0.000000000000000
5.237054824829102 -0.760235726833344 -0.030519375577569 0.000000000000000
5.329278945922852 -0.792536199092865 -0.031075337901711 0.000000000000000
15.365247726440430 -0.809860169887543 0.444787442684174 0.000000000000000
7.781264781951904 -1.165287017822266 1.413851857185364 0.000000000000000
7.045704364776611 -1.425898432731628 0.081865258514881 0.000000000000000
11.201506614685059 -1.211134076118469 -0.000066421227530 0.003921568859369
13.139802932739258 -0.782260537147522 0.075932249426842 0.000000000000000
5.781925201416016 -0.677925050258636 1.526634693145752 0.000000000000000
4.459016799926758 -0.320627719163895 -0.076327756047249 0.000000000000000
4.228478908538818 -0.856904804706573 0.072432868182659 0.000000000000000
2.814306497573853 -0.320580244064331 -0.047738745808601 0.000000000000000
22.873157501220703 -6.442687034606934 -0.275110125541687 0.003921568859369
6.805372714996338 -0.892455637454987 -0.117871530354023 0.000000000000000
16.944627761840820 -3.091961145401001 4.580156803131104 0.003921568859369
22.654756546020508 -6.551095962524414 0.273056268692017 0.003921568859369
22.170137405395508 -6.490586757659912 0.267296493053436 0.003921568859369
21.622739791870117 -6.492591381072998 0.261147737503052 0.003921568859369
2.614893198013306 -0.373659074306488 -0.160841614007950 0.000000000000000
6.830391883850098 -2.044071435928345 -0.244767457246780 0.000000000000000
22.973876953125000 -7.066479682922363 -0.278280735015869 0.003921568859369
8.811418533325195 -2.717682361602783 -0.106300473213196 0.000000000000000
20.673130035400391 -6.436986446380615 0.250317037105560 0.003921568859369
4.492137908935547 -0.720553815364838 -0.077516533434391 0.000000000000000
20.174531936645508 -6.434576511383057 0.244732141494751 0.003921568859369
22.911026000976562 -7.396903038024902 -0.278809666633606 0.003921568859369
19.841157913208008 -6.399620532989502 0.240890458226204 0.003921568859369
21.913579940795898 -3.681748628616333 0.642990410327911 0.003921568859369
22.793878555297852 -7.446349620819092 -0.277711153030396 0.003921568859369
23.013113021850586 -7.611415863037109 -0.280747264623642 0.003921568859369
19.377403259277344 -6.401463031768799 0.235727012157440 0.003921568859369
19.036529541015625 -6.361348152160645 0.231792435050011 0.003921568859369
18.635150909423828 -6.366698265075684 0.227215990424156 0.003921568859369
3.382758855819702 -0.769885897636414 0.888559281826019 0.000000000000000
18.344646453857422 -6.337738037109375 0.223887816071510 0.003921568859369
21.772077560424805 -6.530277252197266 -0.657290339469910 0.003921568859369
22.921607971191406 -7.042754650115967 -0.138573408126831 0.003921568859369
22.935058593750000 -7.134138584136963 -0.138821706175804 0.003921568859369
18.434810638427734 -5.725608825683594 3.492427587509155 0.003921568859369
20.524065017700195 -6.464983463287354 -0.622138798236847 0.003921568859369
24.968790054321289 -6.561020851135254 3.151762247085571 0.003921568859369
21.778440475463867 -8.131707191467285 -0.269331783056259 0.003921568859369
7.076643943786621 -2.603121042251587 -0.258992105722427 0.000000000000000
19.754917144775391 -6.365216732025146 3.757181882858276 0.003921568859369
22.953527450561523 -7.495442867279053 -0.139631509780884 0.003921568859369
5.309660434722900 -1.420252799987793 1.432140469551086 0.000000000000000
19.548286437988281 -6.376786231994629 3.722003698348999 0.003921568859369
22.933736801147461 -7.573689937591553 -0.139635905623436 0.003921568859369
23.151136398315430 -7.730757236480713 -0.141133129596710 0.003921568859369
5.412507057189941 -1.505066156387329 1.462110996246338 0.000000000000000
13.077057838439941 -4.441359519958496 2.489094972610474 0.000000000000000
25.221466064453125 -7.466018199920654 7.005794048309326 0.003921568859369
15.897391319274902 -6.480735778808594 -0.991588532924652 0.003921568859369
10.984023094177246 -3.264981746673584 3.027661085128784 0.000000000000000
21.772640228271484 -6.519099712371826 -0.525268733501434 0.003921568859369
18.491539001464844 -6.594118118286133 0.339545816183090 0.003921568859369
15.834116935729980 -6.518740653991699 -0.989044368267059 0.003921568859369
4.799963474273682 -1.416167974472046 -0.226547598838806 0.000000000000000
15.805048942565918 -6.567574501037598 -0.988591969013214 0.003921568859369
5.638088703155518 -1.990173697471619 1.061055302619934 0.000000000000000
15.824986457824707 -6.643568992614746 -0.991395831108093 0.003921568859369
18.173963546752930 -6.689991474151611 -0.112136885523796 0.000000000000000
17.560338973999023 -5.512292385101318 4.889304637908936 0.003921568859369
18.839530944824219 -8.076941490173340 -0.237560778856277 0.003921568859369
18.164299011230469 -6.761579990386963 -0.112245142459869 0.000000000000000
23.803102493286133 -8.880908012390137 4.603694438934326 0.003921568859369
18.639650344848633 -8.058805465698242 -0.235293492674828 0.003921568859369
18.170774459838867 -6.828304767608643 -0.112406015396118 0.000000000000000
18.413759231567383 -8.036125183105469 -0.232798486948013 0.003921568859369
7.912672519683838 -2.540760517120361 -0.570223391056061 0.000000000000000
18.381984710693359 -8.022005081176758 -0.695548117160797 0.003921568859369
22.838241577148438 -6.318663120269775 0.136814370751381 0.003921568859369
14.190562248229980 -4.657070159912109 1.812910556793213 0.000000000000000
22.509208679199219 -6.306823253631592 0.134921684861183 0.003921568859369
8.687919616699219 -2.860080480575562 1.101958036422729 0.000000000000000
20.577579498291016 -8.064926147460938 -0.639020979404449 0.003921568859369
17.479175567626953 -5.880312919616699 -0.000411511864513 0.003921568859369
18.075643539428711 -8.183821678161621 0.228307023644447 0.003921568859369
16.528575897216797 -6.531463146209717 3.210051059722900 0.003921568859369
5.203202247619629 -2.028525829315186 0.441708683967590 0.000000000000000
16.414449691772461 -6.551702499389648 3.192097663879395 0.003921568859369
9.245875358581543 -3.190932273864746 1.179944276809692 0.000000000000000
19.318897247314453 -8.038854598999023 -0.604940354824066 0.003921568859369
10.663408279418945 -3.813459634780884 1.369593262672424 0.000000000000000
21.206764221191406 -6.501657009124756 -0.897005558013916 0.003921568859369
22.851982116699219 -9.611023902893066 -0.717416226863861 0.003921568859369
20.940959930419922 -6.495009422302246 -0.886611640453339 0.003921568859369
12.233687400817871 -4.430178165435791 3.441625833511353 0.000000000000000
10.210885047912598 -4.254086971282959 1.986559271812439 0.000000000000000
18.893062591552734 -8.083284378051758 -0.593867778778076 0.003921568859369
18.168830871582031 -6.748366832733154 -0.000552583369426 0.003921568859369
18.867568969726562 -8.072398185729980 -0.119054548442364 0.003921568859369
19.078367233276367 -7.091113090515137 5.406721591949463 0.003921568859369
18.740133285522461 -8.094182968139648 -0.589931368827820 0.003921568859369
18.238668441772461 -6.846559047698975 -0.000566690927371 0.003921568859369
18.578973770141602 -8.024009704589844 -0.117425948381424 0.003921568859369
20.197803497314453 -6.490151405334473 -0.857396245002747 0.003921568859369
16.900438308715820 -6.340340137481689 4.789617538452148 0.003921568859369
18.561738967895508 -8.092831611633301 -0.585180521011353 0.003921568859369
18.237070083618164 -6.918123245239258 -0.000582949258387 0.003921568859369
18.444694519042969 -8.041415214538574 -0.116770967841148 0.000000000000000
6.164099216461182 -2.989840745925903 -0.390373736619949 0.000000000000000
7.244500637054443 -3.108830928802490 -0.405221551656723 0.000000000000000
19.988950729370117 -6.498904228210449 -0.849443256855011 0.003921568859369
12.465963363647461 -4.707396030426025 3.523336648941040 0.000000000000000
18.227733612060547 -6.986872196197510 -0.000599455786869 0.003921568859369
19.901664733886719 -6.546582221984863 -0.846695899963379 0.003921568859369
18.194684982299805 -7.046343326568604 -0.450618803501129 0.000000000000000
18.183479309082031 -7.110989570617676 -0.000632375478745 0.003921568859369
6.211247920989990 -2.728663206100464 1.205065369606018 0.000000000000000
18.158260345458984 -7.246370315551758 -0.451598376035690 0.000000000000000
18.161169052124023 -7.317056655883789 -0.000681206118315 0.003921568859369
18.215614318847656 -7.339096546173096 -0.453659832477570 0.000000000000000
8.758391380310059 -4.027186393737793 1.725950837135315 0.000000000000000
18.214481353759766 -7.415779590606689 -0.454328536987305 0.000000000000000
7.698066711425781 -3.120874881744385 -0.379879117012024 0.000000000000000
18.188486099243164 -7.478668689727783 -0.454345613718033 0.000000000000000
17.447887420654297 -8.325768470764160 3.491626024246216 0.003921568859369
22.870359420776367 -9.605375289916992 -0.573713779449463 0.003921568859369
23.019548416137695 -12.515644073486328 -0.304408937692642 0.003921568859369
22.842708587646484 -12.521695137023926 -0.302662193775177 0.003921568859369
5.896324157714844 -2.460247755050659 1.662647366523743 0.000000000000000
18.892078399658203 -8.066799163818359 -0.474632978439331 0.003921568859369
2.118059158325195 -0.728017926216125 -0.036966916173697 0.000000000000000
18.186710357666016 -7.837200641632080 -0.000839654938318 0.003921568859369
8.283151626586914 -3.523441314697266 1.082167983055115 0.000000000000000
11.973015785217285 -5.131460666656494 3.441348552703857 0.000000000000000
18.474992752075195 -8.046425819396973 -0.000854625017382 0.003921568859369
22.865282058715820 -12.752223014831543 0.301364958286285 0.003921568859369
18.535980224609375 -8.073138236999512 -0.467140018939972 0.003921568859369
22.873825073242188 -12.850986480712891 0.301994472742081 0.003921568859369
18.237707138061523 -6.976026535034180 0.562330722808838 0.003921568859369
18.219467163085938 -7.045018196105957 0.562544822692871 0.003921568859369
6.758275032043457 -2.565101623535156 -0.288030564785004 0.000000000000000
18.228235244750977 -7.121109008789062 0.563575148582458 0.003921568859369
15.843770027160645 -8.025325775146484 3.205231904983521 0.003921568859369
6.516461372375488 -2.913978576660156 0.404270678758621 0.000000000000000
18.211725234985352 -7.259995937347412 -0.792049348354340 0.003921568859369
10.325230598449707 -4.670467376708984 2.987808942794800 0.000000000000000
20.007553100585938 -8.064152717590332 -0.872136235237122 0.003921568859369
19.886098861694336 -8.090678215026855 -0.867634952068329 0.003921568859369
22.821763992309570 -13.561436653137207 0.305271893739700 0.003921568859369
19.680561065673828 -8.085762977600098 -0.859843909740448 0.003921568859369
22.811943054199219 -13.663055419921875 0.305757492780685 0.003921568859369
18.170265197753906 -7.532743930816650 0.566105961799622 0.003921568859369
19.475296020507812 -8.079512596130371 -0.852052509784698 0.003921568859369
18.168607711791992 -7.598490238189697 0.566787481307983 0.003921568859369
18.349218368530273 -7.674472808837891 -0.803407967090607 0.003921568859369
23.052057266235352 -12.527828216552734 -0.152874872088432 0.003921568859369
22.807050704956055 -13.871010780334473 0.306915640830994 0.003921568859369
18.258489608764648 -7.714221477508545 -0.800661265850067 0.003921568859369
22.948705673217773 -12.569235801696777 -0.757700562477112 0.003921568859369
22.898361206054688 -12.541605949401855 -0.152153819799423 0.003921568859369
22.839174270629883 -13.994260787963867 0.307959914207458 0.003921568859369
18.254827499389648 -7.783538341522217 -0.801656007766724 0.003921568859369
22.827531814575195 -14.096447944641113 0.308445155620575 0.003921568859369
22.826515197753906 -14.211181640625000 0.309114873409271 0.003921568859369
18.290134429931641 -7.952714443206787 -0.805764496326447 0.003921568859369
22.763252258300781 -14.281497955322266 0.308903038501740 0.003921568859369
12.906899452209473 -6.399894237518311 3.809658527374268 0.000000000000000
22.736001968383789 -14.369125366210938 0.309157103300095 0.003921568859369
12.971726417541504 -6.485729217529297 3.835526943206787 0.000000000000000
22.767297744750977 -14.505684852600098 0.310291081666946 0.003921568859369
15.104340553283691 -7.703810691833496 4.492892742156982 0.003921568859369
7.716005325317383 -4.601666927337646 1.602803587913513 0.000000000000000
22.912153244018555 -12.538182258605957 -0.604885995388031 0.003921568859369
10.255376815795898 -6.443423271179199 0.971402645111084 0.000000000000000
10.437000274658203 -6.609984397888184 -0.639189422130585 0.003921568859369
7.500419616699219 -4.323017120361328 2.265742540359497 0.000000000000000
22.337938308715820 -16.727972030639648 0.319900929927826 0.003921568859369
22.911489486694336 -12.522033691406250 0.148948088288307 0.003921568859369
10.829857826232910 -6.603462696075439 3.345366239547729 0.000000000000000
10.775175094604492 -6.618056774139404 3.335002183914185 0.000000000000000
9.035623550415039 -6.184419155120850 1.958939671516418 0.000000000000000
10.223523139953613 -6.414735317230225 3.178548574447632 0.000000000000000
10.261548042297363 -6.483081817626953 1.464010596275330 0.000000000000000
22.859062194824219 -18.389976501464844 -0.342884659767151 0.003921568859369
21.406719207763672 -17.568235397338867 -0.323715269565582 0.003921568859369
12.404682159423828 -8.994054794311523 4.049687385559082 0.000000000000000
9.543107032775879 -7.123622417449951 3.133496999740601 0.000000000000000
7.500031948089600 -6.268887996673584 -0.504396855831146 0.000000000000000
5.213543415069580 -3.558736324310303 0.175684541463852 0.000000000000000
20.313732147216797 -17.975194931030273 -0.787958920001984 0.003921568859369
16.991825103759766 -15.103682518005371 -0.659789562225342 0.003921568859369
15.255593299865723 -15.557448387145996 -0.255832821130753 0.003921568859369
21.799013137817383 -18.629907608032227 -0.666878521442413 0.003921568859369
14.161567687988281 -14.820458412170410 -0.240765973925591 0.003921568859369
20.143043518066406 -17.429916381835938 1.535315275192261 0.003921568859369
16.490619659423828 -15.459560394287109 -0.525597274303436 0.003921568859369
14.865077972412109 -15.873158454895020 -0.632105827331543 0.003921568859369
14.007964134216309 -16.489459991455078 0.244460508227348 0.003921568859369
14.485372543334961 -17.184616088867188 -0.264933645725250 0.003921568859369
13.977819442749023 -17.413892745971680 -0.263464033603668 0.003921568859369
14.462234497070312 -18.030382156372070 0.261271119117737 0.003921568859369
14.010466575622559 -17.581386566162109 -0.265286624431610 0.003921568859369
14.272828102111816 -18.034051895141602 0.259607195854187 0.003921568859369
14.338425636291504 -16.748512268066406 -0.641557157039642 0.003921568859369
13.263996124267578 -17.349266052246094 0.246233880519867 0.003921568859369
14.275568962097168 -17.394905090332031 -0.655182063579559 0.003921568859369
13.829685211181641 -18.636343002319336 -0.274402081966400 0.003921568859369
14.298704147338867 -17.423990249633789 -0.135679557919502 0.003921568859369
13.418345451354980 -18.203426361083984 0.255030870437622 0.003921568859369
15.404174804687500 -15.542932510375977 -0.887937188148499 0.003921568859369
14.334449768066406 -17.963371276855469 -0.669458866119385 0.003921568859369
14.452930450439453 -18.246061325073242 -0.678155481815338 0.003921568859369
14.391592025756836 -18.298490524291992 -0.678301513195038 0.003921568859369
15.162940025329590 -17.968822479248047 2.856407642364502 0.003921568859369
7.445477485656738 -10.587588310241699 -0.450458914041519 0.000000000000000
15.832670211791992 -19.432567596435547 0.571858465671539 0.003921568859369
13.983907699584961 -17.498872756958008 5.942388057708740 0.003921568859369
13.882502555847168 -17.494558334350586 5.924772739410400 0.003921568859369
5.757363319396973 -7.770168781280518 1.725165367126465 0.000000000000000
13.758416175842285 -17.453718185424805 5.895780086517334 0.003921568859369
13.690376281738281 -17.491319656372070 5.892648220062256 0.003921568859369
5.031404018402100 -6.937129497528076 1.525187849998474 0.000000000000000
8.557771682739258 -12.215236663818359 2.681037902832031 0.000000000000000
5.063661575317383 -6.562103748321533 0.989749729633331 0.000000000000000
3.832824230194092 -5.392830371856689 0.521487057209015 0.000000000000000
2.919122934341431 -3.986731290817261 0.863635241985321 0.000000000000000
2.235755443572998 -3.004957199096680 -0.106365002691746 0.000000000000000
2.572477340698242 -3.560437679290771 -0.027421999722719 0.000000000000000
10.204418182373047 -14.424183845520020 4.677621364593506 0.003921568859369
1.734030365943909 -2.339144468307495 0.219576537609100 0.000000000000000
4.059334754943848 -6.595473766326904 -0.048054374754429 0.000000000000000
7.292072296142578 -11.033313751220703 3.488760948181152 0.000000000000000
3.223603248596191 -5.243698596954346 0.484872817993164 0.000000000000000
3.024974346160889 -4.882959365844727 1.012418627738953 0.000000000000000
4.321632385253906 -7.522918701171875 0.143963158130646 0.000000000000000
14.015153884887695 -26.337326049804688 -0.874248266220093 0.003921568859369
13.060493469238281 -24.697387695312500 -0.818571627140045 0.003921568859369
12.955356597900391 -24.715311050415039 -0.817667067050934 0.003921568859369
3.502143383026123 -4.962844848632812 -0.106208488345146 0.000000000000000
13.592470169067383 -26.189966201782227 -0.864836513996124 0.003921568859369
12.711555480957031 -24.650428771972656 -0.812796235084534 0.003921568859369
5.157911777496338 -8.787894248962402 -0.005059731192887 0.003921568859369
5.590063095092773 -9.581707000732422 2.919330120086670 0.000000000000000
7.486994743347168 -12.131558418273926 -0.251676559448242 0.000000000000000
3.777553558349609 -6.585257053375244 1.983375191688538 0.000000000000000
1.887616515159607 -3.423947095870972 0.149406000971794 0.000000000000000
2.651168823242188 -5.928286075592041 0.069540500640869 0.000000000000000
4.744052886962891 -8.793998718261719 -0.233830809593201 0.000000000000000
2.845962524414062 -4.766984462738037 -0.097602970898151 0.000000000000000
2.525034189224243 -4.181034088134766 -0.085742838680744 0.000000000000000
4.251585006713867 -8.533293724060059 2.506311416625977 0.000000000000000
5.630409717559814 -10.284054756164551 -0.207505077123642 0.000000000000000
3.662850379943848 -6.541973114013672 -0.132372409105301 0.000000000000000
6.922372341156006 -14.932742118835449 4.359978199005127 0.003921568859369
5.363726615905762 -10.279472351074219 0.326433479785919 0.000000000000000
12.034221649169922 -27.370407104492188 -0.704809010028839 0.003921568859369
1.173525571823120 -2.195635557174683 0.091993637382984 0.000000000000000
2.016905307769775 -3.920874357223511 0.517870604991913 0.000000000000000
3.401067733764648 -7.378001689910889 -0.005054193548858 0.000000000000000
5.421239376068115 -14.434525489807129 2.779483318328857 0.000000000000000
5.504978179931641 -14.962961196899414 2.874451875686646 0.003921568859369
8.760004043579102 -24.777727127075195 -0.773485720157623 0.003921568859369
5.442552089691162 -14.959235191345215 2.870136737823486 0.003921568859369
3.017958164215088 -7.868140220642090 0.139282956719398 0.000000000000000
6.758403778076172 -16.367654800415039 4.696546554565430 0.003921568859369
8.796061515808105 -25.469621658325195 -0.793237328529358 0.003921568859369
4.105783462524414 -9.645702362060547 -0.006129572167993 0.003921568859369
9.390177726745605 -27.593276977539062 -0.858238816261292 0.003921568859369
5.197012424468994 -14.915937423706055 2.848585605621338 0.000000000000000
6.529290199279785 -16.454975128173828 4.696461200714111 0.003921568859369
8.635201454162598 -26.206167221069336 -0.812582612037659 0.003921568859369
6.309939384460449 -16.037664413452148 4.571346759796143 0.003921568859369
6.061277389526367 -15.864893913269043 4.505122661590576 0.003921568859369
8.832492828369141 -28.494173049926758 -0.879285156726837 0.003921568859369
3.987600326538086 -9.024267196655273 -0.175518274307251 0.000000000000000
8.012800216674805 -26.750385284423828 -0.823214948177338 0.003921568859369
5.628234863281250 -15.642134666442871 4.409662246704102 0.003921568859369
8.055340766906738 -27.631296157836914 -0.848650455474854 0.003921568859369
5.726302146911621 -16.122602462768555 4.539893627166748 0.003921568859369
4.633169651031494 -15.280962944030762 2.881790399551392 0.003921568859369
8.077235221862793 -28.110439300537109 -0.862492263317108 0.003921568859369
7.957966327667236 -28.039224624633789 -0.859572231769562 0.003921568859369
5.392076015472412 -15.469916343688965 1.986872076988220 0.003921568859369
2.856171131134033 -6.571643829345703 -0.127503335475922 0.000000000000000
1.692775487899780 -4.859525203704834 0.200380668044090 0.000000000000000
4.533565998077393 -15.552652359008789 2.924687862396240 0.003921568859369
1.515326857566833 -3.493973016738892 -0.089162208139896 0.000000000000000
7.456990718841553 -26.927118301391602 -0.824108004570007 0.003921568859369
5.402030944824219 -15.879299163818359 2.034936189651489 0.003921568859369
3.364241838455200 -9.409944534301758 2.636731147766113 0.000000000000000
4.501198768615723 -15.650736808776855 2.940418481826782 0.003921568859369
7.666929244995117 -28.128425598144531 -0.860021710395813 0.003921568859369
4.550847053527832 -16.068861007690430 3.016278028488159 0.003921568859369
4.348763465881348 -15.469261169433594 2.900775671005249 0.003921568859369
2.580439805984497 -7.143846035003662 1.994622588157654 0.000000000000000
4.590221405029297 -11.804556846618652 -0.226013511419296 0.000000000000000
3.433645248413086 -12.784472465515137 2.386775970458984 0.000000000000000
4.709361076354980 -15.289309501647949 1.940766096115112 0.003921568859369
4.058373928070068 -12.975712776184082 3.602916955947876 0.000000000000000
3.975716114044189 -12.862383842468262 3.567757129669189 0.000000000000000
2.408455848693848 -7.303790569305420 0.923974573612213 0.000000000000000
3.223358869552612 -10.684717178344727 0.635907948017120 0.000000000000000
1.452385902404785 -4.892910480499268 0.198939099907875 0.000000000000000
4.495814800262451 -15.539389610290527 1.962783932685852 0.003921568859369
3.052489757537842 -12.714079856872559 2.358543395996094 0.000000000000000
3.643708229064941 -12.835477828979492 1.616412878036499 0.000000000000000
3.599553823471069 -12.830121040344238 1.614456892013550 0.000000000000000
3.973691225051880 -14.343659400939941 3.949848175048828 0.000000000000000
2.884994745254517 -12.543112754821777 2.322004795074463 0.000000000000000
4.327332019805908 -16.007957458496094 2.013209104537964 0.003921568859369
3.525212526321411 -16.097986221313477 1.328251481056213 0.003921568859369
2.848650217056274 -12.590277671813965 2.329148054122925 0.000000000000000
1.140203118324280 -3.803373813629150 -0.116908721625805 0.000000000000000
3.784216165542603 -14.015189170837402 1.760622739791870 0.000000000000000
3.610712766647339 -13.294640541076660 3.654218196868896 0.000000000000000
2.021612167358398 -11.811713218688965 0.130601614713669 0.000000000000000
2.256348371505737 -9.886478424072266 0.813671112060547 0.000000000000000
1.768157958984375 -10.235491752624512 0.112771756947041 0.000000000000000
2.409970283508301 -10.948670387268066 0.900710821151733 0.000000000000000
3.456704378128052 -16.716436386108398 3.086982250213623 0.003921568859369
1.347222566604614 -5.198304653167725 0.210160493850708 0.000000000000000
1.559422731399536 -5.342692375183105 -0.005091313272715 0.000000000000000
1.476313114166260 -5.035872936248779 0.114716745913029 0.000000000000000
3.165203094482422 -13.435296058654785 3.664190292358398 0.000000000000000
2.194422006607056 -11.759283065795898 0.199244663119316 0.000000000000000
3.180418491363525 -13.727598190307617 1.709726333618164 0.000000000000000
2.868639945983887 -16.260738372802734 1.331686139106750 0.000000000000000
3.126022338867188 -13.458972930908203 3.668310880661011 0.000000000000000
2.404163360595703 -13.163188934326172 2.417515754699707 0.000000000000000
3.058973789215088 -13.363104820251465 1.663092970848083 0.003921568859369
2.016503810882568 -8.061370849609375 2.194586038589478 0.000000000000000
2.826279163360596 -16.370910644531250 3.005698442459106 0.003921568859369
1.989356517791748 -10.908905029296875 -0.328593373298645 0.000000000000000
1.394356489181519 -6.741606235504150 0.550028443336487 0.000000000000000
1.931941986083984 -6.235874176025391 0.181165978312492 0.000000000000000
1.460926055908203 -7.392535686492920 0.603078603744507 0.000000000000000
3.400367975234985 -15.998052597045898 1.987427234649658 0.003921568859369
1.321674108505249 -6.920316696166992 -0.209013774991035 0.000000000000000
2.737783670425415 -17.948150634765625 3.287544727325439 0.003921568859369
2.507152795791626 -16.525112152099609 1.348464131355286 0.000000000000000
3.235684394836426 -16.309406280517578 4.422347545623779 0.003921568859369
2.152405261993408 -14.088290214538574 2.577466249465942 0.000000000000000
3.180662870407104 -16.330492019653320 4.425431251525879 0.003921568859369
2.037487506866455 -13.955216407775879 2.550966501235962 0.003921568859369
1.077653169631958 -3.954963445663452 0.228675797581673 0.000000000000000
2.755542516708374 -14.407126426696777 1.781686782836914 0.003921568859369
1.061367988586426 -3.941375970840454 0.227749392390251 0.000000000000000
1.542732596397400 -10.260341644287109 1.873381614685059 0.000000000000000
1.531836152076721 -6.937323570251465 -0.169471502304077 0.000000000000000
1.497504234313965 -7.032650470733643 0.866942942142487 0.000000000000000
1.500840187072754 -7.225318431854248 0.163682818412781 0.000000000000000
1.946007132530212 -8.198035240173340 0.235685259103775 0.000000000000000
1.848672866821289 -8.138098716735840 0.233486160635948 0.000000000000000
1.343048810958862 -12.956930160522461 2.358132600784302 0.003921568859369
1.680312275886536 -7.469027519226074 0.213800460100174 0.000000000000000
0.929127335548401 -2.962224006652832 0.013258172199130 0.000000000000000
0.980720639228821 -8.555567741394043 1.555446505546570 0.000000000000000
2.486753463745117 -12.939319610595703 -0.237908512353897 0.000000000000000
2.473407745361328 -13.124254226684570 0.377053081989288 0.000000000000000
1.603945612907410 -7.663170814514160 0.218914538621902 0.000000000000000
1.121617674827576 -6.904448986053467 0.397664815187454 0.000000000000000
1.391631364822388 -6.552330970764160 -0.121570281684399 0.000000000000000
1.443908929824829 -6.917577266693115 0.034390442073345 0.000000000000000
1.377491474151611 -6.544662952423096 0.032231085002422 0.000000000000000
2.360429763793945 -14.308746337890625 -0.262230485677719 0.000000000000000
1.397549390792847 -12.874370574951172 1.575091361999512 0.000000000000000
1.354795813560486 -12.909242630004883 1.578962445259094 0.000000000000000
1.414849519729614 -14.477078437805176 1.770655155181885 0.000000000000000
-0.890761375427246 -29.394935607910156 -0.361979812383652 0.003921568859369
0.941582083702087 -13.670526504516602 1.668889999389648 0.003921568859369
0.659093618392944 -13.788467407226562 1.682409524917603 0.003921568859369
-0.778838634490967 -29.652143478393555 2.402321100234985 0.003921568859369
0.243346691131592 -13.368661880493164 3.571375846862793 0.003921568859369
0.018333047628403 -13.431963920593262 1.639114141464233 0.000000000000000
-1.293649435043335 -14.955187797546387 -0.450538814067841 0.003921568859369
-0.559278905391693 -12.134222030639648 3.252617597579956 0.000000000000000
-0.893237054347992 -9.934278488159180 1.819528579711914 0.003921568859369
-0.839367806911469 -11.983595848083496 1.469921827316284 0.003921568859369
-0.884647548198700 -11.990423202514648 1.471369743347168 0.000000000000000
-0.615037322044373 -8.687706947326660 2.338302850723267 0.000000000000000
-5.177486419677734 -28.781864166259766 -0.876046597957611 0.003921568859369
-1.607803940773010 -10.171210289001465 0.838322520256042 0.003921568859369
-3.334758043289185 -18.178268432617188 1.501476049423218 0.000000000000000
-1.519072532653809 -9.306592941284180 1.727559328079224 0.000000000000000
-6.066576004028320 -28.154180526733398 -0.863965451717377 0.003921568859369
-7.355680465698242 -27.524639129638672 0.310962259769440 0.003921568859369
-3.208327054977417 -17.057600021362305 4.663428306579590 0.003921568859369
-1.327088356018066 -8.347014427185059 2.282121896743774 0.000000000000000
-7.657074451446533 -28.613430023193359 -0.889665603637695 0.003921568859369
-2.943072795867920 -14.195569038391113 3.902330398559570 0.003921568859369
-1.963579297065735 -8.328274726867676 1.576407194137573 0.000000000000000
-1.989184975624084 -8.308174133300781 1.574261903762817 0.000000000000000
-6.682066917419434 -28.217010498046875 -0.701079666614532 0.003921568859369
-3.644824028015137 -16.124219894409180 4.448387622833252 0.003921568859369
-5.504993915557861 -19.111865997314453 1.619328498840332 0.003921568859369
-2.190913677215576 -10.381058692932129 2.865392923355103 0.000000000000000
-5.579225063323975 -18.664850234985352 1.586730837821960 0.000000000000000
-3.339872360229492 -13.760642051696777 3.817445039749146 0.000000000000000
-3.122109889984131 -12.215086936950684 3.405265331268311 0.003921568859369
-6.335363864898682 -18.977859497070312 1.630718231201172 0.003921568859369
-4.574529170989990 -16.434339523315430 2.098392963409424 0.003921568859369
-4.360332012176514 -15.748032569885254 4.404788494110107 0.003921568859369
-2.052480220794678 -8.254326820373535 2.309704542160034 0.000000000000000
-2.118744373321533 -8.155855178833008 2.290084123611450 0.003921568859369
-4.575359821319580 -12.507604598999023 2.452371597290039 0.000000000000000
-3.929317474365234 -10.828476905822754 2.125759840011597 0.000000000000000
-5.693285465240479 -17.247413635253906 2.236322879791260 0.003921568859369
-6.006480216979980 -17.733076095581055 2.305146932601929 0.003921568859369
-7.095607757568359 -17.590322494506836 3.480831384658813 0.003921568859369
-5.536084651947021 -15.958045005798340 4.561547279357910 0.003921568859369
-7.199812412261963 -17.669311523437500 3.501561164855957 0.003921568859369
-4.426741600036621 -12.948293685913086 1.690919160842896 0.000000000000000
-7.259119033813477 -17.660112380981445 3.504938840866089 0.003921568859369
-4.539762496948242 -12.583150863647461 1.654581308364868 0.000000000000000
-3.024578094482422 -8.769196510314941 2.529392004013062 0.000000000000000
-4.159287929534912 -10.011598587036133 2.007733345031738 0.000000000000000
-3.596211194992065 -8.583743095397949 1.729734420776367 0.003921568859369
-6.919256687164307 -17.085765838623047 2.274265289306641 0.003921568859369
-3.705698966979980 -8.603732109069824 1.742484211921692 0.000000000000000
-6.949869155883789 -16.994127273559570 2.265547037124634 0.003921568859369
-5.045030117034912 -11.088719367980957 2.254900932312012 0.000000000000000
-3.201975345611572 -8.385348320007324 2.454947710037231 0.000000000000000
-6.695356369018555 -13.979550361633301 2.858804702758789 0.003921568859369
-2.521860122680664 -5.193099975585938 -0.219042122364044 0.000000000000000
-4.915123939514160 -11.253867149353027 1.525923609733582 0.000000000000000
-4.922703266143799 -11.170485496520996 1.517205834388733 0.000000000000000
-3.855390310287476 -8.778452873229980 2.626259326934814 0.003921568859369
-3.545929670333862 -8.094717979431152 2.425962209701538 0.003921568859369
-3.588335752487183 -8.107678413391113 2.434225797653198 0.003921568859369
-5.162634372711182 -11.071055412292480 1.519659876823425 0.003921568859369
-3.841652154922485 -7.533706665039062 -0.060535240918398 0.000000000000000
-4.842667102813721 -10.193952560424805 1.406761765480042 0.000000000000000
-2.225974321365356 -4.553146839141846 0.430374562740326 0.000000000000000
-8.521425247192383 -16.276613235473633 2.274096727371216 0.003921568859369
-5.288751125335693 -9.404547691345215 0.894603192806244 0.000000000000000
-5.902921199798584 -10.150177001953125 0.479121774435043 0.000000000000000
-8.669133186340332 -15.890151977539062 2.242165565490723 0.003921568859369
-8.710783004760742 -15.725983619689941 2.227956771850586 0.003921568859369
-8.165806770324707 -14.460080146789551 2.061291217803955 0.003921568859369
-6.538035869598389 -9.839563369750977 0.981314301490784 0.000000000000000
-10.717137336730957 -14.802324295043945 -0.994231045246124 0.003921568859369
-9.953421592712402 -13.806987762451172 1.404054880142212 0.000000000000000
-11.226258277893066 -14.421514511108398 3.387629985809326 0.003921568859369
-13.845733642578125 -17.357000350952148 4.101677417755127 0.003921568859369
-9.945493698120117 -12.344483375549316 0.647579252719879 0.003921568859369
-8.578633308410645 -9.828346252441406 1.087927818298340 0.003921568859369
-12.206627845764160 -14.995405197143555 -0.938126206398010 0.003921568859369
-8.604658126831055 -9.787354469299316 1.086977243423462 0.000000000000000
-2.320861101150513 -3.650432825088501 -0.199134930968285 0.000000000000000
-6.820472717285156 -7.698162078857422 1.307389974594116 0.000000000000000
-9.380143165588379 -9.307142257690430 0.545038521289825 0.000000000000000
-9.487802505493164 -9.272717475891113 0.547323346138000 0.003921568859369
-15.096165657043457 -15.670612335205078 5.937833309173584 0.003921568859369
-8.989812850952148 -8.643935203552246 1.046214580535889 0.000000000000000
-18.733839035034180 -17.234012603759766 4.711400508880615 0.003921568859369
-17.365133285522461 -17.179777145385742 1.430156707763672 0.003921568859369
-17.317619323730469 -17.015176773071289 1.421689391136169 0.003921568859369
-19.363050460815430 -16.945795059204102 2.121522665023804 0.003921568859369
-19.400472640991211 -16.845651626586914 2.118664264678955 0.003921568859369
-18.463037490844727 -17.620244979858398 1.494085550308228 0.003921568859369
-22.840066909790039 -17.603984832763672 0.319801837205887 0.003921568859369
-18.672588348388672 -15.910779953002930 -0.749535977840424 0.003921568859369
-19.793754577636719 -16.833892822265625 2.143177032470703 0.003921568859369
-11.752789497375488 -10.153356552124023 1.296619415283203 0.000000000000000
-14.215582847595215 -14.699336051940918 -0.871272444725037 0.003921568859369
-8.942202568054199 -8.615094184875488 3.449386596679688 0.000000000000000
-19.260272979736328 -16.042737960815430 2.069371938705444 0.003921568859369
-22.085622787475586 -16.318986892700195 0.305032104253769 0.003921568859369
-20.362585067749023 -18.445190429687500 1.607491135597229 0.003921568859369
-13.089098930358887 -12.075105667114258 4.892153263092041 0.003921568859369
-22.206798553466797 -16.273122787475586 0.305883198976517 0.003921568859369
-22.297021865844727 -16.228784561157227 0.306459605693817 0.003921568859369
-10.401001930236816 -9.583498001098633 3.913185119628906 0.003921568859369
-19.408830642700195 -17.240928649902344 1.520714759826660 0.003921568859369
-11.318343162536621 -9.253573417663574 2.750181674957275 0.003921568859369
-22.099397659301758 -15.735471725463867 0.301673889160156 0.003921568859369
-11.881033897399902 -9.625296592712402 2.873795509338379 0.003921568859369
-13.216500282287598 -10.573971748352051 3.171258687973022 0.003921568859369
-7.914176940917969 -7.234088897705078 -0.273151129484177 0.000000000000000
-19.292453765869141 -15.071516990661621 -0.748434484004974 0.003921568859369
-20.635892868041992 -16.086166381835938 2.160384416580200 0.003921568859369
-17.698547363281250 -13.873187065124512 4.182299613952637 0.003921568859369
-19.367345809936523 -15.018410682678223 -0.749220788478851 0.003921568859369
-22.393798828125000 -15.472538948059082 -0.344298899173737 0.003921568859369
-12.594914436340332 -9.882772445678711 1.337894678115845 0.003921568859369
-13.358305931091309 -10.298614501953125 1.407719016075134 0.000000000000000
-11.805127143859863 -9.161923408508301 2.812475681304932 0.003921568859369
-11.037098884582520 -9.449199676513672 1.836231946945190 0.003921568859369
-16.668338775634766 -11.288931846618652 0.224888116121292 0.003921568859369
-23.127696990966797 -16.952848434448242 -0.873066544532776 0.003921568859369
-16.445672988891602 -13.511750221252441 5.830279827117920 0.003921568859369
-19.144952774047852 -14.122760772705078 4.421465873718262 0.003921568859369
-23.238666534423828 -16.899993896484375 -0.874790787696838 0.003921568859369
-11.660873413085938 -8.728902816772461 2.745405435562134 0.000000000000000
-11.605319023132324 -8.635906219482422 2.728886842727661 0.000000000000000
-23.529941558837891 -16.866758346557617 -0.881594300270081 0.003921568859369
-13.137104988098145 -9.636382102966309 0.672907292842865 0.003921568859369
-14.012537002563477 -10.246042251586914 1.449187636375427 0.000000000000000
-23.101760864257812 -16.445770263671875 -0.863954305648804 0.003921568859369
-12.493197441101074 -9.120082855224609 0.639899611473083 0.003921568859369
-11.588303565979004 -9.415442466735840 1.887719511985779 0.000000000000000
-11.645454406738281 -9.460693359375000 4.155081272125244 0.003921568859369
-23.254657745361328 -16.428112030029297 -0.867342770099640 0.003921568859369
-5.775524616241455 -4.446754455566406 -0.054556168615818 0.000000000000000
-13.285063743591309 -9.523854255676270 1.367563486099243 0.000000000000000
-22.675346374511719 -15.679495811462402 -0.840450763702393 0.003921568859369
-17.783130645751953 -12.402760505676270 4.041994571685791 0.003921568859369
-22.423692703247070 -15.394005775451660 -0.829468786716461 0.003921568859369
-22.961069107055664 -15.632621765136719 -0.846632957458496 0.003921568859369
-11.398965835571289 -7.998456478118896 1.171913862228394 0.000000000000000
-22.539945602416992 -15.232443809509277 -0.829592704772949 0.003921568859369
-22.600385665893555 -15.161798477172852 -0.829896092414856 0.003921568859369
-11.719239234924316 -8.979890823364258 1.869034647941589 0.000000000000000
-10.960272789001465 -8.433018684387207 3.844417572021484 0.003921568859369
-24.366941452026367 -16.192661285400391 -0.890514492988586 0.003921568859369
-12.732020378112793 -9.576749801635742 2.013041019439697 0.003921568859369
-16.766265869140625 -12.450583457946777 5.733506202697754 0.003921568859369
-19.032526016235352 -12.656045913696289 4.258838653564453 0.003921568859369
-23.254467010498047 -17.063980102539062 -0.707170724868774 0.003921568859369
-12.578874588012695 -8.454473495483398 0.628600716590881 0.000000000000000
-18.124067306518555 -13.222641944885254 2.808063745498657 0.003921568859369
-18.207582473754883 -13.283550262451172 6.176698207855225 0.003921568859369
-23.225072860717773 -16.668054580688477 -0.700980067253113 0.003921568859369
-24.321992874145508 -15.430822372436523 -0.877334594726562 0.003921568859369
-22.502571105957031 -17.654109954833984 0.146803557872772 0.003921568859369
-23.794130325317383 -16.814306259155273 3.627454042434692 0.003921568859369
-19.545761108398438 -12.489787101745605 1.925318241119385 0.003921568859369
-23.462873458862305 -16.584152221679688 -0.704397737979889 0.003921568859369
-21.868423461914062 -13.810484886169434 -0.790041029453278 0.003921568859369
-21.731893539428711 -13.619575500488281 -0.783576905727386 0.003921568859369
-21.867044448852539 -13.604670524597168 -0.786731123924255 0.003921568859369
-19.455976486206055 -12.154390335083008 1.905104398727417 0.003921568859369
-21.005453109741211 -13.089546203613281 4.605384826660156 0.003921568859369
-21.645586013793945 -13.359820365905762 -0.777298510074615 0.003921568859369
-12.974984169006348 -7.298126697540283 -0.193232998251915 0.000000000000000
-13.341403961181641 -9.364535331726074 4.511913299560547 0.003921568859369
-22.997108459472656 -15.666160583496094 3.468642473220825 0.003921568859369
-23.622997283935547 -14.422330856323242 2.289467334747314 0.003921568859369
-20.078916549682617 -13.741230964660645 6.659459590911865 0.003921568859369
-11.979323387145996 -7.525459766387939 2.678683280944824 0.003921568859369
-24.775762557983398 -14.994919776916504 -0.881832122802734 0.003921568859369
-17.389085769653320 -11.880558967590332 2.642087221145630 0.003921568859369
-9.130227088928223 -6.464012145996094 3.145373344421387 0.000000000000000
-18.875007629394531 -11.436061859130859 1.835717439651489 0.003921568859369
-9.188865661621094 -6.457395553588867 3.159774303436279 0.000000000000000
-22.627696990966797 -15.198752403259277 -0.669374108314514 0.003921568859369
-9.260026931762695 -6.454177379608154 3.175293445587158 0.000000000000000
-9.845755577087402 -5.354938030242920 -0.148501515388489 0.000000000000000
-13.023328781127930 -7.830687046051025 0.631708383560181 0.000000000000000
-19.308961868286133 -11.409622192382812 1.865278601646423 0.003921568859369
-12.692173004150391 -7.643751621246338 2.803210258483887 0.003921568859369
-24.387681961059570 -14.075467109680176 2.330180644989014 0.003921568859369
-19.242851257324219 -11.194331169128418 4.157292366027832 0.003921568859369
-13.047325134277344 -7.657573699951172 0.629241764545441 0.000000000000000
-7.406321525573730 -3.981794834136963 -0.114384435117245 0.000000000000000
-24.225795745849609 -15.395984649658203 -0.703693032264709 0.003921568859369
-19.663995742797852 -11.149638175964355 1.880400896072388 0.003921568859369
-11.458419799804688 -7.401019573211670 0.817996680736542 0.003921568859369
-19.744842529296875 -11.101181030273438 1.884332060813904 0.003921568859369
-21.660413742065430 -12.040599822998047 4.616782188415527 0.003921568859369
-12.208186149597168 -7.736870765686035 1.838079929351807 0.000000000000000
-13.484579086303711 -7.583775043487549 2.924371957778931 0.003921568859369
-5.291007518768311 -2.821248531341553 -0.085175290703773 0.000000000000000
-11.730928421020508 -7.395769596099854 1.767673969268799 0.000000000000000
-8.752635002136230 -5.542088031768799 0.245277211070061 0.000000000000000
-21.332092285156250 -11.480162620544434 4.518194675445557 0.003921568859369
-12.149994850158691 -7.465917110443115 1.816289782524109 0.000000000000000
-3.965662956237793 -2.123044490814209 0.053284205496311 0.000000000000000
-2.067941188812256 -1.588116049766541 -0.081144645810127 0.000000000000000
-25.674045562744141 -11.580063819885254 0.317244350910187 0.003921568859369
-21.028785705566406 -12.112847328186035 6.656265735626221 0.003921568859369
