# This PCD file was generated using the MATLAB® pcwrite function
# from Computer Vision Toolbox®.
# .PCD v.7 - Point Cloud Data file format
VERSION .7
FIELDS x y z intensity
SIZE 8 8 8 8
TYPE F F F F
COUNT 1 1 1 1
WIDTH 647
HEIGHT 1
VIEWPOINT 0 0 0 1 0 0 0
POINTS 647
DATA ascii
5.449398517608643 3.568450212478638 1.756443738937378 0.000000000000000
9.146096229553223 5.823862552642822 0.632794678211212 0.000000000000000
3.763080120086670 2.158601999282837 -0.229381307959557 0.000000000000000
9.488744735717773 4.766156196594238 0.123411580920219 0.000000000000000
5.646566867828369 3.522562265396118 -0.156020596623421 0.000000000000000
6.139719486236572 3.681838274002075 1.927303194999695 0.000000000000000
8.551723480224609 5.077980518341064 1.224912405014038 0.000000000000000
17.951763153076172 9.478933334350586 3.706501483917236 0.003921568859369
9.665155410766602 5.690393924713135 3.014017105102539 0.000000000000000
16.779953002929688 9.698218345642090 5.199170112609863 0.003921568859369
18.410354614257812 9.469648361206055 3.778583765029907 0.003921568859369
17.483160018920898 8.686691284179688 3.563418388366699 0.003921568859369
5.255142688751221 2.927801847457886 0.741728782653809 0.000000000000000
7.631444931030273 3.704228401184082 0.148207172751427 0.000000000000000
11.405909538269043 6.235718250274658 1.598784565925598 0.000000000000000
12.950798034667969 6.219991683959961 2.623834371566772 0.000000000000000
7.065589427947998 3.366763830184937 1.431773304939270 0.000000000000000
6.017036437988281 2.843462705612183 0.116413250565529 0.000000000000000
12.631467819213867 6.727272510528564 3.841206789016724 0.000000000000000
11.620368957519531 6.143233299255371 3.528623819351196 0.000000000000000
15.529448509216309 8.126091003417969 4.700594902038574 0.003921568859369
16.655954360961914 7.702275753021240 3.348564624786377 0.003921568859369
10.717955589294434 6.147605895996094 -0.504516541957855 0.000000000000000
13.253274917602539 6.644231796264648 -0.691935479640961 0.000000000000000
14.270889282226562 6.300462722778320 2.847160816192627 0.000000000000000
9.755288124084473 4.855051517486572 2.924327135086060 0.000000000000000
6.428352355957031 2.789425849914551 -0.368404239416122 0.000000000000000
11.445936203002930 4.912321567535400 2.274021148681641 0.000000000000000
8.563958168029785 3.089009761810303 0.105976805090904 0.000000000000000
6.297768115997314 2.172076225280762 0.077597178518772 0.000000000000000
13.067562103271484 5.230830192565918 1.149627327919006 0.000000000000000
6.079496860504150 2.412379741668701 -0.534800589084625 0.000000000000000
7.407715320587158 3.814014673233032 -0.339939177036285 0.000000000000000
11.997334480285645 5.346182823181152 -0.000202837924007 0.000000000000000
2.345049381256104 1.169745087623596 -0.107143193483353 0.000000000000000
13.765387535095215 5.235723495483398 2.686720609664917 0.000000000000000
7.571006298065186 3.283916711807251 1.014332413673401 0.000000000000000
9.166438102722168 3.414665222167969 0.799192667007446 0.000000000000000
20.524997711181641 7.641183853149414 3.994546175003052 0.003921568859369
3.961154699325562 1.633479475975037 0.249532699584961 0.000000000000000
13.027126312255859 5.268591880798340 0.818364918231964 0.000000000000000
11.094093322753906 4.441816329956055 1.467307090759277 0.000000000000000
3.501319408416748 1.180366277694702 -0.193643063306808 0.000000000000000
16.291704177856445 5.492265701293945 3.134650468826294 0.003921568859369
6.739514350891113 2.616791725158691 0.887696385383606 0.000000000000000
3.403639316558838 1.321551442146301 0.978336036205292 0.000000000000000
9.155744552612305 2.978419542312622 0.392255395650864 0.000000000000000
20.087612152099609 6.534622192382812 3.851408004760742 0.003921568859369
2.691879749298096 0.841875076293945 0.229448676109314 0.000000000000000
8.514505386352539 2.637349843978882 -0.466517508029938 0.000000000000000
3.535782575607300 1.093311429023743 0.673008441925049 0.000000000000000
7.917357921600342 1.975827336311340 -0.474556297063828 0.000000000000000
8.563833236694336 2.950183391571045 1.111076831817627 0.000000000000000
21.399097442626953 7.293760299682617 2.775084495544434 0.003921568859369
6.530552387237549 2.223436355590820 1.845973610877991 0.000000000000000
14.754139900207520 4.970389366149902 1.910657644271851 0.000000000000000
8.877462387084961 2.482403278350830 -0.267869770526886 0.000000000000000
14.728871345520020 4.850515365600586 4.152724266052246 0.003921568859369
8.285684585571289 3.147796630859375 0.257623970508575 0.000000000000000
4.527390956878662 1.228635907173157 0.081602141261101 0.000000000000000
9.776760101318359 2.116437196731567 -0.581153392791748 0.000000000000000
6.874376296997070 1.815918087959290 -0.371437430381775 0.000000000000000
13.746909141540527 4.259380340576172 1.765084624290466 0.000000000000000
2.192289590835571 0.551082670688629 0.182885721325874 0.000000000000000
6.430681705474854 1.297104597091675 -0.228263854980469 0.000000000000000
15.431614875793457 3.853741168975830 0.277732402086258 0.000000000000000
5.763423442840576 1.716313362121582 0.349181115627289 0.000000000000000
11.520628929138184 2.243657112121582 -0.408873319625854 0.000000000000000
8.166072845458984 2.372582674026489 0.000201648450457 0.003921568859369
7.517376899719238 1.791454911231995 -0.044633686542511 0.000000000000000
16.301605224609375 4.742332458496094 -0.789410412311554 0.000000000000000
5.336795330047607 1.252709507942200 0.445964664220810 0.000000000000000
9.058273315429688 1.668452739715576 -0.320733487606049 0.000000000000000
4.344269752502441 1.001326918601990 -0.129110082983971 0.000000000000000
8.667873382568359 1.968494057655334 0.723470032215118 0.000000000000000
8.736129760742188 2.902520656585693 -0.373503416776657 0.000000000000000
7.708485603332520 1.696363449096680 0.137495502829552 0.000000000000000
7.400579452514648 2.010483264923096 0.445132851600647 0.000000000000000
15.857201576232910 4.317518234252930 2.014969825744629 0.003921568859369
18.764854431152344 3.998844385147095 3.493486166000366 0.003921568859369
15.873971939086914 4.144373416900635 0.954417943954468 0.000000000000000
3.850221633911133 0.802004933357239 -0.204481244087219 0.000000000000000
13.959469795227051 3.589064359664917 0.838266611099243 0.000000000000000
10.664218902587891 1.655544400215149 -0.375429749488831 0.000000000000000
4.754248619079590 1.430485129356384 -0.086028963327408 0.000000000000000
8.033846855163574 2.002676725387573 0.192245870828629 0.000000000000000
8.558488845825195 1.696139335632324 0.152050495147705 0.000000000000000
4.658571720123291 0.887711465358734 0.192060470581055 0.000000000000000
9.387133598327637 1.794783234596252 1.737331032752991 0.000000000000000
21.562681198120117 4.056480884552002 3.995836019515991 0.003921568859369
17.025283813476562 3.135202407836914 3.149935483932495 0.003921568859369
6.957604885101318 1.253076434135437 -0.204302027821541 0.000000000000000
10.530226707458496 1.900374650955200 -0.061454977840185 0.000000000000000
19.396520614624023 3.506721496582031 1.606898546218872 0.000000000000000
14.877134323120117 3.443863868713379 4.081898689270020 0.000000000000000
3.620620727539062 0.635550975799561 0.063496962189674 0.000000000000000
15.976847648620605 3.520771026611328 4.373910903930664 0.003921568859369
8.330942153930664 1.831604242324829 -0.197174608707428 0.000000000000000
6.143017292022705 1.016534447669983 1.128073930740356 0.000000000000000
7.909702301025391 1.284173965454102 -0.231709703803062 0.000000000000000
14.879014968872070 3.118442535400391 1.862494230270386 0.000000000000000
7.498542785644531 1.540097236633301 0.935292959213257 0.000000000000000
11.855545043945312 2.399177551269531 0.702692329883575 0.000000000000000
10.764807701110840 1.636920928955078 0.886066079139709 0.000000000000000
10.480969429016113 1.038213968276978 -0.121698737144470 0.000000000000000
11.841470718383789 1.714961290359497 0.974003434181213 0.000000000000000
9.482786178588867 0.869755685329437 0.110731825232506 0.000000000000000
8.159173965454102 1.149434208869934 -0.428753823041916 0.000000000000000
8.120318412780762 1.143783092498779 1.486289739608765 0.000000000000000
6.619841098785400 0.908938467502594 0.116020843386650 0.000000000000000
8.120854377746582 1.902909398078918 -0.144253700971603 0.000000000000000
1.541331052780151 0.351248055696487 -0.062478475272655 0.003921568859369
3.889321088790894 0.503097772598267 -0.202797040343285 0.000000000000000
9.660926818847656 1.259759426116943 0.791700541973114 0.000000000000000
1.542548418045044 0.346044957637787 -0.062478829175234 0.003921568859369
8.657209396362305 1.967642903327942 0.051811076700687 0.000000000000000
14.721505165100098 1.149184107780457 0.172156587243080 0.000000000000000
3.067298173904419 0.689490616321564 -0.198251396417618 0.000000000000000
25.189430236816406 4.468196868896484 3.136802196502686 0.003921568859369
6.573980808258057 0.832994282245636 1.199168562889099 0.000000000000000
8.237286567687988 1.016564607620239 -0.431899785995483 0.000000000000000
23.194480895996094 4.030310153961182 2.886066913604736 0.003921568859369
22.962549209594727 2.845030784606934 4.210976123809814 0.003921568859369
7.994035720825195 1.757763981819153 -0.141551882028580 0.000000000000000
12.205135345458984 1.466226816177368 0.499447882175446 0.000000000000000
3.185596704483032 0.223434999585152 -0.109738059341908 0.000000000000000
9.418004035949707 1.096820831298828 0.165093213319778 0.000000000000000
8.396802902221680 1.363445878028870 0.000435170048149 0.003921568859369
9.970545768737793 2.122649431228638 0.295816361904144 0.000000000000000
8.079845428466797 1.311585187911987 0.999250531196594 0.000000000000000
12.533360481262207 1.417451739311218 1.026238441467285 0.000000000000000
13.521213531494141 1.529538035392761 2.472499608993530 0.000000000000000
8.754481315612793 0.957457065582275 1.596808314323425 0.000000000000000
5.887818336486816 0.932602465152740 -0.137302905321121 0.000000000000000
8.295881271362305 1.704180479049683 -0.146492376923561 0.000000000000000
20.284688949584961 2.154936552047729 -0.116952575743198 0.003921568859369
11.021447181701660 2.229707956314087 -0.194711238145828 0.000000000000000
4.290932178497314 0.861611306667328 0.126018285751343 0.000000000000000
12.149146080017090 1.247816920280457 0.496169209480286 0.000000000000000
8.717359542846680 1.324385285377502 -0.407903492450714 0.000000000000000
8.417418479919434 1.245584249496460 0.000512131489813 0.003921568859369
6.635138988494873 0.979797303676605 0.816377460956573 0.000000000000000
17.639577865600586 1.747745633125305 3.222061395645142 0.003921568859369
4.630296707153320 0.894491374492645 -0.081090040504932 0.000000000000000
9.088184356689453 0.865769267082214 -0.052173893898726 0.000000000000000
10.560787200927734 1.006990551948547 0.430368781089783 0.000000000000000
9.680849075317383 1.368794083595276 0.000627430272289 0.003921568859369
3.975862741470337 0.362906962633133 0.320963084697723 0.000000000000000
12.482614517211914 1.151812314987183 2.275230884552002 0.000000000000000
11.475666046142578 1.624245405197144 -0.267471253871918 0.000000000000000
10.617730140686035 1.992462992668152 -0.186742171645164 0.000000000000000
10.365089416503906 1.427545547485352 1.277879953384399 0.000000000000000
5.343093872070312 0.731603205204010 1.428891301155090 0.000000000000000
4.072273731231689 0.541356623172760 0.094256579875946 0.000000000000000
15.420072555541992 2.073468446731567 0.903716027736664 0.000000000000000
4.067030906677246 0.540612697601318 0.496338874101639 0.000000000000000
14.446995735168457 1.230235934257507 2.633419275283813 0.000000000000000
9.589602470397949 1.731269478797913 0.282485544681549 0.000000000000000
3.872734785079956 0.501575887203217 -0.178984656929970 0.000000000000000
15.274488449096680 1.197023987770081 -0.087624087929726 0.000000000000000
15.813641548156738 2.017428874969482 1.951101779937744 0.003921568859369
2.599159717559814 0.190200790762901 -0.133419960737228 0.000000000000000
10.701850891113281 0.764374613761902 -0.309804439544678 0.000000000000000
6.261684417724609 0.445326715707779 -0.035870824009180 0.000000000000000
6.739524841308594 0.479644626379013 0.117159716784954 0.000000000000000
17.570978164672852 1.257582426071167 3.201916933059692 0.003921568859369
8.812010765075684 0.597850799560547 0.153571605682373 0.000000000000000
9.244527816772461 0.177770778536797 -0.534406960010529 0.000000000000000
6.968188762664795 0.471891224384308 -0.362476646900177 0.000000000000000
6.826146602630615 0.769319772720337 0.000334606069373 0.000000000000000
8.746721267700195 0.559838652610779 0.710944592952728 0.000000000000000
6.558427810668945 0.715909063816071 0.000307427166263 0.000000000000000
9.450324058532715 1.501895427703857 0.277331173419952 0.000000000000000
13.787190437316895 1.512569785118103 0.805155396461487 0.000000000000000
11.415205955505371 0.692157745361328 0.464112341403961 0.000000000000000
8.523793220520020 0.904493927955627 0.000567647744901 0.003921568859369
9.491071701049805 0.083621628582478 -0.109095819294453 0.000000000000000
4.667064666748047 0.491618335247040 0.567576408386230 0.000000000000000
2.978149890899658 0.455430090427399 -0.119854338467121 0.000000000000000
8.037284851074219 0.824199378490448 0.983753979206085 0.000000000000000
12.496535301208496 1.854387640953064 -0.218215331435204 0.000000000000000
12.822470664978027 0.643450796604156 -0.370598822832108 0.000000000000000
5.547462463378906 0.545332729816437 0.128282979130745 0.000000000000000
9.578656196594238 1.418802380561829 0.280462861061096 0.000000000000000
13.024204254150391 0.020129475742579 -0.451406031847000 0.000000000000000
9.337071418762207 0.893514096736908 0.000643644540105 0.003921568859369
3.433640241622925 0.311656415462494 0.000014327117242 0.000000000000000
5.247798919677734 0.718024313449860 -0.334647268056870 0.000000000000000
12.090279579162598 0.482330560684204 0.982763588428497 0.000000000000000
6.366832256317139 0.231693476438522 0.110233843326569 0.000000000000000
9.455083847045898 1.235029339790344 0.276124149560928 0.000000000000000
6.367640018463135 0.208621814846992 0.110231213271618 0.000000000000000
9.790259361267090 0.321942746639252 1.773501515388489 0.000000000000000
10.482358932495117 1.337025284767151 0.061806403100491 0.000000000000000
16.730846405029297 1.257632970809937 4.477923393249512 0.003921568859369
13.186729431152344 -0.341414451599121 0.153595507144928 0.000000000000000
12.240572929382324 -0.316726535558701 -0.424298405647278 0.000000000000000
6.645839214324951 0.149976864457130 1.199202179908752 0.000000000000000
14.350768089294434 0.975646436214447 0.001129739452153 0.000000000000000
11.234981536865234 0.762685120105743 0.261169701814651 0.000000000000000
9.002655029296875 1.050419211387634 0.262328743934631 0.000000000000000
4.358240127563477 0.068419255316257 0.174311369657516 0.000000000000000
4.555194854736328 0.290519714355469 0.550497412681580 0.000000000000000
9.150938987731934 0.145261138677597 0.741031765937805 0.000000000000000
9.852074623107910 0.634595513343811 2.624146699905396 0.000000000000000
14.990340232849121 0.238714382052422 2.719776153564453 0.000000000000000
12.056941032409668 1.325928330421448 0.071110874414444 0.000000000000000
6.150655269622803 0.671827554702759 0.178044766187668 0.000000000000000
4.290515899658203 0.052639275789261 0.171533808112144 0.000000000000000
8.357772827148438 0.508832216262817 -0.385630756616592 0.000000000000000
14.518916130065918 0.180751726031303 2.633620262145996 0.000000000000000
5.367370128631592 0.565517187118530 -0.092516534030437 0.000000000000000
11.711725234985352 1.244571089744568 0.069016680121422 0.000000000000000
4.118850708007812 -0.161642670631409 0.047057297080755 0.000000000000000
3.972140789031982 0.416196882724762 -0.250624656677246 0.000000000000000
4.338640213012695 0.037642270326614 0.173490971326828 0.000000000000000
10.757657051086426 0.617151081562042 -0.247969806194305 0.000000000000000
10.474465370178223 1.077293872833252 0.061606604605913 0.000000000000000
4.453936576843262 0.453111410140991 -0.281522840261459 0.000000000000000
11.374367713928223 0.615129172801971 0.659518301486969 0.000000000000000
8.566630363464355 0.047180138528347 -0.444108009338379 0.000000000000000
8.325582504272461 0.825398087501526 0.241718918085098 0.000000000000000
11.025501251220703 0.557816088199615 0.639007866382599 0.000000000000000
9.238701820373535 0.018857438117266 0.373649090528488 0.000000000000000
5.630765438079834 0.011250647716224 1.011855125427246 0.000000000000000
6.472588062286377 0.616185426712036 0.037699770182371 0.000000000000000
12.100446701049805 0.568469643592834 0.701683640480042 0.000000000000000
2.596604824066162 0.242344379425049 -0.102991797029972 0.000000000000000
16.226354598999023 1.500170707702637 -0.281443178653717 0.003921568859369
19.619094848632812 -0.099302887916565 0.342738926410675 0.003921568859369
9.686441421508789 0.860268652439117 -0.167541965842247 0.000000000000000
17.711902618408203 0.713889718055725 0.001620910945348 0.003921568859369
4.593502998352051 -0.038027629256248 0.078840710222721 0.000000000000000
13.664576530456543 -0.114249281585217 1.109905481338501 0.000000000000000
10.724731445312500 -0.126656234264374 0.434363365173340 0.000000000000000
8.933921813964844 0.327425211668015 -0.205495610833168 0.000000000000000
10.542587280273438 0.863373875617981 0.061864271759987 0.000000000000000
8.349246978759766 -0.127233937382698 -0.047561574727297 0.000000000000000
5.497617244720459 0.446865737438202 0.158394843339920 0.000000000000000
10.811435699462891 -0.165109157562256 0.188052862882614 0.000000000000000
15.749875068664551 -0.241374447941780 2.858267068862915 0.000000000000000
8.821795463562012 -0.591446936130524 -0.101495526731014 0.000000000000000
11.026760101318359 -0.204720616340637 0.191840648651123 0.000000000000000
11.386672973632812 -0.211545854806900 0.923808574676514 0.000000000000000
12.774611473083496 -0.237671330571175 2.315532922744751 0.000000000000000
19.315237045288086 1.452487468719482 0.113994322717190 0.000000000000000
7.439150810241699 -0.525028169155121 0.086203768849373 0.000000000000000
10.936074256896973 0.287631869316101 0.633148014545441 0.000000000000000
7.373672962188721 0.524173736572266 0.042958948761225 0.000000000000000
17.146688461303711 -0.440996080636978 -0.097570925951004 0.000000000000000
12.330356597900391 -0.316596835851669 0.499756366014481 0.000000000000000
14.552402496337891 0.992948174476624 0.423292577266693 0.000000000000000
10.314916610717773 -0.334019780158997 -0.296892553567886 0.000000000000000
15.352011680603027 0.994415223598480 0.090453535318375 0.000000000000000
3.248564004898071 0.051024500280619 -0.220752939581871 0.000000000000000
16.369466781616211 -0.531853914260864 0.285736441612244 0.003921568859369
14.225810050964355 -0.461682349443436 -0.739856958389282 0.000000000000000
8.467966079711914 0.545762896537781 -0.341272294521332 0.000000000000000
7.737607002258301 0.123838737607002 -0.177400499582291 0.000000000000000
8.638936996459961 -0.309187531471252 -0.049142718315125 0.000000000000000
15.275276184082031 0.193025991320610 0.354767978191376 0.000000000000000
10.392491340637207 0.059005819261074 0.000830592995044 0.003921568859369
11.782185554504395 -0.545537948608398 0.477672874927521 0.000000000000000
14.356803894042969 0.032052658498287 -0.330607593059540 0.000000000000000
6.693592548370361 -0.331170260906219 -0.192026853561401 0.000000000000000
12.713889122009277 -0.721612095832825 1.033023476600647 0.000000000000000
9.635173797607422 -0.575587809085846 -0.054919626563787 0.000000000000000
9.685417175292969 -0.109174847602844 0.223951920866966 0.000000000000000
9.370163917541504 0.347951978445053 0.270942181348801 0.000000000000000
8.446567535400391 0.284151345491409 -0.145275309681892 0.000000000000000
11.093093872070312 -0.702124178409576 0.449884086847305 0.000000000000000
13.753410339355469 -0.250715672969818 0.796436488628387 0.000000000000000
3.980946540832520 0.104672998189926 -0.067655153572559 0.000000000000000
4.601221561431885 0.121434077620506 0.026300815865397 0.000000000000000
8.528263092041016 0.227612137794495 0.245989456772804 0.000000000000000
4.851853370666504 -0.137043043971062 -0.221164152026176 0.000000000000000
9.074554443359375 -0.761580049991608 -0.051724143326283 0.000000000000000
12.073564529418945 -1.016489267349243 2.191423416137695 0.000000000000000
9.752913475036621 -0.379454463720322 -0.223959460854530 0.000000000000000
9.826600074768066 0.060703121125698 0.283839046955109 0.000000000000000
11.179326057434082 -1.016354203224182 0.908876955509186 0.000000000000000
5.318545818328857 0.032516233623028 -0.212262392044067 0.000000000000000
7.129129886627197 0.019356146454811 -0.285780429840088 0.000000000000000
4.534281253814697 -0.003361142007634 -0.077231884002686 0.000000000000000
14.920716285705566 -0.735488951206207 0.001404282404110 0.000000000000000
14.156366348266602 -1.438276529312134 2.576919555664062 0.000000000000000
3.502336263656616 -0.026363700628281 -0.059364933520555 0.000000000000000
5.335680961608887 -0.814091503620148 -0.061561178416014 0.000000000000000
6.879171848297119 -0.407081663608551 0.158128753304482 0.000000000000000
11.345799446105957 -0.675734877586365 0.656365156173706 0.000000000000000
10.540011405944824 -0.116784155368805 -0.423816382884979 0.000000000000000
7.650229930877686 -0.110799558460712 -0.306521296501160 0.000000000000000
9.842186927795410 -0.176962584257126 -0.168957278132439 0.000000000000000
12.989616394042969 -0.234243959188461 0.376151442527771 0.000000000000000
9.230038642883301 -1.548890590667725 -0.107111714780331 0.000000000000000
9.771867752075195 -1.159021854400635 0.397024005651474 0.000000000000000
12.587965965270996 -0.314076513051987 0.364440500736237 0.000000000000000
10.786139488220215 -0.343226373195648 -0.185391873121262 0.000000000000000
7.138615131378174 -0.226073578000069 0.205041438341141 0.000000000000000
9.973206520080566 -1.288052797317505 0.405823081731796 0.000000000000000
15.073199272155762 -0.480926871299744 -0.608180522918701 0.000000000000000
6.941100597381592 -0.267452925443649 0.199302554130554 0.000000000000000
4.304485321044922 -0.384737521409988 0.245138436555862 0.000000000000000
10.130722045898438 -1.415763139724731 1.845333695411682 0.000000000000000
4.031580924987793 -0.372763812541962 -0.000014249351807 0.000000000000000
11.637442588806152 -0.570042610168457 -0.200315669178963 0.000000000000000
12.237713813781738 -1.195780158042908 0.710587978363037 0.000000000000000
4.799081325531006 -0.462355166673660 0.578232109546661 0.000000000000000
10.895463943481445 -1.598757028579712 1.988191723823547 0.000000000000000
9.061676979064941 -0.473492652177811 -0.155450344085693 0.000000000000000
2.953815698623657 -0.160054653882980 0.082352519035339 0.000000000000000
5.101796150207520 -0.791707158088684 0.919160604476929 0.000000000000000
6.753553867340088 -0.747562110424042 0.000352471426595 0.000000000000000
5.099004268646240 -0.809080302715302 0.919156610965729 0.000000000000000
10.869888305664062 -1.824287891387939 1.988213419914246 0.000000000000000
15.560455322265625 -1.302222490310669 0.091713577508926 0.000000000000000
8.753819465637207 -0.818262577056885 -0.150418341159821 0.000000000000000
4.331165313720703 -0.457849800586700 0.122896023094654 0.000000000000000
1.969445586204529 -0.200365409255028 -0.075570091605186 0.003921568859369
10.097065925598145 -1.227276206016541 -0.174354791641235 0.000000000000000
3.938484907150269 -0.946910083293915 -0.782286226749420 0.003921568859369
25.124275207519531 -5.581820011138916 6.861472606658936 0.003921568859369
9.880362510681152 -2.210726499557495 0.000662032456603 0.003921568859369
3.377065896987915 -0.650183618068695 -0.057605713605881 0.000000000000000
17.819286346435547 -6.430264949798584 0.220116853713989 0.003921568859369
17.567760467529297 -6.407637119293213 0.217230901122093 0.003921568859369
24.878376007080078 -6.529521942138672 3.142518997192383 0.003921568859369
9.779244422912598 -2.578510046005249 2.670573711395264 0.000000000000000
16.979984283447266 -6.392196178436279 0.210642650723457 0.003921568859369
17.242868423461914 -3.818169832229614 0.103632971644402 0.000000000000000
17.082088470458984 -6.494496345520020 -0.631626307964325 0.003921568859369
18.309047698974609 -7.107730865478516 -0.225588127970695 0.003921568859369
18.247846603393555 -7.229773521423340 -0.225494474172592 0.003921568859369
18.263292312622070 -7.309325695037842 -0.226024657487869 0.003921568859369
17.180143356323242 -4.113812923431396 -0.711360156536102 0.003921568859369
18.252487182617188 -7.378500461578369 -0.226231828331947 0.003921568859369
25.105562210083008 -7.433673381805420 6.976283550262451 0.003921568859369
20.089372634887695 -7.014806270599365 3.853093147277832 0.003921568859369
17.174282073974609 -4.238298892974854 -0.712371826171875 0.003921568859369
10.920667648315430 -3.246966361999512 3.011288166046143 0.000000000000000
18.216714859008789 -6.492576122283936 -0.556887209415436 0.000000000000000
10.791658401489258 -3.823059558868408 2.059676408767700 0.000000000000000
18.272895812988281 -7.683441162109375 -0.227892413735390 0.003921568859369
18.242046356201172 -6.648467540740967 0.337585240602493 0.003921568859369
6.382627010345459 -2.330563545227051 1.208908915519714 0.000000000000000
17.700563430786133 -6.651261329650879 0.328540563583374 0.003921568859369
18.415254592895508 -6.923681259155273 3.558673620223999 0.003921568859369
14.212066650390625 -4.609145641326904 3.960016489028931 0.000000000000000
17.366559982299805 -6.662178993225098 0.323085010051727 0.003921568859369
17.100078582763672 -6.558442115783691 -0.950027823448181 0.003921568859369
18.244035720825195 -8.037863731384277 -0.689518392086029 0.003921568859369
18.270572662353516 -7.081425189971924 -0.111585438251495 0.000000000000000
17.057594299316406 -6.606929302215576 0.317654103040695 0.003921568859369
18.282941818237305 -7.159254074096680 -0.111837245523930 0.000000000000000
16.781520843505859 -6.565832614898682 0.312855064868927 0.003921568859369
16.761575698852539 -6.557477951049805 -0.933567464351654 0.003921568859369
4.639689922332764 -1.784419775009155 -0.028227353468537 0.000000000000000
17.630094528198242 -7.985108375549316 0.224408492445946 0.003921568859369
16.555671691894531 -6.545600891113281 -0.923353791236877 0.003921568859369
16.446380615234375 -6.503482818603516 3.196013689041138 0.003921568859369
17.318866729736328 -7.915220260620117 0.220724582672119 0.003921568859369
16.377149581909180 -6.539944648742676 -0.914600908756256 0.003921568859369
16.357906341552734 -6.533728122711182 3.183070421218872 0.003921568859369
17.149742126464844 -7.909138202667236 0.218871265649796 0.003921568859369
16.258871078491211 -6.558046817779541 0.304219931364059 0.003921568859369
16.209962844848633 -6.537647247314453 -0.906474351882935 0.003921568859369
16.192897796630859 -6.532231330871582 3.155051231384277 0.003921568859369
15.885315895080566 -6.466280460357666 -0.493446111679077 0.000000000000000
17.098083496093750 -7.953476905822754 0.218520745635033 0.003921568859369
16.048419952392578 -6.533713817596436 0.300617992877960 0.003921568859369
5.825963020324707 -2.326311588287354 0.248801365494728 0.000000000000000
15.988724708557129 -6.508689403533936 -0.895212650299072 0.003921568859369
16.853380203247070 -7.909671783447266 0.215682923793793 0.003921568859369
8.753811836242676 -3.566982507705688 1.694117069244385 0.000000000000000
17.006168365478516 -8.054039001464844 -0.216440051794052 0.003921568859369
11.966421127319336 -4.994191646575928 -0.073848232626915 0.000000000000000
15.543873786926270 -6.510762214660645 0.292113274335861 0.003921568859369
15.624748229980469 -6.544569015502930 -0.877878665924072 0.003921568859369
11.446974754333496 -4.138060092926025 1.473809361457825 0.000000000000000
15.355601310729980 -6.493518352508545 0.288931071758270 0.003921568859369
5.935504913330078 -2.461635589599609 0.254639506340027 0.000000000000000
8.895381927490234 -3.762581825256348 -0.055001027882099 0.000000000000000
5.391637325286865 -2.249303102493286 0.230797678232193 0.000000000000000
15.301142692565918 -6.529133319854736 -0.862042903900146 0.003921568859369
14.893748283386230 -6.472779750823975 0.281285017728806 0.003921568859369
6.418704986572266 -3.115058422088623 -0.406077742576599 0.000000000000000
14.734703063964844 -6.466548442840576 0.278665065765381 0.000000000000000
17.061622619628906 -6.532843589782715 -0.841656386852264 0.000000000000000
17.078975677490234 -6.539728164672852 -0.420224428176880 0.000000000000000
17.628171920776367 -6.826276779174805 0.437209606170654 0.003921568859369
14.564958572387695 -6.454325675964355 0.275834947824478 0.000000000000000
10.269823074340820 -3.946552753448486 -0.251563638448715 0.000000000000000
18.287322998046875 -7.153351783752441 0.001413717749529 0.003921568859369
13.874822616577148 -6.200222015380859 2.740662336349487 0.000000000000000
18.327165603637695 -7.168914318084717 -0.452491700649261 0.000000000000000
18.282077789306641 -7.220752239227295 0.001392088248394 0.003921568859369
16.548110961914062 -6.528597354888916 -0.819445669651031 0.000000000000000
18.310720443725586 -7.231999397277832 -0.452700853347778 0.000000000000000
16.974693298339844 -6.770730495452881 0.422457486391068 0.000000000000000
14.141833305358887 -6.437893867492676 0.268895149230957 0.000000000000000
13.992375373840332 -6.427499771118164 0.266418427228928 0.000000000000000
18.258729934692383 -7.361423492431641 -0.907688200473785 0.000000000000000
15.958762168884277 -6.489285469055176 0.001045202952810 0.003921568859369
13.850399971008301 -6.419541358947754 0.264082401990891 0.000000000000000
15.867966651916504 -6.451616287231445 -0.788878083229065 0.000000000000000
16.346790313720703 -6.704305171966553 0.408053785562515 0.000000000000000
13.706703186035156 -6.399148464202881 0.261499613523483 0.000000000000000
16.127826690673828 -6.678710460662842 0.403073668479919 0.000000000000000
17.058870315551758 -8.138182640075684 -0.544062316417694 0.000000000000000
15.606760978698730 -6.657264709472656 0.391593724489212 0.000000000000000
14.683034896850586 -8.017908096313477 -0.577927768230438 0.003921568859369
15.385492324829102 -6.624697685241699 0.386522144079208 0.000000000000000
14.628938674926758 -8.053730964660645 -0.962288081645966 0.003921568859369
14.682887077331543 -8.084011077880859 -0.579065620899200 0.003921568859369
11.259995460510254 -5.526876926422119 -0.071683667600155 0.000000000000000
2.951939344406128 -1.377427458763123 0.561160862445831 0.000000000000000
3.009947061538696 -1.419669747352600 -0.018940117210150 0.000000000000000
2.488021850585938 -1.166524648666382 -0.015623155049980 0.000000000000000
14.239998817443848 -8.030892372131348 -0.564784348011017 0.003921568859369
19.092628479003906 -9.614636421203613 3.866674184799194 0.003921568859369
15.895909309387207 -8.052215576171875 -0.512917101383209 0.000000000000000
14.717104911804199 -6.572976112365723 0.371663957834244 0.000000000000000
15.927344322204590 -8.068151473999023 -0.925963819026947 0.003921568859369
9.621107101440430 -4.266936779022217 1.270543217658997 0.000000000000000
6.961111068725586 -2.672318696975708 -0.296350091695786 0.000000000000000
14.085275650024414 -8.068544387817383 -0.186885535717010 0.003921568859369
14.566766738891602 -6.565469741821289 0.368370741605759 0.000000000000000
14.119332313537598 -8.088151931762695 -0.562181413173676 0.003921568859369
13.975597381591797 -8.066070556640625 -0.185795471072197 0.000000000000000
13.982033729553223 -8.069663047790527 -0.557743728160858 0.003921568859369
13.890792846679688 -8.077929496765137 -0.184932962059975 0.000000000000000
13.893810272216797 -8.079526901245117 -0.554974198341370 0.003921568859369
13.762205123901367 -8.059563636779785 -0.183564782142639 0.000000000000000
14.122486114501953 -6.528931140899658 0.358343750238419 0.000000000000000
13.803073883056641 -8.083676338195801 -0.552347898483276 0.003921568859369
11.787704467773438 -5.487869262695312 0.000364977458958 0.000000000000000
13.967220306396484 -6.520679473876953 0.354954481124878 0.000000000000000
11.589733123779297 -5.394788265228271 1.547108292579651 0.000000000000000
24.547369003295898 -13.028094291687012 5.035108089447021 0.003921568859369
13.827590942382812 -6.507001399993896 0.351850420236588 0.000000000000000
15.297006607055664 -8.136421203613281 -0.898074507713318 0.003921568859369
13.554628372192383 -7.260336399078369 -0.796093881130219 0.000000000000000
13.525493621826172 -7.301999568939209 -0.441831529140472 0.000000000000000
8.731964111328125 -4.675274848937988 1.772689938545227 0.000000000000000
13.505640029907227 -7.354638099670410 -0.442087292671204 0.000000000000000
13.504333496093750 -7.414646625518799 -0.442922294139862 0.000000000000000
9.786861419677734 -4.174307823181152 -0.669501125812531 0.000000000000000
13.523681640625000 -7.486490249633789 -0.444453835487366 0.000000000000000
16.488302230834961 -8.132861137390137 -0.847043156623840 0.000000000000000
14.663747787475586 -8.127140998840332 -0.868935227394104 0.003921568859369
6.202466487884521 -2.996491432189941 1.795888781547546 0.000000000000000
13.535734176635742 -7.554616928100586 -0.445753425359726 0.000000000000000
13.476572036743164 -6.686929702758789 0.000421297096182 0.000000000000000
16.306373596191406 -8.112339019775391 -0.839082300662994 0.000000000000000
14.534505844116211 -8.120443344116211 -0.862897038459778 0.003921568859369
18.276586532592773 -8.023545265197754 -0.804239571094513 0.003921568859369
12.868082046508789 -6.382133960723877 3.799822330474854 0.000000000000000
11.533815383911133 -6.421454906463623 2.374109506607056 0.000000000000000
13.521024703979492 -7.604727268218994 -0.446123301982880 0.000000000000000
13.600540161132812 -6.805179595947266 0.000415289134253 0.000000000000000
16.168951034545898 -8.109584808349609 -0.833348870277405 0.000000000000000
14.424247741699219 -8.120370864868164 -0.857902646064758 0.003921568859369
12.839965820312500 -6.420591354370117 3.797731161117554 0.000000000000000
5.915561199188232 -3.261925935745239 1.198418974876404 0.000000000000000
13.510387420654297 -7.663455963134766 -0.446727693080902 0.000000000000000
14.318239212036133 -8.128567695617676 -0.853328645229340 0.003921568859369
14.137021064758301 -8.080276489257812 -0.093408599495888 0.003921568859369
14.201306343078613 -8.117199897766113 -0.847278654575348 0.003921568859369
17.792861938476562 -8.096606254577637 0.113648556172848 0.000000000000000
14.022420883178711 -8.078321456909180 -0.092859387397766 0.003921568859369
17.637542724609375 -8.098895072937012 0.112789809703827 0.000000000000000
5.980388164520264 -3.056292057037354 -0.456623136997223 0.000000000000000
14.579462051391602 -6.738579750061035 0.462463647127151 0.003921568859369
13.754674911499023 -8.109751701354980 -0.459260791540146 0.000000000000000
17.109245300292969 -8.065883636474609 0.109791368246078 0.000000000000000
15.256750106811523 -8.105859756469727 -0.795418202877045 0.000000000000000
13.553847312927246 -6.428363323211670 -0.257879734039307 0.000000000000000
14.122724533081055 -6.702876567840576 0.449895262718201 0.000000000000000
13.618666648864746 -6.459262371063232 -0.952916085720062 0.000000000000000
13.948224067687988 -6.677943229675293 0.444967091083527 0.003921568859369
15.005655288696289 -8.107641220092773 -0.785253584384918 0.003921568859369
13.782409667968750 -6.653026580810547 0.440274119377136 0.003921568859369
14.884257316589355 -8.104467391967773 -0.780261754989624 0.000000000000000
3.097260236740112 -1.592774748802185 0.881333172321320 0.000000000000000
18.318328857421875 -12.549575805664062 -0.256671965122223 0.003921568859369
18.311609268188477 -12.545200347900391 0.256094157695770 0.003921568859369
14.770689010620117 -8.111491203308105 -0.775829553604126 0.000000000000000
18.172761917114258 -12.541691780090332 -0.255267202854156 0.003921568859369
13.532490730285645 -6.648924827575684 0.086976312100887 0.003921568859369
18.166057586669922 -12.537290573120117 0.254611968994141 0.003921568859369
14.648231506347656 -8.109399795532227 -0.770838379859924 0.000000000000000
13.528232574462891 -6.702038288116455 0.087072625756264 0.003921568859369
4.719630718231201 -2.282090663909912 -0.088488988578320 0.000000000000000
7.793861389160156 -4.357006072998047 2.339348793029785 0.000000000000000
14.189367294311523 -8.101124763488770 -0.751787722110748 0.000000000000000
7.649885654449463 -4.343400478363037 2.304111242294312 0.000000000000000
13.933687210083008 -8.081624031066895 0.000085723935626 0.003921568859369
13.529300689697266 -6.991081237792969 0.087710216641426 0.003921568859369
13.526022911071777 -7.048712253570557 0.087827347218990 0.000000000000000
13.518977165222168 -7.104519844055176 0.087920770049095 0.000000000000000
13.509432792663574 -7.156148910522461 0.087991751730442 0.000000000000000
13.572792053222656 -7.253330230712891 -0.264852434396744 0.000000000000000
13.511233329772949 -7.220064640045166 0.088154576718807 0.000000000000000
6.167043685913086 -3.616518497467041 1.862908005714417 0.000000000000000
6.809779167175293 -3.607907772064209 -0.131425917148590 0.000000000000000
13.514013290405273 -7.281770229339600 0.088318511843681 0.000000000000000
13.514305114746094 -7.339331150054932 0.088459990918636 0.000000000000000
18.374876022338867 -12.567420005798340 -0.642680287361145 0.003921568859369
18.349214553833008 -12.549947738647461 -0.128363937139511 0.003921568859369
13.558518409729004 -7.479782581329346 -0.266466259956360 0.000000000000000
18.260271072387695 -12.578992843627930 -0.639941751956940 0.003921568859369
18.214956283569336 -12.547678947448730 -0.127721533179283 0.003921568859369
14.563761711120605 -8.043939590454102 -0.669086813926697 0.003921568859369
8.175327301025391 -4.984123229980469 2.511060953140259 0.000000000000000
13.563653945922852 -7.543969154357910 -0.267118006944656 0.000000000000000
10.639354705810547 -6.581702232360840 3.298025131225586 0.000000000000000
13.533766746520996 -7.588460922241211 -0.267075031995773 0.000000000000000
10.573972702026367 -6.590976238250732 3.284542560577393 0.000000000000000
14.264341354370117 -8.067143440246582 -0.282249569892883 0.003921568859369
10.597578048706055 -6.654451370239258 3.299018859863281 0.000000000000000
2.073267221450806 -1.082742571830750 -0.137537688016891 0.000000000000000
13.795362472534180 -8.048015594482422 -0.642301559448242 0.003921568859369
18.363088607788086 -12.549906730651855 -0.513081133365631 0.003921568859369
18.225173950195312 -12.538132667541504 -0.510330498218536 0.003921568859369
1.836891293525696 -1.118323564529419 0.519680619239807 0.000000000000000
9.366836547851562 -7.202239036560059 2.117645263671875 0.000000000000000
11.958628654479980 -8.543889999389648 3.883606433868408 0.000000000000000
5.189254760742188 -3.295599699020386 0.033678710460663 0.000000000000000
18.425651550292969 -16.755014419555664 -0.289788037538528 0.003921568859369
18.383085250854492 -12.542405128479004 -0.898274123668671 0.003921568859369
18.220092773437500 -12.527915954589844 0.126959159970284 0.003921568859369
18.235366821289062 -12.537881851196289 -0.893275856971741 0.003921568859369
3.734558820724487 -3.032919883728027 -0.243069082498550 0.000000000000000
2.462272167205811 -1.936611413955688 0.238289013504982 0.000000000000000
4.875253677368164 -3.672583818435669 1.579711794853210 0.000000000000000
4.838284015655518 -3.669361352920532 1.571418046951294 0.000000000000000
5.147233963012695 -3.944887638092041 1.682181596755981 0.000000000000000
5.132746696472168 -3.962785243988037 1.682168841362000 0.000000000000000
12.442526817321777 -10.996885299682617 2.989407062530518 0.003921568859369
11.934207916259766 -9.683277130126953 4.061081409454346 0.000000000000000
14.024930000305176 -11.495731353759766 4.802284717559814 0.003921568859369
6.623348236083984 -6.154300689697266 0.720503568649292 0.000000000000000
18.093767166137695 -17.379337310791016 -0.147256433963776 0.003921568859369
18.139789581298828 -17.425960540771484 2.035125255584717 0.003921568859369
18.094568252563477 -17.499839782714844 2.035937309265137 0.003921568859369
16.442790985107422 -16.097068786621094 4.156505584716797 0.003921568859369
17.630453109741211 -17.754510879516602 2.023599624633789 0.003921568859369
14.924507141113281 -16.644229888916016 -0.261638879776001 0.003921568859369
16.075120925903320 -14.763462066650391 5.791192531585693 0.003921568859369
14.753150939941406 -16.565744400024414 -0.259664803743362 0.003921568859369
16.626756668090820 -16.964946746826172 4.292488574981689 0.003921568859369
14.689996719360352 -16.610130310058594 -0.259616464376450 0.003921568859369
15.438657760620117 -17.596645355224609 -0.274183601140976 0.003921568859369
2.131149291992188 -1.769227147102356 0.684980094432831 0.000000000000000
17.626302719116211 -16.667964935302734 0.557285368442535 0.003921568859369
14.885513305664062 -17.075288772583008 0.257848739624023 0.003921568859369
14.817939758300781 -17.104906082153320 0.257324725389481 0.003921568859369
5.799251079559326 -6.627222061157227 -0.303364455699921 0.000000000000000
7.572328090667725 -7.300542831420898 2.761133432388306 0.000000000000000
12.709656715393066 -14.314497947692871 3.451945304870605 0.003921568859369
17.756580352783203 -16.767868041992188 0.701729297637939 0.003921568859369
16.625766754150391 -17.419345855712891 6.393449783325195 0.003921568859369
15.233344078063965 -17.699588775634766 -0.678207755088806 0.003921568859369
5.776046752929688 -6.616730690002441 -0.402382105588913 0.000000000000000
10.034897804260254 -14.980730056762695 0.202485442161560 0.003921568859369
10.432450294494629 -15.592617034912109 -0.654528141021729 0.003921568859369
10.147722244262695 -15.388415336608887 -0.218117401003838 0.003921568859369
9.916426658630371 -16.878648757934570 -0.232678040862083 0.003921568859369
9.844448089599609 -17.309667587280273 -0.696732699871063 0.003921568859369
10.192477226257324 -18.698160171508789 -0.253916174173355 0.003921568859369
10.247858047485352 -16.763099670410156 -0.119877547025681 0.003921568859369
9.984091758728027 -16.440460205078125 -0.561342120170593 0.003921568859369
11.237888336181641 -18.727125167846680 -0.637957751750946 0.003921568859369
9.584418296813965 -15.887780189514160 0.742342531681061 0.003921568859369
9.281830787658691 -17.401508331298828 -0.690733850002289 0.003921568859369
10.103838920593262 -17.060049057006836 0.793843328952789 0.003921568859369
9.227064132690430 -17.451978683471680 -0.691487431526184 0.003921568859369
9.949500083923340 -16.913421630859375 0.785551846027374 0.003921568859369
9.836578369140625 -16.715806961059570 1.562483191490173 0.003921568859369
9.911946296691895 -16.998952865600586 0.787763416767120 0.003921568859369
9.126482963562012 -17.556491851806641 -0.693271696567535 0.003921568859369
9.682994842529297 -16.728691101074219 0.773647308349609 0.003921568859369
9.835830688476562 -17.393957138061523 -0.122662156820297 0.003921568859369
10.826104164123535 -19.385641098022461 -0.649511158466339 0.003921568859369
9.626019477844238 -19.373191833496094 0.241230443120003 0.003921568859369
9.516481399536133 -17.388055801391602 -0.579705893993378 0.000000000000000
10.120270729064941 -16.522897720336914 -0.453501015901566 0.003921568859369
8.873877525329590 -18.612316131591797 -0.247043594717979 0.003921568859369
8.761463165283203 -16.225767135620117 1.484564900398254 0.000000000000000
10.245635032653809 -19.746431350708008 -0.651527345180511 0.003921568859369
9.498826980590820 -18.403902053833008 -0.606547892093658 0.003921568859369
10.164052963256836 -17.686235427856445 2.474946975708008 0.003921568859369
9.368657112121582 -18.472415924072266 -0.606773018836975 0.003921568859369
9.333217620849609 -18.547412872314453 -0.608350634574890 0.003921568859369
9.162848472595215 -18.359247207641602 -0.127035364508629 0.003921568859369
9.117812156677246 -18.438356399536133 -0.127409934997559 0.003921568859369
9.114007949829102 -18.767292022705078 -0.129338204860687 0.003921568859369
9.738604545593262 -17.935535430908203 0.462791264057159 0.003921568859369
9.668581962585449 -17.953962326049805 0.462372034788132 0.003921568859369
9.589406013488770 -17.954336166381836 0.461494237184525 0.003921568859369
8.505006790161133 -18.112356185913086 1.612223386764526 0.000000000000000
9.890151977539062 -17.162361145019531 -0.350380450487137 0.003921568859369
2.233460187911987 -5.285809993743896 -0.069385647773743 0.000000000000000
4.699711799621582 -9.604177474975586 2.815306663513184 0.000000000000000
9.489198684692383 -23.943819046020508 -0.758323967456818 0.003921568859369
2.257719278335571 -6.576702117919922 -0.084849044680595 0.000000000000000
1.848322153091431 -3.711396217346191 0.485893934965134 0.000000000000000
4.142085552215576 -8.653439521789551 -0.170261576771736 0.000000000000000
2.798090457916260 -5.601601600646973 0.031126355752349 0.000000000000000
4.184086799621582 -9.152494430541992 -0.178987890481949 0.000000000000000
7.373949050903320 -19.762559890747070 5.602503299713135 0.003921568859369
10.048151016235352 -27.629055023193359 -0.696783721446991 0.003921568859369
3.229903459548950 -8.287597656250000 -0.006072923075408 0.003921568859369
2.053340911865234 -5.980008602142334 0.247594654560089 0.000000000000000
2.554675102233887 -8.011485099792480 0.138522371649742 0.000000000000000
8.381204605102539 -24.784696578979492 -0.620634496212006 0.003921568859369
1.952669620513916 -5.932662487030029 0.101877994835377 0.000000000000000
1.713606595993042 -3.727555036544800 -0.072726622223854 0.000000000000000
2.125990390777588 -5.957684516906738 0.139032393693924 0.000000000000000
1.233597040176392 -4.542945384979248 -0.058431632816792 0.000000000000000
2.016328573226929 -5.068105220794678 0.026130212470889 0.000000000000000
2.385202169418335 -6.240865707397461 0.184974759817123 0.000000000000000
4.154539585113525 -14.274998664855957 3.942376375198364 0.000000000000000
2.626657962799072 -9.216313362121582 2.531035184860229 0.000000000000000
1.716098070144653 -7.000737190246582 0.283637195825577 0.000000000000000
1.071131944656372 -3.829054832458496 0.153603687882423 0.000000000000000
2.460698127746582 -12.709659576416016 2.335715293884277 0.000000000000000
1.424477577209473 -6.661581039428711 0.543249309062958 0.000000000000000
2.265314102172852 -7.420800685882568 -0.139916777610779 0.003921568859369
0.951072573661804 -5.411883354187012 -0.069067761301994 0.000000000000000
1.394339561462402 -6.617659091949463 0.539358794689178 0.000000000000000
1.971920251846313 -7.874391555786133 2.142196416854858 0.000000000000000
1.880556344985962 -7.526315212249756 0.439446866512299 0.000000000000000
1.523756027221680 -7.681022644042969 1.406977772712708 0.000000000000000
2.249248981475830 -9.631225585937500 2.617252588272095 0.000000000000000
1.135860443115234 -8.230459213256836 -0.103981442749500 0.000000000000000
1.238354206085205 -4.358253002166748 0.539220511913300 0.000000000000000
1.855810642242432 -7.844986915588379 -0.007087273523211 0.000000000000000
1.661165714263916 -9.352516174316406 -0.063177078962326 0.000000000000000
1.157688140869141 -9.096527099609375 0.097522512078285 0.000000000000000
0.771002531051636 -4.372483253479004 -0.056268300861120 0.000000000000000
1.388722300529480 -8.057106971740723 1.470987439155579 0.000000000000000
1.268379449844360 -7.242047309875488 -0.049524802714586 0.000000000000000
1.524031877517700 -6.752294063568115 0.832814514636993 0.000000000000000
1.771130084991455 -8.500088691711426 2.296690702438354 0.000000000000000
0.884556293487549 -4.781063556671143 0.386369466781616 0.000000000000000
1.284172415733337 -9.458438873291016 0.156833812594414 0.000000000000000
