# This PCD file was generated using the MATLAB® pcwrite function
# from Computer Vision Toolbox®.
# .PCD v.7 - Point Cloud Data file format
VERSION .7
FIELDS x y z intensity
SIZE 8 8 8 8
TYPE F F F F
COUNT 1 1 1 1
WIDTH 650
HEIGHT 1
VIEWPOINT 0 0 0 1 0 0 0
POINTS 650
DATA ascii
6.783940792083740 11.063634872436523 2.381414890289307 0.000000000000000
1.550199389457703 2.710428237915039 0.056446034461260 0.000000000000000
0.649050235748291 1.617251038551331 -0.073192730545998 0.003921568859369
6.105024337768555 10.981104850769043 -0.884909689426422 0.000000000000000
0.667077898979187 1.639483928680420 -0.074334815144539 0.003921568859369
4.556429862976074 7.289548397064209 1.583362936973572 0.000000000000000
1.796861648559570 3.763930082321167 -0.172654956579208 0.000000000000000
5.470226764678955 8.633966445922852 1.879518985748291 0.000000000000000
4.987155437469482 9.798912048339844 -0.451613366603851 0.000000000000000
6.010155677795410 10.470277786254883 3.256397247314453 0.000000000000000
2.558086156845093 5.138246059417725 -0.236834883689880 0.000000000000000
5.323169708251953 10.267639160156250 -0.474951863288879 0.000000000000000
1.457841277122498 2.432152271270752 0.533589303493500 0.000000000000000
16.688003540039062 24.491001129150391 -0.174739122390747 0.003921568859369
4.248646736145020 6.216107368469238 0.310422897338867 0.000000000000000
5.615878582000732 8.146039962768555 0.814806640148163 0.000000000000000
7.786687374114990 12.459594726562500 3.958176851272583 0.000000000000000
4.604249954223633 8.271230697631836 -0.166854530572891 0.000000000000000
7.475234508514404 9.518549919128418 -0.142202213406563 0.000000000000000
7.511091709136963 9.494971275329590 -0.710863471031189 0.000000000000000
8.804722785949707 11.826430320739746 1.210257530212402 0.000000000000000
8.885346412658691 11.766171455383301 2.703739166259766 0.000000000000000
4.745748996734619 6.326142311096191 -0.046375211328268 0.000000000000000
10.898903846740723 14.188717842102051 3.277505636215210 0.003921568859369
3.438246250152588 5.061811447143555 1.661798000335693 0.000000000000000
3.884284734725952 5.064044475555420 -0.338907837867737 0.000000000000000
6.581885337829590 9.359264373779297 1.414899468421936 0.000000000000000
3.757086992263794 4.871412754058838 1.138165950775146 0.000000000000000
7.551039695739746 9.525510787963867 -0.641594767570496 0.000000000000000
3.694981575012207 5.212164402008057 0.794263780117035 0.000000000000000
6.492858886718750 8.153428077697754 1.915615797042847 0.000000000000000
7.892316341400146 9.804952621459961 2.310093879699707 0.000000000000000
7.332780838012695 8.934622764587402 -0.610326170921326 0.000000000000000
2.103245735168457 3.257569074630737 -0.252944320440292 0.000000000000000
5.659432888031006 7.609332084655762 0.556934475898743 0.000000000000000
9.534343719482422 12.698494911193848 1.959166169166565 0.003921568859369
8.025033950805664 9.694772720336914 2.310125827789307 0.000000000000000
0.942798495292664 1.555607795715332 0.011489773169160 0.003921568859369
3.296805381774902 3.991228818893433 0.092195622622967 0.000000000000000
3.898325204849243 4.691149234771729 1.128141880035400 0.000000000000000
5.226595401763916 6.889786720275879 -0.203095138072968 0.000000000000000
5.557571887969971 6.525848388671875 0.707027375698090 0.000000000000000
7.399599552154541 9.192812919616699 -0.830784499645233 0.000000000000000
12.111969947814941 13.174097061157227 3.277842760086060 0.003921568859369
10.091497421264648 11.544891357421875 4.128449916839600 0.000000000000000
3.531257152557373 3.611380577087402 0.419197738170624 0.000000000000000
7.050124168395996 7.715970516204834 2.821178913116455 0.000000000000000
5.118588924407959 5.076275825500488 -0.381793498992920 0.000000000000000
7.170063972473145 6.958892822265625 1.835436940193176 0.000000000000000
12.362992286682129 11.839844703674316 3.134546041488647 0.003921568859369
5.470587253570557 6.351976394653320 -0.147415816783905 0.000000000000000
4.092055797576904 3.562220335006714 0.064410738646984 0.000000000000000
5.603530406951904 6.367712497711182 -0.149153828620911 0.000000000000000
2.488885641098022 2.892543554306030 -0.248613089323044 0.000000000000000
6.626948833465576 6.174568176269531 1.665453910827637 0.000000000000000
3.614182949066162 3.708872079849243 -0.366910755634308 0.003921568859369
11.753525733947754 10.726133346557617 2.915092468261719 0.003921568859369
2.476105213165283 2.555614948272705 -0.390768468379974 0.000000000000000
12.452495574951172 11.278998374938965 3.077222585678101 0.003921568859369
7.146038055419922 7.642184734344482 -0.674593925476074 0.000000000000000
8.339649200439453 7.961265563964844 1.423987030982971 0.000000000000000
7.266741752624512 6.899944782257080 1.238797307014465 0.000000000000000
12.145482063293457 10.325185775756836 2.919439792633057 0.003921568859369
4.463604450225830 4.645392417907715 -0.113383494317532 0.000000000000000
2.566474437713623 2.458806753158569 0.211250111460686 0.000000000000000
8.826995849609375 7.472422599792480 2.121721029281616 0.000000000000000
10.143210411071777 8.394156455993652 2.413710832595825 0.000000000000000
8.494188308715820 6.644056320190430 1.978264331817627 0.000000000000000
3.823954820632935 3.320655584335327 1.374075770378113 0.000000000000000
8.089972496032715 6.285422325134277 1.879983782768250 0.000000000000000
7.939838409423828 6.125511169433594 1.840530276298523 0.000000000000000
13.932172775268555 10.623480796813965 3.206479072570801 0.003921568859369
6.751735687255859 5.638015270233154 2.371985673904419 0.000000000000000
3.390846967697144 2.263040542602539 -0.240628361701965 0.000000000000000
8.769530296325684 6.415206432342529 1.991904139518738 0.000000000000000
7.536512374877930 5.399911880493164 1.701356530189514 0.000000000000000
7.914951801300049 5.545699596405029 1.773108720779419 0.000000000000000
3.804549694061279 2.671823024749756 0.384649932384491 0.000000000000000
9.577069282531738 6.649888515472412 2.136850357055664 0.000000000000000
7.320300102233887 5.013522624969482 -0.467464417219162 0.000000000000000
8.525634765625000 5.832304477691650 1.892897367477417 0.000000000000000
13.078805923461914 9.678508758544922 4.373102188110352 0.003921568859369
9.185262680053711 6.046928882598877 -0.578838348388672 0.000000000000000
8.158467292785645 5.924725532531738 -0.471835076808929 0.000000000000000
10.402008056640625 6.790803909301758 2.274596929550171 0.000000000000000
8.771433830261230 5.688922882080078 1.915876030921936 0.000000000000000
11.469508171081543 7.313100337982178 2.489842891693115 0.000000000000000
6.727480411529541 4.233152866363525 1.457394957542419 0.000000000000000
6.766901969909668 4.700638294219971 1.017053723335266 0.000000000000000
12.474980354309082 8.443469047546387 1.854985237121582 0.000000000000000
9.947187423706055 6.051214218139648 2.131097793579102 0.000000000000000
9.540512084960938 5.673240661621094 2.032095909118652 0.000000000000000
8.921196937561035 5.872070312500000 1.316850781440735 0.000000000000000
6.570456981658936 3.822091341018677 1.394276499748230 0.000000000000000
14.422421455383301 9.108905792236328 4.580186367034912 0.003921568859369
10.826336860656738 6.124004840850830 2.274572372436523 0.000000000000000
5.630359172821045 3.940639972686768 -0.281220674514771 0.000000000000000
7.110485076904297 3.964606046676636 1.491098165512085 0.000000000000000
8.272013664245605 5.112789630889893 2.615266561508179 0.000000000000000
18.471105575561523 10.173656463623047 3.851583957672119 0.003921568859369
8.909192085266113 5.461590290069580 1.287586331367493 0.000000000000000
7.870564460754395 5.294753551483154 -0.387718737125397 0.000000000000000
3.242300510406494 1.958402037620544 0.469622641801834 0.000000000000000
5.737390995025635 2.963461399078369 1.182547211647034 0.000000000000000
14.129593849182129 8.113543510437012 4.373129367828369 0.003921568859369
9.568083763122559 5.411322116851807 2.952741146087646 0.000000000000000
8.087393760681152 4.031939029693604 0.369450628757477 0.000000000000000
6.943408012390137 3.018238782882690 0.088640801608562 0.000000000000000
11.436008453369141 6.304299831390381 1.606862187385559 0.000000000000000
6.076504230499268 3.303869009017944 0.852740049362183 0.000000000000000
3.867245435714722 2.034362077713013 0.000096987823781 0.000000000000000
3.943106174468994 1.603153705596924 -0.049669105559587 0.000000000000000
3.800105333328247 1.981429219245911 0.000097397118225 0.000000000000000
1.863850712776184 0.847402632236481 0.084282554686069 0.000000000000000
21.380020141601562 9.537454605102539 4.271988868713379 0.003921568859369
10.792251586914062 5.372504711151123 3.235343456268311 0.000000000000000
18.189172744750977 7.887907028198242 3.618367433547974 0.003921568859369
2.409222364425659 1.186260104179382 0.000098730946775 0.000000000000000
4.148249149322510 1.755102276802063 0.079061836004257 0.000000000000000
7.127793312072754 3.009477853775024 1.414258956909180 0.000000000000000
4.002042293548584 1.430358409881592 -0.049534529447556 0.000000000000000
10.791939735412598 4.998295783996582 1.461514234542847 0.000000000000000
9.830206871032715 3.941981792449951 0.865456044673920 0.000000000000000
17.979806900024414 7.133822917938232 3.528620958328247 0.003921568859369
12.700482368469238 4.989091396331787 2.489709138870239 0.000000000000000
2.375163793563843 1.185765862464905 0.015532081946731 0.000000000000000
5.576040267944336 2.444161653518677 0.355167567729950 0.000000000000000
2.432898998260498 1.204375624656677 0.015880940482020 0.000000000000000
13.181897163391113 4.969225406646729 1.150891542434692 0.000000000000000
3.589157581329346 1.743203639984131 -0.069759443402290 0.000000000000000
2.924896240234375 1.082326292991638 0.570446789264679 0.000000000000000
3.830137968063354 1.613189697265625 -0.000000000000040 0.000000000000000
7.317671298980713 3.052051067352295 -0.554424464702606 0.000000000000000
3.113075971603394 1.414776921272278 -0.059687230736017 0.000000000000000
3.679899454116821 1.459949970245361 -0.092122040688992 0.000000000000000
3.587458372116089 1.615279912948608 0.114500343799591 0.000000000000000
15.236461639404297 4.099704742431641 -0.550993263721466 0.003921568859369
4.205245494842529 1.564215540885925 -0.313123166561127 0.000000000000000
17.061531066894531 6.358098506927490 4.876070499420166 0.003921568859369
12.779948234558105 4.013952255249023 -0.701592206954956 0.000000000000000
8.535750389099121 2.679811239242554 1.629316687583923 0.000000000000000
10.697656631469727 3.236820459365845 0.454867511987686 0.000000000000000
7.444211483001709 2.654328346252441 2.115005731582642 0.000000000000000
17.236131668090820 5.151504516601562 3.278049707412720 0.003921568859369
23.284955978393555 6.872034072875977 4.424558162689209 0.003921568859369
11.062211990356445 3.816186904907227 1.435548543930054 0.000000000000000
10.718256950378418 3.613927125930786 3.028110265731812 0.000000000000000
6.865729808807373 1.462378263473511 0.081339493393898 0.000000000000000
10.775380134582520 2.735193014144897 2.023113727569580 0.000000000000000
9.023468017578125 2.222859859466553 0.756857991218567 0.000000000000000
7.592425823211670 1.481331944465637 -0.269580900669098 0.000000000000000
6.386474132537842 1.881912827491760 0.814930140972137 0.000000000000000
12.279369354248047 2.981385707855225 2.300045967102051 0.000000000000000
20.180753707885742 4.828601360321045 3.779424667358398 0.003921568859369
5.453933238983154 1.566100001335144 0.131448447704315 0.000000000000000
19.047683715820312 4.490555286407471 3.564188480377197 0.003921568859369
2.413576364517212 0.423029631376266 0.027996484190226 0.000000000000000
10.587636947631836 2.961254596710205 -0.510964691638947 0.000000000000000
4.555011272430420 1.033530592918396 0.378639340400696 0.000000000000000
12.027889251708984 2.130363702774048 -0.425790399312973 0.000000000000000
6.201533317565918 1.365556836128235 1.152052640914917 0.000000000000000
5.912320613861084 1.280063390731812 0.245010152459145 0.000000000000000
7.755842685699463 1.681281566619873 1.441177129745483 0.000000000000000
16.661342620849609 2.717196226119995 -0.196537882089615 0.003921568859369
6.956330299377441 1.482008457183838 0.288310199975967 0.000000000000000
19.532720565795898 4.173347949981689 3.635800838470459 0.003921568859369
5.800337791442871 1.511295199394226 -0.000200197275262 0.000000000000000
7.913188934326172 2.451891660690308 -0.144293740391731 0.000000000000000
6.348007202148438 1.305758833885193 0.526373028755188 0.000000000000000
8.782685279846191 1.809010982513428 1.629140973091125 0.000000000000000
6.214253425598145 0.921773016452789 0.072551101446152 0.000000000000000
3.052497625350952 0.916764557361603 -0.202531114220619 0.000000000000000
5.719041824340820 1.384367227554321 0.340724080801010 0.000000000000000
5.695986270904541 1.378706455230713 1.562028884887695 0.000000000000000
28.573553085327148 5.485619068145752 5.298784732818604 0.003921568859369
6.156403064727783 1.155091881752014 -0.181628137826920 0.000000000000000
16.005962371826172 2.900964021682739 1.324155688285828 0.000000000000000
11.560482025146484 2.680224180221558 3.168624162673950 0.000000000000000
8.929918289184570 1.581538200378418 -0.263088107109070 0.000000000000000
7.122115612030029 1.594275951385498 -0.169186681509018 0.000000000000000
14.467396736145020 2.462940692901611 2.667850971221924 0.000000000000000
6.523292064666748 1.413096904754639 0.814284980297089 0.000000000000000
6.277014255523682 1.682374000549316 -0.263402730226517 0.000000000000000
13.241269111633301 2.208570957183838 2.439712762832642 0.000000000000000
4.754288196563721 1.010232210159302 -0.000264352012891 0.000000000000000
9.818308830261230 2.095786809921265 0.581980109214783 0.000000000000000
13.128512382507324 2.142772674560547 2.417470693588257 0.000000000000000
11.634376525878906 1.277637362480164 0.135356739163399 0.000000000000000
10.790294647216797 2.262856245040894 2.942933320999146 0.000000000000000
11.286372184753418 2.330584526062012 -0.000366214429960 0.003921568859369
14.471663475036621 3.734369039535522 0.433418154716492 0.000000000000000
7.020638465881348 1.093992590904236 0.576393961906433 0.000000000000000
7.685126781463623 1.946819305419922 -0.505814135074615 0.000000000000000
5.097165584564209 0.990859031677246 -0.000273900397588 0.000000000000000
17.058300018310547 4.148625850677490 -0.306088298559189 0.003921568859369
6.632280349731445 1.268175601959229 0.822487711906433 0.000000000000000
9.763542175292969 1.836608290672302 -0.000438976072473 0.003921568859369
13.023411750793457 2.453069686889648 0.768325448036194 0.000000000000000
17.294334411621094 3.260701656341553 2.154058694839478 0.003921568859369
11.834977149963379 1.590811014175415 0.207025319337845 0.000000000000000
15.919845581054688 2.142162322998047 2.918792963027954 0.003921568859369
9.834397315979004 2.274515390396118 -0.409604877233505 0.000000000000000
7.586464405059814 1.367761254310608 -0.178593903779984 0.000000000000000
6.151115894317627 0.782270550727844 -0.179352730512619 0.000000000000000
10.115518569946289 1.290718197822571 0.827808022499084 0.000000000000000
8.632093429565430 1.068529725074768 0.150479570031166 0.000000000000000
8.463065147399902 1.047515630722046 -0.444672465324402 0.000000000000000
8.609801292419434 1.928467154502869 -0.357807219028473 0.000000000000000
12.027881622314453 1.451161503791809 -0.070647969841957 0.000000000000000
5.770167827606201 1.268615722656250 0.170123547315598 0.000000000000000
16.460945129394531 1.988407611846924 -0.866905510425568 0.003921568859369
11.793953895568848 1.379178047180176 -0.344612807035446 0.000000000000000
17.789445877075195 2.083404064178467 -0.104477636516094 0.000000000000000
18.605306625366211 2.179209470748901 0.325383901596069 0.003921568859369
6.598292827606201 0.748035669326782 -0.192168653011322 0.000000000000000
7.347895145416260 0.474218279123306 -0.426253855228424 0.000000000000000
19.088422775268555 3.123812198638916 1.122822403907776 0.000000000000000
16.467535018920898 3.524993419647217 -0.684595108032227 0.003921568859369
8.307539939880371 0.507633686065674 0.095823176205158 0.000000000000000
6.688162803649902 0.383631318807602 0.076961658895016 0.000000000000000
9.127894401550293 1.422634005546570 1.127579331398010 0.000000000000000
6.512896537780762 1.339060664176941 -0.269197076559067 0.000000000000000
6.323916435241699 0.671163260936737 1.149713277816772 0.000000000000000
11.888615608215332 1.813207507133484 -0.558322370052338 0.000000000000000
9.113183975219727 1.387935400009155 1.125140190124512 0.000000000000000
13.761134147644043 2.737048625946045 -0.244458749890327 0.000000000000000
6.696971416473389 0.662037312984467 -0.039248306304216 0.000000000000000
6.701980113983154 1.304899096488953 -0.118566848337650 0.000000000000000
7.513137340545654 0.353769719600677 -0.087389670312405 0.000000000000000
6.316035270690918 0.604142785072327 0.512437522411346 0.000000000000000
7.666228771209717 0.333113700151443 -0.089166365563869 0.000000000000000
9.190246582031250 1.300469994544983 0.536428749561310 0.000000000000000
5.886682033538818 0.521699666976929 -0.306953221559525 0.000000000000000
9.050805091857910 1.701470375061035 -0.373225331306458 0.000000000000000
8.181582450866699 1.100439071655273 0.190145343542099 0.000000000000000
19.748882293701172 3.655519008636475 -0.816548466682434 0.003921568859369
18.363685607910156 1.574823141098022 3.348305225372314 0.003921568859369
13.404606819152832 2.429272651672363 -0.237346574664116 0.000000000000000
6.707326412200928 0.548461198806763 -0.039256766438484 0.000000000000000
12.551347732543945 2.273865938186646 0.368848860263824 0.000000000000000
3.223962783813477 0.249188840389252 0.577892541885376 0.000000000000000
6.519871711730957 0.806436836719513 -0.000477510882774 0.000000000000000
5.279356002807617 0.138264790177345 -0.304428964853287 0.000000000000000
19.077106475830078 2.374840259552002 -0.446748048067093 0.000000000000000
12.246717453002930 2.086865186691284 -0.216384291648865 0.000000000000000
7.813841342926025 1.327571749687195 0.228395000100136 0.000000000000000
13.919456481933594 0.949230313301086 0.241702079772949 0.000000000000000
15.723047256469727 1.844877243041992 0.917612850666046 0.000000000000000
7.494455337524414 0.509045302867889 0.302978098392487 0.000000000000000
17.952678680419922 1.162871599197388 -0.522651612758636 0.000000000000000
8.809117317199707 0.999445736408234 -0.000550228869542 0.003921568859369
4.650708675384521 0.752862215042114 0.134918421506882 0.000000000000000
7.854866504669189 0.506464362144470 -0.409816443920135 0.000000000000000
7.907359600067139 0.509799361228943 0.641252040863037 0.000000000000000
7.165000915527344 0.089047208428383 -0.083251118659973 0.000000000000000
4.599225521087646 0.278923839330673 -0.238675773143768 0.000000000000000
14.166536331176758 0.867108404636383 2.575692176818848 0.000000000000000
3.888045549392700 0.598660290241241 0.111947573721409 0.000000000000000
8.952110290527344 0.514810800552368 0.154568359255791 0.000000000000000
8.113611221313477 0.861835777759552 0.992368996143341 0.000000000000000
7.813604354858398 0.448742777109146 0.632372081279755 0.000000000000000
13.576969146728516 0.690882682800293 -0.394414097070694 0.000000000000000
7.658324718475342 0.388008415699005 -0.044789072126150 0.000000000000000
8.237504959106445 0.818989753723145 0.477271199226379 0.000000000000000
15.008745193481445 1.498209595680237 1.842278480529785 0.000000000000000
7.531781196594238 0.355429649353027 -0.044042278081179 0.000000000000000
11.905858993530273 1.145331621170044 0.275879204273224 0.000000000000000
7.699226379394531 0.738062083721161 0.940216898918152 0.000000000000000
4.812925815582275 0.458753317594528 -0.111336186528206 0.000000000000000
9.543626785278320 -0.046587988734245 0.109503507614136 0.000000000000000
12.024683952331543 0.485971212387085 0.207974627614021 0.000000000000000
8.804120063781738 0.354937225580215 0.712708830833435 0.000000000000000
12.675487518310547 1.130810022354126 3.389728546142578 0.000000000000000
7.031856060028076 0.282806038856506 1.269308686256409 0.000000000000000
9.131137847900391 -0.106218591332436 -0.106215834617615 0.000000000000000
6.883036136627197 0.924191594123840 0.199463337659836 0.000000000000000
14.406830787658691 1.236009120941162 0.837030947208405 0.000000000000000
9.514036178588867 0.350829601287842 0.384201496839523 0.000000000000000
6.565149784088135 0.857978641986847 0.190046519041061 0.000000000000000
19.611167907714844 0.657659649848938 3.563272237777710 0.003921568859369
13.507132530212402 0.405368387699127 0.546696424484253 0.000000000000000
8.939008712768555 0.671070158481598 -0.000674714916386 0.003921568859369
6.481124401092529 0.170920401811600 0.111296907067299 0.000000000000000
7.247881412506104 0.191373854875565 0.291801124811172 0.000000000000000
12.914980888366699 0.971923112869263 1.580551862716675 0.000000000000000
16.274282455444336 1.968811988830566 0.474100023508072 0.003921568859369
6.525664329528809 0.149567380547523 0.112061090767384 0.000000000000000
5.254104614257812 0.373901277780533 0.302018433809280 0.000000000000000
15.385899543762207 1.806656360626221 0.088755190372467 0.000000000000000
7.772157669067383 0.528682529926300 0.178956314921379 0.000000000000000
9.391786575317383 -0.272013723850250 0.107768625020981 0.000000000000000
8.062267303466797 0.942590236663818 -0.328388631343842 0.000000000000000
8.984953880310059 0.612015306949615 -0.208561077713966 0.000000000000000
6.552999496459961 0.421530127525330 -0.000674604729284 0.000000000000000
6.548897743225098 0.104669280350208 0.112177744507790 0.000000000000000
5.093671321868896 0.063547112047672 0.408465564250946 0.000000000000000
7.496679306030273 0.798541903495789 0.216328993439674 0.000000000000000
10.838462829589844 0.591560244560242 -0.000874236691743 0.003921568859369
19.310461044311523 0.116869606077671 0.782025337219238 0.003921568859369
7.924527645111084 0.047530882060528 0.639396727085114 0.000000000000000
10.175428390502930 1.015900850296021 0.294410109519958 0.000000000000000
14.057117462158203 0.621903836727142 0.324464470148087 0.000000000000000
5.564429283142090 0.513061523437500 0.159614503383636 0.000000000000000
5.917663097381592 -0.046112138777971 0.101165316998959 0.000000000000000
9.269861221313477 0.312410533428192 0.534522414207458 0.000000000000000
13.316990852355957 0.403907001018524 0.307080239057541 0.000000000000000
11.659748077392578 -0.779483318328857 0.134037643671036 0.000000000000000
6.978018760681152 0.548410952091217 0.200622528791428 0.000000000000000
9.694093704223633 0.293197453022003 1.179825425148010 0.000000000000000
22.114465713500977 0.672618031501770 -0.514339923858643 0.003921568859369
8.871996879577637 0.668266355991364 -0.154628381133080 0.000000000000000
5.121760368347168 -0.357041060924530 -0.059487078338861 0.000000000000000
7.722994327545166 -0.167151629924774 1.392548084259033 0.000000000000000
8.602561950683594 0.617064714431763 0.048733282834291 0.000000000000000
17.683399200439453 0.414041846990585 -0.410821169614792 0.000000000000000
15.747435569763184 0.313644081354141 0.910561561584473 0.000000000000000
12.850181579589844 -0.412491112947464 -0.075387537479401 0.000000000000000
9.146244049072266 -0.292866617441177 0.738458633422852 0.000000000000000
4.671510696411133 0.284566909074783 -0.080738440155983 0.000000000000000
6.983747482299805 0.355967164039612 0.039312079548836 0.000000000000000
9.357358932495117 0.025436295196414 0.538570404052734 0.000000000000000
11.681938171386719 -0.008542181923985 0.268571317195892 0.000000000000000
7.360768318176270 -0.005456429906189 0.422402113676071 0.000000000000000
7.882615566253662 -0.005887867882848 0.955551147460938 0.000000000000000
2.514144182205200 -0.120392858982086 0.441377133131027 0.000000000000000
17.186189651489258 -0.072618745267391 4.578648567199707 0.003921568859369
6.879154205322266 -0.028736919164658 -0.158735409379005 0.000000000000000
15.550798416137695 -0.929717302322388 0.268890529870987 0.000000000000000
6.748836994171143 -0.422550857067108 -0.194951862096786 0.000000000000000
6.944899082183838 0.235345765948296 0.039045698940754 0.000000000000000
12.546688079833984 -0.180935487151146 0.724180161952972 0.000000000000000
8.184193611145020 0.247881442308426 0.234318032860756 0.000000000000000
7.205455780029297 0.217912003397942 -0.456285893917084 0.000000000000000
7.090657234191895 -0.127172335982323 -0.326473563909531 0.000000000000000
7.045912265777588 0.188679769635201 0.201219454407692 0.000000000000000
5.714738368988037 -0.396709889173508 0.458333969116211 0.000000000000000
1.687705278396606 0.037375457584858 -0.102146893739700 0.003921568859369
5.212192058563232 0.103993043303490 0.147914588451385 0.000000000000000
7.444108009338379 -0.569231808185577 1.341380119323730 0.000000000000000
20.707380294799805 -1.669711947441101 3.766917228698730 0.003921568859369
5.095499515533447 -0.159810021519661 -0.117042772471905 0.000000000000000
3.153999805450439 -0.258070081472397 0.124017544090748 0.000000000000000
6.058043956756592 -0.211391478776932 -0.139535143971443 0.000000000000000
6.290154933929443 0.061212494969368 -0.108864612877369 0.000000000000000
4.047554969787598 -0.347458779811859 0.068335138261318 0.000000000000000
16.079345703125000 -0.622904598712921 1.961505532264709 0.003921568859369
7.316228866577148 -0.635368883609772 1.319138646125793 0.000000000000000
7.270160675048828 0.045924402773380 -0.126031473278999 0.000000000000000
7.435450077056885 -0.671667397022247 1.341368556022644 0.000000000000000
7.858782768249512 -0.356582075357437 -0.362657219171524 0.000000000000000
2.501281261444092 -0.228186041116714 -0.126899316906929 0.000000000000000
13.076290130615234 -0.596586167812347 1.593164443969727 0.000000000000000
4.164012432098389 0.011763940565288 -0.166175588965416 0.000000000000000
9.575797080993652 -0.468735635280609 0.551182031631470 0.000000000000000
5.449750423431396 -0.546272277832031 0.437829107046127 0.000000000000000
11.265365600585938 -0.086156062781811 -0.196038350462914 0.000000000000000
6.517880916595459 -0.049585197120905 -0.262237340211868 0.000000000000000
5.305894851684570 -0.329736828804016 -0.122000150382519 0.000000000000000
15.231184005737305 -1.808940410614014 2.774093866348267 0.000000000000000
9.317510604858398 -0.228586450219154 -0.161905050277710 0.000000000000000
16.581747055053711 -0.408915609121323 0.477682352066040 0.003921568859369
12.072770118713379 -0.338756233453751 0.068125359714031 0.000000000000000
10.601135253906250 -0.297130376100540 0.304033160209656 0.000000000000000
7.479310512542725 -0.569996118545532 1.978327631950378 0.000000000000000
5.232020378112793 -0.414134979248047 1.374937653541565 0.000000000000000
12.054942131042480 -0.463405907154083 -0.210014566779137 0.000000000000000
4.820184707641602 -0.413836270570755 0.579182088375092 0.000000000000000
9.892894744873047 -0.413794845342636 0.283587276935577 0.000000000000000
9.403281211853027 -0.849211394786835 0.541961014270782 0.000000000000000
4.914317131042480 -0.676760733127594 0.196554884314537 0.000000000000000
9.416915893554688 -0.850532174110413 1.145743250846863 0.000000000000000
10.183656692504883 -1.455187439918518 0.176172614097595 0.000000000000000
5.311980247497559 -0.238202199339867 -0.212930783629417 0.000000000000000
9.194471359252930 -0.862008452415466 -0.213530212640762 0.000000000000000
9.414545059204102 -0.458633542060852 0.269767433404922 0.000000000000000
10.793560981750488 -0.600763857364655 -0.188008114695549 0.000000000000000
11.700779914855957 -0.769456982612610 -0.204087004065514 0.000000000000000
6.521876811981201 -0.425370395183563 0.036136712878942 0.000000000000000
3.363634824752808 -0.227432668209076 -0.057548068463802 0.000000000000000
18.410877227783203 -1.282698392868042 0.104395061731339 0.000000000000000
6.362256050109863 -0.745606660842896 1.682196497917175 0.000000000000000
17.541236877441406 -2.142649650573730 2.152444601058960 0.003921568859369
7.753741264343262 -0.992756247520447 0.177730187773705 0.000000000000000
7.229340553283691 -1.225986599922180 -0.001404444570653 0.000000000000000
7.246642112731934 -1.229246020317078 1.932489633560181 0.000000000000000
6.688327789306641 -0.920143306255341 0.036991309374571 0.000000000000000
8.564385414123535 -1.756787061691284 2.302807092666626 0.000000000000000
25.761814117431641 -5.536071300506592 7.018419265747070 0.003921568859369
28.542003631591797 -8.238100051879883 2.408067226409912 0.003921568859369
7.770647048950195 -1.812371492385864 2.095694303512573 0.000000000000000
8.228165626525879 -2.070743560791016 2.231226444244385 0.000000000000000
12.505952835083008 -4.146603584289551 -0.381687700748444 0.000000000000000
25.818853378295898 -7.343918323516846 7.144858360290527 0.003921568859369
25.781936645507812 -7.430188179016113 7.141740798950195 0.003921568859369
27.835283279418945 -10.270141601562500 2.403848648071289 0.003921568859369
6.059538364410400 -1.885404944419861 1.653563499450684 0.000000000000000
28.023235321044922 -10.669264793395996 2.428463459014893 0.003921568859369
16.707931518554688 -6.467141628265381 3.232626676559448 0.003921568859369
16.557167053222656 -6.474187850952148 3.207529783248901 0.003921568859369
28.195760726928711 -10.056491851806641 1.727848887443542 0.003921568859369
28.106168746948242 -10.140044212341309 1.724585771560669 0.003921568859369
13.562123298645020 -6.452809333801270 -0.176668375730515 0.000000000000000
4.246079921722412 -1.490347027778625 0.250196576118469 0.000000000000000
3.254689216613770 -1.138190984725952 0.875404715538025 0.000000000000000
16.915325164794922 -6.273378849029541 4.783000946044922 0.003921568859369
16.839132308959961 -6.311196804046631 4.767472743988037 0.003921568859369
16.177722930908203 -6.971588134765625 3.176386833190918 0.003921568859369
18.545551300048828 -8.233640670776367 3.663733243942261 0.003921568859369
13.599822998046875 -6.879980087280273 0.171630665659904 0.000000000000000
13.581697463989258 -6.923921585083008 0.171669900417328 0.000000000000000
6.158226490020752 -2.752761363983154 1.196754097938538 0.000000000000000
12.421747207641602 -6.536934852600098 -0.165259167551994 0.000000000000000
13.658076286315918 -6.373015880584717 0.255992919206619 0.000000000000000
12.391253471374512 -6.520527362823486 -0.809201657772064 0.000000000000000
12.305152893066406 -6.528943538665771 -0.805007219314575 0.000000000000000
8.260611534118652 -3.852656126022339 1.626621246337891 0.000000000000000
12.172045707702637 -6.511387348175049 0.154859676957130 0.003921568859369
13.483559608459473 -6.404327869415283 0.253493577241898 0.000000000000000
12.212123870849609 -6.533024787902832 -0.800345957279205 0.000000000000000
12.068577766418457 -6.508925914764404 0.153801634907722 0.003921568859369
13.313658714294434 -6.378960132598877 0.250657409429550 0.000000000000000
12.087702751159668 -6.519259452819824 -0.793583810329437 0.000000000000000
26.335447311401367 -12.711942672729492 5.292352676391602 0.003921568859369
11.953638076782227 -6.502070426940918 0.152606233954430 0.003921568859369
13.150174140930176 -6.358270645141602 0.247959047555923 0.000000000000000
11.997334480285645 -6.526084423065186 -0.789155900478363 0.003921568859369
8.098566055297852 -4.406280517578125 -0.108199246227741 0.000000000000000
11.871482849121094 -6.509957790374756 0.151822701096535 0.000000000000000
13.013209342956543 -6.346658706665039 0.245744138956070 0.003921568859369
11.894264221191406 -6.522512435913086 -0.783793985843658 0.000000000000000
20.185155868530273 -9.898493766784668 4.061098575592041 0.003921568859369
11.780094146728516 -6.509450435638428 0.150902464985847 0.000000000000000
11.813391685485840 -6.528013706207275 -0.779832184314728 0.000000000000000
11.687700271606445 -6.510414123535156 0.149981990456581 0.000000000000000
11.710623741149902 -6.523254871368408 -0.774470031261444 0.000000000000000
17.533327102661133 -7.695627212524414 5.077431678771973 0.003921568859369
11.596578598022461 -6.508822441101074 0.149061962962151 0.003921568859369
11.605700492858887 -6.513885974884033 -0.768874049186707 0.000000000000000
11.503322601318359 -6.510647296905518 0.148141413927078 0.000000000000000
11.526381492614746 -6.523780822753906 -0.765145838260651 0.000000000000000
11.418264389038086 -6.513934135437012 0.147312700748444 0.000000000000000
11.427561759948730 -6.519188880920410 -0.760016739368439 0.000000000000000
11.278344154357910 -6.481805324554443 -0.751385927200317 0.000000000000000
12.017147064208984 -5.443481922149658 3.483237504959106 0.000000000000000
11.482742309570312 -5.881631851196289 2.316708087921143 0.000000000000000
13.583383560180664 -7.029831409454346 -0.796281337738037 0.000000000000000
8.285186767578125 -3.823342323303223 2.391686916351318 0.000000000000000
13.582881927490234 -7.209320068359375 -0.800719976425171 0.003921568859369
13.575183868408203 -7.265504360198975 -0.801779031753540 0.003921568859369
13.574263572692871 -7.325562477111816 -0.803258597850800 0.000000000000000
6.318602561950684 -3.349845409393311 1.268101572990417 0.000000000000000
10.746825218200684 -6.515790939331055 0.140401542186737 0.000000000000000
8.567550659179688 -4.619934558868408 -0.782928466796875 0.000000000000000
13.562596321105957 -7.379905700683594 -0.804107367992401 0.000000000000000
13.143381118774414 -6.344943523406982 3.856429100036621 0.000000000000000
9.148785591125488 -5.571145534515381 -0.126080274581909 0.000000000000000
6.866893768310547 -3.710777044296265 -0.047011885792017 0.000000000000000
13.285906791687012 -6.470949172973633 0.335385054349899 0.000000000000000
10.676491737365723 -6.522933483123779 0.139756813645363 0.000000000000000
10.632268905639648 -6.495247364044189 -0.719178020954132 0.000000000000000
13.131547927856445 -6.395200729370117 3.859524488449097 0.000000000000000
13.148741722106934 -6.459420680999756 0.332427382469177 0.000000000000000
10.585910797119141 -6.516904354095459 0.138838350772858 0.000000000000000
10.606149673461914 -6.529476165771484 -0.718950271606445 0.000000000000000
13.023661613464355 -6.450171947479248 0.329746752977371 0.003921568859369
10.510159492492676 -6.517078399658203 0.138102814555168 0.000000000000000
18.247766494750977 -10.213312149047852 3.773985624313354 0.003921568859369
12.898785591125488 -6.440165996551514 0.327066332101822 0.003921568859369
10.431146621704102 -6.514672279357910 0.137321740388870 0.000000000000000
13.575396537780762 -7.626351356506348 -0.811075687408447 0.000000000000000
10.378053665161133 -6.530873775482178 0.136905506253242 0.000000000000000
13.576395988464355 -7.688901424407959 -0.812765419483185 0.000000000000000
10.300570487976074 -6.526858806610107 0.135841876268387 0.000000000000000
12.556325912475586 -7.156929969787598 0.576691448688507 0.003921568859369
13.572257995605469 -7.745905399322510 -0.813840448856354 0.000000000000000
5.073201179504395 -3.143429756164551 -0.204456642270088 0.000000000000000
16.277900695800781 -9.315829277038574 3.379574775695801 0.003921568859369
7.179161071777344 -4.070714473724365 -0.237669795751572 0.000000000000000
11.249738693237305 -6.450600147247314 -0.078373566269875 0.000000000000000
12.552542686462402 -6.425340175628662 0.319373607635498 0.003921568859369
9.172171592712402 -5.840962886810303 0.120795384049416 0.000000000000000
12.186240196228027 -6.998233795166016 0.560496926307678 0.000000000000000
13.572725296020508 -7.808605194091797 -0.815530836582184 0.000000000000000
12.442658424377441 -6.419734001159668 0.317063212394714 0.003921568859369
10.165656089782715 -6.536046504974365 0.134600177407265 0.000000000000000
6.235518932342529 -3.546104431152344 1.270806789398193 0.000000000000000
13.579079627990723 -7.016315460205078 -0.355726242065430 0.000000000000000
12.331825256347656 -6.415584564208984 0.314752578735352 0.003921568859369
6.294163227081299 -3.609287500381470 1.285850286483765 0.000000000000000
13.600449562072754 -7.087242126464844 -0.356956392526627 0.000000000000000
12.223578453063965 -6.414719581604004 0.312533825635910 0.003921568859369
12.394374847412109 -8.125531196594238 0.165760263800621 0.000000000000000
12.374464988708496 -8.112082481384277 -0.855814516544342 0.000000000000000
10.243533134460449 -5.357398986816406 3.042090177536011 0.000000000000000
12.417487144470215 -6.518198490142822 -0.326137244701385 0.000000000000000
12.415015220642090 -6.568849563598633 -0.973058640956879 0.000000000000000
11.705340385437012 -6.931354999542236 0.542340278625488 0.000000000000000
11.544479370117188 -6.888352394104004 0.535859107971191 0.000000000000000
11.399903297424316 -6.856706142425537 0.530187010765076 0.000000000000000
13.580624580383301 -7.375093460083008 -0.715630888938904 0.000000000000000
13.649749755859375 -7.474651813507080 -0.004669222980738 0.000000000000000
11.096294403076172 -6.823036670684814 0.519000291824341 0.000000000000000
13.573713302612305 -7.561093330383301 -0.004680674523115 0.000000000000000
13.299903869628906 -6.584057807922363 0.421833068132401 0.000000000000000
10.955173492431641 -6.792119979858398 0.513490498065948 0.000000000000000
13.052391052246094 -8.118355751037598 -0.800675749778748 0.000000000000000
11.790932655334473 -6.552545070648193 3.559226751327515 0.000000000000000
20.727642059326172 -12.973680496215820 4.417698383331299 0.003921568859369
13.588030815124512 -7.618919372558594 -0.004966061562300 0.000000000000000
13.182521820068359 -6.570924282073975 0.418108016252518 0.000000000000000
10.866591453552246 -6.776489734649658 0.509526848793030 0.000000000000000
12.986613273620605 -8.126492500305176 -0.797798514366150 0.000000000000000
13.056279182434082 -6.563296318054199 0.414753317832947 0.000000000000000
10.752058982849121 -6.755297660827637 0.505152165889740 0.000000000000000
12.887575149536133 -8.125674247741699 -0.793388068675995 0.000000000000000
8.478346824645996 -5.338582992553711 -0.805903494358063 0.000000000000000
12.907788276672363 -6.546081066131592 0.410706132650375 0.003921568859369
10.646696090698242 -6.741720199584961 0.501262664794922 0.000000000000000
12.790635108947754 -8.128624916076660 -0.789188265800476 0.000000000000000
13.609937667846680 -7.024174690246582 -0.268624722957611 0.000000000000000
12.728409767150879 -6.561629772186279 0.406305640935898 0.003921568859369
12.591443061828613 -8.119668006896973 -0.780155956745148 0.003921568859369
15.290053367614746 -8.871232986450195 4.678056716918945 0.003921568859369
12.574677467346191 -6.536017417907715 0.402028650045395 0.000000000000000
12.516387939453125 -8.131917953491211 -0.777217745780945 0.003921568859369
12.368453979492188 -8.098225593566895 -0.429640412330627 0.000000000000000
12.420024871826172 -8.132678985595703 -0.090114288032055 0.000000000000000
12.441307067871094 -6.522839546203613 0.398443698883057 0.000000000000000
12.474097251892090 -6.540111064910889 -0.894304871559143 0.000000000000000
12.328074455261230 -6.514033317565918 0.395436614751816 0.000000000000000
10.190273284912109 -6.693400859832764 0.484731256961823 0.000000000000000
13.619528770446777 -7.269483089447021 -0.270854115486145 0.000000000000000
12.220928192138672 -6.510454654693604 0.392659962177277 0.000000000000000
10.100654602050781 -6.683329582214355 0.481489926576614 0.000000000000000
13.603319168090820 -7.324279785156250 -0.271075546741486 0.000000000000000
13.507844924926758 -8.139528274536133 -0.005090394988656 0.003921568859369
9.085734367370605 -4.850620746612549 -0.650858700275421 0.000000000000000
3.357402801513672 -2.135761499404907 0.152270689606667 0.000000000000000
13.601256370544434 -7.377856254577637 -0.271508067846298 0.000000000000000
5.882800579071045 -3.120041608810425 -0.416637957096100 0.000000000000000
9.916569709777832 -6.655342102050781 0.474684447050095 0.000000000000000
10.798558235168457 -6.525446414947510 3.324126005172729 0.000000000000000
13.606877326965332 -7.441988945007324 -0.272153854370117 0.000000000000000
8.860623359680176 -6.620761394500732 0.122617140412331 0.000000000000000
9.811117172241211 -6.632264137268066 0.470634609460831 0.000000000000000
10.726507186889648 -6.531688213348389 3.308605432510376 0.000000000000000
2.645175695419312 -1.504291176795959 -0.068079546093941 0.000000000000000
13.607275009155273 -7.500810623168945 -0.272827267646790 0.000000000000000
8.875113487243652 -6.674411773681641 0.122776605188847 0.000000000000000
11.800951004028320 -6.487565040588379 0.381162434816360 0.000000000000000
10.689952850341797 -6.555837154388428 3.301094055175781 0.000000000000000
13.596255302429199 -7.552978038787842 -0.273119032382965 0.000000000000000
8.875031471252441 -6.720209598541260 0.123090103268623 0.000000000000000
11.674959182739258 -6.466838836669922 0.377696514129639 0.000000000000000
10.613231658935547 -8.072389602661133 -0.770519018173218 0.000000000000000
13.070856094360352 -8.107672691345215 -0.712417125701904 0.000000000000000
10.677959442138672 -6.596652030944824 3.304190635681152 0.000000000000000
13.604555130004883 -7.619367122650146 -0.273836493492126 0.000000000000000
8.860967636108398 -6.757719993591309 0.123221725225449 0.000000000000000
11.579370498657227 -6.465142726898193 0.375267952680588 0.003921568859369
10.572418212890625 -8.098707199096680 -0.769589722156525 0.000000000000000
9.617712020874023 -6.637654781341553 0.463732659816742 0.000000000000000
12.971694946289062 -8.107356071472168 -0.708493232727051 0.000000000000000
8.870676994323730 -6.816544055938721 0.123716421425343 0.000000000000000
11.465476036071777 -6.454856872558594 0.372262775897980 0.003921568859369
9.534751892089844 -6.630219459533691 0.460816442966461 0.000000000000000
12.894821166992188 -8.123760223388672 -0.705880224704742 0.000000000000000
8.875005722045898 -6.869042396545410 0.124120540916920 0.000000000000000
11.370229721069336 -6.451909065246582 0.369834572076797 0.003921568859369
9.443387985229492 -6.613662719726562 0.457415550947189 0.000000000000000
8.861508369445801 -6.905076026916504 -0.132968887686729 0.000000000000000
11.249620437622070 -6.430833339691162 0.069518953561783 0.000000000000000
8.883403778076172 -6.922645092010498 0.124570302665234 0.000000000000000
9.359881401062012 -6.599642276763916 0.454338401556015 0.000000000000000
11.275100708007812 -6.445603847503662 -0.525330066680908 0.000000000000000
6.949120044708252 -4.372603416442871 -0.189759820699692 0.000000000000000
8.899664878845215 -6.985420703887939 0.125156044960022 0.000000000000000
9.275420188903809 -6.586718559265137 0.451261073350906 0.000000000000000
9.210493087768555 -6.587477684020996 0.449154049158096 0.000000000000000
8.987438201904297 -5.788420200347900 2.806701898574829 0.000000000000000
12.441967964172363 -8.137416839599609 -0.005242018029094 0.000000000000000
9.138092994689941 -6.584666252136230 0.446723461151123 0.000000000000000
12.425303459167480 -8.126248359680176 -0.346087992191315 0.000000000000000
10.222101211547852 -8.228657722473145 -0.758408844470978 0.000000000000000
9.063779830932617 -6.577481746673584 0.444131553173065 0.000000000000000
10.041102409362793 -8.134233474731445 -0.746727585792542 0.000000000000000
2.719961404800415 -1.692563056945801 -0.001998050604016 0.000000000000000
8.850063323974609 -7.197008609771729 -0.135095521807671 0.000000000000000
8.843964576721191 -7.191950321197510 0.126132726669312 0.003921568859369
9.939109802246094 -8.106952667236328 -0.741123199462891 0.000000000000000
8.862771034240723 -7.250245094299316 -0.135781660676003 0.000000000000000
8.862814903259277 -7.250319480895996 0.126375511288643 0.000000000000000
8.922021865844727 -7.300031661987305 -0.664953768253326 0.000000000000000
8.861823081970215 -7.300960540771484 -0.136168450117111 0.000000000000000
8.840508460998535 -7.282931804656982 0.126416474580765 0.000000000000000
10.762495040893555 -6.540592670440674 -0.798399746417999 0.000000000000000
8.911720275878906 -7.343173503875732 -0.666127085685730 0.000000000000000
8.846692085266113 -7.337272167205811 -0.136315971612930 0.000000000000000
9.756091117858887 -8.113145828247070 -0.732996225357056 0.000000000000000
6.724593162536621 -4.514305591583252 2.111496210098267 0.000000000000000
8.836197853088379 -7.380275249481201 -0.136559277772903 0.000000000000000
10.575980186462402 -6.522491455078125 -0.787618994712830 0.000000000000000
9.676230430603027 -8.102043151855469 -0.729026496410370 0.000000000000000
3.147587537765503 -1.831465601921082 -0.141927883028984 0.000000000000000
5.734075546264648 -3.880744457244873 -0.473109066486359 0.000000000000000
10.495900154113770 -6.522068977355957 -0.783256530761719 0.000000000000000
10.609511375427246 -8.116806983947754 -0.695025324821472 0.000000000000000
9.529129028320312 -8.088959693908691 -0.722021818161011 0.000000000000000
10.338347434997559 -6.523716449737549 -0.774788618087769 0.003921568859369
9.481416702270508 -8.107114791870117 -0.720623731613159 0.000000000000000
8.953482627868652 -6.970485210418701 -0.069452948868275 0.000000000000000
9.408188819885254 -8.099619865417480 -0.717121183872223 0.003921568859369
8.876944541931152 -6.956247806549072 -0.327177643775940 0.000000000000000
12.419962882995605 -8.109719276428223 -0.260827541351318 0.000000000000000
12.421667098999023 -8.110914230346680 0.079482272267342 0.000000000000000
10.081706047058105 -8.147980690002441 -0.674287974834442 0.000000000000000
9.089471817016602 -8.084895133972168 -0.423336505889893 0.003921568859369
9.007200241088867 -8.065928459167480 -0.143749266862869 0.000000000000000
8.963139533996582 -8.025343894958496 0.132629856467247 0.000000000000000
9.599163055419922 -6.365891456604004 0.324134290218353 0.003921568859369
9.017111778259277 -8.075027465820312 -0.421226859092712 0.000000000000000
10.917724609375000 -8.166325569152832 3.591997861862183 0.000000000000000
3.426066160202026 -2.462167024612427 -0.189444378018379 0.000000000000000
15.298396110534668 -13.099483489990234 3.628344058990479 0.003921568859369
9.155467033386230 -7.065671920776367 0.656671822071075 0.000000000000000
7.427551269531250 -6.377281188964844 -0.507285237312317 0.000000000000000
8.924983978271484 -7.031774520874023 -0.004899601452053 0.003921568859369
8.873671531677246 -7.081978321075439 -0.005154154729098 0.003921568859369
10.071692466735840 -8.128264427185059 -0.598880827426910 0.000000000000000
8.708424568176270 -7.723899841308594 -0.604881465435028 0.000000000000000
6.473735809326172 -5.145493507385254 2.155480623245239 0.000000000000000
8.961112976074219 -8.061762809753418 -0.350486129522324 0.003921568859369
8.852355957031250 -7.213958263397217 -0.005190786905587 0.003921568859369
8.949894905090332 -8.051321983337402 -0.625962257385254 0.000000000000000
9.759439468383789 -8.089892387390137 -0.586525917053223 0.000000000000000
9.687289237976074 -8.088180541992188 -0.583906114101410 0.000000000000000
9.627166748046875 -8.090626716613770 -0.581848144531250 0.000000000000000
9.526543617248535 -8.060276985168457 -0.577352821826935 0.000000000000000
9.453289031982422 -8.053031921386719 -0.574545025825500 0.000000000000000
8.930024147033691 -6.925219535827637 -0.715812742710114 0.000000000000000
9.398165702819824 -8.061242103576660 -0.572862029075623 0.000000000000000
4.510213851928711 -4.131319522857666 0.479881495237350 0.000000000000000
9.289476394653320 -8.068839073181152 -0.569200158119202 0.003921568859369
8.877567291259766 -7.023996829986572 -0.199176266789436 0.000000000000000
5.372349262237549 -5.101446151733398 0.584359467029572 0.000000000000000
10.022727012634277 -8.073422431945801 -0.521466612815857 0.000000000000000
8.889865875244141 -7.441699981689453 -0.734892666339874 0.003921568859369
9.644314765930176 -8.093724250793457 -0.510162115097046 0.000000000000000
8.884916305541992 -7.490055084228516 -0.736697912216187 0.000000000000000
8.893065452575684 -7.541129112243652 -0.739017009735107 0.000000000000000
