# This PCD file was generated using the MATLAB® pcwrite function
# from Computer Vision Toolbox®.
# .PCD v.7 - Point Cloud Data file format
VERSION .7
FIELDS x y z intensity
SIZE 8 8 8 8
TYPE F F F F
COUNT 1 1 1 1
WIDTH 646
HEIGHT 1
VIEWPOINT 0 0 0 1 0 0 0
POINTS 646
DATA ascii
10.684123039245605 0.747993469238281 0.869921267032623 0.000000000000000
11.222344398498535 1.296873569488525 1.380186796188354 0.000000000000000
3.853266954421997 0.054914366453886 -0.044143036007881 0.000000000000000
4.768394470214844 0.298508912324905 -0.027339708060026 0.000000000000000
17.932012557983398 2.013021230697632 0.419691890478134 0.000000000000000
10.295188903808594 0.648851573467255 0.837670922279358 0.000000000000000
9.051073074340820 0.099881649017334 -0.103931002318859 0.000000000000000
15.130782127380371 0.904348671436310 0.264554232358932 0.000000000000000
4.131915092468262 0.017681809142232 -0.047225967049599 0.000000000000000
15.510135650634766 0.821668386459351 -0.088566236197948 0.000000000000000
8.088674545288086 0.791454076766968 0.989508748054504 0.000000000000000
8.459330558776855 0.386444121599197 0.685919404029846 0.000000000000000
18.237859725952148 1.729428887367249 4.891116619110107 0.003921568859369
3.973548650741577 0.371503502130508 -0.091212041676044 0.000000000000000
11.750646591186523 1.648955345153809 -0.205115079879761 0.000000000000000
12.475069999694824 1.136891007423401 0.726237297058105 0.000000000000000
11.479947090148926 1.045986175537109 3.070381641387939 0.000000000000000
10.470040321350098 1.431201457977295 0.061628721654415 0.000000000000000
8.902924537658691 0.778464138507843 0.516788780689240 0.000000000000000
2.891719341278076 0.110365748405457 0.114838302135468 0.000000000000000
4.984087944030762 0.433165580034256 0.605538487434387 0.000000000000000
9.359060287475586 0.818894207477570 2.498684883117676 0.000000000000000
5.820875644683838 0.224823221564293 1.049161791801453 0.000000000000000
8.812007904052734 0.770366609096527 -0.203652918338776 0.000000000000000
10.446735382080078 1.394800782203674 0.061467237770557 0.000000000000000
13.953140258789062 0.498538434505463 0.243587195873260 0.000000000000000
11.584846496582031 1.502765297889709 -0.201907306909561 0.000000000000000
9.646229743957520 -0.160889998078346 -0.110770568251610 0.000000000000000
9.975971221923828 1.292853355407715 0.291256606578827 0.000000000000000
2.668105363845825 0.210805103182793 0.319628834724426 0.000000000000000
9.165847778320312 1.154796838760376 -0.159499794244766 0.000000000000000
20.178678512573242 -0.408361703157425 0.236094832420349 0.003921568859369
16.583003997802734 1.223078966140747 0.001368076540530 0.003921568859369
4.026837348937988 -0.093911044299603 -0.046015415340662 0.000000000000000
16.157562255859375 0.403735876083374 2.935164928436279 0.003921568859369
3.852928400039673 0.454829066991806 0.022087937220931 0.000000000000000
7.188674449920654 0.504957318305969 0.876339614391327 0.000000000000000
7.286378383636475 0.483219981193542 0.000407605606597 0.000000000000000
4.174878597259521 0.476358413696289 0.023935612291098 0.000000000000000
9.796175003051758 0.651535987854004 0.567695498466492 0.000000000000000
7.105953693389893 0.127280727028847 0.573884785175323 0.000000000000000
7.697762489318848 0.484227925539017 0.937394320964813 0.000000000000000
15.398657798767090 0.925018787384033 0.001441946020350 0.000000000000000
10.531477928161621 1.145630121231079 0.306676626205444 0.000000000000000
19.640777587890625 2.071587085723877 0.574253618717194 0.003921568859369
15.630184173583984 0.121239013969898 1.270859479904175 0.000000000000000
3.548050880432129 0.196794539690018 -0.080828301608562 0.000000000000000
7.420068264007568 0.751468002796173 0.043260660022497 0.000000000000000
13.317274093627930 0.704447329044342 0.773043751716614 0.000000000000000
5.316161155700684 0.518543124198914 -0.091661125421524 0.000000000000000
11.744177818298340 0.581982076168060 0.680988073348999 0.000000000000000
13.067203521728516 0.012918835505843 1.061259388923645 0.000000000000000
12.720012664794922 0.631004750728607 3.391648769378662 0.000000000000000
18.035425186157227 0.895583748817444 -0.416471481323242 0.000000000000000
8.499227523803711 0.389208018779755 0.491275697946548 0.000000000000000
16.884687423706055 1.542809486389160 0.492612421512604 0.003921568859369
22.878026962280273 -0.140690028667450 1.863548398017883 0.003921568859369
3.373687028884888 0.290866822004318 0.019108694046736 0.000000000000000
2.782507419586182 0.238651216030121 -0.173875436186790 0.000000000000000
8.395485877990723 0.704933941364288 -0.145094066858292 0.000000000000000
18.693426132202148 -1.155929684638977 -0.214937910437584 0.003921568859369
7.245786190032959 0.607530295848846 0.209605723619461 0.000000000000000
21.955350875854492 0.781499505043030 1.276980757713318 0.003921568859369
24.614528656005859 -0.322717607021332 2.005704164505005 0.003921568859369
8.156477928161621 0.656351089477539 0.236252486705780 0.000000000000000
12.863670349121094 0.412237823009491 1.571330428123474 0.000000000000000
6.657069206237793 -0.109123133122921 1.199298739433289 0.000000000000000
14.153326988220215 0.996985197067261 0.083348542451859 0.000000000000000
13.078180313110352 0.284735560417175 0.303596377372742 0.000000000000000
9.354468345642090 0.624320507049561 -0.161276951432228 0.000000000000000
16.994874954223633 -0.514660060405731 0.690996110439301 0.003921568859369
20.858545303344727 0.310030281543732 0.002533672610298 0.003921568859369
7.528445720672607 -0.252236515283585 -0.042641904205084 0.000000000000000
3.319609165191650 0.048493109643459 0.075013868510723 0.000000000000000
13.344174385070801 0.846746087074280 0.387761354446411 0.000000000000000
15.297264099121094 0.227224856615067 0.887278676033020 0.000000000000000
16.541767120361328 1.050808072090149 -0.669730305671692 0.003921568859369
6.976404190063477 0.078981682658195 0.000468683661893 0.000000000000000
21.213699340820312 -0.790968298912048 -0.120098240673542 0.003921568859369
19.326837539672852 0.220197513699532 1.122537732124329 0.000000000000000
3.344785690307617 -0.132286652922630 -0.094769068062305 0.000000000000000
3.219893217086792 0.025717694312334 0.072675704956055 0.000000000000000
8.663251876831055 0.489217728376389 0.250495314598083 0.000000000000000
4.456053733825684 0.203410297632217 0.025456788018346 0.000000000000000
3.447923898696899 -0.171681836247444 0.058610934764147 0.000000000000000
24.954441070556641 -0.058291584253311 1.451098799705505 0.003921568859369
10.129266738891602 -0.023223984986544 1.233302474021912 0.000000000000000
3.592789173126221 -0.020750490948558 -0.000028519600164 0.000000000000000
12.413380622863770 0.487498551607132 -0.213990420103073 0.000000000000000
2.133400678634644 -0.018678598105907 0.250314086675644 0.000000000000000
14.097599029541016 -0.130044043064117 3.754450559616089 0.000000000000000
8.105048179626465 0.289118528366089 -0.326025635004044 0.000000000000000
16.252214431762695 0.525842785835266 -0.280022561550140 0.003921568859369
9.314718246459961 0.300083756446838 -0.374605119228363 0.000000000000000
4.773560047149658 -0.075729101896286 1.251824259757996 0.000000000000000
10.969078063964844 -0.213216170668602 0.001236960757524 0.003921568859369
3.880008935928345 -0.073813520371914 0.220023021101952 0.000000000000000
4.773338794708252 0.136837303638458 -0.190205320715904 0.000000000000000
6.965337753295898 -0.158468335866928 0.000556186132599 0.000000000000000
8.756550788879395 -0.623873233795166 -0.049494419246912 0.000000000000000
3.989779233932495 -0.103832349181175 0.000048055488151 0.000000000000000
6.174643039703369 -0.162375390529633 0.354141920804977 0.000000000000000
3.821968078613281 0.070092402398586 -0.064930289983749 0.000000000000000
12.090534210205078 -0.360916167497635 -0.277616262435913 0.000000000000000
3.858178853988647 0.057659778743982 -0.065550558269024 0.000000000000000
17.641113281250000 -0.589114964008331 2.157066345214844 0.003921568859369
9.482385635375977 -0.314662575721741 2.515689134597778 0.000000000000000
22.330955505371094 -1.836733698844910 4.070049762725830 0.003921568859369
9.597102165222168 0.112019926309586 -0.164772346615791 0.000000000000000
11.701407432556152 0.136844873428345 0.338871717453003 0.000000000000000
16.377052307128906 -1.401853442192078 2.980571508407593 0.003921568859369
5.874116897583008 0.048104055225849 -0.100394651293755 0.000000000000000
7.239505767822266 -0.289366900920868 0.877594649791718 0.000000000000000
8.545611381530762 -0.401610881090164 0.000859555148054 0.003921568859369
4.446844577789307 -0.206396654248238 0.253394484519958 0.000000000000000
8.342153549194336 -0.420723706483841 0.192795842885971 0.000000000000000
17.805854797363281 -0.904360473155975 1.034809589385986 0.000000000000000
2.537884473800659 -0.123955510556698 0.653066813945770 0.000000000000000
2.560581922531128 -0.133717164397240 0.659283816814423 0.000000000000000
7.831343173980713 -0.447865337133408 2.072409152984619 0.000000000000000
16.984891891479492 -0.213527321815491 0.493519842624664 0.003921568859369
20.109378814697266 -1.231792211532593 1.169957876205444 0.003921568859369
20.446916580200195 -2.253484487533569 3.733617067337036 0.003921568859369
18.926954269409180 -0.303843170404434 0.550446033477783 0.003921568859369
10.939283370971680 -0.704266846179962 2.908495187759399 0.000000000000000
3.911146640777588 -0.072913028299809 0.110577151179314 0.000000000000000
3.633932590484619 -0.067599669098854 -0.143471449613571 0.000000000000000
7.782314300537109 -0.175870984792709 -0.133129134774208 0.000000000000000
6.201264381408691 -0.139473140239716 0.177687019109726 0.000000000000000
19.619350433349609 -1.540309667587280 1.142711281776428 0.000000000000000
6.165227890014648 -0.201059460639954 -0.105220340192318 0.000000000000000
6.252415180206299 -0.225417613983154 -0.106735855340958 0.000000000000000
17.735435485839844 -1.512087345123291 2.174545526504517 0.003921568859369
8.836059570312500 -0.501509666442871 -0.151215657591820 0.000000000000000
14.875873565673828 -1.575411796569824 0.002527424134314 0.000000000000000
6.217590808868408 -0.350609928369522 0.036028984934092 0.000000000000000
3.451475858688354 -0.367923229932785 -0.000000973173883 0.000000000000000
5.051408767700195 -0.317929714918137 0.144019201397896 0.000000000000000
14.083603858947754 -1.001994609832764 0.083603672683239 0.000000000000000
11.060771942138672 -0.821383357048035 0.065362282097340 0.000000000000000
15.954276084899902 -2.026432752609253 1.962488532066345 0.003921568859369
3.157463312149048 -0.399176448583603 0.819884419441223 0.000000000000000
6.403389453887939 -1.162910819053650 1.165205597877502 0.000000000000000
14.566641807556152 -2.825343370437622 3.941340923309326 0.000000000000000
7.673277378082275 -1.556692838668823 2.061451673507690 0.000000000000000
26.087738037109375 -5.455304622650146 7.110499858856201 0.003921568859369
27.857213973999023 -7.673452377319336 2.354864120483398 0.003921568859369
26.517089843750000 -7.498293399810791 2.245005130767822 0.003921568859369
28.429080963134766 -8.148960113525391 2.410320997238159 0.003921568859369
28.465515136718750 -8.266605377197266 2.415890455245972 0.003921568859369
27.245079040527344 -8.312095642089844 2.321210861206055 0.003921568859369
25.483648300170898 -7.868442535400391 2.172579765319824 0.003921568859369
26.765871047973633 -9.821667671203613 0.338324099779129 0.003921568859369
25.581525802612305 -7.996281623840332 2.183374643325806 0.003921568859369
25.819368362426758 -8.169644355773926 2.206257343292236 0.003921568859369
4.139203071594238 -1.071265578269958 1.106012463569641 0.000000000000000
26.040981292724609 -8.436571121215820 2.229988574981689 0.003921568859369
24.784742355346680 -8.122142791748047 2.124123811721802 0.003921568859369
26.137660980224609 -7.280099391937256 1.578740239143372 0.003921568859369
25.959386825561523 -10.243276596069336 0.331627696752548 0.003921568859369
24.717908859252930 -8.482026100158691 2.128427028656006 0.003921568859369
24.418693542480469 -7.437348842620850 1.484830379486084 0.003921568859369
27.313449859619141 -9.799798965454102 2.365085840225220 0.003921568859369
24.238111495971680 -8.784719467163086 2.099733829498291 0.003921568859369
23.414363861083984 -8.576181411743164 2.030462980270386 0.003921568859369
24.893611907958984 -9.314890861511230 2.164983510971069 0.003921568859369
24.678853988647461 -7.984670162200928 1.509001493453979 0.003921568859369
27.417001724243164 -8.876675605773926 3.527227878570557 0.003921568859369
24.678390502929688 -9.331590652465820 2.148978948593140 0.003921568859369
26.036064147949219 -8.526639938354492 3.352223396301270 0.003921568859369
25.072179794311523 -8.305279731750488 3.230995178222656 0.003921568859369
26.209896087646484 -10.123135566711426 5.102448940277100 0.003921568859369
16.555948257446289 -6.438302516937256 3.214622259140015 0.003921568859369
23.119117736816406 -9.106544494628906 2.023172855377197 0.003921568859369
25.099901199340820 -9.892379760742188 4.898307800292969 0.003921568859369
23.758213043212891 -8.142616271972656 1.460874080657959 0.003921568859369
25.174903869628906 -8.729316711425781 3.259898424148560 0.003921568859369
27.513877868652344 -11.072096824645996 5.387910842895508 0.003921568859369
24.108100891113281 -9.980776786804199 4.736615657806396 0.003921568859369
27.944238662719727 -10.125096321105957 0.697714626789093 0.003921568859369
26.131582260131836 -10.927570343017578 2.308211326599121 0.003921568859369
3.217311620712280 -1.276123166084290 0.599994063377380 0.000000000000000
25.561330795288086 -10.791831016540527 2.260809421539307 0.003921568859369
26.448329925537109 -9.892239570617676 0.662674427032471 0.003921568859369
23.954841613769531 -10.304729461669922 4.732852935791016 0.003921568859369
24.176002502441406 -10.500654220581055 2.147049427032471 0.003921568859369
26.103141784667969 -11.343801498413086 5.168585300445557 0.003921568859369
23.749139785766602 -10.411582946777344 4.706274509429932 0.003921568859369
24.115123748779297 -10.673305511474609 4.786816120147705 0.003921568859369
26.414731979370117 -10.299564361572266 3.469851255416870 0.003921568859369
24.151954650878906 -10.790588378906250 2.154934883117676 0.003921568859369
26.501539230346680 -10.440125465393066 1.658624887466431 0.003921568859369
2.610117197036743 -1.101112484931946 0.217357724905014 0.000000000000000
24.348087310791016 -10.980121612548828 4.848676204681396 0.003921568859369
25.119625091552734 -11.436335563659668 2.249140977859497 0.003921568859369
23.735208511352539 -10.900603294372559 4.740846633911133 0.003921568859369
26.003770828247070 -10.556600570678711 3.434700965881348 0.003921568859369
25.053615570068359 -11.616880416870117 2.250473737716675 0.003921568859369
24.381490707397461 -11.302504539489746 4.878910541534424 0.003921568859369
24.996257781982422 -11.685885429382324 2.248411655426025 0.003921568859369
24.097705841064453 -11.262068748474121 4.827672958374023 0.003921568859369
24.834453582763672 -11.720191955566406 2.237629890441895 0.003921568859369
19.533761978149414 -8.219420433044434 5.638332366943359 0.003921568859369
25.908658981323242 -12.446134567260742 5.219626903533936 0.003921568859369
25.529159545898438 -12.371772766113281 5.151323795318604 0.003921568859369
15.969933509826660 -7.771425724029541 3.212591886520386 0.003921568859369
15.805935859680176 -6.958924770355225 4.585962772369385 0.003921568859369
24.259920120239258 -10.931031227111816 1.549066901206970 0.003921568859369
26.101232528686523 -11.767227172851562 3.504364728927612 0.003921568859369
25.276889801025391 -11.498539924621582 3.398239135742188 0.003921568859369
3.260104179382324 -1.597789168357849 0.628829061985016 0.000000000000000
25.725055694580078 -11.905314445495605 1.651075005531311 0.003921568859369
7.841923713684082 -4.098926067352295 0.153919115662575 0.000000000000000
25.074529647827148 -11.824546813964844 1.614552497863770 0.003921568859369
17.429113388061523 -9.246089935302734 3.571889877319336 0.003921568859369
26.181552886962891 -12.462320327758789 1.689309120178223 0.003921568859369
12.993527412414551 -6.352524757385254 3.831457614898682 0.000000000000000
12.954000473022461 -6.388470172882080 3.826279640197754 0.000000000000000
14.494892120361328 -8.057418823242188 2.997269868850708 0.003921568859369
7.804161071777344 -4.317366123199463 1.596210479736328 0.000000000000000
26.083534240722656 -13.196607589721680 3.578486204147339 0.003921568859369
7.788280963897705 -4.345186233520508 1.596213817596436 0.000000000000000
8.060844421386719 -4.034369468688965 1.086004972457886 0.000000000000000
17.128932952880859 -8.698780059814453 5.104225158691406 0.003921568859369
19.132564544677734 -11.285192489624023 4.025544166564941 0.003921568859369
10.854692459106445 -5.804338932037354 3.252058267593384 0.000000000000000
2.431280136108398 -1.408978581428528 0.477102726697922 0.000000000000000
2.350037336349487 -1.368007659912109 0.460556566715240 0.000000000000000
3.207237005233765 -1.749330282211304 -0.371883153915405 0.003921568859369
16.794782638549805 -11.012126922607422 3.636162757873535 0.003921568859369
8.930625915527344 -6.466267585754395 -0.122107706964016 0.000000000000000
8.908058166503906 -6.449482917785645 0.130024075508118 0.003921568859369
8.922798156738281 -6.460467815399170 -0.374187231063843 0.000000000000000
7.324484348297119 -4.752803802490234 1.560583829879761 0.000000000000000
7.749042987823486 -5.073379039764404 1.657710671424866 0.000000000000000
13.485470771789551 -9.204618453979492 2.948737859725952 0.003921568859369
10.566926956176758 -6.504735469818115 3.276456832885742 0.000000000000000
10.521317481994629 -6.526267051696777 3.269199848175049 0.000000000000000
5.511724948883057 -3.021559953689575 -0.245900854468346 0.003921568859369
10.425732612609863 -6.518114566802979 3.246383190155029 0.000000000000000
23.281200408935547 -16.383811950683594 5.169261932373047 0.003921568859369
10.434425354003906 -6.568925380706787 3.255722045898438 0.000000000000000
8.912380218505859 -7.075396537780762 0.134869411587715 0.000000000000000
8.922970771789551 -7.132141590118408 -0.126285701990128 0.000000000000000
8.908577919006348 -7.224838256835938 -0.126817271113396 0.000000000000000
8.915002822875977 -7.273108005523682 -0.126915201544762 0.000000000000000
8.936662673950195 -7.340529918670654 -0.127579987049103 0.003921568859369
8.914027214050293 -7.373407840728760 -0.127623885869980 0.000000000000000
9.000305175781250 -6.738256931304932 0.454714536666870 0.000000000000000
8.909494400024414 -7.421833992004395 -0.127933993935585 0.000000000000000
7.760650634765625 -6.528853416442871 -0.343535035848618 0.000000000000000
8.954689025878906 -7.620138645172119 -0.129751741886139 0.000000000000000
8.751871109008789 -6.738181591033936 0.446632891893387 0.000000000000000
8.931033134460449 -7.653130531311035 -0.129796028137207 0.000000000000000
7.646723747253418 -6.521066188812256 0.118841566145420 0.000000000000000
8.668944358825684 -6.720458030700684 0.443498224020004 0.000000000000000
7.598130702972412 -6.521674156188965 0.118402555584908 0.003921568859369
8.596763610839844 -6.708292484283447 0.440858572721481 0.000000000000000
8.922279357910156 -7.019862651824951 -0.060135401785374 0.000000000000000
7.545492649078369 -6.520640373229980 0.117914706468582 0.000000000000000
8.539120674133301 -6.709738731384277 0.439044088125229 0.000000000000000
7.494788169860840 -6.523260593414307 0.117475576698780 0.000000000000000
8.455616950988770 -6.692095756530762 0.435909241437912 0.000000000000000
2.586046457290649 -1.722722291946411 0.778685569763184 0.000000000000000
5.718669891357422 -4.957268714904785 -0.083316214382648 0.000000000000000
7.431621074676514 -6.509654045104980 0.116792485117912 0.000000000000000
8.399398803710938 -6.691383838653564 0.434094548225403 0.000000000000000
2.657867431640625 -1.788028955459595 0.804621160030365 0.000000000000000
8.907524108886719 -7.150884151458740 -0.321654647588730 0.003921568859369
4.751429080963135 -4.100057601928711 -0.068817310035229 0.000000000000000
7.386592864990234 -6.505063056945801 0.116425901651382 0.000000000000000
8.333858489990234 -6.676539421081543 0.431482374668121 0.000000000000000
7.346168994903564 -6.513668537139893 0.116132125258446 0.000000000000000
4.527804851531982 -2.899223327636719 0.151678979396820 0.000000000000000
8.273643493652344 -6.673998832702637 0.429501175880432 0.000000000000000
8.938771247863770 -8.033448219299316 -0.683509945869446 0.000000000000000
8.922557830810547 -7.369395732879639 -0.325987219810486 0.003921568859369
8.936252593994141 -7.433412551879883 -0.327469736337662 0.000000000000000
8.848359107971191 -8.118422508239746 -0.683052182197571 0.000000000000000
8.913275718688965 -7.466272830963135 -0.327583730220795 0.000000000000000
7.980412483215332 -6.661460876464844 0.419924408197403 0.000000000000000
7.046479225158691 -6.505698680877686 0.113390751183033 0.000000000000000
7.896770954132080 -6.635953426361084 0.416621685028076 0.000000000000000
7.735528469085693 -6.541803359985352 -0.284927666187286 0.000000000000000
7.006457328796387 -6.512688636779785 0.113096542656422 0.000000000000000
7.831447124481201 -6.625733375549316 0.414309710264206 0.000000000000000
7.761611461639404 -6.564624309539795 -0.518269956111908 0.000000000000000
8.903604507446289 -7.617297172546387 -0.330207169055939 0.000000000000000
6.952130794525146 -6.505542755126953 0.112557932734489 0.000000000000000
7.775284290313721 -6.623065471649170 0.412493079900742 0.000000000000000
6.919081211090088 -6.516516685485840 0.112361401319504 0.000000000000000
8.953010559082031 -6.983923435211182 -0.774946808815002 0.000000000000000
7.708430767059326 -6.608176231384277 0.410015851259232 0.000000000000000
6.880333900451660 -6.521729946136475 0.112067088484764 0.000000000000000
9.086065292358398 -6.452036380767822 0.323038101196289 0.000000000000000
7.668585777282715 -6.616873741149902 0.409024775028229 0.000000000000000
6.839382648468018 -6.516665458679199 0.111736200749874 0.000000000000000
7.622999191284180 -6.613334655761719 0.407385081052780 0.000000000000000
6.781496047973633 -6.506781578063965 0.111147060990334 0.000000000000000
7.557240962982178 -6.602679729461670 0.405071228742599 0.000000000000000
8.916375160217285 -7.147225379943848 0.005183417350054 0.003921568859369
6.733364105224609 -6.503945827484131 0.110704839229584 0.000000000000000
7.489857196807861 -6.587678432464600 0.402592092752457 0.000000000000000
6.704998493194580 -6.520781517028809 0.110605277121067 0.000000000000000
7.425612449645996 -6.574992656707764 0.400278091430664 0.000000000000000
8.767748832702637 -6.444821834564209 0.315295726060867 0.003921568859369
6.655299186706543 -6.515720844268799 -0.527489066123962 0.000000000000000
7.289447784423828 -6.540826797485352 -0.779175460338593 0.000000000000000
8.710247039794922 -6.447752475738525 0.313990503549576 0.003921568859369
7.185251235961914 -6.580447196960449 0.393168509006500 0.000000000000000
7.127604961395264 -6.571372985839844 0.391184568405151 0.000000000000000
6.351990699768066 -6.472084045410156 0.107165120542049 0.000000000000000
7.070107936859131 -6.561975479125977 0.389200627803802 0.000000000000000
6.359376907348633 -6.525446891784668 0.107701517641544 0.000000000000000
7.015626907348633 -6.555043697357178 0.387381881475449 0.000000000000000
8.938081741333008 -6.955540657043457 0.069882318377495 0.000000000000000
6.311451435089111 -6.508550643920898 0.107210472226143 0.000000000000000
3.293493270874023 -2.673530101776123 -0.280920028686523 0.000000000000000
2.105182886123657 -1.786250114440918 -0.208648785948753 0.000000000000000
6.965797424316406 -6.542243480682373 0.385394662618637 0.000000000000000
7.729740142822266 -8.095380783081055 -0.122896626591682 0.000000000000000
7.762120246887207 -8.130596160888672 0.133888840675354 0.000000000000000
7.688139438629150 -8.050116539001465 -0.632040143013000 0.000000000000000
6.917293548583984 -6.540301322937012 0.383905142545700 0.000000000000000
7.769143104553223 -8.138165473937988 -0.381029754877090 0.000000000000000
6.230782032012939 -6.512127876281738 0.106567882001400 0.000000000000000
6.860375404357910 -6.529657363891602 0.381919652223587 0.000000000000000
6.199534893035889 -6.518952846527100 0.106369383633137 0.000000000000000
6.148817539215088 -6.510902404785156 0.105876184999943 0.000000000000000
6.100906372070312 -6.505548477172852 0.105431966483593 0.000000000000000
6.729862689971924 -6.535644531250000 0.378277212381363 0.000000000000000
6.659237861633301 -6.509350299835205 -0.048930097371340 0.000000000000000
6.094098091125488 -6.543773651123047 0.105723440647125 0.000000000000000
6.681827068328857 -6.532436370849609 0.376787424087524 0.000000000000000
6.011486530303955 -6.494052886962891 0.104592867195606 0.000000000000000
8.904238700866699 -8.033072471618652 -0.818502545356750 0.000000000000000
7.849660396575928 -6.389449119567871 0.292919576168060 0.003921568859369
5.980870246887207 -6.505001068115234 0.104442887008190 0.000000000000000
8.931731224060059 -7.354658126831055 -0.722356200218201 0.000000000000000
5.944995880126953 -6.509781360626221 0.104194775223732 0.000000000000000
7.750189304351807 -6.395346641540527 0.290779709815979 0.003921568859369
5.942890644073486 -6.553285121917725 -0.804888308048248 0.000000000000000
5.859467029571533 -6.456891536712646 0.103014960885048 0.000000000000000
5.847309589385986 -6.488474845886230 0.103208079934120 0.000000000000000
5.209202766418457 -4.721722126007080 -0.474775642156601 0.000000000000000
7.924217700958252 -8.908652305603027 -0.678093254566193 0.000000000000000
7.786202430725098 -8.791754722595215 -0.128813669085503 0.000000000000000
7.737589836120605 -6.507624626159668 0.062233287841082 0.000000000000000
7.775687217712402 -8.779468536376953 0.140038505196571 0.000000000000000
7.776887893676758 -8.780736923217773 -0.666385710239410 0.000000000000000
6.423142433166504 -6.519213199615479 0.368824988603592 0.000000000000000
5.778219223022461 -6.482544898986816 0.102651879191399 0.000000000000000
4.724189758300781 -4.304081439971924 -0.429891198873520 0.000000000000000
6.364873886108398 -6.502621173858643 0.366672128438950 0.000000000000000
6.558873176574707 -6.085134983062744 2.345771551132202 0.000000000000000
3.328533411026001 -3.276516199111938 -0.128897458314896 0.000000000000000
5.780261039733887 -6.533209323883057 -0.792945563793182 0.003921568859369
5.713246345520020 -6.453629970550537 0.101862318813801 0.000000000000000
6.319254875183105 -6.501405715942383 0.365346133708954 0.000000000000000
5.418056488037109 -4.578025817871094 0.042743843048811 0.000000000000000
7.737737655639648 -8.087316513061523 -0.058512695133686 0.000000000000000
5.721431732177734 -6.509376525878906 0.102448247373104 0.000000000000000
6.266737937927246 -6.490078449249268 0.363524019718170 0.000000000000000
3.428928375244141 -3.761973857879639 -0.169700652360916 0.000000000000000
5.286830902099609 -4.920182228088379 -0.160357400774956 0.000000000000000
7.722763061523438 -8.127779960632324 -0.315173387527466 0.000000000000000
7.749972343444824 -8.157454490661621 -0.897064685821533 0.000000000000000
6.227860450744629 -6.493210315704346 0.362528860569000 0.000000000000000
7.723933219909668 -8.129024505615234 -0.571964979171753 0.000000000000000
6.208978652954102 -6.515827655792236 0.362691551446915 0.000000000000000
5.436324119567871 -5.705104827880859 -0.220391720533371 0.000000000000000
4.530433654785156 -5.189812660217285 0.080630972981453 0.000000000000000
9.013135910034180 -7.950455665588379 -0.750512123107910 0.000000000000000
6.148716926574707 -6.494908332824707 0.360373079776764 0.000000000000000
6.095540046691895 -6.483591556549072 0.358550667762756 0.003921568859369
8.252058982849121 -8.118392944335938 -0.789558172225952 0.003921568859369
6.054279327392578 -6.482915401458740 0.357389837503433 0.003921568859369
6.633917808532715 -6.513829708099365 -0.631708979606628 0.000000000000000
6.005157470703125 -6.473042488098145 0.355732858181000 0.003921568859369
6.618810653686523 -8.075181961059570 -0.592206954956055 0.000000000000000
3.167603969573975 -3.316994667053223 -0.228690862655640 0.000000000000000
2.790843009948730 -2.383932828903198 -0.139946714043617 0.000000000000000
11.042949676513672 -11.339834213256836 4.195357322692871 0.003921568859369
7.783794879913330 -8.776990890502930 -0.061141312122345 0.000000000000000
7.795776367187500 -8.790879249572754 -0.937260150909424 0.000000000000000
7.708111286163330 -8.746821403503418 -0.060775272548199 0.000000000000000
7.898248672485352 -8.130013465881348 -0.772513747215271 0.000000000000000
8.606395721435547 -8.118975639343262 -0.738410711288452 0.003921568859369
3.962148666381836 -4.356099128723145 -0.296288877725601 0.000000000000000
8.566621780395508 -8.136720657348633 -0.737400591373444 0.000000000000000
7.785992622375488 -8.182950019836426 0.005653437692672 0.003921568859369
8.521154403686523 -8.148667335510254 -0.735884368419647 0.000000000000000
7.761970996856689 -8.156615257263184 -0.509376883506775 0.000000000000000
7.730115890502930 -8.121831893920898 -0.250575512647629 0.000000000000000
8.515260696411133 -8.199877738952637 -0.737912297248840 0.000000000000000
8.393672943115234 -8.135116577148438 -0.729561030864716 0.000000000000000
8.939071655273438 -9.712323188781738 0.006906893104315 0.000000000000000
8.275173187255859 -8.128735542297363 -0.723997414112091 0.000000000000000
5.285113334655762 -5.604324817657471 -0.171317741274834 0.000000000000000
6.192673683166504 -6.752036571502686 0.525978565216064 0.003921568859369
6.649593353271484 -8.095764160156250 -0.054578397423029 0.000000000000000
9.084425926208496 -12.501936912536621 -0.169385820627213 0.000000000000000
9.114102363586426 -12.544342041015625 0.186912700533867 0.000000000000000
2.491126060485840 -3.107343912124634 -0.220414891839027 0.000000000000000
9.112020492553711 -12.541132926940918 -0.526603579521179 0.003921568859369
9.040727615356445 -12.532491683959961 -0.169396266341209 0.000000000000000
9.035961151123047 -12.525772094726562 0.186163574457169 0.000000000000000
9.049762725830078 -12.545215606689453 -0.882014036178589 0.000000000000000
2.423155307769775 -3.032995223999023 -0.128451690077782 0.000000000000000
7.819257736206055 -8.866016387939453 0.006165051832795 0.003921568859369
8.978725433349609 -12.536572456359863 -0.169055715203285 0.000000000000000
8.967160224914551 -12.519968986511230 0.185611352324486 0.000000000000000
8.980932235717773 -12.539515495300293 -0.879495859146118 0.000000000000000
9.001508712768555 -12.569398880004883 -0.525255501270294 0.003921568859369
4.404024600982666 -5.342656612396240 1.230365753173828 0.000000000000000
8.921326637268066 -12.546969413757324 -0.168803051114082 0.000000000000000
8.898501396179199 -12.513837814331055 0.185059055685997 0.000000000000000
8.928067207336426 -12.556536674499512 -0.878587007522583 0.000000000000000
8.921380996704102 -12.546923637390137 -0.523075401782990 0.003921568859369
8.848200798034668 -12.533981323242188 -0.168243229389191 0.000000000000000
8.852512359619141 -12.540437698364258 0.184999078512192 0.000000000000000
8.866193771362305 -12.560139656066895 -0.876758694648743 0.000000000000000
8.852772712707520 -12.540563583374023 -0.521579921245575 0.003921568859369
7.748024463653564 -8.127406120300293 -0.186522185802460 0.000000000000000
8.820075988769531 -12.586904525756836 -0.168561354279518 0.000000000000000
8.826603889465332 -12.596690177917480 0.185382083058357 0.000000000000000
7.793495655059814 -8.177013397216797 -0.704590678215027 0.000000000000000
8.833480834960938 -12.606470108032227 -0.877919018268585 0.000000000000000
4.599996089935303 -4.751873016357422 -0.407738327980042 0.000000000000000
8.829391479492188 -12.787161827087402 -0.886446833610535 0.003921568859369
6.890608787536621 -8.101983070373535 -0.724606633186340 0.003921568859369
6.862520694732666 -8.112512588500977 -0.723327100276947 0.000000000000000
6.836653709411621 -8.138415336608887 -0.723609149456024 0.000000000000000
5.667829036712646 -6.678830623626709 0.502536475658417 0.003921568859369
6.794364452362061 -8.146624565124512 -0.722234249114990 0.000000000000000
6.673370361328125 -8.049952507019043 2.754012584686279 0.000000000000000
4.908612251281738 -5.855071544647217 0.003368807025254 0.000000000000000
5.545862197875977 -6.668466091156006 0.497579038143158 0.003921568859369
3.459684848785400 -4.467805862426758 -0.157025232911110 0.000000000000000
6.591467380523682 -8.057435035705566 -0.708716869354248 0.000000000000000
9.130068778991699 -12.538676261901855 0.276270478963852 0.000000000000000
8.823571205139160 -13.454533576965332 -0.917971372604370 0.003921568859369
6.607199192047119 -8.077715873718262 -0.471522569656372 0.000000000000000
9.072834014892578 -12.549869537353516 -0.436585515737534 0.000000000000000
8.817509651184082 -13.549785614013672 -0.177174001932144 0.003921568859369
7.914206981658936 -8.893450736999512 0.074411056935787 0.000000000000000
5.978154182434082 -8.112196922302246 -0.802473545074463 0.000000000000000
9.063364982604980 -12.536549568176270 0.275533616542816 0.000000000000000
8.825349807739258 -13.561948776245117 -0.923270940780640 0.003921568859369
9.092161178588867 -12.577453613281250 -0.794915437698364 0.000000000000000
8.830110549926758 -13.569710731506348 -0.550316333770752 0.003921568859369
7.792768001556396 -8.816403388977051 -0.195418357849121 0.000000000000000
9.006298065185547 -12.552273750305176 -0.435574859380722 0.000000000000000
9.002800941467285 -12.547349929809570 -0.079998120665550 0.000000000000000
5.939306259155273 -8.119766235351562 -0.801190376281738 0.003921568859369
9.001422882080078 -12.545492172241211 0.275013923645020 0.000000000000000
9.009632110595703 -12.556961059570312 -0.791621863842010 0.000000000000000
8.937598228454590 -12.551065444946289 -0.434450656175613 0.000000000000000
8.929579734802246 -12.539520263671875 -0.079764127731323 0.000000000000000
5.880167484283447 -8.097578048706055 -0.797002851963043 0.000000000000000
8.925950050354004 -12.534365653991699 0.274058640003204 0.000000000000000
8.959024429321289 -12.582139968872070 -0.791220486164093 0.000000000000000
8.868964195251465 -12.544723510742188 -0.433212399482727 0.000000000000000
8.818642616271973 -13.883153915405273 -0.180329784750938 0.003921568859369
8.865481376647949 -12.539749145507812 -0.079591087996960 0.000000000000000
8.822602272033691 -13.889804840087891 0.198802351951599 0.003921568859369
8.870882034301758 -12.547805786132812 0.273684442043304 0.000000000000000
8.824032783508301 -13.891598701477051 -0.939402580261230 0.003921568859369
8.883557319641113 -12.566002845764160 -0.788339674472809 0.000000000000000
8.835125923156738 -13.909902572631836 -0.560351490974426 0.003921568859369
8.811579704284668 -12.545029640197754 -0.432313889265060 0.000000000000000
8.810297012329102 -13.967889785766602 -0.181088075041771 0.003921568859369
8.819314956665039 -12.556594848632812 -0.079539932310581 0.000000000000000
8.812159538269043 -13.971136093139648 0.199578002095222 0.003921568859369
8.819756507873535 -13.983083724975586 -0.943782448768616 0.003921568859369
8.835078239440918 -12.579610824584961 -0.787523627281189 0.000000000000000
8.820449829101562 -13.984410285949707 -0.562280714511871 0.003921568859369
3.538111686706543 -3.950265407562256 -0.324393153190613 0.000000000000000
4.995729446411133 -8.181497573852539 -0.105062171816826 0.000000000000000
4.201172828674316 -6.788087844848633 0.094474472105503 0.000000000000000
8.814710617065430 -13.321281433105469 -0.818535566329956 0.003921568859369
8.805643081665039 -13.415491104125977 -0.452593117952347 0.003921568859369
8.797827720642090 -13.402945518493652 -0.821648001670837 0.000000000000000
2.584195137023926 -3.208508253097534 0.482515633106232 0.000000000000000
7.733715057373047 -10.541860580444336 3.459941387176514 0.000000000000000
4.188533782958984 -6.876594543457031 -0.732596158981323 0.000000000000000
5.388950347900391 -8.066239356994629 0.170991718769073 0.000000000000000
8.804266929626465 -13.512173652648926 -0.826618194580078 0.000000000000000
9.024375915527344 -12.559209823608398 0.008982385508716 0.000000000000000
4.902549743652344 -6.604686737060547 0.471718579530716 0.003921568859369
9.017651557922363 -12.549217224121094 -0.702021896839142 0.000000000000000
9.026783943176270 -12.562549591064453 -0.346568554639816 0.000000000000000
8.955636024475098 -12.558017730712891 0.008941422216594 0.000000000000000
8.951234817504883 -12.551328659057617 -0.700384855270386 0.000000000000000
8.958038330078125 -12.561374664306641 -0.345679014921188 0.000000000000000
8.886960029602051 -12.551693916320801 0.008898132480681 0.000000000000000
8.823261260986328 -13.868734359741211 -0.085057504475117 0.000000000000000
8.828154563903809 -13.876914024353027 0.293529599905014 0.003921568859369
8.891611099243164 -12.558232307434082 -0.699113905429840 0.000000000000000
8.891609191894531 -12.558372497558594 -0.344788908958435 0.000000000000000
8.813635826110840 -13.934339523315430 -0.464863985776901 0.000000000000000
8.846467018127441 -12.561997413635254 0.009148834273219 0.000000000000000
8.831395149230957 -13.963747978210449 -0.085187904536724 0.000000000000000
8.834169387817383 -13.968512535095215 0.295187801122665 0.003921568859369
8.839923858642578 -12.552031517028809 -0.697016358375549 0.000000000000000
8.812064170837402 -13.931551933288574 -0.844766795635223 0.003921568859369
8.842139244079590 -12.555453300476074 -0.343712329864502 0.000000000000000
8.795921325683594 -14.015187263488770 -0.466582030057907 0.000000000000000
4.243307113647461 -6.468557834625244 -0.040451526641846 0.000000000000000
4.187035083770752 -7.142124652862549 -0.753561258316040 0.000000000000000
5.212185382843018 -8.074421882629395 -0.489448189735413 0.000000000000000
4.186467647552490 -7.201181411743164 -0.758366823196411 0.000000000000000
4.689715862274170 -6.572456836700439 0.462850391864777 0.003921568859369
4.176827430725098 -7.305433750152588 -0.766502439975739 0.000000000000000
4.659122943878174 -6.573494911193848 0.461902022361755 0.003921568859369
8.811589241027832 -12.993358612060547 0.009331412613392 0.003921568859369
8.807346343994141 -13.091497421264648 0.009375201538205 0.003921568859369
4.592448711395264 -6.574054718017578 0.459768593311310 0.003921568859369
4.208014965057373 -6.724722385406494 0.138993561267853 0.000000000000000
4.555520057678223 -6.564599037170410 0.458113759756088 0.003921568859369
8.804000854492188 -13.283766746520996 0.009464018046856 0.003921568859369
3.051534414291382 -4.751785278320312 -0.029877258464694 0.000000000000000
4.967209815979004 -8.110392570495605 0.167685970664024 0.000000000000000
4.532575130462646 -6.579272747039795 0.458106696605682 0.003921568859369
4.987699985504150 -8.145925521850586 -0.486829757690430 0.000000000000000
4.908908367156982 -8.076575279235840 -0.265447676181793 0.000000000000000
4.934208869934082 -8.121178627014160 -0.484361976385117 0.000000000000000
3.464490890502930 -5.523046970367432 0.520670890808105 0.000000000000000
8.823693275451660 -13.422826766967773 -0.359970092773438 0.003921568859369
4.453557014465332 -6.558359622955322 0.454560279846191 0.003921568859369
9.033327102661133 -12.552660942077637 -0.257274895906448 0.000000000000000
9.044555664062500 -12.568587303161621 -0.970557153224945 0.000000000000000
4.346415519714355 -8.103787422180176 -0.522208273410797 0.000000000000000
8.814217567443848 -13.611949920654297 -0.737292408943176 0.000000000000000
9.039038658142090 -12.560763359069824 -0.613230288028717 0.000000000000000
8.981518745422363 -12.556610107421875 -0.256473869085312 0.000000000000000
8.973402023315430 -12.544955253601074 0.097970716655254 0.000000000000000
8.985958099365234 -12.562761306762695 -0.967509150505066 0.000000000000000
4.400155544281006 -6.555628299713135 0.452535837888718 0.003921568859369
8.980430603027344 -12.554873466491699 -0.611205577850342 0.000000000000000
8.910586357116699 -12.547013282775879 -0.255685567855835 0.000000000000000
8.902507781982422 -12.535324096679688 0.097642317414284 0.000000000000000
8.924054145812988 -12.566442489624023 -0.965499758720398 0.000000000000000
4.266828060150146 -8.063311576843262 -0.517740130424500 0.000000000000000
4.362638473510742 -6.545892238616943 0.450879573822021 0.003921568859369
8.916279792785645 -12.555201530456543 -0.609780371189117 0.000000000000000
8.844310760498047 -12.543697357177734 -0.255030930042267 0.000000000000000
8.834027290344238 -12.528664588928223 0.097340151667595 0.000000000000000
8.826649665832520 -13.939520835876465 0.389727532863617 0.003921568859369
4.766384601593018 -8.130947113037109 -0.750691473484039 0.000000000000000
8.846563339233398 -12.546707153320312 -0.961720824241638 0.000000000000000
8.810099601745605 -13.911670684814453 -0.748408615589142 0.000000000000000
8.854472160339355 -12.558547019958496 -0.608515143394470 0.000000000000000
8.829205513000488 -13.943305015563965 -0.369671255350113 0.000000000000000
8.844894409179688 -14.074258804321289 0.010149696841836 0.003921568859369
8.840287208557129 -14.066841125488281 0.392496317625046 0.000000000000000
8.811400413513184 -14.018329620361328 -0.752636909484863 0.000000000000000
8.830439567565918 -14.050091743469238 -0.371758937835693 0.000000000000000
4.229136943817139 -6.476289749145508 -0.524361073970795 0.000000000000000
8.833935737609863 -12.913344383239746 0.099386222660542 0.000000000000000
4.575497150421143 -8.110544204711914 -0.742034494876862 0.000000000000000
4.550815582275391 -8.132327079772949 -0.742690384387970 0.000000000000000
8.837914466857910 -13.112538337707520 -0.991384267807007 0.003921568859369
4.211782932281494 -6.713504791259766 0.183902814984322 0.000000000000000
4.510080337524414 -8.126369476318359 -0.740766346454620 0.000000000000000
8.832926750183105 -13.210741043090820 -0.996456384658813 0.000000000000000
4.199404239654541 -6.743637561798096 0.184374868869781 0.000000000000000
4.479497432708740 -8.133005142211914 -0.740131497383118 0.003921568859369
10.264555931091309 -17.372074127197266 -0.919096350669861 0.003921568859369
4.992684364318848 -8.200118064880371 0.004872922785580 0.003921568859369
8.827598571777344 -13.402812004089355 0.101990550756454 0.003921568859369
4.438534259796143 -8.122435569763184 -0.737884283065796 0.003921568859369
10.182201385498047 -17.368322372436523 -0.917102873325348 0.000000000000000
4.924592971801758 -8.079679489135742 -0.211296513676643 0.000000000000000
4.409730911254883 -8.115259170532227 -0.735831975936890 0.003921568859369
4.314011096954346 -8.064578056335449 0.161289811134338 0.003921568859369
8.831201553344727 -13.924674034118652 0.105088450014591 0.000000000000000
8.817669868469238 -14.012373924255371 0.105518333613873 0.000000000000000
8.842277526855469 -14.052702903747559 -0.658314526081085 0.003921568859369
9.281067848205566 -18.695491790771484 3.790524244308472 0.003921568859369
3.979003429412842 -6.765855789184570 -0.532932698726654 0.000000000000000
9.223963737487793 -18.726985931396484 3.791219949722290 0.003921568859369
4.297901153564453 -6.930651187896729 -0.135031968355179 0.000000000000000
4.933094501495361 -8.052172660827637 0.058822117745876 0.000000000000000
4.953320026397705 -8.087583541870117 -0.373682051897049 0.000000000000000
9.254754066467285 -18.113716125488281 5.420302391052246 0.003921568859369
4.260538578033447 -8.068940162658691 -0.621831536293030 0.000000000000000
8.700216293334961 -17.600534439086914 5.231247901916504 0.003921568859369
4.132102012634277 -8.017079353332520 0.520278573036194 0.003921568859369
4.090624809265137 -8.001189231872559 0.518382012844086 0.003921568859369
6.858738899230957 -16.749992370605469 -0.930189907550812 0.003921568859369
6.425746917724609 -18.448633193969727 -0.214421510696411 0.003921568859369
6.885928630828857 -17.175849914550781 -0.951302647590637 0.003921568859369
6.788887977600098 -17.854490280151367 -0.982628405094147 0.003921568859369
7.527661800384521 -21.285182952880859 4.108103752136230 0.003921568859369
6.057730197906494 -18.799991607666016 3.592298507690430 0.003921568859369
5.766987323760986 -18.053195953369141 -0.975583016872406 0.003921568859369
4.413165092468262 -19.219047546386719 -0.674207448959351 0.003921568859369
3.630176544189453 -16.326715469360352 -0.571989953517914 0.003921568859369
4.560233116149902 -18.318576812744141 -0.098200485110283 0.003921568859369
3.136777162551880 -15.840987205505371 -0.178630679845810 0.003921568859369
2.792697191238403 -15.384058952331543 -0.173060595989227 0.000000000000000
5.453906059265137 -17.341003417968750 -0.724301576614380 0.003921568859369
5.646570682525635 -18.737255096435547 -0.327250927686691 0.003921568859369
4.804291725158691 -17.560129165649414 -0.726072669029236 0.003921568859369
1.312343239784241 -15.709408760070801 -0.175702705979347 0.003921568859369
0.780034303665161 -15.906023979187012 -0.177940219640732 0.003921568859369
1.116597652435303 -15.678161621093750 0.281513422727585 0.003921568859369
0.930213093757629 -14.972599029541016 0.268491834402084 0.003921568859369
-0.002345919609070 -19.007421493530273 -0.212714642286301 0.003921568859369
-0.056479632854462 -18.569875717163086 -0.207954958081245 0.003921568859369
-0.385314285755157 -18.877292633056641 0.228400960564613 0.003921568859369
1.171205639839172 -15.310276031494141 -0.706435739994049 0.000000000000000
-0.072962760925293 -17.426786422729492 0.718178629875183 0.003921568859369
0.189717471599579 -8.159976959228516 0.144738569855690 0.000000000000000
0.545231401920319 -17.106128692626953 0.008248728699982 0.003921568859369
-0.345100194215775 -18.284439086914062 0.327706515789032 0.003921568859369
-0.446185976266861 -19.035217285156250 0.785106837749481 0.003921568859369
0.102824062108994 -7.286008834838867 0.298907369375229 0.000000000000000
-0.530211687088013 -18.225755691528320 -0.098121121525764 0.003921568859369
-0.624511480331421 -18.714130401611328 1.538836240768433 0.003921568859369
1.017643451690674 -15.072714805603027 -0.607134640216827 0.000000000000000
-0.107081145048141 -8.914354324340820 1.631816148757935 0.000000000000000
0.075289398431778 -5.602390289306641 0.098564758896828 0.000000000000000
-0.824201941490173 -16.421720504760742 1.351787090301514 0.000000000000000
0.736286401748657 -17.024133682250977 0.107483573257923 0.003921568859369
-0.080023616552353 -16.539567947387695 0.971386253833771 0.000000000000000
-0.883857846260071 -16.444829940795898 1.354024648666382 0.000000000000000
-0.136388987302780 -16.501550674438477 0.969215929508209 0.000000000000000
-0.329071551561356 -18.231588363647461 0.008307168260217 0.003921568859369
-0.326897054910660 -18.174448013305664 0.431661516427994 0.000000000000000
-0.474571675062180 -10.269748687744141 0.845284283161163 0.000000000000000
-0.393453747034073 -18.235372543334961 0.433127701282501 0.000000000000000
-0.453435212373734 -18.284408569335938 0.434313237667084 0.000000000000000
-0.372589737176895 -16.714752197265625 0.982156932353973 0.000000000000000
-0.282855957746506 -7.692908287048340 0.632892549037933 0.000000000000000
-0.521685361862183 -18.360843658447266 0.436160206794739 0.000000000000000
-0.293575733900070 -12.563714027404785 0.737908005714417 0.000000000000000
-0.605409383773804 -16.605014801025391 0.976286649703979 0.000000000000000
-0.441356271505356 -8.093075752258301 1.487508296966553 0.000000000000000
-0.538437306880951 -8.512165069580078 1.565913915634155 0.000000000000000
-0.897195518016815 -17.453346252441406 4.700297832489014 0.003921568859369
-0.116586387157440 -17.999059677124023 0.113179221749306 0.003921568859369
-0.115697026252747 -4.543867588043213 0.836172640323639 0.000000000000000
-0.240745365619659 -17.958312988281250 0.112824343144894 0.000000000000000
-0.467296004295349 -17.559497833251953 0.519746303558350 0.003921568859369
