# This PCD file was generated using the MATLAB® pcwrite function
# from Computer Vision Toolbox®.
# .PCD v.7 - Point Cloud Data file format
VERSION .7
FIELDS x y z intensity
SIZE 8 8 8 8
TYPE F F F F
COUNT 1 1 1 1
WIDTH 651
HEIGHT 1
VIEWPOINT 0 0 0 1 0 0 0
POINTS 651
DATA ascii
1.438014030456543 11.517566680908203 3.127768754959106 0.000000000000000
0.424481153488159 4.429344654083252 -0.205506220459938 0.000000000000000
2.804762125015259 14.696482658386230 -0.427857726812363 0.000000000000000
1.916507959365845 10.434020042419434 -0.055285919457674 0.000000000000000
2.039053916931152 10.832975387573242 -0.315437376499176 0.000000000000000
0.723445892333984 4.629089832305908 -0.244693562388420 0.000000000000000
0.831385254859924 9.101383209228516 -0.154158249497414 0.000000000000000
1.029966354370117 5.829615592956543 -0.169851347804070 0.000000000000000
2.123411178588867 10.467491149902344 0.193729400634766 0.000000000000000
6.705982208251953 24.634206771850586 -0.284344404935837 0.003921568859369
0.831600189208984 4.689343452453613 -0.249008223414421 0.000000000000000
2.159633636474609 10.456731796264648 0.882478833198547 0.000000000000000
1.125244259834290 10.342213630676270 -0.175623893737793 0.000000000000000
6.783129692077637 24.579021453857422 -0.284021556377411 0.003921568859369
6.766761302947998 24.520988464355469 0.310528099536896 0.003921568859369
6.864428997039795 24.538963317871094 -0.283877015113831 0.003921568859369
6.907986164093018 24.688434600830078 0.312923252582550 0.003921568859369
0.642392396926880 3.746869325637817 0.159706532955170 0.000000000000000
6.956802845001221 24.537012100219727 -0.284178167581558 0.003921568859369
7.082327365875244 24.645891189575195 -0.285771906375885 0.003921568859369
7.089302539825439 24.668542861938477 0.313243567943573 0.003921568859369
7.160249233245850 24.593341827392578 -0.285494267940521 0.003921568859369
3.696844816207886 12.787948608398438 -0.460000634193420 0.000000000000000
2.619407892227173 11.209690093994141 2.116781473159790 0.000000000000000
1.756979227066040 7.573758602142334 -0.405990689992905 0.000000000000000
2.457869768142700 12.317686080932617 -0.580362737178802 0.000000000000000
2.953582525253296 11.789154052734375 1.003846287727356 0.000000000000000
6.510641098022461 24.593149185180664 -0.135157227516174 0.003921568859369
1.933419346809387 9.757339477539062 -0.226910442113876 0.000000000000000
2.123471260070801 10.430652618408203 0.006058309227228 0.003921568859369
3.000877380371094 14.079139709472656 -0.328280121088028 0.000000000000000
2.944782733917236 11.131852149963379 -0.330708980560303 0.000000000000000
2.512102127075195 11.765497207641602 0.006724499631673 0.000000000000000
2.721608400344849 12.656834602355957 3.490885257720947 0.000000000000000
6.364228248596191 23.087169647216797 4.391008853912354 0.003921568859369
2.028528451919556 7.825996875762939 1.490507960319519 0.000000000000000
4.476420402526855 19.546028137207031 5.399285793304443 0.003921568859369
3.134783983230591 13.566565513610840 3.754267692565918 0.000000000000000
2.791293621063232 10.058276176452637 1.921365618705750 0.000000000000000
4.142225265502930 17.319446563720703 4.796166896820068 0.003921568859369
0.376670062541962 2.959155559539795 -0.120958954095840 0.000000000000000
1.710014224052429 6.281733036041260 1.202545046806335 0.000000000000000
7.580632209777832 24.675960540771484 4.731832027435303 0.003921568859369
1.971199631690979 10.208091735839844 -0.419781893491745 0.000000000000000
1.459318041801453 7.699898242950439 0.050275038927794 0.000000000000000
1.549364209175110 8.111593246459961 -0.333703339099884 0.000000000000000
1.625013470649719 6.657439231872559 0.852560102939606 0.000000000000000
1.592102050781250 5.422296047210693 0.470239847898483 0.000000000000000
2.765237808227539 8.918070793151855 1.720320820808411 0.000000000000000
3.518477201461792 11.035141944885254 2.130977153778076 0.000000000000000
1.982903599739075 6.436985015869141 1.244902849197388 0.000000000000000
1.986185908317566 6.377576828002930 1.234825730323792 0.000000000000000
6.340053558349609 18.676849365234375 -0.106191694736481 0.000000000000000
3.534325122833252 12.625562667846680 1.623786687850952 0.000000000000000
7.031055927276611 20.640771865844727 3.998888015747070 0.003921568859369
7.105711936950684 20.622762680053711 4.000298976898193 0.003921568859369
7.188308238983154 20.626705169677734 4.006024360656738 0.003921568859369
7.276800632476807 20.657520294189453 4.016784191131592 0.003921568859369
7.422942161560059 24.780981063842773 -0.591693460941315 0.003921568859369
7.471036434173584 24.614786148071289 0.611754536628723 0.003921568859369
7.397197723388672 20.751823425292969 4.040485382080078 0.003921568859369
1.952975511550903 5.791081428527832 1.131043314933777 0.000000000000000
3.323627948760986 13.090358734130859 -0.230110079050064 0.000000000000000
1.554473042488098 5.471590042114258 0.709442734718323 0.000000000000000
6.616360187530518 24.582099914550781 0.160107359290123 0.003921568859369
1.711457848548889 6.936474800109863 0.213370293378830 0.000000000000000
6.708647251129150 24.581193923950195 0.160228177905083 0.003921568859369
2.394389152526855 6.684690475463867 0.295980364084244 0.000000000000000
6.801108837127686 24.596555709838867 0.160450205206871 0.003921568859369
6.906250476837158 24.602689743041992 0.160005852580070 0.003921568859369
2.964626550674438 10.688610076904297 -0.189445063471794 0.000000000000000
2.567470073699951 7.736443519592285 0.003835296723992 0.003921568859369
3.884270906448364 9.863022804260254 0.439691931009293 0.000000000000000
1.144933104515076 3.608854770660400 0.475453704595566 0.000000000000000
0.717233538627625 2.466182231903076 0.707701146602631 0.000000000000000
1.899639964103699 5.509136199951172 1.583754181861877 0.000000000000000
8.299693107604980 18.625883102416992 3.740586757659912 0.003921568859369
4.375525474548340 13.190994262695312 -0.237914279103279 0.000000000000000
1.626287579536438 4.396006107330322 0.002277046442032 0.000000000000000
7.323815345764160 15.894679069519043 3.212890625000000 0.003921568859369
2.606060028076172 5.870869159698486 -0.528374493122101 0.000000000000000
7.244853973388672 17.770263671875000 5.170285224914551 0.003921568859369
5.083718776702881 10.863856315612793 2.207252502441406 0.000000000000000
4.359306812286377 9.036902427673340 1.848306298255920 0.000000000000000
5.856526374816895 11.802751541137695 2.422500371932983 0.000000000000000
3.062369108200073 6.296447277069092 0.291418462991714 0.000000000000000
4.101737022399902 9.321168899536133 2.753537178039551 0.000000000000000
2.365876913070679 5.495336532592773 0.002497773850337 0.000000000000000
2.319579362869263 5.395343303680420 0.348971396684647 0.000000000000000
2.091377735137939 5.501302719116211 -0.101399108767509 0.000000000000000
4.884784698486328 9.500250816345215 1.967516064643860 0.000000000000000
5.031586170196533 9.694859504699707 0.452438324689865 0.000000000000000
7.961305141448975 15.137320518493652 3.140329599380493 0.003921568859369
1.322535753250122 3.132697820663452 0.204218462109566 0.000000000000000
2.236248731613159 4.422128677368164 0.413763403892517 0.000000000000000
4.189186096191406 8.912675857543945 2.663055419921875 0.000000000000000
5.681577205657959 10.442667007446289 0.212814122438431 0.000000000000000
3.366780519485474 6.110857963562012 0.579146921634674 0.000000000000000
6.079780101776123 10.790737152099609 2.278276681900024 0.000000000000000
2.403678417205811 4.343358516693115 0.923118531703949 0.000000000000000
3.378603458404541 5.942770004272461 1.265122652053833 0.000000000000000
2.291051626205444 5.176484584808350 -0.097872875630856 0.000000000000000
4.330895900726318 8.377146720886230 0.224563777446747 0.000000000000000
1.456180095672607 2.987393856048584 0.001399232773110 0.000000000000000
5.017627239227295 9.471235275268555 0.632123351097107 0.000000000000000
3.143021821975708 6.045021057128906 0.848551332950592 0.000000000000000
5.133206367492676 8.449913024902344 0.817184805870056 0.000000000000000
7.688141345977783 13.892607688903809 1.964203953742981 0.003921568859369
4.996396064758301 8.979084968566895 2.778685331344604 0.000000000000000
3.479221582412720 5.594309329986572 1.219624757766724 0.000000000000000
6.669705390930176 11.239263534545898 -0.609095275402069 0.000000000000000
5.541548728942871 8.359630584716797 1.847226023674011 0.000000000000000
5.643436431884766 8.197896957397461 1.833522558212280 0.000000000000000
3.046881914138794 4.954077720642090 1.582634329795837 0.000000000000000
7.899792671203613 10.073050498962402 -0.748303472995758 0.000000000000000
9.813780784606934 14.960511207580566 2.210762739181519 0.003921568859369
7.045409679412842 9.386645317077637 2.158540964126587 0.000000000000000
3.365478277206421 5.478191852569580 -0.111813805997372 0.000000000000000
4.900466442108154 6.399047851562500 1.487745881080627 0.000000000000000
3.104060173034668 4.758086204528809 -0.367458969354630 0.000000000000000
4.845113754272461 6.342642307281494 -0.514609694480896 0.000000000000000
12.614023208618164 12.276264190673828 3.224647760391235 0.003921568859369
18.634103775024414 17.589057922363281 4.688120365142822 0.003921568859369
7.851080894470215 8.119140625000000 3.047113418579102 0.000000000000000
4.329102039337158 4.390719890594482 1.670679330825806 0.000000000000000
4.395816326141357 4.041273117065430 1.102030277252197 0.000000000000000
9.532626152038574 8.194846153259277 1.033045291900635 0.000000000000000
14.774450302124023 12.657253265380859 3.561493635177612 0.003921568859369
18.144624710083008 15.406130790710449 4.354513645172119 0.003921568859369
14.452540397644043 12.118985176086426 1.546906948089600 0.000000000000000
8.334153175354004 7.684974193572998 3.054962873458862 0.000000000000000
5.515439510345459 5.041755676269531 2.019482135772705 0.000000000000000
5.588612556457520 5.070129394531250 2.039150953292847 0.000000000000000
7.636023521423340 6.617794990539551 1.249207854270935 0.000000000000000
5.859888553619385 5.094608306884766 2.098142623901367 0.000000000000000
7.845622062683105 5.884321212768555 1.799268722534180 0.000000000000000
8.245052337646484 6.004948139190674 1.871004343032837 0.000000000000000
13.086541175842285 10.136172294616699 4.449262142181396 0.003921568859369
8.578596115112305 6.011768817901611 1.919694304466248 0.000000000000000
8.966434478759766 6.142312526702881 1.991433501243591 0.000000000000000
7.016715049743652 4.711817264556885 0.694584786891937 0.000000000000000
14.284502983093262 9.473843574523926 3.135170936584473 0.003921568859369
8.049664497375488 5.109310150146484 1.746641278266907 0.000000000000000
3.613518476486206 2.531884431838989 1.193943977355957 0.000000000000000
14.093135833740234 9.699551582336426 2.106369733810425 0.003921568859369
6.528815746307373 4.022775173187256 1.406524419784546 0.000000000000000
3.082747697830200 2.117046594619751 1.013790607452393 0.000000000000000
4.619124412536621 2.746634721755981 0.988203704357147 0.000000000000000
7.012892246246338 4.080753326416016 1.486094236373901 0.000000000000000
4.399241924285889 2.845057249069214 1.413361549377441 0.000000000000000
16.422544479370117 8.998572349548340 3.421139240264893 0.003921568859369
6.355015754699707 3.438210964202881 0.296036958694458 0.000000000000000
9.360526084899902 5.619892120361328 2.935240030288696 0.000000000000000
5.886536598205566 3.515435695648193 0.000202718802029 0.000000000000000
5.957889080047607 3.521958351135254 0.853235602378845 0.000000000000000
13.091041564941406 7.594082832336426 4.062603950500488 0.000000000000000
13.245932579040527 6.785334587097168 1.217336654663086 0.000000000000000
7.363526344299316 3.681838989257812 0.674464285373688 0.000000000000000
11.030698776245117 6.199671745300293 3.397933721542358 0.000000000000000
8.091326713562012 4.008919715881348 0.739553391933441 0.000000000000000
6.694430351257324 3.262684106826782 0.610344052314758 0.000000000000000
5.407168865203857 2.638118028640747 1.102154254913330 0.000000000000000
11.131309509277344 5.367236137390137 0.504709422588348 0.000000000000000
6.658018589019775 3.561451435089111 2.028192996978760 0.000000000000000
9.566787719726562 4.486904144287109 1.930073022842407 0.000000000000000
13.046799659729004 6.796645164489746 1.808628559112549 0.000000000000000
10.956632614135742 5.044250488281250 2.202707767486572 0.000000000000000
9.165795326232910 4.698885440826416 0.601006448268890 0.000000000000000
9.950489044189453 5.100228786468506 1.375255584716797 0.000000000000000
5.230363368988037 2.369715452194214 1.050451159477234 0.000000000000000
10.722634315490723 4.100311279296875 0.133895933628082 0.000000000000000
9.698348045349121 4.264346599578857 -0.556174576282501 0.000000000000000
5.845076084136963 3.264774084091187 0.195463687181473 0.000000000000000
12.222739219665527 6.755962371826172 0.081376835703850 0.000000000000000
14.847602844238281 6.344821453094482 2.947419404983521 0.003921568859369
6.920942306518555 3.764934301376343 -0.505475580692291 0.000000000000000
12.556753158569336 5.994160652160645 1.709615349769592 0.000000000000000
5.655995845794678 2.256016492843628 0.248503893613815 0.000000000000000
13.875167846679688 5.528468132019043 2.724980115890503 0.000000000000000
4.560444355010986 2.063714742660522 1.343822836875916 0.000000000000000
13.651878356933594 6.114282131195068 0.000022915173759 0.000000000000000
8.006704330444336 3.554313182830811 0.204093247652054 0.000000000000000
7.449859619140625 3.277827024459839 2.183426856994629 0.000000000000000
7.928489208221436 2.531829833984375 -0.290643006563187 0.000000000000000
10.679184913635254 3.910140752792358 2.073503971099854 0.000000000000000
3.863627195358276 1.175333023071289 -0.376981168985367 0.000000000000000
12.165064811706543 4.360514640808105 2.356189489364624 0.000000000000000
9.902912139892578 3.510698080062866 1.915659427642822 0.000000000000000
10.277318000793457 3.046236276626587 0.124792419373989 0.000000000000000
3.016900062561035 1.214010000228882 0.000000000000004 0.000000000000000
7.450547218322754 2.153306722640991 0.090288251638412 0.000000000000000
10.116516113281250 4.614626407623291 0.323603093624115 0.000000000000000
3.408408403396606 1.540388345718384 -0.239712879061699 0.000000000000000
3.508409500122070 1.162333965301514 -0.021480834111571 0.000000000000000
7.810853004455566 2.587730884552002 1.500241160392761 0.000000000000000
4.932798862457275 1.573830246925354 -0.030055964365602 0.000000000000000
2.949136734008789 0.927777111530304 0.251551538705826 0.000000000000000
9.223891258239746 2.420577049255371 -0.332654327154160 0.000000000000000
7.057813167572021 2.583220005035400 0.174640983343124 0.000000000000000
10.058953285217285 3.135622739791870 1.919248461723328 0.000000000000000
18.452125549316406 5.684053897857666 3.518536567687988 0.003921568859369
10.731122016906738 2.698846817016602 -0.128686025738716 0.000000000000000
8.299951553344727 2.523373842239380 1.579876661300659 0.000000000000000
7.185567855834961 2.047993898391724 -0.391060382127762 0.000000000000000
10.336636543273926 2.905504226684570 -0.561650931835175 0.000000000000000
13.210114479064941 4.374748706817627 0.000017817779735 0.000000000000000
2.659314155578613 0.999777615070343 -0.115021318197250 0.000000000000000
10.681260108947754 2.846639156341553 2.011829614639282 0.000000000000000
11.028584480285645 3.481421232223511 1.417593598365784 0.000000000000000
10.276403427124023 2.661868572235107 -0.308332115411758 0.000000000000000
2.728115320205688 0.993554115295410 0.016699327155948 0.000000000000000
7.996541976928711 2.070240497589111 1.502397775650024 0.000000000000000
8.425135612487793 2.087712049484253 -0.050318740308285 0.000000000000000
3.221439838409424 0.951239049434662 0.077648870646954 0.000000000000000
9.855847358703613 2.372224330902100 1.844660282135010 0.000000000000000
6.904361724853516 1.281407356262207 -0.244135722517967 0.000000000000000
8.454843521118164 1.540044546127319 0.099748343229294 0.000000000000000
15.302702903747559 2.736784458160400 0.180819272994995 0.000000000000000
2.511814594268799 0.561946034431458 0.044325888156891 0.000000000000000
8.939233779907227 1.984756231307983 0.159347072243690 0.000000000000000
1.976030707359314 0.426389098167419 0.362961053848267 0.000000000000000
8.764840126037598 1.882038354873657 0.729393661022186 0.000000000000000
4.529271602630615 0.952954292297363 -0.133850052952766 0.000000000000000
9.123858451843262 1.926167011260986 0.162288635969162 0.000000000000000
15.003787040710449 3.944889307022095 1.901272654533386 0.000000000000000
8.930328369140625 1.852846264839172 1.657417774200439 0.000000000000000
9.869847297668457 2.555508136749268 -0.236504435539246 0.000000000000000
18.068908691406250 2.779466867446899 0.212754413485527 0.003921568859369
13.038659095764160 3.330227136611938 1.648735642433167 0.000000000000000
5.605138301849365 1.386779546737671 -0.000026712725230 0.000000000000000
6.555523395538330 1.288438558578491 0.270957291126251 0.000000000000000
11.311875343322754 2.806473493576050 1.427399158477783 0.000000000000000
7.006497859954834 2.072513580322266 -0.126877799630165 0.000000000000000
7.802340030670166 1.504482388496399 0.322123616933823 0.000000000000000
8.235499382019043 2.008299350738525 1.035913228988647 0.000000000000000
17.112842559814453 3.309285402297974 3.170814037322998 0.003921568859369
13.853587150573730 4.057281017303467 0.083757951855659 0.000000000000000
9.813212394714355 2.358814239501953 1.234353780746460 0.000000000000000
7.690915107727051 2.218169212341309 0.231776416301727 0.000000000000000
9.067884445190430 2.112340450286865 1.138309955596924 0.000000000000000
8.559094429016113 1.558830857276917 0.706969678401947 0.000000000000000
5.577286243438721 0.735817670822144 -0.195000529289246 0.000000000000000
8.462686538696289 2.378292322158813 -0.152741208672523 0.000000000000000
2.703033685684204 0.613229513168335 0.158974900841713 0.000000000000000
9.295731544494629 2.131606340408325 1.166104197502136 0.000000000000000
3.958209514617920 0.492895931005478 0.045928720384836 0.000000000000000
9.032075881958008 2.037859439849854 1.131977319717407 0.000000000000000
8.093613624572754 1.386626482009888 0.142690837383270 0.000000000000000
6.217262268066406 1.063580632209778 0.255333572626114 0.000000000000000
10.547834396362305 1.733807325363159 0.869442701339722 0.000000000000000
10.068532943725586 2.681153297424316 -0.422822415828705 0.000000000000000
12.092945098876953 1.988862633705139 2.227232456207275 0.000000000000000
21.178728103637695 3.411937713623047 -0.622665584087372 0.003921568859369
14.383048057556152 3.781108856201172 -0.604123771190643 0.000000000000000
8.207888603210449 1.290607213973999 -0.047970239073038 0.000000000000000
8.160441398620605 1.693306803703308 0.193037927150726 0.000000000000000
8.019645690917969 1.260897636413574 0.329154908657074 0.000000000000000
18.821041107177734 2.967713832855225 1.552499890327454 0.000000000000000
16.858797073364258 2.597345590591431 -0.494898051023483 0.000000000000000
8.255854606628418 0.860555410385132 -0.096034608781338 0.000000000000000
7.751809120178223 1.580057263374329 0.458407193422318 0.000000000000000
16.561832427978516 2.490888118743896 -0.485508710145950 0.000000000000000
6.252632617950439 0.935797929763794 0.511982560157776 0.000000000000000
15.106205940246582 2.271666049957275 2.776278018951416 0.000000000000000
8.696086883544922 2.152200222015381 0.259293824434280 0.000000000000000
10.552154541015625 2.075535535812378 1.314384341239929 0.000000000000000
9.675365447998047 1.902416586875916 2.628683090209961 0.000000000000000
15.235507011413574 1.429873347282410 -0.177089199423790 0.000000000000000
12.365441322326660 3.020032405853271 0.369126468896866 0.000000000000000
10.633316040039062 1.521135330200195 0.186808735132217 0.000000000000000
7.821100234985352 1.116888165473938 -0.411259502172470 0.000000000000000
11.686245918273926 1.672685384750366 2.143346548080444 0.000000000000000
3.071627378463745 0.423585444688797 0.124161243438721 0.000000000000000
9.539101600646973 0.826787531375885 0.111092157661915 0.000000000000000
3.088926315307617 0.415204256772995 0.124814361333847 0.000000000000000
7.903904438018799 1.072888493537903 -0.415228009223938 0.000000000000000
4.762204647064209 0.626186132431030 -0.027627404779196 0.000000000000000
9.143479347229004 0.758759379386902 0.106421932578087 0.000000000000000
17.446823120117188 1.393341064453125 -0.202578783035278 0.003921568859369
9.639464378356934 1.241896510124207 -0.056005299091339 0.000000000000000
15.076689720153809 2.698165416717529 1.874670028686523 0.000000000000000
14.975785255432129 1.827177524566650 0.612968444824219 0.000000000000000
8.652553558349609 1.053275942802429 1.580032825469971 0.000000000000000
12.653029441833496 1.498181223869324 0.221822783350945 0.000000000000000
8.022229194641113 1.345471262931824 0.992591917514801 0.000000000000000
8.621758460998535 0.596332967281342 -0.299797981977463 0.000000000000000
3.647644996643066 0.416307926177979 0.295469641685486 0.000000000000000
12.076106071472168 1.348764061927795 -0.070022180676460 0.000000000000000
14.135061264038086 2.226386547088623 0.000382871046895 0.000000000000000
3.946961641311646 0.230363950133324 -0.045319974422455 0.000000000000000
5.044650554656982 0.540644764900208 0.204205527901649 0.000000000000000
7.968483448028564 0.857842743396759 1.450181484222412 0.000000000000000
10.261892318725586 1.070310473442078 -0.059324607253075 0.000000000000000
15.125120162963867 2.329682350158691 4.084597110748291 0.000000000000000
4.575094223022461 0.681990444660187 0.265781819820404 0.000000000000000
10.425684928894043 1.530433297157288 0.000234913459281 0.003921568859369
10.030086517333984 0.977444589138031 -0.057932786643505 0.000000000000000
10.726763725280762 1.574816465377808 -0.501915395259857 0.000000000000000
7.218074321746826 1.056983709335327 0.888274788856506 0.000000000000000
17.279214859008789 1.624445080757141 0.705219864845276 0.003921568859369
7.855841636657715 1.122136592864990 2.110016107559204 0.000000000000000
21.092195510864258 1.984517693519592 3.852262973785400 0.003921568859369
4.000390052795410 0.567053496837616 -0.092639133334160 0.000000000000000
16.437162399291992 2.301269531250000 0.000519599765539 0.003921568859369
14.368500709533691 0.599598944187164 0.167302608489990 0.000000000000000
12.823353767395020 1.161399722099304 0.224103584885597 0.000000000000000
13.707153320312500 0.521767377853394 -0.158400550484657 0.000000000000000
12.971541404724121 2.413532733917236 -0.534771084785461 0.000000000000000
11.211190223693848 1.525270104408264 -0.261564493179321 0.000000000000000
13.669101715087891 1.140528082847595 2.490129947662354 0.000000000000000
15.575784683227539 2.014807462692261 0.000500943511724 0.000000000000000
8.502628326416016 0.679227232933044 -0.048995405435562 0.000000000000000
11.775450706481934 0.368158131837845 0.136900275945663 0.000000000000000
8.478799819946289 0.677226960659027 -0.689101219177246 0.000000000000000
16.668268203735352 2.987886905670166 0.491496145725250 0.003921568859369
11.704348564147949 1.512193799018860 0.684033334255219 0.000000000000000
13.937633514404297 1.116449713706970 0.567643880844116 0.000000000000000
8.196604728698730 1.463717341423035 -0.336628884077072 0.000000000000000
9.726808547973633 1.219343066215515 0.226905718445778 0.000000000000000
11.470958709716797 0.875962674617767 0.466563403606415 0.000000000000000
8.790303230285645 1.070287346839905 0.204811543226242 0.000000000000000
10.914599418640137 1.330835223197937 1.342803955078125 0.000000000000000
8.793621063232422 1.042858958244324 0.204815208911896 0.000000000000000
9.073683738708496 1.043235898017883 0.211102649569511 0.000000000000000
6.214247226715088 0.409311294555664 0.502633869647980 0.000000000000000
8.167046546936035 0.111755505204201 -0.093931175768375 0.000000000000000
8.439987182617188 1.353937983512878 0.246840775012970 0.000000000000000
11.471898078918457 0.715388536453247 0.932908236980438 0.000000000000000
6.756236553192139 1.057598114013672 -0.118046082556248 0.000000000000000
11.196691513061523 0.659001410007477 -0.064308859407902 0.000000000000000
6.814041614532471 0.399624615907669 0.551498413085938 0.000000000000000
11.729035377502441 1.806673645973206 0.068887501955032 0.000000000000000
8.128738403320312 1.248817920684814 0.237407803535461 0.000000000000000
9.544949531555176 0.531626522541046 1.730188727378845 0.000000000000000
10.466901779174805 1.055912375450134 0.000346839457052 0.003921568859369
5.668644905090332 0.846589446067810 0.032917656004429 0.000000000000000
8.709314346313477 0.452828228473663 0.352667421102524 0.000000000000000
6.759284973144531 0.328427970409393 0.117040321230888 0.000000000000000
6.408453941345215 0.576857626438141 0.148163214325905 0.000000000000000
12.001029968261719 1.085846066474915 1.471175432205200 0.000000000000000
10.833884239196777 0.943673312664032 1.326816558837891 0.000000000000000
6.621599674224854 0.898454248905182 -0.269234210252762 0.000000000000000
7.101928234100342 0.221067905426025 -0.204460859298706 0.000000000000000
11.956671714782715 0.373542487621307 0.208101302385330 0.000000000000000
6.956313133239746 0.872256755828857 -0.121005900204182 0.000000000000000
3.982411623001099 0.466014087200165 -0.068606398999691 0.000000000000000
5.017249584197998 0.346229970455170 0.115160360932350 0.000000000000000
4.213531494140625 0.289938479661942 0.241156429052353 0.000000000000000
9.717895507812500 1.118360280990601 0.056698292493820 0.000000000000000
8.341856002807617 0.147327974438667 0.674717843532562 0.000000000000000
14.724952697753906 -0.506299555301666 -0.169546231627464 0.000000000000000
7.833102226257324 0.490542858839035 0.180976554751396 0.000000000000000
8.498827934265137 0.120673216879368 0.343305021524429 0.000000000000000
4.249253273010254 0.263893485069275 -0.097143746912479 0.000000000000000
14.949944496154785 1.567857265472412 0.435768216848373 0.000000000000000
11.481294631958008 0.641439259052277 0.665429830551147 0.000000000000000
7.515218734741211 0.756451725959778 -0.130207404494286 0.000000000000000
7.252676010131836 0.026536602526903 0.292412608861923 0.000000000000000
10.192926406860352 0.037297360599041 0.825905442237854 0.000000000000000
3.674180030822754 -0.174682572484016 0.041889343410730 0.000000000000000
5.630588054656982 0.272627681493759 0.323604106903076 0.000000000000000
12.102934837341309 1.140467166900635 -0.210234373807907 0.000000000000000
11.270782470703125 0.512254536151886 1.375729680061340 0.000000000000000
2.725871324539185 -0.007898713462055 0.215698391199112 0.000000000000000
6.750438213348389 -0.044005412608385 -0.038487382233143 0.000000000000000
5.228705883026123 0.217780366539955 0.119945481419563 0.000000000000000
10.520023345947266 0.404736101627350 0.243563592433929 0.000000000000000
1.723024606704712 0.144480347633362 -0.067276269197464 0.003921568859369
9.369922637939453 -0.126356631517410 -0.269807308912277 0.000000000000000
8.177810668945312 -0.110046342015266 -0.046654913574457 0.000000000000000
1.755378007888794 0.141439244151115 -0.068575650453568 0.003921568859369
7.349789142608643 0.205542236566544 0.423096925020218 0.000000000000000
18.866151809692383 0.465205579996109 0.438332229852676 0.000000000000000
8.985065460205078 -0.214020639657974 0.155801370739937 0.000000000000000
9.606321334838867 -0.228968799114227 0.388302922248840 0.000000000000000
6.643815040588379 0.461754232645035 -0.114433027803898 0.000000000000000
9.570731163024902 0.203734815120697 0.552609920501709 0.000000000000000
15.957277297973633 -1.268144249916077 0.186686888337135 0.000000000000000
6.468048095703125 0.427078783512115 0.186130881309509 0.000000000000000
9.536628723144531 -0.291620045900345 0.385540008544922 0.000000000000000
14.063730239868164 -0.431562244892120 1.142124772071838 0.000000000000000
4.663023948669434 0.306241512298584 -0.186567068099976 0.000000000000000
6.185513496398926 -0.187791183590889 1.111642718315125 0.000000000000000
2.440692901611328 -0.195470243692398 0.027344569563866 0.000000000000000
2.754542589187622 0.169276624917984 0.077492810785770 0.000000000000000
9.851469039916992 0.141993597149849 2.615667581558228 0.000000000000000
12.544381141662598 0.180344343185425 -0.288956463336945 0.000000000000000
7.364225387573242 0.080260127782822 0.423819601535797 0.000000000000000
7.687441825866699 0.083897545933723 0.932909369468689 0.000000000000000
11.913310050964355 -0.447453796863556 2.157598733901978 0.000000000000000
12.968341827392578 0.726613938808441 0.075697027146816 0.000000000000000
13.078983306884766 0.097753971815109 1.595414280891418 0.000000000000000
16.940034866333008 0.126197233796120 -0.390792518854141 0.000000000000000
5.080543518066406 0.002985275583342 0.290594667196274 0.000000000000000
7.674080371856689 0.321937799453735 0.044419646263123 0.000000000000000
17.830566406250000 -0.982305586338043 1.451772332191467 0.000000000000000
11.174675941467285 -0.647946596145630 0.194510236382484 0.000000000000000
14.172461509704590 0.501165926456451 0.410715520381927 0.000000000000000
10.203371047973633 -0.628156006336212 0.413104593753815 0.000000000000000
10.200831413269043 -0.627707183361053 1.845450401306152 0.000000000000000
17.395092010498047 0.555399835109711 0.504832983016968 0.003921568859369
21.573846817016602 -1.410617589950562 3.925344228744507 0.003921568859369
11.518468856811523 -0.790060222148895 0.467174112796783 0.000000000000000
11.709964752197266 0.291777014732361 -0.201869547367096 0.000000000000000
14.194684028625488 0.354185312986374 0.082962326705456 0.000000000000000
16.070667266845703 -1.161450982093811 0.281001657247543 0.003921568859369
19.336212158203125 -0.524078786373138 0.001765597262420 0.003921568859369
2.464140415191650 -0.179512545466423 0.041235726326704 0.000000000000000
5.448284149169922 -0.145160585641861 0.311609566211700 0.000000000000000
8.076396942138672 -0.216715738177299 0.979852080345154 0.000000000000000
7.673750400543213 -0.232418552041054 -0.175770893692970 0.000000000000000
6.587906837463379 0.095401115715504 0.189026474952698 0.000000000000000
6.174772739410400 0.046849079430103 -0.388864189386368 0.000000000000000
16.936395645141602 -0.693725287914276 0.982701539993286 0.000000000000000
8.487718582153320 0.035371676087379 0.244512066245079 0.000000000000000
10.591162681579590 -0.505496621131897 0.000836534192786 0.003921568859369
10.480452537536621 -0.500105023384094 0.242574259638786 0.000000000000000
5.557038307189941 0.004173785448074 0.158915102481842 0.000000000000000
7.792167663574219 -0.074826531112194 -0.133539110422134 0.000000000000000
3.699507236480713 -0.210065662860870 0.000050303555327 0.000000000000000
17.403934478759766 -0.223526492714882 0.102147705852985 0.000000000000000
7.012616634368896 -0.114096127450466 0.040515903383493 0.000000000000000
21.299051284790039 -1.462997913360596 1.239120364189148 0.003921568859369
9.706467628479004 -0.661960959434509 1.181523799896240 0.000000000000000
2.586571455001831 -0.187158495187759 -0.000084481289377 0.000000000000000
10.542881965637207 -0.829704344272614 0.610286414623260 0.000000000000000
7.768251419067383 -0.284427762031555 0.045060154050589 0.000000000000000
6.004745960235596 -0.218814402818680 -0.239852398633957 0.000000000000000
14.188156127929688 -0.623861789703369 0.411201804876328 0.000000000000000
3.008292198181152 -0.137509703636169 -0.050453413277864 0.000000000000000
15.693898200988770 -0.745282948017120 0.092308513820171 0.000000000000000
7.595990657806396 -1.095098376274109 -0.043119199573994 0.000000000000000
9.394103050231934 -0.508284330368042 0.271045893430710 0.000000000000000
4.960429668426514 -0.518683075904846 1.303705573081970 0.000000000000000
4.129784584045410 -0.656913876533508 0.071078911423683 0.000000000000000
10.462074279785156 -0.710128962993622 -0.179837346076965 0.000000000000000
19.098226547241211 -1.370389938354492 0.112867638468742 0.000000000000000
14.292037963867188 -1.871991157531738 3.831304550170898 0.000000000000000
4.380180358886719 -0.574776232242584 1.148374319076538 0.000000000000000
14.752990722656250 -2.136968135833740 3.961001157760620 0.000000000000000
4.384147644042969 -0.455139249563217 0.124612048268318 0.000000000000000
20.660879135131836 -3.658716678619385 0.003588808001950 0.003921568859369
9.727976799011230 -1.295564174652100 -0.167523443698883 0.000000000000000
26.755102157592773 -5.417819023132324 7.281964302062988 0.003921568859369
26.707675933837891 -5.495132923126221 7.273697853088379 0.003921568859369
23.827394485473633 -7.368947029113770 2.029537439346313 0.003921568859369
22.778778076171875 -7.382812500000000 1.947716951370239 0.003921568859369
21.738374710083008 -7.126529693603516 1.860232234001160 0.003921568859369
27.737730026245117 -10.957139968872070 -0.337666958570480 0.003921568859369
21.146112442016602 -7.582797050476074 1.826762676239014 0.003921568859369
21.046089172363281 -7.629528045654297 1.819945693016052 0.003921568859369
24.286098480224609 -7.681323528289795 1.480152368545532 0.003921568859369
21.387884140014648 -8.003073692321777 1.856917023658752 0.003921568859369
27.378629684448242 -12.141413688659668 0.355400711297989 0.003921568859369
16.143095016479492 -6.402221202850342 3.141326904296875 0.003921568859369
22.353422164916992 -8.992365837097168 1.960287928581238 0.003921568859369
21.187171936035156 -8.677904129028320 1.861719608306885 0.003921568859369
21.444229125976562 -7.674448013305664 2.781488895416260 0.003921568859369
24.219316482543945 -9.052907943725586 3.160820007324219 0.003921568859369
27.826789855957031 -10.634197235107422 -0.680535852909088 0.003921568859369
19.594818115234375 -8.657938003540039 1.741314888000488 0.003921568859369
26.704236984252930 -13.536618232727051 0.356117546558380 0.003921568859369
22.574186325073242 -8.882362365722656 2.964476346969604 0.003921568859369
20.375604629516602 -9.175167083740234 4.050333976745605 0.003921568859369
20.057241439819336 -8.040941238403320 1.254392385482788 0.003921568859369
20.744525909423828 -8.318782806396484 2.728819131851196 0.003921568859369
27.363742828369141 -11.110346794128418 0.692192971706390 0.003921568859369
27.129283905029297 -11.123437881469727 3.587229728698730 0.003921568859369
19.080533981323242 -8.902689933776855 1.711066365242004 0.003921568859369
20.615961074829102 -8.516695976257324 2.723510026931763 0.003921568859369
23.369277954101562 -11.023851394653320 2.103322505950928 0.003921568859369
20.587600708007812 -8.584364891052246 2.723531246185303 0.003921568859369
20.024085998535156 -8.428709983825684 2.652184009552002 0.003921568859369
18.951957702636719 -9.079305648803711 1.707856178283691 0.003921568859369
27.336248397827148 -11.762813568115234 0.697751224040985 0.003921568859369
21.955026626586914 -9.611033439636230 1.392839670181274 0.003921568859369
19.108427047729492 -9.483264923095703 1.734085202217102 0.003921568859369
19.585058212280273 -9.892297744750977 1.784138917922974 0.003921568859369
18.897809982299805 -9.618755340576172 1.723394036293030 0.003921568859369
24.673336029052734 -11.218528747558594 0.635483682155609 0.003921568859369
26.352949142456055 -11.989181518554688 -0.659502029418945 0.003921568859369
27.166873931884766 -12.590526580810547 0.702653646469116 0.003921568859369
26.792684555053711 -12.414825439453125 3.613042354583740 0.003921568859369
21.165170669555664 -10.050887107849121 2.862095832824707 0.003921568859369
21.368726730346680 -10.147432327270508 6.297301769256592 0.003921568859369
20.464618682861328 -11.054804801940918 1.892263889312744 0.003921568859369
27.572896957397461 -11.742203712463379 0.183058530092239 0.003921568859369
20.862642288208008 -11.554399490356445 1.940725207328796 0.003921568859369
20.993122100830078 -10.326755523681641 6.227934360504150 0.003921568859369
21.236911773681641 -11.763048171997070 4.402467727661133 0.003921568859369
20.968011856079102 -11.708689689636230 1.954481363296509 0.003921568859369
21.250547409057617 -11.867316246032715 4.413993835449219 0.003921568859369
26.399538040161133 -13.238896369934082 0.693604350090027 0.003921568859369
20.916482925415039 -11.769261360168457 1.952973008155823 0.003921568859369
12.749376296997070 -6.335076808929443 3.768036365509033 0.000000000000000
12.699643135070801 -6.364746093750000 3.759755849838257 0.000000000000000
21.853841781616211 -11.129771232604980 2.996689081192017 0.003921568859369
20.819641113281250 -12.001437187194824 1.955657482147217 0.003921568859369
20.559270858764648 -10.552669525146484 6.149656295776367 0.003921568859369
20.549682617187500 -10.637945175170898 6.157974243164062 0.003921568859369
21.824432373046875 -11.401228904724121 6.556139469146729 0.003921568859369
18.559751510620117 -9.761410713195801 2.559062480926514 0.003921568859369
20.952350616455078 -11.033740043640137 6.303176879882812 0.003921568859369
20.329710006713867 -12.085711479187012 1.924667119979858 0.003921568859369
20.914169311523438 -11.097003936767578 6.302160739898682 0.003921568859369
21.900814056396484 -11.729748725891113 3.036448955535889 0.003921568859369
20.580224990844727 -12.337347030639648 4.350632667541504 0.003921568859369
19.036769866943359 -10.265380859375000 2.640311479568481 0.003921568859369
21.154916763305664 -12.785709381103516 4.482972621917725 0.003921568859369
22.053535461425781 -12.005232810974121 3.069265127182007 0.003921568859369
22.151718139648438 -12.164134979248047 3.089343547821045 0.003921568859369
20.667325973510742 -11.339789390563965 6.275295734405518 0.003921568859369
19.031623840332031 -10.595974922180176 2.658915042877197 0.003921568859369
19.721454620361328 -12.276931762695312 1.890260815620422 0.003921568859369
20.273365020751953 -11.294660568237305 6.175219058990479 0.003921568859369
4.086528301239014 -2.192037582397461 1.190648198127747 0.000000000000000
20.609888076782227 -12.940325736999512 4.412383556365967 0.003921568859369
19.905994415283203 -11.275035858154297 2.793977737426758 0.003921568859369
26.673212051391602 -13.593323707580566 0.184496566653252 0.003921568859369
20.670999526977539 -11.804132461547852 1.384314060211182 0.003921568859369
19.194643020629883 -10.951131820678711 2.698115587234497 0.003921568859369
20.579282760620117 -11.850851058959961 1.381058573722839 0.003921568859369
21.854307174682617 -12.592844009399414 3.083142042160034 0.003921568859369
19.404836654663086 -11.256732940673828 1.303997874259949 0.003921568859369
21.810207366943359 -12.668263435363770 3.083166599273682 0.003921568859369
21.076236724853516 -13.649384498596191 2.044829130172729 0.003921568859369
20.979297637939453 -12.573367118835449 2.989333391189575 0.003921568859369
20.922740936279297 -12.628161430358887 2.986907720565796 0.003921568859369
21.602373123168945 -13.242752075195312 1.474885702133179 0.003921568859369
10.499025344848633 -6.358860015869141 3.240057229995728 0.000000000000000
19.967945098876953 -12.324600219726562 2.866707801818848 0.003921568859369
21.189449310302734 -13.195250511169434 1.452899813652039 0.003921568859369
8.843270301818848 -6.025069236755371 1.919904232025146 0.000000000000000
21.045486450195312 -13.206250190734863 1.446125507354736 0.003921568859369
10.219840049743652 -6.481562137603760 3.194496154785156 0.000000000000000
10.168050765991211 -6.497329711914062 3.185173273086548 0.000000000000000
16.070779800415039 -11.503479003906250 3.577445268630981 0.003921568859369
10.095967292785645 -6.494487762451172 3.168590068817139 0.000000000000000
13.128621101379395 -9.427638053894043 2.919208049774170 0.003921568859369
10.073226928710938 -6.528862953186035 3.168601274490356 0.000000000000000
3.598701715469360 -2.475091695785522 0.762446105480194 0.000000000000000
20.171060562133789 -12.152853012084961 0.689830660820007 0.003921568859369
8.584033012390137 -6.507888317108154 0.868109524250031 0.000000000000000
12.798200607299805 -9.939914703369141 2.926958084106445 0.003921568859369
2.772712469100952 -2.026570320129395 0.591310262680054 0.000000000000000
10.241827964782715 -8.083824157714844 2.349912166595459 0.000000000000000
7.959045410156250 -5.672281742095947 2.567637681961060 0.000000000000000
7.470082759857178 -5.916804313659668 1.705426692962646 0.000000000000000
6.115506649017334 -4.409731864929199 0.903467714786530 0.000000000000000
3.551089286804199 -2.478180408477783 1.105976581573486 0.000000000000000
11.996714591979980 -8.967468261718750 3.966100215911865 0.000000000000000
2.289985179901123 -1.621100425720215 0.000551738543436 0.000000000000000
4.677206516265869 -3.537276983261108 0.696508646011353 0.000000000000000
2.994413137435913 -2.218543767929077 0.943199515342712 0.000000000000000
9.838929176330566 -7.902376174926758 3.332679271697998 0.000000000000000
11.837789535522461 -12.605139732360840 4.591067314147949 0.003921568859369
7.048933029174805 -7.724494934082031 2.754107236862183 0.000000000000000
3.268978118896484 -3.802898168563843 0.198872357606888 0.000000000000000
3.186846256256104 -4.155622005462646 -0.056144356727600 0.000000000000000
3.212625980377197 -4.192899703979492 -0.175379753112793 0.000000000000000
3.181285381317139 -4.177208423614502 -0.470545560121536 0.000000000000000
8.582438468933105 -9.823792457580566 3.450741052627563 0.000000000000000
5.329670906066895 -6.002725601196289 2.102184057235718 0.000000000000000
6.759274482727051 -7.823223114013672 2.724051952362061 0.000000000000000
7.239284992218018 -8.571496009826660 2.960026502609253 0.000000000000000
4.286579608917236 -4.948010921478271 1.703707098960876 0.000000000000000
3.198212385177612 -4.186738014221191 -0.145044937729836 0.000000000000000
4.347795963287354 -7.214901924133301 -0.090526767075062 0.000000000000000
4.218833446502686 -7.022240638732910 -0.087764091789722 0.000000000000000
4.820482730865479 -8.112116813659668 -0.858412623405457 0.000000000000000
4.434252262115479 -6.625095367431641 0.322777330875397 0.000000000000000
9.491104125976562 -16.703111648559570 -0.206644013524055 0.003921568859369
4.256847381591797 -7.206633090972900 -0.089703597128391 0.000000000000000
4.315564155578613 -6.532046318054199 -0.039143450558186 0.000000000000000
4.393200397491455 -6.659633636474609 0.323113560676575 0.000000000000000
4.258217811584473 -7.269555568695068 -0.090306788682938 0.000000000000000
4.582486152648926 -8.072919845581055 -0.844778954982758 0.000000000000000
4.249998092651367 -7.500231266021729 -0.092461563646793 0.000000000000000
4.564889430999756 -8.104600906372070 -0.846620380878448 0.000000000000000
3.209778070449829 -3.957878589630127 0.145218402147293 0.000000000000000
4.315578937530518 -7.691509723663330 -0.094617970287800 0.000000000000000
4.509148120880127 -8.066214561462402 -0.841094672679901 0.000000000000000
3.202941894531250 -3.977606773376465 0.145579949021339 0.000000000000000
4.287354469299316 -7.706025600433350 -0.094617769122124 0.000000000000000
4.495886325836182 -8.113342285156250 -0.844409644603729 0.000000000000000
4.151503562927246 -6.621547222137451 0.316640585660934 0.000000000000000
4.458523750305176 -8.110036849975586 -0.842567801475525 0.000000000000000
4.122416973114014 -6.624394893646240 0.316143006086349 0.000000000000000
4.431602001190186 -8.123645782470703 -0.842567801475525 0.000000000000000
4.086636066436768 -6.612554550170898 0.314980328083038 0.000000000000000
4.399284362792969 -8.109339714050293 -0.839379251003265 0.000000000000000
4.062067985534668 -6.604624748229980 0.314179480075836 0.000000000000000
4.240674495697021 -6.979619503021240 -0.040624521672726 0.000000000000000
4.330327510833740 -8.041306495666504 -0.830909907817841 0.000000000000000
4.025368213653564 -6.593098640441895 0.313015818595886 0.000000000000000
4.299470424652100 -8.049539566040039 -0.097700789570808 0.000000000000000
4.247230529785156 -7.049171447753906 -0.040938694030046 0.000000000000000
4.299386978149414 -8.049373626708984 0.111093595623970 0.000000000000000
3.194980621337891 -4.132144451141357 0.149181410670280 0.000000000000000
4.305533885955811 -8.061894416809082 -0.516310095787048 0.000000000000000
3.984928131103516 -6.574400424957275 0.311519354581833 0.000000000000000
4.242106914520264 -7.039923667907715 -0.415745973587036 0.000000000000000
4.315016746520996 -8.081237792968750 -0.307646930217743 0.000000000000000
3.176882028579712 -4.136746883392334 -0.084328226745129 0.000000000000000
4.274492263793945 -7.157438755035400 -0.041469585150480 0.000000000000000
3.961949825286865 -6.587044239044189 0.311520159244537 0.000000000000000
4.250136852264404 -7.113015651702881 -0.419243603944778 0.000000000000000
4.247567176818848 -7.167575836181641 -0.041449084877968 0.000000000000000
3.919843673706055 -6.564493179321289 0.309857130050659 0.000000000000000
4.257704257965088 -7.186250686645508 -0.422741353511810 0.000000000000000
4.282426357269287 -6.509197711944580 -0.526355624198914 0.000000000000000
3.893107175827026 -6.569873332977295 0.309525012969971 0.000000000000000
4.275294303894043 -6.497362136840820 -0.348180979490280 0.000000000000000
4.236379623413086 -7.206874370574951 -0.423152238130569 0.000000000000000
3.853190898895264 -6.550474166870117 0.308028161525726 0.000000000000000
4.241318225860596 -7.276761054992676 -0.426444262266159 0.000000000000000
3.828425407409668 -6.559126377105713 0.307862251996994 0.000000000000000
4.243947029113770 -7.343239784240723 -0.429530680179596 0.000000000000000
4.241977214813232 -7.401857852935791 -0.042451132088900 0.000000000000000
4.421339988708496 -6.901535034179688 0.472575038671494 0.000000000000000
3.796204805374146 -6.553534507751465 0.307030767202377 0.000000000000000
4.238724708557129 -7.395679950714111 -0.431793928146362 0.000000000000000
4.253838539123535 -7.481431484222412 -0.042824972420931 0.000000000000000
3.764504432678223 -6.543063640594482 0.306032806634903 0.000000000000000
4.240551471710205 -7.519878864288330 -0.042962532490492 0.000000000000000
3.736129045486450 -6.544287681579590 0.305533945560455 0.000000000000000
4.232519626617432 -7.569004535675049 -0.043159257620573 0.000000000000000
3.702318191528320 -6.534724235534668 0.304535806179047 0.000000000000000
3.686161279678345 -6.539197444915771 0.304392248392105 0.000000000000000
4.260065555572510 -7.735182285308838 -0.043697196990252 0.000000000000000
4.442650318145752 -6.443097591400146 0.227691605687141 0.000000000000000
3.659710168838501 -6.543623924255371 0.304059237241745 0.000000000000000
3.246839761734009 -5.130567550659180 0.004099625162780 0.000000000000000
4.233033180236816 -7.748743057250977 -0.043697275221348 0.000000000000000
3.627911090850830 -6.537220478057861 0.303226649761200 0.000000000000000
4.255410671234131 -6.981788158416748 0.006037019193172 0.000000000000000
3.601516962051392 -6.541419506072998 0.302893489599228 0.000000000000000
4.279400348663330 -7.082849502563477 0.006129904650152 0.003921568859369
2.636446475982666 -4.111668586730957 -0.325682282447815 0.000000000000000
3.569851636886597 -6.534750461578369 0.302060753107071 0.000000000000000
4.254043102264404 -7.037018775939941 -0.368586987257004 0.000000000000000
4.298870563507080 -8.091479301452637 -0.254965543746948 0.000000000000000
4.260415077209473 -7.107003211975098 0.006141855381429 0.003921568859369
4.298138141632080 -8.089959144592285 -0.727594673633575 0.000000000000000
3.543516874313354 -6.538721561431885 0.301727414131165 0.000000000000000
4.235212802886963 -7.061072826385498 -0.369133442640305 0.000000000000000
4.291731357574463 -8.076796531677246 -0.463863760232925 0.000000000000000
4.255592346191406 -7.098221302032471 -0.182298883795738 0.000000000000000
4.285264968872070 -7.211930751800537 0.006238270550966 0.003921568859369
3.510250329971313 -6.528189182281494 0.300728023052216 0.000000000000000
4.250627517700195 -7.148266315460205 -0.372964113950729 0.000000000000000
