# This PCD file was generated using the MATLAB® pcwrite function
# from Computer Vision Toolbox®.
# .PCD v.7 - Point Cloud Data file format
VERSION .7
FIELDS x y z intensity
SIZE 8 8 8 8
TYPE F F F F
COUNT 1 1 1 1
WIDTH 644
HEIGHT 1
VIEWPOINT 0 0 0 1 0 0 0
POINTS 644
DATA ascii
7.969922542572021 2.475710391998291 0.048173032701015 0.000000000000000
12.991564750671387 2.034096479415894 0.152609735727310 0.000000000000000
8.562508583068848 2.660473585128784 -0.364251703023911 0.000000000000000
24.946214675903320 6.452354907989502 -0.599180638790131 0.003921568859369
8.675336837768555 2.660933732986450 -0.368647754192352 0.000000000000000
22.268665313720703 4.528221130371094 4.137470245361328 0.003921568859369
2.144651412963867 0.531810224056244 0.050629075616598 0.000000000000000
13.031415939331055 3.270205259323120 0.780510365962982 0.000000000000000
12.167662620544434 1.773236155509949 -0.142821997404099 0.000000000000000
2.164608716964722 0.526400923728943 0.050787154585123 0.000000000000000
2.888556480407715 0.559781491756439 0.118102364242077 0.000000000000000
12.570653915405273 2.414881229400635 -0.074348166584969 0.000000000000000
14.476984024047852 3.521539211273193 0.865090668201447 0.000000000000000
4.179263591766357 0.797709822654724 0.343887805938721 0.000000000000000
4.146630287170410 0.777311384677887 0.340959876775742 0.000000000000000
10.552159309387207 1.951790571212769 0.186433821916580 0.000000000000000
5.819661617279053 1.368137121200562 0.345660358667374 0.000000000000000
11.794701576232910 1.551413297653198 -0.138153001666069 0.000000000000000
6.646722316741943 0.848549842834473 -0.077643342316151 0.000000000000000
5.931049346923828 1.329533696174622 0.351477205753326 0.000000000000000
11.694753646850586 1.996005654335022 -0.344248026609421 0.000000000000000
9.934974670410156 2.197093248367310 2.715343713760376 0.000000000000000
7.298384189605713 1.243177294731140 1.342260360717773 0.000000000000000
5.098426818847656 0.849078416824341 0.208789303898811 0.000000000000000
9.900602340698242 1.126762151718140 0.115408740937710 0.000000000000000
5.832001686096191 1.521339297294617 -0.244078338146210 0.000000000000000
12.271044731140137 2.581742048263550 3.348918437957764 0.000000000000000
24.923076629638672 6.448244571685791 0.148997023701668 0.003921568859369
10.394114494323730 1.588222861289978 1.907586097717285 0.000000000000000
9.480571746826172 1.887533068656921 1.180460214614868 0.000000000000000
12.066196441650391 2.404917716979980 -0.285350590944290 0.000000000000000
6.263056755065918 1.222041130065918 -0.147476702928543 0.000000000000000
15.110727310180664 2.150997400283813 -0.088611520826817 0.000000000000000
7.550272941589355 1.044547796249390 0.131996318697929 0.000000000000000
8.505492210388184 1.177686095237732 1.556045651435852 0.000000000000000
12.996918678283691 1.756984949111938 -0.076107516884804 0.000000000000000
22.519586563110352 4.094682216644287 -0.531739056110382 0.003921568859369
8.809527397155762 1.567901730537415 0.517946720123291 0.000000000000000
10.668910026550293 1.294292926788330 1.949941992759705 0.000000000000000
4.996731758117676 0.585362076759338 -0.406627416610718 0.000000000000000
7.894446372985840 0.514050126075745 -0.091607943177223 0.000000000000000
13.799480438232422 1.578406214714050 1.129502415657043 0.000000000000000
16.222183227539062 1.798018217086792 -0.094701819121838 0.000000000000000
6.324951171875000 0.674937367439270 0.109793253242970 0.000000000000000
4.470620632171631 0.694454789161682 -0.104017540812492 0.000000000000000
11.001393318176270 1.683602690696716 -0.000223174138227 0.003921568859369
19.757116317749023 3.952827215194702 0.116365991532803 0.003921568859369
7.157598972320557 1.424323201179504 0.210392102599144 0.000000000000000
14.989105224609375 2.244064569473267 1.853138208389282 0.000000000000000
19.028564453125000 1.842509508132935 -0.110937908291817 0.000000000000000
17.016222000122070 1.647133350372314 0.693797349929810 0.003921568859369
7.980275630950928 0.743074059486389 1.449865341186523 0.000000000000000
24.613910675048828 2.216408252716064 -0.143460825085640 0.003921568859369
13.107152938842773 2.478861570358276 0.386152923107147 0.000000000000000
2.911814689636230 0.388570398092270 -0.000151703017764 0.000000000000000
15.888285636901855 1.373194575309753 0.277122288942337 0.000000000000000
8.276449203491211 0.712927401065826 0.335768699645996 0.000000000000000
8.548462867736816 0.706718146800995 0.695032715797424 0.000000000000000
12.061944007873535 1.592749595642090 3.243313074111938 0.000000000000000
14.724408149719238 1.893623352050781 -0.000219042442041 0.000000000000000
19.535194396972656 2.514925479888916 1.143231153488159 0.000000000000000
7.587905406951904 0.600226163864136 -0.395801365375519 0.000000000000000
7.503730773925781 0.567477226257324 0.609118342399597 0.000000000000000
16.638568878173828 2.082416534423828 4.476309776306152 0.003921568859369
8.012983322143555 0.970647037029266 0.186210006475449 0.000000000000000
20.758487701416016 1.504967570304871 1.693866133689880 0.003921568859369
9.083143234252930 0.623715579509735 -0.263018935918808 0.000000000000000
22.460996627807617 1.549633145332336 4.091603755950928 0.003921568859369
5.574303150177002 0.361774206161499 0.449954032897949 0.000000000000000
12.326598167419434 0.162361279129982 -0.142753675580025 0.000000000000000
7.512329101562500 1.199714779853821 0.043565280735493 0.000000000000000
11.853559494018555 0.732781112194061 -0.068751841783524 0.000000000000000
5.786910057067871 0.637044847011566 -0.268016606569290 0.000000000000000
5.543698787689209 0.340589106082916 0.447352528572083 0.000000000000000
13.874920845031738 0.810041606426239 -0.402521550655365 0.000000000000000
7.276105880737305 0.423060297966003 0.588930666446686 0.000000000000000
1.529290318489075 0.230034187436104 -0.060254260897636 0.003921568859369
3.461909770965576 0.187368214130402 -0.098942279815674 0.000000000000000
10.340716361999512 0.566798746585846 -0.059910666197538 0.000000000000000
1.557733774185181 0.229206502437592 -0.061393756419420 0.003921568859369
11.335203170776367 1.137928605079651 -0.000197293498786 0.003921568859369
2.882391452789307 0.146082624793053 0.114481106400490 0.000000000000000
8.940989494323730 1.336418867111206 -0.365626335144043 0.000000000000000
8.533458709716797 0.439156621694565 1.544584274291992 0.000000000000000
7.159143924713135 0.342964202165604 0.123702175915241 0.000000000000000
16.986698150634766 0.818033754825592 0.689788520336151 0.003921568859369
9.318901062011719 0.901823878288269 1.140510916709900 0.000000000000000
5.262522697448730 0.745272159576416 -0.091719985008240 0.000000000000000
13.243906021118164 1.890793442726135 0.386986166238785 0.000000000000000
6.931798458099365 0.284040898084641 0.560303330421448 0.000000000000000
2.205200672149658 0.081140793859959 0.086802266538143 0.000000000000000
9.123882293701172 0.343035787343979 0.739315211772919 0.000000000000000
15.092359542846680 1.253012657165527 -0.000181581533980 0.000000000000000
9.101117134094238 0.310614705085754 0.737365901470184 0.000000000000000
9.317994117736816 1.163386583328247 0.270644187927246 0.000000000000000
7.470351696014404 0.930662095546722 -0.303583860397339 0.000000000000000
8.622774124145508 0.235762819647789 1.557504892349243 0.000000000000000
7.624310970306396 0.181910783052444 1.375264406204224 0.000000000000000
16.899772644042969 1.167219519615173 4.516729354858398 0.003921568859369
7.617750167846680 0.496618777513504 0.439587205648422 0.000000000000000
15.285772323608398 1.750503897666931 -0.623742878437042 0.000000000000000
16.198823928833008 0.272814035415649 2.938706159591675 0.003921568859369
3.083551406860352 0.198034614324570 -0.070153161883354 0.000000000000000
11.990903854370117 1.331276893615723 -0.209394738078117 0.000000000000000
8.128973960876465 0.503457427024841 0.187421157956123 0.000000000000000
8.022051811218262 0.887783467769623 0.232268646359444 0.000000000000000
16.408143997192383 1.021205782890320 2.008239984512329 0.003921568859369
14.670745849609375 0.912849664688110 3.916281700134277 0.000000000000000
11.774527549743652 0.690344274044037 -0.000165000019479 0.003921568859369
13.572120666503906 0.136313259601593 0.235389381647110 0.000000000000000
8.521146774291992 0.883958041667938 0.246702402830124 0.000000000000000
16.350214004516602 0.903476417064667 0.948676526546478 0.000000000000000
9.930475234985352 0.065294288098812 0.401109963655472 0.000000000000000
8.223580360412598 0.852729737758636 -0.333690732717514 0.000000000000000
3.520786285400391 0.348282754421234 -0.060508564114571 0.000000000000000
5.196672916412354 0.016245305538177 -0.148963168263435 0.000000000000000
8.809113502502441 -0.399301886558533 0.101645097136497 0.000000000000000
14.351949691772461 1.444098114967346 0.417151987552643 0.000000000000000
13.816370010375977 0.043179009109735 2.503924846649170 0.000000000000000
15.132987022399902 1.469974398612976 -0.264185696840286 0.000000000000000
11.851762771606445 -0.579905867576599 -0.137180373072624 0.000000000000000
19.351026535034180 1.881937980651855 0.563173949718475 0.003921568859369
1.758322358131409 0.075901672244072 0.097500026226044 0.003921568859369
4.467578887939453 0.197967305779457 1.175908207893372 0.000000000000000
6.670871734619141 0.597336292266846 -0.115662626922131 0.000000000000000
11.954039573669434 1.076007485389709 0.069065243005753 0.000000000000000
14.372294425964355 -0.105032734572887 0.249389141798019 0.000000000000000
9.394880294799805 -0.068249583244324 0.379303276538849 0.000000000000000
5.035362243652344 0.431739836931229 -0.086963921785355 0.000000000000000
17.102651596069336 -0.184715986251831 -0.495360285043716 0.000000000000000
7.973643302917480 0.687646448612213 0.230315670371056 0.000000000000000
9.412481307983398 -0.100782409310341 1.701049923896790 0.000000000000000
9.616064071655273 -0.136357769370079 -0.055441096425056 0.000000000000000
8.066034317016602 0.666770458221436 0.232621476054192 0.000000000000000
7.328629493713379 0.250290662050247 0.421457767486572 0.000000000000000
17.401052474975586 -0.248165011405945 0.705216884613037 0.003921568859369
2.792322635650635 0.093795545399189 0.723469734191895 0.000000000000000
9.375627517700195 -0.162072747945786 -0.054044891148806 0.000000000000000
4.529823303222656 0.139709219336510 0.103110410273075 0.000000000000000
10.103310585021973 0.314577877521515 0.583102166652679 0.000000000000000
9.081914901733398 -0.156814068555832 0.733816862106323 0.000000000000000
2.826116561889648 0.220243945717812 -0.111906990408897 0.000000000000000
16.093347549438477 -0.338425636291504 -0.093009829521179 0.000000000000000
9.278984069824219 0.221331641077995 0.534968435764313 0.000000000000000
8.491683959960938 0.202486991882324 1.031354069709778 0.000000000000000
12.360195159912109 -0.342886567115784 -0.071355655789375 0.000000000000000
16.793043136596680 0.349358379840851 0.388592481613159 0.000000000000000
5.574509143829346 -0.152872219681740 0.223275959491730 0.000000000000000
6.531435966491699 0.135117322206497 0.790530741214752 0.000000000000000
11.618238449096680 0.763258278369904 -0.201808497309685 0.000000000000000
7.761177539825439 0.508055925369263 0.223448708653450 0.000000000000000
11.529978752136230 -0.361521989107132 0.466142535209656 0.000000000000000
6.500128746032715 0.110971793532372 0.786634027957916 0.000000000000000
10.735200881958008 -0.373486965894699 0.869254827499390 0.000000000000000
6.291734695434570 0.367356598377228 0.180516958236694 0.000000000000000
15.700046539306641 -0.602314531803131 2.847698450088501 0.000000000000000
12.769241333007812 0.708454847335815 0.073608934879303 0.000000000000000
12.951717376708984 0.718688666820526 0.374623626470566 0.000000000000000
12.350261688232422 -0.558890223503113 0.499884605407715 0.000000000000000
2.108792543411255 0.105689778923988 -0.082425452768803 0.000000000000000
19.125917434692383 -0.934860110282898 -0.110632278025150 0.000000000000000
10.822300910949707 -0.001966850832105 0.249564066529274 0.000000000000000
2.153059482574463 0.100790366530418 -0.084215439856052 0.000000000000000
24.724880218505859 -1.209369659423828 4.496632575988770 0.003921568859369
8.950812339782715 -0.001587109989487 -0.206225767731667 0.000000000000000
11.490046501159668 -0.041982498019934 -0.265283495187759 0.000000000000000
11.292272567749023 -0.076292760670185 0.260270714759827 0.000000000000000
11.356867790222168 0.473493009805679 0.327614575624466 0.000000000000000
18.182096481323242 0.690702438354492 0.105011112987995 0.000000000000000
3.746373414993286 -0.038413416594267 0.084592387080193 0.000000000000000
7.402263641357422 -0.434707492589951 0.596814513206482 0.000000000000000
10.755416870117188 0.373665094375610 -0.186210811138153 0.000000000000000
4.675380706787109 -0.062705896794796 0.266112238168716 0.000000000000000
16.053215026855469 0.503468990325928 -0.278671681880951 0.000000000000000
7.112057209014893 -0.464162826538086 -0.040896698832512 0.000000000000000
9.941871643066406 -0.689741551876068 0.172143593430519 0.000000000000000
15.301551818847656 -1.065775036811829 0.620816230773926 0.000000000000000
11.348144531250000 -0.276953727006912 -0.000057664306951 0.003921568859369
7.760440826416016 -0.563507497310638 0.312743902206421 0.000000000000000
16.072284698486328 -1.175523877143860 2.919545173645020 0.003921568859369
10.067845344543457 0.210345685482025 -0.174115091562271 0.000000000000000
7.555737972259521 0.157442256808281 -0.303844720125198 0.000000000000000
11.264183998107910 0.194605752825737 -0.194972649216652 0.000000000000000
10.492798805236816 -0.326516509056091 0.605284512042999 0.000000000000000
10.619509696960449 -0.330643147230148 -0.244878292083740 0.000000000000000
15.686128616333008 -0.541916966438293 0.000031893810956 0.000000000000000
13.940716743469238 0.144508197903633 -0.241638153791428 0.000000000000000
8.987324714660645 0.093063607811928 0.258414149284363 0.000000000000000
8.326101303100586 0.060287389904261 -0.143673047423363 0.000000000000000
4.737067699432373 -0.436099290847778 -0.135549649596214 0.000000000000000
17.668930053710938 -0.792054951190948 0.409245580434799 0.000000000000000
16.028963088989258 -0.772616207599640 4.269557952880859 0.003921568859369
16.809707641601562 -1.631246089935303 3.058837175369263 0.003921568859369
11.476120948791504 -0.037915129214525 -0.198433890938759 0.000000000000000
9.396410942077637 -0.940995395183563 1.701163530349731 0.000000000000000
6.880733966827393 -0.044746138155460 -0.118276409804821 0.000000000000000
7.757119655609131 -0.424482285976410 0.445728808641434 0.000000000000000
1.944356560707092 -0.011616036295891 -0.074799180030823 0.003921568859369
11.475574493408203 -0.117236688733101 -0.198419943451881 0.000000000000000
8.607177734375000 -0.920878887176514 1.557655453681946 0.000000000000000
4.772770404815674 -0.063123941421509 -0.081508740782738 0.000000000000000
16.126527786254883 -1.002383828163147 0.000120546290418 0.003921568859369
9.720943450927734 -0.130810618400574 0.279508799314499 0.000000000000000
10.814676284790039 -0.185097649693489 -0.186897322535515 0.000000000000000
13.873143196105957 -0.283727258443832 0.400485664606094 0.000000000000000
17.967573165893555 -2.122752189636230 3.278485059738159 0.003921568859369
13.308414459228516 -0.320439070463181 0.384078294038773 0.000000000000000
11.159614562988281 -1.354120373725891 2.029143571853638 0.000000000000000
2.186667680740356 -0.172807961702347 -0.000192185048945 0.000000000000000
9.358312606811523 -0.772631943225861 2.485697507858276 0.000000000000000
11.386916160583496 -1.499983310699463 2.073655366897583 0.000000000000000
10.757731437683105 -0.403405785560608 0.309939682483673 0.000000000000000
18.773702621459961 -2.680990934371948 3.435759782791138 0.003921568859369
3.496710777282715 -0.507792770862579 -0.099386088550091 0.000000000000000
10.093355178833008 -1.502111196517944 1.838319897651672 0.000000000000000
12.133584976196289 -0.707489073276520 -0.209965437650681 0.000000000000000
16.295726776123047 -1.748473525047302 1.997470974922180 0.003921568859369
4.699561119079590 -0.771046042442322 -0.027030246332288 0.000000000000000
14.310300827026367 -1.734029531478882 3.829734086990356 0.000000000000000
4.651032447814941 -0.344771564006805 0.026240706443787 0.000000000000000
10.055553436279297 -1.779535412788391 1.839807510375977 0.000000000000000
9.234839439392090 -1.207293868064880 2.459902286529541 0.000000000000000
27.129270553588867 -6.412856101989746 0.324437618255615 0.003921568859369
11.990738868713379 -1.615289926528931 3.206459999084473 0.000000000000000
29.129804611206055 -7.533162593841553 -0.347084909677505 0.003921568859369
28.909950256347656 -7.583360671997070 -0.344749391078949 0.003921568859369
9.166219711303711 -1.484990835189819 2.452712059020996 0.000000000000000
7.769805431365967 -1.285395145416260 2.074774980545044 0.000000000000000
28.066652297973633 -7.669553756713867 -0.335523664951324 0.003921568859369
28.886161804199219 -7.999906063079834 -0.345412164926529 0.003921568859369
27.242624282836914 -7.639299392700195 -0.325960904359818 0.003921568859369
26.935045242309570 -7.653626441955566 -0.322563201189041 0.003921568859369
15.644806861877441 -2.995794296264648 4.230728149414062 0.003921568859369
27.877305984497070 -5.566932678222656 7.580609321594238 0.003921568859369
27.779241561889648 -7.574986457824707 -0.831691861152649 0.003921568859369
25.568973541259766 -8.323291778564453 -0.309259176254272 0.003921568859369
28.356481552124023 -8.265117645263672 -0.853160262107849 0.003921568859369
25.991933822631836 -7.571896553039551 -0.154583290219307 0.003921568859369
28.281461715698242 -8.349852561950684 -0.851744771003723 0.003921568859369
25.849510192871094 -9.015259742736816 -0.314769476652145 0.003921568859369
27.286716461181641 -10.045684814453125 -0.334029167890549 0.003921568859369
24.775516510009766 -9.213257789611816 -0.303506851196289 0.003921568859369
25.558731079101562 -8.213863372802734 -0.774538457393646 0.003921568859369
24.761909484863281 -9.306184768676758 -0.303716152906418 0.003921568859369
25.242666244506836 -8.305447578430176 -0.766607940196991 0.003921568859369
26.306905746459961 -8.656508445739746 5.023198127746582 0.003921568859369
27.709608078002930 -7.744752883911133 -0.663694798946381 0.003921568859369
25.250364303588867 -8.595637321472168 -0.769442617893219 0.003921568859369
25.301059722900391 -8.706256866455078 -0.771857023239136 0.003921568859369
25.168008804321289 -10.154738426208496 -0.311501055955887 0.003921568859369
24.727304458618164 -10.080760002136230 -0.306452155113220 0.003921568859369
25.757957458496094 -9.068724632263184 4.952981472015381 0.003921568859369
25.406211853027344 -9.134231567382812 4.895026206970215 0.003921568859369
25.377859115600586 -9.223597526550293 4.895767211914062 0.003921568859369
25.231319427490234 -9.365342140197754 -0.775841891765594 0.003921568859369
25.677654266357422 -8.332749366760254 -0.621941208839417 0.003921568859369
24.682981491088867 -9.453856468200684 -0.150032639503479 0.003921568859369
27.098157882690430 -10.600722312927246 5.278587818145752 0.003921568859369
27.035388946533203 -10.684450149536133 5.273587226867676 0.003921568859369
25.244792938232422 -8.580498695373535 -0.614158570766449 0.003921568859369
15.834877967834473 -6.415026664733887 3.085449695587158 0.003921568859369
26.811908721923828 -11.029985427856445 5.258073806762695 0.003921568859369
16.758266448974609 -7.066007614135742 1.472689986228943 0.003921568859369
16.416151046752930 -6.983808994293213 1.444344758987427 0.000000000000000
17.224279403686523 -7.825902938842773 0.765798807144165 0.003921568859369
25.019212722778320 -10.167730331420898 0.627362430095673 0.003921568859369
25.024211883544922 -10.271132469177246 0.628417491912842 0.003921568859369
24.396070480346680 -10.109545707702637 3.223411083221436 0.003921568859369
17.998203277587891 -8.865356445312500 0.812862634658813 0.003921568859369
17.385032653808594 -8.634963035583496 0.786238789558411 0.003921568859369
16.761751174926758 -8.534714698791504 1.523168087005615 0.000000000000000
22.981304168701172 -13.284631729125977 -0.302668988704681 0.003921568859369
22.814115524291992 -13.293083190917969 -0.301040172576904 0.003921568859369
22.607238769531250 -13.171239852905273 0.306767165660858 0.003921568859369
23.738971710205078 -10.999869346618652 3.193134069442749 0.003921568859369
23.890935897827148 -14.267624855041504 0.326516509056091 0.003921568859369
17.733661651611328 -9.498010635375977 0.815149724483490 0.003921568859369
23.443532943725586 -11.159740447998047 3.168804883956909 0.003921568859369
19.119148254394531 -10.334235191345215 1.762681007385254 0.003921568859369
18.634046554565430 -10.236183166503906 3.846729993820190 0.003921568859369
15.189265251159668 -8.589678764343262 0.706000268459320 0.003921568859369
17.026151657104492 -9.643455505371094 1.585188031196594 0.003921568859369
22.283910751342773 -14.245839118957520 0.310590714216232 0.003921568859369
15.140632629394531 -8.840776443481445 1.418891906738281 0.003921568859369
15.173605918884277 -8.930431365966797 3.179119110107422 0.003921568859369
15.375688552856445 -9.123623847961426 1.447306990623474 0.000000000000000
15.292618751525879 -9.145462036132812 1.442430615425110 0.000000000000000
15.474866867065430 -9.329061508178711 1.463000297546387 0.000000000000000
22.926145553588867 -12.703371047973633 3.198361396789551 0.003921568859369
23.156330108642578 -14.802944183349609 -0.789141356945038 0.003921568859369
22.256303787231445 -16.025934219360352 0.322703719139099 0.003921568859369
21.971899032592773 -14.247861862182617 2.127238512039185 0.003921568859369
15.549382209777832 -10.115950584411621 0.751384973526001 0.003921568859369
15.441371917724609 -10.044377326965332 1.491639733314514 0.000000000000000
22.622917175292969 -14.899792671203613 -0.151171550154686 0.003921568859369
23.422752380371094 -14.066316604614258 3.335828542709351 0.003921568859369
16.948966979980469 -10.210452079772949 0.003186914138496 0.003921568859369
18.536108016967773 -12.445945739746094 4.039065837860107 0.003921568859369
18.948869705200195 -10.382204055786133 0.626035571098328 0.003921568859369
18.490312576293945 -10.211220741271973 0.611891806125641 0.003921568859369
17.025453567504883 -11.677315711975098 3.732420921325684 0.003921568859369
23.526229858398438 -16.322618484497070 -0.159904882311821 0.003921568859369
23.469106674194336 -16.403810501098633 -0.159876987338066 0.003921568859369
16.888515472412109 -10.656921386718750 5.300850868225098 0.003921568859369
14.198561668395996 -10.077337265014648 1.408767819404602 0.003921568859369
15.271781921386719 -9.770635604858398 4.807734966278076 0.003921568859369
14.922056198120117 -10.678096771240234 0.743064701557159 0.003921568859369
23.053041458129883 -15.173113822937012 0.642575562000275 0.003921568859369
21.814386367797852 -14.451241493225098 0.608533561229706 0.003921568859369
15.356090545654297 -10.121529579162598 4.875982761383057 0.003921568859369
15.679084777832031 -10.417798995971680 0.436292618513107 0.000000000000000
23.805295944213867 -15.905391693115234 -0.656477272510529 0.003921568859369
14.066616058349609 -10.417901039123535 1.415857791900635 0.000000000000000
9.784865379333496 -6.531744956970215 3.099240779876709 0.003921568859369
15.562170982360840 -10.569405555725098 2.287900209426880 0.003921568859369
9.733382225036621 -6.545240402221680 3.089928388595581 0.000000000000000
15.865820884704590 -11.945806503295898 3.588800430297852 0.003921568859369
15.357399940490723 -11.637445449829102 0.780489504337311 0.003921568859369
16.134632110595703 -12.235888481140137 1.640729665756226 0.003921568859369
15.361536979675293 -10.504135131835938 4.935127258300781 0.003921568859369
21.443397521972656 -14.844111442565918 0.606718361377716 0.003921568859369
14.551588058471680 -11.096204757690430 1.481185793876648 0.000000000000000
16.024721145629883 -11.134423255920410 2.374380350112915 0.003921568859369
15.977556228637695 -12.295233726501465 1.633591055870056 0.003921568859369
15.856964111328125 -12.377492904663086 1.630040168762207 0.000000000000000
15.735073089599609 -12.280117034912109 3.607572317123413 0.003921568859369
22.168146133422852 -15.934982299804688 0.635572969913483 0.003921568859369
15.170289039611816 -10.847018241882324 1.077601313591003 0.003921568859369
15.338397979736328 -12.138792037963867 1.584719419479370 0.000000000000000
16.096002578735352 -12.830545425415039 3.720197200775146 0.003921568859369
15.715425491333008 -10.431379318237305 0.545548856258392 0.003921568859369
6.291102409362793 -4.991619110107422 1.428842782974243 0.000000000000000
18.126413345336914 -12.140640258789062 0.632104933261871 0.003921568859369
16.514606475830078 -12.245694160461426 5.457297325134277 0.003921568859369
19.206199645996094 -15.782689094543457 4.501083374023438 0.003921568859369
18.159797668457031 -12.254886627197266 0.634820878505707 0.003921568859369
15.043112754821777 -12.491461753845215 0.792152464389801 0.003921568859369
15.136415481567383 -11.372031211853027 2.302606582641602 0.003921568859369
6.633988380432129 -5.385121822357178 1.522965192794800 0.000000000000000
15.958936691284180 -12.092730522155762 1.157592535018921 0.003921568859369
14.893751144409180 -12.457476615905762 0.786606550216675 0.003921568859369
16.398578643798828 -12.429848670959473 5.462540149688721 0.003921568859369
6.856904506683350 -5.615054607391357 1.581158161163330 0.000000000000000
15.095208168029785 -11.505967140197754 1.096702218055725 0.000000000000000
15.129193305969238 -11.614248275756836 5.059550285339355 0.003921568859369
9.943615913391113 -7.620906352996826 3.304466724395752 0.000000000000000
17.483917236328125 -13.649486541748047 2.702615976333618 0.003921568859369
9.061227798461914 -7.018168926239014 3.016331434249878 0.000000000000000
14.516717910766602 -11.617691040039062 1.073767066001892 0.000000000000000
7.133669853210449 -5.798246860504150 2.409282445907593 0.000000000000000
10.342391967773438 -9.390590667724609 2.513572692871094 0.000000000000000
10.725086212158203 -9.954133033752441 2.635014057159424 0.000000000000000
15.565142631530762 -12.195847511291504 0.572176158428192 0.003921568859369
10.520048141479492 -9.022534370422363 1.678075194358826 0.000000000000000
15.298083305358887 -12.068785667419434 0.563763797283173 0.003921568859369
7.364995002746582 -7.031145572662354 1.821784377098083 0.000000000000000
2.295399665832520 -1.824560165405273 0.728743851184845 0.000000000000000
15.031908988952637 -12.367806434631348 0.563414692878723 0.003921568859369
6.054068088531494 -5.795730590820312 2.191714048385620 0.000000000000000
18.414512634277344 -22.811391830444336 0.345358878374100 0.003921568859369
19.597124099731445 -22.487142562866211 2.425168037414551 0.003921568859369
18.559139251708984 -23.673538208007812 -0.341540306806564 0.003921568859369
19.469348907470703 -22.648395538330078 2.428488254547119 0.003921568859369
18.352941513061523 -23.911369323730469 -0.342187464237213 0.003921568859369
18.910570144653320 -23.097558975219727 2.427146196365356 0.003921568859369
3.973436832427979 -5.069386005401611 1.673648238182068 0.000000000000000
10.175633430480957 -13.904489517211914 4.568750381469727 0.003921568859369
2.269112110137939 -3.489366769790649 -0.046227272599936 0.000000000000000
5.138352870941162 -8.206692695617676 -0.496670693159103 0.000000000000000
2.283934593200684 -3.918025493621826 0.356625914573669 0.000000000000000
5.555772304534912 -11.756642341613770 3.444759130477905 0.000000000000000
2.343331336975098 -4.496667385101318 0.602871894836426 0.000000000000000
4.613311290740967 -10.063570022583008 2.926586151123047 0.000000000000000
2.966220140457153 -6.192001342773438 1.798047900199890 0.000000000000000
4.721013069152832 -10.520826339721680 3.050967216491699 0.000000000000000
3.301351308822632 -7.140939712524414 0.001095344778150 0.000000000000000
2.897822380065918 -6.402831077575684 1.843688845634460 0.000000000000000
4.489909172058105 -10.583907127380371 3.043783903121948 0.000000000000000
2.830397367477417 -8.998412132263184 -0.541164159774780 0.000000000000000
3.451336860656738 -7.261308670043945 0.230285108089447 0.000000000000000
1.796479463577271 -5.437211513519287 -0.326278984546661 0.000000000000000
4.130492687225342 -10.256315231323242 2.926674127578735 0.000000000000000
2.843575477600098 -7.995951175689697 1.526069164276123 0.000000000000000
3.470031261444092 -8.920397758483887 2.529798984527588 0.000000000000000
3.204622030258179 -9.919821739196777 1.881854772567749 0.000000000000000
5.174633979797363 -17.128005981445312 3.246605157852173 0.003921568859369
4.863628864288330 -13.720705032348633 3.868796348571777 0.000000000000000
4.280040264129639 -14.263027191162109 2.698227405548096 0.000000000000000
2.501194477081299 -6.669396400451660 -0.161692872643471 0.000000000000000
2.550877094268799 -8.460629463195801 -0.455807268619537 0.000000000000000
3.473704338073730 -12.293505668640137 2.313100099563599 0.000000000000000
2.013655662536621 -5.511754512786865 1.539056777954102 0.000000000000000
3.086997509002686 -11.743647575378418 0.985860466957092 0.000000000000000
4.845582962036133 -19.500347137451172 3.651338815689087 0.003921568859369
1.840373158454895 -5.146082878112793 1.431245207786560 0.000000000000000
1.771285891532898 -6.035276889801025 1.128705859184265 0.000000000000000
1.739241957664490 -5.989973545074463 1.119368791580200 0.000000000000000
1.832162022590637 -6.859611511230469 0.572953760623932 0.000000000000000
3.421756267547607 -14.871984481811523 2.770315647125244 0.000000000000000
2.969090461730957 -12.860515594482422 -0.073118686676025 0.000000000000000
2.894502639770508 -12.954427719116211 2.408115386962891 0.000000000000000
2.197283744812012 -9.609655380249023 -0.282375961542130 0.000000000000000
2.521745204925537 -11.620064735412598 -0.616139769554138 0.000000000000000
1.794616460800171 -10.495900154113770 -0.367226004600525 0.000000000000000
1.945327043533325 -8.406006813049316 1.559265494346619 0.000000000000000
2.578213691711426 -12.174179077148438 2.257180213928223 0.000000000000000
2.786207914352417 -10.699933052062988 0.640416681766510 0.000000000000000
1.826794147491455 -6.333141326904297 -0.150041550397873 0.000000000000000
1.146425843238831 -6.164603710174561 -0.071287900209427 0.000000000000000
2.282291173934937 -8.554719924926758 1.076493501663208 0.000000000000000
2.119703769683838 -7.799851894378662 2.140244722366333 0.000000000000000
0.888853788375854 -2.133033275604248 0.584484398365021 0.000000000000000
0.850233793258667 -2.621213674545288 -0.015694748610258 0.000000000000000
2.283301115036011 -7.098143100738525 0.214593723416328 0.000000000000000
1.696449279785156 -8.164942741394043 -0.046436361968517 0.000000000000000
1.992655277252197 -7.598670482635498 0.453175067901611 0.000000000000000
3.427503824234009 -12.000701904296875 -0.213303133845329 0.000000000000000
1.387702703475952 -10.115065574645996 -0.352477729320526 0.000000000000000
2.995397090911865 -10.709794998168945 0.322648435831070 0.000000000000000
2.671820640563965 -16.271177291870117 1.345203280448914 0.000000000000000
1.480782032012939 -5.757550239562988 0.000716627808288 0.000000000000000
1.879959344863892 -11.353796005249023 0.202483296394348 0.000000000000000
1.122290134429932 -5.354708194732666 0.220634728670120 0.000000000000000
1.690475225448608 -7.059054374694824 -0.165695726871490 0.000000000000000
2.108031988143921 -13.534445762634277 2.490209341049194 0.000000000000000
1.422442913055420 -8.203771591186523 -0.046396285295486 0.000000000000000
1.787781953811646 -7.943147659301758 -0.186049997806549 0.000000000000000
1.391118884086609 -8.171927452087402 -0.237844288349152 0.000000000000000
1.205319643020630 -6.564455986022949 0.270398914813995 0.000000000000000
2.285997390747070 -29.261909484863281 0.350565850734711 0.003921568859369
1.228935718536377 -4.944192409515381 0.000475850189105 0.000000000000000
2.209203720092773 -29.695369720458984 0.355726391077042 0.003921568859369
0.795825242996216 -3.222475767135620 -0.170044660568237 0.000000000000000
2.347998142242432 -12.008290290832520 1.495962738990784 0.000000000000000
1.091324567794800 -6.153497695922852 -0.179173886775970 0.000000000000000
3.559032678604126 -29.678541183471680 -0.164394855499268 0.003921568859369
2.978449583053589 -24.131702423095703 4.431817054748535 0.003921568859369
1.376304149627686 -6.159945487976074 0.000889829825610 0.000000000000000
1.885799884796143 -29.148881912231445 -0.330545455217361 0.003921568859369
1.780576705932617 -29.077779769897461 -0.329660922288895 0.003921568859369
2.577020168304443 -10.900587081909180 0.325563281774521 0.000000000000000
1.253259420394897 -8.745633125305176 -0.458506703376770 0.000000000000000
1.849193811416626 -7.295929431915283 -0.301543474197388 0.000000000000000
3.054407119750977 -29.651855468750000 -0.857185661792755 0.003921568859369
1.709701061248779 -9.140224456787109 0.001873114146292 0.003921568859369
1.569977760314941 -28.890476226806641 -0.327396303415298 0.003921568859369
2.745556831359863 -12.223082542419434 -0.503967523574829 0.000000000000000
1.871732711791992 -16.143596649169922 2.959706306457520 0.003921568859369
0.967348098754883 -3.929878711700439 0.231057345867157 0.000000000000000
1.701159238815308 -6.912837982177734 -0.285202771425247 0.000000000000000
1.273084878921509 -29.104463577270508 -0.329618155956268 0.003921568859369
1.605397939682007 -6.653756618499756 -0.274202466011047 0.000000000000000
1.924701452255249 -12.298964500427246 0.291265606880188 0.000000000000000
1.507146120071411 -6.206710815429688 0.184108108282089 0.000000000000000
2.385160446166992 -11.641417503356934 -0.478203386068344 0.000000000000000
1.646087646484375 -10.263500213623047 2.771668672561646 0.000000000000000
2.262783527374268 -28.640548706054688 2.351924419403076 0.003921568859369
1.559360265731812 -6.957837581634521 -0.121901817619801 0.000000000000000
0.804683923721313 -3.203431129455566 -0.150301814079285 0.000000000000000
2.183887243270874 -29.000862121582031 2.381043195724487 0.003921568859369
1.310155391693115 -8.001384735107422 0.001516472897492 0.003921568859369
3.463781356811523 -28.428203582763672 0.673767745494843 0.003921568859369
1.322730422019958 -8.415935516357422 0.198566272854805 0.000000000000000
0.570319950580597 -28.603485107421875 0.342382162809372 0.003921568859369
1.917771100997925 -29.589725494384766 -0.162826597690582 0.003921568859369
0.470373690128326 -27.935718536376953 0.334384173154831 0.003921568859369
2.085338354110718 -10.949934959411621 0.324615329504013 0.000000000000000
1.164703845977783 -4.722514152526855 -0.194243118166924 0.000000000000000
1.805637955665588 -29.272769927978516 2.401721715927124 0.003921568859369
0.281769245862961 -27.675363540649414 -0.313140451908112 0.003921568859369
1.700576186180115 -29.209550857543945 2.396192789077759 0.003921568859369
0.185445100069046 -27.646553039550781 -0.312800049781799 0.003921568859369
1.559851408004761 -28.213788986206055 2.314170122146606 0.003921568859369
0.088660746812820 -27.665403366088867 -0.313000679016113 0.003921568859369
0.731422483921051 -3.139065265655518 0.844648480415344 0.000000000000000
-0.008189588785172 -27.679912567138672 -0.313156336545944 0.003921568859369
0.155030399560928 -18.165758132934570 0.217130944132805 0.003921568859369
1.301023125648499 -6.588124752044678 -0.114959366619587 0.000000000000000
-0.103413164615631 -27.610105514526367 -0.312365800142288 0.003921568859369
-0.118672549724579 -28.357652664184570 0.339676648378372 0.003921568859369
1.296188116073608 -29.351448059082031 2.406765460968018 0.003921568859369
1.895418882369995 -11.605887413024902 0.070677600800991 0.000000000000000
0.954835534095764 -27.498046875000000 -0.791611611843109 0.003921568859369
1.548894643783569 -9.513335227966309 0.280666798353195 0.000000000000000
0.795415282249451 -28.640098571777344 -0.824317634105682 0.003921568859369
2.240122079849243 -29.342336654663086 1.721246123313904 0.003921568859369
0.936774134635925 -7.644863128662109 2.054404258728027 0.000000000000000
0.696848571300507 -29.272237777709961 5.347580909729004 0.003921568859369
1.000598907470703 -10.585727691650391 2.843326568603516 0.000000000000000
1.033337235450745 -12.057765960693359 3.238305330276489 0.000000000000000
1.134882330894470 -15.491129875183105 4.159915447235107 0.003921568859369
0.950777769088745 -12.157944679260254 3.264246940612793 0.000000000000000
0.239060029387474 -17.847961425781250 -0.930120110511780 0.003921568859369
0.399286657571793 -4.577210426330566 0.835598230361938 0.000000000000000
-0.503803968429565 -28.791852951049805 2.361804485321045 0.003921568859369
2.000932455062866 -28.428833007812500 0.174347087740898 0.003921568859369
0.346287310123444 -14.723925590515137 3.950703620910645 0.000000000000000
1.521445631980896 -29.066696166992188 0.178301855921745 0.003921568859369
0.288426995277405 -10.523043632507324 2.823788166046143 0.000000000000000
-3.248346567153931 -29.027076721191406 -0.330125778913498 0.003921568859369
-0.428029209375381 -6.795421123504639 -0.398052126169205 0.000000000000000
-0.421759158372879 -6.577064990997314 -0.618727207183838 0.000000000000000
-0.559893250465393 -19.196502685546875 0.006156140007079 0.003921568859369
-0.548328757286072 -17.927598953247070 4.818678379058838 0.003921568859369
-0.380823552608490 -7.993510723114014 0.329674690961838 0.003921568859369
-0.407363772392273 -7.978447437286377 0.329188764095306 0.003921568859369
-2.329202890396118 -16.519750595092773 -0.970570862293243 0.003921568859369
-0.316212356090546 -6.765798568725586 0.279205858707428 0.003921568859369
-0.343614697456360 -6.802685260772705 0.280856430530548 0.000000000000000
-2.451433658599854 -16.555091857910156 -0.973775565624237 0.003921568859369
-0.367364525794983 -6.799671173095703 0.280862659215927 0.000000000000000
-0.395293772220612 -6.828271865844727 0.282184660434723 0.003921568859369
-2.917493581771851 -18.784479141235352 -0.660128653049469 0.003921568859369
-2.729472160339355 -17.408611297607422 -0.612262189388275 0.003921568859369
-0.422794938087463 -6.675910949707031 -0.351953893899918 0.000000000000000
-2.806606531143188 -17.483612060546875 -0.615281283855438 0.003921568859369
-2.721704721450806 -16.716049194335938 -0.985724449157715 0.003921568859369
-2.819098949432373 -17.220729827880859 -0.606441676616669 0.003921568859369
-2.784666776657104 -16.728181838989258 -0.987095654010773 0.003921568859369
-2.977748632431030 -17.389152526855469 -0.613169789314270 0.003921568859369
-2.873420715332031 -16.341438293457031 -0.966258168220520 0.003921568859369
-2.979316234588623 -16.852201461791992 -0.595056474208832 0.003921568859369
-2.915601253509521 -16.259170532226562 -0.962089478969574 0.003921568859369
-0.570320606231689 -6.776852130889893 0.281230062246323 0.000000000000000
-3.207441806793213 -17.641725540161133 -0.623303830623627 0.003921568859369
-2.373451232910156 -17.630626678466797 -0.513872325420380 0.000000000000000
-0.591502904891968 -6.765316963195801 0.280906915664673 0.000000000000000
-0.615780353546143 -6.765343189239502 0.281077563762665 0.000000000000000
-3.302729606628418 -17.502693176269531 -0.619277060031891 0.003921568859369
-2.492125511169434 -17.566133499145508 -0.512578368186951 0.003921568859369
-0.640578866004944 -6.761141300201416 0.281083971261978 0.000000000000000
-3.180496215820312 -16.649532318115234 -0.589623570442200 0.003921568859369
-2.422338008880615 -16.823463439941406 -0.491236686706543 0.003921568859369
-0.663689970970154 -6.761197090148926 0.281254261732101 0.000000000000000
-2.328212738037109 -16.284317016601562 -0.860844850540161 0.003921568859369
-0.528792023658752 -8.143349647521973 -0.882631897926331 0.000000000000000
-0.689174175262451 -6.760754108428955 0.281425118446350 0.000000000000000
-0.525396227836609 -8.117995262145996 -0.379389852285385 0.003921568859369
-0.714207768440247 -6.764361858367920 0.281760185956955 0.000000000000000
-2.433227539062500 -16.200653076171875 -0.857492923736572 0.003921568859369
-0.308733582496643 -6.110415458679199 -0.663275420665741 0.000000000000000
-0.736188888549805 -6.764386177062988 0.281930118799210 0.000000000000000
-3.398556709289551 -16.562625885009766 -0.588329672813416 0.003921568859369
-2.756570339202881 -17.307210922241211 -0.506539702415466 0.003921568859369
-0.760982751846313 -6.759743213653564 0.281936347484589 0.000000000000000
-3.507818222045898 -16.750284194946289 -0.595483064651489 0.003921568859369
-2.864693164825439 -17.526720046997070 -0.513287782669067 0.000000000000000
-0.788031101226807 -6.766780853271484 0.282436162233353 0.000000000000000
-3.664977073669434 -17.127647399902344 -0.609390020370483 0.003921568859369
-0.799715876579285 -6.766512870788574 0.282592922449112 0.000000000000000
-0.825687527656555 -6.773591518402100 0.283092767000198 0.000000000000000
-2.903968811035156 -17.170120239257812 -0.911589562892914 0.003921568859369
-0.855688095092773 -6.787921905517578 0.283922344446182 0.000000000000000
-2.965092658996582 -17.133331298828125 -0.910326957702637 0.003921568859369
-0.873772263526917 -6.767885208129883 0.283269524574280 0.000000000000000
-0.899869441986084 -6.774680137634277 0.283769279718399 0.000000000000000
-3.071245670318604 -17.074607849121094 -0.908429563045502 0.003921568859369
-0.923022985458374 -6.761583328247070 0.283446401357651 0.000000000000000
-2.948553562164307 -16.198148727416992 -0.862535834312439 0.003921568859369
-1.645295739173889 -8.159914970397949 -0.292613089084625 0.003921568859369
-0.948852419853210 -6.772352218627930 0.284110426902771 0.000000000000000
-3.015876293182373 -16.248971939086914 -0.865843653678894 0.003921568859369
-0.971626758575439 -6.763251304626465 0.283951818943024 0.000000000000000
-3.246412754058838 -17.020378112792969 -0.907554030418396 0.003921568859369
-3.239249229431152 -16.698680877685547 -0.492154389619827 0.000000000000000
-0.999053716659546 -6.769402503967285 0.284451782703400 0.000000000000000
-3.626142024993896 -18.413125991821289 -0.982475399971008 0.003921568859369
-1.025362730026245 -6.775715827941895 0.284951448440552 0.000000000000000
-3.362771034240723 -16.969568252563477 -0.906278252601624 0.003921568859369
-1.047555446624756 -6.774692535400391 0.285121291875839 0.000000000000000
-1.070283770561218 -6.765259265899658 0.284962505102158 0.000000000000000
-3.657122850418091 -17.484762191772461 -0.097880564630032 0.003921568859369
-1.086328983306885 -6.771236419677734 0.285476684570312 0.000000000000000
-2.597521781921387 -16.607458114624023 -0.387393683195114 0.000000000000000
-1.112803459167480 -6.777170658111572 0.285976588726044 0.000000000000000
-2.804808378219604 -17.371738433837891 -0.817856550216675 0.000000000000000
-1.135499477386475 -6.767483234405518 0.285817950963974 0.000000000000000
-2.968456983566284 -17.885389328002930 -0.842544794082642 0.000000000000000
-1.161069035530090 -6.769349575042725 0.286153167486191 0.000000000000000
-1.184696793556213 -6.763373851776123 0.286159068346024 0.000000000000000
-3.080869197845459 -17.169351577758789 -0.811137735843658 0.000000000000000
-4.208166122436523 -18.087692260742188 -0.973086476325989 0.003921568859369
-4.051589012145996 -17.258064270019531 -0.513098716735840 0.000000000000000
-4.103685379028320 -17.454334259033203 -0.098202541470528 0.003921568859369
-3.098444461822510 -16.973621368408203 -0.802458405494690 0.000000000000000
-4.287634849548340 -18.145200729370117 -0.977014541625977 0.003921568859369
-0.562862515449524 -6.587005138397217 0.195855155587196 0.003921568859369
-3.497992753982544 -18.522474288940430 -0.876179337501526 0.000000000000000
-0.587397813796997 -6.599080085754395 0.196333691477776 0.003921568859369
-6.760119438171387 -22.076742172241211 -0.261258900165558 0.003921568859369
-0.610900044441223 -6.590967655181885 0.196222364902496 0.003921568859369
-3.683412313461304 -18.743314743041992 -0.887942850589752 0.000000000000000
-5.058807373046875 -20.193473815917969 1.719091653823853 0.003921568859369
-5.017220497131348 -16.804298400878906 -0.611287713050842 0.003921568859369
-0.633459448814392 -6.591054916381836 0.196346566081047 0.003921568859369
-0.645993530750275 -6.586744785308838 0.196836680173874 0.003921568859369
-1.374419450759888 -6.758892536163330 0.288681447505951 0.000000000000000
-0.670865237712860 -6.586250782012939 0.196961581707001 0.003921568859369
-1.401404619216919 -6.759475708007812 0.289016872644424 0.000000000000000
-5.137004852294922 -16.612760543823242 -0.605173289775848 0.003921568859369
-0.694190442562103 -6.590025901794434 0.197204232215881 0.003921568859369
-1.424938917160034 -6.756806373596191 0.289186775684357 0.000000000000000
-2.735737562179565 -17.411746978759766 -0.714384913444519 0.003921568859369
-5.169852733612061 -16.529586791992188 -0.602826535701752 0.003921568859369
-0.717952072620392 -6.589570999145508 0.197328761219978 0.003921568859369
-1.453058958053589 -6.765201568603516 0.289851814508438 0.000000000000000
-4.392074108123779 -20.294231414794922 -0.963562548160553 0.003921568859369
-2.810843944549561 -17.474746704101562 -0.717423498630524 0.003921568859369
-5.267130374908447 -16.622724533081055 -0.606937766075134 0.003921568859369
-3.320548295974731 -13.078552246093750 2.493318319320679 0.000000000000000
-0.741724193096161 -6.589030742645264 0.197453245520592 0.003921568859369
-1.481260061264038 -6.773484706878662 0.290516853332520 0.000000000000000
-2.187878608703613 -9.131779670715332 0.782128334045410 0.000000000000000
-2.853389978408813 -17.368778228759766 -0.713549017906189 0.003921568859369
-1.804087638854980 -6.576540946960449 -0.079014807939529 0.000000000000000
-0.763944327831268 -6.580563068389893 0.197340846061707 0.003921568859369
-1.503741264343262 -6.762530326843262 0.290356934070587 0.000000000000000
-4.908977985382080 -17.983888626098633 1.543159723281860 0.000000000000000
-5.370935916900635 -16.547838211059570 -0.605678975582123 0.003921568859369
-1.835201025009155 -6.590853691101074 -0.079276718199253 0.000000000000000
-0.786120951175690 -6.572019100189209 0.197228386998177 0.003921568859369
-1.227989673614502 -5.781147003173828 0.248291119933128 0.000000000000000
-4.047373294830322 -18.053550720214844 -0.859544813632965 0.000000000000000
-2.973785161972046 -17.340684890747070 -0.713356494903564 0.003921568859369
-5.424592494964600 -16.515794754028320 -0.605255842208862 0.003921568859369
-1.855455160140991 -6.574976921081543 -0.079183690249920 0.000000000000000
-0.812301099300385 -6.582978725433350 0.197708040475845 0.000000000000000
-1.559233188629150 -6.774744510650635 0.291521847248077 0.000000000000000
-3.031872749328613 -17.316537857055664 -0.712858617305756 0.003921568859369
-5.257180213928223 -18.662702560424805 3.573475837707520 0.003921568859369
-5.672913074493408 -16.852272033691406 -0.200788483023643 0.003921568859369
-0.833806693553925 -6.582581520080566 0.197831809520721 0.000000000000000
-1.581715106964111 -6.771898746490479 0.291691273450851 0.000000000000000
-4.194331645965576 -18.127042770385742 -0.864484906196594 0.000000000000000
-3.078049659729004 -17.266092300415039 -0.711237072944641 0.003921568859369
-5.419102668762207 -16.164543151855469 -0.593831300735474 0.003921568859369
-5.696753025054932 -16.736763000488281 -0.199668645858765 0.003921568859369
-0.857621371746063 -6.581623554229736 0.197956115007401 0.003921568859369
-1.605350494384766 -6.764418601989746 0.291696190834045 0.000000000000000
-3.167540311813354 -17.390123367309570 -0.716848075389862 0.003921568859369
-5.469909667968750 -16.128629684448242 -0.593271315097809 0.003921568859369
-0.878898084163666 -6.568857192993164 0.197725042700768 0.003921568859369
-1.633862972259521 -6.772071838378906 0.292361050844193 0.000000000000000
-5.352944850921631 -18.311771392822266 -0.999478340148926 0.003921568859369
