# This PCD file was generated using the MATLAB® pcwrite function
# from Computer Vision Toolbox®.
# .PCD v.7 - Point Cloud Data file format
VERSION .7
FIELDS x y z intensity
SIZE 8 8 8 8
TYPE F F F F
COUNT 1 1 1 1
WIDTH 649
HEIGHT 1
VIEWPOINT 0 0 0 1 0 0 0
POINTS 649
DATA ascii
-18.469974517822266 23.782667160034180 2.454772233963013 0.003921568859369
-19.108972549438477 22.441009521484375 3.597521305084229 0.003921568859369
-18.180292129516602 21.467782974243164 3.432555675506592 0.003921568859369
-16.776390075683594 22.012607574462891 5.015167236328125 0.003921568859369
-18.218976974487305 22.791021347045898 1.699663400650024 0.003921568859369
-16.849851608276367 23.459920883178711 2.357710123062134 0.003921568859369
-17.805679321289062 23.094404220581055 1.699887633323669 0.003921568859369
-16.770048141479492 24.078811645507812 2.396521568298340 0.003921568859369
-17.701045989990234 23.122837066650391 1.697837114334106 0.003921568859369
-16.897222518920898 24.449876785278320 2.427965641021729 0.003921568859369
-15.610895156860352 23.946853637695312 2.337761640548706 0.003921568859369
-15.557250976562500 23.846858978271484 5.171944141387939 0.003921568859369
-15.051059722900391 23.613677978515625 2.290255784988403 0.003921568859369
-14.949786186218262 23.643276214599609 2.288246870040894 0.003921568859369
-15.016436576843262 23.929574966430664 2.311486244201660 0.003921568859369
-14.903910636901855 23.932538986206055 2.307166814804077 0.003921568859369
-14.901085853576660 22.269660949707031 7.137853622436523 0.003921568859369
-14.035441398620605 23.579441070556641 2.247354745864868 0.003921568859369
-13.991844177246094 23.732017517089844 2.256109476089478 0.003921568859369
-14.741052627563477 22.745944976806641 7.224054336547852 0.003921568859369
-14.247268676757812 24.777971267700195 2.342329740524292 0.003921568859369
-15.666004180908203 25.194677352905273 1.738759040832520 0.003921568859369
-15.777192115783691 25.579843521118164 1.761871337890625 0.003921568859369
-14.084725379943848 25.502641677856445 2.389698743820190 0.003921568859369
-14.944382667541504 24.384271621704102 1.676498770713806 0.003921568859369
-13.630208969116211 25.045404434204102 5.191210269927979 0.003921568859369
-14.127348899841309 26.484006881713867 2.463292837142944 0.003921568859369
-13.052989959716797 24.391824722290039 5.036400794982910 0.003921568859369
-12.853586196899414 24.229845046997070 2.250199079513550 0.003921568859369
-14.444343566894531 24.515739440917969 3.492552995681763 0.003921568859369
-13.294440269470215 25.526226043701172 2.362527608871460 0.003921568859369
-14.519229888916016 25.665918350219727 3.622403383255005 0.003921568859369
-12.948119163513184 25.715614318847656 2.364914178848267 0.003921568859369
-13.407483100891113 23.816352844238281 7.296191215515137 0.003921568859369
-12.862211227416992 25.749462127685547 5.245404243469238 0.003921568859369
-13.439653396606445 24.300441741943359 3.411309242248535 0.003921568859369
-13.722738265991211 24.805078506469727 7.570824623107910 0.003921568859369
-13.759529113769531 25.118385314941406 1.682983636856079 0.003921568859369
-13.455336570739746 24.950157165527344 7.572583675384521 0.003921568859369
-12.976375579833984 24.898479461669922 3.451785564422607 0.003921568859369
-12.859154701232910 24.881822586059570 3.443705558776855 0.003921568859369
-12.765120506286621 24.910892486572266 3.442004203796387 0.003921568859369
-13.185149192810059 25.985191345214844 1.714686751365662 0.003921568859369
-1.493934392929077 2.508796453475952 0.229864344000816 0.000000000000000
-13.110153198242188 26.050586700439453 3.587805032730103 0.003921568859369
-2.050296783447266 3.362414121627808 1.011015653610229 0.000000000000000
-7.545938014984131 16.651605606079102 3.326062679290771 0.003921568859369
-12.968017578125000 26.493120193481445 1.736472010612488 0.003921568859369
-12.752864837646484 26.028186798095703 3.566507339477539 0.003921568859369
-12.938301086425781 26.670532226562500 1.745472669601440 0.003921568859369
-4.544991016387939 10.060355186462402 1.999503016471863 0.000000000000000
-12.845092773437500 26.714138031005859 1.745743513107300 0.003921568859369
-12.735132217407227 26.466377258300781 3.615146160125732 0.003921568859369
-12.561067581176758 27.074127197265625 3.675632953643799 0.003921568859369
-4.271014213562012 9.882058143615723 1.950930237770081 0.000000000000000
-4.880851268768311 12.053734779357910 2.363490104675293 0.000000000000000
-3.328537940979004 8.013133049011230 2.302179574966431 0.000000000000000
-3.357378959655762 8.179433822631836 2.346939802169800 0.000000000000000
-8.775877952575684 25.521520614624023 7.235682487487793 0.003921568859369
-8.415793418884277 25.333381652832031 7.158372879028320 0.003921568859369
-0.821325778961182 10.071285247802734 -0.099844820797443 0.000000000000000
-1.969455122947693 24.464345932006836 2.040012359619141 0.003921568859369
-1.428341627120972 11.238358497619629 3.045971870422363 0.000000000000000
-1.041314840316772 8.570088386535645 0.515590190887451 0.003921568859369
-1.198880910873413 11.340015411376953 3.068216323852539 0.000000000000000
0.022477269172668 10.566826820373535 -0.104772195219994 0.000000000000000
-0.851006031036377 11.697854042053223 3.158665895462036 0.000000000000000
-0.494907796382904 5.372915744781494 0.010164106264710 0.000000000000000
0.475953519344330 11.902337074279785 -0.117980025708675 0.000000000000000
-0.130481556057930 6.882883548736572 0.574772357940674 0.000000000000000
-0.036736845970154 10.946090698242188 2.015558481216431 0.000000000000000
-0.101947546005249 5.080894470214844 -0.019629614427686 0.000000000000000
0.104809969663620 10.631634712219238 0.451486140489578 0.000000000000000
-0.072603151202202 5.363960742950439 -0.020849116146564 0.000000000000000
-0.022399932146072 6.068186759948730 -0.165458157658577 0.000000000000000
-0.146007284522057 3.043832540512085 -0.081708014011383 0.000000000000000
-0.299942582845688 7.592481136322021 0.013115620240569 0.000000000000000
0.334167808294296 10.117048263549805 -0.041443917900324 0.000000000000000
0.517329573631287 13.131067276000977 2.421855688095093 0.000000000000000
-0.140630200505257 8.583456039428711 0.014139023609459 0.003921568859369
0.857230126857758 17.415267944335938 -0.074263714253902 0.000000000000000
0.912121832370758 18.322221755981445 3.377646207809448 0.003921568859369
1.779354572296143 16.954380035400391 0.226709574460983 0.003921568859369
1.065096855163574 18.706035614013672 3.450109720230103 0.003921568859369
-0.216084033250809 2.811182975769043 -0.059115201234818 0.000000000000000
-0.086999207735062 6.513257503509521 1.759020566940308 0.000000000000000
0.189147472381592 14.036719322204590 0.021807588636875 0.000000000000000
-0.316464900970459 2.975036859512329 0.093164317309856 0.000000000000000
1.490697145462036 12.720685005187988 0.171399891376495 0.000000000000000
-0.346507489681244 13.272123336791992 0.097225986421108 0.000000000000000
0.287808656692505 6.110109329223633 -0.024238321930170 0.000000000000000
-0.147441834211349 3.040938854217529 -0.064114719629288 0.000000000000000
-0.256848186254501 10.759192466735840 -0.170996382832527 0.000000000000000
0.900531232357025 11.395385742187500 -0.047326870262623 0.000000000000000
0.944974005222321 11.836232185363770 0.991740942001343 0.000000000000000
1.048578977584839 8.666288375854492 -0.290412753820419 0.000000000000000
0.406553030014038 11.677096366882324 0.018218450248241 0.003921568859369
0.070601046085358 5.901462078094482 0.736776649951935 0.000000000000000
-0.185398548841476 6.799317359924316 -0.107502810657024 0.000000000000000
0.748303830623627 9.204265594482422 0.392955273389816 0.000000000000000
0.484447419643402 11.616199493408203 0.018242221325636 0.003921568859369
1.302864789962769 13.766954421997070 -0.058511104434729 0.000000000000000
0.005677789449692 17.266550064086914 0.527493536472321 0.003921568859369
0.134377777576447 6.263741970062256 1.694339632987976 0.000000000000000
-0.085382923483849 9.481690406799316 -0.150802642107010 0.000000000000000
0.527611792087555 11.084005355834961 0.017621269449592 0.003921568859369
1.079445600509644 11.143164634704590 2.066092014312744 0.000000000000000
0.201137661933899 17.814250946044922 0.544502317905426 0.003921568859369
0.666228175163269 12.415317535400391 0.744838833808899 0.000000000000000
1.592059135437012 14.151493072509766 2.626630306243896 0.000000000000000
0.727505981922150 7.367788314819336 0.620458781719208 0.000000000000000
0.091762810945511 8.953170776367188 0.066442012786865 0.000000000000000
0.160052388906479 3.018114328384399 -0.010855868458748 0.000000000000000
0.189346313476562 10.465775489807129 0.321380764245987 0.000000000000000
1.576030731201172 19.143840789794922 0.029237665235996 0.003921568859369
0.579179704189301 5.815323829650879 -0.297169178724289 0.000000000000000
0.305888563394547 10.428677558898926 0.319864660501480 0.000000000000000
2.607655763626099 18.335100173950195 3.413367748260498 0.003921568859369
0.500397324562073 6.882655620574951 0.415208756923676 0.000000000000000
1.241034507751465 13.155453681945801 0.020297313109040 0.000000000000000
0.946962594985962 7.362464904785156 -0.030517641454935 0.000000000000000
1.198609590530396 12.399312019348145 0.019321866333485 0.000000000000000
0.010766595602036 3.967507362365723 0.030689848586917 0.000000000000000
0.096230566501617 2.950490236282349 0.075654327869415 0.000000000000000
0.683409452438354 7.586378574371338 0.012809071689844 0.000000000000000
1.058551311492920 14.811370849609375 0.454959869384766 0.000000000000000
1.039341688156128 9.045568466186523 0.014367860741913 0.003921568859369
0.554202258586884 7.778511524200439 -0.124233074486256 0.000000000000000
0.833697497844696 10.484875679016113 0.077088207006454 0.000000000000000
1.904474496841431 8.449967384338379 0.116249427199364 0.000000000000000
1.916868925094604 13.852309226989746 0.347356408834457 0.000000000000000
0.803867757320404 6.577105998992920 0.011205255985260 0.000000000000000
2.472265481948853 10.227009773254395 -0.352216869592667 0.000000000000000
1.448695898056030 9.745278358459473 2.668050050735474 0.000000000000000
1.575277805328369 7.856004238128662 0.672337710857391 0.000000000000000
1.382022380828857 11.711849212646484 -0.189360633492470 0.000000000000000
3.595683813095093 26.318483352661133 0.190457358956337 0.003921568859369
1.086555957794189 9.094834327697754 -0.575364947319031 0.000000000000000
1.389178037643433 6.584710597991943 0.287832289934158 0.000000000000000
2.323439359664917 17.164558410644531 -0.278762906789780 0.003921568859369
1.021942377090454 6.207777500152588 -0.284678012132645 0.000000000000000
1.184179306030273 9.110319137573242 0.067548580467701 0.000000000000000
0.974837958812714 7.596482276916504 0.056742686778307 0.000000000000000
1.729345798492432 12.319023132324219 0.381300508975983 0.000000000000000
2.718190908432007 14.073005676269531 3.876573801040649 0.000000000000000
4.493604183197021 18.074914932250977 3.435670614242554 0.003921568859369
4.416329383850098 17.529743194580078 3.335246324539185 0.003921568859369
3.583922624588013 14.186831474304199 -0.063115097582340 0.000000000000000
1.426310181617737 9.310890197753906 0.289046227931976 0.000000000000000
7.305296421051025 26.496263504028320 -0.763467729091644 0.003921568859369
2.466722965240479 9.484615325927734 1.813733935356140 0.000000000000000
7.226161003112793 25.874267578125000 -0.746177971363068 0.003921568859369
3.586053848266602 16.189058303833008 4.482287883758545 0.003921568859369
5.723162174224854 20.669416427612305 3.953545331954956 0.003921568859369
7.209974288940430 25.466800689697266 -0.735109210014343 0.003921568859369
2.824501752853394 10.458300590515137 2.003846406936646 0.000000000000000
7.183289527893066 25.066223144531250 -0.724160671234131 0.003921568859369
7.162899494171143 24.680150985717773 -0.713655531406403 0.003921568859369
1.441158652305603 5.576537132263184 0.485265880823135 0.000000000000000
4.403419494628906 15.090077400207520 2.902275800704956 0.003921568859369
4.661108016967773 15.728037834167480 0.695178925991058 0.003921568859369
4.382506847381592 17.882011413574219 4.976691722869873 0.003921568859369
0.695545852184296 4.396986007690430 0.033855125308037 0.000000000000000
0.211823329329491 2.095148801803589 -0.132620617747307 0.000000000000000
0.720932602882385 4.440668106079102 0.034207530319691 0.000000000000000
1.865633964538574 9.269589424133301 0.290022611618042 0.000000000000000
2.778887510299683 10.556690216064453 0.654944360256195 0.000000000000000
2.104117631912231 6.803599357604980 1.322715520858765 0.000000000000000
7.257337093353271 25.980638504028320 -0.593373596668243 0.003921568859369
8.201119422912598 24.378425598144531 -0.715577483177185 0.003921568859369
7.237195968627930 25.574302673339844 -0.584593296051025 0.003921568859369
8.296725273132324 24.379083633422852 -0.716412127017975 0.003921568859369
7.221106052398682 25.191434860229492 -0.576343536376953 0.003921568859369
3.601697921752930 15.491174697875977 -0.257070451974869 0.000000000000000
7.250541210174561 24.969919204711914 -0.571792900562286 0.003921568859369
7.304048061370850 24.832704544067383 -0.569179892539978 0.003921568859369
0.774813771247864 2.750589132308960 0.539534866809845 0.000000000000000
7.492710113525391 25.138917922973633 -0.576776564121246 0.003921568859369
2.962392807006836 8.711688041687012 1.705769658088684 0.000000000000000
7.584810733795166 25.110485076904297 -0.576713263988495 0.003921568859369
7.720822811126709 25.252328872680664 -0.580527901649475 0.003921568859369
2.009905576705933 5.882871150970459 -0.173456072807312 0.000000000000000
2.742151737213135 10.970522880554199 0.345863550901413 0.000000000000000
3.843551158905029 14.858631134033203 0.109462708234787 0.000000000000000
1.068385601043701 4.557491302490234 -0.075232304632664 0.000000000000000
8.150036811828613 25.062133789062500 -0.581004023551941 0.003921568859369
2.227596521377563 7.222343444824219 2.054711341857910 0.000000000000000
8.222141265869141 24.987331390380859 -0.579891562461853 0.003921568859369
1.542777180671692 4.322618961334229 -0.128152340650558 0.000000000000000
3.732755899429321 9.734521865844727 1.930565834045410 0.000000000000000
11.290813446044922 27.275606155395508 2.453176021575928 0.003921568859369
11.286115646362305 27.000555038452148 2.432092428207397 0.003921568859369
11.385123252868652 26.213935852050781 5.262578964233398 0.003921568859369
11.631130218505859 26.285144805908203 5.292993545532227 0.003921568859369
5.534839630126953 14.444391250610352 4.185866355895996 0.003921568859369
1.333566427230835 4.437198162078857 -0.184213533997536 0.000000000000000
12.022609710693359 26.656091690063477 5.384795665740967 0.003921568859369
2.744152784347534 7.194661140441895 2.094873189926147 0.000000000000000
12.103204727172852 26.332664489746094 5.337218761444092 0.003921568859369
11.318467140197754 26.805747985839844 3.616519212722778 0.003921568859369
12.716041564941406 26.418575286865234 2.435438156127930 0.003921568859369
11.386231422424316 26.201128005981445 1.701940774917603 0.003921568859369
0.924813747406006 2.492307186126709 -0.058892913162708 0.000000000000000
4.185580730438232 9.631108283996582 2.849084138870239 0.000000000000000
11.784994125366211 24.942598342895508 3.427925348281860 0.003921568859369
11.764815330505371 24.679128646850586 3.397474050521851 0.003921568859369
13.829257965087891 25.665134429931641 2.420064449310303 0.003921568859369
13.489427566528320 24.837425231933594 5.202034950256348 0.003921568859369
12.625576972961426 25.991466522216797 0.706436753273010 0.003921568859369
13.816182136535645 24.810789108276367 2.357853889465332 0.003921568859369
12.605733871459961 25.281717300415039 3.510718584060669 0.003921568859369
1.711890220642090 3.734605789184570 1.128180980682373 0.000000000000000
12.612763404846191 25.077802658081055 3.488622903823853 0.003921568859369
13.613766670227051 24.059150695800781 5.088858127593994 0.003921568859369
14.423035621643066 25.247781753540039 5.348567008972168 0.003921568859369
12.812926292419434 25.016319274902344 3.490426301956177 0.003921568859369
1.005491018295288 2.257552385330200 0.686146974563599 0.000000000000000
13.414882659912109 25.521524429321289 7.779183864593506 0.003921568859369
14.747467041015625 24.819118499755859 5.311161994934082 0.003921568859369
13.322155952453613 24.725938796997070 0.684934854507446 0.003921568859369
1.942566156387329 3.739641189575195 0.533124506473541 0.003921568859369
13.485622406005859 24.011062622070312 3.418237924575806 0.003921568859369
15.557229995727539 24.756855010986328 2.422775506973267 0.003921568859369
13.758049964904785 23.893840789794922 1.637400031089783 0.003921568859369
14.983778953552246 23.301145553588867 2.296084165573120 0.003921568859369
15.805803298950195 24.380449295043945 5.342944145202637 0.003921568859369
0.850504755973816 1.700425028800964 0.533155977725983 0.000000000000000
0.852781534194946 1.690087914466858 0.531079649925232 0.000000000000000
14.708511352539062 24.747293472290039 7.765814304351807 0.003921568859369
15.638263702392578 23.599592208862305 5.206685066223145 0.003921568859369
11.421862602233887 18.825521469116211 5.945745468139648 0.003921568859369
14.930912971496582 24.329912185668945 3.543694019317627 0.003921568859369
15.752556800842285 24.865653991699219 3.650935649871826 0.003921568859369
16.085998535156250 24.801250457763672 3.666686296463013 0.003921568859369
14.968002319335938 20.799165725708008 4.712141513824463 0.003921568859369
15.061154365539551 20.789684295654297 4.720798969268799 0.003921568859369
15.183952331542969 20.797142028808594 4.735224723815918 0.003921568859369
7.501400947570801 11.155096054077148 3.635130643844604 0.000000000000000
16.600341796875000 24.093404769897461 1.732735395431519 0.003921568859369
2.150150299072266 3.264630794525146 1.072558403015137 0.000000000000000
2.776647567749023 3.699854373931885 0.863557994365692 0.000000000000000
12.684597015380859 17.532608032226562 5.839538574218750 0.003921568859369
1.964814782142639 2.404733419418335 0.584315955638885 0.000000000000000
4.389752388000488 5.124198436737061 1.251302599906921 0.000000000000000
11.373749732971191 14.107998847961426 4.888493537902832 0.003921568859369
5.277898788452148 5.997210979461670 1.476709246635437 0.000000000000000
6.586704730987549 7.609321594238281 2.724807262420654 0.000000000000000
4.888408660888672 5.515439987182617 1.998712539672852 0.000000000000000
9.883049011230469 9.320259094238281 2.496582508087158 0.000000000000000
13.232374191284180 12.276455879211426 3.313013792037964 0.003921568859369
8.571854591369629 7.710065841674805 2.121061563491821 0.000000000000000
5.666719436645508 5.335892200469971 -0.545054078102112 0.000000000000000
10.754479408264160 8.362990379333496 2.499651432037354 0.000000000000000
9.931164741516113 7.561048030853271 2.291179656982422 0.000000000000000
12.387198448181152 9.349371910095215 2.846094131469727 0.000000000000000
12.481217384338379 9.222758293151855 2.846075057983398 0.000000000000000
7.962836742401123 5.640710353851318 1.791768312454224 0.000000000000000
5.665780067443848 3.967973470687866 1.272930622100830 0.000000000000000
15.631906509399414 10.711541175842285 3.470397710800171 0.003921568859369
17.230579376220703 11.445637702941895 3.784802198410034 0.003921568859369
3.854209184646606 2.548433780670166 0.382126688957214 0.000000000000000
5.434722900390625 3.916799783706665 1.808414936065674 0.000000000000000
5.034894943237305 3.167713880538940 1.094356060028076 0.000000000000000
10.835082054138184 6.567755699157715 2.319280624389648 0.000000000000000
3.954313993453979 2.374780416488647 -0.378429770469666 0.000000000000000
11.427947998046875 6.655409812927246 2.420526981353760 0.000000000000000
10.494108200073242 6.069327831268311 2.219427585601807 0.000000000000000
4.550171852111816 3.256422758102417 0.165110439062119 0.000000000000000
11.471841812133789 6.579192161560059 2.420519113540649 0.000000000000000
18.613798141479492 10.574690818786621 1.754758954048157 0.003921568859369
12.051990509033203 6.041783809661865 0.159988090395927 0.000000000000000
4.573587417602539 2.899925947189331 0.670520722866058 0.000000000000000
8.454387664794922 5.297549724578857 1.231482863426208 0.000000000000000
5.448943614959717 3.390521287918091 1.727889060974121 0.000000000000000
6.755699634552002 3.753588438034058 1.415350198745728 0.000000000000000
9.764110565185547 6.013386249542236 3.081699371337891 0.000000000000000
2.391041994094849 1.606431365013123 0.085154250264168 0.000000000000000
8.499929428100586 5.036549568176270 0.578491032123566 0.000000000000000
5.864300727844238 3.452734947204590 0.398995161056519 0.000000000000000
5.906341075897217 3.098127126693726 1.222192883491516 0.000000000000000
2.874750137329102 1.503260493278503 -0.018429648131132 0.000000000000000
5.146735668182373 3.008116483688354 1.605651736259460 0.000000000000000
6.071629047393799 3.517175674438477 0.411346554756165 0.000000000000000
2.819848060607910 1.449717521667480 -0.092514313757420 0.000000000000000
8.229910850524902 4.201315879821777 0.378989964723587 0.000000000000000
5.829732894897461 2.980480194091797 1.199929714202881 0.000000000000000
9.020221710205078 5.132788181304932 1.279254317283630 0.000000000000000
3.831578493118286 2.131526231765747 0.541111588478088 0.000000000000000
11.528918266296387 5.672521114349365 2.347383737564087 0.000000000000000
2.635631561279297 1.422245740890503 0.370366036891937 0.000000000000000
5.236465930938721 2.744475603103638 1.589780330657959 0.000000000000000
13.381778717041016 6.183664798736572 2.692638158798218 0.000000000000000
5.155172348022461 2.366095066070557 0.232463046908379 0.000000000000000
16.464273452758789 7.466775417327881 3.301342248916626 0.003921568859369
2.582122802734375 1.163341879844666 0.115944340825081 0.000000000000000
8.632763862609863 4.100094795227051 2.563814163208008 0.000000000000000
6.629777431488037 3.007399797439575 0.000000000000138 0.000000000000000
9.651551246643066 4.378137111663818 2.839762687683105 0.000000000000000
14.764833450317383 5.667690277099609 2.883533716201782 0.003921568859369
3.430445194244385 1.469583034515381 0.458228766918182 0.000000000000000
7.223815917968750 3.094641208648682 2.105751991271973 0.000000000000000
8.200301170349121 3.751576185226440 0.261720806360245 0.000000000000000
13.065161705017090 5.116478919982910 3.756377696990967 0.000000000000000
20.353845596313477 5.684138298034668 0.245035216212273 0.003921568859369
20.377418518066406 5.614159584045410 0.245084106922150 0.003921568859369
18.556755065917969 5.962037086486816 0.339210838079453 0.003921568859369
8.547719955444336 2.708412408828735 0.364491790533066 0.000000000000000
5.713050842285156 2.078017950057983 -0.283023923635483 0.000000000000000
11.516162872314453 3.519495010375977 2.190833568572998 0.000000000000000
10.490552902221680 3.689577341079712 1.361976742744446 0.000000000000000
8.513804435729980 3.399106264114380 0.052294299006462 0.000000000000000
9.794575691223145 2.841843843460083 0.176767334342003 0.000000000000000
6.592326641082764 1.495807528495789 0.077859625220299 0.000000000000000
5.727639198303223 1.257179141044617 0.067498713731766 0.000000000000000
8.092447280883789 2.196468353271484 0.340055048465729 0.000000000000000
9.198268890380859 1.987987637519836 -0.328707009553909 0.000000000000000
3.562942504882812 1.108712196350098 0.991200327873230 0.000000000000000
10.955009460449219 2.809465885162354 -0.329699784517288 0.000000000000000
9.243637084960938 2.369452476501465 0.386293411254883 0.000000000000000
5.147235870361328 1.316043257713318 0.430475860834122 0.000000000000000
18.588909149169922 5.682171821594238 5.197731971740723 0.003921568859369
6.115165710449219 1.520840287208557 0.108596891164780 0.000000000000000
13.175051689147949 3.139584779739380 2.462136983871460 0.000000000000000
6.170885562896729 1.764635443687439 0.783450543880463 0.000000000000000
2.149023771286011 0.714815557003021 0.064623080193996 0.000000000000000
8.562158584594727 2.843479394912720 0.260455757379532 0.000000000000000
14.681071281433105 3.992082834243774 0.351409316062927 0.000000000000000
17.319883346557617 3.815013647079468 3.225808620452881 0.003921568859369
12.074933052062988 3.236989259719849 3.336643457412720 0.000000000000000
5.997078418731689 1.894518375396729 0.180671170353889 0.000000000000000
9.921127319335938 3.104548692703247 0.299522608518600 0.000000000000000
8.643526077270508 2.703054666519165 -0.368984192609787 0.000000000000000
15.729274749755859 3.232624292373657 -0.468683511018753 0.000000000000000
6.143808841705322 1.894375443458557 0.184727191925049 0.000000000000000
15.477908134460449 3.181327342987061 2.870990037918091 0.003921568859369
4.502274990081787 0.887136220932007 -0.027293467894197 0.000000000000000
17.374065399169922 4.336144447326660 4.784204959869385 0.003921568859369
14.937123298645020 2.158092498779297 -0.177484676241875 0.000000000000000
17.937034606933594 3.492737531661987 0.739994585514069 0.003921568859369
8.800048828125000 2.158746719360352 1.105982422828674 0.000000000000000
6.975398063659668 1.353656053543091 0.575489938259125 0.000000000000000
11.899059295654297 2.314702749252319 2.200704813003540 0.000000000000000
8.715080261230469 2.563481092453003 0.261585265398026 0.000000000000000
6.581099987030029 1.229378700256348 0.542033791542053 0.000000000000000
8.159368515014648 1.467314720153809 0.334704011678696 0.000000000000000
15.104738235473633 2.667852878570557 -0.447570860385895 0.000000000000000
8.966604232788086 1.580957889556885 -0.054165631532669 0.000000000000000
18.353139877319336 2.327451467514038 0.212214499711990 0.003921568859369
9.043051719665527 1.111338138580322 -0.107236839830875 0.000000000000000
8.816938400268555 1.521278977394104 -0.053526949137449 0.000000000000000
14.354142189025879 3.951574802398682 0.428690135478973 0.000000000000000
19.963594436645508 3.455469369888306 1.645926117897034 0.003921568859369
16.731279373168945 3.742702960968018 4.576639175415039 0.003921568859369
10.025979042053223 1.699135899543762 1.842595577239990 0.000000000000000
11.145454406738281 2.409752368927002 -0.002344644628465 0.003921568859369
17.976804733276367 3.893701791763306 2.248513936996460 0.003921568859369
8.962708473205566 1.452172160148621 -0.264575779438019 0.000000000000000
14.610205650329590 1.647056460380554 -0.173238605260849 0.000000000000000
4.497351169586182 0.724792599678040 -0.027217548340559 0.000000000000000
13.701582908630371 2.177689313888550 -0.404921829700470 0.000000000000000
6.141666412353516 1.547464966773987 -0.111120894551277 0.000000000000000
3.083815574645996 0.461973279714584 -0.090033590793610 0.000000000000000
8.507136344909668 0.867275476455688 -0.100589573383331 0.000000000000000
10.591058731079102 2.135764598846436 0.248010948300362 0.000000000000000
1.942375302314758 0.383619278669357 0.111719548702240 0.003921568859369
6.216864109039307 1.543676376342773 -0.112387336790562 0.000000000000000
14.631774902343750 1.443629980087280 -0.173198178410530 0.000000000000000
10.748938560485840 2.642360448837280 -0.194663599133492 0.000000000000000
7.073143959045410 1.021481871604919 0.122372515499592 0.000000000000000
5.904667854309082 1.423274874687195 -0.106523074209690 0.000000000000000
12.319290161132812 1.130557179450989 0.141180321574211 0.000000000000000
10.834943771362305 2.028820753097534 -0.002219131682068 0.003921568859369
6.087172508239746 1.444281578063965 0.179173842072487 0.000000000000000
7.484554290771484 0.634211361408234 -0.088287860155106 0.000000000000000
7.563618183135986 1.359049916267395 0.442016214132309 0.000000000000000
2.145666599273682 0.273696392774582 0.170784130692482 0.000000000000000
11.193114280700684 1.379838109016418 -0.067743331193924 0.000000000000000
4.948614597320557 0.606066167354584 -0.403235375881195 0.000000000000000
6.209576129913330 0.458918809890747 -0.216731995344162 0.000000000000000
6.813267230987549 1.150210261344910 -0.001752007519826 0.000000000000000
7.217456340789795 1.218991875648499 -0.170728906989098 0.000000000000000
5.076138019561768 0.587328732013702 -0.030650299042463 0.000000000000000
7.335844039916992 1.214341759681702 -0.173446401953697 0.000000000000000
11.558005332946777 0.738726675510406 0.131650656461716 0.000000000000000
10.402762413024902 0.664446890354156 -0.364076793193817 0.000000000000000
7.840263843536377 1.635983824729919 0.044141568243504 0.000000000000000
9.050099372863770 1.890388250350952 0.264960974454880 0.000000000000000
6.844920635223389 1.083948373794556 0.398256093263626 0.000000000000000
9.058075904846191 1.891923666000366 -0.376831650733948 0.000000000000000
5.073538780212402 0.800958395004272 -0.119449809193611 0.000000000000000
20.973154067993164 3.265171051025391 -0.004706265404820 0.003921568859369
12.109208106994629 1.881749987602234 1.494201540946960 0.000000000000000
3.084974527359009 0.472601592540741 -0.072128392755985 0.000000000000000
2.135748386383057 0.421932876110077 -0.037697803229094 0.000000000000000
3.443069458007812 0.349075376987457 -0.099880307912827 0.000000000000000
10.103753089904785 1.035447478294373 0.173916459083557 0.000000000000000
8.659929275512695 1.714454054832458 -0.155233979225159 0.000000000000000
6.665705680847168 1.317026615142822 0.194184184074402 0.000000000000000
10.286788940429688 0.944364249706268 -0.061967577785254 0.000000000000000
4.547162055969238 0.619550347328186 -0.317292153835297 0.000000000000000
8.637867927551270 0.761333286762238 0.147800475358963 0.000000000000000
5.377936840057373 0.982515931129456 -0.095881745219231 0.000000000000000
3.687655687332153 0.309816032648087 0.294995397329330 0.000000000000000
10.394071578979492 0.846422493457794 -0.062852896749973 0.000000000000000
8.714156150817871 0.678444743156433 -0.052658256143332 0.000000000000000
9.068361282348633 0.265294790267944 0.102542422711849 0.000000000000000
19.955757141113281 1.560951113700867 3.631386995315552 0.003921568859369
6.983633995056152 1.204920887947083 -0.124540314078331 0.000000000000000
2.752228021621704 0.333836078643799 -0.000992604880594 0.000000000000000
9.007647514343262 0.670083045959473 -0.054411157965660 0.000000000000000
9.781643867492676 0.728182256221771 0.394144207239151 0.000000000000000
8.707983970642090 0.647854268550873 0.704624474048615 0.000000000000000
13.845535278320312 0.984098374843597 -0.083642758429050 0.000000000000000
11.849107742309570 0.841655015945435 0.203125581145287 0.000000000000000
12.908502578735352 0.917895376682281 2.342958927154541 0.000000000000000
7.830904006958008 0.147575840353966 -0.092280991375446 0.000000000000000
16.295207977294922 1.102070808410645 -0.098415710031986 0.000000000000000
13.702247619628906 0.926241040229797 0.553203999996185 0.000000000000000
17.085653305053711 0.266241461038589 0.194263756275177 0.003921568859369
16.507738113403320 1.062641024589539 2.998690605163574 0.003921568859369
9.706869125366211 0.590817391872406 0.390780776739120 0.000000000000000
20.613218307495117 2.270504713058472 2.532198429107666 0.003921568859369
7.476115703582764 1.187070131301880 -0.307654201984406 0.000000000000000
8.490603446960449 0.901131808757782 0.490716189146042 0.000000000000000
13.879791259765625 0.122058123350143 -0.485312163829803 0.000000000000000
11.583672523498535 1.189082145690918 -0.003003674326465 0.003921568859369
12.268017768859863 0.022946316748857 0.139183968305588 0.000000000000000
11.726383209228516 1.743329405784607 0.339721322059631 0.000000000000000
9.356280326843262 0.894544005393982 -0.002825561445206 0.003921568859369
15.700999259948730 0.738806188106537 0.632774412631989 0.000000000000000
4.137973308563232 0.391879290342331 0.498683273792267 0.000000000000000
12.272979736328125 0.577436625957489 2.221512079238892 0.000000000000000
4.504292011260986 0.410666882991791 -0.001558184158057 0.000000000000000
6.044826030731201 -0.050726525485516 -0.348956495523453 0.000000000000000
11.368385314941406 0.455726832151413 2.056022167205811 0.000000000000000
15.897077560424805 2.137331724166870 -0.283276408910751 0.000000000000000
5.868520259857178 0.496411889791489 0.133214995265007 0.000000000000000
9.673876762390137 -0.117144986987114 0.109109573066235 0.000000000000000
6.288252830505371 0.839350521564484 0.180113196372986 0.000000000000000
14.354930877685547 1.223271369934082 0.830105602741241 0.000000000000000
4.800384998321533 0.638226687908173 -0.195632785558701 0.000000000000000
18.008653640747070 2.301900386810303 0.520685017108917 0.003921568859369
11.718479156494141 0.874625146389008 -0.003355210646987 0.003921568859369
15.718147277832031 -0.355396211147308 0.178223654627800 0.000000000000000
11.331735610961914 1.400974869728088 0.326439291238785 0.000000000000000
22.126356124877930 2.666176319122314 0.122716195881367 0.003921568859369
12.478138923645020 -0.324833512306213 0.141231909394264 0.000000000000000
25.978324890136719 -0.761146306991577 0.295562982559204 0.003921568859369
9.923645019531250 0.674449622631073 0.571534395217896 0.000000000000000
16.314846038818359 0.316836118698120 0.657203733921051 0.003921568859369
6.009904384613037 0.116143502295017 -0.312465667724609 0.000000000000000
6.715829849243164 0.781708836555481 -0.274274796247482 0.000000000000000
11.782609939575195 0.760423183441162 -0.003330719657242 0.003921568859369
12.261105537414551 -0.400164812803268 -0.428537189960480 0.000000000000000
6.352303504943848 0.407892554998398 -0.148162513971329 0.000000000000000
13.146007537841797 0.161473900079727 -0.079362377524376 0.000000000000000
8.283884048461914 0.101877875626087 0.331814467906952 0.000000000000000
2.662909030914307 0.150384202599525 -0.001050989376381 0.000000000000000
16.942245483398438 0.152196571230888 -0.102283366024494 0.000000000000000
15.573167800903320 0.898046374320984 0.356805354356766 0.000000000000000
8.343572616577148 0.075333289802074 0.672033369541168 0.000000000000000
6.263648509979248 0.640274107456207 -0.110565423965454 0.000000000000000
13.597804069519043 -0.634604632854462 0.153713345527649 0.000000000000000
6.522538661956787 -0.301637828350067 -0.226747214794159 0.000000000000000
9.318606376647949 0.891755044460297 0.050696805119514 0.000000000000000
11.976314544677734 0.564754843711853 0.689063429832458 0.000000000000000
16.727993011474609 -0.023462437093258 0.672985851764679 0.003921568859369
2.852516889572144 -0.002899136859924 0.224045276641846 0.000000000000000
22.178457260131836 1.050389409065247 5.917336463928223 0.003921568859369
7.403405666351318 0.347631007432938 -0.172755524516106 0.000000000000000
17.613876342773438 -0.086398422718048 -0.514810144901276 0.000000000000000
10.597706794738770 -0.565049588680267 0.119529895484447 0.000000000000000
9.188182830810547 -0.044137928634882 0.155972510576248 0.000000000000000
7.439573764801025 0.324052363634109 0.900338768959045 0.000000000000000
2.704975128173828 -0.011797907762229 0.212044447660446 0.000000000000000
2.954874277114868 0.267248153686523 -0.118375882506371 0.000000000000000
17.015264511108398 -0.082026518881321 3.080384731292725 0.003921568859369
11.980720520019531 -0.101934760808945 -0.626473248004913 0.000000000000000
10.232719421386719 0.906654834747314 -0.418133169412613 0.000000000000000
17.777704238891602 0.650935769081116 -0.005236769560724 0.003921568859369
16.782243728637695 1.432892203330994 -0.687700212001801 0.003921568859369
7.436647415161133 -0.111105926334858 -0.044983994215727 0.000000000000000
18.496767044067383 -0.280001610517502 0.316201627254486 0.003921568859369
8.207426071166992 0.273934900760651 0.470140159130096 0.000000000000000
7.899075508117676 0.263328224420547 -0.184295207262039 0.000000000000000
7.824131011962891 0.232582047581673 0.177431136369705 0.000000000000000
11.267916679382324 -0.209821373224258 2.034388303756714 0.000000000000000
11.945938110351562 0.897307872772217 -0.211315691471100 0.000000000000000
8.886774063110352 -0.625363588333130 0.100153848528862 0.000000000000000
9.297996520996094 -0.203760847449303 0.157960519194603 0.000000000000000
14.935450553894043 0.396424919366837 0.860231041908264 0.000000000000000
7.059882640838623 0.527806222438812 -0.287076205015182 0.000000000000000
7.186238288879395 -0.181520834565163 0.121632076799870 0.000000000000000
6.346443176269531 -0.159836292266846 0.252823621034622 0.000000000000000
7.744193077087402 0.149955794215202 -0.002480322495103 0.000000000000000
7.195359230041504 -0.555953562259674 0.080862618982792 0.000000000000000
13.977575302124023 -0.407346457242966 0.238590240478516 0.000000000000000
5.132737159729004 -0.164818659424782 -0.148424625396729 0.000000000000000
13.527352333068848 -0.440915107727051 0.543863773345947 0.000000000000000
12.111379623413086 -0.394127517938614 0.978194296360016 0.000000000000000
8.050425529479980 0.128058969974518 -0.187724769115448 0.000000000000000
6.525022506713867 -0.232599034905434 -0.189240053296089 0.000000000000000
11.702014923095703 0.713670670986176 0.063413970172405 0.000000000000000
11.720368385314941 0.714575827121735 -0.478284597396851 0.000000000000000
14.533221244812012 -0.522931694984436 2.628022193908691 0.000000000000000
14.091770172119141 0.129538804292679 0.320948660373688 0.000000000000000
12.398208618164062 0.715637981891632 0.354076474905014 0.000000000000000
9.938556671142578 -0.388671427965164 1.791257858276367 0.000000000000000
7.361732482910156 0.067676022648811 -0.171502426266670 0.000000000000000
5.270994663238525 -0.221993282437325 0.208806380629539 0.000000000000000
4.078783512115479 0.218188256025314 -0.163922086358070 0.000000000000000
11.289622306823730 -0.481350541114807 2.037725210189819 0.000000000000000
7.457892894744873 0.042884625494480 -0.173752397298813 0.000000000000000
14.052018165588379 0.031657643616199 -0.004496119916439 0.000000000000000
13.287978172302246 0.031500652432442 3.528083562850952 0.000000000000000
6.613856792449951 -0.302378535270691 1.185898184776306 0.000000000000000
8.860758781433105 0.417962223291397 -0.156210109591484 0.000000000000000
2.676047801971436 -0.002111519454047 -0.001251785550267 0.000000000000000
15.819952011108398 -0.788075208663940 -0.096103899180889 0.000000000000000
2.651375293731689 -0.002053799107671 0.058029685169458 0.000000000000000
14.671540260314941 -0.730246007442474 0.250249475240707 0.000000000000000
3.675735235214233 -0.177989572286606 0.290475368499756 0.000000000000000
10.989222526550293 0.483180522918701 0.059507060796022 0.000000000000000
20.950967788696289 0.924418509006500 0.600457549095154 0.003921568859369
5.660286426544189 -0.044175971299410 1.486646413803101 0.000000000000000
17.978477478027344 -0.147148460149765 -0.421479493379593 0.000000000000000
12.081845283508301 0.447677969932556 -0.213334098458290 0.000000000000000
9.913841247558594 -0.592867314815521 -0.289072364568710 0.000000000000000
15.686884880065918 -0.179489210247993 0.357755899429321 0.000000000000000
14.491091728210449 -0.165907278656960 -0.339339494705200 0.000000000000000
17.798030853271484 -0.265929281711578 -0.005432466976345 0.003921568859369
5.880666255950928 0.196424320340157 0.031346339732409 0.000000000000000
12.460440635681152 0.375425100326538 -0.219972804188728 0.000000000000000
8.592028617858887 0.258368581533432 0.046311948448420 0.000000000000000
10.460880279541016 -0.191034823656082 0.599869310855865 0.000000000000000
11.919428825378418 -0.796792447566986 0.478926390409470 0.000000000000000
8.077683448791504 0.242633089423180 -0.327897071838379 0.000000000000000
16.455608367919922 0.439278334379196 -0.290874212980270 0.003921568859369
16.487365722656250 0.440449476242065 0.471606105566025 0.003921568859369
10.530437469482422 -0.227786988019943 2.790825366973877 0.000000000000000
14.901705741882324 0.345966994762421 -0.263237208127975 0.000000000000000
14.207767486572266 -0.359112828969955 0.817247509956360 0.000000000000000
2.481496334075928 -0.059419684112072 0.290826976299286 0.000000000000000
5.538066387176514 -0.441228181123734 -0.160432636737823 0.000000000000000
16.489450454711914 -0.531533837318420 0.375795096158981 0.000000000000000
16.131097793579102 -0.519602060317993 0.927912652492523 0.000000000000000
7.493483543395996 -0.600400149822235 0.601775884628296 0.000000000000000
12.278542518615723 -0.437138170003891 -0.004170668311417 0.000000000000000
12.359084129333496 -0.440179020166397 -0.289307504892349 0.000000000000000
11.541050910949707 -1.007453799247742 -0.337515205144882 0.000000000000000
13.769596099853516 0.133780479431152 0.074462726712227 0.000000000000000
11.161373138427734 -1.520561099052429 0.126509085297585 0.000000000000000
18.677865982055664 -1.704178214073181 3.393107891082764 0.003921568859369
12.521216392517090 -0.571692585945129 -0.004183178301901 0.000000000000000
3.158457994461060 -0.439667642116547 0.034486614167690 0.000000000000000
3.957603454589844 -0.175904452800751 0.470670700073242 0.000000000000000
9.408976554870605 -0.005935126449913 -0.165714889764786 0.000000000000000
14.634222030639648 -0.009891300462186 0.079281762242317 0.000000000000000
6.599755764007568 -0.003580670338124 0.186138302087784 0.000000000000000
9.680847167968750 -0.039542682468891 -0.170531049370766 0.000000000000000
12.282149314880371 -0.050538185983896 0.066365778446198 0.000000000000000
13.792653083801270 -0.056833676993847 0.393252611160278 0.000000000000000
2.921474933624268 -0.147751152515411 0.343749403953552 0.000000000000000
19.563646316528320 -1.987717628479004 3.558701992034912 0.003921568859369
8.404876708984375 -0.064471118152142 -0.147851586341858 0.000000000000000
17.805622100830078 -0.138952285051346 0.096787460148335 0.000000000000000
19.381855010986328 -0.151243776082993 0.554225742816925 0.003921568859369
12.941611289978027 -0.726359605789185 3.438051939010620 0.000000000000000
18.409589767456055 -1.937469720840454 3.348818302154541 0.003921568859369
4.585252761840820 -0.064565606415272 -0.079990506172180 0.000000000000000
9.937228202819824 -0.143405795097351 0.053518623113632 0.000000000000000
6.840263843536377 -0.121314108371735 -0.120040670037270 0.000000000000000
3.928229808807373 -0.068105459213257 0.109273001551628 0.000000000000000
6.312571048736572 -0.111825026571751 -0.399764865636826 0.000000000000000
15.021201133728027 -0.999489068984985 1.829614996910095 0.000000000000000
5.395393848419189 -0.613322019577026 0.967371165752411 0.000000000000000
17.602029800415039 -0.375172287225723 -0.311533123254776 0.003921568859369
11.228442192077637 -0.861337125301361 0.255177110433578 0.000000000000000
5.615172863006592 -0.424841910600662 0.673845529556274 0.000000000000000
5.331354141235352 -0.166305482387543 -0.336180180311203 0.000000000000000
13.860532760620117 -1.113861918449402 0.797809779644012 0.000000000000000
15.968353271484375 -0.561364233493805 -0.282468467950821 0.000000000000000
14.049613952636719 -1.863472700119019 2.556966543197632 0.000000000000000
15.200629234313965 -2.130232095718384 2.771236419677734 0.000000000000000
13.474978446960449 -0.659196197986603 0.384155333042145 0.000000000000000
20.242916107177734 -2.979439020156860 3.701955080032349 0.003921568859369
9.884878158569336 -0.994319558143616 2.625118494033813 0.000000000000000
19.832733154296875 -3.059409856796265 3.630388259887695 0.003921568859369
11.655274391174316 -1.335255384445190 1.419722914695740 0.000000000000000
12.434161186218262 -2.086814641952515 2.270328998565674 0.000000000000000
11.879980087280273 -0.906921148300171 0.063944481313229 0.000000000000000
6.606883049011230 -1.164816379547119 1.196471333503723 0.000000000000000
6.278349399566650 -0.538527905941010 -0.253902643918991 0.000000000000000
25.023162841796875 -3.850902557373047 6.736496925354004 0.003921568859369
4.542944908142090 -0.934798836708069 -0.028064707294106 0.000000000000000
9.168729782104492 -2.587898969650269 -0.112070083618164 0.000000000000000
24.172695159912109 -6.984954833984375 -0.297422140836716 0.003921568859369
18.091657638549805 -4.275623321533203 3.358206033706665 0.003921568859369
5.542385578155518 -1.063846826553345 1.468713402748108 0.000000000000000
25.037382125854492 -6.199494361877441 4.667647838592529 0.003921568859369
14.130224227905273 -2.918172597885132 -0.004882770590484 0.000000000000000
18.777086257934570 -3.885459899902344 5.090425014495850 0.003921568859369
27.019195556640625 -5.699107170104980 7.349121570587158 0.003921568859369
2.508595943450928 -0.396213591098785 -0.098759941756725 0.000000000000000
25.516998291015625 -6.976585865020752 4.788477897644043 0.003921568859369
9.127327919006348 -2.036796808242798 -0.003317475551739 0.003921568859369
21.834045410156250 -7.210781574249268 -0.271386355161667 0.003921568859369
6.273091316223145 -1.431923270225525 1.680869817733765 0.000000000000000
8.415783882141113 -1.541419386863708 -0.150002196431160 0.000000000000000
22.980609893798828 -7.943962097167969 -0.287039309740067 0.003921568859369
21.692832946777344 -7.494994163513184 0.259857505559921 0.003921568859369
22.034275054931641 -6.674713611602783 1.860272765159607 0.003921568859369
24.857789993286133 -6.515629768371582 3.127835273742676 0.003921568859369
7.556948184967041 -1.621961951255798 -0.135188519954681 0.000000000000000
10.603506088256836 -2.329620838165283 -0.190679520368576 0.000000000000000
27.927793502807617 -9.213571548461914 5.325827121734619 0.003921568859369
27.893814086914062 -9.315252304077148 5.325912475585938 0.003921568859369
24.141897201538086 -8.148382186889648 -0.743252575397491 0.003921568859369
23.630762100219727 -8.061417579650879 -0.728174686431885 0.003921568859369
23.298950195312500 -8.042224884033203 -0.718719542026520 0.003921568859369
22.509769439697266 -6.647394657135010 0.535350799560547 0.003921568859369
25.102108001708984 -6.291737079620361 0.141036450862885 0.003921568859369
22.612289428710938 -6.496270179748535 0.128257617354393 0.003921568859369
22.587352752685547 -7.694313526153564 -0.557654917240143 0.003921568859369
22.321037292480469 -7.693625926971436 -0.551657080650330 0.003921568859369
20.488742828369141 -8.262724876403809 3.991345405578613 0.003921568859369
22.977684020996094 -7.122281074523926 0.687770903110504 0.003921568859369
14.927197456359863 -6.475947856903076 2.930035591125488 0.003921568859369
20.306344985961914 -10.221484184265137 0.259040951728821 0.003921568859369
21.150413513183594 -9.471684455871582 -0.539756536483765 0.003921568859369
21.048332214355469 -9.509550094604492 2.807946681976318 0.003921568859369
24.662683486938477 -11.257364273071289 3.300228357315063 0.003921568859369
24.708787918090820 -12.752917289733887 3.386097669601440 0.003921568859369
24.662830352783203 -12.832207679748535 3.385708808898926 0.003921568859369
23.494024276733398 -12.420452117919922 3.234234571456909 0.003921568859369
18.918312072753906 -12.751167297363281 -0.264324575662613 0.003921568859369
17.641330718994141 -12.682017326354980 -0.251023679971695 0.003921568859369
13.323428153991699 -8.712099075317383 2.864958047866821 0.003921568859369
15.386548995971680 -11.278467178344727 0.219666823744774 0.003921568859369
12.855518341064453 -8.602040290832520 0.621012032032013 0.000000000000000
17.520872116088867 -13.151637077331543 0.253060162067413 0.003921568859369
19.290390014648438 -13.376075744628906 -0.136027827858925 0.003921568859369
15.106384277343750 -10.663499832153320 0.318479150533676 0.003921568859369
11.987293243408203 -8.550665855407715 1.184893727302551 0.003921568859369
12.532663345336914 -9.410205841064453 0.630217671394348 0.000000000000000
12.065581321716309 -8.227455139160156 1.766951560974121 0.000000000000000
10.922668457031250 -8.349702835083008 0.551522016525269 0.003921568859369
11.903493881225586 -8.231226921081543 1.749885797500610 0.003921568859369
10.920012474060059 -8.404813766479492 0.552884042263031 0.003921568859369
