# This PCD file was generated using the MATLAB® pcwrite function
# from Computer Vision Toolbox®.
# .PCD v.7 - Point Cloud Data file format
VERSION .7
FIELDS x y z intensity
SIZE 8 8 8 8
TYPE F F F F
COUNT 1 1 1 1
WIDTH 644
HEIGHT 1
VIEWPOINT 0 0 0 1 0 0 0
POINTS 644
DATA ascii
7.795982360839844 1.229836583137512 0.091320596635342 0.000000000000000
13.974062919616699 2.159863948822021 -0.164105191826820 0.000000000000000
7.831848144531250 1.207660675048828 0.091691568493843 0.000000000000000
3.146485805511475 0.961855769157410 0.094462409615517 0.000000000000000
9.566111564636230 1.957050800323486 1.772868156433105 0.000000000000000
14.814812660217285 4.514393806457520 0.090013042092323 0.000000000000000
3.498687982559204 0.684006869792938 0.287544816732407 0.000000000000000
16.627267837524414 4.132468223571777 4.580274581909180 0.003921568859369
14.536211967468262 2.762912034988403 -0.085673712193966 0.000000000000000
8.117210388183594 1.539318084716797 0.334881663322449 0.000000000000000
12.780914306640625 2.428234577178955 1.058761954307556 0.000000000000000
5.963842868804932 1.431753039360046 1.632548689842224 0.000000000000000
8.352313041687012 1.584035992622375 1.542519688606262 0.000000000000000
9.866714477539062 2.304840803146362 0.000016547579435 0.003921568859369
5.758069038391113 1.639432311058044 -0.242356315255165 0.000000000000000
17.638727188110352 2.222514629364014 -0.206291690468788 0.003921568859369
7.011095046997070 1.918529152870178 -0.126050382852554 0.000000000000000
7.852480411529541 0.959514737129211 -0.091632433235645 0.000000000000000
5.640853404998779 1.540750026702881 0.168630674481392 0.000000000000000
11.684297561645508 1.389653205871582 -0.136442795395851 0.000000000000000
7.905462741851807 1.330017924308777 0.650169312953949 0.000000000000000
3.900635719299316 0.651746094226837 0.711535811424255 0.000000000000000
10.181561470031738 1.104480266571045 -0.355933368206024 0.000000000000000
22.080095291137695 3.497382640838623 4.066901206970215 0.003921568859369
14.312457084655762 2.930337667465210 1.787703156471252 0.000000000000000
7.032901287078857 1.082208752632141 0.576582968235016 0.000000000000000
10.579124450683594 1.108803391456604 -0.369749605655670 0.000000000000000
11.562860488891602 1.743380546569824 0.474300116300583 0.000000000000000
14.265860557556152 2.152705669403076 1.173645615577698 0.000000000000000
14.245553970336914 2.096571683883667 -0.083350881934166 0.000000000000000
15.790603637695312 2.324758768081665 0.277777999639511 0.000000000000000
8.137609481811523 1.575005412101746 -0.191757008433342 0.000000000000000
14.990233421325684 2.102729082107544 0.263367623090744 0.000000000000000
26.179857254028320 3.584974050521851 -0.767229318618774 0.003921568859369
5.848603248596191 0.795316457748413 0.101963505148888 0.000000000000000
14.935132980346680 2.788595199584961 0.881967306137085 0.000000000000000
26.174184799194336 3.494827270507812 -0.766366958618164 0.003921568859369
13.791985511779785 3.226080179214478 0.082149423658848 0.000000000000000
17.762012481689453 3.255586385726929 2.209959030151367 0.003921568859369
26.047456741333008 3.385571479797363 -0.762308895587921 0.003921568859369
3.716271162033081 0.831040561199188 -0.065631836652756 0.000000000000000
26.111257553100586 3.296840429306030 -0.763831675052643 0.003921568859369
6.985139846801758 0.876105785369873 0.284119904041290 0.000000000000000
26.070459365844727 3.204077482223511 -0.762330651283264 0.003921568859369
3.026057004928589 0.513145089149475 -0.000266175775323 0.000000000000000
10.058420181274414 1.231433987617493 -0.058641422539949 0.000000000000000
8.348585128784180 1.020747542381287 0.340002417564392 0.000000000000000
4.625252723693848 1.021884560585022 -0.190697431564331 0.000000000000000
13.389417648315430 1.594623208045959 -0.390651792287827 0.000000000000000
10.054713249206543 1.195584654808044 -0.058599315583706 0.000000000000000
15.014837265014648 2.534979820251465 1.862271070480347 0.000000000000000
23.884407043457031 2.850070238113403 1.958846092224121 0.003921568859369
26.012235641479492 3.017733573913574 -0.760026693344116 0.003921568859369
17.996997833251953 2.085580110549927 -0.104855224490166 0.000000000000000
10.634080886840820 1.229298353195190 0.433516085147858 0.000000000000000
24.558481216430664 2.848047971725464 4.496665954589844 0.003921568859369
26.102073669433594 2.936097383499146 -0.762362837791443 0.003921568859369
10.135669708251953 2.147217273712158 0.059870868921280 0.000000000000000
3.863219738006592 0.617839992046356 0.089365102350712 0.000000000000000
6.060067176818848 0.676179111003876 0.492529362440109 0.000000000000000
26.112161636352539 2.845176458358765 -0.762373805046082 0.003921568859369
16.318021774291992 2.584240436553955 0.000127285340568 0.003921568859369
26.142297744750977 2.751782894134521 -0.762966632843018 0.003921568859369
12.368314743041992 2.531200170516968 0.073099508881569 0.000000000000000
26.187543869018555 2.664373159408569 -0.764023959636688 0.003921568859369
7.048847198486328 0.712465763092041 0.122386716306210 0.000000000000000
12.528223037719727 1.890434145927429 -0.293392151594162 0.000000000000000
17.675420761108398 3.498069524765015 -0.313192486763000 0.003921568859369
26.172359466552734 2.575374364852905 -0.763336777687073 0.003921568859369
10.598850250244141 1.039233803749084 -0.061657920479774 0.000000000000000
9.952710151672363 1.964234828948975 0.293449312448502 0.000000000000000
26.213033676147461 2.487251043319702 -0.764277935028076 0.003921568859369
11.133705139160156 0.509131133556366 -0.129209771752357 0.000000000000000
8.191932678222656 1.553760409355164 -0.144395515322685 0.000000000000000
26.494689941406250 2.420255184173584 -0.771927118301392 0.003921568859369
7.807860374450684 1.091702699661255 -0.000169238133822 0.000000000000000
9.439432144165039 0.398020625114441 0.108899690210819 0.000000000000000
15.429963111877441 1.406256794929504 2.811756610870361 0.000000000000000
27.068552017211914 2.377819061279297 -0.788449406623840 0.003921568859369
12.185426712036133 1.066845536231995 -0.070791028439999 0.000000000000000
13.955960273742676 2.606517314910889 0.411229431629181 0.000000000000000
8.399835586547852 1.145549178123474 0.489376336336136 0.000000000000000
6.683908939361572 0.234717890620232 -0.077322028577328 0.000000000000000
6.963812351226807 0.582703351974487 -0.040447045117617 0.000000000000000
9.596302986145020 1.753621935844421 0.281775891780853 0.000000000000000
4.945194244384766 0.173010900616646 -0.284286051988602 0.000000000000000
11.016350746154785 0.925324738025665 0.447301715612411 0.000000000000000
26.707111358642578 3.569726228713989 -0.624895811080933 0.003921568859369
7.694888591766357 0.994402647018433 0.447486072778702 0.000000000000000
6.701267242431641 0.537159204483032 0.270686089992523 0.000000000000000
26.636140823364258 3.465860843658447 -0.622957348823547 0.003921568859369
6.634046077728271 0.508729457855225 -0.191798508167267 0.000000000000000
5.843938827514648 0.447375476360321 0.472279906272888 0.000000000000000
26.640140533447266 3.372113943099976 -0.622784435749054 0.003921568859369
14.610323905944824 1.793560743331909 0.340866565704346 0.000000000000000
26.612060546875000 3.274451494216919 -0.621868073940277 0.003921568859369
14.346397399902344 1.710479855537415 -0.000000050116796 0.000000000000000
14.363863945007324 2.425741910934448 0.084350965917110 0.000000000000000
7.517910003662109 0.524971127510071 -0.043633237481117 0.000000000000000
26.583625793457031 3.177026033401489 -0.620951712131500 0.003921568859369
26.558263778686523 3.084948539733887 -0.620127558708191 0.003921568859369
11.109982490539551 0.702803373336792 -0.064462892711163 0.000000000000000
3.237817764282227 0.201434001326561 0.577932894229889 0.000000000000000
26.612581253051758 2.997406721115112 -0.621162831783295 0.003921568859369
18.291200637817383 1.989870786666870 0.426548600196838 0.000000000000000
2.990194559097290 0.318622529506683 0.170589923858643 0.000000000000000
26.635314941406250 2.901421070098877 -0.621455371379852 0.003921568859369
15.903700828552246 2.460174322128296 0.466388612985611 0.003921568859369
2.876127004623413 0.296263992786407 0.163841202855110 0.000000000000000
4.657637119293213 0.712544739246368 -0.189306855201721 0.000000000000000
26.712884902954102 2.815820455551147 -0.623048424720764 0.003921568859369
11.936233520507812 0.630605638027191 0.969681560993195 0.000000000000000
26.781749725341797 2.733562469482422 -0.624454975128174 0.003921568859369
15.669259071350098 2.316610097885132 -0.274933308362961 0.000000000000000
20.419454574584961 2.013329982757568 0.000135253416374 0.003921568859369
6.342448234558105 0.005864376667887 -0.073263458907604 0.000000000000000
26.856712341308594 2.650737285614014 -0.625727474689484 0.003921568859369
18.382669448852539 1.747135281562805 0.427825778722763 0.000000000000000
15.197798728942871 -0.038584526628256 0.175695419311523 0.000000000000000
10.152390480041504 0.961495518684387 -0.707511961460114 0.000000000000000
17.572319030761719 2.536974430084229 0.514500021934509 0.003921568859369
15.111707687377930 1.379324316978455 -0.000043008010834 0.000000000000000
5.502719879150391 0.747597336769104 -0.095781788229942 0.000000000000000
11.989529609680176 -0.113494142889977 -0.138951122760773 0.000000000000000
11.594353675842285 1.017900466918945 0.672865688800812 0.000000000000000
4.691858291625977 -0.043945554643869 -0.161378338932991 0.000000000000000
14.059582710266113 1.875705480575562 0.410431593656540 0.000000000000000
4.863909721374512 0.170522645115852 0.390164792537689 0.000000000000000
7.709753036499023 0.619493782520294 -0.000271484488621 0.000000000000000
15.227674484252930 1.978680968284607 0.444559007883072 0.000000000000000
12.366635322570801 0.395397514104843 0.214283630251884 0.000000000000000
10.721550941467285 0.308941096067429 0.433335185050964 0.000000000000000
7.381468296051025 0.183970302343369 -0.212823912501335 0.000000000000000
8.148068428039551 -0.190972939133644 0.093523882329464 0.000000000000000
3.073467969894409 0.075330197811127 0.051791965961456 0.000000000000000
6.703687667846680 0.166906327009201 -0.347451180219650 0.000000000000000
14.419468879699707 1.063556551933289 1.765051960945129 0.000000000000000
14.332653999328613 -0.387094408273697 -0.166295260190964 0.000000000000000
14.457573890686035 1.725168585777283 0.421350955963135 0.000000000000000
3.025731325149536 0.063849434256554 0.050951711833477 0.000000000000000
13.718273162841797 0.295876413583755 1.113153457641602 0.000000000000000
12.652610778808594 0.272544145584106 2.292077064514160 0.000000000000000
8.310029029846191 0.149917975068092 -0.239812195301056 0.000000000000000
3.001892328262329 0.339951992034912 0.085142336785793 0.000000000000000
14.370323181152344 0.260279476642609 0.249195143580437 0.000000000000000
10.801421165466309 0.195140048861504 0.874860286712646 0.000000000000000
12.881063461303711 -0.392333567142487 -0.447493880987167 0.000000000000000
14.585370063781738 0.973771095275879 3.894593238830566 0.000000000000000
22.030084609985352 2.486543416976929 0.128608360886574 0.003921568859369
6.270920276641846 -0.209228500723839 0.071655489504337 0.000000000000000
8.668283462524414 0.972635030746460 0.251257866621017 0.000000000000000
11.915885925292969 0.091728903353214 -0.344417273998260 0.000000000000000
9.348785400390625 -0.380796730518341 0.107381418347359 0.000000000000000
10.229516029357910 0.542501628398895 0.590878248214722 0.000000000000000
3.310947895050049 0.172053396701813 0.862962603569031 0.000000000000000
7.755722522735596 0.382011622190475 -0.000348257715814 0.000000000000000
13.005529403686523 -0.619227826595306 -0.150942280888557 0.000000000000000
4.068112373352051 0.393481820821762 0.115840464830399 0.000000000000000
9.519119262695312 0.436857521533966 0.549220085144043 0.000000000000000
6.747076511383057 -0.017050923779607 0.542752146720886 0.000000000000000
23.180490493774414 -0.059447020292282 4.209247112274170 0.003921568859369
13.632807731628418 0.580327451229095 -0.000217885884922 0.000000000000000
15.377146720886230 -0.839937388896942 -0.178650200366974 0.000000000000000
13.194705009460449 0.561255812644958 1.609909653663635 0.000000000000000
9.812090873718262 -0.566456794738770 -0.113825552165508 0.000000000000000
10.488321304321289 0.921183943748474 0.060446877032518 0.000000000000000
6.192405700683594 -0.057261016219854 1.111633658409119 0.000000000000000
9.556281089782715 -0.123177416622639 -0.055415317416191 0.000000000000000
13.833980560302734 -0.178891703486443 0.239512994885445 0.000000000000000
8.162361145019531 0.289326280355453 0.469869822263718 0.000000000000000
9.472670555114746 0.336456686258316 -0.218723386526108 0.000000000000000
24.137561798095703 -0.396834403276443 -0.139992207288742 0.003921568859369
11.733774185180664 0.947609245777130 0.339712351560593 0.000000000000000
13.345079421997070 -0.260324120521545 -0.386116057634354 0.000000000000000
4.366256713867188 0.124845683574677 0.099023744463921 0.000000000000000
7.754561424255371 0.599437415599823 0.223339349031448 0.000000000000000
4.411417961120605 0.321915864944458 0.125607356429100 0.000000000000000
8.555332183837891 -0.197252601385117 -0.444040566682816 0.000000000000000
5.469882965087891 -0.125482350587845 0.438565433025360 0.000000000000000
6.074964523315430 -0.161438807845116 -0.035252656787634 0.000000000000000
14.919299125671387 -0.400561749935150 2.703789234161377 0.000000000000000
7.188039779663086 0.130536600947380 -0.000403148820624 0.000000000000000
7.830811500549316 0.142286077141762 0.450303018093109 0.000000000000000
6.988579273223877 -0.210117965936661 -0.362005233764648 0.000000000000000
8.793357849121094 -0.292156904935837 0.151260986924171 0.000000000000000
12.861788749694824 -0.428971350193024 0.519615948200226 0.000000000000000
15.319958686828613 -0.512048006057739 2.775479316711426 0.000000000000000
11.362071990966797 0.683541119098663 0.327995598316193 0.000000000000000
6.348245620727539 0.073354773223400 0.766327202320099 0.000000000000000
15.437089920043945 0.124206490814686 0.892712950706482 0.000000000000000
6.149971961975098 0.048860270529985 0.741944849491119 0.000000000000000
10.994810104370117 -0.444564282894135 1.986910462379456 0.000000000000000
9.913818359375000 -0.434377133846283 -0.057586949318647 0.000000000000000
12.145229339599609 0.644643902778625 0.350692272186279 0.000000000000000
10.179791450500488 0.046293206512928 1.236805677413940 0.000000000000000
7.938356876373291 -0.759312629699707 0.091023735702038 0.000000000000000
19.338970184326172 0.021537464112043 1.119969129562378 0.000000000000000
13.447913169860840 -0.637753307819366 1.090117335319519 0.000000000000000
18.062650680541992 -0.858647167682648 3.277690887451172 0.003921568859369
7.561672210693359 -0.382430285215378 -0.043948736041784 0.000000000000000
8.978217124938965 0.412970542907715 0.258197456598282 0.000000000000000
17.544527053833008 -0.041586019098759 2.141190052032471 0.003921568859369
10.738186836242676 -0.545475602149963 0.868776440620422 0.000000000000000
18.336135864257812 -0.995454847812653 -0.106602899730206 0.000000000000000
15.446398735046387 -0.837764680385590 0.267711639404297 0.000000000000000
13.679023742675781 -0.124454393982887 -0.000384155486245 0.000000000000000
9.788560867309570 -0.088851988315582 0.224927037954330 0.000000000000000
14.369357109069824 -0.828914284706116 0.248915448784828 0.000000000000000
12.261951446533203 -0.238876849412918 0.282540291547775 0.000000000000000
4.914517879486084 -0.094656370580196 0.590288281440735 0.000000000000000
9.351629257202148 -0.214195758104324 1.135343074798584 0.000000000000000
7.019873619079590 -0.160000696778297 -0.161490961909294 0.000000000000000
20.710805892944336 -1.557579398155212 -0.120654918253422 0.003921568859369
10.499465942382812 -0.276519656181335 0.241231426596642 0.000000000000000
9.278922080993652 0.173623457551003 -0.160446569323540 0.000000000000000
7.826505661010742 -0.230925217270851 -0.000561408058275 0.000000000000000
13.432047843933105 -1.051858663558960 1.089975237846375 0.000000000000000
9.798668861389160 -0.324375987052917 2.595929384231567 0.000000000000000
6.979425430297852 -0.253518193960190 -0.160447344183922 0.000000000000000
8.376406669616699 0.069977737963200 -0.144710347056389 0.000000000000000
10.129782676696777 -0.404883772134781 -0.000554961210582 0.003921568859369
11.045733451843262 -0.978691935539246 0.895320951938629 0.000000000000000
21.153543472290039 -1.884028077125549 3.850740432739258 0.003921568859369
2.805516719818115 0.013352088630199 -0.047587372362614 0.000000000000000
2.964715242385864 0.014116518199444 0.082364015281200 0.000000000000000
10.322794914245605 -0.448516607284546 0.594550132751465 0.000000000000000
12.492945671081543 -0.544023871421814 1.520877480506897 0.000000000000000
5.092367649078369 -0.236108019948006 -0.000616165751126 0.000000000000000
9.905783653259277 0.014531324617565 0.056444246321917 0.000000000000000
14.871686935424805 -0.029500864446163 -0.257975995540619 0.000000000000000
7.851937770843506 -0.394020944833755 -0.000597202393692 0.000000000000000
6.211362838745117 -0.012293741106987 0.176907852292061 0.000000000000000
3.392148017883301 -0.167010441422462 0.190527006983757 0.000000000000000
8.975824356079102 -0.451482862234116 1.088924050331116 0.000000000000000
10.556779861450195 -0.568417429924011 0.608481526374817 0.000000000000000
10.754170417785645 -0.579314053058624 1.307807803153992 0.000000000000000
3.290897607803345 -0.498380661010742 -0.038147576153278 0.000000000000000
4.877819538116455 -0.042805623263121 -0.194669693708420 0.000000000000000
12.631083488464355 -0.156119674444199 -0.218954697251320 0.000000000000000
6.798605442047119 -0.083476670086384 0.194008752703667 0.000000000000000
4.748778820037842 -0.513136804103851 0.849523901939392 0.000000000000000
12.730435371398926 -0.201407089829445 -0.220708072185516 0.000000000000000
11.236353874206543 -0.177621945738792 0.064169041812420 0.000000000000000
9.774841308593750 -1.103661537170410 1.772164583206177 0.000000000000000
9.046487808227539 -0.173583433032036 0.051292646676302 0.000000000000000
11.345184326171875 -0.257470726966858 0.064688853919506 0.000000000000000
12.419878005981445 -0.282192528247833 0.357402890920639 0.000000000000000
6.134420394897461 -0.137840434908867 -0.385906755924225 0.000000000000000
8.302690505981445 -0.216152533888817 -0.333910405635834 0.000000000000000
15.622551918029785 -1.935023784637451 2.846800327301025 0.000000000000000
6.304652690887451 -0.183910071849823 -0.108559720218182 0.000000000000000
10.203590393066406 -0.299996554851532 0.292886525392532 0.000000000000000
7.789780139923096 -0.253485769033432 -0.313088297843933 0.000000000000000
5.162788391113281 -0.185217082500458 0.146073892712593 0.000000000000000
6.726282596588135 -0.566962420940399 1.774780750274658 0.000000000000000
9.771296501159668 -0.861778497695923 0.224648877978325 0.000000000000000
9.308767318725586 -0.432199776172638 -0.161122396588326 0.000000000000000
2.827119350433350 -0.260026156902313 -0.063909590244293 0.000000000000000
10.760501861572266 -1.062517523765564 0.247977495193481 0.000000000000000
7.799199104309082 -0.389460146427155 0.222996070981026 0.000000000000000
17.901529312133789 -1.776898860931396 4.786344528198242 0.003921568859369
6.573118209838867 -0.964607596397400 1.188039064407349 0.000000000000000
3.230912923812866 -0.321349263191223 0.071940906345844 0.000000000000000
4.389238834381104 -0.667681038379669 0.786278069019318 0.000000000000000
8.013168334960938 -0.507248163223267 -0.138536900281906 0.000000000000000
9.080513954162598 -0.610456705093384 -0.157248303294182 0.000000000000000
22.399986267089844 -1.597614049911499 0.648963689804077 0.003921568859369
18.768491744995117 -3.187307119369507 3.445563793182373 0.003921568859369
7.674876689910889 -1.314194560050964 1.394536972045898 0.000000000000000
13.707242965698242 -1.064437627792358 0.395465791225433 0.000000000000000
9.323848724365234 -0.754592239856720 0.267563700675964 0.000000000000000
4.043438434600830 -0.710012912750244 0.160974130034447 0.000000000000000
4.186607360839844 -0.360540628433228 0.022860061377287 0.000000000000000
10.971270561218262 -0.964161396026611 0.315837055444717 0.000000000000000
3.231958627700806 -0.471573024988174 0.180960059165955 0.000000000000000
5.154143810272217 -0.783153414726257 0.621569514274597 0.000000000000000
9.078680038452148 -1.881778717041016 0.744146347045898 0.000000000000000
3.070540904998779 -0.637116611003876 0.243469163775444 0.000000000000000
12.075542449951172 -3.302613735198975 -0.145596534013748 0.000000000000000
27.968725204467773 -7.702250957489014 0.333772033452988 0.003921568859369
27.924907684326172 -7.799853801727295 0.333557009696960 0.003921568859369
27.889820098876953 -7.894586086273193 0.333436191082001 0.003921568859369
7.358705997467041 -2.079864025115967 -0.088652595877647 0.000000000000000
13.521128654479980 -3.157848358154297 -0.081281796097755 0.000000000000000
27.326791763305664 -6.512957096099854 2.279776811599731 0.003921568859369
6.601780891418457 -1.979856491088867 -0.079838521778584 0.000000000000000
8.749037742614746 -1.838103055953979 -0.001230623805895 0.003921568859369
27.647773742675781 -7.301839351654053 2.319758892059326 0.003921568859369
27.289291381835938 -5.902794837951660 0.644188702106476 0.003921568859369
26.707656860351562 -5.778322219848633 7.279151916503906 0.003921568859369
27.351566314697266 -6.010864734649658 0.646111726760864 0.003921568859369
10.247812271118164 -2.267583131790161 -0.001320866285823 0.003921568859369
26.218601226806641 -7.210375785827637 2.205187320709229 0.003921568859369
7.937448501586914 -1.777729988098145 2.137646436691284 0.000000000000000
26.474428176879883 -7.479338169097900 2.231149435043335 0.003921568859369
13.313832283020020 -3.102649688720703 3.620939493179321 0.000000000000000
26.531513214111328 -7.691749572753906 2.239378690719604 0.003921568859369
16.311815261840820 -3.866574287414551 4.446827888488770 0.003921568859369
25.955619812011719 -6.269073486328125 0.615333139896393 0.003921568859369
27.162113189697266 -7.978073120117188 2.295282840728760 0.003921568859369
25.666845321655273 -6.387751579284668 0.609424233436584 0.003921568859369
26.605958938598633 -8.014842033386230 2.252620220184326 0.003921568859369
25.811046600341797 -6.519092082977295 0.613387107849121 0.003921568859369
15.585189819335938 -3.976929903030396 -0.001810563378967 0.000000000000000
25.296407699584961 -6.482600688934326 3.184295177459717 0.003921568859369
19.941959381103516 -5.166897773742676 -0.002071451861411 0.003921568859369
19.767034530639648 -7.306027412414551 -0.246300309896469 0.003921568859369
27.660314559936523 -7.595267295837402 0.661106646060944 0.003921568859369
4.854525089263916 -1.295741081237793 1.302163958549500 0.000000000000000
27.899341583251953 -7.765592575073242 0.667478919029236 0.003921568859369
26.562953948974609 -7.487700939178467 0.635448694229126 0.003921568859369
26.559713363647461 -7.586392402648926 0.635973036289215 0.003921568859369
27.121728897094727 -7.748976707458496 3.439693927764893 0.003921568859369
27.638801574707031 -8.000561714172363 0.662662446498871 0.003921568859369
25.764802932739258 -8.832517623901367 2.206573963165283 0.003921568859369
9.210922241210938 -2.666317701339722 -0.001666687545367 0.003921568859369
27.751049041748047 -9.842456817626953 2.386590480804443 0.003921568859369
7.094972133636475 -2.146030664443970 -0.001551896799356 0.000000000000000
26.167314529418945 -8.061610221862793 0.630214512348175 0.003921568859369
25.919269561767578 -9.386672973632812 2.233401060104370 0.003921568859369
21.842592239379883 -7.986015796661377 1.881939053535461 0.003921568859369
18.534957885742188 -8.104533195495605 -0.236966580152512 0.003921568859369
25.325811386108398 -9.869658470153809 4.920163154602051 0.003921568859369
25.261951446533203 -9.945747375488281 4.914393424987793 0.003921568859369
26.735733032226562 -10.637688636779785 5.210505962371826 0.003921568859369
26.216941833496094 -9.081945419311523 3.381487607955933 0.003921568859369
16.178287506103516 -6.472482681274414 3.142484903335571 0.003921568859369
24.102205276489258 -9.874385833740234 4.713489055633545 0.003921568859369
24.734670639038086 -8.853584289550781 1.516234040260315 0.003921568859369
25.753545761108398 -9.317634582519531 3.337513923645020 0.003921568859369
25.236562728881836 -9.228407859802246 3.274158000946045 0.003921568859369
23.361854553222656 -9.849237442016602 4.587198734283447 0.003921568859369
23.001871109008789 -9.790414810180664 4.522635936737061 0.003921568859369
27.412645339965820 -10.351003646850586 3.570958614349365 0.003921568859369
25.060588836669922 -9.454914093017578 -0.622922003269196 0.003921568859369
26.730207443237305 -10.199250221252441 7.612361907958984 0.003921568859369
26.622417449951172 -10.263828277587891 7.591628074645996 0.003921568859369
16.688089370727539 -6.471676826477051 4.743668079376221 0.003921568859369
11.324785232543945 -4.092964649200439 0.342316299676895 0.000000000000000
26.495058059692383 -11.167291641235352 7.647976398468018 0.003921568859369
19.388462066650391 -8.224993705749512 -0.489490330219269 0.003921568859369
23.742061614990234 -10.388045310974121 6.888301372528076 0.003921568859369
17.285589218139648 -7.894895553588867 -0.441602766513824 0.000000000000000
16.439762115478516 -8.561988830566406 -0.538192689418793 0.003921568859369
18.805360794067383 -8.676350593566895 -0.481598168611526 0.003921568859369
18.536094665527344 -7.628619194030762 -0.812267482280731 0.003921568859369
16.590318679809570 -8.855932235717773 -0.979957520961761 0.003921568859369
16.087953567504883 -8.800261497497559 -0.955459356307983 0.003921568859369
17.927762985229492 -7.733524799346924 -0.341208279132843 0.003921568859369
16.836793899536133 -8.537030220031738 -0.874588489532471 0.003921568859369
18.931745529174805 -9.783035278320312 -0.988389253616333 0.003921568859369
17.341175079345703 -8.052525520324707 -0.334368616342545 0.003921568859369
16.247432708740234 -9.701281547546387 -0.550055861473083 0.003921568859369
16.077001571655273 -9.826367378234863 -0.547790944576263 0.003921568859369
16.205612182617188 -10.604115486145020 -0.117204658687115 0.000000000000000
15.469991683959961 -9.216763496398926 -0.419450759887695 0.003921568859369
17.920299530029297 -11.467844963073730 2.579991579055786 0.003921568859369
9.634185791015625 -6.558320999145508 3.060794591903687 0.000000000000000
9.592291831970215 -6.577651977539062 3.054572343826294 0.000000000000000
16.125534057617188 -11.258331298828125 0.445791393518448 0.003921568859369
13.289449691772461 -11.221124649047852 -0.908130943775177 0.003921568859369
14.646015167236328 -11.541381835937500 -0.007476050406694 0.003921568859369
13.927555084228516 -11.043237686157227 -0.007223223336041 0.003921568859369
13.257269859313965 -11.755007743835449 0.298161357641220 0.003921568859369
13.795130729675293 -13.674904823303223 -0.232874214649200 0.003921568859369
9.854500770568848 -8.849864959716797 0.221148654818535 0.000000000000000
13.509016036987305 -13.769420623779297 -0.231390565633774 0.003921568859369
13.862599372863770 -12.906485557556152 0.754722714424133 0.003921568859369
14.264786720275879 -11.063207626342773 0.096024021506310 0.003921568859369
14.624140739440918 -15.461343765258789 -0.255542278289795 0.003921568859369
14.783066749572754 -11.638732910156250 0.100153416395187 0.003921568859369
12.639062881469727 -12.317209243774414 0.295736372470856 0.003921568859369
13.498525619506836 -13.369024276733398 0.318736493587494 0.003921568859369
8.953683853149414 -9.266788482666016 0.509845554828644 0.000000000000000
9.850651741027832 -10.363706588745117 2.561344146728516 0.000000000000000
12.763406753540039 -13.617642402648926 -0.117151528596878 0.000000000000000
9.779886245727539 -10.359233856201172 2.552020311355591 0.000000000000000
14.008786201477051 -16.763162612915039 -0.263813018798828 0.003921568859369
13.571873664855957 -13.516727447509766 -0.450601577758789 0.003921568859369
13.820981979370117 -15.403662681579590 -0.130038067698479 0.003921568859369
9.889216423034668 -11.158230781555176 0.590973496437073 0.000000000000000
13.680716514587402 -12.887277603149414 -0.333710193634033 0.003921568859369
8.032688140869141 -10.013345718383789 -0.154998168349266 0.003921568859369
10.182753562927246 -11.646955490112305 0.612949967384338 0.000000000000000
9.943063735961914 -10.371854782104492 1.729574561119080 0.003921568859369
13.257271766662598 -12.729001998901367 0.095761649310589 0.003921568859369
13.691639900207520 -13.434266090393066 -0.341160207986832 0.003921568859369
12.105954170227051 -14.943222045898438 0.321213245391846 0.003921568859369
14.029920578002930 -15.940130233764648 -0.012193493545055 0.003921568859369
6.668043136596680 -8.394408226013184 1.911214470863342 0.003921568859369
12.371877670288086 -14.517456054687500 0.427754372358322 0.003921568859369
8.657334327697754 -11.185566902160645 0.234392747282982 0.000000000000000
9.714955329895020 -12.605297088623047 1.273266911506653 0.000000000000000
12.270236968994141 -14.601229667663574 0.427704334259033 0.000000000000000
7.797663211822510 -11.297502517700195 0.148559480905533 0.000000000000000
6.910388469696045 -8.971956253051758 0.900997221469879 0.000000000000000
7.197278499603271 -8.463991165161133 2.914179563522339 0.000000000000000
8.420073509216309 -9.220130920410156 0.063453599810600 0.000000000000000
8.322827339172363 -10.062941551208496 3.435970306396484 0.003921568859369
13.256873130798340 -16.713397979736328 -0.013150446116924 0.003921568859369
8.307150840759277 -10.465311050415039 3.516138315200806 0.000000000000000
8.119083404541016 -10.294488906860352 -0.008862276561558 0.000000000000000
8.914173126220703 -12.578886985778809 0.610021054744720 0.003921568859369
6.912106513977051 -8.700734138488770 2.914785861968994 0.000000000000000
8.658793449401855 -11.165285110473633 0.314662724733353 0.003921568859369
6.854094982147217 -9.774263381958008 0.470227867364883 0.000000000000000
7.735144138336182 -10.072815895080566 0.282174229621887 0.000000000000000
6.945785999298096 -9.986823081970215 0.200450256466866 0.000000000000000
5.866059780120850 -8.472793579101562 1.836014628410339 0.003921568859369
13.477442741394043 -22.635360717773438 0.287085860967636 0.003921568859369
5.817906379699707 -7.613721370697021 1.144096970558167 0.003921568859369
8.173416137695312 -12.197031974792480 2.632006406784058 0.000000000000000
5.981919288635254 -9.051960945129395 0.862313449382782 0.000000000000000
6.998863220214844 -11.276253700256348 1.058337092399597 0.000000000000000
6.792979717254639 -10.927741050720215 2.302529811859131 0.003921568859369
7.421804428100586 -10.831122398376465 3.455215454101562 0.003921568859369
7.178150177001953 -11.757987022399902 1.099332690238953 0.003921568859369
6.404959678649902 -10.595473289489746 0.487467467784882 0.003921568859369
7.296943664550781 -11.228230476379395 0.758709132671356 0.003921568859369
13.420086860656738 -24.424800872802734 -0.826105237007141 0.003921568859369
12.705067634582520 -23.087677001953125 -0.171242773532867 0.003921568859369
5.625860214233398 -10.357666015625000 0.938618957996368 0.003921568859369
6.282565116882324 -10.530277252197266 3.226354598999023 0.003921568859369
6.537587165832520 -12.583553314208984 0.559662818908691 0.003921568859369
6.988557815551758 -11.986050605773926 3.658039093017578 0.003921568859369
6.363086700439453 -11.196274757385254 1.548225760459900 0.003921568859369
10.817254066467285 -22.656269073486328 -0.164278283715248 0.003921568859369
5.362888336181641 -11.425561904907227 1.006213068962097 0.003921568859369
10.920422554016113 -22.022190093994141 -0.587496340274811 0.003921568859369
10.836166381835938 -22.447563171386719 0.556460022926331 0.003921568859369
9.650580406188965 -26.657171249389648 -0.351337820291519 0.003921568859369
12.980650901794434 -24.543848037719727 0.138920590281487 0.003921568859369
9.066422462463379 -23.853248596191406 -0.759928584098816 0.003921568859369
9.222598075866699 -24.549303054809570 -0.781067669391632 0.003921568859369
7.878930568695068 -24.513385772705078 0.276702016592026 0.003921568859369
8.639747619628906 -25.683343887329102 4.893591403961182 0.003921568859369
1.725618481636047 -7.085240364074707 -0.260145664215088 0.000000000000000
2.166432619094849 -8.037170410156250 -0.344922125339508 0.000000000000000
1.013300418853760 -10.514747619628906 -0.379908144474030 0.000000000000000
0.762112021446228 -6.652692317962646 -0.086294025182724 0.000000000000000
0.947596907615662 -13.910764694213867 0.146841898560524 0.000000000000000
0.976476669311523 -16.169509887695312 -0.582155525684357 0.003921568859369
1.124465584754944 -8.886539459228516 1.613331317901611 0.000000000000000
1.531559348106384 -15.932155609130859 2.893347263336182 0.003921568859369
2.296064853668213 -16.198343276977539 4.349014282226562 0.003921568859369
0.511867582798004 -10.655321121215820 -0.136607646942139 0.000000000000000
0.963683605194092 -10.807957649230957 -0.327627897262573 0.000000000000000
0.919121503829956 -9.838043212890625 0.389341533184052 0.000000000000000
0.887166440486908 -9.141266822814941 1.656895160675049 0.000000000000000
1.023327827453613 -3.945109367370605 0.016600379720330 0.000000000000000
1.114779353141785 -7.076852798461914 0.155957967042923 0.000000000000000
0.897334337234497 -10.134113311767578 0.815830588340759 0.000000000000000
0.831854999065399 -8.592167854309082 1.556951642036438 0.000000000000000
0.769077181816101 -7.721274375915527 0.124934151768684 0.000000000000000
0.975051760673523 -12.979850769042969 -0.695503175258636 0.000000000000000
0.285674422979355 -18.623432159423828 -0.670124530792236 0.003921568859369
1.042519569396973 -15.845817565917969 -0.109861522912979 0.000000000000000
0.812573313713074 -9.402824401855469 0.371574550867081 0.000000000000000
0.752058565616608 -8.540437698364258 1.546718835830688 0.000000000000000
0.753814458847046 -9.588050842285156 -0.067637100815773 0.000000000000000
0.673782646656036 -6.816492557525635 0.109707295894623 0.000000000000000
0.217090845108032 -12.986955642700195 -0.771467864513397 0.000000000000000
0.202537417411804 -13.716712951660156 -0.494735538959503 0.000000000000000
0.825956106185913 -12.078103065490723 2.188451528549194 0.000000000000000
0.740549445152283 -10.456706047058105 -0.073482841253281 0.000000000000000
0.835452020168304 -16.508930206298828 -0.498870372772217 0.000000000000000
0.651561856269836 -9.489364624023438 0.153873145580292 0.000000000000000
0.683988511562347 -13.884826660156250 0.226528361439705 0.000000000000000
0.668479800224304 -17.042963027954102 -0.912037611007690 0.003921568859369
1.148025631904602 -6.338305473327637 0.176545530557632 0.000000000000000
0.032853543758392 -10.792251586914062 -0.641975998878479 0.000000000000000
1.323181509971619 -7.992611408233643 -0.337935984134674 0.000000000000000
-0.138488590717316 -13.841499328613281 -0.177006453275681 0.000000000000000
0.549949109554291 -16.455732345581055 -0.113850444555283 0.000000000000000
1.060476660728455 -5.894446372985840 -0.111902788281441 0.000000000000000
0.489134311676025 -12.938429832458496 -0.391499906778336 0.000000000000000
0.483113229274750 -6.475211620330811 0.519564986228943 0.000000000000000
0.447734981775284 -11.486661911010742 0.186888173222542 0.000000000000000
0.445497244596481 -12.382416725158691 0.490012258291245 0.000000000000000
0.451420724391937 -10.119146347045898 1.832288265228271 0.000000000000000
0.443238437175751 -7.311978340148926 -0.052461996674538 0.000000000000000
0.413618922233582 -12.242365837097168 0.484130233526230 0.000000000000000
0.433343768119812 -8.993425369262695 1.627880811691284 0.000000000000000
0.942431271076202 -12.683307647705078 0.723961770534515 0.000000000000000
0.753297805786133 -7.415131092071533 -0.355737030506134 0.000000000000000
1.031136035919189 -6.679518222808838 0.185577005147934 0.000000000000000
0.363744914531708 -7.490238666534424 0.120630465447903 0.000000000000000
1.021795272827148 -6.860760211944580 0.190643444657326 0.000000000000000
1.234785318374634 -25.867053985595703 1.479378342628479 0.003921568859369
0.222587734460831 -13.261286735534668 2.402340888977051 0.000000000000000
0.172250121831894 -13.414525032043457 -0.406201720237732 0.000000000000000
0.712145388126373 -8.855422973632812 -0.424096018075943 0.000000000000000
1.235077381134033 -10.051742553710938 -0.423311650753021 0.000000000000000
0.256494790315628 -9.841010093688965 1.782079100608826 0.000000000000000
-0.057655513286591 -20.199811935424805 -0.610159575939178 0.003921568859369
0.707341372966766 -10.045863151550293 -0.012581002898514 0.003921568859369
0.221311986446381 -9.860466003417969 -0.069670408964157 0.000000000000000
-0.023155748844147 -6.717127323150635 -0.401664316654205 0.000000000000000
0.157941132783890 -12.206471443176270 -0.654512345790863 0.000000000000000
0.857859253883362 -20.124855041503906 -0.022115491330624 0.003921568859369
-0.095563948154449 -17.161993026733398 -0.118994593620300 0.000000000000000
0.297532200813293 -5.588630676269531 0.219478920102119 0.000000000000000
0.597524404525757 -7.380881309509277 0.896170139312744 0.000000000000000
0.573362231254578 -5.769944667816162 -0.142801716923714 0.000000000000000
0.235507309436798 -6.722646713256836 0.108038395643234 0.000000000000000
0.579300045967102 -11.585025787353516 0.255556344985962 0.000000000000000
0.213025480508804 -6.697751522064209 0.107646025717258 0.000000000000000
0.640332818031311 -19.289894104003906 -0.919907927513123 0.000000000000000
0.047371357679367 -10.739987373352051 -0.576493442058563 0.000000000000000
0.099942624568939 -9.465824127197266 1.715011119842529 0.000000000000000
0.843733787536621 -6.657612800598145 -0.125773251056671 0.000000000000000
-0.121128678321838 -6.515556812286377 0.067040532827377 0.000000000000000
0.894561648368835 -7.606363296508789 0.211367070674896 0.000000000000000
0.068943232297897 -9.449731826782227 0.153166070580482 0.000000000000000
0.511930406093597 -10.844274520874023 -0.013597803190351 0.003921568859369
0.516774237155914 -14.432627677917480 0.823400676250458 0.000000000000000
0.511346995830536 -10.452471733093262 -0.500121951103210 0.000000000000000
0.507678687572479 -7.520698070526123 0.912889182567596 0.000000000000000
0.514966130256653 -13.180408477783203 -0.322551518678665 0.000000000000000
0.251548826694489 -4.801331996917725 0.076174698770046 0.000000000000000
0.461155682802200 -15.498737335205078 -0.740054607391357 0.000000000000000
0.488334476947784 -3.994754552841187 0.483410537242889 0.000000000000000
0.482582330703735 -6.406391143798828 -0.158386126160622 0.000000000000000
-0.173911660909653 -12.300440788269043 -0.660522699356079 0.000000000000000
0.421308159828186 -13.520145416259766 1.643696784973145 0.000000000000000
0.383766531944275 -20.094066619873047 -0.490085572004318 0.003921568859369
0.785397410392761 -7.275207042694092 -0.476829975843430 0.000000000000000
0.345328330993652 -16.358665466308594 1.989517927169800 0.003921568859369
0.044184237718582 -7.787874698638916 1.411450505256653 0.000000000000000
0.309037804603577 -11.562744140625000 -0.014262123033404 0.003921568859369
0.358822286128998 -8.532410621643066 2.274542808532715 0.000000000000000
0.763288617134094 -9.080809593200684 0.252441972494125 0.000000000000000
0.263630628585815 -10.045557975769043 -0.012793321162462 0.003921568859369
0.755953073501587 -10.096864700317383 0.045789040625095 0.000000000000000
0.262823104858398 -10.078595161437988 -0.247410669922829 0.000000000000000
0.754169404506683 -11.615354537963867 -0.487719297409058 0.000000000000000
0.192531436681747 -11.408655166625977 3.043074607849121 0.000000000000000
-0.715028285980225 -15.362428665161133 1.240113258361816 0.000000000000000
-0.087115198373795 -17.318021774291992 0.989306747913361 0.000000000000000
-0.018046408891678 -13.844284057617188 1.684393525123596 0.000000000000000
0.607328712940216 -12.207753181457520 0.055709000676870 0.000000000000000
-0.438935339450836 -10.545220375061035 1.916555643081665 0.000000000000000
0.561224102973938 -10.662354469299316 -0.199828162789345 0.000000000000000
0.575366854667664 -13.478804588317871 0.375768154859543 0.000000000000000
0.246738433837891 -5.954529285430908 0.722666382789612 0.000000000000000
0.520197033882141 -2.442144393920898 -0.105110265314579 0.000000000000000
-0.544556617736816 -11.322058677673340 2.058584451675415 0.000000000000000
-0.080360829830170 -12.380456924438477 3.304820299148560 0.000000000000000
0.121138304471970 -7.578358650207520 0.920952916145325 0.000000000000000
-1.558563709259033 -20.621692657470703 1.668526053428650 0.003921568859369
0.433159321546555 -12.837900161743164 -0.239926457405090 0.000000000000000
0.476348996162415 -5.438058853149414 0.149689644575119 0.000000000000000
0.007062137126923 -9.148241043090820 -0.438928604125977 0.000000000000000
0.432959914207458 -8.048948287963867 -0.339063555002213 0.000000000000000
-0.271165430545807 -12.694423675537109 1.545797586441040 0.000000000000000
0.422621518373489 -6.849807262420654 -0.289033412933350 0.000000000000000
0.008011639118195 -7.680718898773193 -0.548942387104034 0.000000000000000
0.399900913238525 -6.701596736907959 -0.282859593629837 0.000000000000000
-0.701561808586121 -18.600498199462891 4.971798419952393 0.003921568859369
0.334259629249573 -8.859093666076660 0.245950430631638 0.000000000000000
-0.463311553001404 -14.158984184265137 -0.678120911121368 0.000000000000000
-0.535337567329407 -8.853652954101562 1.613306879997253 0.000000000000000
0.231091648340225 -12.076351165771484 0.336471557617188 0.000000000000000
0.172319501638412 -14.631716728210449 -0.613844871520996 0.000000000000000
0.261134862899780 -8.297407150268555 -0.349541157484055 0.000000000000000
0.161161482334137 -10.692523956298828 -0.200712040066719 0.000000000000000
-0.585712969303131 -8.371621131896973 -0.060602843761444 0.000000000000000
-0.369277954101562 -10.326223373413086 -0.013522328808904 0.003921568859369
0.011772513389587 -12.539947509765625 -0.234865665435791 0.000000000000000
-0.479904472827911 -10.758266448974609 1.312487602233887 0.000000000000000
-0.435944497585297 -9.887897491455078 0.218070596456528 0.000000000000000
-0.200062274932861 -14.117877006530762 0.064802639186382 0.000000000000000
-0.094054698944092 -12.035979270935059 0.335434824228287 0.000000000000000
0.020642220973969 -4.806694507598877 0.273352056741714 0.000000000000000
-0.106249213218689 -10.820862770080566 -0.455651968717575 0.000000000000000
-0.146806657314301 -10.250693321228027 0.285453945398331 0.000000000000000
-0.136344194412231 -8.444242477416992 -0.554777801036835 0.000000000000000
0.063968628644943 -5.661252975463867 -0.373135119676590 0.000000000000000
-0.093822836875916 -7.258798599243164 0.201312959194183 0.000000000000000
-0.577594816684723 -5.751382350921631 1.058525681495667 0.000000000000000
-0.478016078472137 -10.450151443481445 -0.197155371308327 0.000000000000000
-6.493612289428711 -28.369789123535156 -0.371536135673523 0.003921568859369
-0.986308515071869 -10.384854316711426 1.274646520614624 0.000000000000000
-1.013254165649414 -10.320517539978027 2.781560659408569 0.000000000000000
-0.613311707973480 -10.035429000854492 0.045241594314575 0.000000000000000
-1.509404897689819 -17.457233428955078 -0.737445652484894 0.003921568859369
-7.219604969024658 -28.377084732055664 0.310711860656738 0.003921568859369
-7.315409183502197 -28.338262557983398 0.310628652572632 0.003921568859369
-0.242609441280365 -6.282481193542480 -0.415616393089294 0.000000000000000
-0.640065252780914 -6.259173870086670 0.772135257720947 0.000000000000000
-0.791131079196930 -9.620336532592773 -0.408937156200409 0.000000000000000
-1.073824644088745 -11.372565269470215 -0.215537369251251 0.000000000000000
-8.065548896789551 -28.353723526000977 0.313345164060593 0.003921568859369
-0.529037535190582 -7.161787509918213 -0.474815785884857 0.000000000000000
-1.472599744796753 -9.734707832336426 2.649463891983032 0.000000000000000
-0.962335228919983 -8.881019592285156 0.249495774507523 0.000000000000000
-8.011940002441406 -28.605941772460938 -0.205905243754387 0.003921568859369
-7.767226219177246 -27.792411804199219 2.336491584777832 0.003921568859369
-1.039023876190186 -7.970188140869141 -0.153544440865517 0.000000000000000
-8.031003952026367 -28.295911788940430 2.381567239761353 0.003921568859369
-0.866524100303650 -4.589408874511719 0.867755532264709 0.000000000000000
-4.355373382568359 -15.267063140869141 2.904572248458862 0.003921568859369
-2.939413547515869 -10.740455627441406 2.044628143310547 0.000000000000000
-2.435106754302979 -10.840561866760254 2.997935295104980 0.000000000000000
-3.346568107604980 -11.849551200866699 2.258750438690186 0.000000000000000
-1.448648810386658 -7.167685508728027 1.982994556427002 0.000000000000000
-9.229887962341309 -28.031305313110352 -0.204572200775146 0.003921568859369
-3.670786857604980 -12.117706298828125 2.323807716369629 0.000000000000000
-6.369839191436768 -19.646808624267578 3.774476528167725 0.003921568859369
-8.406084060668945 -28.228130340576172 0.656426966190338 0.003921568859369
-0.711553752422333 -3.891238927841187 1.089702010154724 0.000000000000000
-2.198486328125000 -7.966148376464844 2.247958660125732 0.000000000000000
-3.973643779754639 -12.909352302551270 3.649766683578491 0.000000000000000
-9.331480026245117 -20.295890808105469 0.238553270697594 0.003921568859369
-2.253791332244873 -6.898951530456543 0.162596464157104 0.000000000000000
-5.435071945190430 -12.575562477111816 2.525200605392456 0.000000000000000
-10.008079528808594 -18.956718444824219 -0.275985240936279 0.003921568859369
-1.823135137557983 -4.861611843109131 0.212276697158813 0.000000000000000
-3.777558565139771 -8.799284934997559 1.777924299240112 0.000000000000000
-3.055005550384521 -8.212415695190430 2.395499467849731 0.000000000000000
-10.194665908813477 -21.182464599609375 1.914757490158081 0.003921568859369
-3.722443819046021 -8.269938468933105 1.688629627227783 0.000000000000000
-1.976261138916016 -6.313219070434570 -0.129624590277672 0.000000000000000
-9.970728874206543 -17.870004653930664 0.219460189342499 0.003921568859369
-3.565214872360229 -8.935425758361816 2.627708911895752 0.000000000000000
-4.620941162109375 -10.454545021057129 3.116679430007935 0.000000000000000
-3.751181840896606 -8.421102523803711 2.527706384658813 0.000000000000000
-8.250378608703613 -16.398025512695312 4.971951484680176 0.003921568859369
-11.719432830810547 -17.764272689819336 -0.274288922548294 0.003921568859369
-9.906090736389160 -19.185405731201172 -0.916571438312531 0.003921568859369
-11.304598808288574 -16.934665679931641 -0.624876320362091 0.003921568859369
-9.704014778137207 -12.605136871337891 -0.967113733291626 0.003921568859369
-9.715167045593262 -12.619251251220703 -0.587487220764160 0.003921568859369
-9.779170989990234 -12.615666389465332 -0.970368921756744 0.003921568859369
-9.858197212219238 -12.612380027770996 -0.973142147064209 0.003921568859369
-9.926888465881348 -12.606204032897949 -0.208835974335670 0.003921568859369
-9.932948112487793 -12.612367630004883 -0.975919842720032 0.003921568859369
-9.936641693115234 -12.617304801940918 -0.592332661151886 0.003921568859369
-15.098242759704590 -17.893665313720703 0.254537820816040 0.003921568859369
-14.996195793151855 -17.652349472045898 -0.297351807355881 0.003921568859369
-9.756748199462891 -12.606399536132812 -0.493397861719131 0.003921568859369
-16.356245040893555 -18.661653518676758 -0.317646652460098 0.003921568859369
-16.478635787963867 -18.658100128173828 -0.318552523851395 0.003921568859369
-9.836473464965820 -12.607993125915527 -0.877147316932678 0.003921568859369
