# This PCD file was generated using the MATLAB® pcwrite function
# from Computer Vision Toolbox®.
# .PCD v.7 - Point Cloud Data file format
VERSION .7
FIELDS x y z intensity
SIZE 8 8 8 8
TYPE F F F F
COUNT 1 1 1 1
WIDTH 650
HEIGHT 1
VIEWPOINT 0 0 0 1 0 0 0
POINTS 650
DATA ascii
-6.524030685424805 0.312431812286377 -0.222842499613762 0.000000000000000
-9.493022918701172 1.347473621368408 1.648991346359253 0.000000000000000
-14.506521224975586 2.160652637481689 2.582801342010498 0.000000000000000
-7.152645111083984 1.036248326301575 1.214830517768860 0.000000000000000
-18.426408767700195 2.006908178329468 0.450830101966858 0.000000000000000
-10.244064331054688 1.116893529891968 0.021508082747459 0.003921568859369
-4.124039173126221 0.753005325794220 -0.030350724235177 0.000000000000000
-8.435022354125977 0.523365139961243 0.064736418426037 0.000000000000000
-9.843149185180664 1.101130485534668 0.020795641466975 0.003921568859369
-6.221329689025879 0.966441929340363 -0.150318831205368 0.000000000000000
-7.855252742767334 0.534823656082153 0.228446573019028 0.000000000000000
-9.844090461730957 1.136307716369629 0.560068368911743 0.000000000000000
-5.722562789916992 0.394378811120987 -0.074249789118767 0.000000000000000
-12.901112556457520 2.169012069702148 0.530810892581940 0.000000000000000
-12.148108482360840 2.081408977508545 2.153633594512939 0.000000000000000
-12.554762840270996 2.197903633117676 2.230900049209595 0.000000000000000
-11.602116584777832 1.467600226402283 -0.234047785401344 0.000000000000000
-16.590288162231445 2.991174459457397 -0.443031400442123 0.000000000000000
-14.496011734008789 1.909055352210999 1.743850588798523 0.000000000000000
-3.515296220779419 0.540871560573578 0.541803538799286 0.000000000000000
-6.763394355773926 1.506605863571167 0.087329693138599 0.000000000000000
-3.901251792907715 0.310488492250443 -0.121663182973862 0.000000000000000
-9.616518974304199 1.330086112022400 0.019691815599799 0.003921568859369
-7.501896381378174 0.677369773387909 0.217591404914856 0.000000000000000
-7.804309368133545 1.063857436180115 0.905115365982056 0.000000000000000
-7.479854583740234 0.696870923042297 0.216926231980324 0.000000000000000
-7.518049240112305 1.390744328498840 1.293513178825378 0.000000000000000
-6.427290916442871 0.899311840534210 0.150788486003876 0.000000000000000
-8.729659080505371 1.665061831474304 0.353402048349380 0.000000000000000
-16.893695831298828 1.830571174621582 -0.253278404474258 0.003921568859369
-9.089812278747559 1.799143552780151 -0.233417466282845 0.000000000000000
-10.862210273742676 1.659417629241943 -0.460606753826141 0.000000000000000
-16.510854721069336 2.577105760574341 -0.344192147254944 0.000000000000000
-7.697585582733154 1.530626416206360 -0.194576829671860 0.000000000000000
-26.996553421020508 4.385221004486084 3.325926303863525 0.003921568859369
-10.547141075134277 1.678591370582581 0.020466290414333 0.003921568859369
-6.819462776184082 0.738839626312256 -0.237846419215202 0.000000000000000
-13.737186431884766 2.889101743698120 2.469568014144897 0.000000000000000
-4.975612163543701 0.987926125526428 -0.117626748979092 0.000000000000000
-7.052640914916992 0.813938617706299 0.053512077778578 0.000000000000000
-6.835572242736816 0.786804139614105 0.197363719344139 0.000000000000000
-4.949432373046875 0.763705790042877 0.267087846994400 0.000000000000000
-15.619872093200684 3.412724494934082 1.280315756797791 0.000000000000000
-17.748443603515625 3.084946393966675 0.030597932636738 0.003921568859369
-6.496409416198730 1.358545541763306 1.110055923461914 0.000000000000000
-14.963151931762695 1.913814425468445 -0.224188059568405 0.000000000000000
-8.180115699768066 1.387703418731689 0.463275104761124 0.000000000000000
-5.466173171997070 0.664225876331329 -0.071662917733192 0.000000000000000
-9.437196731567383 1.239809513092041 0.277942329645157 0.000000000000000
-9.795777320861816 2.252732515335083 -0.256532222032547 0.000000000000000
-9.978676795959473 1.350921154022217 0.294750630855560 0.000000000000000
-15.211739540100098 2.840622663497925 0.891133308410645 0.000000000000000
-9.315176010131836 2.139524221420288 1.646609783172607 0.000000000000000
-7.193522453308105 1.639845371246338 1.246326327323914 0.000000000000000
-12.865526199340820 3.105006456375122 2.321858644485474 0.000000000000000
-5.469871997833252 1.243659853935242 0.419269144535065 0.000000000000000
-12.474493026733398 3.091936349868774 0.519504964351654 0.000000000000000
-7.819761276245117 1.875873327255249 -0.374458968639374 0.000000000000000
-7.256240367889404 1.731406092643738 0.573348701000214 0.000000000000000
-4.672304153442383 0.657691359519958 -0.059663299471140 0.000000000000000
-9.770433425903320 2.421664237976074 0.789279460906982 0.000000000000000
-11.132304191589355 1.704812169075012 -0.412164390087128 0.000000000000000
-10.209670066833496 1.590117216110229 -0.149636417627335 0.000000000000000
-8.210371017456055 2.037050962448120 0.656114697456360 0.000000000000000
-10.280323982238770 2.595362663269043 1.840237736701965 0.000000000000000
-10.764531135559082 2.195393085479736 -0.221711814403534 0.000000000000000
-11.849802970886230 2.479776382446289 3.100891828536987 0.000000000000000
-7.101729393005371 1.142715692520142 0.053383301943541 0.000000000000000
-10.120606422424316 2.653140306472778 0.821965396404266 0.000000000000000
-8.031217575073242 1.736884474754333 -0.161291554570198 0.000000000000000
-9.948654174804688 2.222948074340820 0.018037529662251 0.003921568859369
-8.467761993408203 1.872560501098633 1.005686163902283 0.000000000000000
-17.514465332031250 5.037779331207275 1.464261293411255 0.000000000000000
-4.918310165405273 1.297169089317322 -0.015135613270104 0.000000000000000
-10.422538757324219 3.530602693557739 -0.590769648551941 0.000000000000000
-9.145014762878418 1.720930576324463 -0.336819738149643 0.000000000000000
-17.453369140625000 5.158708572387695 3.235865831375122 0.003921568859369
-9.127213478088379 1.748269438743591 -0.336420863866806 0.000000000000000
-10.092625617980957 2.940146446228027 1.825388073921204 0.000000000000000
-6.163571357727051 1.159804105758667 0.046251479536295 0.000000000000000
-21.684238433837891 6.696857452392578 4.060288429260254 0.003921568859369
-14.184477806091309 3.637952566146851 0.022494506090879 0.000000000000000
-7.432824611663818 1.851234912872314 0.014151005074382 0.000000000000000
-8.691062927246094 1.775029301643372 0.257090717554092 0.000000000000000
-17.081188201904297 5.421207427978516 3.184420347213745 0.003921568859369
-12.467148780822754 3.948180198669434 2.296034812927246 0.000000000000000
-11.012436866760254 2.943421602249146 1.344699978828430 0.000000000000000
-10.242291450500488 2.763597965240479 1.246689319610596 0.000000000000000
-7.085961341857910 1.540452957153320 -0.101839631795883 0.000000000000000
-4.437325954437256 1.143115162849426 0.103141665458679 0.000000000000000
-8.300568580627441 2.296720981597900 1.000324249267578 0.000000000000000
-12.445623397827148 4.175243377685547 2.306845903396606 0.000000000000000
-4.873929977416992 1.288939356803894 -0.093007355928421 0.000000000000000
-9.132891654968262 2.188750028610229 0.272459089756012 0.000000000000000
-7.130291938781738 2.377011775970459 1.278026223182678 0.000000000000000
-12.766647338867188 3.164747476577759 -0.198505923151970 0.000000000000000
-6.960137844085693 2.337132930755615 0.130293935537338 0.000000000000000
-3.842767000198364 0.843051612377167 -0.126374855637550 0.000000000000000
-7.886253833770752 2.681138992309570 1.427253365516663 0.000000000000000
-13.035570144653320 4.626195430755615 2.436100482940674 0.000000000000000
-9.614718437194824 2.446871042251587 0.288253396749496 0.000000000000000
-11.687901496887207 3.640503406524658 -0.253483325242996 0.000000000000000
-12.240486145019531 3.871801853179932 1.523694515228271 0.000000000000000
-17.320020675659180 6.487622261047363 3.290762424468994 0.003921568859369
-4.601462364196777 1.144458174705505 -0.158709481358528 0.000000000000000
-7.432235717773438 2.730597496032715 -0.373518496751785 0.000000000000000
-13.116196632385254 3.965993881225586 -0.209635019302368 0.000000000000000
-9.381135940551758 3.270479202270508 2.526001453399658 0.000000000000000
-4.853073120117188 1.598088145256042 0.009887935593724 0.000000000000000
-9.264704704284668 3.327431678771973 2.501867532730103 0.000000000000000
-6.099575996398926 2.179288864135742 -0.265230268239975 0.000000000000000
-13.571083068847656 5.248153209686279 3.770459890365601 0.000000000000000
-5.623919010162354 1.790607094764709 0.041813723742962 0.000000000000000
-3.637242555618286 1.109577178955078 0.027532458305359 0.000000000000000
-2.255108594894409 0.714731991291046 0.112654544413090 0.003921568859369
-3.720240116119385 1.386662483215332 0.429859340190887 0.000000000000000
-20.824539184570312 8.993999481201172 0.537932395935059 0.003921568859369
-20.811756134033203 9.081501007080078 0.538293123245239 0.003921568859369
-20.783586502075195 9.153728485107422 0.538192689418793 0.003921568859369
-11.434914588928223 4.423329353332520 0.356574386358261 0.000000000000000
-20.660764694213867 9.429651260375977 0.537520408630371 0.003921568859369
-7.695394039154053 3.348587751388550 2.118937492370605 0.000000000000000
-8.782679557800293 3.931782245635986 2.449896335601807 0.000000000000000
-19.368808746337891 9.242100715637207 5.633594036102295 0.003921568859369
-9.047755241394043 4.282349109649658 2.557230949401855 0.000000000000000
-5.803586959838867 2.733682394027710 0.352959513664246 0.000000000000000
-3.830060243606567 2.009194374084473 -0.306398838758469 0.000000000000000
-8.835544586181641 4.242571353912354 -0.584977507591248 0.000000000000000
-9.063345909118652 5.513084888458252 0.421946793794632 0.000000000000000
-8.569322586059570 5.046470642089844 2.548568725585938 0.000000000000000
-8.773062705993652 5.420810222625732 2.650625705718994 0.000000000000000
-14.803790092468262 12.042180061340332 5.012608051300049 0.003921568859369
-6.407784938812256 6.752580165863037 2.410335302352905 0.000000000000000
-5.913962841033936 7.033569812774658 1.621801733970642 0.000000000000000
-15.828260421752930 20.291452407836914 4.633356571197510 0.003921568859369
-15.721902847290039 20.297792434692383 4.622419834136963 0.003921568859369
-15.679174423217773 20.403583526611328 4.632935047149658 0.003921568859369
-6.037512302398682 7.052981853485107 2.409272432327271 0.000000000000000
-5.847005844116211 7.124058723449707 2.394404888153076 0.000000000000000
-3.470652341842651 4.130903244018555 0.630187094211578 0.000000000000000
-4.375709533691406 6.357203483581543 1.362447857856750 0.000000000000000
-5.637444019317627 8.528934478759766 1.818462729454041 0.000000000000000
-3.482967615127563 4.519030570983887 1.460397720336914 0.000000000000000
-5.422506809234619 7.759843349456787 2.470459699630737 0.000000000000000
-5.214236736297607 7.975823402404785 2.489466667175293 0.000000000000000
-6.955303668975830 11.432712554931641 3.522809743881226 0.000000000000000
-4.675406455993652 9.618087768554688 2.814535856246948 0.000000000000000
-5.972824573516846 12.644579887390137 3.693713188171387 0.000000000000000
-2.803463697433472 6.086537361145020 -0.706743717193604 0.000000000000000
-3.929860353469849 10.195616722106934 2.885483980178833 0.000000000000000
-2.487496376037598 7.243542671203613 0.303598284721375 0.000000000000000
-1.050963044166565 2.535505533218384 0.047047637403011 0.000000000000000
-1.018589735031128 2.448934793472290 0.045522246509790 0.000000000000000
-1.006429553031921 2.435589075088501 0.045246191322803 0.000000000000000
-5.654192447662354 17.250543594360352 -0.013536857441068 0.003921568859369
-2.842909336090088 12.229453086853027 0.135155200958252 0.000000000000000
-1.987958669662476 5.674068927764893 1.578987121582031 0.000000000000000
-3.912819385528564 15.348593711853027 -0.471072077751160 0.000000000000000
-1.883583188056946 5.677292346954346 0.719452321529388 0.000000000000000
-1.625389933586121 5.071240901947021 1.398182272911072 0.000000000000000
-3.508399248123169 10.988020896911621 0.325760394334793 0.000000000000000
-2.190572738647461 6.752340793609619 0.200665116310120 0.000000000000000
-2.012333869934082 7.676732063293457 2.099301099777222 0.000000000000000
-0.979437947273254 3.953835010528564 -0.117241248488426 0.000000000000000
-2.417758941650391 9.882225990295410 2.697372198104858 0.000000000000000
-1.030570745468140 3.295461416244507 -0.235064178705215 0.000000000000000
-1.263853192329407 4.928101539611816 1.341133475303650 0.000000000000000
-1.760702848434448 7.711581230163574 -0.004534499254078 0.000000000000000
-1.546297907829285 8.997726440429688 0.363399624824524 0.000000000000000
-1.183084607124329 4.667902469635010 1.268897294998169 0.000000000000000
-0.895240664482117 7.841073989868164 -0.097180724143982 0.000000000000000
-1.132541179656982 6.597770214080811 -0.042472168803215 0.000000000000000
-1.216674447059631 7.313101768493652 1.337742447853088 0.000000000000000
-3.301725387573242 17.796588897705078 -0.015383161604404 0.003921568859369
-1.381737232208252 4.799669742584229 0.141565948724747 0.000000000000000
-0.463443219661713 0.858708858489990 -0.017742142081261 0.003921568859369
-2.478207588195801 21.019704818725586 3.831915378570557 0.003921568859369
-1.846307277679443 15.367205619812012 2.801242589950562 0.000000000000000
-1.972110509872437 21.120676040649414 3.841287374496460 0.003921568859369
-0.473890095949173 0.865236461162567 -0.012834457680583 0.003921568859369
-0.545395910739899 11.654347419738770 -0.146078541874886 0.000000000000000
-0.460087954998016 0.861718654632568 -0.012877590022981 0.003921568859369
-1.651193857192993 22.108499526977539 4.016479969024658 0.003921568859369
-1.996596097946167 29.440101623535156 -0.886970221996307 0.003921568859369
-1.882515430450439 29.234167098999023 -0.880686104297638 0.003921568859369
-1.781765699386597 29.163316726684570 -0.878499209880829 0.003921568859369
-0.815124034881592 9.888609886169434 -0.065168872475624 0.000000000000000
-1.674860239028931 29.168478012084961 -0.878616690635681 0.003921568859369
-1.570639371871948 29.117101669311523 -0.877037584781647 0.003921568859369
-2.460273504257202 15.124471664428711 0.432591319084167 0.000000000000000
-1.381661653518677 29.380651473999023 -0.884983897209167 0.003921568859369
-0.191805839538574 10.003885269165039 0.108044028282166 0.000000000000000
-0.608266234397888 2.144019365310669 -0.087064243853092 0.000000000000000
-1.274537920951843 29.244312286376953 -0.880866825580597 0.003921568859369
-0.555616617202759 7.233230113983154 -0.046914435923100 0.000000000000000
-1.175789475440979 29.187372207641602 -0.879159271717072 0.003921568859369
-1.206911683082581 6.950071334838867 0.200011551380157 0.000000000000000
-1.077729701995850 29.338058471679688 -0.883739650249481 0.003921568859369
-1.474296331405640 15.448865890502930 0.888772845268250 0.000000000000000
-0.957773327827454 29.248704910278320 -0.879735529422760 0.003921568859369
-1.299278378486633 13.975934982299805 3.741611957550049 0.000000000000000
-0.856202244758606 29.278770446777344 -0.880684137344360 0.003921568859369
-0.754307627677917 29.300487518310547 -0.881391286849976 0.003921568859369
-0.427555531263351 7.842914581298828 0.634746968746185 0.000000000000000
-0.657397150993347 29.761613845825195 -0.895373761653900 0.003921568859369
-0.411837935447693 12.303131103515625 0.204411402344704 0.000000000000000
-2.000701189041138 29.516054153442383 -0.715504467487335 0.003921568859369
-1.524425387382507 11.820895195007324 -0.216091975569725 0.000000000000000
-1.882237553596497 29.330385208129883 -0.710952937602997 0.003921568859369
-0.319735080003738 8.668993949890137 -0.056818079203367 0.000000000000000
-1.056300520896912 7.529251575469971 0.215697452425957 0.000000000000000
-1.114572525024414 8.108078956604004 -0.527184963226318 0.000000000000000
-0.280900239944458 12.291528701782227 0.204084202647209 0.000000000000000
-1.444527864456177 12.312837600708008 0.062553599476814 0.000000000000000
-0.206077724695206 17.860479354858398 -0.120407275855541 0.000000000000000
-1.020706892013550 8.004284858703613 -0.145262658596039 0.000000000000000
-0.864838242530823 6.791836738586426 0.194437116384506 0.000000000000000
-1.490652561187744 15.211969375610352 -0.278160035610199 0.000000000000000
-0.200047284364700 5.014501094818115 0.911627113819122 0.000000000000000
-0.479378223419189 9.593092918395996 0.216291174292564 0.000000000000000
0.021801233291626 8.663014411926270 -0.056826550513506 0.000000000000000
0.071573823690414 10.000951766967773 0.166773974895477 0.000000000000000
-1.102329969406128 14.933027267456055 -0.272932380437851 0.000000000000000
-0.338276326656342 8.038690567016602 -0.192492544651031 0.000000000000000
-0.489494502544403 4.072661399841309 0.022507822141051 0.000000000000000
-0.949956655502319 18.061855316162109 0.511407494544983 0.003921568859369
0.075231790542603 5.059596538543701 0.411377727985382 0.000000000000000
-0.485890924930573 8.761406898498535 -0.158716127276421 0.000000000000000
-0.383345454931259 4.931366920471191 -0.088140130043030 0.000000000000000
1.843492031097412 27.031450271606445 4.916747093200684 0.003921568859369
-0.411612272262573 10.104370117187500 0.286888122558594 0.000000000000000
1.942461013793945 24.902128219604492 4.533480167388916 0.003921568859369
2.027611970901489 24.944637298583984 2.020807743072510 0.003921568859369
-0.278309762477875 5.341039180755615 0.028470702469349 0.000000000000000
-0.282450526952744 3.294238805770874 -0.134706735610962 0.000000000000000
2.539627075195312 28.237623214721680 5.145235061645508 0.003921568859369
1.215377211570740 27.429452896118164 3.347954034805298 0.003921568859369
2.671848535537720 26.659318923950195 2.164417743682861 0.003921568859369
2.662359476089478 26.555343627929688 4.845393180847168 0.003921568859369
2.898898601531982 27.865549087524414 2.263008594512939 0.003921568859369
2.746810197830200 26.514175415039062 4.839619636535645 0.003921568859369
1.218551039695740 12.739672660827637 0.213235482573509 0.000000000000000
1.533030390739441 26.522888183593750 3.239825010299683 0.003921568859369
2.723380565643311 24.103097915649414 4.404958724975586 0.003921568859369
3.101698637008667 26.316570281982422 4.811520576477051 0.003921568859369
2.034189939498901 25.826225280761719 3.159616708755493 0.003921568859369
3.465489387512207 26.929918289184570 2.193428277969360 0.003921568859369
0.810792922973633 12.149469375610352 3.257592201232910 0.000000000000000
3.526159048080444 27.351819992065430 5.007493019104004 0.003921568859369
2.180203676223755 25.442548751831055 3.115815877914429 0.003921568859369
3.235228300094604 24.019159317016602 4.403005123138428 0.003921568859369
2.337001085281372 26.069520950317383 3.193618059158325 0.003921568859369
3.707582473754883 26.575229644775391 4.873894214630127 0.003921568859369
3.639111280441284 25.538692474365234 4.686171531677246 0.003921568859369
4.030327320098877 26.822605133056641 2.192552804946899 0.003921568859369
0.665252685546875 8.189937591552734 0.186207309365273 0.000000000000000
3.867431879043579 25.231576919555664 4.637470722198486 0.003921568859369
2.930049657821655 27.239227294921875 3.342734098434448 0.003921568859369
4.641622066497803 29.356685638427734 2.402013778686523 0.003921568859369
3.966009378433228 25.307020187377930 4.653826713562012 0.003921568859369
3.062922000885010 27.550905227661133 1.591375231742859 0.003921568859369
2.997277498245239 26.239290237426758 1.516311526298523 0.003921568859369
0.369230836629868 3.579034328460693 -0.107024326920509 0.000000000000000
3.039005517959595 25.807504653930664 0.582305788993835 0.003921568859369
3.474334478378296 29.188623428344727 3.586256742477417 0.003921568859369
4.889266490936279 28.423170089721680 2.331040143966675 0.003921568859369
0.091593027114868 4.211997985839844 0.121407113969326 0.000000000000000
5.034143447875977 28.651992797851562 2.351224660873413 0.003921568859369
3.353564977645874 26.054761886596680 7.023913860321045 0.003921568859369
3.384530544281006 25.616842269897461 0.580211699008942 0.003921568859369
3.432133674621582 25.922758102416992 6.991870403289795 0.003921568859369
4.582612991333008 25.141702651977539 4.644828796386719 0.003921568859369
4.711232662200928 25.333227157592773 4.683315277099609 0.003921568859369
4.126151084899902 29.391046524047852 1.704902172088623 0.003921568859369
3.692913055419922 26.462778091430664 7.144443511962891 0.003921568859369
4.244091033935547 29.441892623901367 1.708723783493042 0.003921568859369
3.467689752578735 24.343214035034180 6.575943946838379 0.003921568859369
5.057397842407227 26.131019592285156 4.837361335754395 0.003921568859369
3.537567377090454 24.248241424560547 2.992285728454590 0.003921568859369
4.843733787536621 24.640060424804688 4.564691543579102 0.003921568859369
4.062506198883057 27.015396118164062 3.335201740264893 0.003921568859369
5.559613227844238 27.643709182739258 2.280690431594849 0.003921568859369
4.022235870361328 26.748203277587891 7.232989311218262 0.003921568859369
4.794038295745850 23.999097824096680 4.449032306671143 0.003921568859369
3.954612016677856 24.654764175415039 3.049152851104736 0.003921568859369
5.156594753265381 24.434980392456055 2.020701646804810 0.003921568859369
4.404383659362793 27.272590637207031 7.387553691864014 0.003921568859369
5.021104812622070 23.817182540893555 4.425334930419922 0.003921568859369
4.230560779571533 25.741714477539062 6.976921081542969 0.003921568859369
4.722987651824951 26.844348907470703 7.290807247161865 0.003921568859369
4.296877384185791 24.073623657226562 6.542701721191406 0.003921568859369
5.485906600952148 23.905897140502930 4.460721015930176 0.003921568859369
4.816977500915527 26.299613952636719 7.152439594268799 0.003921568859369
4.901905059814453 26.271316528320312 7.149295806884766 0.003921568859369
6.110446453094482 25.342557907104492 2.110525131225586 0.003921568859369
5.885765075683594 24.103054046630859 4.512657642364502 0.003921568859369
5.107939720153809 25.906610488891602 7.064541339874268 0.003921568859369
6.158768177032471 24.813188552856445 4.649663448333740 0.003921568859369
4.938468456268311 24.631292343139648 6.721947193145752 0.003921568859369
5.913561820983887 28.775012969970703 3.587951898574829 0.003921568859369
5.706972122192383 26.914173126220703 3.360926866531372 0.003921568859369
5.212640285491943 24.670969009399414 6.747602462768555 0.003921568859369
7.055620193481445 26.339744567871094 4.960074901580811 0.003921568859369
6.092438697814941 27.692329406738281 3.464990615844727 0.003921568859369
5.572156906127930 25.407949447631836 6.961495399475098 0.003921568859369
7.144307613372803 26.302776336669922 4.957890510559082 0.003921568859369
5.426414012908936 24.378684997558594 6.684888362884521 0.003921568859369
6.934638500213623 24.568117141723633 2.068411350250244 0.003921568859369
0.937883734703064 6.237619400024414 -0.261913895606995 0.000000000000000
5.781872272491455 24.731132507324219 6.798275947570801 0.003921568859369
6.302573680877686 25.696729660034180 7.081926345825195 0.003921568859369
7.783524036407471 25.476150512695312 4.846859931945801 0.003921568859369
7.869189739227295 25.441675186157227 2.157630205154419 0.003921568859369
6.639710903167725 25.884605407714844 7.152999401092529 0.003921568859369
6.236688137054443 24.033775329589844 1.430855512619019 0.003921568859369
8.115747451782227 25.901666641235352 2.200390577316284 0.003921568859369
7.181764602661133 27.538047790527344 7.617912769317627 0.003921568859369
8.662295341491699 27.594865798950195 5.262580394744873 0.003921568859369
7.013997554779053 26.551198959350586 3.358086585998535 0.003921568859369
6.961528301239014 26.352527618408203 7.296881675720215 0.003921568859369
7.444757938385010 23.533641815185547 4.493363857269287 0.003921568859369
6.378768444061279 23.895692825317383 1.425280094146729 0.003921568859369
8.311342239379883 25.888240814208984 2.204184532165527 0.003921568859369
7.461495876312256 23.308633804321289 4.455479621887207 0.003921568859369
7.201600074768066 26.502674102783203 7.352536201477051 0.003921568859369
6.879386425018311 25.022520065307617 3.173964262008667 0.003921568859369
8.359225273132324 25.435142517089844 2.170614242553711 0.003921568859369
0.511166453361511 2.599307537078857 0.723287284374237 0.000000000000000
7.338296413421631 26.283077239990234 7.306013584136963 0.003921568859369
8.882972717285156 26.675775527954102 5.116702079772949 0.003921568859369
9.316221237182617 27.631963729858398 2.363484144210815 0.003921568859369
7.254707336425781 25.655508041381836 7.138775825500488 0.003921568859369
8.310406684875488 24.716836929321289 4.746731758117676 0.003921568859369
7.520933628082275 26.235569000244141 1.572290062904358 0.003921568859369
7.350772857666016 25.651483535766602 7.144930839538574 0.003921568859369
8.726305961608887 25.630640029907227 4.928093910217285 0.003921568859369
7.845691680908203 26.979959487915039 7.522635936737061 0.003921568859369
8.881232261657715 25.784797668457031 4.963768005371094 0.003921568859369
7.666346549987793 26.049201965332031 7.270770072937012 0.003921568859369
7.446586132049561 25.009204864501953 6.987945079803467 0.003921568859369
8.471813201904297 23.828405380249023 4.604455947875977 0.003921568859369
7.338849067687988 24.030109405517578 3.074914693832397 0.003921568859369
7.615889072418213 24.906700134277344 6.975979804992676 0.003921568859369
8.567755699157715 23.804988861083984 4.607364177703857 0.003921568859369
9.126682281494141 25.050073623657227 4.854512214660645 0.003921568859369
8.293179512023926 26.414724349975586 7.414641857147217 0.003921568859369
9.000250816345215 24.450183868408203 4.744468688964844 0.003921568859369
7.994798660278320 25.187101364135742 7.078080654144287 0.003921568859369
9.409189224243164 25.267452239990234 4.909461021423340 0.003921568859369
8.680030822753906 26.989463806152344 3.468617916107178 0.003921568859369
8.504207611083984 26.451639175415039 7.441415309906006 0.003921568859369
8.273881912231445 25.445268630981445 1.543018221855164 0.003921568859369
8.986275672912598 27.578132629394531 3.548508882522583 0.003921568859369
8.651249885559082 26.569808959960938 7.483704090118408 0.003921568859369
8.051203727722168 24.491130828857422 3.155141592025757 0.003921568859369
8.328524589538574 25.308469772338867 7.136824607849121 0.003921568859369
9.301812171936035 24.220249176025391 4.725069046020508 0.003921568859369
9.422072410583496 27.305654525756836 1.665384769439697 0.003921568859369
2.271154880523682 6.024279117584229 -0.193156927824020 0.003921568859369
8.812135696411133 25.294479370117188 3.278024673461914 0.003921568859369
1.786512613296509 5.522113800048828 1.569931507110596 0.000000000000000
8.964602470397949 25.137359619140625 3.267450094223022 0.003921568859369
9.829168319702148 27.197036743164062 3.539778709411621 0.003921568859369
1.852691650390625 4.748805046081543 0.941236257553101 0.000000000000000
5.225136756896973 11.603027343750000 2.327448129653931 0.000000000000000
3.197585821151733 8.220906257629395 0.513413012027740 0.000000000000000
3.782039880752563 8.441476821899414 1.696252465248108 0.000000000000000
13.511704444885254 25.531160354614258 -0.355781435966492 0.003921568859369
3.000494003295898 7.667192935943604 1.015696048736572 0.000000000000000
13.854010581970215 25.950952529907227 -0.362356156110764 0.003921568859369
13.846719741821289 25.937244415283203 0.324571728706360 0.003921568859369
5.541816234588623 11.958195686340332 2.410339355468750 0.000000000000000
14.080593109130859 26.150997161865234 -0.365874230861664 0.003921568859369
14.002697944641113 25.582082748413086 -0.359300702810287 0.003921568859369
13.789160728454590 24.991355895996094 -0.351673483848572 0.003921568859369
13.776384353637695 24.765077590942383 0.312877357006073 0.003921568859369
13.941534996032715 24.854867935180664 -0.351162403821945 0.003921568859369
5.255104541778564 12.224836349487305 1.635730385780334 0.000000000000000
14.020256042480469 24.791484832763672 -0.350980460643768 0.003921568859369
14.287196159362793 25.256776809692383 0.320294022560120 0.003921568859369
13.180735588073730 26.215423583984375 5.346659660339355 0.003921568859369
14.491034507751465 25.406562805175781 -0.360465437173843 0.003921568859369
14.339219093322754 25.143747329711914 0.319490164518356 0.003921568859369
14.560862541198730 25.103321075439453 -0.355775624513626 0.003921568859369
14.522051811218262 24.838312149047852 -0.352747499942780 0.003921568859369
14.926411628723145 25.319150924682617 -0.360363841056824 0.003921568859369
14.914405822753906 25.298868179321289 0.325916111469269 0.003921568859369
14.560913085937500 24.521682739257812 -0.349681735038757 0.003921568859369
13.489966392517090 25.482009887695312 -0.184634447097778 0.003921568859369
14.837421417236328 24.981302261352539 0.322466313838959 0.003921568859369
14.617388725280762 24.422176361083984 -0.349007219076157 0.003921568859369
14.056684494018555 26.317083358764648 -0.191104397177696 0.003921568859369
14.915532112121582 24.516542434692383 -0.351926356554031 0.003921568859369
13.978442192077637 25.730930328369141 -0.187587291002274 0.003921568859369
14.840299606323242 24.394258499145508 0.316920399665833 0.003921568859369
15.159240722656250 24.718534469604492 -0.355617821216583 0.003921568859369
15.151093482971191 24.705259323120117 0.321623772382736 0.003921568859369
15.521210670471191 25.105619430541992 -0.362007856369019 0.003921568859369
13.786776542663574 24.775419235229492 -0.181662797927856 0.003921568859369
15.427653312683105 24.772871017456055 0.323848515748978 0.003921568859369
13.541382789611816 24.338796615600586 5.078038215637207 0.003921568859369
13.792118072509766 24.583929061889648 -0.180621922016144 0.003921568859369
14.102912902832031 24.909713745117188 -0.850308895111084 0.003921568859369
15.567133903503418 24.595510482788086 -0.355103850364685 0.003921568859369
13.836449623107910 24.444700241088867 -0.178173184394836 0.003921568859369
13.247972488403320 26.319011688232422 3.612343549728394 0.003921568859369
14.482275009155273 25.355657577514648 -0.867395699024200 0.003921568859369
14.135630607604980 24.567474365234375 -0.179826080799103 0.003921568859369
14.020668983459473 24.368885040283203 5.126975059509277 0.003921568859369
7.213714599609375 14.120085716247559 4.261895656585693 0.003921568859369
14.512461662292480 24.814573287963867 -0.854032039642334 0.003921568859369
14.557400703430176 24.890340805053711 -0.182980820536613 0.003921568859369
14.910360336303711 25.285058975219727 -0.872067034244537 0.003921568859369
14.773933410644531 24.858764648437500 -0.859153509140015 0.003921568859369
14.987247467041016 25.015184402465820 -0.185102716088295 0.003921568859369
15.299673080444336 25.133232116699219 -0.874246060848236 0.003921568859369
15.218139648437500 25.000682830810547 -0.185812115669250 0.003921568859369
15.237608909606934 24.837862014770508 -0.865837275981903 0.003921568859369
14.919331550598145 24.324850082397461 -0.181161731481552 0.003921568859369
15.083698272705078 24.398166656494141 5.231310367584229 0.003921568859369
14.110594749450684 25.128131866455078 -0.685454249382019 0.003921568859369
14.461053848266602 25.526689529418945 -0.697813630104065 0.003921568859369
14.617557525634766 24.786714553833008 -0.684567451477051 0.003921568859369
13.893117904663086 26.216464996337891 0.159603521227837 0.003921568859369
14.720265388488770 24.771833419799805 -0.685526728630066 0.003921568859369
15.324444770812988 22.781578063964844 5.009820938110352 0.003921568859369
15.347259521484375 24.797155380249023 -0.691859960556030 0.003921568859369
13.799768447875977 24.753366470336914 0.154240101575851 0.003921568859369
14.717603683471680 23.605705261230469 3.414691209793091 0.003921568859369
13.883383750915527 24.719839096069336 0.154296517372131 0.003921568859369
17.020801544189453 23.979721069335938 5.365891933441162 0.003921568859369
14.308365821838379 24.650003433227539 0.155080601572990 0.003921568859369
14.890323638916016 24.446449279785156 0.157522767782211 0.003921568859369
15.207486152648926 24.758312225341797 0.159876346588135 0.003921568859369
11.491838455200195 15.218663215637207 3.486617803573608 0.003921568859369
9.017485618591309 11.734596252441406 2.709658622741699 0.000000000000000
12.937095642089844 16.280754089355469 3.800967693328857 0.003921568859369
9.659683227539062 11.842312812805176 2.797950983047485 0.000000000000000
5.484209060668945 7.407067298889160 2.488811254501343 0.000000000000000
9.863964080810547 11.923130035400391 2.833051204681396 0.000000000000000
11.718502044677734 14.034836769104004 3.344532012939453 0.003921568859369
17.886486053466797 20.897748947143555 5.023677825927734 0.003921568859369
17.965532302856445 20.834539413452148 5.024393081665039 0.003921568859369
8.117233276367188 10.346933364868164 3.542638540267944 0.000000000000000
6.399235248565674 7.051511764526367 1.749733567237854 0.000000000000000
5.447301387786865 6.552884101867676 2.303115844726562 0.000000000000000
5.676219463348389 6.774062633514404 2.387940645217896 0.000000000000000
3.948404073715210 4.656658649444580 1.656582474708557 0.000000000000000
6.592086791992188 7.563086509704590 2.707123279571533 0.000000000000000
3.907752752304077 4.505502700805664 1.617558956146240 0.000000000000000
10.227081298828125 10.076375961303711 2.630643367767334 0.000000000000000
11.858809471130371 11.169684410095215 2.982945442199707 0.003921568859369
8.204913139343262 7.650055885314941 2.058486461639404 0.000000000000000
10.268890380859375 10.249129295349121 3.906224012374878 0.000000000000000
11.105193138122559 9.898331642150879 2.725476980209351 0.000000000000000
11.670073509216309 11.388457298278809 0.952907323837280 0.000000000000000
13.012938499450684 12.687413215637207 4.888436317443848 0.003921568859369
10.398634910583496 9.938055992126465 0.841598868370056 0.000000000000000
11.667462348937988 10.096955299377441 2.826112508773804 0.000000000000000
2.469689846038818 2.361480712890625 0.933821618556976 0.000000000000000
7.816780090332031 6.464410781860352 1.862554788589478 0.000000000000000
2.888718605041504 2.294023990631104 0.684474289417267 0.000000000000000
5.311496734619141 4.074921607971191 1.232621192932129 0.000000000000000
6.679946422576904 5.481289386749268 2.330403089523315 0.000000000000000
9.395613670349121 6.898660659790039 2.135917425155640 0.000000000000000
6.036350727081299 4.820656299591064 0.181077510118484 0.000000000000000
22.692083358764648 15.411501884460449 5.012258052825928 0.003921568859369
5.570644855499268 3.586846351623535 1.217555165290833 0.000000000000000
9.247833251953125 5.796779632568359 1.999599337577820 0.000000000000000
5.983856678009033 3.735274314880371 1.295759677886963 0.000000000000000
1.635409474372864 1.275487422943115 0.061558719724417 0.000000000000000
6.990557670593262 4.592324256896973 2.252758979797363 0.000000000000000
3.426185369491577 2.124855041503906 0.094635806977749 0.000000000000000
5.703209400177002 2.644514083862305 -0.220843672752380 0.000000000000000
6.141801834106445 3.026601791381836 0.120002679526806 0.000000000000000
10.810713768005371 6.393703460693359 0.366304963827133 0.000000000000000
6.939831733703613 3.633311271667480 0.965204656124115 0.000000000000000
3.529069185256958 1.604980349540710 0.710301578044891 0.000000000000000
5.317819595336914 2.368987321853638 0.476796150207520 0.000000000000000
10.948106765747070 6.162809371948242 -0.512588083744049 0.000000000000000
3.573465585708618 1.780209779739380 0.093332514166832 0.000000000000000
10.954414367675781 6.121071338653564 0.365724235773087 0.003921568859369
10.956941604614258 6.122480869293213 -0.512099623680115 0.000000000000000
10.954723358154297 6.071109294891357 0.365026086568832 0.003921568859369
10.962876319885254 6.023153781890869 0.364560633897781 0.003921568859369
16.512439727783203 7.065418243408203 3.278142213821411 0.003921568859369
10.951182365417480 5.969496726989746 0.363513410091400 0.003921568859369
6.809870719909668 2.892287015914917 1.352441191673279 0.000000000000000
10.957879066467285 5.923564434051514 0.363047987222672 0.003921568859369
10.971434593200684 5.881441116333008 0.362815260887146 0.000000000000000
10.970707893371582 5.831788539886475 0.362117141485214 0.000000000000000
10.962687492370605 5.778494834899902 0.361186236143112 0.000000000000000
8.082045555114746 3.769666194915771 2.394593238830566 0.000000000000000
10.964776992797852 5.725389003753662 0.360256284475327 0.000000000000000
10.965945243835449 5.679776668548584 0.359674483537674 0.000000000000000
10.979239463806152 5.686656475067139 -0.504119932651520 0.003921568859369
10.968900680541992 5.630383968353271 0.359092712402344 0.000000000000000
11.017788887023926 5.655454635620117 -0.504934012889862 0.000000000000000
7.917332649230957 3.130738973617554 1.554051637649536 0.000000000000000
2.546992540359497 0.969382941722870 0.498646110296249 0.000000000000000
13.760700225830078 5.055757522583008 -0.426933616399765 0.000000000000000
10.637338638305664 3.909079551696777 0.462108612060547 0.000000000000000
7.824711799621582 2.876481771469116 1.521765232086182 0.000000000000000
4.091183662414551 1.473381757736206 -0.126834303140640 0.000000000000000
12.866888046264648 4.571576118469238 2.489639997482300 0.000000000000000
10.335830688476562 4.209564208984375 1.370298981666565 0.000000000000000
11.499180793762207 3.950511932373047 -0.353857249021530 0.000000000000000
9.316049575805664 3.200503110885620 -0.516241908073425 0.000000000000000
9.126749992370605 3.606168270111084 -0.457121759653091 0.000000000000000
11.936443328857422 3.325984716415405 -0.144256308674812 0.000000000000000
8.702229499816895 2.889791011810303 0.748553216457367 0.000000000000000
9.297735214233398 3.563484191894531 1.222593307495117 0.000000000000000
8.008333206176758 3.005351066589355 -0.199039444327354 0.000000000000000
8.543114662170410 2.634853839874268 0.729025781154633 0.000000000000000
4.118632316589355 1.492066740989685 -0.101706877350807 0.000000000000000
5.964661121368408 1.817041277885437 -0.181176081299782 0.000000000000000
10.204644203186035 3.110933065414429 0.186042964458466 0.000000000000000
23.733459472656250 7.239445209503174 4.522249698638916 0.003921568859369
3.885040760040283 1.152907848358154 0.330013781785965 0.000000000000000
14.544965744018555 5.922680854797363 -0.639428913593292 0.000000000000000
3.789588212966919 1.110161662101746 0.321551889181137 0.000000000000000
10.685009002685547 3.711108446121216 3.028183460235596 0.000000000000000
20.421255111694336 5.995770931243896 3.878673791885376 0.003921568859369
8.345294952392578 2.865119218826294 -0.205087706446648 0.000000000000000
7.508643150329590 2.117609262466431 1.420601367950439 0.000000000000000
11.135169982910156 3.610452651977539 0.000000462825483 0.003921568859369
6.926921844482422 2.244705200195312 0.423484563827515 0.000000000000000
3.540170907974243 0.746846377849579 -0.125639423727989 0.000000000000000
7.724438190460205 1.975209593772888 1.450017690658569 0.000000000000000
15.601239204406738 5.603394508361816 -0.289009541273117 0.003921568859369
3.660738468170166 0.919764757156372 -0.109265200793743 0.000000000000000
20.432142257690430 5.157556533813477 3.838496685028076 0.003921568859369
10.488539695739746 3.723442554473877 -0.193930253386497 0.000000000000000
5.008638381958008 1.223370194435120 0.209234595298767 0.000000000000000
9.384841918945312 3.257394075393677 -0.173057511448860 0.000000000000000
6.470738410949707 2.243698596954346 0.198746293783188 0.000000000000000
11.477774620056152 2.140131235122681 -0.135688126087189 0.000000000000000
8.071400642395020 1.885409355163574 0.674999535083771 0.000000000000000
12.148212432861328 3.473077297210693 3.380177974700928 0.000000000000000
6.660636901855469 2.232087135314941 0.203866243362427 0.000000000000000
7.113618850708008 1.635007143020630 0.127053096890450 0.000000000000000
11.160879135131836 2.527028322219849 -0.332446157932281 0.000000000000000
10.987295150756836 3.057932138442993 0.264921337366104 0.000000000000000
13.518342018127441 3.061792135238647 0.563878297805786 0.000000000000000
7.985224723815918 2.220832109451294 2.215491056442261 0.000000000000000
8.478465080261230 1.855891585350037 0.352362036705017 0.000000000000000
2.812468290328979 0.601415812969208 0.115932255983353 0.000000000000000
10.439154624938965 2.250501155853271 0.869298577308655 0.000000000000000
12.055503845214844 3.222164154052734 -0.289671301841736 0.000000000000000
8.696570396423340 1.808900952339172 -0.257625967264175 0.000000000000000
9.458297729492188 2.454029798507690 -0.226675704121590 0.000000000000000
6.877831459045410 2.118250608444214 -0.125099211931229 0.000000000000000
6.520164966583252 1.568799138069153 -0.000000774459750 0.000000000000000
11.764881134033203 2.155884265899658 0.208242684602737 0.000000000000000
5.922462463378906 1.361331462860107 0.742427110671997 0.000000000000000
15.887662887573242 3.603468656539917 4.354375362396240 0.003921568859369
7.677631855010986 2.073470592498779 0.230280339717865 0.000000000000000
18.130598068237305 3.056737661361694 3.344873666763306 0.003921568859369
4.009597301483154 1.062626123428345 0.023873254656792 0.000000000000000
8.576997756958008 2.285712718963623 0.257160395383835 0.000000000000000
17.717979431152344 2.923580884933472 3.266668796539307 0.003921568859369
8.938910484313965 1.893060088157654 0.529762625694275 0.000000000000000
27.655673980712891 4.478129863739014 2.283744812011719 0.003921568859369
13.962328910827637 1.515080928802490 0.163022533059120 0.000000000000000
16.465776443481445 3.434608697891235 0.977203786373138 0.000000000000000
11.444661140441895 2.338949680328369 1.429284691810608 0.000000000000000
3.299116134643555 0.492184609174728 -0.095885150134563 0.000000000000000
5.803729057312012 1.160982489585876 0.342321038246155 0.000000000000000
13.787243843078613 2.076736688613892 1.134873032569885 0.000000000000000
14.128493309020996 2.083044528961182 0.580161511898041 0.000000000000000
6.817771911621094 1.343148231506348 0.848209619522095 0.000000000000000
10.964082717895508 2.685153007507324 0.065373435616493 0.000000000000000
11.429722785949707 1.078791975975037 0.133173778653145 0.000000000000000
8.584279060363770 1.232775211334229 0.704615652561188 0.000000000000000
6.219125270843506 1.494695901870728 0.036939356476068 0.000000000000000
13.453400611877441 1.885249853134155 -0.078715585172176 0.000000000000000
18.660974502563477 3.552308320999146 5.079068660736084 0.003921568859369
16.236658096313477 2.276472330093384 2.981829881668091 0.003921568859369
9.472771644592285 1.799354553222656 -0.223419293761253 0.000000000000000
3.313436031341553 0.448880255222321 -0.096117913722992 0.000000000000000
7.451928138732910 1.388362526893616 0.925718665122986 0.000000000000000
6.392759799957275 0.847394704818726 -0.186181500554085 0.000000000000000
14.968228340148926 2.740823984146118 1.862166285514832 0.000000000000000
3.785030364990234 0.862010717391968 -0.066880516707897 0.000000000000000
3.673346281051636 0.470479935407639 -0.021228451281786 0.000000000000000
13.028372764587402 2.335248947143555 1.618914008140564 0.000000000000000
19.148517608642578 4.346257686614990 -0.341852128505707 0.003921568859369
17.195495605468750 1.325659990310669 0.200181901454926 0.003921568859369
15.156070709228516 1.913916707038879 2.775914192199707 0.000000000000000
10.762932777404785 1.892844557762146 -0.253102570772171 0.000000000000000
13.318218231201172 1.631661772727966 -0.388997703790665 0.000000000000000
11.087911605834961 1.908588409423828 1.375174283981323 0.000000000000000
7.428255081176758 0.881127417087555 -0.216202571988106 0.000000000000000
9.479373931884766 1.126130580902100 0.165727227926254 0.000000000000000
8.630084991455078 0.995844841003418 -0.050192922353745 0.000000000000000
9.222682952880859 1.521806240081787 0.541390061378479 0.000000000000000
7.449151992797852 0.831286013126373 -0.043265663087368 0.000000000000000
8.656869888305664 0.967000722885132 0.706893384456635 0.000000000000000
4.092361927032471 0.844990074634552 0.023988766595721 0.000000000000000
12.568038940429688 1.362290382385254 1.027796506881714 0.000000000000000
9.030840873718262 1.845047593116760 -0.160003870725632 0.000000000000000
12.369450569152832 1.297183513641357 0.504607737064362 0.000000000000000
3.379185438156128 0.515815794467926 -0.078353650867939 0.000000000000000
7.592727661132812 1.143385052680969 0.444180756807327 0.000000000000000
6.135846614837646 0.598887205123901 -0.177920132875443 0.000000000000000
10.078541755676270 1.484510183334351 -0.000000258216460 0.003921568859369
16.240144729614258 2.336142301559448 0.000002577583473 0.003921568859369
9.911011695861816 1.422791123390198 0.231793567538261 0.000000000000000
12.204473495483398 2.321109056472778 -0.215779989957809 0.000000000000000
26.922843933105469 2.454911708831787 -0.784971714019775 0.003921568859369
9.040640830993652 0.820597290992737 -0.052401762455702 0.000000000000000
4.001191139221191 0.752993047237396 0.116707690060139 0.000000000000000
9.479504585266113 0.860705614089966 0.771984875202179 0.000000000000000
16.222791671752930 2.277556896209717 4.373009204864502 0.003921568859369
26.564819335937500 2.328941106796265 -0.774266660213470 0.003921568859369
15.017754554748535 2.054522037506104 0.000002277266503 0.000000000000000
6.656801700592041 0.255898207426071 0.076827995479107 0.000000000000000
4.039164066314697 0.745872676372528 0.117754966020584 0.000000000000000
10.404803276062012 1.420822143554688 2.797316074371338 0.000000000000000
27.210250854492188 2.290183782577515 -0.792884409427643 0.003921568859369
6.661876201629639 0.533570587635040 -0.192698508501053 0.000000000000000
14.178818702697754 1.838955044746399 0.829064130783081 0.000000000000000
26.868408203125000 3.491990804672241 -0.629026710987091 0.003921568859369
14.803748130798340 1.142600893974304 0.258087247610092 0.000000000000000
12.418025016784668 1.567933678627014 0.725343227386475 0.000000000000000
26.860004425048828 3.400567293167114 -0.628561556339264 0.003921568859369
8.761075019836426 1.506015300750732 0.256926834583282 0.000000000000000
14.342718124389648 1.759003520011902 3.855370283126831 0.000000000000000
3.857152700424194 0.280172854661942 0.693794608116150 0.000000000000000
26.848474502563477 3.299386024475098 -0.628003418445587 0.003921568859369
5.957275390625000 0.125773727893829 -0.205910608172417 0.000000000000000
15.415276527404785 1.836734771728516 4.143177509307861 0.003921568859369
26.851884841918945 3.204919576644897 -0.627817392349243 0.003921568859369
12.367959976196289 1.430805563926697 0.288277328014374 0.000000000000000
14.790055274963379 2.446644306182861 0.434498906135559 0.000000000000000
17.047376632690430 1.974874377250671 2.099568128585815 0.003921568859369
3.512032508850098 0.573119699954987 -0.142479434609413 0.000000000000000
15.371391296386719 1.780006766319275 4.129718780517578 0.000000000000000
6.282612323760986 0.723268926143646 -0.145723015069962 0.000000000000000
11.180314064025879 0.159538447856903 0.129447296261787 0.000000000000000
7.430901527404785 0.466462045907974 0.602745532989502 0.000000000000000
26.814002990722656 3.011105298995972 -0.626421928405762 0.003921568859369
14.277979850769043 1.549864053726196 0.000001358677309 0.000000000000000
26.880006790161133 2.923766136169434 -0.627724707126617 0.003921568859369
9.828022956848145 1.030236005783081 -0.000000978252501 0.003921568859369
3.347089767456055 0.346554577350616 0.076857127249241 0.000000000000000
4.982333183288574 0.276995062828064 0.200764566659927 0.000000000000000
10.674189567565918 0.597402215003967 1.937900066375732 0.000000000000000
26.842323303222656 2.825095415115356 -0.626608192920685 0.003921568859369
11.920561790466309 0.628133296966553 -0.345596224069595 0.000000000000000
