# This PCD file was generated using the MATLAB® pcwrite function
# from Computer Vision Toolbox®.
# .PCD v.7 - Point Cloud Data file format
VERSION .7
FIELDS x y z intensity
SIZE 8 8 8 8
TYPE F F F F
COUNT 1 1 1 1
WIDTH 645
HEIGHT 1
VIEWPOINT 0 0 0 1 0 0 0
POINTS 645
DATA ascii
-2.806498050689697 -0.625466048717499 -0.138273879885674 0.000000000000000
-23.990945816040039 -7.032986640930176 0.120225399732590 0.003921568859369
-23.058469772338867 -6.661427497863770 0.115035340189934 0.003921568859369
-23.963947296142578 -6.672424793243408 0.118398144841194 0.003921568859369
-3.029629707336426 -0.495675384998322 0.624093234539032 0.000000000000000
-20.309537887573242 -3.957840919494629 1.139568328857422 0.003921568859369
-20.306919097900391 -3.889809608459473 1.138432621955872 0.000000000000000
-8.232330322265625 -1.484503030776978 0.929893434047699 0.000000000000000
-7.254986763000488 -0.892371535301208 1.190906047821045 0.000000000000000
-24.407709121704102 -3.171566009521484 4.319539070129395 0.003921568859369
-11.160692214965820 -1.352756738662720 1.901701450347900 0.000000000000000
-7.388222217559814 -0.839790344238281 0.538679838180542 0.000000000000000
-8.676210403442383 -0.979276180267334 0.315398782491684 0.000000000000000
-21.822479248046875 -2.600169420242310 3.841951370239258 0.003921568859369
-13.909945487976074 -1.573333621025085 2.399416446685791 0.000000000000000
-9.397545814514160 -1.009196281433105 -0.265578061342239 0.000000000000000
-12.958552360534668 -0.779482841491699 -0.161571115255356 0.000000000000000
-13.910217285156250 -1.481551885604858 2.399374961853027 0.000000000000000
-20.603353500366211 -1.198944926261902 0.199926197528839 0.003921568859369
-7.167438507080078 -1.326068520545959 -0.121202252805233 0.000000000000000
-2.977240324020386 -0.459441870450974 0.012081860564649 0.000000000000000
-9.003577232360840 -0.873822450637817 0.667999267578125 0.000000000000000
-6.427585601806641 -0.321873843669891 -0.207461744546890 0.000000000000000
-16.129478454589844 -1.579770207405090 0.247863858938217 0.000000000000000
-14.391968727111816 -1.350352764129639 0.219827607274055 0.000000000000000
-9.743720054626465 -0.887275576591492 0.726870357990265 0.000000000000000
-15.003108978271484 -1.403349637985229 2.593688964843750 0.000000000000000
-18.750898361206055 -2.606633186340332 2.211455821990967 0.003921568859369
-13.565148353576660 -1.220415115356445 1.033852934837341 0.000000000000000
-2.885769605636597 -0.285509943962097 0.125122129917145 0.000000000000000
-9.989550590515137 -0.752911627292633 -0.067447103559971 0.000000000000000
-13.392849922180176 -1.029661774635315 0.498692572116852 0.000000000000000
-25.316381454467773 -1.992939591407776 4.458206653594971 0.003921568859369
-6.989531993865967 -0.178499013185501 -0.082519300282001 0.000000000000000
-7.283436775207520 -0.829319417476654 0.803003370761871 0.000000000000000
-9.068226814270020 -0.643158793449402 1.512585997581482 0.000000000000000
-11.920906066894531 -1.348326683044434 -0.015044764615595 0.003921568859369
-14.929708480834961 -1.011077404022217 -0.104392737150192 0.000000000000000
-7.660507678985596 -0.127031520009041 -0.091713152825832 0.000000000000000
-7.326946258544922 -0.444192260503769 -0.047811839729548 0.000000000000000
-7.941260337829590 -1.175316810607910 -0.136003345251083 0.000000000000000
-6.194415569305420 -0.346616417169571 0.088254429399967 0.000000000000000
-13.612995147705078 -1.454128503799438 1.575249195098877 0.000000000000000
-8.461130142211914 -0.488274723291397 1.402887344360352 0.000000000000000
-9.364999771118164 -0.097615443170071 -0.114769756793976 0.000000000000000
-13.341545104980469 -0.761602818965912 0.201325759291649 0.000000000000000
-4.507162570953369 -0.399146854877472 -0.270738661289215 0.000000000000000
-16.493638992309570 -1.668712139129639 1.924997568130493 0.000000000000000
-7.585276126861572 -0.386497467756271 0.551457285881042 0.000000000000000
-8.639049530029297 -1.233269333839417 -0.335996627807617 0.000000000000000
-10.509492874145508 -0.010399455204606 -0.130451589822769 0.000000000000000
-15.833650588989258 -0.017843319103122 0.149745792150497 0.000000000000000
-14.550739288330078 -0.644783020019531 -0.102469474077225 0.000000000000000
-14.637699127197266 0.032569248229265 0.137869358062744 0.000000000000000
-13.610431671142578 -1.231340765953064 0.735684335231781 0.000000000000000
-4.003226280212402 -0.309165775775909 0.401485204696655 0.000000000000000
-11.233350753784180 -0.486053138971329 0.842848360538483 0.000000000000000
-20.550933837890625 -0.860842645168304 -0.147741883993149 0.000000000000000
-12.146120071411133 -0.492990911006927 0.181634575128555 0.000000000000000
-3.667244911193848 -0.123966276645660 -0.158254802227020 0.000000000000000
-7.725527286529541 -0.594133317470551 0.399937361478806 0.000000000000000
-19.751903533935547 0.303886353969574 -0.255763411521912 0.003921568859369
-5.650174140930176 -0.400747060775757 0.109078645706177 0.000000000000000
-14.831016540527344 -0.415081173181534 -0.434179902076721 0.000000000000000
-10.362516403198242 -0.719961285591125 0.211351394653320 0.000000000000000
-11.699895858764648 -0.281205534934998 0.430288225412369 0.000000000000000
-4.525008678436279 -0.092659771442413 0.690783262252808 0.000000000000000
-8.703365325927734 -0.569267034530640 -0.011359412223101 0.003921568859369
-10.111945152282715 0.249555215239525 -0.125858873128891 0.000000000000000
-12.163818359375000 -0.817058801651001 0.250330835580826 0.000000000000000
-9.754772186279297 -0.200513899326324 0.354287415742874 0.000000000000000
-8.001794815063477 -0.489237695932388 0.887130737304688 0.000000000000000
-12.154176712036133 -0.171735316514969 0.915588617324829 0.000000000000000
-5.853139877319336 -0.058091484010220 -0.157447427511215 0.000000000000000
-20.120813369750977 -0.227094277739525 1.551539540290833 0.000000000000000
-12.366807937622070 -0.130832552909851 2.105861186981201 0.000000000000000
-12.082159996032715 -0.093385592103004 0.179632574319839 0.000000000000000
-16.943073272705078 -0.134378120303154 0.633793771266937 0.003921568859369
-10.165554046630859 -0.074977442622185 0.756513178348541 0.000000000000000
-10.391479492187500 -0.520176410675049 0.211080774664879 0.000000000000000
-23.793035507202148 1.010064125061035 0.225548952817917 0.003921568859369
-8.806118011474609 -0.036606304347515 0.647889137268066 0.000000000000000
-13.688797950744629 -0.689352869987488 3.461587667465210 0.000000000000000
-8.969697952270508 -0.010056545957923 0.660857200622559 0.000000000000000
-13.671763420104980 -0.645355045795441 3.456312417984009 0.000000000000000
-15.260916709899902 -0.017312170937657 2.627612590789795 0.000000000000000
-7.507775783538818 0.015798849985003 -0.050435770303011 0.000000000000000
-7.149741649627686 -0.278274416923523 -0.009394925087690 0.000000000000000
-14.877084732055664 0.076258264482021 0.552743792533875 0.000000000000000
-17.388326644897461 0.150014922022820 0.651016056537628 0.003921568859369
-14.848016738891602 0.178199857473373 2.554862976074219 0.000000000000000
-15.728034973144531 0.237061515450478 1.200753211975098 0.000000000000000
-12.697760581970215 0.228364527225494 -0.370077341794968 0.000000000000000
-6.691997528076172 0.117827050387859 0.234610036015511 0.000000000000000
-12.972392082214355 0.237386241555214 0.980814635753632 0.000000000000000
-20.643838882446289 0.388342946767807 3.600677013397217 0.003921568859369
-6.189975738525391 -0.408681392669678 0.024812661111355 0.000000000000000
-10.522069931030273 -0.734343171119690 0.272676825523376 0.000000000000000
-6.759996414184570 -0.133466765284538 -0.009025776758790 0.000000000000000
-9.358404159545898 0.230333432555199 -0.065111964941025 0.000000000000000
-20.329221725463867 -0.440218120813370 1.110952854156494 0.000000000000000
-9.869692802429199 -0.175084233283997 0.198967516422272 0.000000000000000
-7.924626350402832 -0.112135916948318 -0.011182053014636 0.000000000000000
-11.997724533081055 -0.174124389886856 1.369043231010437 0.000000000000000
-5.902173995971680 0.195692509412766 0.203726038336754 0.000000000000000
-11.004120826721191 0.386689037084579 1.861624956130981 0.000000000000000
-11.903316497802734 -0.092606596648693 0.634163081645966 0.000000000000000
-10.416688919067383 0.398904919624329 1.755741238594055 0.000000000000000
-7.355199813842773 0.292248487472534 -0.050066266208887 0.000000000000000
-8.897377014160156 0.363140314817429 1.481630086898804 0.000000000000000
-10.950057029724121 0.484959036111832 -0.078014411032200 0.000000000000000
-12.459259033203125 0.556371927261353 0.184238508343697 0.000000000000000
-9.702022552490234 0.899894654750824 -0.122602596879005 0.000000000000000
-11.598715782165527 -0.514189302921295 0.301452279090881 0.000000000000000
-12.743972778320312 0.021929439157248 0.682065367698669 0.000000000000000
-10.698697090148926 0.509338259696960 0.800419747829437 0.000000000000000
-9.562719345092773 0.487211436033249 1.604366421699524 0.000000000000000
-8.409754753112793 -0.311368376016617 -0.326274514198303 0.000000000000000
-7.588171005249023 -0.252372980117798 -0.291439533233643 0.000000000000000
-8.032648086547852 0.474394768476486 -0.227168247103691 0.000000000000000
-9.536087989807129 0.139440640807152 0.500689864158630 0.000000000000000
-6.144702434539795 0.091174282133579 1.453330874443054 0.000000000000000
-14.856797218322754 0.918723762035370 2.561593294143677 0.000000000000000
-11.270273208618164 -0.314296185970306 0.045096773654222 0.000000000000000
-7.756013393402100 0.142513245344162 1.882030606269836 0.000000000000000
-11.783562660217285 0.253091603517532 1.343526601791382 0.000000000000000
-12.189066886901855 0.302233338356018 0.650155305862427 0.000000000000000
-13.418354034423828 -0.246565058827400 -0.242729842662811 0.000000000000000
-6.379081249237061 0.449610292911530 -0.176098465919495 0.000000000000000
-9.957919120788574 -0.176928699016571 0.255345165729523 0.000000000000000
-5.605252742767334 0.149283930659294 0.278816044330597 0.000000000000000
-11.153637886047363 0.345060527324677 -0.018123975023627 0.003921568859369
-9.720942497253418 0.741364955902100 -0.069392189383507 0.000000000000000
-12.677037239074707 0.988478720188141 2.169938564300537 0.000000000000000
-9.899425506591797 0.303710132837296 -0.230262145400047 0.000000000000000
-11.448294639587402 -0.134362682700157 -0.205131635069847 0.000000000000000
-12.878816604614258 1.041616916656494 -0.094305150210857 0.000000000000000
-10.687741279602051 0.368318915367126 1.211087942123413 0.000000000000000
-10.111065864562988 0.808535277843475 0.754391372203827 0.000000000000000
-6.915635108947754 0.866246640682220 0.061117824167013 0.000000000000000
-10.699015617370605 -0.086611941456795 0.275295197963715 0.000000000000000
-23.947174072265625 0.944810092449188 6.191871643066406 0.003921568859369
-9.135017395019531 0.369000703096390 0.182547077536583 0.000000000000000
-10.682499885559082 0.438345789909363 1.212060928344727 0.000000000000000
-13.267266273498535 1.167012095451355 1.008063793182373 0.000000000000000
-5.508089065551758 0.216146349906921 1.287502527236938 0.000000000000000
-4.700029373168945 -0.005015712231398 -0.075817905366421 0.000000000000000
-7.556247711181641 0.347536712884903 -0.011608816683292 0.000000000000000
-19.120634078979492 2.744680643081665 -0.255806088447571 0.003921568859369
-11.572691917419434 0.014806799590588 0.045593962073326 0.000000000000000
-7.955050468444824 0.728650927543640 1.319689631462097 0.000000000000000
-14.900520324707031 0.069949947297573 0.058927156031132 0.000000000000000
-7.098121643066406 0.348729759454727 0.138822928071022 0.000000000000000
-6.122736930847168 0.565158903598785 0.437153786420822 0.000000000000000
-18.830545425415039 1.929008245468140 -0.142009943723679 0.000000000000000
-8.389662742614746 0.066279657185078 0.212183818221092 0.000000000000000
-10.261051177978516 0.585187435150146 0.206382781267166 0.000000000000000
-13.814999580383301 0.157572522759438 0.360287845134735 0.000000000000000
-9.717416763305664 0.997213959693909 0.141502320766449 0.000000000000000
-23.633832931518555 2.534644365310669 4.163384914398193 0.003921568859369
-6.910944938659668 0.097233951091766 -0.118600398302078 0.000000000000000
-16.917598724365234 1.053040266036987 4.328469276428223 0.003921568859369
-17.545068740844727 0.433561652898788 0.461630225181580 0.003921568859369
-7.840485572814941 0.211070805788040 -0.136822715401649 0.000000000000000
-7.174031257629395 0.192314669489861 0.027279675006866 0.000000000000000
-10.091441154479980 1.236632823944092 0.147148981690407 0.000000000000000
-13.608757972717285 1.697577834129333 0.505245685577393 0.000000000000000
-7.846835136413574 0.593415856361389 1.913844943046570 0.000000000000000
-15.450222015380859 1.944074630737305 2.685655593872070 0.000000000000000
-6.932701110839844 0.228592306375504 -0.265549302101135 0.000000000000000
-11.463207244873047 1.533270478248596 1.965839147567749 0.000000000000000
-10.109594345092773 0.903253793716431 0.203250393271446 0.000000000000000
-13.807814598083496 1.263530492782593 3.510581493377686 0.000000000000000
-27.999526977539062 3.971464633941650 4.976712226867676 0.003921568859369
-7.653830051422119 1.040454506874084 -0.054637815803289 0.000000000000000
-8.210699081420898 1.503153324127197 0.073705494403839 0.000000000000000
-16.510412216186523 2.360647916793823 2.886764287948608 0.003921568859369
-9.834672927856445 0.941170454025269 -0.017098868265748 0.003921568859369
-9.015370368957520 0.917705237865448 0.473459511995316 0.000000000000000
-8.835894584655762 0.902548074722290 2.185754776000977 0.000000000000000
-9.736112594604492 1.450605392456055 1.655534386634827 0.000000000000000
-11.853587150573730 1.267545819282532 0.634060978889465 0.000000000000000
-9.546412467956543 0.599651575088501 0.036079078912735 0.000000000000000
-23.473253250122070 1.613853216171265 0.622671663761139 0.003921568859369
-12.992022514343262 2.764373779296875 -0.174714192748070 0.000000000000000
-18.000280380249023 3.013456583023071 3.169348478317261 0.003921568859369
-9.047133445739746 1.098261356353760 0.180919423699379 0.000000000000000
-15.041651725769043 1.888332009315491 3.856958866119385 0.000000000000000
-15.100010871887207 1.939586639404297 0.819907605648041 0.000000000000000
-6.737787246704102 1.145215392112732 -0.048102743923664 0.000000000000000
-4.167276382446289 0.312937378883362 -0.149054214358330 0.000000000000000
-6.231586456298828 0.790827274322510 0.120721600949764 0.000000000000000
-6.844865322113037 0.877829492092133 0.352362155914307 0.000000000000000
-7.915302276611328 0.693819582462311 0.029454128816724 0.000000000000000
-6.122412681579590 0.795387208461761 0.311504900455475 0.000000000000000
-8.224558830261230 0.750293672084808 0.207708850502968 0.000000000000000
-9.167802810668945 1.270650506019592 2.287876129150391 0.000000000000000
-14.623006820678711 2.835148572921753 2.566947460174561 0.000000000000000
-7.137582302093506 0.688946902751923 0.178095385432243 0.000000000000000
-14.487777709960938 2.850738048553467 0.545140862464905 0.000000000000000
-5.448948383331299 0.748045027256012 -0.234790414571762 0.000000000000000
-9.394518852233887 1.392151832580566 -0.017383342608809 0.003921568859369
-5.262909889221191 1.002310633659363 -0.146402478218079 0.000000000000000
-9.086910247802734 1.436706185340881 1.034231066703796 0.000000000000000
-9.103587150573730 1.867721438407898 0.688932001590729 0.000000000000000
-5.600652217864990 1.113001465797424 -0.157757058739662 0.000000000000000
-7.740254878997803 1.231626033782959 -0.013933375477791 0.000000000000000
-4.022902965545654 0.973614513874054 -0.129625767469406 0.000000000000000
-9.893777847290039 2.209241390228271 -0.296941012144089 0.000000000000000
-3.619743585586548 0.562823832035065 0.366334259510040 0.000000000000000
-8.670322418212891 1.919699192047119 0.656005918979645 0.000000000000000
-14.728857994079590 1.935276508331299 -0.606896996498108 0.000000000000000
-3.672388553619385 0.583643436431885 0.373013347387314 0.000000000000000
-5.661572456359863 0.728624761104584 0.020411528646946 0.000000000000000
-10.896645545959473 2.000854253768921 0.586763978004456 0.000000000000000
-13.165422439575195 2.626491546630859 1.543255686759949 0.000000000000000
-22.197244644165039 4.525300502777100 5.849572181701660 0.003921568859369
-16.686443328857422 3.477496385574341 -0.416928380727768 0.000000000000000
-9.582781791687012 1.973351240158081 0.514654099941254 0.000000000000000
-9.234956741333008 2.342978239059448 0.708173394203186 0.000000000000000
-5.289760112762451 1.535254597663879 0.046585265547037 0.000000000000000
-4.859480857849121 1.183939814567566 -0.136450961232185 0.000000000000000
-9.215100288391113 2.925944566726685 0.084772981703281 0.000000000000000
-5.787371158599854 1.503761768341064 0.966714978218079 0.000000000000000
-9.768566131591797 2.180266618728638 -0.238181918859482 0.000000000000000
-14.997189521789551 3.481467723846436 0.828530073165894 0.000000000000000
-8.359706878662109 1.534025907516479 -0.153067111968994 0.000000000000000
-12.689989089965820 2.390699148178101 -0.525862574577332 0.000000000000000
-13.481450080871582 3.888746738433838 2.415419816970825 0.000000000000000
-8.938948631286621 2.542613029479980 -0.474376797676086 0.000000000000000
-4.646514415740967 1.020921587944031 0.499943375587463 0.000000000000000
-15.550677299499512 3.068203210830688 -0.297343939542770 0.000000000000000
-8.505097389221191 2.028117656707764 -0.016952618956566 0.003921568859369
-8.460870742797852 2.045189619064331 0.977047383785248 0.000000000000000
-10.289089202880859 2.057414293289185 0.037430379539728 0.000000000000000
-20.321798324584961 4.189538002014160 0.543783962726593 0.003921568859369
-6.205853462219238 1.210761427879333 0.155165418982506 0.000000000000000
-8.844385147094727 2.645524501800537 1.554303169250488 0.000000000000000
-3.010280609130859 0.779263794422150 0.200146630406380 0.000000000000000
-9.231122970581055 2.834309101104736 0.719180822372437 0.000000000000000
-6.928334712982178 1.786435723304749 0.138717591762543 0.000000000000000
-11.907338142395020 3.278500795364380 -0.025866927579045 0.003921568859369
-4.664639472961426 1.193141818046570 0.089589647948742 0.000000000000000
-5.726665973663330 1.547188997268677 -0.010944134555757 0.000000000000000
-4.762558460235596 1.271021008491516 0.243904188275337 0.000000000000000
-9.594558715820312 2.305129051208496 -0.181056886911392 0.000000000000000
-21.347188949584961 7.546875000000000 3.968768119812012 0.003921568859369
-8.825506210327148 2.142586469650269 0.229363545775414 0.000000000000000
-11.726268768310547 3.569584131240845 0.653549671173096 0.000000000000000
-9.708230972290039 2.470058679580688 -0.184319719672203 0.000000000000000
-6.869523525238037 2.035148859024048 0.793193817138672 0.000000000000000
-9.197715759277344 2.822275400161743 0.190292522311211 0.000000000000000
-9.033501625061035 2.832372426986694 -0.433427304029465 0.000000000000000
-11.684846878051758 3.775518655776978 3.105281829833984 0.000000000000000
-12.708139419555664 3.512768030166626 -0.540524721145630 0.000000000000000
-17.133646011352539 5.755699157714844 2.108396053314209 0.003921568859369
-17.486610412597656 5.883593082427979 4.746317386627197 0.003921568859369
-5.403797149658203 1.468685984611511 0.135951310396194 0.000000000000000
-3.724902629852295 1.301229834556580 0.052050385624170 0.000000000000000
-25.504520416259766 9.054691314697266 0.554648101329803 0.003921568859369
-25.504407882690430 9.148241043090820 0.555156469345093 0.003921568859369
-8.898642539978027 2.628841400146484 -0.373160034418106 0.000000000000000
-2.609348773956299 0.772803544998169 0.046173360198736 0.000000000000000
-6.834269046783447 2.394648790359497 1.772153615951538 0.000000000000000
-10.553314208984375 3.347397804260254 0.037825595587492 0.000000000000000
-8.976854324340820 3.285507917404175 2.387598991394043 0.000000000000000
-5.948977947235107 1.823582053184509 0.021163336932659 0.000000000000000
-10.399047851562500 3.373920679092407 0.279043912887573 0.000000000000000
-25.565956115722656 8.775141716003418 0.093447908759117 0.003921568859369
-4.305243492126465 1.730780124664307 -0.343092739582062 0.000000000000000
-9.034913063049316 4.265295982360840 0.363188773393631 0.000000000000000
-2.560831308364868 0.777187585830688 -0.139744356274605 0.000000000000000
-12.993345260620117 5.729563236236572 3.627490520477295 0.000000000000000
-13.269109725952148 5.961774349212646 3.719663143157959 0.000000000000000
-7.164495944976807 3.679664373397827 0.113984681665897 0.000000000000000
-3.883412122726440 1.460153222084045 -0.154663011431694 0.000000000000000
-8.055635452270508 4.527971744537354 1.572347879409790 0.000000000000000
-7.960692882537842 4.502313613891602 1.555338144302368 0.000000000000000
-2.907003402709961 1.464516758918762 -0.231251254677773 0.000000000000000
-7.002018928527832 3.743308067321777 1.976561665534973 0.000000000000000
-6.711993217468262 3.603650331497192 1.891409516334534 0.000000000000000
-3.917965412139893 1.817818164825439 -0.253071397542953 0.000000000000000
-4.370573997497559 2.096831560134888 0.117399759590626 0.000000000000000
-7.898339748382568 5.530511379241943 0.352559983730316 0.000000000000000
-4.564708232879639 3.513667345046997 1.423840403556824 0.000000000000000
-7.971659183502197 6.600911617279053 2.643264293670654 0.000000000000000
-14.677604675292969 15.675827026367188 3.799629449844360 0.003921568859369
-9.349225997924805 9.932146072387695 2.393479585647583 0.000000000000000
-7.241882801055908 7.059408664703369 2.592379093170166 0.000000000000000
-8.135772705078125 8.335775375366211 3.001579761505127 0.000000000000000
-13.066037178039551 16.486757278442383 3.730321645736694 0.003921568859369
-9.250614166259766 11.573748588562012 2.611867904663086 0.000000000000000
-13.447487831115723 17.241706848144531 3.882059335708618 0.003921568859369
-7.977773189544678 9.762826919555664 3.269110679626465 0.000000000000000
-10.882621765136719 13.649433135986328 2.068750143051147 0.003921568859369
-12.606716156005859 16.133123397827148 5.361054420471191 0.003921568859369
-2.826663494110107 3.195171594619751 1.056117653846741 0.000000000000000
-1.717897415161133 1.763625860214233 0.261773586273193 0.000000000000000
-12.234576225280762 16.705249786376953 -0.046807613223791 0.003921568859369
-15.975542068481445 24.466260910034180 2.297682523727417 0.003921568859369
-15.732569694519043 24.474863052368164 5.193242073059082 0.003921568859369
-15.640862464904785 24.518009185791016 5.191130161285400 0.003921568859369
-12.963803291320801 20.516727447509766 4.325450897216797 0.003921568859369
-3.334655523300171 5.345056056976318 0.057967226952314 0.000000000000000
-3.467279911041260 4.991085529327393 1.050356268882751 0.000000000000000
-16.049053192138672 24.605779647827148 0.613496422767639 0.003921568859369
-2.394013881683350 3.134423017501831 0.981518328189850 0.000000000000000
-7.934136867523193 14.242187500000000 4.278552532196045 0.003921568859369
-7.226287841796875 14.733680725097656 4.314521312713623 0.003921568859369
-6.004661083221436 14.409131050109863 -0.120363309979439 0.000000000000000
-2.351902246475220 5.222604751586914 1.004955530166626 0.000000000000000
-2.815970420837402 6.571205615997314 -0.053507447242737 0.000000000000000
-4.394103527069092 11.328291893005371 -0.652161478996277 0.000000000000000
-2.602441549301147 5.507355690002441 1.577323794364929 0.000000000000000
-3.601405382156372 8.166423797607422 0.494259327650070 0.000000000000000
-0.996121883392334 2.206577539443970 -0.029932489618659 0.000000000000000
-2.059018850326538 4.092154502868652 0.121005624532700 0.000000000000000
-4.134051799774170 10.609189987182617 2.992066383361816 0.000000000000000
-2.130597352981567 5.914113998413086 0.240470737218857 0.000000000000000
-2.332132339477539 5.575667858123779 1.570567607879639 0.000000000000000
-3.731421709060669 12.655699729919434 0.205687195062637 0.000000000000000
-2.614159345626831 10.669430732727051 -0.145269826054573 0.000000000000000
-2.141563892364502 7.258324146270752 1.348593592643738 0.000000000000000
-2.194039344787598 10.115777015686035 -0.375459283590317 0.000000000000000
-2.729463815689087 7.080820083618164 -0.142767190933228 0.000000000000000
-1.742099046707153 6.235044956207275 -0.344632416963577 0.000000000000000
-4.391603946685791 19.139547348022461 3.531585216522217 0.003921568859369
-2.993702411651611 8.462038040161133 -0.169542938470840 0.000000000000000
-2.385134458541870 10.316831588745117 1.898588538169861 0.000000000000000
-4.012327671051025 15.005714416503906 -0.026080898940563 0.000000000000000
-2.896254539489746 14.024375915527344 0.226072356104851 0.000000000000000
-1.498936891555786 6.311965942382812 1.159105300903320 0.000000000000000
-2.116970062255859 13.809947967529297 0.140551522374153 0.000000000000000
-0.879294157028198 4.359336376190186 -0.261664211750031 0.000000000000000
-0.632972896099091 1.036846399307251 -0.044511467218399 0.003921568859369
-1.247776150703430 4.252746582031250 -0.208644703030586 0.000000000000000
-1.884440422058105 9.791561126708984 -0.072845369577408 0.000000000000000
-1.137527227401733 7.617431163787842 -0.278543770313263 0.000000000000000
-1.426660895347595 7.187918663024902 0.582096517086029 0.000000000000000
-1.835921049118042 7.911089897155762 -0.012046361342072 0.003921568859369
-1.180635094642639 9.411211967468262 -0.343390166759491 0.000000000000000
-0.531372308731079 1.015763878822327 0.059284932911396 0.003921568859369
-1.144721508026123 9.378231048583984 -0.342048257589340 0.000000000000000
-1.374780058860779 12.555718421936035 0.128367394208908 0.000000000000000
-1.141599059104919 6.244895935058594 -0.192062005400658 0.000000000000000
-1.936729669570923 7.080268859863281 -0.137588396668434 0.000000000000000
-1.725918054580688 6.142624378204346 0.173776984214783 0.000000000000000
-1.384436964988708 8.616230964660645 0.695610225200653 0.000000000000000
-1.896090745925903 7.014415264129639 -0.303419947624207 0.000000000000000
-0.877992153167725 7.486608028411865 -0.272447526454926 0.000000000000000
-1.733574748039246 12.211448669433594 -0.089562885463238 0.000000000000000
-0.745858669281006 3.533082008361816 0.140180274844170 0.000000000000000
-1.905494689941406 25.645797729492188 0.261362642049789 0.003921568859369
-1.320491909980774 17.025156021118164 -0.223162457346916 0.003921568859369
-1.821939706802368 25.754913330078125 0.262504100799561 0.003921568859369
-3.217494249343872 26.943071365356445 2.170511007308960 0.003921568859369
-1.034551858901978 6.806325435638428 -0.049069233238697 0.000000000000000
-3.104179143905640 26.869478225708008 2.165146350860596 0.003921568859369
-3.010717868804932 26.834871292114258 2.161710739135742 0.003921568859369
-1.702547311782837 14.213308334350586 2.581923484802246 0.000000000000000
-1.350150704383850 10.978391647338867 -0.336287587881088 0.000000000000000
-2.835498571395874 26.983909606933594 2.172421693801880 0.003921568859369
-0.703095078468323 4.149985313415527 -0.029460156336427 0.000000000000000
-2.745214939117432 27.036151885986328 2.176021099090576 0.003921568859369
-2.668087720870972 26.145002365112305 4.746085166931152 0.003921568859369
-1.270339608192444 25.620077133178711 0.262549340724945 0.003921568859369
-2.655604839324951 27.100017547607422 2.180579900741577 0.003921568859369
-2.092378854751587 13.372138977050781 0.294187307357788 0.000000000000000
-1.183695673942566 25.707139968872070 0.263494133949280 0.003921568859369
-3.210251092910767 15.845054626464844 -0.680231392383575 0.003921568859369
-2.631778478622437 27.937717437744141 5.068631172180176 0.003921568859369
-2.380656242370605 11.501285552978516 0.322630375623703 0.000000000000000
-2.598556280136108 28.761753082275391 5.216747283935547 0.003921568859369
-1.018900275230408 26.100175857543945 0.267629742622375 0.003921568859369
-1.557401418685913 7.014143466949463 -0.300141245126724 0.000000000000000
-1.753778338432312 11.378595352172852 3.054183721542358 0.000000000000000
-2.341854095458984 26.629945755004883 4.828968524932861 0.003921568859369
-0.812475621700287 6.698287963867188 -0.204309344291687 0.000000000000000
-2.348362684249878 16.665182113647461 0.366085797548294 0.000000000000000
-0.480202436447144 7.704056262969971 -0.279009670019150 0.000000000000000
-1.598245024681091 10.781250953674316 -0.268000006675720 0.000000000000000
-2.202501058578491 28.876916885375977 5.232776165008545 0.003921568859369
-1.967186450958252 26.901697158813477 2.162591934204102 0.003921568859369
-1.937736988067627 26.380304336547852 4.780691623687744 0.003921568859369
-2.040374755859375 16.065977096557617 -0.398504465818405 0.000000000000000
-1.917376995086670 15.392406463623047 0.338484019041061 0.000000000000000
-1.759993910789490 28.195169448852539 2.265517234802246 0.003921568859369
-0.282731384038925 24.085149765014648 0.248671293258667 0.003921568859369
-0.899957418441772 3.955045461654663 0.111216351389885 0.000000000000000
-2.745479345321655 25.116891860961914 3.061900377273560 0.003921568859369
-1.628966808319092 27.614778518676758 2.218591213226318 0.003921568859369
-2.687765359878540 16.591754913330078 -0.316429287195206 0.003921568859369
-1.602030873298645 29.088800430297852 2.336714982986450 0.003921568859369
-0.976450443267822 7.029986381530762 -0.173510015010834 0.000000000000000
-2.887618064880371 28.645526885986328 1.634181141853333 0.003921568859369
-2.717316627502441 26.726659774780273 3.256201028823853 0.003921568859369
-1.194349765777588 6.272559642791748 -0.266383707523346 0.000000000000000
-1.445388197898865 27.666391372680664 5.009030342102051 0.003921568859369
-0.016224145889282 25.263252258300781 0.261076003313065 0.003921568859369
-2.629896163940430 26.857891082763672 3.271221637725830 0.003921568859369
-1.371148824691772 28.405857086181641 5.142269611358643 0.003921568859369
-2.547487020492554 26.888740539550781 3.274186372756958 0.003921568859369
-2.275282621383667 24.699718475341797 3.006872653961182 0.003921568859369
-1.064543962478638 24.647140502929688 4.461042881011963 0.003921568859369
-1.211429834365845 11.260009765625000 -0.278017640113831 0.000000000000000
-1.032477974891663 26.774971008300781 2.150022268295288 0.003921568859369
-0.953621149063110 23.713098526000977 4.291658878326416 0.003921568859369
-0.890970468521118 24.584789276123047 4.449101924896240 0.003921568859369
-0.488770723342896 8.992418289184570 -0.063338793814182 0.000000000000000
-0.109793961048126 6.915159225463867 -0.410779029130936 0.000000000000000
-2.055166959762573 25.393537521362305 1.448002815246582 0.003921568859369
-0.783091008663177 23.795248031616211 4.307100296020508 0.003921568859369
-1.957723021507263 14.387053489685059 0.401788234710693 0.000000000000000
-2.002711057662964 25.932582855224609 3.155320882797241 0.003921568859369
-1.617032051086426 11.413857460021973 -0.483307033777237 0.000000000000000
-1.842785358428955 24.812732696533203 3.018498659133911 0.003921568859369
-0.645262897014618 26.005882263183594 4.706839561462402 0.003921568859369
-0.531290113925934 23.511507034301758 4.255337715148926 0.003921568859369
-0.457319021224976 26.963174819946289 2.166147708892822 0.003921568859369
-0.335391879081726 12.718029975891113 -0.089718118309975 0.000000000000000
-0.367508172988892 29.244163513183594 2.349406480789185 0.003921568859369
-1.710592389106750 29.382068634033203 0.645426690578461 0.003921568859369
-1.524079322814941 25.414691925048828 3.089675426483154 0.003921568859369
-1.774183869361877 15.691638946533203 -0.296143501996994 0.000000000000000
-1.407421112060547 24.836278915405273 0.545688867568970 0.003921568859369
-1.382285594940186 24.216764450073242 2.943675756454468 0.003921568859369
-0.195549502968788 25.137786865234375 4.549846649169922 0.003921568859369
-0.106568962335587 24.228885650634766 -0.171492144465446 0.003921568859369
-0.102948799729347 25.196214675903320 4.560621261596680 0.003921568859369
-0.004435509443283 26.092670440673828 4.723125457763672 0.003921568859369
-0.575195074081421 7.847974300384521 2.092987775802612 0.000000000000000
0.162857055664062 25.404075622558594 2.041858196258545 0.003921568859369
-0.860628664493561 7.391909122467041 -0.138385161757469 0.000000000000000
-0.808701992034912 6.703104019165039 0.030948884785175 0.000000000000000
0.251901566982269 25.048917770385742 4.536380290985107 0.003921568859369
-0.824154198169708 26.566112518310547 1.513921022415161 0.003921568859369
-0.721222162246704 25.910039901733398 6.908150196075439 0.003921568859369
-0.610472679138184 24.563751220703125 2.984996557235718 0.003921568859369
0.561730682849884 23.757890701293945 1.911949276924133 0.003921568859369
-0.629546165466309 25.810840606689453 6.881443500518799 0.003921568859369
0.763058066368103 24.827440261840820 4.499826908111572 0.003921568859369
-0.365418523550034 27.055673599243164 0.596030652523041 0.003921568859369
-0.368415713310242 25.835962295532227 6.887866020202637 0.003921568859369
-0.788607239723206 10.196893692016602 -0.190667584538460 0.000000000000000
-0.278617978096008 25.464969635009766 6.789032459259033 0.003921568859369
-0.081946834921837 27.864229202270508 7.429083347320557 0.003921568859369
1.078631758689880 24.267801284790039 4.401816844940186 0.003921568859369
-0.024270951747894 24.392723083496094 6.503854751586914 0.003921568859369
1.465885043144226 29.272077560424805 5.310621261596680 0.003921568859369
0.099169939756393 26.238454818725586 6.997609138488770 0.003921568859369
1.259705066680908 24.272966384887695 4.405839443206787 0.003921568859369
0.183820784091949 25.862070083618164 6.897723197937012 0.003921568859369
-0.641195416450500 13.159267425537109 -0.245312929153442 0.000000000000000
1.796573042869568 29.328910827636719 2.366785049438477 0.003921568859369
0.306782364845276 27.139118194580078 7.238949298858643 0.003921568859369
-0.531626701354980 10.401623725891113 -0.193675771355629 0.000000000000000
1.560543656349182 24.792734146118164 2.001420021057129 0.003921568859369
0.375015020370483 26.101371765136719 6.962824344635010 0.003921568859369
1.590916037559509 24.122625350952148 1.947914838790894 0.003921568859369
-0.558227360248566 16.393177032470703 -0.305596977472305 0.003921568859369
1.705963492393494 24.524576187133789 4.457590103149414 0.003921568859369
-0.413345426321030 9.659756660461426 -0.179678454995155 0.000000000000000
1.828819394111633 24.875255584716797 2.010021686553955 0.003921568859369
1.720330595970154 23.630758285522461 4.296545982360840 0.003921568859369
0.726440906524658 25.615732192993164 0.566901564598083 0.003921568859369
-0.509748935699463 23.847951889038086 0.665470421314240 0.003921568859369
0.768537878990173 26.830923080444336 7.161059379577637 0.003921568859369
-0.337928712368011 7.988681316375732 -0.148388102650642 0.000000000000000
0.787999153137207 25.205457687377930 6.728246688842773 0.003921568859369
1.999409079551697 23.984888076782227 4.365241527557373 0.003921568859369
-0.282680988311768 7.564884662628174 -0.140420794487000 0.000000000000000
-0.263379007577896 24.125940322875977 0.111573792994022 0.003921568859369
0.990401506423950 25.729961395263672 6.870655536651611 0.003921568859369
2.062535285949707 23.769142150878906 4.327535152435303 0.003921568859369
-0.170611724257469 25.961650848388672 0.120084218680859 0.003921568859369
1.226005315780640 24.977813720703125 6.675068378448486 0.003921568859369
2.291064500808716 23.461154937744141 4.277377605438232 0.003921568859369
2.973168849945068 28.755229949951172 5.244629859924316 0.003921568859369
3.034001827239990 28.380567550659180 2.302472591400146 0.003921568859369
-0.074109926819801 9.439751625061035 0.044725015759468 0.000000000000000
1.482203722000122 24.949344635009766 6.672217369079590 0.003921568859369
0.411683410406113 27.048957824707031 0.126786410808563 0.003921568859369
1.623470664024353 25.613325119018555 6.851696491241455 0.003921568859369
3.241133213043213 28.453914642333984 5.196428298950195 0.003921568859369
0.507144093513489 27.082355499267578 0.127038851380348 0.003921568859369
1.907600760459900 28.107208251953125 7.520898818969727 0.003921568859369
2.220020055770874 29.451894760131836 1.689422249794006 0.003921568859369
1.870492339134216 25.355340957641602 3.096554517745972 0.003921568859369
1.938345551490784 25.114303588867188 3.068135738372803 0.003921568859369
2.009253978729248 25.957981109619141 6.952045440673828 0.003921568859369
2.167265653610229 26.684904098510742 7.149064540863037 0.003921568859369
3.763730525970459 27.875246047973633 5.105724334716797 0.003921568859369
2.279520511627197 25.809034347534180 6.920351028442383 0.003921568859369
3.862284183502197 27.830181121826172 5.101187705993652 0.003921568859369
3.581796407699585 25.333055496215820 4.646034717559814 0.003921568859369
3.709532976150513 25.572223663330078 4.692506313323975 0.003921568859369
2.640317440032959 26.610691070556641 7.143362998962402 0.003921568859369
3.947896480560303 26.494895935058594 4.864571094512939 0.003921568859369
4.084046840667725 26.155866622924805 2.139048099517822 0.003921568859369
2.705687046051025 25.557037353515625 6.866122722625732 0.003921568859369
4.615535259246826 28.746276855468750 5.287321090698242 0.003921568859369
2.765648126602173 24.620330810546875 3.020668029785156 0.003921568859369
4.162304878234863 25.593414306640625 4.710079193115234 0.003921568859369
3.048209190368652 26.188833236694336 7.044794559478760 0.003921568859369
4.506154060363770 25.445388793945312 2.089108467102051 0.003921568859369
4.907271385192871 27.019384384155273 4.989892959594727 0.003921568859369
5.115223884582520 27.584489822387695 5.097782611846924 0.003921568859369
5.051720619201660 26.746824264526367 2.201673984527588 0.003921568859369
3.661732196807861 25.228523254394531 0.570453584194183 0.003921568859369
3.580319166183472 24.720432281494141 3.048004150390625 0.003921568859369
3.680789709091187 25.390319824218750 6.858767509460449 0.003921568859369
5.207772254943848 26.574459075927734 4.921740531921387 0.003921568859369
3.997870683670044 26.815343856811523 7.247767925262451 0.003921568859369
0.597620546817780 7.603025436401367 -0.318504124879837 0.000000000000000
4.133090972900391 26.439434051513672 1.536149501800537 0.003921568859369
4.248855590820312 27.146520614624023 3.353008031845093 0.003921568859369
0.853245258331299 6.712002754211426 1.816414356231689 0.000000000000000
4.272472381591797 26.739929199218750 3.304722547531128 0.003921568859369
4.222795486450195 24.855405807495117 1.447947621345520 0.003921568859369
2.283960819244385 11.007283210754395 2.049949884414673 0.000000000000000
2.057571887969971 17.224899291992188 -0.723489284515381 0.003921568859369
4.451760292053223 25.062742233276367 1.463014960289001 0.003921568859369
4.801773548126221 26.937427520751953 3.341024875640869 0.003921568859369
4.527949333190918 24.987339019775391 1.459664106369019 0.003921568859369
4.924824714660645 27.071720123291016 3.359990835189819 0.003921568859369
1.599843263626099 13.112531661987305 -0.551015555858612 0.000000000000000
5.326738357543945 28.631912231445312 3.556097745895386 0.003921568859369
4.589715957641602 24.394319534301758 3.032021284103394 0.003921568859369
0.201907694339752 2.199282884597778 0.274192273616791 0.000000000000000
8.407834053039551 27.581132888793945 0.315074473619461 0.003921568859369
5.106801509857178 25.593688964843750 3.188133478164673 0.003921568859369
1.460190057754517 8.038044929504395 2.194632530212402 0.000000000000000
4.183931350708008 20.485149383544922 5.597028732299805 0.003921568859369
5.731336116790771 26.734045028686523 3.340489864349365 0.003921568859369
5.675050735473633 26.008077621459961 3.253411054611206 0.003921568859369
1.675964593887329 8.289151191711426 2.272451400756836 0.000000000000000
6.147688865661621 22.248714447021484 4.202609062194824 0.003921568859369
2.382801771163940 9.022805213928223 1.706208467483521 0.000000000000000
9.382847785949707 27.602310180664062 -0.360131859779358 0.003921568859369
9.056225776672363 26.369020462036133 -0.344330966472626 0.003921568859369
9.120012283325195 26.257293701171875 -0.343194305896759 0.003921568859369
8.325902938842773 27.983531951904297 -0.191080018877983 0.003921568859369
8.300932884216309 27.555713653564453 -0.860143780708313 0.003921568859369
9.183942794799805 25.864372253417969 -0.338702887296677 0.003921568859369
8.918888092041016 24.866743087768555 -0.325932860374451 0.003921568859369
2.661346912384033 11.128612518310547 1.403427124023438 0.000000000000000
9.048589706420898 24.686155319213867 -0.324213027954102 0.003921568859369
9.175132751464844 24.731962203979492 -0.324385881423950 0.003921568859369
9.169575691223145 24.460041046142578 -0.321149617433548 0.003921568859369
8.461091995239258 26.418096542358398 5.051206111907959 0.003921568859369
9.534314155578613 25.146684646606445 -0.330536037683487 0.003921568859369
8.535838127136230 26.335306167602539 5.041293621063232 0.003921568859369
9.360537528991699 24.445964813232422 -0.321653395891190 0.003921568859369
9.129899024963379 27.462024688720703 -0.187621116638184 0.003921568859369
2.368881702423096 9.054398536682129 1.150129795074463 0.000000000000000
10.379875183105469 26.498609542846680 -0.349486023187637 0.003921568859369
9.537620544433594 27.718219757080078 -0.874225616455078 0.003921568859369
10.106395721435547 25.314912796020508 -0.334577441215515 0.003921568859369
9.409508705139160 27.356655120849609 -0.187276646494865 0.003921568859369
9.628952026367188 27.668889999389648 -0.873648464679718 0.003921568859369
10.403605461120605 25.785253524780273 -0.341197013854980 0.003921568859369
8.217054367065430 27.957252502441406 -0.699686527252197 0.003921568859369
10.212129592895508 25.072296142578125 -0.332128852605820 0.003921568859369
1.512504220008850 4.837506294250488 0.206660330295563 0.000000000000000
10.380219459533691 25.227415084838867 -0.334580034017563 0.003921568859369
1.321414828300476 4.262128353118896 0.824209749698639 0.000000000000000
10.203986167907715 24.568059921264648 -0.326204270124435 0.003921568859369
11.395824432373047 27.086153030395508 -0.359342277050018 0.003921568859369
9.705307006835938 26.678253173828125 2.306423425674438 0.003921568859369
8.851958274841309 24.391532897949219 4.728439807891846 0.003921568859369
9.173642158508301 24.973968505859375 -0.792310595512390 0.003921568859369
11.393350601196289 26.821546554565430 -0.356262147426605 0.003921568859369
9.098191261291504 24.775026321411133 -0.169524714350700 0.003921568859369
8.302442550659180 26.535953521728516 3.403769493103027 0.003921568859369
8.578486442565918 27.382890701293945 -0.687658071517944 0.003921568859369
9.289163589477539 25.015783309936523 -0.794598221778870 0.003921568859369
10.766002655029297 25.131664276123047 -0.334189116954803 0.003921568859369
9.153340339660645 24.660100936889648 -0.168871313333511 0.003921568859369
8.798892974853516 27.736110687255859 -0.697230219841003 0.003921568859369
2.289264440536499 7.628201484680176 0.981041371822357 0.000000000000000
10.285917282104492 27.366771697998047 5.326501369476318 0.003921568859369
10.379942893981934 27.326251983642578 5.325884342193604 0.003921568859369
9.497204780578613 24.780313491821289 -0.170121043920517 0.003921568859369
9.352271080017090 24.423662185668945 4.766773223876953 0.003921568859369
9.577939033508301 24.757106781005859 -0.170092016458511 0.003921568859369
1.854929208755493 6.098803043365479 0.787152945995331 0.000000000000000
10.474036216735840 27.035757064819336 5.283164024353027 0.003921568859369
9.197519302368164 27.675146102905273 -0.698488116264343 0.003921568859369
10.686991691589355 27.281406402587891 5.339046478271484 0.003921568859369
9.719744682312012 24.597927093505859 -0.787178158760071 0.003921568859369
9.651444435119629 24.430477142333984 -0.168140500783920 0.003921568859369
10.185960769653320 25.522842407226562 5.008838653564453 0.003921568859369
3.530135154724121 10.538029670715332 2.989633798599243 0.000000000000000
9.930671691894531 24.381776809692383 -0.783348083496094 0.003921568859369
11.374053001403809 24.414981842041016 -0.328469544649124 0.003921568859369
10.325605392456055 25.070333480834961 -0.805781066417694 0.003921568859369
10.069172859191895 24.461553573608398 -0.168239682912827 0.003921568859369
9.339903831481934 26.246692657470703 -0.665934503078461 0.003921568859369
10.188166618347168 24.503404617309570 -0.788621127605438 0.003921568859369
10.148248672485352 24.410799026489258 -0.168051928281784 0.003921568859369
10.407826423645020 24.769735336303711 -0.170707702636719 0.003921568859369
9.172675132751465 24.966873168945312 3.259336233139038 0.003921568859369
4.760703563690186 13.098731994628906 3.745297670364380 0.000000000000000
10.454916000366211 24.430978775024414 4.845700263977051 0.003921568859369
9.276511192321777 24.707962036132812 -0.630582392215729 0.003921568859369
4.854272842407227 13.062822341918945 3.745388984680176 0.000000000000000
10.750481605529785 24.406225204467773 -0.792132318019867 0.003921568859369
9.945758819580078 25.946027755737305 3.405225276947021 0.003921568859369
3.628164768218994 9.808016777038574 2.815678119659424 0.000000000000000
10.443216323852539 23.734592437744141 4.729348182678223 0.003921568859369
10.858959197998047 24.396743774414062 -0.793101787567139 0.003921568859369
9.803636550903320 24.779664993286133 -0.636354923248291 0.003921568859369
10.461448669433594 26.154626846313477 3.452660322189331 0.003921568859369
9.859843254089355 24.670522689819336 -0.634363055229187 0.003921568859369
10.546712875366211 26.102308273315430 3.451098918914795 0.003921568859369
10.606230735778809 22.784055709838867 4.585257053375244 0.003921568859369
9.196116447448730 25.838310241699219 0.144795790314674 0.003921568859369
11.376994132995605 27.560985565185547 -0.710643410682678 0.003921568859369
10.571006774902344 25.377771377563477 3.370789051055908 0.003921568859369
10.531092643737793 25.274654388427734 -0.652606785297394 0.003921568859369
11.566096305847168 24.130271911621094 4.881767749786377 0.003921568859369
10.299423217773438 24.490938186645508 -0.633212804794312 0.003921568859369
9.445074081420898 25.682350158691406 0.144727259874344 0.003921568859369
12.258039474487305 25.347038269042969 5.135891437530518 0.003921568859369
10.773067474365234 25.375453948974609 -0.656915783882141 0.003921568859369
11.149430274963379 25.993274688720703 3.468130111694336 0.003921568859369
9.616963386535645 25.595729827880859 0.144787117838860 0.003921568859369
11.338583946228027 26.180141448974609 -0.679659605026245 0.003921568859369
10.823806762695312 24.774339675903320 3.315867900848389 0.003921568859369
10.689744949340820 24.464441299438477 -0.636023819446564 0.003921568859369
10.915550231933594 24.762111663818359 -0.644599199295044 0.003921568859369
5.045783519744873 11.578742027282715 3.399254798889160 0.000000000000000
1.545712113380432 3.725456714630127 1.099135756492615 0.000000000000000
11.960193634033203 25.853603363037109 7.640170097351074 0.003921568859369
1.458015322685242 3.921351671218872 -0.075774468481541 0.000000000000000
10.335220336914062 21.802276611328125 2.961775302886963 0.003921568859369
13.288063049316406 24.541507720947266 5.093317508697510 0.003921568859369
13.461320877075195 24.652677536010742 5.126334667205811 0.003921568859369
10.252270698547363 21.061519622802734 6.287741661071777 0.003921568859369
13.410647392272949 26.252742767333984 3.617894172668457 0.003921568859369
4.508690834045410 8.980018615722656 2.709923028945923 0.000000000000000
4.808378696441650 7.857748031616211 1.692997574806213 0.000000000000000
4.373378753662109 7.820695400238037 2.419951677322388 0.000000000000000
4.229833602905273 7.394103050231934 2.302151203155518 0.000000000000000
15.694610595703125 23.925277709960938 5.225362777709961 0.003921568859369
