# This PCD file was generated using the MATLAB® pcwrite function
# from Computer Vision Toolbox®.
# .PCD v.7 - Point Cloud Data file format
VERSION .7
FIELDS x y z intensity
SIZE 8 8 8 8
TYPE F F F F
COUNT 1 1 1 1
WIDTH 641
HEIGHT 1
VIEWPOINT 0 0 0 1 0 0 0
POINTS 641
DATA ascii
8.915718078613281 -20.483236312866211 1.801317334175110 1.000000000000000
8.918349266052246 -19.482954025268555 -0.456317454576492 1.000000000000000
8.918416976928711 -20.154983520507812 -0.003846705658361 0.000000000000000
8.919950485229492 -21.533594131469727 0.040680114179850 1.000000000000000
8.925802230834961 -17.346876144409180 -1.241048812866211 0.000000000000000
8.925885200500488 -19.386657714843750 2.424155235290527 0.000000000000000
8.927111625671387 -20.493770599365234 1.500406622886658 1.000000000000000
8.929588317871094 -19.264436721801758 2.130601406097412 1.000000000000000
8.933125495910645 -23.112291336059570 -1.433063983917236 1.000000000000000
8.934879302978516 -8.402743339538574 -1.159414529800415 1.000000000000000
8.938277244567871 -20.933225631713867 2.585314035415649 0.000000000000000
8.946874618530273 4.433291912078857 -0.615957856178284 0.000000000000000
8.957376480102539 -22.435909271240234 2.041335105895996 1.000000000000000
8.957773208618164 -20.193422317504883 -1.277632474899292 1.000000000000000
8.959319114685059 3.961060523986816 -0.283890455961227 0.000000000000000
8.959630966186523 -17.585783004760742 2.416360855102539 0.000000000000000
8.963004112243652 6.045846939086914 -0.313322365283966 0.000000000000000
8.963124275207520 -19.986755371093750 1.174803853034973 1.000000000000000
8.963996887207031 -22.934671401977539 -0.619004607200623 1.000000000000000
8.964813232421875 9.503592491149902 -0.780762314796448 0.000000000000000
8.967224121093750 -20.993909835815430 1.752574682235718 1.000000000000000
8.967848777770996 -17.886539459228516 -0.964590191841125 0.000000000000000
8.969790458679199 -21.329948425292969 2.832941293716431 0.000000000000000
8.973842620849609 -17.291608810424805 1.457984328269958 0.000000000000000
8.975279808044434 -19.674427032470703 2.456206560134888 1.000000000000000
8.978117942810059 -19.433984756469727 -0.127036884427071 1.000000000000000
8.982435226440430 -21.464784622192383 -0.406152397394180 1.000000000000000
8.986821174621582 -19.883237838745117 0.079974301159382 1.000000000000000
8.992079734802246 -23.756713867187500 -1.469092726707458 1.000000000000000
8.995415687561035 -19.833961486816406 -1.133740425109863 1.000000000000000
8.996088027954102 -12.166839599609375 1.161647081375122 0.000000000000000
9.002653121948242 -19.888668060302734 -0.171466365456581 1.000000000000000
9.005109786987305 -23.771081924438477 0.141971334815025 1.000000000000000
9.006043434143066 -22.462118148803711 1.811136484146118 1.000000000000000
9.006157875061035 -20.806024551391602 -0.134537562727928 0.000000000000000
9.006305694580078 -17.759309768676758 -1.189994454383850 1.000000000000000
9.010217666625977 -19.282039642333984 1.854566216468811 1.000000000000000
9.018259048461914 -20.055297851562500 1.603242158889771 1.000000000000000
9.019893646240234 -22.640682220458984 -1.409506678581238 1.000000000000000
9.025197982788086 -22.936450958251953 2.473255157470703 1.000000000000000
9.030642509460449 7.556418418884277 -0.341247916221619 0.000000000000000
9.030740737915039 -20.408828735351562 0.681863963603973 1.000000000000000
9.036753654479980 -19.741619110107422 -0.128840848803520 0.000000000000000
9.041733741760254 -22.131793975830078 -0.463221877813339 0.000000000000000
9.046024322509766 2.299247026443481 -0.701800882816315 1.000000000000000
9.046966552734375 6.444569110870361 -0.087241135537624 0.000000000000000
9.047846794128418 -20.886335372924805 3.890756845474243 0.000000000000000
9.048046112060547 4.390765666961670 -0.678573131561279 0.000000000000000
9.048988342285156 -23.514522552490234 1.496893048286438 1.000000000000000
9.049759864807129 -21.012298583984375 1.447395920753479 1.000000000000000
9.051509857177734 -19.630638122558594 1.159379720687866 0.000000000000000
9.053316116333008 -13.124508857727051 1.515587449073792 0.000000000000000
9.056178092956543 -12.097276687622070 1.160116195678711 0.000000000000000
9.067792892456055 -22.195581436157227 1.378273129463196 1.000000000000000
9.070707321166992 -18.266418457031250 1.683908820152283 0.000000000000000
9.076350212097168 -19.608852386474609 1.617096781730652 1.000000000000000
9.079340934753418 9.574664115905762 -0.585336923599243 0.000000000000000
9.081774711608887 -19.292758941650391 1.760599851608276 0.000000000000000
9.085898399353027 -20.775053024291992 2.055607795715332 1.000000000000000
9.093029975891113 -19.826148986816406 -1.387577533721924 0.000000000000000
9.094376564025879 -18.331745147705078 -0.121435105800629 0.000000000000000
9.095727920532227 8.539076805114746 -0.050081744790077 0.000000000000000
9.098020553588867 -18.217542648315430 -0.199031397700310 1.000000000000000
9.113589286804199 6.364584922790527 -0.001940108020790 0.000000000000000
9.117279052734375 -19.879020690917969 0.290112704038620 1.000000000000000
9.119028091430664 -19.611200332641602 0.120792910456657 0.000000000000000
9.119307518005371 -22.292778015136719 0.319505959749222 1.000000000000000
9.122375488281250 -23.137184143066406 -0.816352069377899 1.000000000000000
9.130812644958496 -13.832363128662109 -0.767126798629761 0.000000000000000
9.135549545288086 -18.414739608764648 1.459068894386292 1.000000000000000
9.139233589172363 -17.738075256347656 -1.230930447578430 0.000000000000000
9.142616271972656 -23.512620925903320 1.110283017158508 1.000000000000000
9.146147727966309 -16.999742507934570 0.033691819757223 0.000000000000000
9.147400856018066 -20.816644668579102 2.582605600357056 1.000000000000000
9.149806976318359 -19.587892532348633 1.617992281913757 1.000000000000000
9.150799751281738 -17.366321563720703 1.090598821640015 1.000000000000000
9.154404640197754 -18.258628845214844 -0.670429646968842 0.000000000000000
9.159363746643066 -20.009473800659180 -1.145593643188477 1.000000000000000
9.159374237060547 -20.234897613525391 0.166697636246681 1.000000000000000
9.171074867248535 2.042248249053955 -0.073795258998871 0.000000000000000
9.172620773315430 -23.288434982299805 0.716632127761841 1.000000000000000
9.173581123352051 -19.662052154541016 0.913158595561981 0.000000000000000
9.174103736877441 -18.048774719238281 -0.470065057277679 0.000000000000000
9.174350738525391 -8.191009521484375 -0.356427371501923 0.000000000000000
9.177982330322266 -17.472587585449219 0.375512897968292 0.000000000000000
9.181374549865723 -18.405336380004883 0.391339957714081 0.000000000000000
9.182563781738281 -20.246604919433594 -0.131926566362381 0.000000000000000
9.182893753051758 7.867357254028320 -0.303973674774170 0.000000000000000
9.184623718261719 -22.773929595947266 -1.325620293617249 1.000000000000000
9.187235832214355 7.140229225158691 -0.091387994587421 0.000000000000000
9.187788009643555 -22.811611175537109 3.010850906372070 0.000000000000000
9.194207191467285 -23.202985763549805 -1.299268245697021 1.000000000000000
9.195569038391113 -20.345088958740234 -1.291258692741394 0.000000000000000
9.198077201843262 -23.222208023071289 3.058001756668091 0.000000000000000
9.198801040649414 -20.911806106567383 1.577487349510193 1.000000000000000
9.200633049011230 -19.651964187622070 0.621271967887878 1.000000000000000
9.201155662536621 -23.076921463012695 -1.006508946418762 1.000000000000000
9.204493522644043 -23.154567718505859 -0.387077540159225 1.000000000000000
9.205686569213867 3.285423517227173 -0.433596044778824 0.000000000000000
9.206488609313965 6.702172279357910 -0.089440226554871 0.000000000000000
9.207879066467285 8.194993019104004 -0.191488444805145 0.000000000000000
9.210386276245117 3.444352149963379 -0.228301391005516 0.000000000000000
9.210943222045898 -21.888439178466797 0.634293854236603 0.000000000000000
9.212905883789062 -19.758934020996094 2.669128417968750 0.000000000000000
9.213657379150391 -18.436203002929688 2.742681026458740 0.000000000000000
9.214327812194824 8.926493644714355 -0.766683757305145 0.000000000000000
9.218931198120117 7.899912834167480 -0.281871914863586 0.000000000000000
9.219058036804199 11.907010078430176 1.604006767272949 0.000000000000000
9.225119590759277 -17.249568939208984 -1.093654990196228 0.000000000000000
9.225626945495605 -20.272846221923828 -0.346008777618408 0.000000000000000
9.234992980957031 -19.875097274780273 0.080326154828072 1.000000000000000
9.244227409362793 8.615554809570312 -0.293384462594986 0.000000000000000
9.248759269714355 -20.063949584960938 -0.555375158786774 1.000000000000000
9.249314308166504 -22.133979797363281 0.732924401760101 1.000000000000000
9.250905990600586 -13.908456802368164 -0.516190469264984 0.000000000000000
9.259882926940918 -18.217533111572266 2.719464540481567 0.000000000000000
9.265467643737793 -19.759902954101562 -0.926159203052521 0.000000000000000
9.266358375549316 -17.730939865112305 0.842009902000427 0.000000000000000
9.266490936279297 -22.558149337768555 -1.410430550575256 1.000000000000000
9.271073341369629 -19.847499847412109 0.290590196847916 1.000000000000000
9.273050308227539 -22.668613433837891 -0.051295883953571 1.000000000000000
9.278109550476074 -20.720125198364258 0.780890166759491 1.000000000000000
9.279935836791992 -18.568824768066406 0.474702894687653 0.000000000000000
9.281468391418457 -22.465087890625000 -0.797849357128143 0.000000000000000
9.281685829162598 -19.842214584350586 0.669282078742981 0.000000000000000
9.282460212707520 -22.423122406005859 1.068073630332947 1.000000000000000
9.287631034851074 -12.649127960205078 1.053311705589294 0.000000000000000
9.287852287292480 -21.857469558715820 1.731513142585754 1.000000000000000
9.295650482177734 -18.292650222778320 -0.200556084513664 0.000000000000000
9.296226501464844 -13.843635559082031 -1.221632361412048 0.000000000000000
9.300499916076660 -18.524995803833008 -1.278709769248962 0.000000000000000
9.300744056701660 -17.211416244506836 -0.116094432771206 0.000000000000000
9.301216125488281 -21.444532394409180 1.388718128204346 1.000000000000000
9.308210372924805 -18.354627609252930 0.035918857902288 1.000000000000000
9.312044143676758 -21.572555541992188 -0.590657830238342 0.000000000000000
9.312811851501465 -20.227046966552734 -0.944984197616577 1.000000000000000
9.316151618957520 -14.758928298950195 1.859054803848267 0.000000000000000
9.323965072631836 5.215474605560303 -0.309614419937134 0.000000000000000
9.327860832214355 -18.553646087646484 1.313794016838074 0.000000000000000
9.328639984130859 -20.745540618896484 1.307568907737732 0.000000000000000
9.333112716674805 -24.662912368774414 -0.865561544895172 1.000000000000000
9.334219932556152 -23.517963409423828 -1.219798207283020 1.000000000000000
9.338751792907715 -22.650768280029297 3.631013154983521 0.000000000000000
9.341547012329102 -18.653009414672852 3.565909624099731 0.000000000000000
9.345445632934570 -20.590457916259766 3.865146398544312 0.000000000000000
9.347922325134277 -19.304420471191406 -1.364468097686768 0.000000000000000
9.352318763732910 -23.356445312500000 -0.487475574016571 1.000000000000000
9.353659629821777 -22.668968200683594 1.787940859794617 1.000000000000000
9.355015754699707 -17.557983398437500 -0.920811057090759 0.000000000000000
9.355490684509277 -23.973333358764648 -0.844696760177612 1.000000000000000
9.355622291564941 -13.932085990905762 -0.454103738069534 0.000000000000000
9.357281684875488 -18.185434341430664 0.585554838180542 0.000000000000000
9.359133720397949 -21.352079391479492 -0.362162917852402 1.000000000000000
9.365560531616211 -4.683382511138916 -0.122453697025776 0.000000000000000
9.366491317749023 -13.911520004272461 -0.196122378110886 0.000000000000000
9.366636276245117 -18.656728744506836 -0.003643549513072 1.000000000000000
9.366864204406738 -22.577930450439453 0.089591741561890 1.000000000000000
9.371401786804199 -20.903038024902344 0.127941742539406 0.000000000000000
9.372303962707520 -7.946605205535889 -0.450571030378342 1.000000000000000
9.375752449035645 -13.939974784851074 -1.425469517707825 0.000000000000000
9.379376411437988 -20.726694107055664 2.785304546356201 1.000000000000000
9.382229804992676 -22.376262664794922 0.135515049099922 0.000000000000000
9.383357048034668 -22.655656814575195 0.702093422412872 1.000000000000000
9.383930206298828 8.668953895568848 -0.345690131187439 0.000000000000000
9.385234832763672 -23.928621292114258 1.824402570724487 1.000000000000000
9.386393547058105 -18.816324234008789 0.723275601863861 1.000000000000000
9.392523765563965 -17.670717239379883 -0.080333106219769 0.000000000000000
9.395363807678223 -14.728472709655762 2.324788570404053 0.000000000000000
9.398277282714844 7.678166866302490 -0.025417558848858 0.000000000000000
9.398333549499512 5.189019680023193 -0.084319479763508 0.000000000000000
9.406624794006348 -21.854537963867188 1.047144770622253 1.000000000000000
9.414298057556152 -20.717163085937500 1.351948261260986 1.000000000000000
9.416807174682617 -17.603563308715820 2.656675338745117 0.000000000000000
9.418542861938477 7.972827434539795 -0.025844814255834 0.000000000000000
9.418869018554688 4.246451377868652 -0.577640950679779 0.000000000000000
9.421788215637207 -20.262310028076172 1.499870896339417 1.000000000000000
9.432440757751465 -23.971408843994141 -1.192301511764526 1.000000000000000
9.436348915100098 -22.099697113037109 1.937629818916321 1.000000000000000
9.438639640808105 -23.834421157836914 0.192394226789474 1.000000000000000
9.440339088439941 4.295847892761230 -0.579873800277710 0.000000000000000
9.441057205200195 -20.624856948852539 0.213788509368896 1.000000000000000
9.447539329528809 -19.033611297607422 2.601561784744263 0.000000000000000
9.449304580688477 -20.786497116088867 1.989639639854431 0.000000000000000
9.453089714050293 -19.978307723999023 2.510377407073975 1.000000000000000
9.454907417297363 -17.938896179199219 0.853447556495667 0.000000000000000
9.456586837768555 -22.271835327148438 2.108392953872681 1.000000000000000
9.458975791931152 -20.573801040649414 0.735355377197266 1.000000000000000
9.462759971618652 -17.065649032592773 1.159321069717407 0.000000000000000
9.464797019958496 11.739920616149902 0.344847738742828 0.000000000000000
9.465694427490234 -19.080221176147461 -1.108786582946777 1.000000000000000
9.473278999328613 -20.625776290893555 -0.352594703435898 1.000000000000000
9.474971771240234 -24.953521728515625 0.097831077873707 1.000000000000000
9.477621078491211 -23.918224334716797 -0.152672126889229 1.000000000000000
9.478452682495117 -17.956209182739258 0.893608093261719 1.000000000000000
9.480957031250000 -22.069646835327148 -0.050307329744101 1.000000000000000
9.481348037719727 -22.284730911254883 0.321256846189499 1.000000000000000
9.481938362121582 -20.435487747192383 0.731590330600739 1.000000000000000
9.483640670776367 -11.977396965026855 1.384971141815186 0.000000000000000
9.484515190124512 -17.547096252441406 0.839486896991730 0.000000000000000
9.488389015197754 -20.205938339233398 1.541391134262085 1.000000000000000
9.490365028381348 -21.367876052856445 -0.587742745876312 1.000000000000000
9.492946624755859 4.118000507354736 -0.299881011247635 0.000000000000000
9.493916511535645 9.741691589355469 -0.760512232780457 0.000000000000000
9.494548797607422 9.070336341857910 -0.178767874836922 0.000000000000000
9.495463371276855 -18.843568801879883 1.783010601997375 1.000000000000000
9.495552062988281 -23.924448013305664 -0.053909689188004 1.000000000000000
9.500761032104492 -20.246978759765625 0.812279403209686 0.000000000000000
9.502119064331055 -21.413480758666992 1.798501491546631 0.000000000000000
9.502933502197266 12.144840240478516 1.887979507446289 0.000000000000000
9.504827499389648 -18.606885910034180 0.959752440452576 0.000000000000000
9.506675720214844 -20.768207550048828 -0.837528586387634 1.000000000000000
9.506830215454102 -17.623666763305664 1.382677912712097 0.000000000000000
9.510554313659668 -17.783288955688477 0.732430636882782 1.000000000000000
9.514657020568848 -12.016569137573242 1.117499351501465 0.000000000000000
9.524176597595215 -17.702375411987305 1.582049369812012 0.000000000000000
9.526881217956543 -18.041849136352539 1.777827978134155 1.000000000000000
9.527695655822754 -12.384479522705078 2.670893907546997 0.000000000000000
9.529650688171387 -21.281873703002930 2.648513555526733 1.000000000000000
9.533596038818359 -22.655174255371094 -0.476239830255508 1.000000000000000
9.538831710815430 -18.451108932495117 -0.841510176658630 0.000000000000000
9.545363426208496 11.775781631469727 0.404884338378906 0.000000000000000
9.545890808105469 -17.618722915649414 -0.927468895912170 0.000000000000000
9.547261238098145 6.435343742370605 -0.488603651523590 0.000000000000000
9.547488212585449 4.418030738830566 -0.284666895866394 0.000000000000000
9.547602653503418 8.148374557495117 -0.002190737286583 0.000000000000000
9.548258781433105 0.924604415893555 -0.721295416355133 0.000000000000000
9.551061630249023 -12.009912490844727 2.041972875595093 0.000000000000000
9.551806449890137 -18.861074447631836 2.121416330337524 1.000000000000000
9.552433967590332 -22.815683364868164 -0.811890423297882 1.000000000000000
9.552571296691895 5.176696300506592 -0.252254962921143 0.000000000000000
9.553954124450684 -5.328151702880859 -0.127926230430603 1.000000000000000
9.554606437683105 -22.399374008178711 -1.080267548561096 1.000000000000000
9.554671287536621 -19.198095321655273 2.151767969131470 1.000000000000000
9.555489540100098 11.654188156127930 0.721263706684113 0.000000000000000
9.556538581848145 11.809346199035645 1.524368524551392 0.000000000000000
9.560519218444824 -21.860282897949219 0.637284338474274 1.000000000000000
9.561494827270508 -23.172662734985352 -0.100629135966301 1.000000000000000
9.562687873840332 -23.315082550048828 0.043982274830341 1.000000000000000
9.564378738403320 12.927398681640625 0.862465381622314 0.000000000000000
9.573215484619141 -24.918275833129883 -0.568480551242828 1.000000000000000
9.573550224304199 -17.029212951660156 2.599689960479736 0.000000000000000
9.575587272644043 -22.317844390869141 -0.843819260597229 1.000000000000000
9.582106590270996 -17.876546859741211 0.230109766125679 0.000000000000000
9.585977554321289 -17.488847732543945 0.111387729644775 0.000000000000000
9.590208053588867 -19.031587600708008 -0.167382344603539 1.000000000000000
9.592371940612793 0.660838425159454 -0.130904033780098 0.000000000000000
9.594366073608398 6.868393421173096 -0.115329526364803 0.000000000000000
9.594442367553711 5.526414871215820 -0.725713193416595 0.000000000000000
9.594661712646484 -18.241088867187500 1.741584539413452 1.000000000000000
9.597761154174805 -23.109415054321289 -0.196536034345627 1.000000000000000
9.598513603210449 -21.083465576171875 1.019532799720764 1.000000000000000
9.600221633911133 -17.370702743530273 -0.193988174200058 1.000000000000000
9.605276107788086 -18.491731643676758 0.316429972648621 1.000000000000000
9.606683731079102 -22.556358337402344 2.460076093673706 1.000000000000000
9.606724739074707 -19.350923538208008 1.241914987564087 1.000000000000000
9.609516143798828 8.031672477722168 -0.002185850404203 0.000000000000000
9.609716415405273 -17.399353027343750 -0.537848412990570 0.000000000000000
9.611335754394531 -18.088474273681641 0.153729259967804 1.000000000000000
9.612556457519531 -18.393381118774414 1.193018794059753 1.000000000000000
9.613236427307129 -22.945175170898438 -1.055729866027832 1.000000000000000
9.614111900329590 -18.617429733276367 2.379915475845337 1.000000000000000
9.615553855895996 -18.305616378784180 -0.877485334873199 0.000000000000000
9.616455078125000 -20.937507629394531 2.311912536621094 1.000000000000000
9.616751670837402 -12.410361289978027 2.683698892593384 0.000000000000000
9.619475364685059 -17.684465408325195 0.151087567210197 0.000000000000000
9.623117446899414 -17.691162109375000 1.080116868019104 0.000000000000000
9.625026702880859 -18.663326263427734 1.652662515640259 1.000000000000000
9.625390052795410 9.419951438903809 -0.467955082654953 0.000000000000000
9.626454353332520 -22.582014083862305 1.080384612083435 1.000000000000000
9.626559257507324 -19.130296707153320 0.078493565320969 1.000000000000000
9.629537582397461 -19.172870635986328 0.944259405136108 1.000000000000000
9.630157470703125 3.664120674133301 -0.298606425523758 0.000000000000000
9.630682945251465 7.657570838928223 -0.002147453138605 0.000000000000000
9.632352828979492 11.771784782409668 1.862216591835022 0.000000000000000
9.632605552673340 -11.566336631774902 1.430799245834351 0.000000000000000
9.636570930480957 8.256040573120117 -0.514103293418884 0.000000000000000
9.637498855590820 -18.866605758666992 2.125809431076050 1.000000000000000
9.643368721008301 -18.565065383911133 -1.290531396865845 1.000000000000000
9.646374702453613 -16.165262222290039 1.640324234962463 0.000000000000000
9.652442932128906 7.434453010559082 -0.095691934227943 0.000000000000000
9.654610633850098 -18.011810302734375 -0.395962506532669 0.000000000000000
9.657902717590332 -21.367996215820312 2.663410663604736 1.000000000000000
9.661042213439941 -24.568729400634766 2.300412178039551 1.000000000000000
9.663532257080078 -15.266130447387695 1.526707053184509 0.000000000000000
9.668704986572266 -19.026773452758789 -0.864665031433105 1.000000000000000
9.669500350952148 -20.930547714233398 3.416975736618042 0.000000000000000
9.670362472534180 -18.930938720703125 -0.656913578510284 0.000000000000000
9.677689552307129 -5.770893096923828 -1.413451910018921 1.000000000000000
9.678363800048828 -23.100624084472656 -1.448537826538086 1.000000000000000
9.680606842041016 -18.470939636230469 0.957917034626007 1.000000000000000
9.680730819702148 -22.297138214111328 -0.004242546390742 1.000000000000000
9.681668281555176 6.525940895080566 -0.315935879945755 0.000000000000000
9.686317443847656 -22.988908767700195 1.866960167884827 1.000000000000000
9.697135925292969 -21.538885116577148 1.039582252502441 1.000000000000000
9.702973365783691 -18.994779586791992 0.323900401592255 1.000000000000000
9.703166007995605 -18.789878845214844 1.705191373825073 1.000000000000000
9.704202651977539 -5.472054004669189 -1.397520065307617 0.000000000000000
9.704598426818848 12.006026268005371 0.264076381921768 0.000000000000000
9.704796791076660 -13.176743507385254 1.483562350273132 0.000000000000000
9.705634117126465 -18.314516067504883 -0.600688993930817 1.000000000000000
9.707518577575684 -24.750314712524414 -0.566181123256683 1.000000000000000
9.710801124572754 -17.253601074218750 -0.231530115008354 0.000000000000000
9.718993186950684 -19.147241592407227 -0.911234796047211 0.000000000000000
9.726171493530273 -17.927553176879883 0.035597719252110 1.000000000000000
9.732900619506836 -15.115247726440430 2.201022386550903 0.000000000000000
9.733677864074707 -19.932264328002930 1.660084128379822 1.000000000000000
9.739936828613281 6.775483608245850 -0.275465756654739 0.000000000000000
9.743290901184082 -20.763832092285156 -1.282331705093384 1.000000000000000
9.743719100952148 4.919988155364990 -0.316335052251816 0.000000000000000
9.748973846435547 6.832394599914551 -0.276394188404083 0.000000000000000
9.749211311340332 -18.378908157348633 2.768535137176514 0.000000000000000
9.752558708190918 9.701294898986816 -0.002400874858722 0.000000000000000
9.756980895996094 7.119869709014893 -0.187636300921440 0.000000000000000
9.760634422302246 -19.467765808105469 1.293828010559082 1.000000000000000
9.764215469360352 -21.456367492675781 2.365427017211914 1.000000000000000
9.764579772949219 -17.873117446899414 0.935524582862854 0.000000000000000
9.767646789550781 -19.017211914062500 1.862899899482727 1.000000000000000
9.769130706787109 -19.851745605468750 1.613131642341614 1.000000000000000
9.769344329833984 -20.938970565795898 1.328229188919067 1.000000000000000
9.773335456848145 -19.341203689575195 1.789235472679138 1.000000000000000
9.774643898010254 -23.456678390502930 -0.102010041475296 1.000000000000000
9.781440734863281 -19.438081741333008 -0.923445641994476 1.000000000000000
9.782573699951172 -13.408372879028320 2.208707571029663 0.000000000000000
9.783513069152832 -19.770235061645508 1.353022694587708 1.000000000000000
9.784991264343262 6.552459239959717 -0.296032547950745 0.000000000000000
9.786831855773926 -19.421783447265625 2.894113779067993 0.000000000000000
9.796442031860352 -12.733807563781738 1.456476688385010 0.000000000000000
9.809267997741699 -21.670642852783203 1.642515659332275 1.000000000000000
9.812855720520020 -19.166099548339844 0.409678101539612 0.000000000000000
9.813036918640137 9.148250579833984 -0.053855136036873 0.000000000000000
9.816148757934570 -12.844562530517578 3.362532854080200 0.000000000000000
9.820189476013184 -20.972434997558594 1.465074777603149 1.000000000000000
9.820717811584473 -21.026092529296875 3.439259052276611 0.000000000000000
9.830780982971191 -20.145378112792969 2.032133579254150 1.000000000000000
9.831562042236328 12.042671203613281 0.654298543930054 0.000000000000000
9.831871986389160 -18.625734329223633 -1.339835047721863 0.000000000000000
9.838747978210449 -22.446279525756836 1.881476402282715 1.000000000000000
9.839542388916016 -6.055220127105713 -1.449298620223999 1.000000000000000
9.840677261352539 9.107465744018555 -0.311303198337555 0.000000000000000
9.842300415039062 9.928217887878418 -0.002439970383421 0.000000000000000
9.845826148986816 -15.325858116149902 2.230187892913818 0.000000000000000
9.847582817077637 -17.189281463623047 0.262788623571396 0.000000000000000
9.849326133728027 -10.985735893249512 -1.052440047264099 1.000000000000000
9.855741500854492 11.391433715820312 2.004510402679443 0.000000000000000
9.857327461242676 -18.673957824707031 -0.044225212186575 1.000000000000000
9.858543395996094 -17.728322982788086 -0.665836751461029 0.000000000000000
9.860561370849609 -19.613218307495117 0.712894856929779 1.000000000000000
9.861625671386719 -18.483928680419922 1.325411558151245 1.000000000000000
9.862491607666016 5.779585838317871 -0.331282794475555 0.000000000000000
9.862681388854980 -18.750640869140625 -0.491883218288422 1.000000000000000
9.865338325500488 7.811331748962402 -0.340496659278870 0.000000000000000
9.865873336791992 7.778747081756592 -0.098676413297653 0.000000000000000
9.873410224914551 7.336391925811768 -0.285585641860962 0.000000000000000
9.886709213256836 -18.762926101684570 3.143125057220459 0.000000000000000
9.893242835998535 -19.136653900146484 1.778702855110168 1.000000000000000
9.900168418884277 -18.982437133789062 1.478291630744934 1.000000000000000
9.913599967956543 -19.983074188232422 0.210244834423065 1.000000000000000
9.913653373718262 11.717112541198730 0.852730631828308 0.000000000000000
9.913666725158691 -19.197507858276367 1.408566594123840 1.000000000000000
9.915463447570801 -17.420373916625977 0.882176399230957 1.000000000000000
9.917140007019043 -19.348136901855469 0.789631366729736 1.000000000000000
9.917207717895508 -18.256105422973633 0.076147846877575 1.000000000000000
9.919234275817871 8.560238838195801 -0.505627751350403 0.000000000000000
9.925763130187988 11.614191055297852 1.735279798507690 0.000000000000000
9.926230430603027 -11.582768440246582 1.329204201698303 0.000000000000000
9.931522369384766 4.731558799743652 -0.255411624908447 0.000000000000000
9.932023048400879 -19.566930770874023 -1.269087314605713 0.000000000000000
9.936391830444336 -11.680175781250000 1.457674026489258 0.000000000000000
9.940328598022461 -17.606016159057617 -0.935791194438934 0.000000000000000
9.947084426879883 -19.098405838012695 2.445823669433594 0.000000000000000
9.949809074401855 -18.643735885620117 -0.693656504154205 0.000000000000000
9.949887275695801 5.969283103942871 -0.336265355348587 0.000000000000000
9.951777458190918 -7.309773921966553 -0.049567919224501 0.000000000000000
9.952741622924805 -16.937612533569336 1.971255779266357 0.000000000000000
9.955600738525391 -19.550771713256836 -0.130193814635277 0.000000000000000
9.959395408630371 9.296397209167480 -0.028534015640616 0.000000000000000
9.961252212524414 -12.940555572509766 3.396744489669800 0.000000000000000
9.972131729125977 -12.050381660461426 1.569496631622314 0.000000000000000
9.972347259521484 -19.355041503906250 1.000132203102112 1.000000000000000
9.975061416625977 -18.651845932006836 0.118134438991547 0.000000000000000
9.977858543395996 -19.466596603393555 1.468260765075684 0.000000000000000
9.978073120117188 11.719224929809570 1.270831227302551 0.000000000000000
9.979711532592773 -5.765969753265381 -1.445813417434692 1.000000000000000
9.982976913452148 -17.578931808471680 -0.702418744564056 0.000000000000000
9.991511344909668 -19.021345138549805 2.440406322479248 0.000000000000000
9.993770599365234 -19.537105560302734 0.375385284423828 1.000000000000000
9.997711181640625 -18.000026702880859 -0.636280715465546 0.000000000000000
9.998015403747559 11.234941482543945 2.001344442367554 0.000000000000000
9.998138427734375 9.507138252258301 -0.558955788612366 0.000000000000000
9.998451232910156 5.304866313934326 -0.349769085645676 0.000000000000000
10.000300407409668 -18.944810867309570 1.272714853286743 1.000000000000000
10.013549804687500 -19.037467956542969 0.491894960403442 1.000000000000000
10.022029876708984 -18.272285461425781 2.773283958435059 0.000000000000000
10.022830009460449 -21.645732879638672 2.078530788421631 1.000000000000000
10.023030281066895 -18.123777389526367 1.430071473121643 1.000000000000000
10.034538269042969 -11.277567863464355 -1.105898737907410 0.000000000000000
10.035536766052246 11.339927673339844 1.221024990081787 0.000000000000000
10.036343574523926 -23.618925094604492 0.685451805591583 1.000000000000000
10.038746833801270 -18.886497497558594 1.229518890380859 1.000000000000000
10.040889739990234 -19.330360412597656 2.185713529586792 1.000000000000000
10.044325828552246 -6.229687690734863 -1.482655763626099 1.000000000000000
10.044637680053711 -21.601797103881836 1.966974139213562 1.000000000000000
10.057009696960449 -7.196925640106201 -0.905995309352875 1.000000000000000
10.059213638305664 7.915246963500977 -0.321765780448914 0.000000000000000
10.059844970703125 -19.377593994140625 1.902484178543091 1.000000000000000
10.060071945190430 -19.087081909179688 -0.418046534061432 0.000000000000000
10.061012268066406 -18.770000457763672 0.568824589252472 0.000000000000000
10.063512802124023 -16.876338958740234 1.470522165298462 0.000000000000000
10.064981460571289 -20.176647186279297 -0.610124170780182 1.000000000000000
10.066431999206543 -19.466663360595703 0.164476200938225 1.000000000000000
10.069642066955566 -17.876571655273438 1.495913386344910 0.000000000000000
10.071406364440918 -20.616556167602539 1.999362111091614 1.000000000000000
10.072150230407715 -19.384750366210938 0.541517436504364 0.000000000000000
10.077644348144531 -19.919231414794922 1.945193767547607 1.000000000000000
10.081925392150879 -20.131381988525391 1.294254541397095 0.000000000000000
10.082816123962402 -23.641115188598633 0.735864460468292 1.000000000000000
10.085945129394531 -19.269689559936523 1.292167305946350 1.000000000000000
10.089669227600098 8.633242607116699 -0.155288890004158 0.000000000000000
10.089767456054688 -24.074325561523438 2.003948211669922 1.000000000000000
10.095956802368164 -17.492349624633789 0.539454162120819 0.000000000000000
10.104329109191895 -12.046994209289551 3.270486831665039 0.000000000000000
10.105603218078613 11.373423576354980 1.862702727317810 0.000000000000000
10.105934143066406 -18.891799926757812 1.479393839836121 0.000000000000000
10.109847068786621 -20.075868606567383 1.378736257553101 1.000000000000000
10.111356735229492 12.123971939086914 2.698526144027710 0.000000000000000
10.114664077758789 -19.093603134155273 0.743213772773743 1.000000000000000
10.117660522460938 8.086072921752930 -0.051992524415255 0.000000000000000
10.122216224670410 -18.927001953125000 1.440668940544128 0.000000000000000
10.129537582397461 -18.600505828857422 0.077628582715988 0.000000000000000
10.135697364807129 -21.813549041748047 2.732027530670166 1.000000000000000
10.140696525573730 -18.312385559082031 1.824009895324707 1.000000000000000
10.155448913574219 -19.070703506469727 1.882692098617554 1.000000000000000
10.160248756408691 8.643378257751465 -0.130381017923355 0.000000000000000
10.163555145263672 -16.895616531372070 1.978444457054138 1.000000000000000
10.165025711059570 -18.810806274414062 -0.784028828144073 0.000000000000000
10.165417671203613 -18.811531066894531 3.168926954269409 0.000000000000000
10.172169685363770 12.327564239501953 0.549744427204132 0.000000000000000
10.173050880432129 5.880046844482422 -0.838138401508331 0.000000000000000
10.175723075866699 -20.808908462524414 2.324292659759521 0.000000000000000
10.175757408142090 -19.187877655029297 1.457813382148743 1.000000000000000
10.182570457458496 -19.290107727050781 -0.380741715431213 1.000000000000000
10.186841011047363 11.237672805786133 1.441776394844055 0.000000000000000
10.188461303710938 -11.340881347656250 -1.028630733489990 1.000000000000000
10.191698074340820 12.367050170898438 0.582024693489075 0.000000000000000
10.192022323608398 -20.497550964355469 1.360013842582703 1.000000000000000
10.192849159240723 -23.392808914184570 -0.984724700450897 1.000000000000000
10.195670127868652 -13.022668838500977 -0.542878746986389 0.000000000000000
10.198787689208984 -23.301958084106445 -0.443989217281342 1.000000000000000
10.198996543884277 -18.712499618530273 1.553795456886292 1.000000000000000
10.199149131774902 -11.919745445251465 1.422168493270874 0.000000000000000
10.200828552246094 -19.419832229614258 -0.593569934368134 0.000000000000000
10.204757690429688 8.731409072875977 -0.389219611883163 0.000000000000000
10.206268310546875 -18.725841522216797 0.241953313350677 0.000000000000000
10.219679832458496 -11.894484519958496 1.203899979591370 0.000000000000000
10.224756240844727 11.483288764953613 1.269514560699463 0.000000000000000
10.224833488464355 -11.272859573364258 1.168383121490479 0.000000000000000
10.225713729858398 -13.472855567932129 3.518115282058716 0.000000000000000
10.227929115295410 -18.010265350341797 -0.083143085241318 0.000000000000000
10.229227066040039 -19.624227523803711 -0.981706798076630 1.000000000000000
10.234898567199707 10.978666305541992 0.660577058792114 0.000000000000000
10.251138687133789 -14.902123451232910 1.528391003608704 0.000000000000000
10.251258850097656 -18.808387756347656 1.231355309486389 1.000000000000000
10.252834320068359 -14.799243927001953 1.521318316459656 0.000000000000000
10.258197784423828 -18.825807571411133 -1.446545600891113 0.000000000000000
10.258768081665039 -16.983358383178711 1.676582336425781 0.000000000000000
10.260541915893555 -19.271297454833984 -1.094530344009399 1.000000000000000
10.260645866394043 5.121138095855713 -0.090068541467190 0.000000000000000
10.261856079101562 10.101214408874512 -0.140741124749184 0.000000000000000
10.262375831604004 -13.575200080871582 1.142248511314392 0.000000000000000
10.262940406799316 -19.373506546020508 -0.593245387077332 1.000000000000000
10.265547752380371 -19.055631637573242 2.458463430404663 1.000000000000000
10.266896247863770 -11.455104827880859 1.180936455726624 0.000000000000000
10.269277572631836 -18.337862014770508 -0.972778916358948 0.000000000000000
10.273842811584473 -19.301151275634766 3.240468263626099 0.000000000000000
10.275676727294922 -19.311098098754883 1.637097835540771 0.000000000000000
10.276906967163086 11.247555732727051 1.110809564590454 0.000000000000000
10.293644905090332 12.698909759521484 2.794228076934814 0.000000000000000
10.299161911010742 -19.160453796386719 0.999214470386505 1.000000000000000
10.301747322082520 8.498452186584473 -0.181817218661308 0.000000000000000
10.302967071533203 -19.781700134277344 0.424363791942596 1.000000000000000
10.303089141845703 -18.903482437133789 0.906094133853912 0.000000000000000
10.303957939147949 11.130383491516113 1.441776394844055 0.000000000000000
10.304944038391113 6.019791603088379 -0.782221555709839 0.000000000000000
10.321911811828613 -15.206493377685547 2.250117540359497 0.000000000000000
10.322334289550781 12.163928985595703 1.812022209167480 0.000000000000000
10.323952674865723 -20.095136642456055 0.950835406780243 1.000000000000000
10.324206352233887 -13.558346748352051 1.143855690956116 0.000000000000000
10.325200080871582 -17.935783386230469 0.433508098125458 0.000000000000000
10.327760696411133 -18.842172622680664 -0.210017025470734 1.000000000000000
10.327815055847168 12.120562553405762 1.130268573760986 0.000000000000000
10.328520774841309 11.706347465515137 1.911311864852905 0.000000000000000
10.328852653503418 -18.336746215820312 1.907901644706726 1.000000000000000
10.329580307006836 -18.678085327148438 -0.823688864707947 1.000000000000000
10.333761215209961 -19.097545623779297 2.064060449600220 1.000000000000000
10.346655845642090 -23.902841567993164 -0.554683744907379 1.000000000000000
10.347171783447266 7.950579166412354 -0.428319126367569 0.000000000000000
10.352197647094727 -1.069430470466614 -0.121705330908298 0.000000000000000
10.360027313232422 -19.392827987670898 2.497286081314087 0.000000000000000
10.360240936279297 -19.328247070312500 1.598879218101501 1.000000000000000
10.360403060913086 -19.656902313232422 0.593495726585388 1.000000000000000
10.361990928649902 -19.897563934326172 1.722262859344482 1.000000000000000
10.362352371215820 -21.131650924682617 1.897764801979065 1.000000000000000
10.368569374084473 -25.387130737304688 -1.427573084831238 1.000000000000000
10.369509696960449 -18.965433120727539 0.618867933750153 0.000000000000000
10.370937347412109 -17.357435226440430 0.578915119171143 0.000000000000000
10.371845245361328 -20.016153335571289 -0.436798542737961 0.000000000000000
10.373630523681641 -19.819326400756836 -1.078422665596008 0.000000000000000
10.376196861267090 10.923152923583984 0.953144669532776 0.000000000000000
10.376502037048340 11.865104675292969 0.966829657554626 0.000000000000000
10.380732536315918 -24.611776351928711 -1.236316919326782 1.000000000000000
10.381600379943848 4.755480766296387 -0.155462145805359 0.000000000000000
10.384208679199219 3.827025175094604 -0.150670334696770 0.000000000000000
10.385768890380859 10.924444198608398 0.663390994071960 0.000000000000000
10.388291358947754 -17.616125106811523 -0.199891492724419 0.000000000000000
10.389163970947266 -2.669030189514160 -0.537751913070679 1.000000000000000
10.397555351257324 -18.733005523681641 -1.074101805686951 1.000000000000000
10.397822380065918 -18.801483154296875 1.152310371398926 1.000000000000000
10.398777008056641 -20.209531784057617 -0.047601372003555 1.000000000000000
10.400172233581543 -20.404441833496094 1.890941500663757 1.000000000000000
10.403504371643066 -23.107841491699219 2.408890724182129 1.000000000000000
10.403541564941406 -17.059801101684570 2.961339950561523 0.000000000000000
10.403887748718262 -19.995906829833984 -0.393447041511536 1.000000000000000
10.403998374938965 11.925905227661133 0.970747947692871 0.000000000000000
10.408823013305664 -19.561319351196289 -1.068214297294617 0.000000000000000
10.408842086791992 -20.865962982177734 2.648513555526733 1.000000000000000
10.411576271057129 -19.057380676269531 -0.003790157148615 1.000000000000000
10.414494514465332 -19.609930038452148 0.081381730735302 1.000000000000000
10.417397499084473 -18.935085296630859 1.617395281791687 1.000000000000000
10.420448303222656 11.234959602355957 1.058087587356567 0.000000000000000
10.422717094421387 -11.543956756591797 1.043935775756836 0.000000000000000
10.423284530639648 -18.596120834350586 1.677769422531128 1.000000000000000
10.438160896301270 -20.144132614135742 0.605991482734680 0.000000000000000
10.452425956726074 10.114616394042969 -0.449473679065704 0.000000000000000
10.454922676086426 -18.548444747924805 2.023937463760376 1.000000000000000
10.455832481384277 11.194475173950195 0.821548700332642 0.000000000000000
10.459519386291504 -19.604578018188477 0.721593439579010 1.000000000000000
10.460967063903809 -24.015008926391602 -1.061238765716553 1.000000000000000
10.469060897827148 -19.112627029418945 0.414624065160751 0.000000000000000
10.473250389099121 -15.339406013488770 1.569480538368225 0.000000000000000
10.475520133972168 8.976713180541992 -0.108352422714233 0.000000000000000
10.476942062377930 -20.963991165161133 1.618267774581909 1.000000000000000
10.479439735412598 5.576949596405029 -0.344028890132904 0.000000000000000
10.480508804321289 -18.869262695312500 1.657046437263489 1.000000000000000
10.482198715209961 -20.749425888061523 3.973653793334961 0.000000000000000
10.483795166015625 -18.969446182250977 0.787163376808167 0.000000000000000
10.486005783081055 -6.784220695495605 -0.409947574138641 1.000000000000000
10.491141319274902 -19.140247344970703 1.465046167373657 0.000000000000000
10.493520736694336 -17.400798797607422 0.698937237262726 1.000000000000000
10.495109558105469 -20.204807281494141 1.045834660530090 1.000000000000000
10.497070312500000 9.851893424987793 -0.334235459566116 0.000000000000000
10.497152328491211 -18.153051376342773 0.318434238433838 0.000000000000000
10.499357223510742 -18.676015853881836 1.479393839836121 1.000000000000000
10.512410163879395 -12.810777664184570 -0.066524095833302 0.000000000000000
10.513234138488770 -19.757541656494141 1.329649090766907 0.000000000000000
10.515789985656738 11.502552032470703 1.358024477958679 0.000000000000000
10.522755622863770 11.429791450500488 0.863159537315369 0.000000000000000
10.523877143859863 -20.171463012695312 1.483249664306641 1.000000000000000
10.525724411010742 -20.147552490234375 0.170600146055222 0.000000000000000
10.527156829833984 10.156724929809570 -0.339620381593704 0.000000000000000
10.528698921203613 -19.296573638916016 0.291598290205002 0.000000000000000
10.533641815185547 -13.479537010192871 1.490667104721069 0.000000000000000
10.534150123596191 -24.287137985229492 -1.276232957839966 1.000000000000000
10.537209510803223 -23.439786911010742 1.824119329452515 1.000000000000000
10.537916183471680 -12.643960952758789 1.263605117797852 0.000000000000000
10.539635658264160 8.295068740844727 -0.311396032571793 0.000000000000000
10.545769691467285 -6.725644111633301 -0.050210196524858 1.000000000000000
10.551962852478027 -24.303802490234375 -1.226330280303955 1.000000000000000
10.556295394897461 8.246894836425781 -0.336743324995041 0.000000000000000
10.558132171630859 -19.983829498291016 1.735122323036194 1.000000000000000
10.559805870056152 -19.700557708740234 0.940743446350098 1.000000000000000
10.560462951660156 -6.717654705047607 -0.002184454118833 1.000000000000000
10.562539100646973 11.934158325195312 1.223495483398438 0.000000000000000
10.566938400268555 5.822198867797852 -0.280107885599136 0.000000000000000
10.570402145385742 -19.075790405273438 0.917868196964264 1.000000000000000
10.574278831481934 -24.664497375488281 -1.397004604339600 1.000000000000000
10.576187133789062 -24.501106262207031 -1.491997241973877 1.000000000000000
10.588769912719727 -23.392719268798828 3.417006731033325 0.000000000000000
10.590444564819336 -19.384780883789062 2.216464519500732 1.000000000000000
10.591279029846191 -13.546956062316895 -0.531387090682983 1.000000000000000
10.599165916442871 -19.513927459716797 1.704810500144958 1.000000000000000
10.605137825012207 -17.904483795166016 0.316004842519760 0.000000000000000
10.610905647277832 -17.989322662353516 1.764823555946350 0.000000000000000
10.611657142639160 -17.640529632568359 0.945619583129883 1.000000000000000
10.613512039184570 -18.798339843750000 2.166144847869873 1.000000000000000
10.618606567382812 -13.071785926818848 -1.201284289360046 0.000000000000000
10.618954658508301 -19.226680755615234 -0.932094991207123 0.000000000000000
10.619255065917969 -18.997806549072266 -1.174903273582458 1.000000000000000
10.620127677917480 -18.264797210693359 1.841024160385132 1.000000000000000
10.629263877868652 -20.940553665161133 1.893585443496704 1.000000000000000
10.633423805236816 -13.406904220581055 -0.528792560100555 1.000000000000000
10.634026527404785 11.364564895629883 1.767782449722290 0.000000000000000
10.639830589294434 -19.684520721435547 0.597660958766937 0.000000000000000
10.645466804504395 -20.369827270507812 -0.092263452708721 0.000000000000000
10.646232604980469 10.676378250122070 1.186615467071533 0.000000000000000
10.646328926086426 -19.370401382446289 -0.173602640628815 1.000000000000000
10.648370742797852 -19.602067947387695 1.798745393753052 1.000000000000000
10.658548355102539 12.008397102355957 3.339725017547607 0.000000000000000
10.661190986633301 -19.599557876586914 -1.204442977905273 0.000000000000000
10.662564277648926 -19.040155410766602 2.189707279205322 1.000000000000000
10.663025856018066 -21.190006256103516 1.546482920646667 1.000000000000000
10.665102005004883 -17.217147827148438 1.125213861465454 1.000000000000000
10.669612884521484 10.551471710205078 0.256687730550766 0.000000000000000
10.670242309570312 -17.598556518554688 2.065106153488159 0.000000000000000
10.670646667480469 -19.807605743408203 1.814176917076111 1.000000000000000
10.670920372009277 11.526778221130371 3.267228364944458 0.000000000000000
10.675293922424316 -21.015783309936523 1.445836424827576 1.000000000000000
10.675391197204590 -19.651809692382812 2.540171623229980 0.000000000000000
10.675712585449219 -18.248813629150391 2.588437318801880 0.000000000000000
10.676280975341797 -18.684158325195312 1.818374514579773 1.000000000000000
10.677394866943359 -20.155878067016602 2.590731143951416 1.000000000000000
10.679693222045898 11.041393280029297 1.298020958900452 0.000000000000000
10.680862426757812 -25.135694503784180 -0.529164016246796 1.000000000000000
10.686432838439941 -21.398120880126953 1.605416417121887 1.000000000000000
10.686710357666016 -12.447278022766113 -0.286359101533890 1.000000000000000
10.686801910400391 11.420966148376465 0.297594904899597 0.000000000000000
10.688765525817871 11.503282546997070 0.540119111537933 0.000000000000000
10.692097663879395 5.175905227661133 -0.344260632991791 0.000000000000000
10.693218231201172 -14.892703056335449 1.407509684562683 0.000000000000000
10.698374748229980 -18.524152755737305 2.033400535583496 1.000000000000000
10.704084396362305 -17.950567245483398 0.919813036918640 1.000000000000000
10.704767227172852 -19.640457153320312 2.027799844741821 1.000000000000000
10.718110084533691 -14.960413932800293 1.846654415130615 0.000000000000000
10.718731880187988 -20.609806060791016 0.665117025375366 0.000000000000000
10.720705986022949 -17.888891220092773 -0.163800969719887 1.000000000000000
10.732637405395508 -18.686510086059570 1.695971965789795 1.000000000000000
10.734175682067871 -18.817481994628906 -1.252920508384705 1.000000000000000
10.734992980957031 -20.242397308349609 -0.575981855392456 1.000000000000000
10.737146377563477 -12.533440589904785 2.445890665054321 0.000000000000000
10.740585327148438 8.672129631042480 -0.453120678663254 0.000000000000000
10.741551399230957 9.992859840393066 -0.171566158533096 0.000000000000000
10.742594718933105 -13.123951911926270 1.105671525001526 0.000000000000000
10.744288444519043 -19.086729049682617 -0.466452151536942 1.000000000000000
10.749536514282227 5.447421073913574 -0.836348474025726 0.000000000000000
10.750038146972656 -22.925956726074219 2.876032114028931 1.000000000000000
10.761658668518066 -19.060731887817383 1.005454897880554 1.000000000000000
10.763982772827148 -17.375417709350586 2.502399206161499 0.000000000000000
10.772669792175293 -12.663214683532715 1.244242072105408 0.000000000000000
10.776323318481445 12.739431381225586 2.852188587188721 0.000000000000000
10.784440994262695 11.886088371276855 1.170145750045776 0.000000000000000
10.784468650817871 9.036745071411133 -0.407759368419647 0.000000000000000
10.794726371765137 11.004755020141602 1.004966616630554 0.000000000000000
