# This PCD file was generated using the MATLAB® pcwrite function
# from Computer Vision Toolbox®.
# .PCD v.7 - Point Cloud Data file format
VERSION .7
FIELDS x y z intensity
SIZE 8 8 8 8
TYPE F F F F
COUNT 1 1 1 1
WIDTH 643
HEIGHT 1
VIEWPOINT 0 0 0 1 0 0 0
POINTS 643
DATA ascii
20.916358947753906 9.037449836730957 2.165881872177124 0.000000000000000
20.921380996704102 -1.564997792243958 -0.084218896925449 0.000000000000000
20.929370880126953 -8.975528717041016 1.528534173965454 0.000000000000000
20.930139541625977 0.258645951747894 0.921220064163208 0.000000000000000
20.930889129638672 -2.060037374496460 -1.297427296638489 0.000000000000000
20.931896209716797 -11.541207313537598 1.097961187362671 0.000000000000000
20.933202743530273 16.896408081054688 1.650075554847717 0.000000000000000
20.938741683959961 -12.759000778198242 3.262935400009155 0.000000000000000
20.941720962524414 21.405918121337891 2.472541809082031 0.000000000000000
20.941778182983398 0.732034862041473 -0.245047733187675 0.000000000000000
20.942502975463867 0.538160800933838 1.204267263412476 0.000000000000000
20.946130752563477 18.082777023315430 1.058205723762512 0.000000000000000
20.947015762329102 0.223752349615097 0.398568689823151 0.000000000000000
20.951347351074219 0.478386580944061 -0.365802437067032 0.000000000000000
20.952415466308594 -5.621238231658936 3.708114624023438 0.000000000000000
20.952905654907227 -17.561641693115234 2.204467773437500 0.000000000000000
20.953268051147461 -6.637109756469727 -0.172628760337830 0.000000000000000
20.960311889648438 -1.965832114219666 -0.569658398628235 0.000000000000000
20.961944580078125 -7.662271022796631 1.068128108978271 0.000000000000000
20.962976455688477 0.170506477355957 1.164710640907288 0.000000000000000
20.965864181518555 -2.114108800888062 0.400927513837814 0.000000000000000
20.968204498291016 -20.765708923339844 -0.741840481758118 1.000000000000000
20.969964981079102 -1.715938925743103 -0.407663166522980 0.000000000000000
20.972143173217773 26.505861282348633 1.487529397010803 0.000000000000000
20.972761154174805 28.194581985473633 2.494180679321289 0.000000000000000
20.973045349121094 -2.021691083908081 2.803887128829956 0.000000000000000
20.973775863647461 18.756679534912109 2.451805353164673 0.000000000000000
20.977317810058594 -24.335065841674805 0.858149826526642 0.000000000000000
20.982587814331055 -1.730982184410095 1.453768253326416 0.000000000000000
20.988412857055664 -17.643854141235352 2.052044153213501 0.000000000000000
20.990844726562500 -2.202152490615845 -0.287346333265305 0.000000000000000
20.994291305541992 -7.565032958984375 0.853381812572479 0.000000000000000
20.995122909545898 -0.475708276033401 0.560921311378479 0.000000000000000
20.997535705566406 -6.670492649078369 -0.130739748477936 0.000000000000000
20.998064041137695 -10.615167617797852 2.672439098358154 0.000000000000000
20.998537063598633 1.561199784278870 0.562416493892670 0.000000000000000
20.998565673828125 -3.501146554946899 0.814098417758942 0.000000000000000
21.008056640625000 16.993186950683594 2.074369668960571 0.000000000000000
21.010822296142578 -27.793382644653320 1.801573276519775 0.000000000000000
21.012413024902344 18.450771331787109 0.693178057670593 0.000000000000000
21.013639450073242 -1.237766981124878 1.616018295288086 0.000000000000000
21.015041351318359 0.843311846256256 -0.044049285352230 0.000000000000000
21.015333175659180 1.175671219825745 0.400471001863480 0.000000000000000
21.019708633422852 -5.849435329437256 2.189307928085327 0.000000000000000
21.023740768432617 18.289838790893555 2.031684875488281 0.000000000000000
21.024332046508789 -13.923089981079102 1.789851546287537 0.000000000000000
21.029157638549805 -20.681173324584961 -0.741438388824463 1.000000000000000
21.030797958374023 -10.491067886352539 1.758895039558411 0.000000000000000
21.033037185668945 1.600311398506165 1.334503650665283 0.000000000000000
21.039035797119141 -1.741553902626038 -0.206342115998268 0.000000000000000
21.043119430541992 -15.436231613159180 0.346193343400955 0.000000000000000
21.046831130981445 -8.877112388610840 1.445122838020325 0.000000000000000
21.047880172729492 -1.934769272804260 -0.693787753582001 0.000000000000000
21.051403045654297 -0.500515103340149 -0.529340386390686 0.000000000000000
21.051818847656250 -0.113164834678173 1.534889221191406 0.000000000000000
21.054643630981445 -1.959110617637634 2.813912391662598 0.000000000000000
21.056552886962891 -5.189914226531982 1.832520127296448 0.000000000000000
21.063043594360352 0.624400913715363 1.739863634109497 0.000000000000000
21.063123703002930 19.336008071899414 1.423423528671265 0.000000000000000
21.067041397094727 -26.798374176025391 1.959516882896423 0.000000000000000
21.067296981811523 -6.371025085449219 1.859800696372986 0.000000000000000
21.068738937377930 -0.080530866980553 0.684202551841736 0.000000000000000
21.077856063842773 17.355487823486328 2.043386936187744 0.000000000000000
21.078767776489258 2.024451255798340 1.845191001892090 0.000000000000000
21.078910827636719 -11.306201934814453 0.455104887485504 0.000000000000000
21.080532073974609 -9.539493560791016 0.262509375810623 0.000000000000000
21.081098556518555 -0.718486249446869 -0.530245065689087 0.000000000000000
21.081378936767578 0.128421053290367 0.968378961086273 0.000000000000000
21.082208633422852 -6.955133914947510 0.081367067992687 0.000000000000000
21.090084075927734 -2.463335990905762 2.599617242813110 0.000000000000000
21.090158462524414 -2.241975069046021 1.219188690185547 0.000000000000000
21.090177536010742 3.207670927047729 2.611769676208496 0.000000000000000
21.097915649414062 -2.990657091140747 1.224927663803101 0.000000000000000
21.099142074584961 -4.009231090545654 0.697445094585419 0.000000000000000
21.099225997924805 -2.397984743118286 0.200141608715057 0.000000000000000
21.100725173950195 -3.553391218185425 1.684046149253845 0.000000000000000
21.100864410400391 -0.030201094225049 2.005768537521362 0.000000000000000
21.102478027343750 -1.732715129852295 0.524864494800568 0.000000000000000
21.102502822875977 -4.873448371887207 1.887206196784973 0.000000000000000
21.105308532714844 -18.489965438842773 2.815509080886841 0.000000000000000
21.106224060058594 -1.402613759040833 -0.369223088026047 0.000000000000000
21.109086990356445 -5.794992923736572 2.196496486663818 0.000000000000000
21.109315872192383 -6.506576538085938 -0.343150764703751 1.000000000000000
21.113979339599609 -0.876816391944885 0.402068912982941 0.000000000000000
21.115814208984375 -2.848965644836426 1.183793306350708 0.000000000000000
21.116502761840820 28.181875228881836 2.499561548233032 0.000000000000000
21.119131088256836 -10.380914688110352 3.131552696228027 0.000000000000000
21.124904632568359 -4.994104862213135 1.331472396850586 0.000000000000000
21.127990722656250 -1.233771681785583 1.747433900833130 0.000000000000000
21.129930496215820 0.838323116302490 -0.247292861342430 0.000000000000000
21.131193161010742 3.506580352783203 1.941848635673523 0.000000000000000
21.132703781127930 -8.025029182434082 1.255908250808716 0.000000000000000
21.132839202880859 -20.494884490966797 -0.740031123161316 1.000000000000000
21.135145187377930 -16.087844848632812 1.936572432518005 0.000000000000000
21.142419815063477 -0.805188417434692 1.624285101890564 0.000000000000000
21.142671585083008 -14.120675086975098 1.265707254409790 0.000000000000000
21.152938842773438 -3.199458837509155 0.324872195720673 0.000000000000000
21.154762268066406 -4.056919574737549 0.823728263378143 0.000000000000000
21.154830932617188 -8.283673286437988 -0.483825951814651 1.000000000000000
21.155612945556641 -8.928648948669434 0.657447040081024 1.000000000000000
21.156639099121094 3.070586681365967 1.270105361938477 0.000000000000000
21.157642364501953 -2.338068246841431 0.486773937940598 0.000000000000000
21.157968521118164 -4.666594028472900 1.579682230949402 0.000000000000000
21.159683227539062 4.044843673706055 1.570665359497070 0.000000000000000
21.160314559936523 -8.987251281738281 1.898182630538940 0.000000000000000
21.160453796386719 -2.025593042373657 0.894656538963318 0.000000000000000
21.160457611083984 -26.724674224853516 1.959516882896423 0.000000000000000
21.164440155029297 -1.434681177139282 1.923069357872009 0.000000000000000
21.165798187255859 -7.433728694915771 1.678890943527222 0.000000000000000
21.167362213134766 13.538130760192871 2.853912353515625 0.000000000000000
21.167371749877930 2.103831052780151 3.152507543563843 0.000000000000000
21.168863296508789 -6.580399036407471 1.787493228912354 0.000000000000000
21.169065475463867 -14.371360778808594 1.717390894889832 0.000000000000000
21.172763824462891 -3.984562873840332 1.238471627235413 0.000000000000000
21.174726486206055 -3.266290187835693 1.355465650558472 0.000000000000000
21.176536560058594 21.523841857910156 0.748489558696747 0.000000000000000
21.177362442016602 23.968679428100586 2.146805524826050 0.000000000000000
21.179512023925781 18.190273284912109 1.658680796623230 0.000000000000000
21.180202484130859 -0.187787353992462 1.217581748962402 0.000000000000000
21.180862426757812 -5.798004150390625 1.728297114372253 0.000000000000000
21.181449890136719 -2.147424697875977 -0.289851158857346 0.000000000000000
21.187170028686523 -1.987108707427979 0.404884308576584 0.000000000000000
21.189090728759766 1.281874537467957 -0.085214428603649 0.000000000000000
21.189807891845703 -9.563557624816895 -0.004057541489601 1.000000000000000
21.192295074462891 3.135464429855347 -1.115233063697815 0.000000000000000
21.193027496337891 -20.229862213134766 -1.018000245094299 1.000000000000000
21.196050643920898 -9.884781837463379 0.130622550845146 0.000000000000000
21.196392059326172 -13.798784255981445 2.203881740570068 0.000000000000000
21.200452804565430 -2.236113786697388 0.651325464248657 0.000000000000000
21.208366394042969 -0.362047523260117 0.729600846767426 0.000000000000000
21.208700180053711 -2.391681671142578 1.859774827957153 0.000000000000000
21.208705902099609 -7.642294883728027 1.209079623222351 0.000000000000000
21.211593627929688 -22.324249267578125 0.763358175754547 0.000000000000000
21.211936950683594 23.871454238891602 0.791608691215515 0.000000000000000
21.212852478027344 -15.334114074707031 1.958905100822449 0.000000000000000
21.214193344116211 -4.932014465332031 2.473812103271484 0.000000000000000
21.214647293090820 -11.185686111450195 1.471060276031494 0.000000000000000
21.219469070434570 -8.264166831970215 0.039744619280100 0.000000000000000
21.227752685546875 4.873114585876465 1.672049283981323 0.000000000000000
21.228153228759766 -1.037858486175537 1.344605803489685 0.000000000000000
21.232223510742188 -9.320735931396484 -0.004047069698572 0.000000000000000
21.236974716186523 -11.257690429687500 1.381716489791870 0.000000000000000
21.237873077392578 23.423755645751953 2.866366386413574 0.000000000000000
21.239768981933594 1.455068230628967 0.977923274040222 0.000000000000000
21.242160797119141 -15.600492477416992 1.464264869689941 0.000000000000000
21.245220184326172 -31.518684387207031 1.599751591682434 0.000000000000000
21.246999740600586 -8.739166259765625 1.320653796195984 0.000000000000000
21.250606536865234 -12.215691566467285 1.834421277046204 0.000000000000000
21.251924514770508 -1.015598416328430 1.797829747200012 0.000000000000000
21.260911941528320 -8.560627937316895 -0.752314209938049 0.000000000000000
21.262571334838867 -16.750629425048828 2.716067790985107 0.000000000000000
21.267751693725586 -10.702145576477051 2.263160943984985 0.000000000000000
21.268951416015625 -15.398414611816406 1.863767862319946 0.000000000000000
21.270345687866211 -1.860540032386780 1.021854043006897 0.000000000000000
21.271854400634766 -20.350566864013672 -0.740031123161316 1.000000000000000
21.272457122802734 24.170513153076172 3.230846643447876 0.000000000000000
21.275751113891602 -1.475805282592773 2.422349452972412 0.000000000000000
21.279062271118164 -18.282215118408203 0.318278431892395 0.000000000000000
21.290182113647461 -6.845367908477783 -0.132709860801697 1.000000000000000
21.291254043579102 3.873497962951660 1.369103789329529 0.000000000000000
21.292045593261719 5.008113861083984 3.241641044616699 0.000000000000000
21.292268753051758 -2.942426681518555 0.243859171867371 0.000000000000000
21.296461105346680 22.204652786254883 0.289977282285690 0.000000000000000
21.296773910522461 1.882708191871643 -0.085824593901634 0.000000000000000
21.297124862670898 -7.396443367004395 1.687249660491943 0.000000000000000
21.297649383544922 -8.480100631713867 1.052992939949036 0.000000000000000
21.300306320190430 -2.021348714828491 -0.003734306665137 0.000000000000000
21.301366806030273 4.071927547454834 1.966045022010803 0.000000000000000
21.304355621337891 -3.932377815246582 1.245358347892761 0.000000000000000
21.311292648315430 5.733874797821045 2.214467763900757 0.000000000000000
21.311775207519531 -5.833839893341064 1.397895097732544 0.000000000000000
21.312335968017578 -17.916160583496094 2.646600008010864 0.000000000000000
21.314037322998047 22.903741836547852 3.139392614364624 0.000000000000000
21.315658569335938 18.050163269042969 3.419653892517090 0.000000000000000
21.318723678588867 27.284780502319336 0.991379320621490 0.000000000000000
21.319557189941406 17.538280487060547 1.586942315101624 0.000000000000000
21.323881149291992 -4.973601818084717 1.385267257690430 0.000000000000000
21.324035644531250 0.118362002074718 1.595901727676392 0.000000000000000
21.324714660644531 0.674626827239990 0.733863472938538 0.000000000000000
21.324752807617188 -8.995649337768555 -0.403988301753998 1.000000000000000
21.324972152709961 -6.441637039184570 2.019493818283081 0.000000000000000
21.325258255004883 -8.934545516967773 -1.470872759819031 1.000000000000000
21.336391448974609 22.869270324707031 -0.666080415248871 0.000000000000000
21.338233947753906 28.288038253784180 2.036878347396851 0.000000000000000
21.338531494140625 -1.902151942253113 -0.456232309341431 0.000000000000000
21.339759826660156 -31.815649032592773 3.015026330947876 0.000000000000000
21.339981079101562 -8.899586677551270 -1.337218403816223 1.000000000000000
21.344621658325195 3.785919666290283 1.287897348403931 0.000000000000000
21.351789474487305 -17.842737197875977 1.117590188980103 0.000000000000000
21.351842880249023 2.974600553512573 2.296280145645142 0.000000000000000
21.353572845458984 2.865105152130127 0.906766951084137 0.000000000000000
21.355735778808594 -6.450930118560791 1.626511454582214 0.000000000000000
21.356107711791992 -13.954825401306152 0.926535725593567 0.000000000000000
21.356197357177734 -8.576045036315918 2.451342582702637 0.000000000000000
21.357189178466797 -0.513753056526184 0.734826028347015 0.000000000000000
21.359771728515625 18.839109420776367 1.417854666709900 0.000000000000000
21.362941741943359 -1.023146033287048 1.105895876884460 0.000000000000000
21.363437652587891 5.287322044372559 1.392338871955872 0.000000000000000
21.371143341064453 27.401096343994141 0.994928061962128 0.000000000000000
21.372730255126953 -0.284261137247086 -1.195026874542236 0.000000000000000
21.375965118408203 0.623967409133911 0.900038957595825 0.000000000000000
21.377635955810547 -3.157155990600586 0.328151881694794 0.000000000000000
21.378591537475586 17.405551910400391 2.936442375183105 0.000000000000000
21.385818481445312 -5.422565937042236 0.250302791595459 0.000000000000000
21.389131546020508 18.050916671752930 3.178938627243042 0.000000000000000
21.390043258666992 -0.101533293724060 1.270817160606384 0.000000000000000
21.391170501708984 -15.001084327697754 1.602566719055176 0.000000000000000
21.392078399658203 -1.408860445022583 1.728660225868225 0.000000000000000
21.392421722412109 4.561941623687744 1.299521327018738 0.000000000000000
21.392436981201172 0.923551321029663 0.571921825408936 0.000000000000000
21.392715454101562 -8.369933128356934 0.613574385643005 0.000000000000000
21.396680831909180 -6.569399356842041 -0.261745959520340 0.000000000000000
21.396842956542969 17.459547042846680 1.481144070625305 0.000000000000000
21.399505615234375 -9.012228012084961 0.441788822412491 0.000000000000000
21.399541854858398 23.957662582397461 1.908479213714600 0.000000000000000
21.401807785034180 -5.996436119079590 1.491834402084351 0.000000000000000
21.405298233032227 -1.832819104194641 -0.127487868070602 0.000000000000000
21.407522201538086 -0.601331651210785 0.037377949804068 0.000000000000000
21.407590866088867 -4.141442298889160 0.708091199398041 0.000000000000000
21.408367156982422 22.321331024169922 1.718331098556519 0.000000000000000
21.411508560180664 -1.377865433692932 2.626838684082031 0.000000000000000
21.422769546508789 2.191919803619385 0.244312956929207 0.000000000000000
21.424814224243164 0.078154131770134 1.644799232482910 0.000000000000000
21.428346633911133 -20.074752807617188 -0.738121271133423 1.000000000000000
21.428531646728516 -2.677420616149902 1.116636753082275 0.000000000000000
21.429126739501953 -6.605153083801270 -1.037877440452576 1.000000000000000
21.432016372680664 -1.958386898040771 0.988568842411041 0.000000000000000
21.442396163940430 -1.679264307022095 3.676438570022583 0.000000000000000
21.443874359130859 17.750007629394531 1.546586632728577 0.000000000000000
21.444057464599609 22.173427581787109 -0.301498740911484 0.000000000000000
21.447536468505859 20.907131195068359 1.837172269821167 0.000000000000000
21.451971054077148 17.766805648803711 1.601175069808960 0.000000000000000
21.454658508300781 4.612013816833496 1.769489645957947 0.000000000000000
21.456026077270508 4.690729618072510 2.494577646255493 0.000000000000000
21.456995010375977 -7.053870201110840 1.298386573791504 0.000000000000000
21.458444595336914 0.825100362300873 1.731553673744202 0.000000000000000
21.458578109741211 16.383192062377930 0.876739919185638 0.000000000000000
21.466266632080078 1.524417877197266 0.574805498123169 0.000000000000000
21.469532012939453 -4.510252952575684 1.218852281570435 0.000000000000000
21.472061157226562 -5.894639015197754 1.709403157234192 0.000000000000000
21.472753524780273 -8.263262748718262 0.437755942344666 0.000000000000000
21.474534988403320 -7.161115169525146 0.822151601314545 0.000000000000000
21.484256744384766 -2.441744565963745 0.868452012538910 0.000000000000000
21.484766006469727 -14.417577743530273 2.254577636718750 0.000000000000000
21.485126495361328 21.431932449340820 1.861416459083557 0.000000000000000
21.486267089843750 -17.955114364624023 1.555684208869934 0.000000000000000
21.489196777343750 -10.292207717895508 0.499099761247635 0.000000000000000
21.490486145019531 -0.044259443879128 -0.251315414905548 0.000000000000000
21.492034912109375 -10.677156448364258 1.935057759284973 0.000000000000000
21.492956161499023 -7.246544361114502 1.172819733619690 0.000000000000000
21.496915817260742 17.574979782104492 2.639408349990845 0.000000000000000
21.497224807739258 18.333135604858398 3.459027051925659 0.000000000000000
21.501110076904297 -3.698043584823608 0.373196065425873 0.000000000000000
21.502353668212891 -9.991097450256348 1.408645033836365 0.000000000000000
21.507385253906250 -10.741002082824707 1.381946086883545 0.000000000000000
21.511125564575195 -22.851810455322266 2.409330844879150 0.000000000000000
21.513362884521484 -6.077935695648193 -1.206814765930176 1.000000000000000
21.520015716552734 -1.744314670562744 0.867167830467224 0.000000000000000
21.522857666015625 17.579900741577148 2.519311189651489 0.000000000000000
21.524486541748047 -6.816393375396729 0.299503684043884 0.000000000000000
21.524667739868164 -4.832637786865234 1.565836906433105 0.000000000000000
21.528560638427734 -17.809339523315430 1.767636418342590 0.000000000000000
21.530807495117188 18.670974731445312 3.035580635070801 0.000000000000000
21.532873153686523 -0.755331039428711 2.295009136199951 1.000000000000000
21.539562225341797 19.040536880493164 1.154672026634216 0.000000000000000
21.540166854858398 -15.771946907043457 0.764369487762451 0.000000000000000
21.542800903320312 -15.114707946777344 2.293120145797729 0.000000000000000
21.547357559204102 -6.762445449829102 -0.134015366435051 0.000000000000000
21.555646896362305 -18.519847869873047 1.196071267127991 0.000000000000000
21.559326171875000 25.758159637451172 3.577875852584839 0.000000000000000
21.559694290161133 0.560042142868042 2.640449047088623 0.000000000000000
21.568288803100586 26.125389099121094 0.969971895217896 0.000000000000000
21.571298599243164 -9.126273155212402 2.226444959640503 0.000000000000000
21.572128295898438 -10.855310440063477 1.434739947319031 0.000000000000000
21.574529647827148 -1.583955645561218 0.702508509159088 0.000000000000000
21.575099945068359 -15.668323516845703 0.917157471179962 0.000000000000000
21.575511932373047 -19.792493820190430 -0.736010313034058 1.000000000000000
21.580596923828125 16.786748886108398 2.598906755447388 0.000000000000000
21.582069396972656 6.221593856811523 2.392452716827393 0.000000000000000
21.583017349243164 -10.549598693847656 0.780146658420563 0.000000000000000
21.583812713623047 23.677915573120117 3.214872121810913 0.000000000000000
21.585147857666016 -10.550640106201172 1.890864372253418 0.000000000000000
21.586547851562500 -0.423527449369431 1.199547648429871 0.000000000000000
21.588979721069336 -24.419931411743164 1.999290108680725 0.000000000000000
21.594512939453125 -8.921787261962891 -1.351306557655334 1.000000000000000
21.595188140869141 0.404093891382217 -0.750478267669678 0.000000000000000
21.596782684326172 -11.152659416198730 2.310475826263428 0.000000000000000
21.603837966918945 -11.217028617858887 2.592847824096680 0.000000000000000
21.604169845581055 1.751897215843201 -0.461597710847855 0.000000000000000
21.621795654296875 -8.970191001892090 -1.489157080650330 1.000000000000000
21.630437850952148 6.153832912445068 2.395418405532837 0.000000000000000
21.631719589233398 22.183893203735352 3.519313573837280 0.000000000000000
21.634017944335938 13.790882110595703 3.802242994308472 0.000000000000000
21.634607315063477 20.272953033447266 2.276142597198486 0.000000000000000
21.643779754638672 3.369215726852417 2.681766986846924 0.000000000000000
21.645030975341797 -1.923390746116638 1.584336042404175 0.000000000000000
21.648200988769531 -9.861547470092773 2.386992692947388 0.000000000000000
21.652517318725586 11.172830581665039 3.242357492446899 0.000000000000000
21.652948379516602 -16.573501586914062 2.093353033065796 0.000000000000000
21.653469085693359 -9.107617378234863 -0.229603499174118 1.000000000000000
21.654939651489258 3.599718570709229 2.687599897384644 0.000000000000000
21.660886764526367 -8.523280143737793 1.472651481628418 0.000000000000000
21.663007736206055 -19.949483871459961 0.390654683113098 0.000000000000000
21.664548873901367 -6.626825809478760 3.872560262680054 0.000000000000000
21.672155380249023 -7.273279190063477 1.710832953453064 0.000000000000000
21.677869796752930 -6.555670738220215 0.866068661212921 0.000000000000000
21.679782867431641 -9.290175437927246 -0.910222530364990 1.000000000000000
21.682781219482422 -4.994305610656738 1.708178520202637 0.000000000000000
21.687040328979492 4.440667152404785 1.443175911903381 0.000000000000000
21.687755584716797 -7.420726776123047 1.450173974037170 0.000000000000000
21.690755844116211 24.500576019287109 2.070198059082031 0.000000000000000
21.691541671752930 0.794644534587860 0.287937372922897 0.000000000000000
21.695205688476562 -10.383428573608398 3.200673818588257 0.000000000000000
21.695531845092773 1.388543963432312 -0.421223521232605 0.000000000000000
21.696327209472656 22.152465820312500 -0.184004098176956 0.000000000000000
21.697330474853516 -7.849613189697266 1.104267716407776 0.000000000000000
21.698043823242188 -8.576848030090332 0.623186588287354 0.000000000000000
21.700929641723633 -2.404239416122437 1.802730441093445 0.000000000000000
21.705024719238281 20.319028854370117 0.508586525917053 0.000000000000000
21.707229614257812 -19.636018753051758 -0.735809266567230 1.000000000000000
21.709981918334961 0.511251747608185 -0.003790157148615 0.000000000000000
21.712148666381836 -19.520906448364258 -0.790056169033051 1.000000000000000
21.713968276977539 3.451594591140747 0.249440625309944 0.000000000000000
21.715250015258789 2.082531452178955 0.960087835788727 0.000000000000000
21.718362808227539 23.787965774536133 0.241746097803116 0.000000000000000
21.725339889526367 18.082889556884766 3.210538625717163 0.000000000000000
21.729900360107422 -0.230976998806000 1.040019392967224 0.000000000000000
21.737264633178711 -10.256134033203125 0.780536115169525 0.000000000000000
21.741416931152344 2.145569801330566 0.205909505486488 0.000000000000000
21.745761871337891 -2.775667190551758 1.217964768409729 0.000000000000000
21.746780395507812 -17.695827484130859 3.730953454971313 0.000000000000000
21.748331069946289 -9.229826927185059 0.540270626544952 1.000000000000000
21.750522613525391 26.516319274902344 3.441311120986938 0.000000000000000
21.751718521118164 -8.075566291809082 1.691664934158325 0.000000000000000
21.755443572998047 -0.502822518348694 1.544596672058105 0.000000000000000
21.758607864379883 -1.747598052024841 -0.381020933389664 0.000000000000000
21.759164810180664 -16.165084838867188 2.887296915054321 0.000000000000000
21.765691757202148 -10.176808357238770 0.780276477336884 0.000000000000000
21.766494750976562 -9.041802406311035 -0.818956077098846 1.000000000000000
21.772321701049805 -14.192115783691406 2.356076002120972 0.000000000000000
21.775394439697266 -14.194117546081543 1.494200468063354 0.000000000000000
21.783611297607422 16.969697952270508 2.770780563354492 0.000000000000000
21.789512634277344 -11.800719261169434 2.639451265335083 0.000000000000000
21.790437698364258 1.322082281112671 -0.255291163921356 0.000000000000000
21.797105789184570 -11.399127006530762 2.793872594833374 0.000000000000000
21.797714233398438 -9.054771423339844 0.630449056625366 0.000000000000000
21.805877685546875 -8.112133026123047 0.532040357589722 0.000000000000000
21.814105987548828 0.722890496253967 0.289529085159302 0.000000000000000
21.815406799316406 -27.766283035278320 2.506358623504639 0.000000000000000
21.818069458007812 -11.170637130737305 1.834421277046204 0.000000000000000
21.823526382446289 18.193016052246094 1.578539133071899 0.000000000000000
21.825031280517578 -9.609609603881836 0.224758774042130 0.000000000000000
21.828535079956055 -11.126032829284668 1.975565791130066 0.000000000000000
21.829479217529297 -9.530712127685547 0.178765431046486 1.000000000000000
21.830461502075195 -7.176646709442139 0.084225915372372 0.000000000000000
21.832443237304688 -6.339604854583740 2.783360004425049 0.000000000000000
21.833873748779297 -6.526391029357910 -1.274070143699646 1.000000000000000
21.838762283325195 19.071981430053711 2.281904458999634 0.000000000000000
21.839429855346680 -10.864476203918457 1.919737219810486 0.000000000000000
21.840024948120117 -8.649723052978516 -0.906520545482635 1.000000000000000
21.841705322265625 -1.212728261947632 2.484646081924438 0.000000000000000
21.844923019409180 -8.641960144042969 -0.861420273780823 1.000000000000000
21.846504211425781 -9.970763206481934 1.982773065567017 0.000000000000000
21.849578857421875 4.278413772583008 1.022708058357239 0.000000000000000
21.851978302001953 -16.115966796875000 2.136912107467651 0.000000000000000
21.853685379028320 -10.217950820922852 0.412670671939850 0.000000000000000
21.854928970336914 17.740766525268555 2.675745964050293 0.000000000000000
21.856494903564453 2.313412666320801 0.249349877238274 0.000000000000000
21.873310089111328 -8.061682701110840 0.130198091268539 0.000000000000000
21.874303817749023 0.159975424408913 1.341757774353027 0.000000000000000
21.883672714233398 18.448007583618164 3.048714399337769 0.000000000000000
21.887697219848633 -10.758696556091309 1.308051228523254 0.000000000000000
21.889514923095703 -2.615591287612915 0.546473681926727 0.000000000000000
21.889600753784180 -8.385977745056152 2.869884252548218 0.000000000000000
21.898036956787109 -14.043181419372559 1.545524239540100 0.000000000000000
21.902437210083008 17.698925018310547 1.781526923179626 0.000000000000000
21.903928756713867 26.356269836425781 2.697110176086426 0.000000000000000
21.911422729492188 19.762392044067383 2.804820775985718 0.000000000000000
21.918178558349609 2.014779567718506 0.249712884426117 0.000000000000000
21.919652938842773 4.552108764648438 1.805175185203552 0.000000000000000
21.923370361328125 -10.369683265686035 2.113254308700562 0.000000000000000
21.924116134643555 0.716576814651489 -0.088056519627571 0.000000000000000
21.925085067749023 14.130840301513672 2.962705850601196 0.000000000000000
21.928447723388672 2.932110786437988 -0.131285682320595 0.000000000000000
21.931379318237305 -0.160385534167290 0.038278542459011 0.000000000000000
21.935503005981445 -9.161878585815430 0.041489947587252 1.000000000000000
21.943574905395508 -2.144626379013062 -0.723707079887390 0.000000000000000
21.944490432739258 -20.947172164916992 0.810302674770355 0.000000000000000
21.944662094116211 3.022437095642090 -0.088923595845699 0.000000000000000
21.945266723632812 -8.497910499572754 1.352792024612427 0.000000000000000
21.945661544799805 -21.432331085205078 1.586136460304260 0.000000000000000
21.950506210327148 19.326122283935547 1.906626224517822 0.000000000000000
21.952474594116211 -26.202777862548828 1.899172902107239 0.000000000000000
21.958135604858398 -8.763962745666504 0.268226951360703 0.000000000000000
21.962083816528320 -1.787089705467224 0.969760894775391 0.000000000000000
21.963594436645508 -2.573911428451538 1.228615522384644 0.000000000000000
21.966381072998047 4.129947185516357 2.124623537063599 0.000000000000000
21.972175598144531 -10.446315765380859 1.961741685867310 0.000000000000000
21.972332000732422 4.076698780059814 1.413805961608887 0.000000000000000
21.976884841918945 -22.467140197753906 1.867202043533325 0.000000000000000
21.982698440551758 -6.568369388580322 1.230502128601074 0.000000000000000
21.984067916870117 -3.038027763366699 2.011909723281860 0.000000000000000
21.985290527343750 -15.377687454223633 1.645667552947998 0.000000000000000
21.994131088256836 24.592212677001953 2.990959882736206 0.000000000000000
22.000331878662109 -10.740262031555176 1.501671671867371 0.000000000000000
22.002683639526367 -28.606164932250977 2.561583280563354 0.000000000000000
22.006383895874023 -11.902778625488281 2.841723680496216 0.000000000000000
22.006652832031250 -13.029737472534180 1.223968505859375 0.000000000000000
22.008869171142578 -8.587094306945801 0.585627913475037 0.000000000000000
22.009841918945312 -9.690981864929199 2.095545291900635 0.000000000000000
22.019603729248047 24.832702636718750 1.333017706871033 0.000000000000000
22.020671844482422 1.585796475410461 0.674534738063812 0.000000000000000
22.022798538208008 -2.338786125183105 2.711418390274048 0.000000000000000
22.023683547973633 -6.439758300781250 -0.312394529581070 1.000000000000000
22.025020599365234 7.571792125701904 3.981067180633545 0.000000000000000
22.026109695434570 -9.495968818664551 0.318179547786713 0.000000000000000
22.033851623535156 18.463716506958008 3.265161037445068 0.000000000000000
22.039840698242188 -17.846874237060547 3.020752191543579 0.000000000000000
22.040719985961914 -10.868802070617676 1.554731965065002 0.000000000000000
22.041913986206055 5.511203765869141 1.700384497642517 0.000000000000000
22.043487548828125 2.564565658569336 1.575182676315308 0.000000000000000
22.044002532958984 13.075243949890137 3.410675048828125 0.000000000000000
22.051944732666016 3.279160499572754 0.981192648410797 0.000000000000000
22.058916091918945 21.914644241333008 -0.602467417716980 0.000000000000000
22.058980941772461 23.862445831298828 2.494755029678345 0.000000000000000
22.060379028320312 5.795253276824951 1.751043677330017 0.000000000000000
22.068607330322266 -0.053153477609158 1.098643422126770 0.000000000000000
22.072191238403320 2.949762821197510 1.108587741851807 0.000000000000000
22.075056076049805 -16.935113906860352 0.262231141328812 0.000000000000000
22.077203750610352 -17.749893188476562 3.017362833023071 0.000000000000000
22.081378936767578 0.627588510513306 1.482726454734802 0.000000000000000
22.086244583129883 -8.747238159179688 2.007318496704102 0.000000000000000
22.087772369384766 -9.447671890258789 -0.465469062328339 0.000000000000000
22.094505310058594 -18.909208297729492 -0.786918401718140 1.000000000000000
22.096357345581055 -7.995280265808105 0.672787070274353 0.000000000000000
22.097314834594727 -8.319921493530273 2.890786409378052 0.000000000000000
22.104625701904297 -16.947998046875000 0.743979036808014 0.000000000000000
22.105682373046875 26.833511352539062 -0.339811623096466 0.000000000000000
22.113849639892578 2.588388681411743 3.299695014953613 0.000000000000000
22.114063262939453 5.309523582458496 1.438809037208557 0.000000000000000
22.120967864990234 -11.627561569213867 1.436581134796143 0.000000000000000
22.122529983520508 6.026316642761230 2.179508686065674 0.000000000000000
22.122655868530273 -12.760168075561523 3.398539304733276 0.000000000000000
22.134872436523438 27.766620635986328 3.563116788864136 0.000000000000000
22.137683868408203 4.678060054779053 1.824464678764343 0.000000000000000
22.138532638549805 2.045155763626099 1.320871710777283 0.000000000000000
22.139957427978516 -4.872646331787109 2.154904842376709 0.000000000000000
22.147878646850586 -10.418224334716797 0.888934135437012 0.000000000000000
22.148134231567383 -6.510989665985107 -1.468587279319763 1.000000000000000
22.148826599121094 18.155084609985352 1.811833620071411 0.000000000000000
22.148988723754883 19.090864181518555 1.793581724166870 0.000000000000000
22.152818679809570 7.339646339416504 -1.035241603851318 0.000000000000000
22.155391693115234 0.379379600286484 1.060479521751404 0.000000000000000
22.157636642456055 -5.103681564331055 2.281560897827148 0.000000000000000
22.157653808593750 -17.611106872558594 2.565898180007935 0.000000000000000
22.161676406860352 -4.638697147369385 2.152255296707153 0.000000000000000
22.162530899047852 -28.411691665649414 2.557618379592896 0.000000000000000
22.164567947387695 -10.204874992370605 1.449685096740723 0.000000000000000
22.166887283325195 -7.584666728973389 0.400766700506210 0.000000000000000
22.167997360229492 -6.151479721069336 1.101017117500305 0.000000000000000
22.170541763305664 19.547342300415039 1.926923394203186 0.000000000000000
22.172496795654297 -23.122072219848633 3.214473009109497 0.000000000000000
22.173795700073242 -8.485978126525879 1.410542845726013 0.000000000000000
22.174037933349609 17.700042724609375 1.904372453689575 0.000000000000000
22.184951782226562 -9.525903701782227 0.459365993738174 0.000000000000000
22.188549041748047 -7.752063274383545 0.447191327810287 0.000000000000000
22.189226150512695 -5.708785533905029 0.611972391605377 0.000000000000000
22.193557739257812 -20.094264984130859 2.414080381393433 0.000000000000000
22.193861007690430 0.543181419372559 1.105206727981567 0.000000000000000
22.195646286010742 19.112186431884766 3.119890689849854 0.000000000000000
22.196403503417969 -18.061695098876953 0.654396772384644 0.000000000000000
22.198146820068359 27.379196166992188 -0.209164604544640 0.000000000000000
22.199054718017578 25.158617019653320 1.864113926887512 0.000000000000000
22.199911117553711 -6.094452381134033 0.703363120555878 0.000000000000000
22.204370498657227 -18.742898941040039 -0.786269187927246 1.000000000000000
22.210199356079102 3.052680492401123 0.211300402879715 0.000000000000000
22.219165802001953 -0.701759278774261 2.367880105972290 0.000000000000000
22.220348358154297 6.136367321014404 2.191242694854736 0.000000000000000
22.221618652343750 19.606166839599609 2.686518907546997 0.000000000000000
22.221925735473633 24.555580139160156 0.820949554443359 0.000000000000000
22.229860305786133 -21.311708450317383 0.881709337234497 0.000000000000000
22.229984283447266 2.431436061859131 0.253706097602844 0.000000000000000
22.230186462402344 -11.409073829650879 1.628972411155701 0.000000000000000
22.237894058227539 25.786520004272461 2.967097520828247 0.000000000000000
22.242218017578125 3.110899209976196 0.772502303123474 0.000000000000000
22.254709243774414 -0.236555427312851 0.038844026625156 0.000000000000000
22.255918502807617 20.811435699462891 2.339215517044067 0.000000000000000
22.262214660644531 1.883497118949890 -1.163061380386353 0.000000000000000
22.267950057983398 -9.257399559020996 -0.143106386065483 0.000000000000000
22.270549774169922 -8.910289764404297 1.656292796134949 0.000000000000000
22.274734497070312 -5.685626029968262 1.809266924858093 0.000000000000000
22.288604736328125 -4.456939697265625 2.581702709197998 0.000000000000000
22.290981292724609 -5.022672176361084 1.842468261718750 0.000000000000000
22.296802520751953 24.764858245849609 3.020934581756592 0.000000000000000
22.305555343627930 -1.952267646789551 0.641076683998108 0.000000000000000
22.305601119995117 -14.028107643127441 2.226574182510376 0.000000000000000
22.305704116821289 -11.487698554992676 2.672497272491455 0.000000000000000
22.307636260986328 -6.668004512786865 -0.227570563554764 1.000000000000000
22.308635711669922 -10.869083404541016 2.096906661987305 0.000000000000000
22.312931060791016 -9.527399063110352 0.321840465068817 0.000000000000000
22.314895629882812 -6.560013771057129 2.210925579071045 0.000000000000000
22.317163467407227 3.633784055709839 1.866913914680481 0.000000000000000
22.317697525024414 26.200963973999023 2.999042987823486 0.000000000000000
22.317714691162109 -6.311911106109619 -1.475443840026855 1.000000000000000
22.319826126098633 18.689414978027344 3.100825548171997 0.000000000000000
22.330314636230469 -10.105052947998047 1.031571507453918 0.000000000000000
22.332035064697266 2.125163078308105 -0.822578012943268 0.000000000000000
22.336442947387695 21.227622985839844 0.586287081241608 0.000000000000000
22.342111587524414 -10.336757659912109 0.846754968166351 0.000000000000000
22.349880218505859 28.728317260742188 -0.355762273073196 0.000000000000000
22.350448608398438 -4.773571968078613 3.041326045989990 0.000000000000000
22.351888656616211 -13.395351409912109 1.849607586860657 0.000000000000000
22.355194091796875 27.091077804565430 1.680972814559937 0.000000000000000
22.364511489868164 -6.855447292327881 0.130644902586937 0.000000000000000
22.365596771240234 2.677225112915039 1.251470446586609 0.000000000000000
22.367822647094727 -1.394722342491150 1.807104229927063 0.000000000000000
22.371789932250977 24.660537719726562 2.363340377807617 0.000000000000000
22.374271392822266 0.653108060359955 -0.433699041604996 0.000000000000000
22.376266479492188 25.857395172119141 2.295212268829346 0.000000000000000
22.377849578857422 -18.491523742675781 -0.785511851310730 1.000000000000000
22.386478424072266 0.461514085531235 1.416584134101868 0.000000000000000
22.391014099121094 -10.063860893249512 3.005503654479980 0.000000000000000
22.394308090209961 -23.821676254272461 0.559280931949615 0.000000000000000
22.399179458618164 -0.073496878147125 1.806139588356018 0.000000000000000
22.399213790893555 1.901387214660645 -1.126975774765015 0.000000000000000
22.399705886840820 26.365217208862305 -0.537435114383698 0.000000000000000
22.402957916259766 21.559616088867188 0.054265748709440 0.000000000000000
22.404762268066406 -8.586029052734375 2.175144910812378 0.000000000000000
22.406211853027344 -8.870340347290039 1.199677228927612 0.000000000000000
22.407541275024414 -11.818153381347656 2.877386331558228 0.000000000000000
22.409084320068359 -3.017083644866943 2.049829483032227 0.000000000000000
22.410358428955078 -10.232835769653320 3.016197919845581 0.000000000000000
22.413835525512695 -7.312117576599121 2.677856206893921 0.000000000000000
22.422037124633789 25.298109054565430 2.073492050170898 0.000000000000000
22.423709869384766 -18.398080825805664 -0.784862637519836 1.000000000000000
22.431989669799805 3.089556694030762 -0.438735753297806 0.000000000000000
22.436893463134766 -10.628876686096191 0.663130283355713 0.000000000000000
22.447715759277344 -5.633478641510010 0.440343052148819 0.000000000000000
22.449911117553711 25.101831436157227 1.935872316360474 0.000000000000000
22.458477020263672 -2.943955183029175 1.302059531211853 0.000000000000000
22.462823867797852 -4.050604343414307 2.169667005538940 0.000000000000000
22.465425491333008 -10.680824279785156 1.621686220169067 0.000000000000000
22.468984603881836 4.376485347747803 1.668977499008179 0.000000000000000
22.473237991333008 23.183300018310547 0.056353162974119 0.000000000000000
22.474525451660156 -4.121198177337646 2.292742967605591 0.000000000000000
22.476629257202148 4.622794628143311 1.673049569129944 0.000000000000000
22.481605529785156 -2.739685058593750 1.476483941078186 0.000000000000000
22.485219955444336 -11.087995529174805 1.973089456558228 0.000000000000000
22.488267898559570 -9.901634216308594 3.641568660736084 0.000000000000000
22.488283157348633 22.826801300048828 1.903734803199768 0.000000000000000
22.488300323486328 -2.077467679977417 1.646580934524536 0.000000000000000
22.493646621704102 -1.730396866798401 0.732628941535950 0.000000000000000
22.496376037597656 -2.189141035079956 1.822535753250122 0.000000000000000
22.502548217773438 19.125457763671875 2.381288290023804 0.000000000000000
22.503274917602539 -5.660365581512451 1.826214075088501 0.000000000000000
22.507730484008789 -10.169251441955566 2.152144193649292 0.000000000000000
22.512557983398438 -7.657762527465820 0.178465232253075 0.000000000000000
22.526718139648438 -13.405181884765625 1.810046195983887 0.000000000000000
22.536687850952148 4.412958145141602 2.304324626922607 0.000000000000000
22.539377212524414 21.013912200927734 1.652737379074097 0.000000000000000
22.540697097778320 24.500827789306641 2.363057374954224 0.000000000000000
22.545989990234375 4.087544441223145 0.920302331447601 0.000000000000000
22.553140640258789 -5.164529800415039 1.865615725517273 0.000000000000000
22.558607101440430 -6.740449428558350 1.989467978477478 0.000000000000000
22.561805725097656 22.729404449462891 0.363338351249695 0.000000000000000
22.565397262573242 -6.237584590911865 0.130756601691246 0.000000000000000
22.567773818969727 -17.428520202636719 0.323496848344803 0.000000000000000
22.571258544921875 28.459465026855469 2.648316621780396 0.000000000000000
22.579324722290039 2.629290819168091 0.607166349887848 0.000000000000000
22.583152770996094 3.747523784637451 3.912997484207153 0.000000000000000
22.586170196533203 2.723633050918579 1.982347607612610 0.000000000000000
22.587411880493164 -6.169895172119141 -0.993658006191254 1.000000000000000
22.588716506958008 -15.532922744750977 1.101055860519409 0.000000000000000
22.594104766845703 4.679423332214355 1.104267716407776 0.000000000000000
22.601406097412109 1.779570221900940 -1.485959291458130 0.000000000000000
22.604370117187500 0.279335379600525 2.148848533630371 0.000000000000000
22.611000061035156 16.246452331542969 2.646600008010864 0.000000000000000
22.619413375854492 -6.009260177612305 1.887155652046204 0.000000000000000
22.629724502563477 -6.496663093566895 -0.094511426985264 0.000000000000000
22.633144378662109 -1.841695070266724 -0.047559484839439 0.000000000000000
22.634199142456055 21.432567596435547 2.963041543960571 0.000000000000000
22.637166976928711 3.485006093978882 0.435777574777603 0.000000000000000
22.639207839965820 18.431892395019531 1.846938729286194 0.000000000000000
22.643133163452148 -18.826744079589844 0.164467811584473 0.000000000000000
22.657381057739258 -10.527781486511230 1.099554777145386 0.000000000000000
22.657472610473633 -16.488216400146484 2.441735744476318 0.000000000000000
22.667924880981445 -5.555612087249756 2.341864585876465 0.000000000000000
22.680171966552734 22.060129165649414 1.757827758789062 0.000000000000000
22.681715011596680 -21.307743072509766 0.472579985857010 0.000000000000000
22.684972763061523 2.854514122009277 0.435016661882401 0.000000000000000
22.685539245605469 -6.497262001037598 2.243099451065063 0.000000000000000
22.687601089477539 -15.757139205932617 2.120602846145630 0.000000000000000
22.687803268432617 3.146580457687378 0.567785441875458 0.000000000000000
22.687913894653320 30.447040557861328 2.548628568649292 0.000000000000000
22.688003540039062 3.356758832931519 0.216163501143456 0.000000000000000
22.694417953491211 3.206457138061523 -0.092006541788578 0.000000000000000
22.695344924926758 -2.457087278366089 0.741327524185181 0.000000000000000
22.695594787597656 3.119395494461060 0.567884564399719 0.000000000000000
22.701934814453125 23.043670654296875 -0.067749440670013 0.000000000000000
22.712667465209961 3.146000385284424 0.920944452285767 0.000000000000000
22.714212417602539 -18.444860458374023 2.652571678161621 0.000000000000000
22.719495773315430 -22.338861465454102 1.708863973617554 0.000000000000000
22.724700927734375 -5.467884540557861 1.478712916374207 0.000000000000000
22.729503631591797 3.694407701492310 0.615069627761841 0.000000000000000
22.739826202392578 -0.366757065057755 1.614264845848083 0.000000000000000
22.740629196166992 23.082944869995117 -0.565597593784332 0.000000000000000
22.756952285766602 19.658515930175781 2.192532777786255 0.000000000000000
22.761161804199219 -10.770819664001465 3.731874704360962 0.000000000000000
22.761411666870117 -15.534931182861328 1.531054258346558 0.000000000000000
22.768514633178711 23.162134170532227 2.054792165756226 0.000000000000000
22.771327972412109 27.595369338989258 3.810893297195435 0.000000000000000
22.779535293579102 -5.446181297302246 3.116778612136841 0.000000000000000
22.780025482177734 23.045579910278320 -0.876830279827118 0.000000000000000
22.784584045410156 -2.538789749145508 1.848576664924622 0.000000000000000
22.788867950439453 -4.288702011108398 2.102194547653198 0.000000000000000
22.792118072509766 21.407720565795898 2.219472646713257 0.000000000000000
22.793922424316406 3.382999420166016 0.969842016696930 0.000000000000000
22.796283721923828 18.503593444824219 2.558405637741089 0.000000000000000
22.799520492553711 -4.975684642791748 1.431387901306152 0.000000000000000
22.799528121948242 -6.124471187591553 1.630116224288940 0.000000000000000
22.799697875976562 -7.377727031707764 2.404564619064331 0.000000000000000
22.799846649169922 2.493765592575073 0.612613141536713 0.000000000000000
22.804594039916992 -10.526578903198242 1.250393033027649 0.000000000000000
22.814054489135742 23.306707382202148 1.874809622764587 0.000000000000000
22.818723678588867 4.385527610778809 1.425265550613403 0.000000000000000
22.823850631713867 -20.825708389282227 3.291052579879761 0.000000000000000
22.827911376953125 18.513389587402344 1.689555287361145 0.000000000000000
22.833364486694336 -23.527667999267578 1.884680509567261 0.000000000000000
22.834276199340820 -11.181948661804199 1.951897859573364 0.000000000000000
22.835512161254883 -4.858836174011230 1.747252583503723 0.000000000000000
22.835973739624023 -4.762781143188477 1.790847182273865 0.000000000000000
22.838947296142578 0.537837922573090 2.292343616485596 0.000000000000000
22.841312408447266 -10.761942863464355 2.867906332015991 0.000000000000000
22.842622756958008 -9.753571510314941 0.711137175559998 0.000000000000000
22.845895767211914 -7.582993030548096 2.288143157958984 0.000000000000000
22.848831176757812 20.734056472778320 0.350042730569839 0.000000000000000
22.851375579833984 1.974329471588135 -0.400358200073242 0.000000000000000
22.857961654663086 -4.555855751037598 1.564430356025696 0.000000000000000
22.860948562622070 -4.302267074584961 1.696027874946594 0.000000000000000
22.861206054687500 22.081447601318359 2.256006002426147 0.000000000000000
22.863916397094727 -17.715265274047852 -0.838230013847351 1.000000000000000
22.865140914916992 4.467732429504395 3.452746391296387 0.000000000000000
22.865238189697266 -15.928478240966797 2.648871183395386 0.000000000000000
