# This PCD file was generated using the MATLAB® pcwrite function
# from Computer Vision Toolbox®.
# .PCD v.7 - Point Cloud Data file format
VERSION .7
FIELDS x y z intensity
SIZE 8 8 8 8
TYPE F F F F
COUNT 1 1 1 1
WIDTH 643
HEIGHT 1
VIEWPOINT 0 0 0 1 0 0 0
POINTS 643
DATA ascii
15.253501892089844 20.654619216918945 2.169655323028564 1.000000000000000
15.254255294799805 10.018650054931641 1.295376777648926 0.000000000000000
15.254834175109863 -7.291222095489502 1.428698778152466 0.000000000000000
15.255966186523438 12.816700935363770 -0.768930554389954 0.000000000000000
15.256006240844727 -2.265327692031860 1.064976215362549 0.000000000000000
15.258464813232422 -7.753119945526123 1.181806683540344 0.000000000000000
15.259201049804688 -6.522455215454102 2.459378242492676 0.000000000000000
15.260430335998535 -4.622220993041992 1.224107861518860 0.000000000000000
15.261067390441895 13.911356925964355 -0.281138718128204 0.000000000000000
15.261104583740234 -18.477691650390625 -1.293708920478821 1.000000000000000
15.261630058288574 11.356627464294434 -0.149412617087364 0.000000000000000
15.261815071105957 20.207595825195312 0.919712245464325 1.000000000000000
15.264348983764648 6.210004329681396 -0.161070391535759 0.000000000000000
15.264702796936035 12.134260177612305 1.767779350280762 0.000000000000000
15.266735076904297 12.909627914428711 1.033808112144470 0.000000000000000
15.271698951721191 1.322409272193909 0.468338668346405 0.000000000000000
15.271931648254395 20.887853622436523 2.459612131118774 0.000000000000000
15.273303985595703 3.922661066055298 2.098430395126343 0.000000000000000
15.273892402648926 12.020236015319824 0.668548703193665 0.000000000000000
15.275548934936523 21.173856735229492 1.500857710838318 1.000000000000000
15.277669906616211 1.600628972053528 0.971833825111389 0.000000000000000
15.279238700866699 -6.784868240356445 1.186626195907593 0.000000000000000
15.279333114624023 0.950316131114960 0.467727899551392 0.000000000000000
15.279356956481934 14.976233482360840 1.188675045967102 0.000000000000000
15.280247688293457 12.583532333374023 0.224573701620102 0.000000000000000
15.280504226684570 11.353268623352051 0.362196832895279 0.000000000000000
15.282823562622070 20.926525115966797 0.393502861261368 1.000000000000000
15.283506393432617 0.926211893558502 0.791725635528564 0.000000000000000
15.283694267272949 11.804919242858887 -0.077523134648800 0.000000000000000
15.287003517150879 -10.597463607788086 1.140947222709656 0.000000000000000
15.288066864013672 -17.097572326660156 0.612613141536713 0.000000000000000
15.291548728942871 19.883762359619141 1.490250587463379 0.000000000000000
15.294528007507324 -1.632353544235229 1.032416820526123 0.000000000000000
15.296395301818848 -8.314254760742188 1.471135258674622 0.000000000000000
15.298138618469238 14.071296691894531 -0.522505044937134 0.000000000000000
15.299220085144043 0.199743330478668 3.182513713836670 0.000000000000000
15.300468444824219 20.991407394409180 0.095206804573536 1.000000000000000
15.301019668579102 -9.144419670104980 2.641749620437622 0.000000000000000
15.301524162292480 1.495207309722900 0.735796093940735 0.000000000000000
15.302530288696289 15.984122276306152 2.103426218032837 0.000000000000000
15.308053970336914 10.744331359863281 0.715202152729034 0.000000000000000
15.309041023254395 -0.074271507561207 1.387860178947449 0.000000000000000
15.310368537902832 13.984221458435059 -1.159301042556763 0.000000000000000
15.311445236206055 -17.293056488037109 -1.335832715034485 1.000000000000000
15.313812255859375 -18.503330230712891 0.272492438554764 1.000000000000000
15.315028190612793 9.157876014709473 0.648081362247467 0.000000000000000
15.316020965576172 -1.414353847503662 1.299705028533936 0.000000000000000
15.320089340209961 -9.231460571289062 2.189842224121094 0.000000000000000
15.320478439331055 18.143457412719727 2.152754306793213 0.000000000000000
15.324142456054688 -1.510106563568115 0.648075163364410 0.000000000000000
15.324992179870605 -14.833326339721680 2.838183879852295 0.000000000000000
15.326540946960449 12.412081718444824 1.285743236541748 0.000000000000000
15.327436447143555 21.040763854980469 0.145389363169670 1.000000000000000
15.330549240112305 11.627252578735352 -0.335854113101959 0.000000000000000
15.331498146057129 21.824220657348633 0.507456004619598 1.000000000000000
15.334776878356934 -16.964191436767578 0.435092747211456 0.000000000000000
15.335998535156250 12.091667175292969 1.348510503768921 0.000000000000000
15.340227127075195 20.549791336059570 0.783496201038361 1.000000000000000
15.340452194213867 -2.156506061553955 1.279059767723083 0.000000000000000
15.340461730957031 -0.152349978685379 1.634087204933167 0.000000000000000
15.348606109619141 11.189126014709473 1.721914529800415 0.000000000000000
15.349987030029297 8.463521957397461 -0.507990121841431 0.000000000000000
15.350240707397461 8.172521591186523 1.368640542030334 0.000000000000000
15.351099014282227 1.071036458015442 1.211094737052917 0.000000000000000
15.352160453796387 11.534273147583008 1.437087655067444 0.000000000000000
15.354259490966797 13.352431297302246 -0.902645528316498 0.000000000000000
15.354460716247559 -0.293748319149017 1.297684192657471 0.000000000000000
15.355825424194336 16.954135894775391 0.259514451026917 0.000000000000000
15.358953475952148 20.823255538940430 3.167858362197876 1.000000000000000
15.360974311828613 -17.300266265869141 -0.448266744613647 1.000000000000000
15.367392539978027 7.041909694671631 -0.002950304653496 0.000000000000000
15.369063377380371 -3.543142557144165 0.937040805816650 0.000000000000000
15.371456146240234 7.381607532501221 0.029761338606477 0.000000000000000
15.371934890747070 20.851495742797852 1.489150285720825 1.000000000000000
15.372947692871094 6.634646892547607 -0.646148443222046 0.000000000000000
15.375043869018555 9.439566612243652 1.350217580795288 0.000000000000000
15.375159263610840 20.899385452270508 2.603447437286377 0.000000000000000
15.375399589538574 20.799921035766602 1.736142754554749 1.000000000000000
15.377351760864258 12.376086235046387 -0.192932620644569 0.000000000000000
15.378977775573730 20.491821289062500 2.065904855728149 0.000000000000000
15.381247520446777 12.128211975097656 -0.116236850619316 0.000000000000000
15.381420135498047 22.236793518066406 0.981994271278381 1.000000000000000
15.385256767272949 -4.871035099029541 2.758508443832397 0.000000000000000
15.388231277465820 9.323490142822266 1.416029810905457 0.000000000000000
15.388927459716797 -3.189414262771606 -0.939205527305603 1.000000000000000
15.389431953430176 -2.292277574539185 0.804532051086426 0.000000000000000
15.389827728271484 13.045990943908691 1.665805935859680 0.000000000000000
15.390358924865723 10.722100257873535 1.005995392799377 0.000000000000000
15.396836280822754 16.709951400756836 2.580799818038940 0.000000000000000
15.398266792297363 -7.018043994903564 1.005361795425415 0.000000000000000
15.398459434509277 13.522168159484863 -0.672660470008850 0.000000000000000
15.398524284362793 19.576475143432617 1.431760430335999 0.000000000000000
15.399497032165527 -2.962130784988403 -0.906952798366547 1.000000000000000
15.401368141174316 -15.120094299316406 2.642393589019775 0.000000000000000
15.401586532592773 -9.047263145446777 1.792341232299805 0.000000000000000
15.402601242065430 -17.274141311645508 0.440343052148819 1.000000000000000
15.403469085693359 -0.206751331686974 1.640865921974182 0.000000000000000
15.405794143676758 9.964929580688477 1.019371509552002 0.000000000000000
15.406960487365723 13.260964393615723 -0.003547905478626 0.000000000000000
15.407101631164551 9.004633903503418 1.232231140136719 0.000000000000000
15.407158851623535 -1.766048192977905 1.220509767532349 0.000000000000000
15.408432006835938 0.835028231143951 1.125061869621277 0.000000000000000
15.410085678100586 11.028877258300781 1.198881268501282 0.000000000000000
15.410374641418457 1.316256999969482 0.413108080625534 0.000000000000000
15.412710189819336 8.564864158630371 -0.511002838611603 0.000000000000000
15.421196937561035 6.821179389953613 -0.229572132229805 0.000000000000000
15.421213150024414 -2.182682514190674 1.075446844100952 0.000000000000000
15.422730445861816 7.558188915252686 -0.167872875928879 0.000000000000000
15.422734260559082 20.617496490478516 1.877236127853394 1.000000000000000
15.424756050109863 2.032358884811401 2.305740356445312 0.000000000000000
15.425933837890625 21.958648681640625 3.048025369644165 1.000000000000000
15.426100730895996 -15.202644348144531 2.058761119842529 0.000000000000000
15.426562309265137 12.613908767700195 1.145500183105469 0.000000000000000
15.426954269409180 -5.485404491424561 2.426539421081543 0.000000000000000
15.427022933959961 1.498772978782654 0.711967825889587 0.000000000000000
15.429284095764160 11.581266403198242 3.297674179077148 0.000000000000000
15.429635047912598 -17.623888015747070 -0.094029717147350 1.000000000000000
15.431368827819824 1.840630412101746 0.773664534091949 0.000000000000000
15.431839942932129 18.936134338378906 2.214509248733521 0.000000000000000
15.433119773864746 13.913621902465820 0.195843979716301 0.000000000000000
15.433778762817383 -16.665796279907227 0.257699340581894 1.000000000000000
15.436202049255371 -3.388785600662231 1.182746410369873 0.000000000000000
15.436323165893555 20.486190795898438 2.325379133224487 1.000000000000000
15.437926292419434 22.202360153198242 3.310769319534302 1.000000000000000
15.439069747924805 12.830980300903320 0.922125875949860 0.000000000000000
15.439093589782715 12.161581993103027 1.016250967979431 0.000000000000000
15.444714546203613 8.662926673889160 -0.990050196647644 0.000000000000000
15.451680183410645 0.167479500174522 1.645949959754944 0.000000000000000
15.452746391296387 -15.033437728881836 2.639477014541626 0.000000000000000
15.454020500183105 -17.229230880737305 0.395909339189529 1.000000000000000
15.454429626464844 20.810939788818359 2.349936723709106 1.000000000000000
15.461250305175781 10.295009613037109 0.960481107234955 0.000000000000000
15.462000846862793 20.840864181518555 1.541728615760803 0.000000000000000
15.463169097900391 -2.728800296783447 0.660858333110809 0.000000000000000
15.463813781738281 18.808546066284180 3.240246772766113 0.000000000000000
15.465912818908691 17.729547500610352 1.851634740829468 0.000000000000000
15.468015670776367 10.512450218200684 1.471892714500427 0.000000000000000
15.468152999877930 5.089263439178467 -0.065367996692657 0.000000000000000
15.474047660827637 -14.198740005493164 2.236966609954834 0.000000000000000
15.475723266601562 -6.170430183410645 0.957720816135406 0.000000000000000
15.475836753845215 -14.041495323181152 1.523545503616333 0.000000000000000
15.476279258728027 17.668453216552734 1.621849894523621 0.000000000000000
15.477817535400391 -2.158463716506958 1.664591312408447 0.000000000000000
15.480189323425293 1.911159276962280 0.566490471363068 0.000000000000000
15.483295440673828 -10.329197883605957 1.213402271270752 0.000000000000000
15.483581542968750 13.501478195190430 1.952776074409485 0.000000000000000
15.483727455139160 11.978416442871094 0.786262094974518 0.000000000000000
15.486532211303711 -2.755225181579590 -0.909724235534668 1.000000000000000
15.488693237304688 2.093600034713745 1.485684394836426 0.000000000000000
15.489427566528320 -1.974899768829346 1.078202247619629 0.000000000000000
15.490446090698242 -15.698386192321777 1.650531291961670 0.000000000000000
15.492800712585449 -1.995393157005310 0.988249897956848 0.000000000000000
15.493083953857422 21.917354583740234 1.026412129402161 1.000000000000000
15.495523452758789 -6.393439292907715 1.286874651908875 0.000000000000000
15.504252433776855 17.369831085205078 1.742476344108582 0.000000000000000
15.506784439086914 12.227198600769043 -0.420547872781754 0.000000000000000
15.510792732238770 20.850303649902344 3.458162784576416 0.000000000000000
15.512549400329590 -14.074805259704590 1.898873090744019 0.000000000000000
15.513820648193359 18.242868423461914 0.639633953571320 0.000000000000000
15.516779899597168 12.597551345825195 0.226751819252968 0.000000000000000
15.516797065734863 -2.686910390853882 0.874919831752777 0.000000000000000
15.517359733581543 -15.281375885009766 2.185314178466797 0.000000000000000
15.517727851867676 17.507551193237305 1.389904260635376 0.000000000000000
15.518603324890137 13.223258972167969 2.713132858276367 0.000000000000000
15.519091606140137 -15.736207008361816 2.003603696823120 0.000000000000000
15.519117355346680 17.684953689575195 2.672439098358154 0.000000000000000
15.520613670349121 -10.548195838928223 1.882996559143066 0.000000000000000
15.521285057067871 -8.805852890014648 2.026900768280029 0.000000000000000
15.522734642028809 9.214527130126953 1.525359869003296 0.000000000000000
15.527691841125488 12.832393646240234 0.035157896578312 0.000000000000000
15.530390739440918 -1.602717995643616 1.047954082489014 0.000000000000000
15.535111427307129 9.016985893249512 1.628379344940186 0.000000000000000
15.535686492919922 8.037119865417480 0.131274759769440 0.000000000000000
15.538432121276855 14.707324028015137 0.201649576425552 0.000000000000000
15.545950889587402 -10.860342025756836 1.236301660537720 0.000000000000000
15.550952911376953 21.837089538574219 1.025189280509949 1.000000000000000
15.552121162414551 22.015518188476562 1.341880440711975 1.000000000000000
15.555171966552734 -12.057568550109863 1.974850058555603 0.000000000000000
15.555172920227051 20.782444000244141 1.042623996734619 1.000000000000000
15.560062408447266 18.286912918090820 1.334014177322388 0.000000000000000
15.563856124877930 -17.777196884155273 0.631089866161346 1.000000000000000
15.564868927001953 -17.348546981811523 -0.765043020248413 0.000000000000000
15.565599441528320 -19.644535064697266 0.091864153742790 1.000000000000000
15.566016197204590 12.438650131225586 1.030296802520752 0.000000000000000
15.570572853088379 -15.248896598815918 1.799439072608948 0.000000000000000
15.571323394775391 10.687481880187988 0.722233414649963 0.000000000000000
15.573792457580566 8.200019836425781 1.673050999641418 0.000000000000000
15.576065063476562 -16.857170104980469 0.128187492489815 0.000000000000000
15.577095985412598 -9.232094764709473 1.577822327613831 0.000000000000000
15.580481529235840 -18.048889160156250 -0.461982101202011 0.000000000000000
15.580509185791016 -17.742414474487305 -0.412156045436859 1.000000000000000
15.581422805786133 14.088280677795410 0.641797423362732 0.000000000000000
15.581542968750000 -13.850483894348145 1.479742765426636 0.000000000000000
15.583235740661621 -9.285417556762695 1.427641868591309 0.000000000000000
15.583992958068848 -2.414757728576660 0.906529068946838 0.000000000000000
15.584901809692383 10.541465759277344 1.299188256263733 0.000000000000000
15.585897445678711 9.369026184082031 1.937009692192078 0.000000000000000
15.585948944091797 -18.529249191284180 0.739764988422394 1.000000000000000
15.587916374206543 -13.759045600891113 1.475777983665466 0.000000000000000
15.588262557983398 22.030782699584961 1.395486116409302 1.000000000000000
15.588823318481445 11.542703628540039 -0.338576704263687 0.000000000000000
15.590682029724121 22.211311340332031 0.620561301708221 1.000000000000000
15.592617988586426 16.767339706420898 2.297535419464111 0.000000000000000
15.593749046325684 19.317262649536133 0.710793733596802 0.000000000000000
15.595781326293945 10.858746528625488 0.106137819588184 0.000000000000000
15.597139358520508 4.188581466674805 2.760530233383179 0.000000000000000
15.598695755004883 -14.360827445983887 1.504947900772095 0.000000000000000
15.600508689880371 15.401387214660645 1.987352252006531 0.000000000000000
15.602532386779785 7.259669303894043 -0.333429872989655 0.000000000000000
15.604098320007324 -15.543212890625000 1.775919437408447 0.000000000000000
15.604302406311035 0.043032761663198 1.167820334434509 0.000000000000000
15.604693412780762 -6.150628089904785 1.255287528038025 0.000000000000000
15.605577468872070 13.814418792724609 0.516637206077576 0.000000000000000
15.610959053039551 -4.034071445465088 1.020071864128113 0.000000000000000
15.611287117004395 11.464269638061523 1.755861759185791 0.000000000000000
15.614903450012207 -12.076409339904785 1.591704845428467 0.000000000000000
15.615067481994629 19.587291717529297 0.332292586565018 0.000000000000000
15.615520477294922 1.443667054176331 0.901478826999664 0.000000000000000
15.618320465087891 -9.039789199829102 3.753525018692017 0.000000000000000
15.618926048278809 21.919588088989258 3.295214414596558 1.000000000000000
15.623326301574707 -0.175066679716110 1.169312953948975 0.000000000000000
15.623940467834473 13.528147697448730 1.964510083198547 0.000000000000000
15.626606941223145 -0.229656577110291 1.169611454010010 0.000000000000000
15.633425712585449 11.815745353698730 -0.379690051078796 0.000000000000000
15.633944511413574 10.202537536621094 1.541388750076294 0.000000000000000
15.634705543518066 1.967089533805847 0.754152774810791 0.000000000000000
15.636773109436035 -1.561308622360229 1.297491908073425 0.000000000000000
15.639495849609375 -1.737392306327820 0.511009693145752 0.000000000000000
15.639987945556641 -3.743571519851685 0.986420989036560 0.000000000000000
15.641283035278320 6.492907524108887 -0.653552353382111 0.000000000000000
15.642731666564941 -6.500552654266357 1.169682860374451 0.000000000000000
15.647919654846191 21.129987716674805 0.752807140350342 1.000000000000000
15.650221824645996 0.278916418552399 0.990270376205444 0.000000000000000
15.652193069458008 -2.717108964920044 1.035672545433044 0.000000000000000
15.657278060913086 12.344979286193848 -0.462916105985641 0.000000000000000
15.661186218261719 12.725690841674805 2.990660190582275 0.000000000000000
15.662596702575684 14.371258735656738 -0.371038138866425 0.000000000000000
15.666009902954102 -15.303304672241211 2.332715511322021 0.000000000000000
15.666893959045410 -7.960650444030762 1.484944105148315 0.000000000000000
15.668305397033691 8.992214202880859 0.621384501457214 0.000000000000000
15.668735504150391 -17.161859512329102 -0.494897484779358 1.000000000000000
15.673262596130371 -0.481325715780258 0.992038249969482 0.000000000000000
15.673486709594727 -3.212173223495483 1.197373986244202 0.000000000000000
15.674764633178711 -7.210248947143555 1.025051474571228 0.000000000000000
15.678713798522949 11.674634933471680 0.071647003293037 0.000000000000000
15.685219764709473 -14.291980743408203 2.260268211364746 0.000000000000000
15.688062667846680 5.271689414978027 2.202375888824463 0.000000000000000
15.690871238708496 4.239902496337891 0.278032749891281 0.000000000000000
15.692590713500977 18.981212615966797 3.015225648880005 0.000000000000000
15.695236206054688 -16.382858276367188 0.083155684173107 1.000000000000000
15.695572853088379 13.097501754760742 -0.474614381790161 0.000000000000000
15.696269989013672 18.956018447875977 3.275071144104004 0.000000000000000
15.697698593139648 -17.854484558105469 0.817741453647614 1.000000000000000
15.699777603149414 22.000534057617188 -0.471773445606232 1.000000000000000
15.700334548950195 14.245190620422363 0.118402525782585 0.000000000000000
15.702075958251953 19.950901031494141 1.410566926002502 1.000000000000000
15.703688621520996 -19.109819412231445 0.280615031719208 1.000000000000000
15.704425811767578 -19.457147598266602 -0.436449795961380 1.000000000000000
15.708085060119629 13.857316970825195 -0.848634779453278 0.000000000000000
15.709004402160645 -10.811846733093262 1.537694215774536 0.000000000000000
15.711438179016113 14.451451301574707 -0.208648711442947 0.000000000000000
15.714264869689941 -0.147559240460396 1.784936666488647 0.000000000000000
15.714956283569336 10.985748291015625 0.475302219390869 0.000000000000000
15.715338706970215 -11.516215324401855 2.887453079223633 0.000000000000000
15.715690612792969 9.462364196777344 1.479182839393616 0.000000000000000
15.716831207275391 -0.265832245349884 1.674335598945618 0.000000000000000
15.717527389526367 -2.094932079315186 1.507259964942932 0.000000000000000
15.718657493591309 -17.990728378295898 -0.921945393085480 1.000000000000000
15.721062660217285 -3.451322317123413 1.529971122741699 0.000000000000000
15.725337982177734 7.153532505035400 0.030152292922139 0.000000000000000
15.725941658020020 14.678033828735352 -0.127654030919075 0.000000000000000
15.727009773254395 12.465979576110840 0.381828486919403 0.000000000000000
15.727137565612793 9.118170738220215 1.536137461662292 0.000000000000000
15.729206085205078 14.827120780944824 -0.003772703930736 0.000000000000000
15.729639053344727 -5.403254985809326 1.507758617401123 0.000000000000000
15.729973793029785 -9.031259536743164 1.724151015281677 0.000000000000000
15.733182907104492 18.866134643554688 1.696246623992920 0.000000000000000
15.734814643859863 7.276845455169678 -0.003025702899322 0.000000000000000
15.737199783325195 12.474056243896484 1.309162855148315 0.000000000000000
15.741484642028809 17.166193008422852 2.337072372436523 0.000000000000000
15.743394851684570 -5.288450717926025 1.505591750144958 0.000000000000000
15.747738838195801 5.532681465148926 2.043528556823730 0.000000000000000
15.749619483947754 -0.286460041999817 0.935854673385620 0.000000000000000
15.752127647399902 -4.926757812500000 2.821186542510986 0.000000000000000
15.752458572387695 8.713048934936523 2.203938961029053 0.000000000000000
15.753606796264648 16.794675827026367 1.678866863250732 0.000000000000000
15.755231857299805 10.602258682250977 1.805153846740723 0.000000000000000
15.756604194641113 16.712329864501953 0.569371461868286 0.000000000000000
15.756952285766602 -16.420867919921875 0.301891207695007 1.000000000000000
15.757300376892090 -5.711529731750488 1.460457921028137 0.000000000000000
15.757653236389160 -8.416630744934082 1.302488923072815 0.000000000000000
15.760136604309082 -14.270884513854980 2.133397340774536 0.000000000000000
15.761301994323730 15.451868057250977 0.589544117450714 0.000000000000000
15.764305114746094 9.452678680419922 1.747240543365479 0.000000000000000
15.765951156616211 22.623535156250000 1.425849676132202 0.000000000000000
15.766032218933105 -2.189961433410645 -0.920579075813293 1.000000000000000
15.766156196594238 -19.161279678344727 0.710450291633606 1.000000000000000
15.766225814819336 21.695577621459961 0.201279968023300 1.000000000000000
15.771656990051270 1.178679585456848 1.336416006088257 0.000000000000000
15.776102066040039 -9.379086494445801 1.515386223793030 0.000000000000000
15.776620864868164 18.816514968872070 2.226065635681152 0.000000000000000
15.777771949768066 19.813367843627930 -0.004420570097864 0.000000000000000
15.778363227844238 5.424916744232178 2.220315694808960 0.000000000000000
15.782128334045410 10.356673240661621 1.012422204017639 0.000000000000000
15.782331466674805 -2.384599208831787 -0.769476354122162 0.000000000000000
15.782472610473633 22.776634216308594 2.180849313735962 0.000000000000000
15.783907890319824 -13.004773139953613 1.412161231040955 0.000000000000000
15.785105705261230 2.207504272460938 1.254404187202454 0.000000000000000
15.786016464233398 22.279745101928711 1.727480053901672 1.000000000000000
15.792650222778320 -2.296016693115234 0.825187504291534 0.000000000000000
15.794057846069336 -18.692392349243164 -0.145218923687935 1.000000000000000
15.797308921813965 10.381640434265137 0.795586645603180 0.000000000000000
15.800523757934570 -2.194752454757690 1.286287903785706 0.000000000000000
15.802517890930176 11.379961013793945 -0.302516937255859 0.000000000000000
15.804560661315918 13.908126831054688 -0.367477893829346 0.000000000000000
15.804665565490723 7.745363235473633 -0.984021484851837 0.000000000000000
15.806270599365234 14.387143135070801 0.324568510055542 0.000000000000000
15.808151245117188 21.780437469482422 1.598899960517883 0.000000000000000
15.808526992797852 13.496034622192383 1.555601239204407 0.000000000000000
15.808723449707031 19.260944366455078 1.816736340522766 0.000000000000000
15.810000419616699 -0.508450150489807 1.306049704551697 0.000000000000000
15.810543060302734 -14.294947624206543 1.389570713043213 0.000000000000000
15.814992904663086 22.525859832763672 1.423164486885071 1.000000000000000
15.819608688354492 -6.769183635711670 1.188144207000732 0.000000000000000
15.820074081420898 10.549084663391113 1.056427359580994 0.000000000000000
15.820089340209961 -18.053331375122070 -1.157199978828430 1.000000000000000
15.820113182067871 22.615301132202148 2.404928922653198 1.000000000000000
15.821207046508789 10.671936035156250 2.032758712768555 0.000000000000000
15.823532104492188 -19.485439300537109 -1.161786556243896 1.000000000000000
15.828671455383301 7.894655227661133 1.187252640724182 0.000000000000000
15.834465026855469 -14.374947547912598 1.517975330352783 0.000000000000000
15.839012145996094 10.411423683166504 2.320600986480713 0.000000000000000
15.841482162475586 11.421462059020996 2.080209493637085 0.000000000000000
15.845993995666504 -19.752172470092773 -0.247508898377419 1.000000000000000
15.850238800048828 6.840635776519775 0.660174846649170 0.000000000000000
15.850474357604980 22.863689422607422 0.796537756919861 0.000000000000000
15.850859642028809 17.323648452758789 2.667022228240967 0.000000000000000
15.855262756347656 -7.308034896850586 1.205503344535828 0.000000000000000
15.856325149536133 -2.282671451568604 1.522779226303101 0.000000000000000
15.856981277465820 21.754911422729492 2.170711278915405 0.000000000000000
15.857468605041504 -19.639745712280273 -0.828556001186371 1.000000000000000
15.858980178833008 14.389132499694824 0.777726709842682 0.000000000000000
15.860470771789551 9.052522659301758 1.296226382255554 0.000000000000000
15.862072944641113 2.419309139251709 0.922368645668030 0.000000000000000
15.862667083740234 -1.741727471351624 1.101899027824402 0.000000000000000
15.864934921264648 -15.389767646789551 2.354322671890259 0.000000000000000
15.868722915649414 14.443988800048828 0.655600845813751 0.000000000000000
15.869016647338867 10.966935157775879 -1.078471541404724 0.000000000000000
15.869506835937500 -0.589674293994904 1.280501008033752 0.000000000000000
15.872795104980469 10.569040298461914 2.334697723388672 0.000000000000000
15.872887611389160 0.965821981430054 1.036713361740112 0.000000000000000
15.874541282653809 9.822703361511230 1.397085666656494 0.000000000000000
15.880408287048340 -6.242334842681885 1.342905998229980 0.000000000000000
15.882678031921387 12.651321411132812 -0.315440237522125 0.000000000000000
15.886425018310547 21.392663955688477 0.302305519580841 1.000000000000000
15.892158508300781 -9.512766838073730 2.744956731796265 0.000000000000000
15.892746925354004 13.477072715759277 1.559481978416443 0.000000000000000
15.893006324768066 8.951236724853516 1.830280661582947 0.000000000000000
15.895379066467285 21.661115646362305 0.150058448314667 1.000000000000000
15.898429870605469 -10.744630813598633 2.349280357360840 0.000000000000000
15.898533821105957 -9.190495491027832 1.842660903930664 0.000000000000000
15.899369239807129 15.154534339904785 1.559039950370789 0.000000000000000
15.899768829345703 -18.470834732055664 0.463703244924545 1.000000000000000
15.900843620300293 -6.186375617980957 1.079422473907471 0.000000000000000
15.903822898864746 2.741930484771729 0.555107176303864 0.000000000000000
15.905588150024414 8.858031272888184 0.976432502269745 0.000000000000000
15.905600547790527 -6.740391254425049 1.192828416824341 0.000000000000000
15.907186508178711 19.154188156127930 1.575189113616943 0.000000000000000
15.908350944519043 22.658832550048828 1.858296871185303 1.000000000000000
15.910615921020508 16.735847473144531 2.195027828216553 0.000000000000000
15.912061691284180 -6.292322158813477 1.445875525474548 0.000000000000000
15.912721633911133 12.632175445556641 0.776955008506775 0.000000000000000
15.913321495056152 8.076085090637207 -0.722983062267303 0.000000000000000
15.914361953735352 -16.451622009277344 0.347587108612061 1.000000000000000
15.915494918823242 -17.000530242919922 0.443082392215729 1.000000000000000
15.916160583496094 -8.815573692321777 1.396793365478516 0.000000000000000
15.918448448181152 20.936859130859375 0.601448833942413 0.000000000000000
15.920210838317871 12.650819778442383 -0.237797796726227 0.000000000000000
15.921428680419922 18.844463348388672 1.751052498817444 0.000000000000000
15.923739433288574 -3.435271263122559 2.414224863052368 0.000000000000000
15.924324035644531 0.857970595359802 2.122174501419067 0.000000000000000
15.924866676330566 -17.066574096679688 0.668322443962097 1.000000000000000
15.925643920898438 -3.331101417541504 2.411292791366577 0.000000000000000
15.930442810058594 14.282533645629883 2.033778905868530 0.000000000000000
15.931164741516113 -0.591965317726135 1.039315581321716 0.000000000000000
15.933786392211914 -19.579973220825195 -0.634585201740265 1.000000000000000
15.934259414672852 14.899538993835449 0.624591827392578 0.000000000000000
15.936682701110840 14.495168685913086 1.778702855110168 0.000000000000000
15.937231063842773 -18.628477096557617 0.136922463774681 1.000000000000000
15.940132141113281 -7.414047241210938 2.605392694473267 0.000000000000000
15.940707206726074 1.028607487678528 0.672295987606049 0.000000000000000
15.944634437561035 22.956724166870117 1.660578608512878 1.000000000000000
15.947535514831543 13.125572204589844 3.061028480529785 0.000000000000000
15.950760841369629 10.467334747314453 1.317374110221863 0.000000000000000
15.951012611389160 -0.752788543701172 1.955060124397278 0.000000000000000
15.953117370605469 13.447578430175781 1.279800415039062 0.000000000000000
15.953763961791992 21.640726089477539 2.437332630157471 1.000000000000000
15.955273628234863 10.104445457458496 2.798906087875366 0.000000000000000
15.955299377441406 -19.354639053344727 -1.112707495689392 1.000000000000000
15.956490516662598 10.934636116027832 2.197088003158569 0.000000000000000
15.958751678466797 -16.479084014892578 0.040037833154202 1.000000000000000
15.958816528320312 11.022413253784180 2.202956676483154 0.000000000000000
15.961990356445312 -6.881586074829102 2.128108739852905 0.000000000000000
15.965953826904297 15.050290107727051 -0.340851902961731 0.000000000000000
15.968614578247070 -8.457799911499023 1.038755178451538 0.000000000000000
15.973321914672852 10.348649978637695 3.958795785903931 0.000000000000000
15.973745346069336 22.533834457397461 1.215630531311035 1.000000000000000
15.974396705627441 22.419277191162109 1.688523530960083 1.000000000000000
15.974751472473145 19.453517913818359 3.081820249557495 0.000000000000000
15.974756240844727 -17.995328903198242 0.226794496178627 0.000000000000000
15.980678558349609 1.392793297767639 1.708652615547180 0.000000000000000
15.983030319213867 7.372335910797119 -0.611577987670898 0.000000000000000
15.984466552734375 14.088240623474121 1.718051075935364 0.000000000000000
15.985113143920898 15.781082153320312 0.254840552806854 0.000000000000000
15.985862731933594 -10.398007392883301 1.812724232673645 0.000000000000000
15.988508224487305 20.205770492553711 2.245202302932739 0.000000000000000
15.990625381469727 12.440296173095703 -0.081328637897968 0.000000000000000
15.992624282836914 9.059989929199219 1.666298985481262 0.000000000000000
15.994330406188965 -15.589694023132324 2.972204923629761 0.000000000000000
15.996383666992188 22.691463470458984 1.649429082870483 1.000000000000000
16.000209808349609 -0.921445488929749 2.132727146148682 0.000000000000000
16.005355834960938 -16.572874069213867 0.615390002727509 0.000000000000000
16.006637573242188 18.811746597290039 0.992057979106903 0.000000000000000
16.009578704833984 20.968454360961914 1.567348957061768 0.000000000000000
16.010725021362305 11.726242065429688 1.523551940917969 0.000000000000000
16.012678146362305 10.174504280090332 1.236822009086609 0.000000000000000
16.013851165771484 21.767555236816406 1.241309285163879 0.000000000000000
16.016246795654297 8.541819572448730 -0.770301222801208 0.000000000000000
16.016332626342773 -14.037046432495117 2.607394933700562 0.000000000000000
16.018011093139648 1.990038037300110 1.176835536956787 0.000000000000000
16.019498825073242 -13.885337829589844 2.407903671264648 0.000000000000000
16.021879196166992 16.961620330810547 2.115195751190186 0.000000000000000
16.023777008056641 -9.596111297607422 1.578237295150757 0.000000000000000
16.024135589599609 -19.639133453369141 0.677014470100403 1.000000000000000
16.026838302612305 -19.091918945312500 0.665800333023071 0.000000000000000
16.032844543457031 -18.576847076416016 -1.277433514595032 1.000000000000000
16.039663314819336 10.105021476745605 1.491978287696838 0.000000000000000
16.041845321655273 10.447174072265625 1.617642760276794 0.000000000000000
16.045402526855469 6.593138217926025 -0.169553965330124 0.000000000000000
16.049879074096680 -8.911613464355469 1.409346699714661 0.000000000000000
16.052261352539062 21.217983245849609 0.864016592502594 1.000000000000000
16.052331924438477 0.138405576348305 0.860965847969055 0.000000000000000
16.052438735961914 -10.601525306701660 1.828622102737427 0.000000000000000
16.054122924804688 -19.474517822265625 0.819614887237549 1.000000000000000
16.054887771606445 11.860058784484863 1.378269314765930 0.000000000000000
16.056966781616211 -4.860424518585205 1.029031991958618 0.000000000000000
16.058708190917969 -0.907382547855377 2.383731842041016 0.000000000000000
16.061931610107422 20.273828506469727 1.486854553222656 0.000000000000000
16.065811157226562 21.752967834472656 1.762985229492188 0.000000000000000
16.068250656127930 2.040717840194702 0.588267385959625 0.000000000000000
16.069822311401367 -19.467931747436523 0.140988364815712 1.000000000000000
16.073728561401367 22.500446319580078 1.696115016937256 0.000000000000000
16.075336456298828 0.983779489994049 0.925812005996704 0.000000000000000
16.076295852661133 9.316106796264648 1.211320519447327 0.000000000000000
16.077613830566406 -8.915267944335938 1.958193182945251 0.000000000000000
16.083734512329102 -5.329153537750244 1.610595464706421 0.000000000000000
16.087528228759766 -16.436075210571289 0.216766685247421 1.000000000000000
16.093179702758789 9.422196388244629 1.539743185043335 0.000000000000000
16.093893051147461 -0.085953570902348 2.141696929931641 0.000000000000000
16.099597930908203 8.288643836975098 0.031604409217834 0.000000000000000
16.099710464477539 -19.422519683837891 1.013247489929199 1.000000000000000
16.101461410522461 0.811156809329987 2.145390510559082 0.000000000000000
16.102527618408203 -2.899623394012451 0.688611388206482 0.000000000000000
16.107143402099609 13.961800575256348 -0.003720344044268 0.000000000000000
16.111482620239258 -16.557392120361328 0.661453723907471 0.000000000000000
16.112251281738281 17.541610717773438 2.159254789352417 0.000000000000000
16.115167617797852 -0.760535597801208 1.332052350044250 0.000000000000000
16.116252899169922 -18.330545425415039 0.089459791779518 1.000000000000000
16.117206573486328 -11.478475570678711 1.793781280517578 0.000000000000000
16.119773864746094 8.039844512939453 2.205397129058838 0.000000000000000
16.119781494140625 1.294422268867493 1.023102521896362 0.000000000000000
16.120037078857422 -18.880142211914062 -0.337987244129181 1.000000000000000
16.122230529785156 22.459608078002930 1.429567694664001 0.000000000000000
16.125434875488281 6.626023769378662 -0.706305027008057 0.000000000000000
16.126321792602539 6.763647079467773 -0.406003236770630 0.000000000000000
16.126878738403320 17.444742202758789 1.045561909675598 0.000000000000000
16.127922058105469 18.307706832885742 1.026861906051636 0.000000000000000
16.128234863281250 12.993417739868164 0.195203125476837 0.000000000000000
16.128459930419922 20.834707260131836 0.653131663799286 1.000000000000000
16.130886077880859 -17.540973663330078 0.270359694957733 1.000000000000000
16.131568908691406 7.926527500152588 2.200536489486694 0.000000000000000
16.132186889648438 -3.334356069564819 -0.699071228504181 0.000000000000000
16.133407592773438 6.468917369842529 0.263954848051071 0.000000000000000
16.139404296875000 2.000543832778931 0.903543889522552 0.000000000000000
16.139511108398438 12.167294502258301 0.695224583148956 0.000000000000000
16.141920089721680 -18.567846298217773 -0.476704776287079 1.000000000000000
16.142297744750977 15.066645622253418 -0.809679329395294 0.000000000000000
16.143022537231445 -3.308401346206665 0.218592599034309 0.000000000000000
16.145109176635742 7.355032920837402 -0.480071097612381 0.000000000000000
16.146331787109375 5.488486289978027 2.269386291503906 0.000000000000000
16.149528503417969 -18.188373565673828 0.649673283100128 1.000000000000000
16.151294708251953 -12.405869483947754 1.642179012298584 0.000000000000000
16.151945114135742 21.770822525024414 2.028759479522705 1.000000000000000
16.153656005859375 -0.906523287296295 1.537919998168945 0.000000000000000
16.154813766479492 0.252088069915771 0.866535663604736 0.000000000000000
16.159534454345703 -18.544265747070312 0.373521000146866 1.000000000000000
16.161468505859375 -3.253440141677856 1.567065954208374 0.000000000000000
16.164335250854492 -19.608211517333984 0.044352285563946 1.000000000000000
16.164455413818359 -7.099738121032715 0.777004659175873 0.000000000000000
16.166803359985352 0.706431388854980 0.432225555181503 0.000000000000000
16.170904159545898 18.304893493652344 1.969457507133484 0.000000000000000
16.171117782592773 -9.010340690612793 1.278246998786926 0.000000000000000
16.171121597290039 -0.683991432189941 3.366605758666992 0.000000000000000
16.172172546386719 -3.263231992721558 0.440662860870361 0.000000000000000
16.173379898071289 -1.103157639503479 1.984711647033691 0.000000000000000
16.174545288085938 12.912888526916504 1.668862938880920 0.000000000000000
16.175966262817383 -3.300446987152100 0.472679555416107 0.000000000000000
16.176143646240234 -6.760326385498047 1.759194016456604 0.000000000000000
16.176240921020508 11.225631713867188 0.298999011516571 0.000000000000000
16.177350997924805 -17.472396850585938 -0.141302421689034 1.000000000000000
16.177747726440430 14.637211799621582 -0.380811512470245 0.000000000000000
16.178218841552734 12.488625526428223 0.506625592708588 0.000000000000000
16.181741714477539 -14.793578147888184 1.556208014488220 0.000000000000000
16.185144424438477 11.471594810485840 0.263160020112991 0.000000000000000
16.186595916748047 0.933882355690002 1.469838976860046 0.000000000000000
16.186815261840820 -0.468535840511322 1.468033194541931 0.000000000000000
16.187522888183594 -6.363057136535645 1.100384593009949 0.000000000000000
16.189794540405273 -16.531320571899414 1.687011003494263 0.000000000000000
16.189952850341797 21.220838546752930 0.815500497817993 0.000000000000000
16.191623687744141 13.524868011474609 1.212761044502258 0.000000000000000
16.195913314819336 1.251617074012756 1.247071385383606 0.000000000000000
16.199510574340820 1.607226848602295 1.155473828315735 0.000000000000000
16.200267791748047 12.159970283508301 -0.392475545406342 0.000000000000000
16.201562881469727 -9.856902122497559 1.602486729621887 0.000000000000000
16.202121734619141 9.087756156921387 -0.752614855766296 0.000000000000000
16.205326080322266 18.556234359741211 2.472056865692139 0.000000000000000
16.206348419189453 18.336648941040039 1.878720760345459 0.000000000000000
16.209505081176758 20.399322509765625 2.000274181365967 0.000000000000000
16.210842132568359 3.458143472671509 2.833317518234253 0.000000000000000
16.211545944213867 0.548559010028839 3.373936891555786 0.000000000000000
16.212162017822266 2.602278232574463 1.260543227195740 0.000000000000000
16.214693069458008 20.923458099365234 3.923042535781860 0.000000000000000
16.220483779907227 -12.811082839965820 1.387360453605652 0.000000000000000
16.221178054809570 -16.679437637329102 0.263961464166641 1.000000000000000
16.221326828002930 13.276054382324219 1.992520570755005 0.000000000000000
16.229658126831055 -18.836774826049805 -0.625035822391510 1.000000000000000
16.230346679687500 15.277601242065430 1.668144106864929 0.000000000000000
16.231187820434570 -8.217103958129883 1.825488209724426 0.000000000000000
16.231817245483398 17.577325820922852 1.836773991584778 0.000000000000000
16.233739852905273 -16.439605712890625 -0.004032408818603 0.000000000000000
16.237518310546875 -6.343152046203613 1.580347776412964 0.000000000000000
16.238552093505859 -17.658052444458008 -0.833540618419647 1.000000000000000
16.242404937744141 19.615571975708008 1.758519530296326 0.000000000000000
16.248556137084961 -8.343811988830566 1.120376348495483 0.000000000000000
16.249553680419922 19.668886184692383 2.425167083740234 0.000000000000000
16.250396728515625 15.606465339660645 1.295172691345215 0.000000000000000
16.251113891601562 0.310334950685501 1.373463749885559 0.000000000000000
16.254550933837891 13.447893142700195 2.396166801452637 0.000000000000000
16.261203765869141 12.394899368286133 1.781647443771362 0.000000000000000
16.261928558349609 11.797214508056641 -0.620837032794952 0.000000000000000
16.262811660766602 -6.178313255310059 1.167697310447693 0.000000000000000
16.264577865600586 20.383058547973633 1.097505927085876 1.000000000000000
16.265117645263672 -0.750542581081390 1.993461370468140 0.000000000000000
16.265279769897461 15.103009223937988 -0.046487156301737 0.000000000000000
16.266235351562500 -18.501134872436523 -0.666603088378906 1.000000000000000
16.267143249511719 11.568581581115723 1.532431125640869 0.000000000000000
16.267723083496094 -3.129136085510254 -0.448261082172394 0.000000000000000
16.268747329711914 -7.911612987518311 1.284048676490784 0.000000000000000
16.272991180419922 9.127507209777832 1.252347946166992 0.000000000000000
16.273763656616211 -6.734491348266602 1.352091073989868 0.000000000000000
16.276557922363281 -18.664087295532227 0.423616856336594 1.000000000000000
16.278064727783203 -18.384777069091797 0.467203468084335 1.000000000000000
16.284519195556641 15.236657142639160 0.552817642688751 0.000000000000000
16.288209915161133 -0.546312272548676 0.999645054340363 0.000000000000000
16.289230346679688 2.635072946548462 1.012134552001953 0.000000000000000
16.290695190429688 9.561893463134766 1.486642956733704 0.000000000000000
16.292539596557617 21.825510025024414 -0.004753578919917 1.000000000000000
16.292976379394531 -8.999400138854980 1.321148395538330 0.000000000000000
16.295091629028320 22.369113922119141 1.431013584136963 0.000000000000000
16.297948837280273 22.359895706176758 1.803839683532715 0.000000000000000
16.301301956176758 -19.622465133666992 -0.837348163127899 1.000000000000000
16.301364898681641 -18.214162826538086 -1.178387165069580 1.000000000000000
16.301919937133789 -19.108018875122070 0.381416589021683 1.000000000000000
16.302076339721680 -2.288786172866821 1.232002735137939 0.000000000000000
16.305257797241211 19.585479736328125 1.858039140701294 0.000000000000000
16.305795669555664 11.200791358947754 1.404127240180969 0.000000000000000
16.314979553222656 -17.617340087890625 0.641342759132385 1.000000000000000
16.316051483154297 10.166917800903320 2.353655099868774 0.000000000000000
16.318058013916016 13.140709877014160 2.788058042526245 0.000000000000000
16.318094253540039 10.267697334289551 0.885600626468658 0.000000000000000
16.319416046142578 11.064868927001953 1.475597143173218 0.000000000000000
16.319713592529297 -9.024580955505371 2.283171653747559 0.000000000000000
16.324943542480469 7.789400100708008 0.656937301158905 0.000000000000000
16.324972152709961 -17.742084503173828 0.319824308156967 1.000000000000000
16.327846527099609 0.083783157169819 2.172827959060669 0.000000000000000
16.328357696533203 12.371000289916992 -0.318236142396927 0.000000000000000
16.333946228027344 -17.677387237548828 -0.605032205581665 1.000000000000000
16.333967208862305 -0.624918162822723 1.640183925628662 0.000000000000000
16.337673187255859 12.335488319396973 2.724213361740112 0.000000000000000
16.338134765625000 -0.597950041294098 1.128902316093445 0.000000000000000
16.339921951293945 -10.802039146423340 1.775724411010742 0.000000000000000
16.343250274658203 2.945917129516602 1.114656686782837 0.000000000000000
16.346944808959961 21.814882278442383 1.042461752891541 1.000000000000000
16.349822998046875 -5.641827583312988 1.394630551338196 0.000000000000000
16.350713729858398 3.667401313781738 2.864319562911987 0.000000000000000
16.351360321044922 21.124933242797852 2.680524587631226 1.000000000000000
16.352315902709961 -17.628629684448242 -0.373532921075821 1.000000000000000
16.352695465087891 20.115537643432617 2.040250539779663 0.000000000000000
16.358314514160156 17.449108123779297 0.317277610301971 0.000000000000000
16.359109878540039 -5.431805610656738 1.562651872634888 0.000000000000000
16.362873077392578 11.710779190063477 1.583618402481079 0.000000000000000
16.363780975341797 10.172883987426758 2.359002113342285 0.000000000000000
16.364585876464844 14.725432395935059 -0.257442772388458 0.000000000000000
16.364696502685547 8.025493621826172 0.697012603282928 0.000000000000000
16.368539810180664 12.807835578918457 1.354961514472961 0.000000000000000
16.370632171630859 -16.811380386352539 0.356332957744598 1.000000000000000
16.371934890747070 13.997292518615723 2.161352634429932 0.000000000000000
16.372329711914062 22.392900466918945 -0.484199583530426 1.000000000000000
16.374742507934570 10.683527946472168 1.123921632766724 0.000000000000000
16.375732421875000 2.637923002243042 1.049368381500244 0.000000000000000
16.377113342285156 -19.196153640747070 -0.391985923051834 1.000000000000000
16.377244949340820 -5.779550075531006 1.132213950157166 0.000000000000000
16.378892898559570 -11.397197723388672 1.896755337715149 0.000000000000000
16.380100250244141 3.734098196029663 2.871733188629150 0.000000000000000
16.381093978881836 -19.087863922119141 3.727769851684570 0.000000000000000
16.384855270385742 8.846696853637695 2.759617090225220 0.000000000000000
16.386356353759766 -8.960862159729004 1.542047142982483 0.000000000000000
16.387065887451172 12.649843215942383 1.803870320320129 0.000000000000000
16.388463973999023 -17.871088027954102 0.088873364031315 1.000000000000000
16.392305374145508 -9.133583068847656 1.585646748542786 0.000000000000000
16.396717071533203 21.847915649414062 3.102647781372070 0.000000000000000
16.398288726806641 23.116479873657227 1.301878809928894 1.000000000000000
16.404811859130859 -17.561868667602539 -0.004194375593215 1.000000000000000
16.408082962036133 9.828597068786621 3.269368171691895 0.000000000000000
16.411045074462891 0.143789902329445 0.817021608352661 0.000000000000000
16.411188125610352 -7.208107948303223 1.064905405044556 0.000000000000000
16.413068771362305 17.366041183471680 0.225211173295975 0.000000000000000
16.413791656494141 -5.082800865173340 1.451937913894653 0.000000000000000
16.413927078247070 7.963798999786377 0.066867604851723 0.000000000000000
16.414113998413086 21.576282501220703 0.984607517719269 1.000000000000000
16.418428421020508 13.026152610778809 0.761176168918610 0.000000000000000
16.422475814819336 10.477599143981934 1.851711630821228 0.000000000000000
16.423397064208984 7.629755973815918 -0.733669936656952 0.000000000000000
16.423780441284180 11.391883850097656 0.802796423435211 0.000000000000000
16.424673080444336 23.574012756347656 1.983914256095886 1.000000000000000
16.426551818847656 -6.966567039489746 2.184495449066162 0.000000000000000
16.432867050170898 1.983352661132812 1.500535845756531 0.000000000000000
16.435178756713867 21.808649063110352 3.343337535858154 1.000000000000000
16.442190170288086 12.797129631042480 -0.163643881678581 0.000000000000000
16.446073532104492 12.262094497680664 1.693783283233643 0.000000000000000
16.446577072143555 23.621294021606445 1.876440882682800 0.000000000000000
16.446756362915039 22.597177505493164 1.822054982185364 0.000000000000000
16.453834533691406 -1.120555996894836 0.630674123764038 0.000000000000000
