# This PCD file was generated using the MATLAB® pcwrite function
# from Computer Vision Toolbox®.
# .PCD v.7 - Point Cloud Data file format
VERSION .7
FIELDS x y z intensity
SIZE 8 8 8 8
TYPE F F F F
COUNT 1 1 1 1
WIDTH 656
HEIGHT 1
VIEWPOINT 0 0 0 1 0 0 0
POINTS 656
DATA ascii
5.504171371459961 7.525462150573730 0.482099562883377 0.000000000000000
5.508575439453125 7.964007377624512 0.295857161283493 0.000000000000000
5.508811473846436 5.532320976257324 0.569220840930939 0.000000000000000
5.508828639984131 -3.824601650238037 0.672926664352417 0.000000000000000
5.508932590484619 -1.727345108985901 0.276305943727493 0.000000000000000
5.509964942932129 8.143092155456543 0.394896835088730 0.000000000000000
5.510992527008057 7.142235755920410 0.223624989390373 0.000000000000000
5.512672424316406 10.368712425231934 0.765564978122711 0.000000000000000
5.513437747955322 -4.340829372406006 0.389864116907120 0.000000000000000
5.514801502227783 0.870104193687439 0.827415943145752 0.000000000000000
5.517064094543457 6.066154479980469 0.061539739370346 0.000000000000000
5.518771171569824 1.292281031608582 1.518750309944153 0.000000000000000
5.521885395050049 9.369070053100586 0.436794459819794 0.000000000000000
5.522655963897705 -7.165104389190674 0.624657452106476 0.000000000000000
5.523464202880859 -2.565781831741333 0.810457408428192 0.000000000000000
5.524790763854980 -8.347681045532227 0.594724357128143 0.000000000000000
5.525916099548340 -5.566183567047119 0.511330783367157 0.000000000000000
5.526089191436768 9.152761459350586 0.306114107370377 0.000000000000000
5.526173591613770 5.549757480621338 0.710000813007355 0.000000000000000
5.526873111724854 5.163281440734863 0.609869539737701 0.000000000000000
5.527233600616455 5.412859439849854 0.824034094810486 0.000000000000000
5.527904987335205 8.797901153564453 1.272101521492004 0.000000000000000
5.528685092926025 10.231913566589355 0.646149277687073 0.000000000000000
5.529901504516602 3.226110696792603 1.715452671051025 1.000000000000000
5.530010223388672 -4.539492607116699 0.875936865806580 0.000000000000000
5.533982276916504 11.874155998229980 0.551360070705414 0.000000000000000
5.534477233886719 -5.579479694366455 0.285422921180725 0.000000000000000
5.535988330841064 -1.430879235267639 0.339706927537918 0.000000000000000
5.535998821258545 -11.414116859436035 0.875953257083893 0.000000000000000
5.537039756774902 6.437856197357178 0.096336632966995 0.000000000000000
5.538603782653809 4.859274864196777 0.594116449356079 0.000000000000000
5.540462017059326 8.086190223693848 0.337161928415298 0.000000000000000
5.540595531463623 11.150709152221680 0.643832147121429 0.000000000000000
5.541467666625977 -10.223977088928223 1.423762083053589 0.000000000000000
5.541735172271729 -4.397996902465820 0.270550936460495 0.000000000000000
5.541839122772217 3.266866207122803 0.493868410587311 1.000000000000000
5.542297363281250 -5.774206638336182 0.444671422243118 0.000000000000000
5.542352676391602 -0.352677196264267 0.340643376111984 0.000000000000000
5.549042701721191 -1.834310889244080 0.715526759624481 0.000000000000000
5.551193714141846 -1.465445041656494 0.462947875261307 0.000000000000000
5.552707195281982 6.803680419921875 0.420291006565094 0.000000000000000
5.553363323211670 7.882326126098633 0.517136454582214 0.000000000000000
5.553502559661865 -4.269211292266846 0.702878892421722 0.000000000000000
5.556694030761719 -5.694354534149170 0.243086591362953 0.000000000000000
5.556910991668701 0.856879830360413 0.833280026912689 0.000000000000000
5.559994697570801 12.849614143371582 2.393223285675049 0.000000000000000
5.561934947967529 8.794034957885742 2.164304733276367 0.000000000000000
5.562292575836182 -11.583965301513672 0.986512064933777 0.000000000000000
5.565407752990723 -4.309354782104492 0.431742846965790 1.000000000000000
5.565860748291016 -4.895066261291504 0.340474426746368 0.000000000000000
5.569766521453857 -6.761955261230469 1.822186470031738 0.000000000000000
5.570155143737793 7.252880096435547 0.649104356765747 0.000000000000000
5.571644306182861 10.770871162414551 0.720453917980194 0.000000000000000
5.572679519653320 -4.409571647644043 0.285417318344116 0.000000000000000
5.573446273803711 -1.461334586143494 0.342316418886185 0.000000000000000
5.578586101531982 -6.244132041931152 0.562016248703003 0.000000000000000
5.579760074615479 -5.702240467071533 0.535495936870575 0.000000000000000
5.581711292266846 -6.795769691467285 0.319394916296005 0.000000000000000
5.583034515380859 6.833054065704346 0.269594013690948 0.000000000000000
5.586084365844727 -2.817941904067993 0.666429638862610 0.000000000000000
5.586177825927734 -0.090777873992920 1.497009396553040 0.000000000000000
5.586378097534180 8.402449607849121 0.347062289714813 0.000000000000000
5.588856697082520 12.296597480773926 0.490561604499817 0.000000000000000
5.590016365051270 -2.573011875152588 0.818899691104889 0.000000000000000
5.590498924255371 9.407251358032227 0.145162463188171 0.000000000000000
5.591547966003418 -10.848287582397461 0.819182872772217 0.000000000000000
5.591816902160645 10.336682319641113 0.426827758550644 0.000000000000000
5.593299865722656 -5.899054527282715 0.708353400230408 0.000000000000000
5.594486713409424 9.994579315185547 0.570204734802246 0.000000000000000
5.596889972686768 13.069881439208984 1.740693688392639 0.000000000000000
5.597600460052490 -1.813587784767151 0.720387637615204 0.000000000000000
5.598422527313232 12.043703079223633 1.332674264907837 0.000000000000000
5.598964214324951 -3.968543052673340 0.540112435817719 0.000000000000000
5.600265979766846 0.571720302104950 0.171992927789688 0.000000000000000
5.600951671600342 6.144157409667969 1.017875671386719 0.000000000000000
5.601026058197021 -4.837064743041992 0.411165714263916 0.000000000000000
5.601182937622070 -9.977925300598145 1.400915741920471 0.000000000000000
5.603142261505127 11.145936965942383 0.789236128330231 0.000000000000000
5.603337764739990 -2.478145122528076 0.555433034896851 0.000000000000000
5.605094432830811 -6.900019645690918 1.849067330360413 0.000000000000000
5.606777667999268 -1.753941416740417 0.451003193855286 0.000000000000000
5.606822013854980 -13.229379653930664 2.988646507263184 0.000000000000000
5.607443809509277 6.455633640289307 0.294122934341431 0.000000000000000
5.608345985412598 -0.963085472583771 0.495847344398499 0.000000000000000
5.609045505523682 -7.254900455474854 0.421233862638474 0.000000000000000
5.610288143157959 7.269087314605713 0.421784490346909 0.000000000000000
5.610379219055176 -5.543799400329590 0.271297097206116 0.000000000000000
5.611463069915771 -7.178729057312012 1.212520241737366 0.000000000000000
5.612018108367920 10.263743400573730 1.246007442474365 0.000000000000000
5.612116813659668 10.362968444824219 0.405364364385605 0.000000000000000
5.613171577453613 3.271667003631592 0.962875247001648 0.000000000000000
5.613940238952637 -1.024072527885437 0.328040003776550 0.000000000000000
5.614816665649414 -4.810440540313721 0.670275449752808 0.000000000000000
5.614821434020996 7.076779842376709 0.432337582111359 0.000000000000000
5.617837905883789 -1.581007480621338 0.529069781303406 0.000000000000000
5.617953300476074 -1.144210934638977 1.192526221275330 0.000000000000000
5.618073940277100 8.926196098327637 1.403526544570923 0.000000000000000
5.618753433227539 -2.859069585800171 0.671513676643372 0.000000000000000
5.619426250457764 10.607883453369141 0.528320968151093 0.000000000000000
5.621502876281738 -5.262533664703369 2.063305616378784 0.000000000000000
5.622532844543457 6.631739616394043 0.717866480350494 0.000000000000000
5.623647212982178 5.605227470397949 0.563576698303223 0.000000000000000
5.624021530151367 13.105401992797852 1.205064535140991 0.000000000000000
5.625801086425781 -12.294049263000488 1.356636047363281 0.000000000000000
5.626227855682373 -1.212939143180847 0.486336886882782 0.000000000000000
5.626665592193604 -6.877380371093750 1.848252654075623 0.000000000000000
5.627874851226807 6.625378608703613 0.734557271003723 0.000000000000000
5.627884864807129 8.426548004150391 0.738794505596161 0.000000000000000
5.629046916961670 4.933243751525879 0.589070916175842 0.000000000000000
5.629243850708008 6.014700412750244 1.220892906188965 0.000000000000000
5.630013942718506 12.984086036682129 0.949909269809723 0.000000000000000
5.630106925964355 7.384155750274658 0.515898704528809 0.000000000000000
5.630224227905273 -3.764980792999268 1.814839243888855 0.000000000000000
5.632573604583740 8.580977439880371 1.029957175254822 0.000000000000000
5.634649276733398 -7.839711189270020 1.430825591087341 1.000000000000000
5.635625839233398 -3.941858053207397 1.842791676521301 0.000000000000000
5.637623786926270 -3.972633600234985 1.847968101501465 1.000000000000000
5.638595104217529 5.181144714355469 0.768374443054199 0.000000000000000
5.640441417694092 -9.672597885131836 0.578973889350891 0.000000000000000
5.642449378967285 6.849222660064697 1.845808863639832 0.000000000000000
5.642548084259033 10.391426086425781 0.520406663417816 0.000000000000000
5.642796516418457 -9.071883201599121 0.778933763504028 0.000000000000000
5.644795417785645 6.004579544067383 2.208244323730469 0.000000000000000
5.646065711975098 3.317298650741577 0.970498502254486 0.000000000000000
5.650577068328857 -11.757832527160645 0.273256689310074 1.000000000000000
5.652974128723145 7.630086898803711 0.827453911304474 0.000000000000000
5.654617786407471 12.460924148559570 0.050154369324446 0.000000000000000
5.654939174652100 -13.698866844177246 1.578586697578430 0.000000000000000
5.655243396759033 -7.259511470794678 0.422702223062515 0.000000000000000
5.655601024627686 -8.422136306762695 1.734092831611633 0.000000000000000
5.658004283905029 6.387123584747314 1.135484695434570 0.000000000000000
5.659640312194824 1.922181248664856 1.601572275161743 0.000000000000000
5.659823894500732 0.767651379108429 0.482632100582123 0.000000000000000
5.662442207336426 7.506404399871826 0.160840302705765 0.000000000000000
5.662951469421387 5.400112628936768 0.600725233554840 0.000000000000000
5.663978576660156 6.226379394531250 1.030514001846313 0.000000000000000
5.664153575897217 -1.133043289184570 1.201486349105835 0.000000000000000
5.665598392486572 -4.119925022125244 0.389198422431946 0.000000000000000
5.668587684631348 -2.181871891021729 1.263393521308899 0.000000000000000
5.668700218200684 -11.944171905517578 1.014986872673035 0.000000000000000
5.670334815979004 1.965304493904114 0.522931456565857 0.000000000000000
5.670800685882568 11.788839340209961 0.827624559402466 0.000000000000000
5.672644615173340 5.130308628082275 1.133518815040588 0.000000000000000
5.672941207885742 -4.728865146636963 0.524211287498474 0.000000000000000
5.675861835479736 6.473453521728516 0.213415175676346 0.000000000000000
5.676231384277344 -3.776136159896851 1.010373950004578 0.000000000000000
5.676987648010254 -10.217149734497070 0.604380130767822 0.000000000000000
5.677407264709473 5.920556068420410 0.140316247940063 0.000000000000000
5.678894042968750 5.915490150451660 0.250537991523743 0.000000000000000
5.679334163665771 -6.887378215789795 0.135560795664787 1.000000000000000
5.680192470550537 -4.701401233673096 0.523361623287201 0.000000000000000
5.680933475494385 -0.342584431171417 0.436918914318085 0.000000000000000
5.681768417358398 5.380311012268066 0.600725233554840 0.000000000000000
5.681976318359375 0.288731873035431 0.348969668149948 0.000000000000000
5.682055473327637 7.712027072906494 0.495319068431854 0.000000000000000
5.682953834533691 12.373832702636719 1.546583890914917 0.000000000000000
5.683047771453857 -3.998411893844604 0.740147888660431 0.000000000000000
5.685658454895020 7.106009006500244 0.365520387887955 0.000000000000000
5.686024188995361 5.437867164611816 0.713251113891602 0.000000000000000
5.686319351196289 11.987251281738281 2.267867326736450 0.000000000000000
5.686358928680420 9.020007133483887 0.530825376510620 0.000000000000000
5.687830924987793 -7.969335556030273 0.853149056434631 0.000000000000000
5.691403865814209 -5.188228607177734 0.732054471969604 0.000000000000000
5.692036628723145 -1.038934469223022 0.504180908203125 0.000000000000000
5.692579269409180 -10.245211601257324 1.434942126274109 0.000000000000000
5.692605972290039 -5.344591140747070 0.554230928421021 1.000000000000000
5.692871570587158 -11.057185173034668 0.427777618169785 0.000000000000000
5.692965030670166 5.084020137786865 1.131173253059387 0.000000000000000
5.694243431091309 -2.829620599746704 0.942351162433624 0.000000000000000
5.694806575775146 10.700457572937012 1.484037399291992 0.000000000000000
5.694814682006836 0.199666649103165 0.541659772396088 0.000000000000000
5.697010993957520 -9.023630142211914 0.592895209789276 0.000000000000000
5.697436332702637 -2.215840578079224 1.271539211273193 1.000000000000000
5.697867393493652 0.325644671916962 0.097626164555550 0.000000000000000
5.698360919952393 -11.017715454101562 1.179084658622742 0.000000000000000
5.698596477508545 12.131018638610840 0.177792176604271 0.000000000000000
5.699407100677490 -7.174898147583008 1.566277384757996 1.000000000000000
5.699440002441406 -3.288053512573242 1.763075351715088 0.000000000000000
5.702649593353271 -11.657029151916504 0.271832615137100 1.000000000000000
5.704977989196777 5.761815071105957 0.434874534606934 0.000000000000000
5.706226825714111 -2.694153547286987 0.350589215755463 0.000000000000000
5.707637786865234 4.943763732910156 0.274244099855423 1.000000000000000
5.707743644714355 8.611045837402344 0.593869507312775 0.000000000000000
5.708916187286377 -7.447537422180176 1.604019045829773 0.000000000000000
5.711522579193115 -2.187645673751831 0.493168085813522 0.000000000000000
5.713442325592041 6.120275020599365 2.243443489074707 0.000000000000000
5.713513851165771 8.172489166259766 0.496418178081512 0.000000000000000
5.713549137115479 -7.153652191162109 1.218324303627014 0.000000000000000
5.714519500732422 -4.905206203460693 0.505493164062500 0.000000000000000
5.714845180511475 4.916235446929932 0.288281947374344 0.000000000000000
5.716080188751221 2.472621440887451 0.707383811473846 0.000000000000000
5.717175006866455 8.102207183837891 1.126306772232056 0.000000000000000
5.717370033264160 2.449524641036987 0.706480979919434 0.000000000000000
5.717643737792969 7.524806976318359 0.161661282181740 0.000000000000000
5.718873977661133 -8.389214515686035 0.740248799324036 0.000000000000000
5.718875408172607 -5.954843997955322 1.411267161369324 1.000000000000000
5.719424724578857 7.547099590301514 0.653865098953247 1.000000000000000
5.720889091491699 0.782241404056549 0.503139257431030 0.000000000000000
5.721385478973389 9.487825393676758 0.850568175315857 0.000000000000000
5.721573829650879 0.552740454673767 0.208768144249916 0.000000000000000
5.721912384033203 -5.439770221710205 1.642167210578918 0.000000000000000
5.722583770751953 11.913000106811523 0.454591095447540 0.000000000000000
5.723857402801514 -5.616578102111816 0.275834769010544 0.000000000000000
5.724457263946533 13.357449531555176 1.317438006401062 0.000000000000000
5.727059841156006 9.046017646789551 0.450608193874359 0.000000000000000
5.727669239044189 -0.494257032871246 1.195784449577332 0.000000000000000
5.728986740112305 -5.669700622558594 0.354734808206558 0.000000000000000
5.729041576385498 -9.154867172241211 0.724888443946838 0.000000000000000
5.729078292846680 12.017202377319336 0.432332903146744 0.000000000000000
5.730054378509521 -4.007906436920166 0.321202307939529 0.000000000000000
5.731860160827637 -0.448993414640427 0.275158643722534 0.000000000000000
5.733406543731689 -7.108534812927246 1.899570345878601 0.000000000000000
5.736015319824219 -10.664526939392090 1.611417293548584 0.000000000000000
5.736908435821533 -5.392215728759766 0.543647587299347 0.000000000000000
5.738019466400146 6.352180004119873 1.048013329505920 0.000000000000000
5.739400863647461 8.968242645263672 1.209369063377380 0.000000000000000
5.743139266967773 -8.491517066955566 1.752289652824402 0.000000000000000
5.743380546569824 5.764676094055176 0.326833307743073 1.000000000000000
5.743954658508301 7.330279350280762 1.937040448188782 0.000000000000000
5.744585990905762 -1.361562490463257 0.055643066763878 1.000000000000000
5.744907379150391 -8.632392883300781 0.237122833728790 1.000000000000000
5.746394157409668 7.530128955841064 0.471557497978210 1.000000000000000
5.746893405914307 9.060551643371582 1.427798032760620 0.000000000000000
5.747148990631104 7.210170269012451 0.601106464862823 0.000000000000000
5.747186660766602 7.387377262115479 1.946815252304077 0.000000000000000
5.749137401580811 -4.331026554107666 1.497174263000488 0.000000000000000
5.750319480895996 -9.117935180664062 0.723549067974091 0.000000000000000
5.750538349151611 -3.569376468658447 0.613576531410217 0.000000000000000
5.751893043518066 8.504780769348145 0.313691616058350 0.000000000000000
5.752807617187500 -2.455679416656494 0.335474640130997 0.000000000000000
5.753958702087402 -2.609142541885376 0.278054386377335 0.000000000000000
5.754517078399658 -7.561547279357910 1.624237656593323 0.000000000000000
5.755004405975342 -7.454706668853760 1.153009176254272 0.000000000000000
5.755175113677979 -3.741454362869263 1.173360109329224 0.000000000000000
5.755504608154297 -2.915388345718384 0.457941472530365 0.000000000000000
5.755793571472168 10.595998764038086 0.368416637182236 0.000000000000000
5.756718635559082 8.415042877197266 0.704014003276825 0.000000000000000
5.756817340850830 10.686659812927246 0.184331104159355 0.000000000000000
5.758683681488037 6.654575824737549 0.836525499820709 0.000000000000000
5.759706974029541 -3.412254095077515 0.268883019685745 0.000000000000000
5.760367393493652 8.242569923400879 0.036857083439827 0.000000000000000
5.760972499847412 10.745971679687500 0.278822809457779 0.000000000000000
5.761345863342285 5.672739982604980 0.704533755779266 1.000000000000000
5.762085437774658 2.065168142318726 1.273168325424194 0.000000000000000
5.762177467346191 -5.229589462280273 0.537310063838959 0.000000000000000
5.762761116027832 -7.518866539001465 1.159814357757568 0.000000000000000
5.769789218902588 10.767832756042480 0.302825510501862 0.000000000000000
5.770086765289307 6.431313514709473 0.363648712635040 1.000000000000000
5.770861148834229 -6.167091846466064 2.263113737106323 0.000000000000000
5.771136760711670 9.604027748107910 0.406938195228577 0.000000000000000
5.771980762481689 8.715883255004883 1.549279212951660 1.000000000000000
5.772766113281250 7.314316272735596 0.697348773479462 0.000000000000000
5.773195743560791 -11.595453262329102 0.271329998970032 1.000000000000000
5.773823261260986 6.251339912414551 0.194599822163582 0.000000000000000
5.775268077850342 -6.110591411590576 0.450941294431686 0.000000000000000
5.775351047515869 5.953046321868896 0.173738330602646 0.000000000000000
5.775482177734375 -5.174406528472900 0.386036753654480 0.000000000000000
5.775623321533203 -7.644505023956299 1.637716889381409 0.000000000000000
5.775676727294922 8.442754745483398 0.548627436161041 0.000000000000000
5.776447772979736 5.968749523162842 1.727696657180786 0.000000000000000
5.779349803924561 -9.646652221679688 0.979888737201691 0.000000000000000
5.779709815979004 -4.719866275787354 0.170640647411346 1.000000000000000
5.781371593475342 6.071257591247559 0.272252887487411 0.000000000000000
5.781405448913574 -3.230323791503906 0.265993535518646 0.000000000000000
5.785928249359131 6.033724784851074 0.271473884582520 0.000000000000000
5.789986133575439 -7.098718166351318 0.597203135490417 0.000000000000000
5.790080547332764 2.750077247619629 0.949974417686462 0.000000000000000
5.790512084960938 -7.128273487091064 0.545618712902069 0.000000000000000
5.791149616241455 6.220686912536621 0.701738417148590 0.000000000000000
5.793392181396484 1.584457635879517 0.148885086178780 0.000000000000000
5.793757438659668 9.290707588195801 1.871580123901367 0.000000000000000
5.796180248260498 9.138257980346680 0.914407610893250 0.000000000000000
5.796832084655762 0.418369621038437 0.032460164278746 0.000000000000000
5.799132347106934 -2.400182485580444 0.445480465888977 0.000000000000000
5.801245689392090 -5.362991809844971 0.750980377197266 0.000000000000000
5.802224636077881 -7.193858623504639 0.691676795482635 0.000000000000000
5.802918910980225 -10.255787849426270 1.068251490592957 0.000000000000000
5.804512023925781 0.420758187770844 0.054851394146681 0.000000000000000
5.804893970489502 -3.745589256286621 0.845799267292023 0.000000000000000
5.805341243743896 -1.788618326187134 0.337497591972351 1.000000000000000
5.810536861419678 -0.074133500456810 1.557055473327637 0.000000000000000
5.810689449310303 5.274545669555664 0.835896790027618 0.000000000000000
5.811051845550537 6.954379081726074 0.678243279457092 0.000000000000000
5.811478614807129 -2.482643127441406 0.326770126819611 0.000000000000000
5.819495201110840 -1.558022737503052 0.485773772001266 0.000000000000000
5.819612979888916 0.553086400032043 0.268525123596191 0.000000000000000
5.819774627685547 5.885555744171143 0.221079036593437 0.000000000000000
5.821919918060303 -3.819342613220215 0.266271024942398 0.000000000000000
5.823888778686523 -8.113162994384766 0.905377507209778 0.000000000000000
5.825244903564453 10.088808059692383 0.781947314739227 0.000000000000000
5.826245784759521 -11.939755439758301 0.840504884719849 0.000000000000000
5.826847076416016 11.877797126770020 0.607714712619781 0.000000000000000
5.827186584472656 -2.375540018081665 0.301163941621780 0.000000000000000
5.827637672424316 -4.374082088470459 0.559390962123871 0.000000000000000
5.827753543853760 6.812342643737793 1.192997574806213 0.000000000000000
5.827980995178223 7.887289524078369 0.148922532796860 0.000000000000000
5.829088211059570 -4.290354728698730 0.179415449500084 0.000000000000000
5.829575061798096 13.738946914672852 1.827217936515808 0.000000000000000
5.829738140106201 8.807113647460938 0.464830964803696 0.000000000000000
5.830471992492676 8.357172966003418 0.605399489402771 0.000000000000000
5.831639289855957 11.843104362487793 0.708009958267212 0.000000000000000
5.832884788513184 -3.794291019439697 0.279477804899216 1.000000000000000
5.834354877471924 8.054518699645996 0.725123882293701 0.000000000000000
5.834719181060791 7.348144054412842 0.142484605312347 0.000000000000000
5.836266517639160 -3.978544950485229 0.256532192230225 0.000000000000000
5.836454391479492 12.219367027282715 0.413735806941986 0.000000000000000
5.837491035461426 12.152207374572754 0.256505340337753 0.000000000000000
5.837780475616455 -12.332089424133301 1.236903786659241 0.000000000000000
5.838912487030029 -3.542302370071411 1.012133240699768 0.000000000000000
5.839386940002441 -11.040792465209961 1.662070870399475 0.000000000000000
5.839504718780518 -4.516376018524170 0.786327660083771 0.000000000000000
5.841054916381836 -4.135391235351562 0.577077388763428 0.000000000000000
5.843492984771729 9.527496337890625 0.836460232734680 0.000000000000000
5.844686985015869 9.144002914428711 1.444154977798462 0.000000000000000
5.845668792724609 -4.553842544555664 0.789293348789215 0.000000000000000
5.847650527954102 9.107254981994629 0.943082153797150 0.000000000000000
5.847862720489502 9.126843452453613 0.518766820430756 0.000000000000000
5.850057601928711 2.681331157684326 0.856362223625183 0.000000000000000
5.850458621978760 2.680773496627808 0.332760214805603 0.000000000000000
5.852834224700928 -2.437618255615234 0.636185228824615 0.000000000000000
5.853383541107178 10.790031433105469 0.776608347892761 0.000000000000000
5.855613708496094 11.568057060241699 0.246689513325691 0.000000000000000
5.855616092681885 0.593555152416229 0.349670410156250 0.000000000000000
5.855801582336426 12.456618309020996 2.352785825729370 0.000000000000000
5.856328964233398 -9.805395126342773 0.943002164363861 0.000000000000000
5.856660842895508 -5.017638683319092 1.318261027336121 0.000000000000000
5.857225418090820 8.691545486450195 0.562123477458954 0.000000000000000
5.858005046844482 -2.236251592636108 0.348370313644409 0.000000000000000
5.858005523681641 -10.627536773681641 0.837928235530853 0.000000000000000
5.860460758209229 -0.424604743719101 0.870809793472290 0.000000000000000
5.861513137817383 0.266989499330521 0.439126700162888 1.000000000000000
5.861838340759277 -5.548306465148926 0.682016730308533 0.000000000000000
5.862563610076904 9.187510490417480 1.334321260452271 0.000000000000000
5.864756584167480 -10.566377639770508 0.415677219629288 0.000000000000000
5.864994525909424 9.183542251586914 0.773431122303009 0.000000000000000
5.865036010742188 5.128310203552246 1.154629349708557 0.000000000000000
5.865230560302734 0.673651814460754 0.535209178924561 0.000000000000000
5.867049694061279 -7.879283428192139 0.890570700168610 0.000000000000000
5.868987560272217 10.544058799743652 1.210868597030640 0.000000000000000
5.873173236846924 -5.067440032958984 0.326476484537125 0.000000000000000
5.873538494110107 -9.717874526977539 1.139382600784302 0.000000000000000
5.875767707824707 6.679778099060059 0.751734018325806 0.000000000000000
5.875791072845459 4.368367671966553 1.961848497390747 0.000000000000000
5.877469539642334 9.498635292053223 1.909321784973145 0.000000000000000
5.879934310913086 6.587447643280029 0.729057490825653 0.000000000000000
5.880530357360840 13.484389305114746 1.100951313972473 0.000000000000000
5.880640029907227 6.161916732788086 1.771683454513550 0.000000000000000
5.882108688354492 -8.005763053894043 0.865649402141571 0.000000000000000
5.884117603302002 -3.905550718307495 0.283651530742645 0.000000000000000
5.886561393737793 -0.447158515453339 0.874914705753326 0.000000000000000
5.887414455413818 1.037688016891479 0.148191213607788 0.000000000000000
5.887750148773193 5.784667015075684 0.315642744302750 0.000000000000000
5.888304710388184 8.069551467895508 0.728323400020599 1.000000000000000
5.888613224029541 -9.796812057495117 0.877512037754059 0.000000000000000
5.889465332031250 8.812879562377930 0.588901162147522 0.000000000000000
5.892162799835205 -4.645340442657471 0.503618001937866 1.000000000000000
5.893951892852783 -6.342868804931641 2.320054054260254 0.000000000000000
5.894956588745117 5.676018714904785 0.454656541347504 0.000000000000000
5.895308971405029 -3.227052450180054 0.894352436065674 0.000000000000000
5.895517349243164 -0.664518356323242 0.363908022642136 1.000000000000000
5.896692276000977 -5.075895309448242 0.342423737049103 0.000000000000000
5.897029876708984 11.816770553588867 0.200547367334366 0.000000000000000
5.898238658905029 8.443625450134277 0.077299907803535 0.000000000000000
5.898479938507080 9.337328910827637 0.507316112518311 0.000000000000000
5.899247169494629 -0.630551695823669 0.363908022642136 1.000000000000000
5.900387763977051 2.172323226928711 0.714155197143555 0.000000000000000
5.900393962860107 7.143515110015869 0.354314714670181 0.000000000000000
5.900741100311279 7.840220451354980 0.677561819553375 0.000000000000000
5.902092933654785 -4.650496959686279 0.518848717212677 1.000000000000000
5.902917861938477 -6.896303176879883 1.031055927276611 0.000000000000000
5.904577732086182 -2.131834030151367 1.305750966072083 0.000000000000000
5.904906749725342 7.318552494049072 0.395774960517883 0.000000000000000
5.906166076660156 -10.603446960449219 1.485981822013855 0.000000000000000
5.907115459442139 -2.629029035568237 0.284561663866043 1.000000000000000
5.907440662384033 9.988146781921387 0.421456128358841 0.000000000000000
5.907697677612305 -11.759440422058105 1.751242399215698 0.000000000000000
5.907995223999023 5.933208942413330 0.223642259836197 0.000000000000000
5.909745693206787 -8.607741355895996 0.946547389030457 0.000000000000000
5.911088466644287 12.698369026184082 0.185803696513176 0.000000000000000
5.911323547363281 -6.751498222351074 0.205207735300064 1.000000000000000
5.912159919738770 -2.510902643203735 0.097540609538555 1.000000000000000
5.912573337554932 11.946920394897461 0.612303376197815 0.000000000000000
5.912826061248779 10.326045989990234 1.583452343940735 0.000000000000000
5.913520336151123 -10.730906486511230 0.822397470474243 0.000000000000000
5.914233684539795 12.859066009521484 0.242115646600723 0.000000000000000
5.915256023406982 -0.634455740451813 0.565506398677826 0.000000000000000
5.917046070098877 10.142473220825195 0.200862243771553 0.000000000000000
5.917832851409912 8.872748374938965 0.633629381656647 0.000000000000000
5.918064117431641 -8.352508544921875 1.027161598205566 1.000000000000000
5.918566226959229 3.443858146667480 0.578619599342346 0.000000000000000
5.920328617095947 2.742603540420532 0.966980099678040 0.000000000000000
5.922951221466064 -10.167666435241699 0.767126321792603 0.000000000000000
5.923101425170898 8.580250740051270 0.198371246457100 0.000000000000000
5.923379898071289 10.600383758544922 0.838479340076447 0.000000000000000
5.923761844635010 -2.526453971862793 0.320603430271149 0.000000000000000
5.924335956573486 -6.949266433715820 1.118010520935059 0.000000000000000
5.924836635589600 6.378565788269043 1.488098382949829 1.000000000000000
5.925985813140869 8.460673332214355 1.173255085945129 0.000000000000000
5.928848266601562 0.625133037567139 0.273847907781601 0.000000000000000
5.928852081298828 -6.274408817291260 0.446365505456924 0.000000000000000
5.929272651672363 7.526922225952148 1.020616054534912 0.000000000000000
5.930038928985596 -3.158104181289673 1.148423671722412 0.000000000000000
5.932420730590820 0.154414385557175 0.632112562656403 0.000000000000000
5.934063434600830 -2.909893751144409 0.443612456321716 0.000000000000000
5.934283733367920 -5.083062648773193 0.956628084182739 0.000000000000000
5.936026096343994 -13.758175849914551 1.834509372711182 0.000000000000000
5.937005519866943 -2.885672807693481 0.443076670169830 0.000000000000000
5.937111854553223 -3.731422662734985 0.746926605701447 0.000000000000000
5.937471866607666 -9.774645805358887 0.996555924415588 0.000000000000000
5.937479496002197 9.515256881713867 0.796087443828583 0.000000000000000
5.938627719879150 1.372241020202637 0.104262284934521 0.000000000000000
5.938864707946777 -5.018374443054199 1.329044342041016 0.000000000000000
5.939153194427490 7.750138759613037 0.392167896032333 0.000000000000000
5.939371109008789 -2.574380874633789 0.959356784820557 0.000000000000000
5.939699649810791 -2.701620340347290 0.591547012329102 0.000000000000000
5.939893245697021 -5.052027702331543 0.954683721065521 0.000000000000000
5.943187713623047 0.294726580381393 0.456820636987686 0.000000000000000
5.945652961730957 5.737444400787354 0.829077661037445 0.000000000000000
5.946432590484619 9.671080589294434 0.783921658992767 0.000000000000000
5.947104930877686 -7.928866386413574 0.898515820503235 0.000000000000000
5.947263240814209 5.713589668273926 0.283672541379929 0.000000000000000
5.947312355041504 -3.991306543350220 0.605226695537567 0.000000000000000
5.947765827178955 7.437053203582764 0.144610330462456 0.000000000000000
5.948032855987549 4.509566783905029 0.913852035999298 0.000000000000000
5.950659751892090 1.744381308555603 0.368411213159561 0.000000000000000
5.950747966766357 -2.278440713882446 0.390846043825150 1.000000000000000
5.951018810272217 -6.038067340850830 0.716370165348053 0.000000000000000
5.952447414398193 -6.365820884704590 0.115610018372536 0.000000000000000
5.954395294189453 9.874226570129395 0.352292299270630 0.000000000000000
5.955587863922119 6.456722259521484 0.796313285827637 0.000000000000000
5.957118511199951 -7.304668426513672 0.342333287000656 0.000000000000000
5.957973957061768 -2.908730506896973 1.379062056541443 0.000000000000000
5.958038806915283 -2.267293214797974 0.256040841341019 0.000000000000000
5.959095478057861 5.466634273529053 1.382287025451660 0.000000000000000
5.959648132324219 -5.414881706237793 0.914588093757629 0.000000000000000
5.960662841796875 -10.644398689270020 0.630819201469421 0.000000000000000
5.960946559906006 0.725155234336853 0.426222562789917 0.000000000000000
5.963062763214111 9.761022567749023 0.878124356269836 0.000000000000000
5.964182376861572 -6.605788230895996 0.845988452434540 0.000000000000000
5.965703487396240 -5.828602313995361 0.726756691932678 0.000000000000000
5.965938568115234 -1.460517764091492 0.519006311893463 0.000000000000000
5.968523025512695 5.256041049957275 0.656645476818085 0.000000000000000
5.969727993011475 7.101600646972656 0.930915117263794 0.000000000000000
5.971817970275879 -5.978492259979248 0.177005350589752 1.000000000000000
5.975936889648438 9.844562530517578 0.906359612941742 0.000000000000000
5.978233337402344 7.520515918731689 0.127441614866257 0.000000000000000
5.978533267974854 12.469217300415039 0.316224724054337 0.000000000000000
5.979613780975342 12.248078346252441 0.704765915870667 0.000000000000000
5.980357170104980 8.602051734924316 1.189957737922668 0.000000000000000
5.981171607971191 5.353612899780273 0.631752669811249 0.000000000000000
5.981544017791748 -7.278424739837646 1.253676414489746 1.000000000000000
5.983950138092041 -3.291336774826050 0.300566077232361 0.000000000000000
5.988236427307129 0.797511756420135 0.526403725147247 0.000000000000000
5.990610122680664 5.667217254638672 0.649013698101044 0.000000000000000
5.994789600372314 6.468803882598877 0.388150542974472 0.000000000000000
5.995659828186035 6.717098236083984 0.604341566562653 0.000000000000000
5.996422290802002 -5.486628055572510 0.923165202140808 0.000000000000000
5.999496459960938 6.825719833374023 0.085651114583015 0.000000000000000
6.000086784362793 -3.716443300247192 0.174954846501350 0.000000000000000
6.003793239593506 9.577928543090820 0.519246459007263 0.000000000000000
6.004602909088135 -4.765335083007812 0.529319345951080 0.000000000000000
6.004721641540527 -9.729309082031250 1.036471247673035 0.000000000000000
6.004972457885742 -5.139978408813477 0.751358926296234 0.000000000000000
6.005448818206787 6.693647384643555 0.240196481347084 0.000000000000000
6.005636692047119 -10.637442588806152 0.631645441055298 0.000000000000000
6.008240222930908 -3.386021852493286 1.022101998329163 0.000000000000000
6.008521556854248 11.047000885009766 1.195360898971558 0.000000000000000
6.009008884429932 -4.642781734466553 0.582966804504395 0.000000000000000
6.011378765106201 6.833945751190186 0.208134025335312 0.000000000000000
6.011664390563965 -0.222644105553627 1.611925005912781 0.000000000000000
6.012793064117432 -3.033198356628418 0.426061213016510 0.000000000000000
6.015145778656006 9.937675476074219 0.802107572555542 0.000000000000000
6.016111850738525 -5.407811641693115 0.605403780937195 0.000000000000000
6.016248226165771 4.554018974304199 1.004101872444153 0.000000000000000
6.016503334045410 -6.767979621887207 0.085349529981613 1.000000000000000
6.016926288604736 5.351283550262451 0.618177473545074 0.000000000000000
6.016983032226562 8.595707893371582 0.704261541366577 0.000000000000000
6.018078327178955 6.120622634887695 0.460367172956467 0.000000000000000
6.019491195678711 -3.600593566894531 0.933397889137268 0.000000000000000
6.019593238830566 2.063080072402954 0.604872286319733 0.000000000000000
6.021362304687500 0.069259554147720 0.604236245155334 0.000000000000000
6.021682739257812 0.285239338874817 0.207357332110405 0.000000000000000
6.022564411163330 12.129190444946289 0.517868101596832 0.000000000000000
6.022783279418945 12.938316345214844 1.178341269493103 0.000000000000000
6.022864341735840 -3.324251174926758 0.915458142757416 0.000000000000000
6.025568008422852 12.639113426208496 0.239515915513039 0.000000000000000
6.026170730590820 2.146890640258789 0.491112798452377 0.000000000000000
6.026293277740479 -0.244253277778625 1.616066217422485 0.000000000000000
6.026692867279053 -5.710727214813232 0.943027913570404 0.000000000000000
6.027405261993408 12.471616744995117 0.343367457389832 0.000000000000000
6.029893875122070 11.355884552001953 2.197775602340698 0.000000000000000
6.030685901641846 -7.186072349548340 1.248399972915649 0.000000000000000
6.031920909881592 1.790860056877136 0.548279404640198 0.000000000000000
6.032208442687988 8.013160705566406 0.828130304813385 0.000000000000000
6.032277107238770 -1.406862735748291 1.058787345886230 0.000000000000000
6.032988548278809 5.416138648986816 0.450440615415573 1.000000000000000
6.033620834350586 6.098418712615967 0.476623833179474 0.000000000000000
6.034708499908447 0.559719502925873 0.371744543313980 0.000000000000000
6.034858703613281 9.429917335510254 0.902748346328735 0.000000000000000
6.038013458251953 -7.316626071929932 1.010448098182678 0.000000000000000
6.038027763366699 8.540130615234375 2.802492618560791 0.000000000000000
6.039253711700439 11.381170272827148 2.679925680160522 0.000000000000000
6.040659427642822 8.963743209838867 0.247182026505470 0.000000000000000
6.040773868560791 -5.519464969635010 0.533449470996857 0.000000000000000
6.041161537170410 -5.622445106506348 0.719117522239685 0.000000000000000
6.041547298431396 8.025566101074219 0.674258768558502 0.000000000000000
6.041712284088135 -0.363282650709152 0.371254742145538 0.000000000000000
6.044408321380615 -10.276949882507324 0.777274847030640 0.000000000000000
6.045371055603027 7.426102638244629 0.624265968799591 0.000000000000000
6.046344757080078 -7.409853458404541 1.272671461105347 0.000000000000000
6.047244548797607 2.030305385589600 1.709241032600403 0.000000000000000
6.048656940460205 -5.875492095947266 0.354902297258377 0.000000000000000
6.048707485198975 9.939778327941895 1.106030583381653 0.000000000000000
6.048740386962891 9.825167655944824 1.310488343238831 0.000000000000000
6.048854351043701 7.428270816802979 1.274782061576843 0.000000000000000
6.049749851226807 -11.715153694152832 0.961305439472198 0.000000000000000
6.051530361175537 -3.409026861190796 0.605225384235382 0.000000000000000
6.051914691925049 5.067730426788330 1.349263072013855 0.000000000000000
6.052121639251709 -3.252466917037964 0.487677931785583 1.000000000000000
6.052744388580322 0.864022135734558 0.813623249530792 0.000000000000000
6.053420543670654 10.153903007507324 0.247623175382614 0.000000000000000
6.054352760314941 9.046621322631836 0.228021070361137 0.000000000000000
6.054806709289551 -1.609022855758667 0.372206836938858 1.000000000000000
6.056759834289551 2.194667577743530 1.339962840080261 0.000000000000000
6.057255744934082 13.311147689819336 1.179231166839600 0.000000000000000
6.058271408081055 -2.329678058624268 0.260696142911911 0.000000000000000
6.059587001800537 7.564144611358643 0.557140052318573 0.000000000000000
6.059959888458252 -4.767347812652588 0.943989753723145 0.000000000000000
6.061063289642334 -5.703273296356201 0.945285081863403 0.000000000000000
6.061755657196045 8.353705406188965 0.236025452613831 0.000000000000000
6.063617229461670 8.010568618774414 0.713108599185944 0.000000000000000
6.064184665679932 9.826047897338867 0.175342306494713 0.000000000000000
6.067348957061768 13.333328247070312 0.955004572868347 0.000000000000000
6.067619800567627 -10.182163238525391 1.262530446052551 0.000000000000000
6.070001602172852 12.524032592773438 0.264799356460571 0.000000000000000
6.070481777191162 7.482792854309082 0.294391274452209 0.000000000000000
6.070901870727539 -4.162126541137695 0.408946812152863 0.000000000000000
6.070966243743896 -1.478146195411682 0.544459819793701 0.000000000000000
6.071231365203857 -5.785193443298340 0.546720564365387 0.000000000000000
6.073163986206055 -7.484762191772461 1.428480029106140 0.000000000000000
6.073406696319580 5.187913894653320 0.674943983554840 0.000000000000000
6.076706409454346 2.020391464233398 0.682105362415314 0.000000000000000
6.076858997344971 13.315355300903320 0.897770404815674 0.000000000000000
6.079051971435547 -4.165219306945801 1.259626626968384 0.000000000000000
6.080100536346436 0.527878642082214 0.553266167640686 0.000000000000000
6.080260753631592 0.547570347785950 0.531959474086761 0.000000000000000
6.080310821533203 -10.562037467956543 2.534932851791382 0.000000000000000
6.080799579620361 5.306862354278564 0.526163280010223 0.000000000000000
6.084124565124512 -1.780044674873352 0.462182879447937 0.000000000000000
6.084696769714355 2.046661615371704 0.683800041675568 0.000000000000000
6.087058544158936 9.847327232360840 0.509502589702606 0.000000000000000
6.090641498565674 -3.089691400527954 0.445235103368759 0.000000000000000
6.091661453247070 -3.402003288269043 0.307073354721069 0.000000000000000
6.091808319091797 13.225679397583008 0.444885104894638 0.000000000000000
6.093817234039307 1.809471487998962 0.377663016319275 0.000000000000000
6.094652652740479 -8.652218818664551 0.832921802997589 0.000000000000000
6.095229148864746 10.501304626464844 0.908702731132507 0.000000000000000
6.097112655639648 10.056434631347656 1.335768222808838 1.000000000000000
6.097607135772705 -4.569564342498779 0.496758490800858 0.000000000000000
6.099209308624268 1.990700602531433 0.455392599105835 0.000000000000000
6.099229335784912 -3.576107025146484 0.283972561359406 0.000000000000000
6.100253582000732 6.345310688018799 0.726753473281860 0.000000000000000
6.103095054626465 7.835260868072510 0.074538126587868 0.000000000000000
6.103331565856934 9.051295280456543 0.396485269069672 0.000000000000000
6.103467464447021 -6.298509597778320 2.350077152252197 0.000000000000000
6.104065895080566 -10.230732917785645 0.960616886615753 0.000000000000000
6.104663848876953 9.891637802124023 0.533930003643036 0.000000000000000
6.106765747070312 7.150611400604248 0.106682717800140 0.000000000000000
6.108199119567871 13.299745559692383 0.503405332565308 0.000000000000000
6.110216140747070 -3.322825908660889 0.789994716644287 0.000000000000000
6.110637664794922 -6.715737342834473 2.432899236679077 0.000000000000000
6.110973358154297 -12.895225524902344 1.243437886238098 0.000000000000000
6.111159801483154 7.047955513000488 0.464397609233856 0.000000000000000
6.111302852630615 -12.635646820068359 0.887985408306122 0.000000000000000
6.111487865447998 8.968858718872070 2.908090829849243 0.000000000000000
6.112171649932861 1.473721265792847 0.931795895099640 0.000000000000000
6.114715576171875 1.521055698394775 0.192514806985855 0.000000000000000
6.115285873413086 -6.856173992156982 0.298348635435104 0.000000000000000
6.115385055541992 7.652671813964844 0.017097236588597 0.000000000000000
6.117033958435059 1.099085450172424 0.249619752168655 0.000000000000000
6.117918014526367 9.897250175476074 0.691275119781494 0.000000000000000
6.119444847106934 -4.369632244110107 0.359867006540298 0.000000000000000
6.120726108551025 7.586039543151855 0.110585190355778 0.000000000000000
6.122028827667236 -10.414744377136230 0.810878574848175 0.000000000000000
6.122170448303223 8.659141540527344 0.814132750034332 0.000000000000000
6.122826576232910 4.772671699523926 1.150524497032166 1.000000000000000
6.122931957244873 -2.121212720870972 0.023750388994813 1.000000000000000
6.123280525207520 10.522544860839844 0.652954459190369 0.000000000000000
6.124527931213379 -6.783383369445801 0.402220368385315 0.000000000000000
6.125777721405029 2.479204416275024 0.558411717414856 0.000000000000000
6.126069068908691 7.436275959014893 0.424028545618057 0.000000000000000
6.126442909240723 -8.577550888061523 0.261292338371277 1.000000000000000
6.126730442047119 -4.822646617889404 0.328158468008041 0.000000000000000
6.127170085906982 -3.589328527450562 0.203312888741493 0.000000000000000
6.128435134887695 -10.232569694519043 0.984803617000580 0.000000000000000
6.128774166107178 -3.305250167846680 0.790897548198700 0.000000000000000
6.130991935729980 2.173264265060425 1.352995991706848 0.000000000000000
6.131114482879639 10.205493927001953 1.006016850471497 0.000000000000000
6.133904933929443 -8.877673149108887 0.537189722061157 0.000000000000000
6.136198520660400 8.937913894653320 2.904985189437866 0.000000000000000
6.136433601379395 -1.360639214515686 1.307380080223083 1.000000000000000
6.138654232025146 1.140615105628967 0.058847442269325 0.000000000000000
6.139101982116699 10.180527687072754 1.192897319793701 0.000000000000000
6.140758991241455 6.525082588195801 1.863729476928711 0.000000000000000
6.141092300415039 4.789667129516602 0.706028282642365 0.000000000000000
6.141448974609375 -10.255114555358887 1.771526336669922 0.000000000000000
6.141513824462891 -4.075932979583740 0.739620268344879 0.000000000000000
6.146484375000000 -5.230698585510254 0.731669187545776 0.000000000000000
6.147956848144531 6.115640640258789 0.531903266906738 0.000000000000000
6.150230884552002 7.920552253723145 0.017502153292298 0.000000000000000
6.150382518768311 0.748200237751007 0.058395057916641 0.000000000000000
6.150464534759521 8.475955009460449 0.400476515293121 0.000000000000000
6.151672840118408 7.467355728149414 0.574797391891479 0.000000000000000
6.152432918548584 -8.651556015014648 0.712565898895264 0.000000000000000
6.154356002807617 -6.114953517913818 0.065112046897411 1.000000000000000
6.155255317687988 11.797976493835449 0.585655391216278 0.000000000000000
6.155445575714111 -5.348583698272705 0.739253163337708 0.000000000000000
6.157630443572998 -8.765322685241699 1.311474919319153 1.000000000000000
6.157875537872314 -6.945053100585938 0.748432397842407 0.000000000000000
6.157917976379395 -4.809708118438721 0.956628084182739 0.000000000000000
6.157928466796875 6.874219894409180 0.804189443588257 0.000000000000000
6.159286499023438 -12.049783706665039 1.800840616226196 0.000000000000000
6.159313678741455 -10.213636398315430 1.081252574920654 0.000000000000000
6.159901618957520 0.361222207546234 0.342823028564453 0.000000000000000
6.160022258758545 -5.347656726837158 1.696743249893188 0.000000000000000
6.160598278045654 1.829301238059998 1.336704492568970 0.000000000000000
6.161086082458496 -9.180426597595215 0.784759283065796 0.000000000000000
6.161831378936768 10.493785858154297 0.746427774429321 0.000000000000000
6.162273406982422 -2.269839763641357 0.658948957920074 0.000000000000000
6.163379192352295 1.469574689865112 0.674902975559235 0.000000000000000
6.164428234100342 6.586531162261963 0.223624989390373 0.000000000000000
6.166051864624023 -4.052033424377441 0.566433072090149 0.000000000000000
6.166276454925537 4.813468933105469 1.159320592880249 0.000000000000000
6.166430473327637 -8.357222557067871 0.677090466022491 0.000000000000000
6.167091369628906 0.049404855817556 0.093653559684753 0.000000000000000
6.167211532592773 11.658160209655762 0.631201326847076 0.000000000000000
6.167653560638428 0.496022254228592 1.287015914916992 0.000000000000000
6.168316841125488 1.818009495735168 0.730406522750854 0.000000000000000
6.168647766113281 -4.582578182220459 1.313543319702148 0.000000000000000
6.168705463409424 0.404750794172287 0.522374331951141 0.000000000000000
6.170354366302490 -3.436067819595337 0.365189373493195 0.000000000000000
6.171503543853760 -6.049070358276367 0.330469548702240 1.000000000000000
6.173866271972656 12.753073692321777 0.296795994043350 0.000000000000000
6.174033164978027 9.204585075378418 0.317332953214645 0.000000000000000
6.175369262695312 0.284636467695236 1.656441926956177 0.000000000000000
6.175589561462402 11.532889366149902 2.236191034317017 0.000000000000000
6.177135467529297 12.361301422119141 0.183310046792030 0.000000000000000
6.177789688110352 7.403777599334717 0.424380302429199 0.000000000000000
6.179604053497314 9.769884109497070 1.007320046424866 0.000000000000000
6.180729389190674 -3.845968008041382 0.488616615533829 0.000000000000000
6.182224273681641 10.973468780517578 1.064282894134521 0.000000000000000
6.183344841003418 1.085616469383240 0.276295661926270 0.000000000000000
6.183455467224121 -7.721527099609375 2.057596445083618 0.000000000000000
6.183458328247070 -7.853822708129883 1.330184340476990 0.000000000000000
6.184876918792725 5.868001937866211 0.720411777496338 0.000000000000000
6.186370849609375 8.073613166809082 0.310759931802750 0.000000000000000
