# This PCD file was generated using the MATLAB® pcwrite function
# from Computer Vision Toolbox®.
# .PCD v.7 - Point Cloud Data file format
VERSION .7
FIELDS x y z intensity
SIZE 8 8 8 8
TYPE F F F F
COUNT 1 1 1 1
WIDTH 641
HEIGHT 1
VIEWPOINT 0 0 0 1 0 0 0
POINTS 641
DATA ascii
12.766364097595215 -15.335720062255859 2.957235097885132 0.000000000000000
12.768698692321777 -6.090084075927734 -0.192598819732666 0.000000000000000
12.768830299377441 15.297372817993164 1.894105672836304 0.000000000000000
12.769606590270996 11.356539726257324 0.489278852939606 0.000000000000000
12.771160125732422 10.900281906127930 1.062248706817627 0.000000000000000
12.772896766662598 10.129489898681641 2.415984392166138 0.000000000000000
12.774093627929688 -2.599382400512695 -0.327696472406387 0.000000000000000
12.774205207824707 8.363667488098145 -0.589230656623840 0.000000000000000
12.774665832519531 2.550541639328003 -0.177352100610733 0.000000000000000
12.775560379028320 -13.081548690795898 1.657631635665894 0.000000000000000
12.776659965515137 -19.946846008300781 0.041343338787556 1.000000000000000
12.779495239257812 21.610679626464844 2.024432659149170 1.000000000000000
12.782168388366699 16.963119506835938 2.262386798858643 0.000000000000000
12.783052444458008 20.376350402832031 1.986064553260803 0.000000000000000
12.783946990966797 8.051100730895996 0.984929740428925 0.000000000000000
12.785725593566895 -18.274839401245117 2.120081186294556 0.000000000000000
12.786938667297363 8.309010505676270 2.260000705718994 0.000000000000000
12.789477348327637 -5.291822910308838 -1.442540168762207 1.000000000000000
12.789944648742676 -14.027413368225098 1.420668959617615 0.000000000000000
12.790822982788086 -15.655743598937988 1.552026629447937 0.000000000000000
12.794060707092285 15.178382873535156 1.141138553619385 0.000000000000000
12.797676086425781 9.918313980102539 2.399564743041992 0.000000000000000
12.803460121154785 16.487699508666992 2.094659090042114 0.000000000000000
12.805642127990723 -10.688583374023438 1.673730254173279 0.000000000000000
12.805724143981934 8.638866424560547 1.066629528999329 0.000000000000000
12.806426048278809 12.252635002136230 2.358557701110840 0.000000000000000
12.814188003540039 -21.900764465332031 1.654213666915894 1.000000000000000
12.814949989318848 -21.995321273803711 0.631026923656464 1.000000000000000
12.817740440368652 1.303792119026184 -0.720320701599121 0.000000000000000
12.818393707275391 -8.586998939514160 1.752434015274048 0.000000000000000
12.825424194335938 8.339120864868164 2.614955186843872 0.000000000000000
12.825475692749023 -21.075967788696289 1.608415007591248 1.000000000000000
12.829262733459473 14.502876281738281 0.442787766456604 0.000000000000000
12.830999374389648 19.095975875854492 3.932542562484741 0.000000000000000
12.833860397338867 -15.326279640197754 3.416964769363403 0.000000000000000
12.834861755371094 -8.272137641906738 1.024916172027588 0.000000000000000
12.842178344726562 19.069446563720703 3.929846525192261 1.000000000000000
12.842911720275879 10.617786407470703 1.510647654533386 0.000000000000000
12.842934608459473 19.297986984252930 0.574625074863434 1.000000000000000
12.844195365905762 14.011085510253906 0.690328598022461 0.000000000000000
12.846096038818359 -18.699573516845703 -0.221745461225510 1.000000000000000
12.849714279174805 -17.536991119384766 1.711036086082458 0.000000000000000
12.857410430908203 8.367574691772461 2.273488044738770 0.000000000000000
12.861976623535156 19.290103912353516 0.574724197387695 1.000000000000000
12.862378120422363 15.218409538269043 0.493937671184540 0.000000000000000
12.862658500671387 9.597667694091797 1.232068538665771 0.000000000000000
12.866193771362305 14.591782569885254 0.482240974903107 0.000000000000000
12.866502761840820 20.552368164062500 0.461344391107559 1.000000000000000
12.867767333984375 10.857178688049316 1.467055439949036 0.000000000000000
12.872256278991699 12.126384735107422 -0.512509167194366 0.000000000000000
12.872808456420898 11.389711380004883 1.385950207710266 0.000000000000000
12.874805450439453 13.599513053894043 3.895259618759155 0.000000000000000
12.875439643859863 10.716754913330078 0.061399150639772 0.000000000000000
12.882289886474609 -14.633702278137207 1.853225827217102 0.000000000000000
12.883427619934082 -19.714965820312500 -0.184975087642670 1.000000000000000
12.885083198547363 21.403753280639648 2.014466285705566 0.000000000000000
12.885225296020508 -16.681159973144531 2.804942607879639 0.000000000000000
12.885725021362305 20.095491409301758 0.041664481163025 1.000000000000000
12.886697769165039 20.624641418457031 0.462714046239853 1.000000000000000
12.887202262878418 -20.616626739501953 -0.377695739269257 1.000000000000000
12.887774467468262 12.416927337646484 1.512224793434143 0.000000000000000
12.887871742248535 9.343671798706055 0.547544360160828 0.000000000000000
12.889407157897949 10.681626319885254 0.511459052562714 0.000000000000000
12.891247749328613 6.349147796630859 -0.416449904441833 0.000000000000000
12.891379356384277 -20.038814544677734 0.178825467824936 1.000000000000000
12.891793251037598 13.591762542724609 1.582952380180359 0.000000000000000
12.891942977905273 20.038162231445312 2.013380765914917 1.000000000000000
12.892980575561523 -15.234113693237305 1.301096081733704 0.000000000000000
12.893690109252930 13.199742317199707 1.487863063812256 0.000000000000000
12.902973175048828 5.036364555358887 -0.161977529525757 0.000000000000000
12.904699325561523 13.076109886169434 1.091474652290344 0.000000000000000
12.907586097717285 -21.106241226196289 -0.431842356920242 1.000000000000000
12.917384147644043 19.370273590087891 3.979719400405884 0.000000000000000
12.921146392822266 -19.786254882812500 -0.140234291553497 1.000000000000000
12.922336578369141 -19.591054916381836 0.717044353485107 1.000000000000000
12.923806190490723 9.434224128723145 1.228394269943237 0.000000000000000
12.924484252929688 2.533575773239136 -0.381687819957733 0.000000000000000
12.925648689270020 13.930124282836914 0.799791634082794 0.000000000000000
12.925949096679688 13.016062736511230 1.840664029121399 0.000000000000000
12.927782058715820 8.353119850158691 1.270831227302551 0.000000000000000
12.931173324584961 9.330380439758301 0.671118557453156 0.000000000000000
12.933306694030762 12.442518234252930 -0.209873855113983 0.000000000000000
12.934267997741699 -13.336876869201660 1.354553461074829 0.000000000000000
12.936706542968750 13.569699287414551 1.547971725463867 0.000000000000000
12.936895370483398 -19.804332733154297 0.177534639835358 1.000000000000000
12.937731742858887 -20.941432952880859 0.137480974197388 1.000000000000000
12.939965248107910 15.243175506591797 1.457810163497925 0.000000000000000
12.940761566162109 -20.205368041992188 0.686982333660126 1.000000000000000
12.941271781921387 -20.025611877441406 -0.645180046558380 1.000000000000000
12.941731452941895 10.364946365356445 1.304931759834290 0.000000000000000
12.941928863525391 13.358772277832031 0.675520300865173 0.000000000000000
12.942814826965332 12.315796852111816 1.337082624435425 0.000000000000000
12.943319320678711 -17.385049819946289 2.653573513031006 0.000000000000000
12.943922996520996 -10.945821762084961 1.334118604660034 0.000000000000000
12.944106101989746 17.303375244140625 1.700679421424866 0.000000000000000
12.944792747497559 -19.777193069458008 0.949357748031616 1.000000000000000
12.947778701782227 10.729999542236328 -0.002934945514426 0.000000000000000
12.948673248291016 -9.971100807189941 1.856261730194092 0.000000000000000
12.950439453125000 -20.896694183349609 -0.429119765758514 1.000000000000000
12.950693130493164 -15.660818099975586 2.039147615432739 0.000000000000000
12.951280593872070 -10.443649291992188 1.245137572288513 0.000000000000000
12.954151153564453 12.745121002197266 1.254825830459595 0.000000000000000
12.960547447204590 20.526142120361328 1.535790324211121 1.000000000000000
12.961250305175781 -18.416021347045898 2.757111072540283 0.000000000000000
12.967783927917480 -19.287914276123047 0.531491637229919 1.000000000000000
12.970604896545410 9.068284988403320 0.970747947692871 0.000000000000000
12.971068382263184 -19.815074920654297 1.087866187095642 1.000000000000000
12.972692489624023 -19.025814056396484 0.128611952066422 0.000000000000000
12.974023818969727 20.587257385253906 2.592000484466553 1.000000000000000
12.974632263183594 8.980376243591309 0.724815905094147 0.000000000000000
12.975241661071777 -19.706413269042969 0.267682403326035 1.000000000000000
12.981962203979492 14.655913352966309 1.389683723449707 0.000000000000000
12.982443809509277 21.981885910034180 0.976276099681854 1.000000000000000
12.986453056335449 19.723434448242188 1.585057258605957 0.000000000000000
12.987329483032227 7.688642024993896 -0.321415096521378 0.000000000000000
12.990032196044922 17.238975524902344 1.698796391487122 0.000000000000000
12.991921424865723 9.080835342407227 -0.185364410281181 0.000000000000000
12.992254257202148 -22.486017227172852 2.605843544006348 0.000000000000000
12.995513916015625 11.927400588989258 2.614188671112061 0.000000000000000
13.002173423767090 -8.636006355285645 1.047686219215393 0.000000000000000
13.002423286437988 16.748140335083008 0.851596713066101 0.000000000000000
13.004055023193359 -19.969507217407227 -0.278678059577942 1.000000000000000
13.006745338439941 14.407987594604492 1.691367268562317 0.000000000000000
13.007263183593750 12.113360404968262 3.038200855255127 0.000000000000000
13.009396553039551 12.833052635192871 -0.283877581357956 0.000000000000000
13.012838363647461 19.704305648803711 2.369420528411865 0.000000000000000
13.013059616088867 19.323188781738281 2.111945390701294 1.000000000000000
13.013701438903809 -10.447587013244629 1.087976574897766 0.000000000000000
13.015335083007812 11.748294830322266 0.299925118684769 0.000000000000000
13.016464233398438 -1.031733036041260 -0.529000163078308 0.000000000000000
13.017941474914551 19.163961410522461 1.153337001800537 1.000000000000000
13.022116661071777 11.809395790100098 -0.138071581721306 0.000000000000000
13.023226737976074 13.298417091369629 1.428942322731018 0.000000000000000
13.026864051818848 6.601477146148682 -0.339063316583633 0.000000000000000
13.027290344238281 12.058351516723633 2.173315048217773 0.000000000000000
13.029040336608887 -10.929175376892090 1.305551767349243 0.000000000000000
13.029530525207520 19.940063476562500 0.133035302162170 1.000000000000000
13.030019760131836 19.692949295043945 2.369420528411865 1.000000000000000
13.035031318664551 19.399629592895508 2.118807077407837 1.000000000000000
13.037326812744141 11.535275459289551 0.063803516328335 0.000000000000000
13.037881851196289 13.675825119018555 1.796069502830505 0.000000000000000
13.038102149963379 7.916694164276123 2.260587215423584 0.000000000000000
13.039755821228027 -20.096347808837891 -1.154888749122620 1.000000000000000
13.040287971496582 -20.276508331298828 -0.883992791175842 1.000000000000000
13.042670249938965 13.483457565307617 0.789531469345093 0.000000000000000
13.043326377868652 7.496608257293701 1.430042266845703 0.000000000000000
13.046029090881348 7.911539077758789 2.030364751815796 0.000000000000000
13.046764373779297 12.770978927612305 1.366337776184082 0.000000000000000
13.047442436218262 -20.632631301879883 0.886611342430115 1.000000000000000
13.047748565673828 6.221223831176758 -0.169040367007256 0.000000000000000
13.049065589904785 18.001436233520508 3.800446748733521 0.000000000000000
13.049521446228027 12.478240966796875 1.211897730827332 0.000000000000000
13.052908897399902 -20.753360748291016 3.001615047454834 0.000000000000000
13.054570198059082 20.177761077880859 2.942312002182007 1.000000000000000
13.054896354675293 8.252646446228027 -0.477272331714630 0.000000000000000
13.056829452514648 14.410286903381348 0.631491661071777 0.000000000000000
13.057102203369141 -19.866952896118164 -0.551952719688416 1.000000000000000
13.058057785034180 -22.161108016967773 1.726498842239380 1.000000000000000
13.061166763305664 11.759510993957520 0.773487210273743 0.000000000000000
13.061588287353516 11.741733551025391 0.401636511087418 0.000000000000000
13.061706542968750 -7.961637973785400 2.267037630081177 0.000000000000000
13.062579154968262 13.701729774475098 1.124686121940613 0.000000000000000
13.062760353088379 11.031865119934082 1.550011992454529 0.000000000000000
13.064849853515625 -21.822858810424805 1.707211375236511 1.000000000000000
13.064870834350586 -20.111217498779297 -1.110003709793091 1.000000000000000
13.065105438232422 10.420038223266602 -0.387991696596146 0.000000000000000
13.066587448120117 -20.150020599365234 -0.096406146883965 1.000000000000000
13.067887306213379 12.247553825378418 2.383356809616089 0.000000000000000
13.070516586303711 10.543197631835938 0.803677439689636 0.000000000000000
13.076228141784668 18.530550003051758 2.415754556655884 0.000000000000000
13.077468872070312 -14.709327697753906 1.510998606681824 0.000000000000000
13.080746650695801 -8.490193367004395 2.075214147567749 0.000000000000000
13.084392547607422 -9.070878028869629 1.949226975440979 0.000000000000000
13.085597038269043 11.403635025024414 1.098111510276794 0.000000000000000
13.089146614074707 12.030181884765625 2.634712696075439 0.000000000000000
13.092450141906738 12.947920799255371 2.091454505920410 0.000000000000000
13.097013473510742 14.200074195861816 2.570669651031494 0.000000000000000
13.098041534423828 12.624805450439453 -0.387418448925018 0.000000000000000
13.098929405212402 -8.097644805908203 2.282284021377563 0.000000000000000
13.103141784667969 10.581209182739258 0.579308032989502 0.000000000000000
13.105011940002441 12.296961784362793 1.708253145217896 0.000000000000000
13.107744216918945 6.634990692138672 -0.369311928749084 0.000000000000000
13.110265731811523 -21.011802673339844 0.280978053808212 1.000000000000000
13.111588478088379 19.301820755004883 2.650319337844849 1.000000000000000
13.115756988525391 -12.307043075561523 0.895382523536682 0.000000000000000
13.118325233459473 -7.622179031372070 2.593388795852661 0.000000000000000
13.118592262268066 -7.451186656951904 2.007676124572754 0.000000000000000
13.118710517883301 18.729202270507812 2.435666799545288 0.000000000000000
13.119603157043457 -9.582421302795410 1.415664911270142 0.000000000000000
13.120413780212402 -5.397667407989502 -0.902534842491150 1.000000000000000
13.121182441711426 -21.447095870971680 -0.825275421142578 0.000000000000000
13.124139785766602 13.286390304565430 1.693023324012756 0.000000000000000
13.124346733093262 2.489605426788330 -0.387133866548538 0.000000000000000
13.127991676330566 -20.208383560180664 -1.486573934555054 1.000000000000000
13.135787010192871 -20.171798706054688 -1.392185211181641 1.000000000000000
13.135902404785156 -15.123916625976562 1.745535492897034 0.000000000000000
13.136356353759766 10.223060607910156 0.284737288951874 0.000000000000000
13.140833854675293 19.521770477294922 3.131552696228027 1.000000000000000
13.140863418579102 -8.855617523193359 1.094183802604675 0.000000000000000
13.141254425048828 -12.367244720458984 1.350516080856323 0.000000000000000
13.142251014709473 13.224161148071289 1.772222757339478 0.000000000000000
13.143361091613770 11.360671997070312 1.743219494819641 0.000000000000000
13.145500183105469 -19.382286071777344 -0.138976261019707 0.000000000000000
13.146191596984863 -14.697536468505859 1.551921010017395 0.000000000000000
13.147260665893555 10.907714843750000 0.554762303829193 0.000000000000000
13.148042678833008 9.088538169860840 -0.125536769628525 0.000000000000000
13.149553298950195 -21.073133468627930 -0.195090919733047 1.000000000000000
13.155487060546875 -10.339712142944336 2.226647377014160 0.000000000000000
13.157257080078125 20.492965698242188 2.010750532150269 0.000000000000000
13.159697532653809 18.052415847778320 2.241624593734741 0.000000000000000
13.160306930541992 11.831306457519531 0.983203113079071 0.000000000000000
13.165937423706055 9.554386138916016 1.091886639595032 0.000000000000000
13.168577194213867 -14.916337966918945 1.527532219886780 0.000000000000000
13.170476913452148 -8.889620780944824 1.804799318313599 0.000000000000000
13.177414894104004 -21.886745452880859 2.721219062805176 0.000000000000000
13.178107261657715 -12.257861137390137 0.895979106426239 0.000000000000000
13.178709030151367 -17.402639389038086 3.235190391540527 0.000000000000000
13.180554389953613 -6.079666614532471 -0.699751615524292 0.000000000000000
13.180913925170898 11.632402420043945 0.537111401557922 0.000000000000000
13.181464195251465 13.152054786682129 2.759617090225220 0.000000000000000
13.182211875915527 -23.062217712402344 0.097361929714680 1.000000000000000
13.190243721008301 -10.570400238037109 1.232390642166138 0.000000000000000
13.190593719482422 20.353721618652344 3.227583408355713 1.000000000000000
13.203779220581055 11.493658065795898 0.804106950759888 0.000000000000000
13.204060554504395 12.450724601745605 2.221924304962158 0.000000000000000
13.204393386840820 19.059625625610352 3.436326980590820 1.000000000000000
13.208262443542480 10.682874679565430 -0.100808225572109 0.000000000000000
13.209191322326660 -14.960762023925781 1.301096081733704 0.000000000000000
13.211090087890625 9.537951469421387 1.994919538497925 0.000000000000000
13.211594581604004 -20.241827011108398 0.088594809174538 1.000000000000000
13.211811065673828 -19.456655502319336 0.673359453678131 1.000000000000000
13.214653015136719 5.810184478759766 -0.113378919661045 0.000000000000000
13.217371940612793 -9.094921112060547 1.964295864105225 0.000000000000000
13.219423294067383 13.552134513854980 1.234219789505005 0.000000000000000
13.222386360168457 20.409019470214844 1.210615992546082 1.000000000000000
13.225136756896973 -25.198720932006836 -1.207687139511108 1.000000000000000
13.229484558105469 -19.233196258544922 0.085560046136379 1.000000000000000
13.233886718750000 -12.367600440979004 1.355591058731079 0.000000000000000
13.234215736389160 18.306577682495117 3.347779989242554 0.000000000000000
13.234617233276367 -19.757694244384766 0.589493751525879 1.000000000000000
13.234817504882812 9.610014915466309 2.176521301269531 0.000000000000000
13.235278129577637 -19.220054626464844 2.115556955337524 0.000000000000000
13.235425949096680 -12.989172935485840 1.762759804725647 0.000000000000000
13.238522529602051 -18.574806213378906 2.792595863342285 0.000000000000000
13.239824295043945 -21.390308380126953 0.623592615127563 1.000000000000000
13.240974426269531 12.599511146545410 1.737399101257324 0.000000000000000
13.241044044494629 13.579975128173828 1.309659004211426 0.000000000000000
13.242536544799805 12.600997924804688 1.086018323898315 0.000000000000000
13.244131088256836 10.871880531311035 0.194397613406181 0.000000000000000
13.246555328369141 -21.733739852905273 1.855712056159973 0.000000000000000
13.254432678222656 20.746112823486328 2.145199537277222 0.000000000000000
13.257431030273438 19.663831710815430 2.693656206130981 1.000000000000000
13.259880065917969 20.794633865356445 2.149019002914429 0.000000000000000
13.260223388671875 9.354751586914062 0.807872891426086 0.000000000000000
13.261909484863281 12.669829368591309 -0.496300697326660 0.000000000000000
13.263460159301758 10.801237106323242 0.884468793869019 0.000000000000000
13.264617919921875 -4.367341995239258 -0.726991295814514 1.000000000000000
13.267641067504883 -18.948856353759766 -0.004037295933813 0.000000000000000
13.271073341369629 -13.768544197082520 2.834090232849121 0.000000000000000
13.272599220275879 19.278577804565430 3.114668130874634 0.000000000000000
13.277544975280762 12.792458534240723 2.453533172607422 0.000000000000000
13.278304100036621 -18.648519515991211 2.600211143493652 0.000000000000000
13.278373718261719 21.479387283325195 2.200409412384033 1.000000000000000
13.283330917358398 10.918037414550781 0.228089705109596 0.000000000000000
13.287384986877441 -13.218914985656738 3.898518085479736 0.000000000000000
13.288068771362305 -19.826265335083008 0.775083303451538 1.000000000000000
13.289019584655762 -10.170885086059570 1.058712959289551 0.000000000000000
13.295775413513184 11.228652954101562 0.197437912225723 0.000000000000000
13.295855522155762 11.869509696960449 1.265073776245117 0.000000000000000
13.295936584472656 12.563686370849609 1.369024634361267 0.000000000000000
13.297565460205078 13.518483161926270 1.529013872146606 0.000000000000000
13.301964759826660 -11.261343002319336 1.338006854057312 0.000000000000000
13.305610656738281 -22.177555084228516 0.690791845321655 1.000000000000000
13.307207107543945 -21.838397979736328 -1.331292510032654 1.000000000000000
13.308650016784668 14.005775451660156 0.367599338293076 0.000000000000000
13.309369087219238 14.912950515747070 0.380306661128998 0.000000000000000
13.312032699584961 -13.196826934814453 1.149763226509094 0.000000000000000
13.312089920043945 19.984058380126953 0.041908826678991 1.000000000000000
13.313774108886719 11.177130699157715 -0.136532217264175 0.000000000000000
13.315434455871582 19.650562286376953 2.256347894668579 1.000000000000000
13.316215515136719 -20.692848205566406 0.657256186008453 1.000000000000000
13.318165779113770 13.864794731140137 0.513501405715942 0.000000000000000
13.320777893066406 -10.302153587341309 2.878472805023193 0.000000000000000
13.322857856750488 7.015733242034912 -0.667943537235260 0.000000000000000
13.324232101440430 -22.130598068237305 2.033032178878784 0.000000000000000
13.325903892517090 10.552904129028320 2.519191265106201 0.000000000000000
13.327281951904297 20.760972976684570 1.798702836036682 1.000000000000000
13.330544471740723 9.745053291320801 2.021654605865479 0.000000000000000
13.332728385925293 9.121600151062012 0.835308730602264 0.000000000000000
13.334941864013672 18.668704986572266 1.318817377090454 0.000000000000000
13.335506439208984 -15.860004425048828 1.390842914581299 0.000000000000000
13.335683822631836 -15.774508476257324 1.625672578811646 0.000000000000000
13.337307929992676 13.018968582153320 1.251008510589600 0.000000000000000
13.337543487548828 6.865756034851074 1.238574862480164 0.000000000000000
13.338056564331055 -13.223086357116699 1.260652303695679 0.000000000000000
13.338189125061035 -11.651229858398438 1.154592752456665 0.000000000000000
13.340145111083984 -8.571456909179688 1.507259964942932 0.000000000000000
13.346070289611816 13.335830688476562 1.793419957160950 0.000000000000000
13.351173400878906 20.750360488891602 1.798993706703186 1.000000000000000
13.353563308715820 -20.663600921630859 -1.422901988029480 1.000000000000000
13.356184005737305 -19.837182998657227 0.271312624216080 1.000000000000000
13.356671333312988 15.127806663513184 0.888156056404114 0.000000000000000
13.365771293640137 20.350547790527344 -0.191226795315742 1.000000000000000
13.366063117980957 7.402532577514648 1.172975778579712 0.000000000000000
13.366165161132812 -20.612001419067383 0.278709173202515 1.000000000000000
13.378554344177246 11.165995597839355 0.264622956514359 0.000000000000000
13.382300376892090 18.892126083374023 2.200705528259277 0.000000000000000
13.382778167724609 15.022611618041992 1.079045772552490 0.000000000000000
13.384200096130371 -9.928391456604004 1.086415290832520 0.000000000000000
13.388364791870117 -8.887798309326172 1.047642588615417 0.000000000000000
13.390904426574707 10.393041610717773 2.512154579162598 0.000000000000000
13.393380165100098 12.458099365234375 0.102161280810833 0.000000000000000
13.393704414367676 -9.184257507324219 1.729836106300354 0.000000000000000
13.395991325378418 20.106187820434570 3.580582618713379 0.000000000000000
13.397231101989746 -10.436221122741699 1.539538860321045 0.000000000000000
13.397307395935059 8.945371627807617 -0.466854959726334 0.000000000000000
13.401365280151367 19.232572555541992 1.121859550476074 0.000000000000000
13.402237892150879 18.625104904174805 2.080165147781372 0.000000000000000
13.402816772460938 -15.078986167907715 1.626747488975525 0.000000000000000
13.403306961059570 19.967311859130859 1.799792647361755 1.000000000000000
13.403986930847168 15.197959899902344 1.555700778961182 0.000000000000000
13.409196853637695 11.112382888793945 1.068214535713196 0.000000000000000
13.409632682800293 10.230947494506836 -0.197244942188263 0.000000000000000
13.409804344177246 -12.448953628540039 1.739291787147522 0.000000000000000
13.409866333007812 11.578359603881836 0.507251918315887 0.000000000000000
13.411550521850586 13.128053665161133 1.783956885337830 0.000000000000000
13.413190841674805 -25.101694107055664 -1.153048634529114 1.000000000000000
13.416320800781250 15.240340232849121 0.386317908763885 0.000000000000000
13.416607856750488 13.480464935302734 0.179256618022919 0.000000000000000
13.418376922607422 19.660297393798828 0.224344089627266 1.000000000000000
13.420118331909180 -20.897563934326172 0.138709679245949 1.000000000000000
13.420478820800781 -21.950935363769531 2.024872541427612 1.000000000000000
13.421719551086426 19.527267456054688 2.900994300842285 0.000000000000000
13.422431945800781 6.860920429229736 1.273771405220032 0.000000000000000
13.423683166503906 -7.732058525085449 1.279059767723083 0.000000000000000
13.424503326416016 20.110948562622070 3.583514213562012 1.000000000000000
13.425159454345703 10.265052795410156 0.061941601336002 0.000000000000000
13.430820465087891 9.809010505676270 0.827960312366486 0.000000000000000
13.440842628479004 20.239294052124023 2.759564399719238 1.000000000000000
13.449033737182617 20.283870697021484 3.238663911819458 1.000000000000000
13.449708938598633 19.830831527709961 1.285129189491272 1.000000000000000
13.451216697692871 -19.769847869873047 0.041734293103218 1.000000000000000
13.451869010925293 -6.844608306884766 2.579909563064575 0.000000000000000
13.452397346496582 19.913248062133789 2.411353826522827 0.000000000000000
13.456384658813477 10.018764495849609 1.029031991958618 0.000000000000000
13.458578109741211 19.849874496459961 1.193909645080566 1.000000000000000
13.458698272705078 19.876926422119141 2.938909292221069 1.000000000000000
13.464361190795898 18.867982864379883 2.203355073928833 1.000000000000000
13.466774940490723 20.344535827636719 2.987032413482666 1.000000000000000
13.466813087463379 -22.246862411499023 0.744564712047577 1.000000000000000
13.467901229858398 10.572330474853516 0.588933289051056 0.000000000000000
13.469828605651855 -24.010805130004883 3.127024888992310 0.000000000000000
13.471173286437988 12.028544425964355 -0.072497300803661 0.000000000000000
13.471765518188477 19.032489776611328 2.854815483093262 0.000000000000000
13.473509788513184 -7.492793560028076 1.642136931419373 0.000000000000000
13.483640670776367 -18.756179809570312 0.084665730595589 1.000000000000000
13.485737800598145 -20.161493301391602 -0.050801604986191 1.000000000000000
13.486174583435059 17.333730697631836 1.220183610916138 0.000000000000000
13.486524581909180 13.303712844848633 -0.003306351602077 0.000000000000000
13.486917495727539 9.955773353576660 -0.131662800908089 0.000000000000000
13.489523887634277 -21.102718353271484 0.332239508628845 1.000000000000000
13.491190910339355 -10.379116058349609 1.142516374588013 0.000000000000000
13.495435714721680 19.495710372924805 2.902938365936279 0.000000000000000
13.499560356140137 6.445905208587646 -0.117494367063046 0.000000000000000
13.500942230224609 6.797350883483887 -0.118719577789307 0.000000000000000
13.502051353454590 -19.696378707885742 0.041678443551064 1.000000000000000
13.504344940185547 6.290871620178223 -0.260040849447250 0.000000000000000
13.507082939147949 11.976150512695312 -0.072465181350708 0.000000000000000
13.507794380187988 -15.498466491699219 2.735821485519409 0.000000000000000
13.508776664733887 -6.565629482269287 1.153074026107788 0.000000000000000
13.511610031127930 11.707843780517578 1.096621870994568 0.000000000000000
13.515017509460449 13.629202842712402 0.918597817420959 0.000000000000000
13.520097732543945 -19.205781936645508 0.176273822784424 1.000000000000000
13.524800300598145 19.046728134155273 1.883619189262390 0.000000000000000
13.526929855346680 17.368612289428711 0.968881487846375 0.000000000000000
13.529679298400879 13.588382720947266 -0.150606408715248 0.000000000000000
13.529777526855469 20.393281936645508 2.996268272399902 1.000000000000000
13.530319213867188 6.923223972320557 3.161334753036499 0.000000000000000
13.534930229187012 -9.420690536499023 1.756527304649353 0.000000000000000
13.540323257446289 -20.669725418090820 0.707473874092102 1.000000000000000
13.542519569396973 20.763113021850586 3.673820734024048 1.000000000000000
13.544855117797852 19.662279129028320 1.234579682350159 0.000000000000000
13.544907569885254 9.763144493103027 2.221898555755615 0.000000000000000
13.545172691345215 -20.074739456176758 -0.376204580068588 1.000000000000000
13.545621871948242 9.422165870666504 1.495841026306152 0.000000000000000
13.547420501708984 -15.252927780151367 2.172992706298828 0.000000000000000
13.548666954040527 21.613502502441406 2.424788475036621 1.000000000000000
13.553409576416016 16.762174606323242 0.410134643316269 0.000000000000000
13.554827690124512 14.137803077697754 0.485512077808380 0.000000000000000
13.555459976196289 -11.848532676696777 1.521318316459656 0.000000000000000
13.558294296264648 -7.602025985717773 1.655694246292114 0.000000000000000
13.562669754028320 16.717460632324219 0.616349399089813 0.000000000000000
13.563864707946777 21.409561157226562 3.372684717178345 1.000000000000000
13.580539703369141 12.883854866027832 2.126214265823364 0.000000000000000
13.581136703491211 18.905736923217773 2.849954605102539 1.000000000000000
13.585034370422363 -18.168743133544922 1.976791977882385 0.000000000000000
13.585397720336914 11.432271003723145 1.891253590583801 0.000000000000000
13.587482452392578 9.474886894226074 1.662148833274841 0.000000000000000
13.588202476501465 22.097667694091797 2.946454524993896 1.000000000000000
13.588683128356934 -21.623630523681641 0.240705266594887 1.000000000000000
13.590929031372070 16.544704437255859 0.613029539585114 0.000000000000000
13.591012001037598 12.262347221374512 -0.319518655538559 0.000000000000000
13.591968536376953 19.283552169799805 2.679661989212036 0.000000000000000
13.597622871398926 12.308836936950684 0.913083255290985 0.000000000000000
13.599139213562012 10.583210945129395 0.030075497925282 0.000000000000000
13.600600242614746 12.129615783691406 0.101781494915485 0.000000000000000
13.603245735168457 13.559638023376465 -0.187733009457588 0.000000000000000
13.604433059692383 -24.053586959838867 3.138761997222900 0.000000000000000
13.604492187500000 -11.733968734741211 0.894388079643250 0.000000000000000
13.609573364257812 -16.111026763916016 1.619080066680908 0.000000000000000
13.609807014465332 -20.212354660034180 0.182878091931343 1.000000000000000
13.612915039062500 20.165292739868164 0.696598529815674 1.000000000000000
13.617871284484863 -8.771410942077637 1.368748664855957 0.000000000000000
13.624324798583984 -8.687008857727051 3.360903978347778 0.000000000000000
13.626857757568359 18.937257766723633 1.520981431007385 0.000000000000000
13.627259254455566 15.240194320678711 0.899763584136963 0.000000000000000
13.631276130676270 12.690035820007324 0.068260371685028 0.000000000000000
13.632230758666992 -21.951444625854492 0.045099288225174 1.000000000000000
13.633713722229004 13.974885940551758 0.408963620662689 0.000000000000000
13.633745193481445 -19.044115066528320 0.355664908885956 0.000000000000000
13.634575843811035 19.921741485595703 2.741958856582642 1.000000000000000
13.635310173034668 11.219717979431152 0.268145591020584 0.000000000000000
13.640907287597656 -21.454881668090820 -0.443779796361923 1.000000000000000
13.641489028930664 12.227364540100098 1.441764473915100 0.000000000000000
13.641709327697754 12.607621192932129 0.139410018920898 0.000000000000000
13.642350196838379 11.054460525512695 1.314096450805664 0.000000000000000
13.643445968627930 19.089334487915039 3.477375268936157 1.000000000000000
13.645652770996094 19.093812942504883 1.213511109352112 0.000000000000000
13.646182060241699 6.862715244293213 0.202622607350349 0.000000000000000
13.649001121520996 12.980523109436035 -0.075612351298332 0.000000000000000
13.653322219848633 -20.106857299804688 -0.424233078956604 1.000000000000000
13.654634475708008 -12.019555091857910 1.537147760391235 0.000000000000000
13.656010627746582 -19.923206329345703 0.691561460494995 1.000000000000000
13.660242080688477 -12.231266975402832 1.839865446090698 0.000000000000000
13.661120414733887 19.343639373779297 0.359612673521042 0.000000000000000
13.661463737487793 -20.549701690673828 0.611697673797607 1.000000000000000
13.663343429565430 -16.205062866210938 3.141366004943848 0.000000000000000
13.665503501892090 19.166824340820312 0.628740191459656 0.000000000000000
13.665533065795898 -10.383608818054199 1.350751996040344 0.000000000000000
13.668361663818359 -19.853422164916992 -0.143035173416138 1.000000000000000
13.670013427734375 6.904924869537354 1.175731420516968 0.000000000000000
13.671217918395996 13.318375587463379 0.913435041904449 0.000000000000000
13.672204971313477 8.222238540649414 1.040096282958984 0.000000000000000
13.675493240356445 13.550045967102051 1.366461038589478 0.000000000000000
13.683095932006836 17.339496612548828 0.589971244335175 0.000000000000000
13.683197975158691 -21.597909927368164 -0.151722669601440 1.000000000000000
13.685643196105957 10.882549285888672 1.106193304061890 0.000000000000000
13.685950279235840 -20.995803833007812 0.524984598159790 1.000000000000000
13.686670303344727 -9.597400665283203 1.315602302551270 0.000000000000000
13.690623283386230 11.948140144348145 2.063917398452759 0.000000000000000
13.691263198852539 11.593799591064453 0.513662636280060 0.000000000000000
13.691857337951660 6.506940841674805 1.163790345191956 0.000000000000000
13.701350212097168 20.201860427856445 1.685500383377075 0.000000000000000
13.705780029296875 9.822520256042480 2.064430713653564 0.000000000000000
13.706727981567383 11.186108589172363 2.166023969650269 0.000000000000000
13.707544326782227 9.371358871459961 1.018501758575439 0.000000000000000
13.708274841308594 -9.174118995666504 1.107156038284302 0.000000000000000
13.715990066528320 14.975718498229980 1.402241587638855 0.000000000000000
13.716411590576172 -11.830500602722168 1.180874824523926 0.000000000000000
13.720107078552246 -12.588912963867188 1.213922739028931 0.000000000000000
13.728933334350586 11.074302673339844 0.572808623313904 0.000000000000000
13.736706733703613 -21.385623931884766 0.581238985061646 1.000000000000000
13.738469123840332 -5.358891010284424 -0.200766712427139 1.000000000000000
13.741355895996094 12.046175003051758 0.277498781681061 0.000000000000000
13.744397163391113 7.067305564880371 -0.180733799934387 0.000000000000000
13.747545242309570 17.852210998535156 0.731720149517059 0.000000000000000
13.748531341552734 11.720784187316895 0.795119524002075 0.000000000000000
13.756240844726562 9.664104461669922 1.686909198760986 0.000000000000000
13.760808944702148 -13.453012466430664 2.356085538864136 0.000000000000000
13.763077735900879 -7.695706844329834 1.058401465415955 0.000000000000000
13.771141052246094 12.412215232849121 0.566428363323212 0.000000000000000
13.771454811096191 -20.744983673095703 -0.052150398492813 1.000000000000000
13.771578788757324 -19.557218551635742 0.638886332511902 1.000000000000000
13.772464752197266 6.478187561035156 0.026563897728920 0.000000000000000
13.773419380187988 -6.578733444213867 0.701138734817505 0.000000000000000
13.773793220520020 -12.827202796936035 1.263331055641174 0.000000000000000
13.778216361999512 -17.398748397827148 3.289139747619629 0.000000000000000
13.778545379638672 -18.585334777832031 0.617953240871429 1.000000000000000
13.778877258300781 -8.322448730468750 1.329089879989624 0.000000000000000
13.779413223266602 -7.873031616210938 1.310328602790833 0.000000000000000
13.781612396240234 -20.231895446777344 0.089723691344261 1.000000000000000
13.785120964050293 -18.562355041503906 0.706416964530945 0.000000000000000
13.785608291625977 10.859129905700684 1.668130278587341 0.000000000000000
13.791095733642578 13.292819023132324 1.064193606376648 0.000000000000000
13.796659469604492 6.931151866912842 -0.358467549085617 0.000000000000000
13.797522544860840 9.117839813232422 3.439916610717773 0.000000000000000
13.798542022705078 -21.486839294433594 -0.641923189163208 1.000000000000000
13.798664093017578 -8.324213981628418 1.617020845413208 0.000000000000000
13.805028915405273 14.117436408996582 0.944985508918762 0.000000000000000
13.812057495117188 17.418994903564453 0.978378593921661 0.000000000000000
13.814177513122559 11.249720573425293 1.470951676368713 0.000000000000000
13.815267562866211 -19.478822708129883 0.591971814632416 0.000000000000000
13.815618515014648 9.305083274841309 -0.482729673385620 0.000000000000000
13.816464424133301 -20.718481063842773 -0.243403941392899 1.000000000000000
13.817836761474609 -11.073341369628906 1.605266332626343 0.000000000000000
13.820296287536621 10.808486938476562 1.667751789093018 0.000000000000000
13.820590019226074 10.859341621398926 0.908842325210571 0.000000000000000
13.821194648742676 19.754854202270508 0.829291820526123 1.000000000000000
13.831711769104004 -19.111976623535156 3.139467239379883 0.000000000000000
13.831836700439453 17.832544326782227 0.732888638973236 0.000000000000000
13.834107398986816 5.719254016876221 -0.433830976486206 0.000000000000000
13.836565971374512 -22.181015014648438 0.246397748589516 1.000000000000000
13.836566925048828 -5.829432487487793 0.805267632007599 0.000000000000000
13.840308189392090 9.130854606628418 1.401081323623657 0.000000000000000
13.846967697143555 13.920645713806152 0.222758606076241 0.000000000000000
13.847701072692871 11.196846961975098 0.373026400804520 0.000000000000000
13.853281021118164 13.886689186096191 1.203149437904358 0.000000000000000
13.855881690979004 6.973030567169189 0.116415172815323 0.000000000000000
13.855948448181152 -5.291626930236816 -0.486845582723618 1.000000000000000
13.857467651367188 9.409751892089844 1.124300360679626 0.000000000000000
13.861766815185547 6.588578701019287 0.056253232061863 0.000000000000000
13.864708900451660 -21.756525039672852 -0.252161175012589 1.000000000000000
13.865937232971191 -18.635141372680664 0.085134878754616 1.000000000000000
13.866864204406738 19.430589675903320 3.537775039672852 1.000000000000000
13.868791580200195 -7.796175479888916 1.313620090484619 0.000000000000000
13.869669914245605 -23.145185470581055 1.759081959724426 1.000000000000000
13.870013236999512 14.731896400451660 0.501570284366608 0.000000000000000
13.872990608215332 9.054392814636230 1.764576792716980 0.000000000000000
13.873381614685059 9.903463363647461 0.291578650474548 0.000000000000000
13.882961273193359 -18.647148132324219 0.129840657114983 1.000000000000000
13.886693000793457 -19.187946319580078 0.541642308235168 0.000000000000000
13.886833190917969 19.895948410034180 3.595829010009766 0.000000000000000
13.889028549194336 -19.132049560546875 0.313616693019867 1.000000000000000
13.889842033386230 13.017910957336426 1.020991086959839 0.000000000000000
13.891472816467285 12.768503189086914 3.924584150314331 0.000000000000000
13.892201423645020 14.852804183959961 0.777719259262085 0.000000000000000
13.893918037414551 19.876518249511719 3.594069719314575 1.000000000000000
13.894433975219727 -21.225641250610352 -0.394098371267319 1.000000000000000
13.896417617797852 20.578264236450195 1.906276941299438 1.000000000000000
13.899405479431152 13.862587928771973 -0.455767214298248 0.000000000000000
13.901000976562500 16.489276885986328 2.640449047088623 0.000000000000000
13.906153678894043 -10.692176818847656 1.482249617576599 0.000000000000000
13.912114143371582 9.942479133605957 1.114779233932495 0.000000000000000
13.912389755249023 17.726575851440430 0.515305459499359 0.000000000000000
13.913891792297363 7.118879318237305 2.316295623779297 0.000000000000000
13.914051055908203 -9.756846427917480 1.075128912925720 0.000000000000000
13.915165901184082 -12.656500816345215 1.371423602104187 0.000000000000000
13.917443275451660 19.176126480102539 1.819015741348267 0.000000000000000
13.920903205871582 7.653715133666992 -0.429867595434189 0.000000000000000
13.922421455383301 -10.129716873168945 1.089272141456604 0.000000000000000
13.922560691833496 -20.198486328125000 -0.051379662007093 1.000000000000000
13.923233985900879 -8.191267967224121 1.271351218223572 0.000000000000000
13.927749633789062 -20.293825149536133 0.846617460250854 1.000000000000000
13.930570602416992 17.324890136718750 0.636497557163239 0.000000000000000
13.930850028991699 -7.949561119079590 1.609432935714722 0.000000000000000
13.934143066406250 -7.028876304626465 -0.542266726493835 1.000000000000000
13.937975883483887 -6.566440582275391 1.063874006271362 0.000000000000000
13.938140869140625 13.428919792175293 -0.449361026287079 0.000000000000000
13.942248344421387 13.208066940307617 0.328521966934204 0.000000000000000
13.945154190063477 -6.102925777435303 0.816407263278961 0.000000000000000
13.945847511291504 12.252594947814941 1.496864795684814 0.000000000000000
13.947128295898438 12.054143905639648 0.456964194774628 0.000000000000000
13.947417259216309 17.971839904785156 0.563919603824615 0.000000000000000
13.953931808471680 -13.613267898559570 2.386709451675415 0.000000000000000
13.956457138061523 10.208605766296387 2.301044702529907 0.000000000000000
13.961333274841309 -20.475759506225586 0.519120752811432 1.000000000000000
13.963126182556152 -21.368810653686523 0.289599806070328 1.000000000000000
13.964459419250488 10.899254798889160 1.154852986335754 0.000000000000000
13.964632987976074 -20.890075683593750 -0.100869990885258 1.000000000000000
13.965435028076172 -20.591232299804688 0.616752982139587 1.000000000000000
13.966572761535645 18.419649124145508 1.774619579315186 0.000000000000000
13.969552040100098 -6.559282779693604 1.154983878135681 0.000000000000000
13.976157188415527 -20.905740737915039 -0.197509914636612 1.000000000000000
13.976509094238281 -21.278820037841797 0.533277809619904 1.000000000000000
13.976773262023926 12.741094589233398 0.941523909568787 0.000000000000000
13.977743148803711 9.368591308593750 1.525454401969910 0.000000000000000
13.979745864868164 19.718021392822266 3.216502904891968 0.000000000000000
13.979912757873535 -20.006973266601562 0.183178275823593 1.000000000000000
13.982234954833984 11.386579513549805 0.654904782772064 0.000000000000000
13.984833717346191 12.591126441955566 -0.617677092552185 0.000000000000000
13.988189697265625 20.142883300781250 0.466594755649567 1.000000000000000
13.989205360412598 12.667748451232910 -0.365664809942245 0.000000000000000
13.991496086120605 17.438039779663086 0.811989068984985 0.000000000000000
13.995003700256348 13.633805274963379 -0.266000926494598 0.000000000000000
13.997590065002441 -14.698402404785156 2.161977291107178 0.000000000000000
14.000322341918945 12.072827339172363 0.209735229611397 0.000000000000000
14.001831054687500 12.993554115295410 0.620326280593872 0.000000000000000
14.005338668823242 20.601278305053711 2.653432369232178 1.000000000000000
14.005873680114746 -6.110866069793701 3.178440809249878 0.000000000000000
14.008892059326172 -7.129265308380127 1.924436330795288 0.000000000000000
14.009878158569336 -15.914591789245605 1.259667515754700 0.000000000000000
14.012396812438965 9.819609642028809 1.247515559196472 0.000000000000000
14.013744354248047 -7.104043483734131 -0.515715122222900 1.000000000000000
14.015789031982422 19.342149734497070 1.189136385917664 0.000000000000000
14.020124435424805 11.471661567687988 0.866969764232635 0.000000000000000
14.023883819580078 17.603935241699219 0.471455782651901 0.000000000000000
14.029008865356445 -6.847255229949951 1.077926754951477 0.000000000000000
14.029373168945312 17.906478881835938 0.957395255565643 0.000000000000000
14.029770851135254 13.403409957885742 2.203859567642212 0.000000000000000
14.033050537109375 13.140175819396973 1.290387272834778 0.000000000000000
14.034708023071289 9.090243339538574 1.781099915504456 0.000000000000000
14.041179656982422 9.776334762573242 -0.298645585775375 0.000000000000000
14.043424606323242 -21.601858139038086 0.737696051597595 1.000000000000000
14.045108795166016 11.556918144226074 1.825088858604431 0.000000000000000
14.047099113464355 -6.441943645477295 0.828832268714905 0.000000000000000
14.047409057617188 19.411445617675781 2.933562278747559 1.000000000000000
14.050519943237305 11.304188728332520 2.207827806472778 0.000000000000000
14.050853729248047 -20.692291259765625 -0.052384968847036 1.000000000000000
14.054661750793457 14.121556282043457 -0.118230707943439 0.000000000000000
14.056959152221680 13.100986480712891 0.144213125109673 0.000000000000000
14.057557106018066 -20.565942764282227 0.186960712075233 1.000000000000000
14.061242103576660 -11.317250251770020 1.922605037689209 0.000000000000000
14.062737464904785 13.381464004516602 -0.040656365454197 0.000000000000000
14.066124916076660 13.668204307556152 1.467835545539856 0.000000000000000
14.068044662475586 13.253347396850586 2.195282459259033 0.000000000000000
14.069011688232422 -15.636742591857910 2.110633373260498 0.000000000000000
14.070252418518066 -20.590686798095703 0.235050469636917 1.000000000000000
14.071035385131836 -6.771628856658936 1.663320302963257 0.000000000000000
14.071286201477051 21.869558334350586 2.357520580291748 1.000000000000000
14.071452140808105 17.707992553710938 0.995438277721405 0.000000000000000
14.072892189025879 19.081720352172852 2.525484561920166 0.000000000000000
14.073505401611328 11.801543235778809 0.208373889327049 0.000000000000000
14.076159477233887 -7.086035728454590 -0.729399263858795 0.000000000000000
14.077973365783691 12.837844848632812 1.095226764678955 0.000000000000000
14.079611778259277 -6.325855731964111 2.287561893463135 0.000000000000000
14.079670906066895 -5.989810943603516 0.585123658180237 0.000000000000000
14.080228805541992 10.537961006164551 1.010978460311890 0.000000000000000
14.081265449523926 13.433333396911621 0.332900434732437 0.000000000000000
14.082944869995117 7.806952953338623 -0.435710251331329 0.000000000000000
14.083611488342285 9.796384811401367 0.986186087131500 0.000000000000000
14.086792945861816 19.168430328369141 -0.049821432679892 0.000000000000000
14.088807106018066 13.688336372375488 0.147425189614296 0.000000000000000
14.092438697814941 13.223504066467285 -0.337320119142532 0.000000000000000
14.092453956604004 19.620409011840820 2.189951658248901 0.000000000000000
14.093342781066895 -8.201204299926758 1.377842187881470 0.000000000000000
14.094648361206055 -8.449510574340820 2.011932849884033 0.000000000000000
14.097829818725586 -6.256425380706787 0.708480477333069 0.000000000000000
14.098837852478027 18.125116348266602 3.925128936767578 0.000000000000000
14.101175308227539 -20.701026916503906 0.476562768220901 1.000000000000000
14.103858947753906 13.345747947692871 0.854564368724823 0.000000000000000
14.104058265686035 -20.591518402099609 2.504405498504639 0.000000000000000
14.104957580566406 -7.810139656066895 1.404900789260864 0.000000000000000
14.107218742370605 13.458092689514160 1.233481407165527 0.000000000000000
14.107394218444824 -6.210928916931152 3.206135988235474 0.000000000000000
14.108315467834473 12.627149581909180 0.287520080804825 0.000000000000000
14.108688354492188 -20.185262680053711 0.657790243625641 1.000000000000000
14.113916397094727 13.128319740295410 0.403769880533218 0.000000000000000
14.115995407104492 -20.231792449951172 0.564138293266296 1.000000000000000
14.116139411926270 6.907485008239746 0.117946155369282 0.000000000000000
14.116198539733887 -8.280599594116211 1.382894277572632 0.000000000000000
14.116387367248535 -21.197069168090820 0.484552413225174 1.000000000000000
