# This PCD file was generated using the MATLAB® pcwrite function
# from Computer Vision Toolbox®.
# .PCD v.7 - Point Cloud Data file format
VERSION .7
FIELDS x y z intensity
SIZE 8 8 8 8
TYPE F F F F
COUNT 1 1 1 1
WIDTH 657
HEIGHT 1
VIEWPOINT 0 0 0 1 0 0 0
POINTS 657
DATA ascii
2.727034091949463 1.973464131355286 0.305163115262985 0.000000000000000
2.727098703384399 6.822041511535645 0.125675737857819 0.000000000000000
2.732359170913696 -4.503142356872559 1.095592737197876 0.000000000000000
2.741708755493164 2.919011592864990 0.532917916774750 0.000000000000000
2.745607376098633 -1.732483386993408 0.675276100635529 0.000000000000000
2.750336170196533 -9.337620735168457 0.334824353456497 0.000000000000000
2.753642082214355 -8.073062896728516 0.326189637184143 1.000000000000000
2.757408142089844 2.113234758377075 0.514862656593323 0.000000000000000
2.757748365402222 -9.946816444396973 0.732649683952332 0.000000000000000
2.763601064682007 4.006368637084961 0.354854047298431 0.000000000000000
2.773902893066406 -10.047297477722168 0.719720005989075 0.000000000000000
2.778629541397095 -9.332033157348633 1.037139177322388 0.000000000000000
2.780144214630127 6.421147823333740 1.874885320663452 0.000000000000000
2.783071517944336 -9.684030532836914 0.695747673511505 0.000000000000000
2.794677257537842 -9.205293655395508 1.177799701690674 0.000000000000000
2.801685094833374 -9.174780845642090 0.459107667207718 0.000000000000000
2.812299966812134 2.059198617935181 0.395900189876556 0.000000000000000
2.814169883728027 4.879988670349121 1.509432673454285 0.000000000000000
2.821862220764160 3.693783044815063 0.267206847667694 0.000000000000000
2.826537609100342 -14.259375572204590 1.172158360481262 0.000000000000000
2.834271907806396 3.038749217987061 0.552968382835388 0.000000000000000
2.834471702575684 3.009027242660522 0.134243905544281 0.000000000000000
2.837769508361816 -9.292946815490723 0.614720225334167 0.000000000000000
2.842911243438721 -12.783409118652344 2.723912239074707 0.000000000000000
2.845781087875366 -8.743869781494141 0.617199957370758 0.000000000000000
2.849629640579224 -9.204528808593750 0.628169178962708 0.000000000000000
2.853938817977905 -10.282606124877930 0.121067419648170 0.000000000000000
2.854604005813599 -13.171898841857910 0.904637217521667 0.000000000000000
2.855543851852417 -13.922224044799805 1.118512988090515 0.000000000000000
2.856259346008301 -10.307721138000488 1.309530615806580 0.000000000000000
2.859140396118164 -14.371243476867676 0.955264806747437 0.000000000000000
2.860023736953735 -13.465755462646484 1.466314673423767 0.000000000000000
2.867081880569458 -8.283379554748535 0.503882348537445 1.000000000000000
2.875564813613892 -9.267683029174805 1.188007593154907 0.000000000000000
2.878021955490112 4.874041080474854 1.516679644584656 0.000000000000000
2.895549297332764 -10.213600158691406 0.712565898895264 0.000000000000000
2.895637512207031 -4.848237514495850 1.174605727195740 0.000000000000000
2.902047634124756 -10.764426231384277 1.364944934844971 0.000000000000000
2.911279916763306 2.140737533569336 0.214689090847969 0.000000000000000
2.914532661437988 3.604036092758179 0.346883237361908 0.000000000000000
2.917695760726929 -10.167179107666016 0.689580976963043 0.000000000000000
2.917739629745483 3.119164705276489 0.204409033060074 0.000000000000000
2.918173074722290 -3.862859249114990 1.297201037406921 0.000000000000000
2.919519901275635 0.820145189762115 0.145132333040237 0.000000000000000
2.924668550491333 2.869854211807251 0.389495372772217 0.000000000000000
2.925498485565186 -9.110769271850586 0.771579802036285 0.000000000000000
2.926549911499023 -2.786137104034424 0.302403360605240 0.000000000000000
2.930361509323120 -14.573663711547852 1.491620779037476 0.000000000000000
2.931305885314941 3.155677318572998 0.206129983067513 0.000000000000000
2.931318521499634 2.857359170913696 0.389116823673248 0.000000000000000
2.935645341873169 -3.859311103820801 1.299271702766418 0.000000000000000
2.940222501754761 -10.658421516418457 0.720807313919067 0.000000000000000
2.945936441421509 -10.152541160583496 0.831980288028717 0.000000000000000
2.946424245834351 -0.778368890285492 0.276271939277649 0.000000000000000
2.947661399841309 0.617517650127411 0.273021697998047 0.000000000000000
2.948941230773926 -14.126866340637207 1.135774016380310 0.000000000000000
2.953399419784546 2.664109706878662 0.289991378784180 0.000000000000000
2.961491584777832 -9.491912841796875 0.945160329341888 0.000000000000000
2.963624238967896 -7.758526802062988 1.230861902236938 0.000000000000000
2.967427253723145 -11.081549644470215 0.020022407174110 0.000000000000000
2.968136072158813 4.986807823181152 1.554984927177429 0.000000000000000
2.973800420761108 3.656783342361450 0.502046525478363 0.000000000000000
2.976157188415527 -13.284062385559082 0.913745224475861 0.000000000000000
2.977031469345093 3.552674293518066 0.440595328807831 0.000000000000000
2.978664159774780 1.604114055633545 0.181447654962540 0.000000000000000
2.982403278350830 -10.618773460388184 1.350362181663513 0.000000000000000
2.983741283416748 -12.783448219299316 2.730428934097290 0.000000000000000
2.987349033355713 -9.873397827148438 0.712280273437500 0.000000000000000
2.991534233093262 4.545351505279541 0.166251674294472 0.000000000000000
2.995815277099609 -9.048969268798828 1.982656121253967 0.000000000000000
3.000348567962646 1.829912185668945 0.352637529373169 0.000000000000000
3.002470731735229 -8.212627410888672 0.368021935224533 1.000000000000000
3.004545688629150 5.901587009429932 1.774463415145874 1.000000000000000
3.008326768875122 3.349189519882202 0.137545481324196 0.000000000000000
3.013528585433960 1.823548078536987 0.353436261415482 0.000000000000000
3.014025926589966 -9.481887817382812 0.227520868182182 0.000000000000000
3.017666101455688 3.575735330581665 0.444759041070938 0.000000000000000
3.020303010940552 -5.391372680664062 1.285386800765991 0.000000000000000
3.023006439208984 -2.920099020004272 0.718438804149628 0.000000000000000
3.025225162506104 4.427509784698486 0.132926031947136 0.000000000000000
3.026417255401611 6.766275405883789 0.483227103948593 1.000000000000000
3.031334161758423 -3.354608297348022 0.364571452140808 0.000000000000000
3.036956548690796 -10.179476737976074 0.528836548328400 0.000000000000000
3.037279605865479 -9.282693862915039 2.031530380249023 0.000000000000000
3.037925243377686 0.131257504224777 0.209964245557785 0.000000000000000
3.040361642837524 -9.077204704284668 0.909958064556122 0.000000000000000
3.041560411453247 3.075835227966309 0.140475720167160 0.000000000000000
3.042525529861450 -11.029273986816406 0.393538951873779 0.000000000000000
3.043145418167114 -1.917928934097290 0.963842153549194 0.000000000000000
3.050614356994629 -9.123673439025879 1.177799701690674 0.000000000000000
3.059565544128418 -1.688831686973572 0.254796832799911 0.000000000000000
3.062278509140015 -2.272673130035400 1.021817684173584 0.000000000000000
3.078191280364990 -2.953736543655396 0.729222059249878 0.000000000000000
3.080105304718018 -9.808228492736816 0.393139511346817 0.000000000000000
3.082354545593262 3.381294965744019 0.434917569160461 0.000000000000000
3.083811283111572 -2.956441879272461 0.319717705249786 0.000000000000000
3.083884954452515 -8.870162963867188 0.739084720611572 0.000000000000000
3.083920955657959 -6.472549438476562 1.062563896179199 0.000000000000000
3.092275381088257 2.787428140640259 0.271408677101135 0.000000000000000
3.101466417312622 -11.082810401916504 0.794667840003967 0.000000000000000
3.103937149047852 -11.096116065979004 0.773375093936920 0.000000000000000
3.103991746902466 0.897799551486969 0.367008954286575 0.000000000000000
3.104186773300171 -7.877212047576904 1.761094093322754 0.000000000000000
3.106541633605957 -13.550833702087402 2.376374483108521 0.000000000000000
3.107941627502441 -8.865958213806152 1.954146385192871 0.000000000000000
3.112501382827759 -13.813500404357910 1.169125199317932 0.000000000000000
3.115738391876221 -0.926000356674194 0.676090657711029 0.000000000000000
3.122353792190552 -13.591488838195801 2.900673389434814 0.000000000000000
3.122499704360962 2.550825834274292 0.597545623779297 0.000000000000000
3.122626304626465 2.519281148910522 0.594613611698151 0.000000000000000
3.129294872283936 -2.305513620376587 1.041487932205200 1.000000000000000
3.129343271255493 -14.129554748535156 1.771803617477417 0.000000000000000
3.129470586776733 5.340244770050049 1.658512592315674 1.000000000000000
3.133325815200806 -2.301488161087036 0.253453522920609 0.000000000000000
3.135931253433228 -2.488896369934082 0.362945467233658 0.000000000000000
3.137681007385254 0.895687580108643 0.370620369911194 1.000000000000000
3.140842914581299 -0.921541929244995 0.311142057180405 0.000000000000000
3.145544528961182 -2.256309509277344 0.473939210176468 0.000000000000000
3.146153211593628 -10.099894523620605 1.808228135108948 0.000000000000000
3.148458957672119 -13.516867637634277 2.372330665588379 0.000000000000000
3.152836561203003 0.660500586032867 0.550623297691345 0.000000000000000
3.154866695404053 3.190418481826782 0.214734658598900 0.000000000000000
3.166708707809448 0.651875197887421 0.552645206451416 0.000000000000000
3.167286157608032 -14.011022567749023 2.987832069396973 0.000000000000000
3.168346166610718 -10.047487258911133 1.800814628601074 0.000000000000000
3.168584585189819 -5.308606624603271 1.056765437126160 0.000000000000000
3.170491456985474 -13.941449165344238 0.272028088569641 0.000000000000000
3.170902967453003 -11.196782112121582 0.400276690721512 0.000000000000000
3.171756267547607 3.782097101211548 0.198251053690910 0.000000000000000
3.172026634216309 -9.848985671997070 0.515113413333893 0.000000000000000
3.172413587570190 -4.766199588775635 1.190896987915039 0.000000000000000
3.174667835235596 -1.879812479019165 0.370209515094757 0.000000000000000
3.178385734558105 2.900434732437134 0.280516326427460 0.000000000000000
3.183885574340820 -1.919733047485352 0.213719576597214 0.000000000000000
3.187367677688599 3.376209974288940 0.441352367401123 0.000000000000000
3.192314386367798 -8.365098953247070 0.739260971546173 1.000000000000000
3.197484254837036 -7.951585292816162 1.270150899887085 0.000000000000000
3.197984457015991 -2.299000501632690 0.482202798128128 0.000000000000000
3.213360309600830 -1.996407508850098 0.786871790885925 0.000000000000000
3.217352390289307 -8.353589057922363 0.067183382809162 1.000000000000000
3.222793579101562 -1.255283594131470 0.347046434879303 0.000000000000000
3.230747938156128 -7.801256656646729 1.251385927200317 0.000000000000000
3.232349872589111 -10.775347709655762 0.928848862648010 0.000000000000000
3.240789890289307 -3.168191194534302 1.214379072189331 0.000000000000000
3.241432666778564 -14.397431373596191 1.806802153587341 0.000000000000000
3.243952989578247 5.929624557495117 0.349491178989410 1.000000000000000
3.245706558227539 -14.068780899047852 1.537914514541626 0.000000000000000
3.247847557067871 2.620494842529297 0.396687239408493 0.000000000000000
3.252712249755859 -2.378969669342041 1.079793214797974 0.000000000000000
3.258861064910889 4.792751312255859 0.054625205695629 1.000000000000000
3.269737243652344 5.777359962463379 0.535283505916595 0.000000000000000
3.272117853164673 2.443318605422974 0.187582150101662 0.000000000000000
3.281133651733398 3.922522306442261 0.146417334675789 0.000000000000000
3.281253814697266 -3.013147592544556 1.193673372268677 0.000000000000000
3.284722089767456 -5.209595203399658 1.052721738815308 0.000000000000000
3.287121534347534 3.922724008560181 0.146531805396080 0.000000000000000
3.288196802139282 -8.362121582031250 0.637776196002960 0.000000000000000
3.293063879013062 3.471499681472778 0.509672522544861 0.000000000000000
3.294913053512573 2.455238342285156 0.299589902162552 0.000000000000000
3.297091007232666 -12.646862983703613 1.053849458694458 0.000000000000000
3.298921108245850 5.821575641632080 0.526617527008057 0.000000000000000
3.302939653396606 -8.468107223510742 1.890610098838806 0.000000000000000
3.308275938034058 -2.451393127441406 0.467676848173141 0.000000000000000
3.312522888183594 -2.366116046905518 0.328242897987366 0.000000000000000
3.313128709793091 3.733768463134766 0.047047793865204 0.000000000000000
3.325415611267090 -10.069271087646484 1.571562528610229 0.000000000000000
3.327293872833252 2.841376543045044 0.381260782480240 0.000000000000000
3.330623388290405 -8.383965492248535 0.640325069427490 1.000000000000000
3.333820819854736 2.507567405700684 0.191620111465454 1.000000000000000
3.343513250350952 -2.107234477996826 0.396567463874817 0.000000000000000
3.344099521636963 -2.091329813003540 0.395768731832504 0.000000000000000
3.345013141632080 -3.655689716339111 0.497206926345825 1.000000000000000
3.352217912673950 5.518636703491211 0.545613408088684 1.000000000000000
3.354401588439941 -4.886346340179443 1.588113665580750 0.000000000000000
3.355040550231934 4.009169578552246 0.209969550371170 0.000000000000000
3.355294704437256 -2.797312736511230 0.318496048450470 0.000000000000000
3.360100030899048 -11.120767593383789 1.319516897201538 0.000000000000000
3.360265731811523 -12.707318305969238 0.856901943683624 0.000000000000000
3.367776155471802 5.915372848510742 0.483146637678146 0.000000000000000
3.375787973403931 1.850641489028931 0.280683726072311 0.000000000000000
3.384956359863281 -3.219059228897095 1.251649022102356 1.000000000000000
3.387719869613647 -2.460509538650513 0.420129865407944 0.000000000000000
3.389422655105591 5.512880325317383 0.563904821872711 1.000000000000000
3.391109228134155 -5.726749897003174 1.137640357017517 0.000000000000000
3.394072771072388 -5.060828208923340 1.267466425895691 0.000000000000000
3.397555589675903 -1.969335675239563 0.671261727809906 0.000000000000000
3.398719072341919 3.796987771987915 0.028461286798120 0.000000000000000
3.400672197341919 -0.707402706146240 0.930713355541229 0.000000000000000
3.407408237457275 -3.217835187911987 1.255790114402771 0.000000000000000
3.408557176589966 -5.078401088714600 1.638842225074768 0.000000000000000
3.410956144332886 -4.520251274108887 1.177863955497742 0.000000000000000
3.411372423171997 -14.070828437805176 0.525840222835541 0.000000000000000
3.411729812622070 3.543949842453003 0.493612676858902 0.000000000000000
3.414684534072876 2.910855770111084 0.390983253717422 0.000000000000000
3.425174951553345 -9.792814254760742 1.270157098770142 0.000000000000000
3.427261114120483 -2.958541154861450 0.430375367403030 0.000000000000000
3.428235530853271 -2.643720865249634 0.740005373954773 1.000000000000000
3.429363012313843 -10.829734802246094 1.209995627403259 0.000000000000000
3.431514739990234 2.494239807128906 0.342067033052444 0.000000000000000
3.435981512069702 -0.727269768714905 0.941066086292267 0.000000000000000
3.439372777938843 -4.907921314239502 1.024415493011475 0.000000000000000
3.445871353149414 -12.994332313537598 0.876418411731720 0.000000000000000
3.446882486343384 -2.348484039306641 0.378113359212875 0.000000000000000
3.451832771301270 -3.305680990219116 1.280636787414551 0.000000000000000
3.454751491546631 -2.668787240982056 0.580933392047882 0.000000000000000
3.458243370056152 -4.971684932708740 1.035198807716370 1.000000000000000
3.460419893264771 -1.548065543174744 0.360349446535110 0.000000000000000
3.462516307830811 -1.990874528884888 0.682718992233276 0.000000000000000
3.463057994842529 -5.120881557464600 1.656441926956177 0.000000000000000
3.465476274490356 -2.707721710205078 0.914758801460266 0.000000000000000
3.466666460037231 -14.100990295410156 1.170872330665588 0.000000000000000
3.467623949050903 -11.078072547912598 0.913577854633331 0.000000000000000
3.468800306320190 -14.281576156616211 0.958127200603485 0.000000000000000
3.472639799118042 -4.635560512542725 1.204744696617126 0.000000000000000
3.479583978652954 -8.418738365173340 0.793772399425507 1.000000000000000
3.483107089996338 3.647540569305420 0.537210881710052 0.000000000000000
3.488555192947388 -13.536012649536133 0.911287724971771 0.000000000000000
3.492822408676147 -4.250415802001953 0.498734056949615 0.000000000000000
3.496142387390137 2.625550746917725 0.647976338863373 0.000000000000000
3.503209829330444 7.185512065887451 2.141986370086670 1.000000000000000
3.507201194763184 5.571065902709961 1.369287252426147 0.000000000000000
3.509365797042847 -2.534201145172119 0.641525924205780 0.000000000000000
3.513801813125610 2.634978532791138 0.650908350944519 0.000000000000000
3.514825105667114 3.566987037658691 0.287867188453674 0.000000000000000
3.522755622863770 2.195965528488159 0.863441109657288 0.000000000000000
3.525952100753784 4.244921207427979 0.136791884899139 0.000000000000000
3.527984857559204 0.376908481121063 0.737997770309448 0.000000000000000
3.530646800994873 2.789137601852417 0.336733460426331 0.000000000000000
3.537775754928589 -4.273094177246094 0.948258280754089 0.000000000000000
3.541914939880371 -2.050038814544678 0.851222634315491 0.000000000000000
3.543777942657471 6.690777301788330 0.859965682029724 0.000000000000000
3.546879053115845 -11.675620079040527 1.007514715194702 0.000000000000000
3.548811435699463 4.293132781982422 0.148774430155754 0.000000000000000
3.553895473480225 0.392227649688721 0.743699729442596 0.000000000000000
3.555032253265381 -2.074231624603271 0.856109976768494 1.000000000000000
3.557443618774414 -1.800970077514648 1.068405032157898 0.000000000000000
3.570835113525391 -3.156542301177979 0.634225130081177 0.000000000000000
3.574759244918823 2.245746850967407 0.878103315830231 0.000000000000000
3.578310966491699 0.011804071255028 0.109327882528305 0.000000000000000
3.581157922744751 4.181458950042725 0.401392310857773 0.000000000000000
3.588775396347046 -4.398392200469971 0.514624178409576 0.000000000000000
3.592194080352783 -10.845280647277832 0.995514214038849 0.000000000000000
3.593031167984009 -4.242907524108887 1.489762425422668 0.000000000000000
3.594799995422363 -13.424407958984375 1.480295777320862 0.000000000000000
3.595465660095215 -2.833216190338135 0.782464683055878 0.000000000000000
3.598675727844238 -13.262702941894531 1.463772654533386 0.000000000000000
3.598958253860474 -2.914587020874023 0.440216839313507 0.000000000000000
3.598974466323853 3.129426479339600 0.320118874311447 0.000000000000000
3.600130081176758 2.823673009872437 0.434917569160461 0.000000000000000
3.604152679443359 -3.465446949005127 0.665355980396271 0.000000000000000
3.607510566711426 3.211692571640015 0.138289391994476 0.000000000000000
3.608729124069214 -11.495773315429688 0.808735489845276 0.000000000000000
3.615657329559326 3.998443365097046 0.237251982092857 0.000000000000000
3.616227626800537 -3.452845335006714 0.665355980396271 0.000000000000000
3.616724014282227 4.581541061401367 0.470663696527481 0.000000000000000
3.630196809768677 4.241114616394043 0.245693862438202 0.000000000000000
3.630954742431641 -3.248501300811768 0.441673964262009 0.000000000000000
3.631910085678101 3.820285320281982 1.096407294273376 0.000000000000000
3.632480859756470 3.230969905853271 0.830989658832550 0.000000000000000
3.634230613708496 3.194886922836304 0.222271993756294 0.000000000000000
3.638129472732544 -2.817854642868042 0.362167209386826 0.000000000000000
3.640955924987793 3.883739709854126 0.070618145167828 0.000000000000000
3.642039060592651 -6.954155921936035 1.341849446296692 0.000000000000000
3.648595571517944 1.991014957427979 0.442732989788055 0.000000000000000
3.652987957000732 -14.400520324707031 1.025848984718323 0.000000000000000
3.654083490371704 -7.036810398101807 1.355328679084778 0.000000000000000
3.656021356582642 2.629830121994019 0.936752140522003 0.000000000000000
3.656975746154785 -2.837867975234985 0.962818264961243 0.000000000000000
3.659021377563477 1.980158805847168 0.443156629800797 0.000000000000000
3.660838127136230 -3.010043859481812 0.345546424388885 0.000000000000000
3.664083003997803 3.405948162078857 0.306848406791687 0.000000000000000
3.668268203735352 -4.031091213226318 0.439479023218155 0.000000000000000
3.670832633972168 -2.704591989517212 0.200670495629311 1.000000000000000
3.671112060546875 -2.654904127120972 0.671432554721832 0.000000000000000
3.672220468521118 4.003174304962158 1.455598354339600 0.000000000000000
3.672388076782227 5.878879547119141 1.441783666610718 0.000000000000000
3.677963018417358 -3.045704364776611 0.348164170980453 0.000000000000000
3.679652214050293 -2.647800683975220 0.365535944700241 0.000000000000000
3.679762125015259 3.929392099380493 0.081749476492405 0.000000000000000
3.681324481964111 6.479778289794922 1.550121188163757 0.000000000000000
3.684937477111816 -3.222625732421875 1.311694979667664 0.000000000000000
3.685280561447144 -0.428878605365753 0.270503491163254 0.000000000000000
3.686816215515137 4.589084148406982 1.006218552589417 0.000000000000000
3.691732883453369 4.610016345977783 0.670818328857422 1.000000000000000
3.693388700485229 4.136348724365234 1.153426885604858 0.000000000000000
3.700137615203857 3.220567464828491 0.427442640066147 0.000000000000000
3.701201915740967 4.008006572723389 1.461809992790222 0.000000000000000
3.702903985977173 0.150406152009964 0.322925806045532 0.000000000000000
3.706974983215332 4.890490531921387 1.276426553726196 0.000000000000000
3.707188367843628 -2.856156349182129 0.973407626152039 0.000000000000000
3.716912508010864 -7.146820068359375 1.675564527511597 0.000000000000000
3.719085454940796 0.209818378090858 0.228483304381371 0.000000000000000
3.719425916671753 4.054634094238281 0.252740323543549 0.000000000000000
3.721311330795288 -2.679848194122314 0.360911875963211 0.000000000000000
3.724249601364136 -7.222402095794678 1.690226674079895 0.000000000000000
3.727176427841187 -4.073347091674805 1.479409694671631 0.000000000000000
3.728147268295288 4.261032104492188 0.401866972446442 0.000000000000000
3.729671001434326 -1.937491536140442 0.421727299690247 0.000000000000000
3.734632015228271 -1.009149670600891 0.388180851936340 0.000000000000000
3.735940933227539 5.881451129913330 0.065670885145664 1.000000000000000
3.740826845169067 -8.488809585571289 0.461812108755112 1.000000000000000
3.742031574249268 2.330300092697144 0.321404695510864 0.000000000000000
3.747384309768677 -4.560192108154297 1.008914470672607 1.000000000000000
3.751098155975342 -0.449814796447754 0.275448173284531 0.000000000000000
3.751326084136963 4.122361660003662 0.159582301974297 0.000000000000000
3.752089023590088 -8.478251457214355 0.105185255408287 1.000000000000000
3.757320880889893 1.053944110870361 1.045628905296326 0.000000000000000
3.757688999176025 -8.099687576293945 1.857213020324707 0.000000000000000
3.765431165695190 -13.526353836059570 0.563932001590729 0.000000000000000
3.765986919403076 -2.489628791809082 0.771681427955627 0.000000000000000
3.769048213958740 0.763945400714874 0.799904882907867 0.000000000000000
3.770994424819946 3.291850805282593 0.152936890721321 0.000000000000000
3.771832704544067 0.505683660507202 0.331606596708298 0.000000000000000
3.772556543350220 -8.456611633300781 0.033939596265554 1.000000000000000
3.772933244705200 -6.066426277160645 1.914225697517395 0.000000000000000
3.780749559402466 -2.850240707397461 0.354346305131912 0.000000000000000
3.789014101028442 4.857749462127686 0.913030922412872 0.000000000000000
3.791135311126709 0.511639595031738 0.333342760801315 0.000000000000000
3.791821479797363 -3.269665002822876 0.502398610115051 0.000000000000000
3.796211957931519 3.060097694396973 0.442035108804703 0.000000000000000
3.797018527984619 -4.515658855438232 1.580866813659668 0.000000000000000
3.799355745315552 0.233576357364655 0.791759192943573 0.000000000000000
3.800981521606445 3.211171627044678 0.401221483945847 0.000000000000000
3.804356575012207 -13.250780105590820 0.845608592033386 0.000000000000000
3.805662393569946 1.053187489509583 1.058052301406860 0.000000000000000
3.809767723083496 4.860873222351074 0.497990459203720 0.000000000000000
3.809813499450684 -1.881437897682190 0.883805274963379 0.000000000000000
3.810233354568481 -1.898218035697937 0.885434389114380 0.000000000000000
3.811407566070557 -13.383595466613770 0.344953447580338 0.000000000000000
3.813329219818115 3.695245027542114 0.325705021619797 0.000000000000000
3.814998865127563 -13.574107170104980 1.164188027381897 0.000000000000000
3.818858385086060 6.251878738403320 0.664136111736298 0.000000000000000
3.821403264999390 3.527398824691772 1.393481850624084 0.000000000000000
3.821638345718384 4.398769378662109 0.323740333318710 0.000000000000000
3.824439287185669 -6.510264873504639 1.290628671646118 1.000000000000000
3.828955650329590 -4.497098445892334 1.009588360786438 1.000000000000000
3.831164360046387 5.091151237487793 1.325300574302673 1.000000000000000
3.835304737091064 0.307302266359329 0.184140235185623 0.000000000000000
3.839024066925049 8.232439994812012 2.433934450149536 0.000000000000000
3.841395139694214 -6.591705799102783 1.304107904434204 0.000000000000000
3.841738462448120 -2.173373699188232 0.400142878293991 0.000000000000000
3.845312356948853 -6.009048938751221 1.057286262512207 1.000000000000000
3.845782995223999 4.135517597198486 0.085757993161678 0.000000000000000
3.846204757690430 4.888708591461182 0.441515594720840 0.000000000000000
3.848540306091309 4.538202762603760 0.633807182312012 0.000000000000000
3.849037647247314 6.847976684570312 0.836744189262390 0.000000000000000
3.849506616592407 -6.006362915039062 1.057286262512207 1.000000000000000
3.851002931594849 0.711517691612244 0.814567029476166 0.000000000000000
3.853229999542236 7.201629638671875 0.516728639602661 0.000000000000000
3.855506181716919 2.840552091598511 0.510096192359924 0.000000000000000
3.857955694198608 -8.546015739440918 0.817036986351013 1.000000000000000
3.860507965087891 -4.970127105712891 1.309009313583374 0.000000000000000
3.860873460769653 -3.033736705780029 0.310643345117569 0.000000000000000
3.865209579467773 3.735982418060303 0.468416005373001 0.000000000000000
3.866564989089966 -1.366109371185303 0.436801612377167 0.000000000000000
3.867546081542969 -13.462900161743164 1.714930891990662 0.000000000000000
3.868320226669312 -8.219108581542969 1.208826780319214 0.000000000000000
3.871895790100098 3.976276636123657 0.447516292333603 0.000000000000000
3.880501031875610 -1.386288523674011 0.438919961452484 0.000000000000000
3.887469768524170 3.445519924163818 0.553310334682465 0.000000000000000
3.889649629592896 3.274924993515015 0.443068057298660 0.000000000000000
3.894181966781616 4.519105434417725 0.354414910078049 0.000000000000000
3.895383596420288 -2.939434051513672 0.442396223545074 0.000000000000000
3.904034376144409 0.739862799644470 0.423244267702103 0.000000000000000
3.905332803726196 0.754241168498993 0.423667907714844 0.000000000000000
3.911092042922974 6.854647636413574 0.028925627470016 0.000000000000000
3.911634922027588 0.597028017044067 0.296134382486343 0.000000000000000
3.926226615905762 3.813958168029785 0.335745543241501 0.000000000000000
3.932887315750122 3.859176635742188 1.146095871925354 0.000000000000000
3.934106588363647 -8.521216392517090 0.756791174411774 0.000000000000000
3.935176134109497 -4.686104774475098 1.045982122421265 0.000000000000000
3.936225175857544 -5.781555175781250 1.454816818237305 0.000000000000000
3.936304569244385 4.069335937500000 0.456518054008484 0.000000000000000
3.938658714294434 3.390053033828735 1.392446517944336 0.000000000000000
3.939671754837036 -3.445400953292847 0.525162339210510 1.000000000000000
3.940258741378784 -0.803015410900116 0.428328275680542 0.000000000000000
3.945206880569458 3.580559968948364 0.050214473158121 0.000000000000000
3.955107450485229 -3.730885744094849 0.343980699777603 0.000000000000000
3.955487489700317 -5.853666782379150 1.469479084014893 0.000000000000000
3.960066080093384 6.292381286621094 1.101853013038635 0.000000000000000
3.961384057998657 4.374624729156494 1.227552533149719 0.000000000000000
3.968384027481079 -5.075281620025635 1.101246595382690 0.000000000000000
3.974611043930054 5.059183120727539 0.953492760658264 0.000000000000000
3.975088357925415 4.066034317016602 1.182751297950745 0.000000000000000
3.977082729339600 3.512690782546997 0.481038182973862 0.000000000000000
3.979241609573364 3.342770099639893 0.338805437088013 0.000000000000000
3.981563329696655 2.498791456222534 0.426144957542419 0.000000000000000
3.983678817749023 2.874390125274658 0.557962000370026 0.000000000000000
3.983777761459351 3.551789045333862 0.535545766353607 0.000000000000000
3.984166622161865 -0.826459228992462 0.433412283658981 0.000000000000000
3.987888097763062 2.870762109756470 0.150127351284027 0.000000000000000
3.989109516143799 11.301868438720703 3.211426973342896 0.000000000000000
3.990843296051025 -5.084591388702393 0.791356980800629 0.000000000000000
3.993775844573975 3.978333473205566 1.510468006134033 0.000000000000000
3.995187520980835 -4.096737384796143 0.450355261564255 1.000000000000000
3.995715141296387 0.560992300510406 0.325349509716034 0.000000000000000
3.996945381164551 -3.304328441619873 0.520370006561279 0.000000000000000
3.997345447540283 -4.123643875122070 0.440899252891541 0.000000000000000
4.000669956207275 6.801010131835938 1.050006747245789 0.000000000000000
4.003464698791504 6.568780422210693 2.061234951019287 0.000000000000000
4.004441261291504 0.320854246616364 0.427904576063156 0.000000000000000
4.005807876586914 -4.347290039062500 1.583972692489624 0.000000000000000
4.011019706726074 3.210216522216797 0.878166735172272 0.000000000000000
4.012420177459717 4.306709289550781 0.145911350846291 0.000000000000000
4.012540340423584 -8.310699462890625 1.048210024833679 1.000000000000000
4.013004779815674 -1.483738899230957 0.429315209388733 0.000000000000000
4.020068645477295 -8.586608886718750 1.972066760063171 0.000000000000000
4.020316123962402 5.046813488006592 1.728911280632019 0.000000000000000
4.025211811065674 4.943849086761475 0.606007874011993 0.000000000000000
4.025278091430664 5.718690872192383 1.873849987983704 0.000000000000000
4.030405521392822 7.189148902893066 0.188472867012024 0.000000000000000
4.033084869384766 5.859189510345459 1.905943512916565 0.000000000000000
4.033417701721191 2.551004409790039 0.432645469903946 0.000000000000000
4.036304473876953 -6.207770347595215 1.265692353248596 1.000000000000000
4.037624359130859 11.313347816467285 3.218673944473267 0.000000000000000
4.037760734558105 -9.189990997314453 2.689647436141968 0.000000000000000
4.039759159088135 4.659676551818848 0.247693434357643 0.000000000000000
4.040439605712891 4.684533596038818 1.057439446449280 1.000000000000000
4.043317794799805 -3.511210680007935 1.434892773628235 0.000000000000000
4.045480251312256 3.596296310424805 0.802200555801392 0.000000000000000
4.048890113830566 -5.810644626617432 1.897661328315735 0.000000000000000
4.054836750030518 4.800973415374756 0.446046859025955 0.000000000000000
4.055350780487061 -5.507785320281982 0.910181641578674 0.000000000000000
4.064430713653564 -8.558128356933594 0.800569772720337 0.000000000000000
4.068037986755371 -2.218795537948608 0.493573158979416 0.000000000000000
4.068104267120361 5.763918876647949 1.045558214187622 0.000000000000000
4.068761825561523 -2.200797319412231 0.492725819349289 0.000000000000000
4.069601535797119 -1.868452668190002 1.199885129928589 1.000000000000000
4.074783325195312 -3.181393861770630 1.385199546813965 0.000000000000000
4.078028678894043 -5.809125900268555 1.901802420616150 0.000000000000000
4.078675746917725 -6.315301895141602 1.114167451858521 0.000000000000000
4.086658954620361 3.987866878509521 0.262284606695175 0.000000000000000
4.092267513275146 3.136250495910645 0.207080066204071 0.000000000000000
4.094816207885742 3.968015193939209 0.261917531490326 0.000000000000000
4.098559856414795 4.069760322570801 0.032259106636047 0.000000000000000
4.109581470489502 -3.499754190444946 0.489344388246536 0.000000000000000
4.109781265258789 -8.576238632202148 0.803600966930389 0.000000000000000
4.113449573516846 7.119538784027100 0.472662270069122 1.000000000000000
4.116454601287842 4.714796543121338 0.251385569572449 1.000000000000000
4.123088359832764 -3.631284236907959 1.472162723541260 0.000000000000000
4.124567508697510 -8.574811935424805 0.565308392047882 0.000000000000000
4.125117301940918 3.685562610626221 0.424671739339828 0.000000000000000
4.128038883209229 -1.579482436180115 0.755506396293640 0.000000000000000
4.128119945526123 3.300629377365112 0.703346192836761 0.000000000000000
4.128835678100586 -3.293765306472778 1.415222644805908 0.000000000000000
4.135691165924072 -1.584562301635742 0.314356833696365 0.000000000000000
4.138828754425049 -2.039159059524536 0.491454809904099 0.000000000000000
4.144971847534180 -13.199170112609863 1.169027209281921 0.000000000000000
4.148137092590332 4.019685268402100 1.547737956047058 0.000000000000000
4.153325557708740 -2.303078651428223 0.505859494209290 0.000000000000000
4.154883861541748 5.809044361114502 1.058459043502808 1.000000000000000
4.156979084014893 -2.065260648727417 0.494420468807220 0.000000000000000
4.162106037139893 2.883268594741821 0.459008663892746 0.000000000000000
4.165378570556641 3.511179447174072 1.459739446640015 1.000000000000000
4.165863990783691 -1.645514488220215 0.663809299468994 0.000000000000000
4.166685581207275 4.237978458404541 0.238703921437263 0.000000000000000
4.168198585510254 -4.358114242553711 0.509575963020325 0.000000000000000
4.174028396606445 4.340643882751465 0.641433238983154 0.000000000000000
4.181181907653809 3.957542181015015 0.853217720985413 0.000000000000000
4.189197063446045 4.055081367492676 0.256597965955734 0.000000000000000
4.195471286773682 -2.075718164443970 0.693715870380402 0.000000000000000
4.198313713073730 -1.568933486938477 1.200920462608337 0.000000000000000
4.204143047332764 0.641673207283020 0.404257595539093 0.000000000000000
4.210951805114746 -1.850933909416199 0.335366159677505 0.000000000000000
4.211206912994385 4.871506690979004 0.332966804504395 1.000000000000000
4.218413829803467 -8.571441650390625 0.659651458263397 0.000000000000000
4.218707084655762 5.295289993286133 0.589947223663330 0.000000000000000
4.222132205963135 -3.317600727081299 0.571951687335968 0.000000000000000
4.223672866821289 -1.889517068862915 0.346286207437515 1.000000000000000
4.227404117584229 3.102612972259521 0.210611656308174 0.000000000000000
4.234441280364990 8.175704002380371 2.467063188552856 0.000000000000000
4.235164642333984 5.354768753051758 1.829333066940308 0.000000000000000
4.237460136413574 -8.842677116394043 1.304857492446899 0.000000000000000
4.244068622589111 3.751930475234985 0.467715919017792 0.000000000000000
4.247374534606934 5.110356807708740 0.305233955383301 1.000000000000000
4.248580455780029 -2.883973121643066 0.546955287456512 0.000000000000000
4.252645969390869 4.265878200531006 1.613995552062988 0.000000000000000
4.257545471191406 -2.137692213058472 0.478037506341934 0.000000000000000
4.261286735534668 3.740472078323364 0.840316832065582 0.000000000000000
4.261920452117920 -2.871347665786743 0.547378957271576 0.000000000000000
4.263791561126709 -4.865689277648926 1.345664739608765 0.000000000000000
4.264214038848877 0.356652230024338 0.204791486263275 0.000000000000000
4.267788410186768 -2.142835140228271 1.279601454734802 0.000000000000000
4.268352985382080 3.720374107360840 0.839144051074982 0.000000000000000
4.268810749053955 5.118859767913818 0.886965453624725 0.000000000000000
4.271785259246826 5.250625610351562 0.206806823611259 0.000000000000000
4.272447586059570 5.105804920196533 0.293003559112549 0.000000000000000
4.274219989776611 5.767638683319092 1.923543214797974 0.000000000000000
4.277508735656738 -3.148929119110107 0.418030083179474 0.000000000000000
4.280579566955566 -8.623927116394043 0.053772617131472 1.000000000000000
4.281673908233643 3.167347431182861 0.388303399085999 0.000000000000000
4.281995296478271 2.708221435546875 0.369397252798080 0.000000000000000
4.286646842956543 3.517461776733398 0.180073797702789 0.000000000000000
4.289036273956299 -13.331596374511719 1.863629937171936 0.000000000000000
4.290155887603760 -3.028839349746704 1.092334508895874 0.000000000000000
4.292652606964111 5.750443458557129 0.720051467418671 0.000000000000000
4.293578624725342 2.976123094558716 1.086632490158081 0.000000000000000
4.297489166259766 2.956676959991455 1.085003256797791 0.000000000000000
4.297762870788574 -6.663202285766602 1.355328679084778 0.000000000000000
4.304233074188232 5.060319900512695 0.471535265445709 0.000000000000000
4.313668727874756 0.590284407138824 0.351068794727325 0.000000000000000
4.323838710784912 -13.602455139160156 1.206074953079224 0.000000000000000
4.327327728271484 -0.013519229367375 0.273770242929459 0.000000000000000
4.328173160552979 -2.116698026657104 1.290989518165588 0.000000000000000
4.328495502471924 3.628304719924927 0.601608455181122 1.000000000000000
4.330223560333252 -3.846985578536987 0.525097250938416 0.000000000000000
4.330507278442383 5.146654605865479 0.542356312274933 0.000000000000000
4.332917690277100 4.562596321105957 0.385948210954666 0.000000000000000
4.334456443786621 -5.719964981079102 0.955031216144562 0.000000000000000
4.335371971130371 5.074456214904785 0.710914790630341 0.000000000000000
4.343275070190430 -5.679535388946533 1.059631824493408 0.000000000000000
4.345704555511475 -4.922648906707764 0.624176740646362 0.000000000000000
4.347223758697510 0.793238103389740 0.470695078372955 0.000000000000000
4.354024887084961 4.724860668182373 0.493256032466888 0.000000000000000
4.355034828186035 -4.262085914611816 1.267466425895691 0.000000000000000
4.355941295623779 5.165342330932617 0.206440359354019 0.000000000000000
4.356372356414795 7.204286575317383 2.255867004394531 0.000000000000000
4.359804153442383 4.006100177764893 0.363173335790634 0.000000000000000
4.366600990295410 7.482729434967041 1.152896881103516 0.000000000000000
4.367932796478271 5.135209560394287 0.374553561210632 0.000000000000000
4.367985725402832 6.631451606750488 0.227353259921074 0.000000000000000
4.369115352630615 4.258879184722900 1.269095540046692 0.000000000000000
4.369857311248779 -4.234389781951904 0.691132485866547 0.000000000000000
4.371845245361328 -7.885717391967773 1.199856996536255 0.000000000000000
4.375083923339844 2.664070129394531 1.065453767776489 0.000000000000000
4.381329536437988 -2.386893749237061 0.383031219244003 0.000000000000000
4.390371322631836 2.629873991012573 0.874796926975250 0.000000000000000
4.390707492828369 4.653772354125977 0.948215186595917 0.000000000000000
4.391534328460693 4.139675140380859 1.617101430892944 1.000000000000000
4.397272109985352 -3.244555473327637 0.408975958824158 1.000000000000000
4.403904914855957 5.372669696807861 1.861426711082458 0.000000000000000
4.404323577880859 4.876242637634277 0.699899435043335 0.000000000000000
4.406696796417236 4.630081176757812 0.453693389892578 0.000000000000000
4.407375812530518 -4.877396583557129 0.746657848358154 0.000000000000000
4.409359931945801 -1.526964068412781 0.358230650424957 0.000000000000000
4.410687446594238 -2.382959842681885 0.384868323802948 0.000000000000000
4.423671245574951 -2.258935213088989 0.498405009508133 0.000000000000000
4.427967071533203 -1.433950424194336 0.405567020177841 0.000000000000000
4.433173179626465 -2.024426460266113 0.424664765596390 0.000000000000000
4.433418273925781 2.634676694869995 0.881536483764648 0.000000000000000
4.440465450286865 -1.795957803726196 0.367722243070602 0.000000000000000
4.442171096801758 3.663925170898438 0.142739355564117 0.000000000000000
4.445774078369141 -4.885499000549316 0.750269234180450 0.000000000000000
4.446329116821289 -3.496529579162598 1.515644431114197 0.000000000000000
4.446613788604736 -2.917325496673584 0.482121616601944 0.000000000000000
4.446781158447266 3.587842702865601 1.188453435897827 0.000000000000000
4.449886798858643 -2.593120336532593 1.380023241043091 0.000000000000000
4.451008319854736 5.200058937072754 0.512264728546143 0.000000000000000
4.452690124511719 5.175084590911865 0.116781972348690 0.000000000000000
4.452730178833008 5.207771301269531 0.526017308235168 0.000000000000000
4.457221984863281 3.129800319671631 0.135007649660110 1.000000000000000
4.458445072174072 -3.741610288619995 0.862600207328796 0.000000000000000
4.459911823272705 -3.744698524475098 0.995435357093811 0.000000000000000
4.461107254028320 3.810954332351685 0.235653892159462 0.000000000000000
4.463923454284668 4.530170440673828 0.023310566321015 0.000000000000000
4.468147754669189 -1.812601208686829 0.370171695947647 0.000000000000000
4.475478172302246 2.704896926879883 0.391363114118576 0.000000000000000
4.476604938507080 -4.350573062896729 1.298419952392578 0.000000000000000
4.479625701904297 5.656343936920166 1.233342289924622 0.000000000000000
4.483609199523926 -2.212141752243042 1.339647412300110 0.000000000000000
4.483657360076904 3.985821247100830 0.240951284766197 0.000000000000000
4.484262943267822 3.299927711486816 1.491833090782166 0.000000000000000
4.487616062164307 -4.272305011749268 0.588974535465240 0.000000000000000
4.491249561309814 5.296086788177490 0.332332015037537 1.000000000000000
4.492537021636963 -4.433956623077393 0.448029279708862 1.000000000000000
4.493404865264893 5.755854129791260 1.248169422149658 0.000000000000000
4.497767448425293 -4.227231979370117 0.438117146492004 0.000000000000000
4.499264240264893 5.718778133392334 1.078396797180176 0.000000000000000
4.499919891357422 3.091088771820068 0.475707888603210 0.000000000000000
4.502384185791016 4.949965953826904 0.526617527008057 0.000000000000000
4.506134986877441 3.957066059112549 0.570048570632935 0.000000000000000
4.507066726684570 3.101793766021729 0.476749569177628 0.000000000000000
4.509712219238281 -5.770922660827637 1.085433721542358 0.000000000000000
4.511054039001465 5.325278282165527 0.792703211307526 0.000000000000000
4.513895511627197 -6.085949420928955 1.008323073387146 0.000000000000000
4.515804767608643 4.467045783996582 1.701994061470032 0.000000000000000
4.516485214233398 0.840425312519073 0.489336460828781 1.000000000000000
4.520016670227051 -0.413103729486465 0.944083213806152 0.000000000000000
4.521828651428223 4.609329223632812 0.495705485343933 0.000000000000000
4.528933048248291 4.300499916076660 0.178814589977264 0.000000000000000
4.532813549041748 5.443546295166016 0.066764138638973 1.000000000000000
4.533884048461914 4.595707416534424 0.234464928507805 0.000000000000000
4.534717559814453 2.740700006484985 1.102109193801880 0.000000000000000
4.541129112243652 6.696893215179443 0.811904966831207 0.000000000000000
4.542408943176270 -3.327219724655151 0.535224914550781 0.000000000000000
4.544539451599121 -4.387383937835693 1.313896656036377 0.000000000000000
4.546159744262695 4.891567707061768 0.165538012981415 0.000000000000000
4.549306869506836 -3.533639192581177 0.984651982784271 0.000000000000000
4.550200939178467 -4.121675014495850 1.645053982734680 0.000000000000000
4.550873279571533 4.390433311462402 0.509885668754578 0.000000000000000
4.558798789978027 5.111113071441650 0.209249913692474 0.000000000000000
4.560372829437256 -0.207165062427521 0.458069384098053 0.000000000000000
4.565839767456055 5.019729614257812 0.722777485847473 0.000000000000000
4.567017078399658 5.077177047729492 0.836077392101288 0.000000000000000
4.572122573852539 -1.175112485885620 0.262276232242584 0.000000000000000
4.575103759765625 -2.006520748138428 1.338612198829651 0.000000000000000
4.583608627319336 -8.208799362182617 1.151064634323120 0.000000000000000
4.583809852600098 5.589962482452393 0.206976175308228 0.000000000000000
4.584096908569336 4.473279953002930 0.195690810680389 0.000000000000000
4.587644577026367 4.826939582824707 0.986917853355408 0.000000000000000
4.587895393371582 5.668815135955811 0.405174642801285 1.000000000000000
4.589313507080078 -2.670937061309814 0.565596699714661 0.000000000000000
4.589406967163086 2.682476997375488 0.463207542896271 0.000000000000000
4.591028690338135 3.029754877090454 0.624772965908051 0.000000000000000
4.591290950775146 4.267834186553955 0.628996729850769 0.000000000000000
4.593881130218506 5.646526336669922 1.950460433959961 0.000000000000000
4.594851016998291 -3.390340566635132 0.542795240879059 0.000000000000000
4.597650051116943 -4.621947288513184 0.654156625270844 0.000000000000000
4.601722240447998 -3.987261295318604 0.691583931446075 0.000000000000000
4.603342533111572 -1.999775290489197 1.344823718070984 1.000000000000000
4.603344440460205 -1.780714750289917 0.447452217340469 0.000000000000000
4.603754043579102 5.288181781768799 0.254644870758057 0.000000000000000
4.604175567626953 4.492873191833496 1.723734855651855 0.000000000000000
4.604827880859375 5.027224063873291 0.726166844367981 0.000000000000000
4.606550216674805 4.971490859985352 0.441852241754532 0.000000000000000
4.606571197509766 6.211359500885010 0.735082626342773 0.000000000000000
4.610720157623291 8.222263336181641 0.632737100124359 0.000000000000000
4.614607334136963 -0.310384899377823 0.419283270835876 1.000000000000000
4.624382019042969 4.407127857208252 0.318017899990082 0.000000000000000
4.625110626220703 -13.373129844665527 1.732430100440979 0.000000000000000
4.626717567443848 -2.481760025024414 0.559241652488708 0.000000000000000
4.631087303161621 -3.545603036880493 0.425243109464645 0.000000000000000
4.633055210113525 -2.674787759780884 0.569833338260651 0.000000000000000
4.634461879730225 0.050232551991940 0.293217003345490 0.000000000000000
4.640929222106934 -2.439022302627563 0.372130513191223 0.000000000000000
4.644758701324463 5.085592746734619 0.581987619400024 0.000000000000000
4.646669864654541 2.679082155227661 0.467374324798584 0.000000000000000
4.647768020629883 -1.561257481575012 0.357471823692322 0.000000000000000
4.649027347564697 -3.286581039428711 0.973194777965546 0.000000000000000
4.649776935577393 4.494318962097168 0.259732961654663 0.000000000000000
4.650887966156006 -4.409826755523682 0.541571795940399 0.000000000000000
4.652370929718018 4.824075222015381 0.820522487163544 0.000000000000000
4.652964115142822 -3.536658048629761 0.426115721464157 0.000000000000000
4.653511524200439 -1.413933515548706 0.488021552562714 0.000000000000000
4.664481163024902 -5.711480617523193 1.533829808235168 0.000000000000000
4.666976928710938 2.838237285614014 0.387706786394119 0.000000000000000
4.670182704925537 0.066924333572388 0.295490026473999 0.000000000000000
4.670716762542725 3.279713392257690 0.317083537578583 0.000000000000000
4.674272537231445 4.894939899444580 0.323918551206589 0.000000000000000
4.676590919494629 4.811733722686768 0.166331008076668 0.000000000000000
4.681638717651367 4.857470989227295 0.999818682670593 0.000000000000000
4.683168888092041 4.830800533294678 0.516525745391846 0.000000000000000
4.685523986816406 4.434908390045166 0.562168657779694 0.000000000000000
4.689691066741943 5.742761611938477 0.511960089206696 0.000000000000000
4.690239429473877 -2.377847433090210 0.779330849647522 1.000000000000000
4.693629264831543 4.763949871063232 0.063031978905201 0.000000000000000
4.694341659545898 -2.591202020645142 0.486094176769257 0.000000000000000
4.698840141296387 5.732484817504883 0.340474426746368 0.000000000000000
4.701107501983643 0.291569560766220 0.361598640680313 0.000000000000000
4.702861785888672 -1.801869988441467 0.279805719852448 0.000000000000000
4.705462455749512 -4.299388885498047 0.577823638916016 0.000000000000000
4.713867187500000 4.723421573638916 1.388022303581238 0.000000000000000
4.714078426361084 -3.876047372817993 0.553266167640686 0.000000000000000
4.718128681182861 4.281738281250000 0.243648692965508 0.000000000000000
4.718997955322266 4.173254966735840 0.598815977573395 0.000000000000000
4.720129489898682 5.503956317901611 0.500662803649902 0.000000000000000
4.721443653106689 -1.673991203308105 0.476176053285599 0.000000000000000
