# This PCD file was generated using the MATLAB® pcwrite function
# from Computer Vision Toolbox®.
# .PCD v.7 - Point Cloud Data file format
VERSION .7
FIELDS x y z intensity
SIZE 8 8 8 8
TYPE F F F F
COUNT 1 1 1 1
WIDTH 643
HEIGHT 1
VIEWPOINT 0 0 0 1 0 0 0
POINTS 643
DATA ascii
12.907586097717285 -10.377223968505859 -1.341257333755493 1.000000000000000
12.907988548278809 9.918263435363770 1.992975354194641 0.000000000000000
12.913213729858398 12.770663261413574 0.485092252492905 0.000000000000000
12.914179801940918 -10.443522453308105 3.454578876495361 0.000000000000000
12.914391517639160 -17.306436538696289 2.300093173980713 1.000000000000000
12.918674468994141 16.376096725463867 1.319602847099304 0.000000000000000
12.927588462829590 -16.513265609741211 1.165154457092285 1.000000000000000
12.928376197814941 4.767998695373535 -0.108226761221886 0.000000000000000
12.929895401000977 8.828775405883789 1.111293911933899 0.000000000000000
12.933750152587891 -20.217720031738281 2.938423156738281 1.000000000000000
12.939692497253418 10.213289260864258 1.138270735740662 0.000000000000000
12.940275192260742 -22.240758895874023 0.489574462175369 1.000000000000000
12.941107749938965 -22.242189407348633 -1.488261699676514 1.000000000000000
12.945611953735352 -10.468941688537598 1.582585096359253 0.000000000000000
12.947701454162598 -16.472515106201172 1.083381414413452 0.000000000000000
12.950761795043945 -16.705652236938477 1.459554672241211 0.000000000000000
12.951723098754883 -20.525650024414062 -0.283823162317276 1.000000000000000
12.954432487487793 -18.126621246337891 0.081660285592079 0.000000000000000
12.958752632141113 5.496393203735352 -0.326808035373688 0.000000000000000
12.960840225219727 -20.494892120361328 0.368237048387527 1.000000000000000
12.963202476501465 14.047107696533203 1.430520176887512 0.000000000000000
12.964545249938965 9.565626144409180 0.523213684558868 0.000000000000000
12.964825630187988 5.788320541381836 -0.220565855503082 0.000000000000000
12.966462135314941 10.919549942016602 -0.068049512803555 0.000000000000000
12.968563079833984 12.496947288513184 0.273490279912949 0.000000000000000
12.968852996826172 -22.182863235473633 -1.288201212882996 1.000000000000000
12.971663475036621 -16.533863067626953 0.844051897525787 0.000000000000000
12.972208023071289 12.574459075927734 0.239656001329422 0.000000000000000
12.975291252136230 8.146965980529785 2.038806915283203 0.000000000000000
12.977043151855469 -19.019351959228516 2.006306648254395 1.000000000000000
12.978925704956055 -17.266841888427734 0.369501709938049 1.000000000000000
12.979100227355957 9.941950798034668 1.065858006477356 0.000000000000000
12.980886459350586 -10.572624206542969 3.482274055480957 0.000000000000000
12.982855796813965 10.425806045532227 0.412754625082016 0.000000000000000
12.987250328063965 9.003534317016602 -0.184803128242493 0.000000000000000
12.988083839416504 8.873835563659668 0.662035763263702 0.000000000000000
12.990840911865234 9.358262062072754 0.212384998798370 0.000000000000000
12.991783142089844 6.027276039123535 -0.249988272786140 0.000000000000000
12.992334365844727 8.673332214355469 2.315122842788696 0.000000000000000
12.996299743652344 -14.245740890502930 1.629430651664734 0.000000000000000
12.998412132263184 -15.123788833618164 1.895619869232178 0.000000000000000
12.999334335327148 -22.435857772827148 0.343964993953705 1.000000000000000
12.999966621398926 10.870436668395996 0.452624619007111 0.000000000000000
13.001875877380371 -20.168775558471680 -0.603222906589508 0.000000000000000
13.006572723388672 -15.104996681213379 0.953972637653351 1.000000000000000
13.007056236267090 15.746337890625000 3.491100311279297 0.000000000000000
13.012874603271484 -16.732635498046875 1.921624779701233 1.000000000000000
13.013937950134277 -16.730388641357422 -0.044392764568329 0.000000000000000
13.014103889465332 -17.611968994140625 0.248442322015762 1.000000000000000
13.014206886291504 -16.110837936401367 1.310258269309998 0.000000000000000
13.014730453491211 -17.052146911621094 0.737851083278656 1.000000000000000
13.016275405883789 7.784523010253906 1.722639918327332 0.000000000000000
13.017688751220703 12.805408477783203 1.832277536392212 0.000000000000000
13.017806053161621 -16.189727783203125 1.034204602241516 1.000000000000000
13.018378257751465 13.990834236145020 0.216814145445824 0.000000000000000
13.019186019897461 8.211640357971191 -0.919877409934998 0.000000000000000
13.020071029663086 -17.059143066406250 0.408308446407318 0.000000000000000
13.027024269104004 14.984827995300293 0.110896252095699 0.000000000000000
13.027555465698242 -18.613574981689453 0.126891762018204 0.000000000000000
13.027806282043457 15.207315444946289 1.692075014114380 0.000000000000000
13.029360771179199 9.112421035766602 3.307142496109009 0.000000000000000
13.030970573425293 9.729274749755859 2.410120248794556 0.000000000000000
13.031376838684082 9.576705932617188 0.059273347258568 0.000000000000000
13.033957481384277 9.900836944580078 0.028567533940077 0.000000000000000
13.042038917541504 9.328922271728516 0.644035041332245 0.000000000000000
13.042873382568359 -15.021043777465820 1.028644204139709 0.000000000000000
13.044259071350098 14.869429588317871 2.106900453567505 0.000000000000000
13.045458793640137 9.310734748840332 0.890452265739441 0.000000000000000
13.048805236816406 -14.104261398315430 2.556951045989990 0.000000000000000
13.050285339355469 8.898305892944336 -0.154385179281235 0.000000000000000
13.050354957580566 -8.422635078430176 1.408084034919739 0.000000000000000
13.050723075866699 -19.781942367553711 3.153713464736938 1.000000000000000
13.055837631225586 9.953809738159180 0.690966188907623 0.000000000000000
13.056125640869141 11.466850280761719 -0.336684376001358 0.000000000000000
13.056272506713867 -11.104686737060547 2.098457098007202 0.000000000000000
13.058524131774902 13.556549072265625 3.217473268508911 0.000000000000000
13.058621406555176 12.365349769592285 0.653162598609924 0.000000000000000
13.063247680664062 14.337212562561035 1.114968776702881 0.000000000000000
13.063391685485840 -10.577772140502930 -1.361276030540466 1.000000000000000
13.065697669982910 8.797675132751465 0.118216335773468 0.000000000000000
13.066471099853516 -19.923610687255859 2.917035341262817 1.000000000000000
13.068737983703613 13.719692230224609 0.069447889924049 0.000000000000000
13.071086883544922 13.677160263061523 1.798340678215027 0.000000000000000
13.072762489318848 14.813530921936035 2.244036436080933 0.000000000000000
13.073029518127441 10.302987098693848 0.316693931818008 0.000000000000000
13.073286056518555 -15.487680435180664 0.113197289407253 0.000000000000000
13.078599929809570 12.884202957153320 0.878633856773376 0.000000000000000
13.080016136169434 -18.547601699829102 1.479606509208679 1.000000000000000
13.080399513244629 -17.927186965942383 1.933735132217407 1.000000000000000
13.081071853637695 -15.869174957275391 0.312299996614456 0.000000000000000
13.087363243103027 -10.170636177062988 1.112513661384583 0.000000000000000
13.089086532592773 -19.165599822998047 2.472102403640747 1.000000000000000
13.089138984680176 11.011933326721191 2.276245594024658 0.000000000000000
13.089771270751953 11.536534309387207 0.835036754608154 0.000000000000000
13.089806556701660 11.328356742858887 -0.668051838874817 0.000000000000000
13.090086936950684 -15.950884819030762 1.743605136871338 0.000000000000000
13.090282440185547 -16.711469650268555 -0.411305069923401 0.000000000000000
13.093867301940918 -15.508768081665039 2.700997352600098 0.000000000000000
13.094094276428223 10.245691299438477 0.571882784366608 0.000000000000000
13.094902038574219 11.492824554443359 1.135856986045837 0.000000000000000
13.094992637634277 -22.065008163452148 -1.236940503120422 1.000000000000000
13.095382690429688 -15.664125442504883 3.025844335556030 0.000000000000000
13.096147537231445 10.561221122741699 1.421625971794128 0.000000000000000
13.100898742675781 9.048171997070312 0.761992573738098 0.000000000000000
13.103469848632812 11.073682785034180 0.029942853376269 0.000000000000000
13.104441642761230 9.855566024780273 2.430057764053345 0.000000000000000
13.105909347534180 -17.849367141723633 2.104940414428711 1.000000000000000
13.106441497802734 -16.629022598266602 -1.142991781234741 0.000000000000000
13.110094070434570 -15.662265777587891 0.349388122558594 0.000000000000000
13.110829353332520 -8.844696998596191 2.343856573104858 0.000000000000000
13.111992835998535 -10.466416358947754 -1.358693003654480 1.000000000000000
13.112409591674805 -18.635631561279297 1.441587090492249 1.000000000000000
13.114863395690918 15.128475189208984 1.903190255165100 0.000000000000000
13.119322776794434 15.218201637268066 2.977759122848511 0.000000000000000
13.120486259460449 10.605055809020996 0.223792135715485 0.000000000000000
13.120794296264648 14.514958381652832 0.259552180767059 0.000000000000000
13.121060371398926 -8.533292770385742 1.418918251991272 0.000000000000000
13.121567726135254 -20.591974258422852 3.618698835372925 0.000000000000000
13.122505187988281 11.647017478942871 1.380880117416382 0.000000000000000
13.128490447998047 10.991930007934570 0.227134674787521 0.000000000000000
13.129755020141602 -8.038991928100586 1.003665566444397 0.000000000000000
13.130262374877930 8.842473983764648 1.307037115097046 0.000000000000000
13.137955665588379 -22.328769683837891 -0.501965761184692 1.000000000000000
13.138173103332520 6.114714622497559 -0.364285886287689 0.000000000000000
13.140905380249023 -14.872954368591309 1.799198508262634 0.000000000000000
13.145306587219238 15.090526580810547 0.342341512441635 0.000000000000000
13.146842002868652 7.258052825927734 0.285724580287933 0.000000000000000
13.150099754333496 11.220932006835938 -0.933195292949677 0.000000000000000
13.158890724182129 7.337388515472412 1.273097872734070 0.000000000000000
13.160663604736328 -18.677875518798828 1.754105448722839 1.000000000000000
13.167687416076660 9.970207214355469 2.823208093643188 0.000000000000000
13.171241760253906 -16.814825057983398 1.557285666465759 0.000000000000000
13.171463966369629 10.315878868103027 1.122961044311523 0.000000000000000
13.177417755126953 -17.044050216674805 -0.003760137362406 0.000000000000000
13.177518844604492 13.164190292358398 1.465929746627808 0.000000000000000
13.180062294006348 9.332701683044434 1.052846908569336 0.000000000000000
13.185449600219727 -19.140541076660156 2.639936447143555 1.000000000000000
13.185524940490723 -15.718353271484375 1.337526917457581 0.000000000000000
13.185825347900391 -20.880496978759766 -0.478486984968185 1.000000000000000
13.186873435974121 14.289480209350586 1.848305106163025 0.000000000000000
13.187300682067871 15.523549079895020 0.544046640396118 0.000000000000000
13.188028335571289 13.266983985900879 1.183475375175476 0.000000000000000
13.188571929931641 11.320353507995605 -0.503702759742737 0.000000000000000
13.193813323974609 -16.217048645019531 1.322633504867554 0.000000000000000
13.194754600524902 12.296126365661621 0.031478744000196 0.000000000000000
13.197174072265625 -20.343622207641602 1.955311775207520 1.000000000000000
13.197725296020508 -16.230533599853516 0.840199232101440 0.000000000000000
13.198004722595215 16.008186340332031 0.833296597003937 0.000000000000000
13.201294898986816 -17.638830184936523 0.080751322209835 0.000000000000000
13.202079772949219 -17.306383132934570 0.623218119144440 0.000000000000000
13.205972671508789 10.625846862792969 1.072350978851318 0.000000000000000
13.206271171569824 10.340528488159180 -0.486089974641800 0.000000000000000
13.206833839416504 12.581977844238281 1.470824003219604 0.000000000000000
13.209444999694824 -10.323320388793945 -0.324828743934631 1.000000000000000
13.212980270385742 -19.617099761962891 2.686433315277100 1.000000000000000
13.216324806213379 -10.367393493652344 -0.293200433254242 1.000000000000000
13.219252586364746 10.041590690612793 1.306500911712646 0.000000000000000
13.220263481140137 8.105198860168457 1.010951757431030 0.000000000000000
13.220750808715820 14.728567123413086 0.566666007041931 0.000000000000000
13.220916748046875 10.969990730285645 0.656964898109436 0.000000000000000
13.225479125976562 15.364111900329590 0.892201125621796 0.000000000000000
13.227675437927246 -16.883226394653320 -0.044920552521944 0.000000000000000
13.228066444396973 -19.546586990356445 0.313086152076721 1.000000000000000
13.229434967041016 -10.190979003906250 1.513898015022278 0.000000000000000
13.233117103576660 11.911398887634277 1.126397728919983 0.000000000000000
13.234539031982422 -19.366235733032227 -0.409433454275131 1.000000000000000
13.236952781677246 -13.314805984497070 1.702051877975464 0.000000000000000
13.241175651550293 12.513241767883301 0.591633915901184 0.000000000000000
13.244188308715820 6.482816219329834 -0.881221055984497 0.000000000000000
13.248599052429199 10.382261276245117 1.422299504280090 0.000000000000000
13.250809669494629 -10.322531700134277 1.789149641990662 0.000000000000000
13.258354187011719 12.988975524902344 0.353141903877258 0.000000000000000
13.262413978576660 -10.525234222412109 -0.653398156166077 0.000000000000000
13.262946128845215 9.849581718444824 0.504740536212921 0.000000000000000
13.265957832336426 -18.084537506103516 1.635237216949463 0.000000000000000
13.270306587219238 -19.273801803588867 -0.408456116914749 1.000000000000000
13.270545959472656 -10.523384094238281 -0.621037542819977 0.000000000000000
13.272103309631348 -7.773935794830322 0.973096549510956 0.000000000000000
13.273504257202148 -14.831011772155762 2.436776638031006 0.000000000000000
13.277619361877441 10.988497734069824 0.559695839881897 0.000000000000000
13.277803421020508 14.572692871093750 0.829731285572052 0.000000000000000
13.279667854309082 9.309236526489258 0.277417063713074 0.000000000000000
13.280200004577637 8.865503311157227 1.391358613967896 0.000000000000000
13.281280517578125 -16.839969635009766 1.563684821128845 0.000000000000000
13.291815757751465 -17.395036697387695 0.837179303169250 0.000000000000000
13.292942047119141 -19.063491821289062 -0.405663758516312 1.000000000000000
13.297292709350586 -15.773712158203125 1.305207133293152 0.000000000000000
13.298943519592285 -13.360362052917480 1.791905760765076 0.000000000000000
13.302683830261230 9.157049179077148 0.679696798324585 0.000000000000000
13.303636550903320 -10.434759140014648 1.330666422843933 0.000000000000000
13.307012557983398 8.682682037353516 0.852182686328888 0.000000000000000
13.309989929199219 7.360849380493164 1.285222649574280 0.000000000000000
13.310309410095215 9.769533157348633 1.108227491378784 0.000000000000000
13.310914039611816 -10.718324661254883 1.411047220230103 0.000000000000000
13.314517021179199 11.734612464904785 1.890406370162964 0.000000000000000
13.316810607910156 -9.994182586669922 1.342548847198486 0.000000000000000
13.318311691284180 7.626850128173828 3.192288398742676 0.000000000000000
13.319392204284668 11.958362579345703 -0.037489645183086 0.000000000000000
13.322753906250000 -7.276475429534912 1.253386378288269 0.000000000000000
13.323394775390625 -15.905244827270508 0.394764095544815 0.000000000000000
13.331767082214355 -10.078348159790039 1.898244500160217 0.000000000000000
13.334062576293945 13.677772521972656 0.290070950984955 0.000000000000000
13.336904525756836 -20.382474899291992 2.982171535491943 1.000000000000000
13.338556289672852 7.432689189910889 1.024916172027588 0.000000000000000
13.350839614868164 -20.646732330322266 1.840093255043030 1.000000000000000
13.353538513183594 15.780534744262695 0.393318355083466 0.000000000000000
13.354919433593750 -16.532621383666992 0.690174698829651 0.000000000000000
13.355006217956543 9.075714111328125 0.741702020168304 0.000000000000000
13.355341911315918 -19.100351333618164 -0.272550702095032 1.000000000000000
13.358846664428711 9.482419013977051 1.557224512100220 0.000000000000000
13.361634254455566 6.370599269866943 -0.201529055833817 0.000000000000000
13.361772537231445 12.842170715332031 2.466196775436401 0.000000000000000
13.368573188781738 15.220343589782715 0.502165019512177 0.000000000000000
13.368726730346680 10.192357063293457 0.190722018480301 0.000000000000000
13.372290611267090 11.410527229309082 -0.678386449813843 0.000000000000000
13.372474670410156 10.662126541137695 0.423955738544464 0.000000000000000
13.379446983337402 -21.934541702270508 -1.485952258110046 1.000000000000000
13.381895065307617 11.919487953186035 -0.347222715616226 0.000000000000000
13.381916046142578 12.244233131408691 -0.455960512161255 0.000000000000000
13.383070945739746 -12.321890830993652 2.420819520950317 0.000000000000000
13.386090278625488 10.506608963012695 2.083388328552246 0.000000000000000
13.386958122253418 -12.248847007751465 1.463108181953430 0.000000000000000
13.392232894897461 11.278107643127441 0.736884772777557 0.000000000000000
13.392727851867676 15.203905105590820 2.696248292922974 0.000000000000000
13.395594596862793 -16.715053558349609 2.149371862411499 0.000000000000000
13.397177696228027 -12.704118728637695 1.453062534332275 0.000000000000000
13.398023605346680 -8.608315467834473 1.222576975822449 0.000000000000000
13.403768539428711 -10.589076995849609 1.080685257911682 0.000000000000000
13.404287338256836 -12.513703346252441 1.514069795608521 0.000000000000000
13.405350685119629 12.609615325927734 0.385508090257645 0.000000000000000
13.405837059020996 11.982419013977051 1.415088415145874 0.000000000000000
13.408592224121094 12.696742057800293 2.260811567306519 0.000000000000000
13.410785675048828 14.898380279541016 1.036493301391602 0.000000000000000
13.413857460021973 10.359188079833984 0.355015933513641 0.000000000000000
13.415571212768555 15.123071670532227 1.708241343498230 0.000000000000000
13.422130584716797 9.708154678344727 0.601623892784119 0.000000000000000
13.424124717712402 11.700711250305176 -0.105674177408218 0.000000000000000
13.426306724548340 -10.268157005310059 1.532316088676453 0.000000000000000
13.427556037902832 7.743659496307373 1.405194997787476 0.000000000000000
13.431424140930176 9.786464691162109 1.115460276603699 0.000000000000000
13.433105468750000 -15.212229728698730 3.007665634155273 0.000000000000000
13.435138702392578 9.298770904541016 -0.159702062606812 0.000000000000000
13.435964584350586 8.501746177673340 2.115842580795288 0.000000000000000
13.437079429626465 12.521946907043457 1.445530533790588 0.000000000000000
13.439390182495117 -16.802726745605469 -1.493242025375366 0.000000000000000
13.439995765686035 -12.202041625976562 1.253448009490967 0.000000000000000
13.440512657165527 9.512195587158203 0.851420044898987 0.000000000000000
13.441044807434082 5.736145973205566 -0.423518210649490 0.000000000000000
13.447560310363770 -10.177321434020996 1.796352028846741 0.000000000000000
13.448014259338379 8.579221725463867 1.389969825744629 0.000000000000000
13.449082374572754 9.628242492675781 0.505351364612579 0.000000000000000
13.450016021728516 -16.935667037963867 -1.459201455116272 0.000000000000000
13.450073242187500 -10.549616813659668 1.081442832946777 0.000000000000000
13.452666282653809 -16.114339828491211 -1.092774391174316 0.000000000000000
13.452979087829590 -17.294807434082031 0.627339303493500 0.000000000000000
13.458708763122559 -1.041259884834290 -0.494983196258545 0.000000000000000
13.462373733520508 7.583806514739990 -0.121358484029770 0.000000000000000
13.464749336242676 13.990979194641113 1.453207850456238 0.000000000000000
13.467403411865234 -16.527973175048828 2.837128639221191 0.000000000000000
13.467825889587402 7.190851688385010 0.936463177204132 0.000000000000000
13.468249320983887 7.131672859191895 0.055857393890619 0.000000000000000
13.469711303710938 8.627833366394043 1.011990070343018 0.000000000000000
13.469789505004883 11.823512077331543 1.272153973579407 0.000000000000000
13.479250907897949 8.418846130371094 1.510666608810425 0.000000000000000
13.481150627136230 9.591540336608887 0.791822135448456 0.000000000000000
13.482544898986816 13.282144546508789 0.614613771438599 0.000000000000000
13.483919143676758 11.058492660522461 0.432282179594040 0.000000000000000
13.484038352966309 9.084150314331055 0.215674474835396 0.000000000000000
13.484815597534180 -15.790921211242676 3.077447891235352 0.000000000000000
13.490229606628418 15.747100830078125 0.155620470643044 0.000000000000000
13.490783691406250 8.811992645263672 0.678182959556580 0.000000000000000
13.491082191467285 -6.714061737060547 2.575865745544434 0.000000000000000
13.492308616638184 12.661707878112793 1.170595049858093 0.000000000000000
13.492752075195312 -7.665261268615723 1.557116389274597 0.000000000000000
13.497350692749023 11.771181106567383 -0.622273266315460 0.000000000000000
13.501535415649414 14.487745285034180 0.110605828464031 0.000000000000000
13.501963615417480 10.815566062927246 -0.102659665048122 0.000000000000000
13.507531166076660 13.107550621032715 0.285819500684738 0.000000000000000
13.508206367492676 6.670595645904541 -1.132778644561768 0.000000000000000
13.508879661560059 -7.334111690521240 1.002104163169861 0.000000000000000
13.512180328369141 5.947763442993164 -0.144298747181892 0.000000000000000
13.513835906982422 9.788142204284668 0.927064418792725 0.000000000000000
13.521425247192383 11.508047103881836 0.849760353565216 0.000000000000000
13.524799346923828 -11.036060333251953 1.239019036293030 0.000000000000000
13.525301933288574 9.708538055419922 -0.482497870922089 0.000000000000000
13.526106834411621 13.276306152343750 2.808875083923340 0.000000000000000
13.528676033020020 9.779105186462402 -0.483772516250610 0.000000000000000
13.530899047851562 9.994809150695801 0.578620493412018 0.000000000000000
13.537891387939453 12.807517051696777 2.116734266281128 0.000000000000000
13.537909507751465 15.448991775512695 1.656324744224548 0.000000000000000
13.539216041564941 -7.411890029907227 1.006267786026001 0.000000000000000
13.540806770324707 8.034198760986328 1.269570231437683 0.000000000000000
13.543153762817383 -12.061844825744629 1.147359967231750 0.000000000000000
13.545078277587891 -10.072672843933105 1.165549516677856 0.000000000000000
13.548373222351074 6.592764377593994 -0.147269949316978 0.000000000000000
13.549272537231445 -12.347922325134277 2.716809511184692 0.000000000000000
13.549558639526367 6.460198402404785 0.718395471572876 0.000000000000000
13.551525115966797 8.245293617248535 0.820230245590210 0.000000000000000
13.553346633911133 9.673222541809082 0.156939074397087 0.000000000000000
13.557350158691406 -0.534091830253601 -1.361428499221802 1.000000000000000
13.558307647705078 -8.194716453552246 1.687469363212585 0.000000000000000
13.563775062561035 -8.777485847473145 1.835044741630554 0.000000000000000
13.564535140991211 12.209714889526367 -0.248467177152634 0.000000000000000
13.564653396606445 14.193612098693848 1.469328165054321 0.000000000000000
13.566129684448242 6.256376743316650 -0.375544160604477 0.000000000000000
13.571758270263672 5.668568134307861 -0.002567030489445 0.000000000000000
13.575820922851562 7.387650012969971 2.056746721267700 0.000000000000000
13.579905509948730 13.243759155273438 1.090405941009521 0.000000000000000
13.584394454956055 -18.940937042236328 1.924514293670654 0.000000000000000
13.585551261901855 10.478162765502930 0.326433718204498 0.000000000000000
13.590412139892578 9.141329765319824 0.909978806972504 0.000000000000000
13.594475746154785 -6.839091777801514 2.025088310241699 0.000000000000000
13.598196983337402 -14.982003211975098 2.477122306823730 0.000000000000000
13.598317146301270 -16.245532989501953 1.340312361717224 0.000000000000000
13.600388526916504 -12.839680671691895 1.777900576591492 0.000000000000000
13.601190567016602 6.334823131561279 0.343110233545303 0.000000000000000
13.603463172912598 -9.246291160583496 2.437680959701538 0.000000000000000
13.608352661132812 -18.384592056274414 2.295139074325562 0.000000000000000
13.609745979309082 -12.251689910888672 2.713877439498901 0.000000000000000
13.610066413879395 14.855914115905762 0.809217512607574 0.000000000000000
13.617722511291504 -1.887434959411621 -1.486217021942139 1.000000000000000
13.620936393737793 13.376853942871094 0.803492128849030 0.000000000000000
13.620941162109375 10.889815330505371 1.136897921562195 0.000000000000000
13.623620033264160 -13.009462356567383 2.006491184234619 0.000000000000000
13.627106666564941 7.354016304016113 1.308461785316467 0.000000000000000
13.630756378173828 9.382882118225098 2.828599691390991 0.000000000000000
13.632019996643066 13.844954490661621 1.341622114181519 0.000000000000000
13.633371353149414 13.872453689575195 0.258013546466827 0.000000000000000
13.633375167846680 10.677646636962891 1.429808497428894 0.000000000000000
13.638367652893066 12.569257736206055 -0.430606693029404 0.000000000000000
13.645106315612793 6.302611351013184 1.362580418586731 0.000000000000000
13.647066116333008 15.267706871032715 1.374502062797546 0.000000000000000
13.648343086242676 11.616065979003906 -0.244002088904381 0.000000000000000
13.651636123657227 16.745727539062500 1.075572848320007 0.000000000000000
13.651852607727051 -20.116777420043945 2.761369943618774 1.000000000000000
13.652244567871094 8.755171775817871 0.557857215404510 0.000000000000000
13.652577400207520 11.426673889160156 1.469964146614075 0.000000000000000
13.658059120178223 14.581031799316406 0.226661071181297 0.000000000000000
13.658061981201172 -16.775110244750977 -0.585346996784210 0.000000000000000
13.661139488220215 6.606411933898926 1.857841849327087 0.000000000000000
13.664786338806152 11.496227264404297 1.233057856559753 0.000000000000000
13.667701721191406 8.927553176879883 0.938437819480896 0.000000000000000
13.667818069458008 -17.476398468017578 2.716279506683350 0.000000000000000
13.669074058532715 15.092878341674805 0.465649574995041 0.000000000000000
13.669782638549805 11.493913650512695 1.198771595954895 0.000000000000000
13.670363426208496 11.354190826416016 1.021538257598877 0.000000000000000
13.674908638000488 10.846770286560059 -0.237631127238274 0.000000000000000
13.694766044616699 -8.031779289245605 1.593058943748474 0.000000000000000
13.696596145629883 7.395221710205078 -0.570762395858765 0.000000000000000
13.699408531188965 14.321599006652832 1.796670556068420 0.000000000000000
13.699517250061035 12.360244750976562 0.954077959060669 0.000000000000000
13.705123901367188 -20.155883789062500 1.683020591735840 1.000000000000000
13.707793235778809 8.944187164306641 2.178104400634766 0.000000000000000
13.714786529541016 -13.920260429382324 1.349337220191956 0.000000000000000
13.715487480163574 9.357483863830566 -0.385484933853149 0.000000000000000
13.718116760253906 14.788835525512695 1.276163339614868 0.000000000000000
13.718595504760742 9.869429588317871 -0.067840777337551 0.000000000000000
13.720364570617676 14.862374305725098 1.670084834098816 0.000000000000000
13.728377342224121 11.695743560791016 1.384546160697937 0.000000000000000
13.729106903076172 7.401021003723145 1.046882510185242 0.000000000000000
13.729703903198242 10.976770401000977 0.875096142292023 0.000000000000000
13.730345726013184 12.414164543151855 0.245545282959938 0.000000000000000
13.734447479248047 14.779001235961914 1.509927153587341 0.000000000000000
13.734465599060059 14.458963394165039 0.839318692684174 0.000000000000000
13.740650177001953 -6.266609668731689 1.276129126548767 0.000000000000000
13.741724014282227 10.032397270202637 1.542428135871887 0.000000000000000
13.744075775146484 -7.095668792724609 2.058329820632935 0.000000000000000
13.747100830078125 -19.846668243408203 2.422536134719849 1.000000000000000
13.754480361938477 14.605607032775879 0.612969100475311 0.000000000000000
13.755515098571777 8.187569618225098 2.736267805099487 0.000000000000000
13.757278442382812 16.607263565063477 2.449434995651245 0.000000000000000
13.759295463562012 -13.991298675537109 1.544388890266418 0.000000000000000
13.760676383972168 9.807418823242188 1.134212017059326 0.000000000000000
13.760949134826660 8.611497879028320 0.464780598878860 0.000000000000000
13.762675285339355 13.339769363403320 2.840540647506714 0.000000000000000
13.764201164245605 10.169741630554199 1.313818573951721 0.000000000000000
13.768241882324219 5.953485965728760 1.035768508911133 0.000000000000000
13.769939422607422 13.157923698425293 2.331781148910522 0.000000000000000
13.771021842956543 6.705871105194092 2.038279294967651 0.000000000000000
13.773959159851074 6.245824813842773 0.055432233959436 0.000000000000000
13.776382446289062 9.425126075744629 -0.034959618002176 0.000000000000000
13.778747558593750 7.373867034912109 -0.362831175327301 0.000000000000000
13.783605575561523 -6.163971900939941 2.237717390060425 0.000000000000000
13.785067558288574 -15.219883918762207 2.514065504074097 0.000000000000000
13.785462379455566 11.218333244323730 -0.310233980417252 0.000000000000000
13.786754608154297 6.485211849212646 0.055842734873295 0.000000000000000
13.788044929504395 5.976344108581543 -0.118028432130814 0.000000000000000
13.788663864135742 6.223213672637939 0.026403326541185 0.000000000000000
13.789319992065430 -13.967600822448730 1.779335737228394 0.000000000000000
13.790245056152344 7.129265308380127 1.900617837905884 0.000000000000000
13.791790962219238 -12.609534263610840 2.486774682998657 0.000000000000000
13.794226646423340 -19.960073471069336 2.970505237579346 0.000000000000000
13.796789169311523 -23.454114913940430 -1.416551828384399 1.000000000000000
13.800603866577148 6.542390346527100 0.584053695201874 0.000000000000000
13.802000045776367 11.034570693969727 -0.206646472215652 0.000000000000000
13.807310104370117 -8.338307380676270 1.051545977592468 0.000000000000000
13.809836387634277 7.038900375366211 3.224056482315063 0.000000000000000
13.812328338623047 -16.711671829223633 2.885144233703613 0.000000000000000
13.814637184143066 15.435647010803223 2.352829933166504 0.000000000000000
13.821173667907715 10.537303924560547 -0.069767609238625 0.000000000000000
13.826296806335449 14.478007316589355 2.008795976638794 0.000000000000000
13.826843261718750 -20.202671051025391 2.997240304946899 0.000000000000000
13.828682899475098 15.241289138793945 0.707875072956085 0.000000000000000
13.830163002014160 16.276847839355469 0.201310276985168 0.000000000000000
13.832405090332031 -9.133958816528320 1.502702713012695 0.000000000000000
13.836687088012695 10.842336654663086 1.146005511283875 0.000000000000000
13.842532157897949 -18.586071014404297 0.663514375686646 1.000000000000000
13.842580795288086 11.768045425415039 1.823091983795166 0.000000000000000
13.843519210815430 -1.342977881431580 -1.287804961204529 1.000000000000000
13.844065666198730 7.733384132385254 1.941449522972107 0.000000000000000
13.846389770507812 12.993991851806641 2.022590637207031 0.000000000000000
13.847083091735840 14.267147064208984 1.411207318305969 0.000000000000000
13.847299575805664 15.176436424255371 1.339348435401917 0.000000000000000
13.847413063049316 5.572523117065430 -0.203217074275017 0.000000000000000
13.851715087890625 11.272248268127441 0.785974144935608 0.000000000000000
13.865777015686035 15.525471687316895 0.076294459402561 0.000000000000000
13.866065979003906 -19.305200576782227 2.259376049041748 1.000000000000000
13.868279457092285 -19.950866699218750 -0.564115166664124 1.000000000000000
13.874421119689941 10.419483184814453 0.163536325097084 0.000000000000000
13.874833106994629 13.230386734008789 0.107076093554497 0.000000000000000
13.876011848449707 11.514361381530762 0.169945091009140 0.000000000000000
13.876691818237305 15.504983901977539 0.076265133917332 0.000000000000000
13.882360458374023 -9.310280799865723 0.832136869430542 0.000000000000000
13.883356094360352 12.937829971313477 0.324622422456741 0.000000000000000
13.886098861694336 17.001194000244141 1.685214996337891 0.000000000000000
13.887098312377930 15.212573051452637 1.700695276260376 0.000000000000000
13.887786865234375 10.409066200256348 1.399452805519104 0.000000000000000
13.887793540954590 10.473195075988770 1.368954300880432 0.000000000000000
13.889850616455078 15.185236930847168 2.192057847976685 0.000000000000000
13.890180587768555 -15.064245223999023 1.533510446548462 0.000000000000000
13.891031265258789 9.747940063476562 1.302796006202698 0.000000000000000
13.892682075500488 11.687955856323242 1.534116625785828 0.000000000000000
13.892951965332031 16.208049774169922 1.103830337524414 0.000000000000000
13.894943237304688 11.499392509460449 1.419482111930847 0.000000000000000
13.899013519287109 -18.321893692016602 3.060321092605591 0.000000000000000
13.899673461914062 15.089863777160645 0.035807155072689 0.000000000000000
13.901335716247559 -5.870438575744629 1.071078896522522 0.000000000000000
13.903636932373047 14.739736557006836 1.164783120155334 0.000000000000000
13.903801918029785 11.286429405212402 0.925986409187317 0.000000000000000
13.904839515686035 -9.779373168945312 1.337884545326233 0.000000000000000
13.906726837158203 9.213745117187500 1.184077382087708 0.000000000000000
13.907780647277832 9.122507095336914 1.084333539009094 0.000000000000000
13.911383628845215 16.808797836303711 1.128203868865967 0.000000000000000
13.912033081054688 -8.934110641479492 1.877930283546448 0.000000000000000
13.915755271911621 8.955038070678711 1.500174760818481 0.000000000000000
13.915759086608887 -17.831878662109375 2.769263505935669 0.000000000000000
13.917807579040527 -15.094207763671875 1.951640486717224 0.000000000000000
13.918620109558105 9.914136886596680 1.377912998199463 0.000000000000000
13.919680595397949 10.306037902832031 -0.102778352797031 0.000000000000000
13.922171592712402 12.883500099182129 2.020472288131714 0.000000000000000
13.924197196960449 -18.419105529785156 0.306294918060303 1.000000000000000
13.924343109130859 14.964472770690918 0.545969128608704 0.000000000000000
13.924987792968750 8.597223281860352 -0.474270910024643 0.000000000000000
13.930253982543945 11.395285606384277 2.394964933395386 0.000000000000000
13.932369232177734 -6.977114200592041 1.563506126403809 0.000000000000000
13.935055732727051 10.573072433471680 1.755200266838074 0.000000000000000
13.935195922851562 7.408858776092529 1.303087353706360 0.000000000000000
13.936598777770996 11.874407768249512 -0.495435059070587 0.000000000000000
13.940200805664062 12.585331916809082 1.636504530906677 0.000000000000000
13.946521759033203 8.766290664672852 0.946931421756744 0.000000000000000
13.947568893432617 9.973712921142578 1.629899978637695 0.000000000000000
13.948073387145996 10.530488014221191 0.332521051168442 0.000000000000000
13.948134422302246 12.035890579223633 1.165543913841248 0.000000000000000
13.949270248413086 -14.111872673034668 1.886156916618347 0.000000000000000
13.950110435485840 7.439590930938721 0.756638526916504 0.000000000000000
13.953451156616211 13.555404663085938 0.931026816368103 0.000000000000000
13.955001831054688 -1.639088749885559 -0.839701294898987 0.000000000000000
13.956687927246094 7.422151565551758 -0.124154470860958 0.000000000000000
13.956917762756348 5.524251937866211 0.805053412914276 0.000000000000000
13.958106994628906 12.116074562072754 1.854641675949097 0.000000000000000
13.962124824523926 14.454164505004883 0.382361143827438 0.000000000000000
13.963136672973633 14.082582473754883 1.063621640205383 0.000000000000000
13.968382835388184 -19.748710632324219 -0.840485632419586 0.000000000000000
13.968651771545410 -9.503067970275879 1.531593799591064 0.000000000000000
13.970350265502930 -7.033076286315918 1.049829244613647 0.000000000000000
13.970494270324707 6.858593463897705 -0.152117699384689 0.000000000000000
13.973207473754883 14.942038536071777 0.310660153627396 0.000000000000000
13.974967956542969 12.827712059020996 -0.294688403606415 0.000000000000000
13.977873802185059 7.939895153045654 1.528078556060791 0.000000000000000
13.984276771545410 -19.355478286743164 1.971582055091858 1.000000000000000
13.986506462097168 16.379573822021484 0.865081012248993 0.000000000000000
13.990297317504883 -16.739328384399414 -1.387831449508667 1.000000000000000
13.991080284118652 6.589079856872559 3.216725349426270 0.000000000000000
13.992186546325684 7.402542591094971 0.270780920982361 0.000000000000000
13.992401123046875 5.663533687591553 2.237131118774414 0.000000000000000
13.995187759399414 6.758305072784424 -0.569882929325104 0.000000000000000
13.996653556823730 -12.707426071166992 1.597434639930725 0.000000000000000
13.997220993041992 8.703017234802246 0.566932559013367 0.000000000000000
13.998008728027344 10.374626159667969 -0.136846378445625 0.000000000000000
13.998641967773438 10.722915649414062 0.606534004211426 0.000000000000000
13.998941421508789 -19.050977706909180 2.372216224670410 1.000000000000000
14.000701904296875 8.945559501647949 2.462310314178467 0.000000000000000
14.008123397827148 10.563939094543457 1.109981656074524 0.000000000000000
14.019206047058105 9.860907554626465 0.062821246683598 0.000000000000000
14.019872665405273 -9.278848648071289 1.096043467521667 0.000000000000000
14.021851539611816 16.837926864624023 1.513010144233704 0.000000000000000
14.022472381591797 -0.968496620655060 -1.301450133323669 1.000000000000000
14.024407386779785 9.699749946594238 1.045929551124573 0.000000000000000
14.024760246276855 9.720631599426270 -0.363401740789413 0.000000000000000
14.025900840759277 13.084853172302246 1.546696066856384 0.000000000000000
14.026566505432129 16.963649749755859 1.519898772239685 0.000000000000000
14.028244018554688 20.196046829223633 1.366188526153564 0.000000000000000
14.029931068420410 6.343904972076416 -0.446229428052902 0.000000000000000
14.034461021423340 11.645025253295898 1.259234428405762 0.000000000000000
14.042156219482422 -8.066772460937500 1.368411898612976 0.000000000000000
14.048260688781738 8.024039268493652 1.367064595222473 0.000000000000000
14.048314094543457 13.058164596557617 -0.040170464664698 0.000000000000000
14.049247741699219 -12.376494407653809 1.697357058525085 0.000000000000000
14.052206993103027 6.591810226440430 -0.449821531772614 0.000000000000000
14.053983688354492 -12.401591300964355 1.294228434562683 0.000000000000000
14.055540084838867 -18.603645324707031 2.113751173019409 1.000000000000000
14.057229042053223 11.030998229980469 -0.346215367317200 0.000000000000000
14.058487892150879 9.663570404052734 -0.133987560868263 0.000000000000000
14.061642646789551 8.522404670715332 0.755284249782562 0.000000000000000
14.065613746643066 -13.245034217834473 1.520537376403809 0.000000000000000
14.067708969116211 11.319220542907715 1.421051263809204 0.000000000000000
14.071123123168945 8.641724586486816 -0.605500578880310 0.000000000000000
14.071965217590332 14.391908645629883 1.700831890106201 0.000000000000000
14.079254150390625 -16.720243453979492 -1.348408341407776 1.000000000000000
14.083014488220215 6.654303073883057 0.027185235172510 0.000000000000000
14.083920478820801 -6.614783763885498 1.767331004142761 0.000000000000000
14.087913513183594 10.879744529724121 1.194753289222717 0.000000000000000
14.088262557983398 8.864305496215820 1.582206606864929 0.000000000000000
14.093246459960938 14.965335845947266 2.062710046768188 0.000000000000000
14.098319053649902 -0.329537212848663 -1.278434872627258 1.000000000000000
14.099463462829590 -18.377431869506836 3.432808637619019 0.000000000000000
14.100227355957031 5.807672977447510 2.260000705718994 0.000000000000000
14.100922584533691 14.582056999206543 0.970799505710602 0.000000000000000
14.103839874267578 9.836785316467285 -0.399225711822510 0.000000000000000
14.107151031494141 13.609320640563965 0.636555016040802 0.000000000000000
14.110187530517578 -5.359675407409668 0.954912543296814 0.000000000000000
14.110660552978516 6.667365550994873 -0.212474018335342 0.000000000000000
14.112564086914062 -12.393389701843262 1.478169441223145 0.000000000000000
14.115756988525391 6.808033466339111 0.087528511881828 0.000000000000000
14.116207122802734 7.123193740844727 0.878470122814178 0.000000000000000
14.127021789550781 10.681091308593750 1.154592752456665 0.000000000000000
14.127388000488281 8.319013595581055 1.321973323822021 0.000000000000000
14.132845878601074 9.203244209289551 1.359909296035767 0.000000000000000
14.135013580322266 -14.346782684326172 1.701842308044434 0.000000000000000
14.144517898559570 9.461067199707031 0.487218230962753 0.000000000000000
14.145861625671387 9.130720138549805 0.805780827999115 0.000000000000000
14.147730827331543 6.806105136871338 0.509841203689575 0.000000000000000
14.148428916931152 -20.762609481811523 2.277708530426025 1.000000000000000
14.149960517883301 -13.339377403259277 1.951287627220154 0.000000000000000
14.155233383178711 12.856812477111816 0.988779127597809 0.000000000000000
14.156210899353027 8.852310180664062 1.675327777862549 0.000000000000000
14.157975196838379 14.759684562683105 0.389133304357529 0.000000000000000
14.160116195678711 9.565874099731445 0.817827463150024 0.000000000000000
14.161562919616699 -19.526096343994141 2.739701509475708 1.000000000000000
14.164881706237793 10.486055374145508 0.064595192670822 0.000000000000000
14.164923667907715 17.360496520996094 1.158567428588867 0.000000000000000
14.165102958679199 13.704909324645996 1.665467977523804 0.000000000000000
14.165147781372070 15.640625000000000 1.131744861602783 0.000000000000000
14.175437927246094 11.053576469421387 2.664033174514771 0.000000000000000
14.180388450622559 -10.459267616271973 2.157274246215820 0.000000000000000
14.185988426208496 14.616333007812500 1.131648778915405 0.000000000000000
14.186049461364746 8.322244644165039 0.977131843566895 0.000000000000000
14.189267158508301 10.790555953979492 1.437388896942139 0.000000000000000
14.193937301635742 -8.668096542358398 1.373195528984070 0.000000000000000
14.201125144958496 6.141264438629150 0.859609246253967 0.000000000000000
14.208350181579590 14.893152236938477 0.589332640171051 0.000000000000000
14.210239410400391 9.721949577331543 1.022916436195374 0.000000000000000
14.210471153259277 10.348035812377930 1.417456507682800 0.000000000000000
14.214515686035156 12.084239006042480 1.144375681877136 0.000000000000000
14.217000961303711 -19.633522033691406 -0.749081611633301 0.000000000000000
14.217928886413574 -2.535415410995483 -1.337222456932068 1.000000000000000
14.218517303466797 5.751005649566650 2.621694803237915 0.000000000000000
14.219931602478027 11.397205352783203 3.115031719207764 0.000000000000000
14.220181465148926 -15.328470230102539 3.573997020721436 0.000000000000000
14.221147537231445 10.361877441406250 0.098274096846581 0.000000000000000
14.227169036865234 -5.108635902404785 1.248120188713074 0.000000000000000
14.227714538574219 14.929613113403320 1.583257079124451 0.000000000000000
14.228648185729980 13.412152290344238 1.161693334579468 0.000000000000000
14.232884407043457 20.362953186035156 2.361575841903687 1.000000000000000
14.233272552490234 20.434823989868164 2.008036375045776 1.000000000000000
14.239065170288086 8.865799903869629 0.867324829101562 0.000000000000000
14.240614891052246 -7.836613655090332 2.408947467803955 0.000000000000000
14.243462562561035 9.798785209655762 1.227124452590942 0.000000000000000
14.246562957763672 20.473705291748047 1.289729952812195 1.000000000000000
14.248093605041504 13.097659111022949 -1.156587719917297 0.000000000000000
14.249806404113770 11.718265533447266 -0.499222010374069 0.000000000000000
14.253698348999023 -9.505315780639648 1.381449460983276 0.000000000000000
14.253899574279785 13.228862762451172 -0.451496422290802 0.000000000000000
14.254213333129883 9.158778190612793 0.843473374843597 0.000000000000000
14.255026817321777 11.647259712219238 -0.533482313156128 0.000000000000000
14.255928039550781 -4.774947166442871 1.362941622734070 0.000000000000000
14.257185935974121 9.982622146606445 1.746414422988892 0.000000000000000
14.257823944091797 20.655555725097656 2.120819568634033 0.000000000000000
14.259600639343262 -8.554148674011230 1.308697819709778 0.000000000000000
14.261769294738770 10.178833961486816 1.526779294013977 0.000000000000000
14.262670516967773 17.327253341674805 1.074055671691895 0.000000000000000
14.263283729553223 12.520025253295898 1.054430484771729 0.000000000000000
14.265205383300781 7.625876903533936 1.085725307464600 0.000000000000000
14.265319824218750 -0.448800176382065 -1.349136829376221 1.000000000000000
14.267061233520508 7.563914775848389 -0.716337561607361 0.000000000000000
14.267582893371582 5.475100517272949 0.819620668888092 0.000000000000000
14.270160675048828 14.696900367736816 0.783374905586243 0.000000000000000
14.270343780517578 -14.383364677429199 2.696248292922974 0.000000000000000
14.271964073181152 -5.271432399749756 3.164592981338501 0.000000000000000
14.272133827209473 8.204186439514160 1.869804620742798 0.000000000000000
14.274803161621094 -6.189685821533203 3.236274957656860 0.000000000000000
14.279163360595703 8.208227157592773 0.566520094871521 0.000000000000000
14.282044410705566 -4.698183536529541 1.601464748382568 0.000000000000000
14.285515785217285 -18.448669433593750 -1.349458932876587 0.000000000000000
14.287873268127441 9.902997016906738 1.233921408653259 0.000000000000000
14.294068336486816 15.865139961242676 2.425509452819824 0.000000000000000
14.294845581054688 15.062572479248047 1.554108500480652 0.000000000000000
14.296942710876465 7.216273784637451 -0.187282130122185 0.000000000000000
14.298119544982910 12.069603919982910 0.571681022644043 0.000000000000000
14.302599906921387 16.050632476806641 1.873316884040833 0.000000000000000
14.306165695190430 -5.150254726409912 1.196658253669739 0.000000000000000
14.307131767272949 -18.275447845458984 1.647399783134460 1.000000000000000
14.316800117492676 10.304353713989258 -0.138542830944061 0.000000000000000
14.317212104797363 8.983954429626465 1.395577311515808 0.000000000000000
14.317653656005859 9.657020568847656 0.262254267930984 0.000000000000000
14.319181442260742 8.943449020385742 3.511598825454712 0.000000000000000
14.320100784301758 12.650654792785645 0.106718659400940 0.000000000000000
14.322154045104980 -17.590763092041016 0.431592524051666 0.000000000000000
14.322204589843750 11.852992057800293 1.176151156425476 0.000000000000000
14.325579643249512 -4.991217613220215 1.615869402885437 0.000000000000000
14.327681541442871 -17.472627639770508 0.429918497800827 1.000000000000000
14.330461502075195 6.528054237365723 1.239339947700500 0.000000000000000
14.332643508911133 7.643596172332764 0.527498066425323 0.000000000000000
14.333208084106445 -0.931660056114197 -1.079993605613708 1.000000000000000
14.336462020874023 5.963003158569336 2.066244363784790 0.000000000000000
14.337251663208008 20.640914916992188 1.009394884109497 1.000000000000000
14.342889785766602 -13.616127967834473 1.984434843063354 0.000000000000000
14.355602264404297 8.477034568786621 1.511370062828064 0.000000000000000
14.361718177795410 13.492218017578125 2.238167762756348 0.000000000000000
14.364192962646484 -5.093399524688721 0.846739590167999 0.000000000000000
14.364243507385254 -13.611159324645996 2.247647762298584 0.000000000000000
14.364552497863770 12.519523620605469 1.315720915794373 0.000000000000000
14.366447448730469 12.598155975341797 0.400251567363739 0.000000000000000
14.369260787963867 6.935235023498535 2.123229742050171 0.000000000000000
14.371226310729980 7.779894828796387 1.639784574508667 0.000000000000000
14.374164581298828 6.411221027374268 3.273744821548462 0.000000000000000
14.374989509582520 -5.924649238586426 1.656117916107178 0.000000000000000
14.375623703002930 15.873023986816406 2.849792003631592 0.000000000000000
14.376116752624512 -18.890497207641602 2.152031898498535 1.000000000000000
14.377863883972168 -6.118446350097656 3.250122547149658 0.000000000000000
14.378547668457031 -17.342433929443359 -0.090432956814766 1.000000000000000
14.383416175842285 8.080842018127441 0.853072464466095 0.000000000000000
14.386503219604492 -9.182520866394043 1.343219876289368 0.000000000000000
