# This PCD file was generated using the MATLAB® pcwrite function
# from Computer Vision Toolbox®.
# .PCD v.7 - Point Cloud Data file format
VERSION .7
FIELDS x y z intensity
SIZE 8 8 8 8
TYPE F F F F
COUNT 1 1 1 1
WIDTH 643
HEIGHT 1
VIEWPOINT 0 0 0 1 0 0 0
POINTS 643
DATA ascii
15.844262123107910 -8.759494781494141 2.409211158752441 0.000000000000000
15.846158981323242 22.214683532714844 1.253423094749451 1.000000000000000
15.846487998962402 -19.526237487792969 -1.115543723106384 1.000000000000000
15.846705436706543 -13.602430343627930 2.556841373443604 0.000000000000000
15.846924781799316 7.046888351440430 2.307904005050659 0.000000000000000
15.847320556640625 13.627007484436035 0.558251261711121 0.000000000000000
15.848166465759277 13.914140701293945 1.911874055862427 0.000000000000000
15.848849296569824 -7.055698871612549 1.970472574234009 0.000000000000000
15.848966598510742 -13.171154975891113 2.340641498565674 0.000000000000000
15.852979660034180 -18.442502975463867 0.462714046239853 1.000000000000000
15.853226661682129 -1.632958531379700 1.223495483398438 0.000000000000000
15.854275703430176 -5.533145904541016 1.321565032005310 0.000000000000000
15.854400634765625 14.715294837951660 0.203873783349991 0.000000000000000
15.854995727539062 21.936656951904297 1.764546513557434 0.000000000000000
15.855773925781250 13.964494705200195 2.250524044036865 0.000000000000000
15.856409072875977 11.414149284362793 1.462163567543030 0.000000000000000
15.856990814208984 -10.447422981262207 1.494488954544067 0.000000000000000
15.857100486755371 11.137945175170898 1.338039994239807 0.000000000000000
15.858476638793945 1.193518280982971 1.343825578689575 0.000000000000000
15.860717773437500 10.022085189819336 1.259312868118286 0.000000000000000
15.862340927124023 18.827806472778320 3.648605108261108 0.000000000000000
15.862613677978516 22.872695922851562 1.653699040412903 1.000000000000000
15.862935066223145 13.271934509277344 1.966024160385132 0.000000000000000
15.863161087036133 14.088439941406250 1.301350712776184 0.000000000000000
15.864640235900879 21.578144073486328 2.333746433258057 1.000000000000000
15.865446090698242 12.091485977172852 -0.080076202750206 0.000000000000000
15.869051933288574 11.630981445312500 1.206822872161865 0.000000000000000
15.869458198547363 12.769407272338867 2.313555955886841 0.000000000000000
15.869510650634766 11.291225433349609 0.370566934347153 0.000000000000000
15.871360778808594 7.182215690612793 1.169304609298706 0.000000000000000
15.871891021728516 13.084712028503418 1.182459115982056 0.000000000000000
15.872172355651855 -11.328199386596680 2.594941139221191 0.000000000000000
15.872534751892090 0.205565780401230 1.157347679138184 0.000000000000000
15.873981475830078 -16.056776046752930 2.564548492431641 0.000000000000000
15.877248764038086 -4.247761726379395 0.818214952945709 0.000000000000000
15.878906250000000 -14.451731681823730 2.857179164886475 0.000000000000000
15.879557609558105 13.505491256713867 -0.283806920051575 0.000000000000000
15.880626678466797 10.901404380798340 0.996008574962616 0.000000000000000
15.881457328796387 10.864500045776367 0.476987361907959 0.000000000000000
15.881786346435547 11.454733848571777 0.635905861854553 0.000000000000000
15.881851196289062 -10.947564125061035 1.220348477363586 0.000000000000000
15.882887840270996 -19.143266677856445 -0.290886014699936 1.000000000000000
15.883961677551270 -19.209962844848633 -0.530837357044220 1.000000000000000
15.884402275085449 19.663291931152344 0.723729789257050 0.000000000000000
15.887033462524414 2.820189237594604 1.145278453826904 0.000000000000000
15.888134956359863 20.919715881347656 0.600717246532440 1.000000000000000
15.890463829040527 -7.437550544738770 1.667751789093018 0.000000000000000
15.896464347839355 3.081605911254883 1.724752068519592 0.000000000000000
15.896750450134277 -1.979763269424438 0.520227551460266 0.000000000000000
15.899037361145020 2.888771295547485 1.978392481803894 0.000000000000000
15.899553298950195 13.940598487854004 2.813912391662598 0.000000000000000
15.899795532226562 16.704605102539062 1.948715448379517 0.000000000000000
15.903059959411621 -16.451427459716797 0.347465634346008 1.000000000000000
15.903571128845215 -6.160925865173340 1.441160321235657 0.000000000000000
15.904742240905762 -18.949157714843750 -1.192640304565430 1.000000000000000
15.905549049377441 -19.225137710571289 -0.100163489580154 1.000000000000000
15.909190177917480 1.863840460777283 1.044259667396545 0.000000000000000
15.911895751953125 -6.184280872344971 1.818382740020752 0.000000000000000
15.918129920959473 -5.094820976257324 2.856906175613403 0.000000000000000
15.919121742248535 22.201187133789062 -0.267017185688019 1.000000000000000
15.919144630432129 -4.471971511840820 1.269422531127930 0.000000000000000
15.920409202575684 -3.890987396240234 2.428884983062744 0.000000000000000
15.920549392700195 2.299579381942749 0.986665844917297 0.000000000000000
15.922703742980957 11.936867713928223 1.643094778060913 0.000000000000000
15.926005363464355 -5.057534217834473 1.347371220588684 0.000000000000000
15.926359176635742 -6.828678131103516 1.968215346336365 0.000000000000000
15.926997184753418 21.955465316772461 1.977584123611450 1.000000000000000
15.927602767944336 12.312032699584961 0.151087567210197 0.000000000000000
15.928760528564453 11.066250801086426 0.890923380851746 0.000000000000000
15.930598258972168 17.021429061889648 3.455091953277588 0.000000000000000
15.930874824523926 -12.278172492980957 1.911895990371704 0.000000000000000
15.933061599731445 -5.944769382476807 1.305551767349243 0.000000000000000
15.933365821838379 -14.348481178283691 3.177722930908203 0.000000000000000
15.934659004211426 -2.474220037460327 1.113471865653992 0.000000000000000
15.935792922973633 0.327129215002060 0.640182375907898 0.000000000000000
15.935840606689453 10.997918128967285 2.062415361404419 0.000000000000000
15.935970306396484 -5.527048110961914 1.229772925376892 0.000000000000000
15.936582565307617 5.856575489044189 -0.426809579133987 0.000000000000000
15.939147949218750 -14.272282600402832 1.766524314880371 0.000000000000000
15.941074371337891 2.936669588088989 0.588702976703644 0.000000000000000
15.941518783569336 -8.048450469970703 1.439960718154907 0.000000000000000
15.941575050354004 1.011615753173828 1.701450467109680 0.000000000000000
15.941850662231445 -9.215536117553711 1.413633227348328 0.000000000000000
15.943261146545410 -3.374887704849243 1.345547199249268 0.000000000000000
15.943915367126465 14.240995407104492 1.682476878166199 0.000000000000000
15.944551467895508 12.999890327453613 0.984567046165466 0.000000000000000
15.944923400878906 -7.810647487640381 1.609600067138672 0.000000000000000
15.945589065551758 1.251584887504578 0.827046513557434 0.000000000000000
15.946214675903320 15.525439262390137 2.961652040481567 0.000000000000000
15.948645591735840 13.430959701538086 0.236553385853767 0.000000000000000
15.951128959655762 -8.726475715637207 1.501233100891113 0.000000000000000
15.954853057861328 13.148430824279785 -0.241773560643196 0.000000000000000
15.954935073852539 9.029814720153809 -0.742737591266632 0.000000000000000
15.955159187316895 7.826031684875488 -0.173698008060455 0.000000000000000
15.955693244934082 6.571252822875977 2.296296119689941 0.000000000000000
15.959795951843262 6.354730129241943 -0.233873873949051 0.000000000000000
15.963356971740723 11.198035240173340 1.196047663688660 0.000000000000000
15.964756965637207 11.262313842773438 2.081056833267212 0.000000000000000
15.968529701232910 -19.692070007324219 -0.393849819898605 1.000000000000000
15.968775749206543 11.037125587463379 -0.562566578388214 0.000000000000000
15.972316741943359 -0.879568934440613 0.704017579555511 0.000000000000000
15.973566055297852 -18.312131881713867 0.882546305656433 1.000000000000000
15.975910186767578 13.054725646972656 0.154839992523193 0.000000000000000
15.977982521057129 -3.982573986053467 2.191295385360718 0.000000000000000
15.978208541870117 21.391185760498047 1.534832477569580 1.000000000000000
15.979854583740234 -8.137928009033203 2.036832094192505 0.000000000000000
15.980427742004395 -14.202057838439941 1.558740019798279 0.000000000000000
15.981713294982910 -5.722910881042480 1.613623619079590 0.000000000000000
15.985116958618164 22.306398391723633 1.894913673400879 1.000000000000000
15.988866806030273 -3.379293441772461 1.423998594284058 0.000000000000000
15.991907119750977 -19.063816070556641 0.664625525474548 1.000000000000000
15.992629051208496 15.453620910644531 0.465843200683594 0.000000000000000
15.995164871215820 9.941404342651367 0.647785484790802 0.000000000000000
15.995409011840820 13.741727828979492 -0.125137969851494 0.000000000000000
15.998468399047852 14.664016723632812 2.062924861907959 0.000000000000000
15.999488830566406 20.763763427734375 3.488238573074341 0.000000000000000
15.999571800231934 -16.578460693359375 0.615390002727509 1.000000000000000
16.000883102416992 20.857294082641602 0.651644825935364 1.000000000000000
16.001779556274414 -13.609432220458984 2.107837915420532 0.000000000000000
16.003549575805664 -15.905530929565430 1.601520657539368 0.000000000000000
16.003986358642578 21.820295333862305 2.181963443756104 0.000000000000000
16.004344940185547 -4.753466606140137 2.044014930725098 0.000000000000000
16.005126953125000 14.143218994140625 3.165408372879028 0.000000000000000
16.005752563476562 13.860710144042969 1.919457912445068 0.000000000000000
16.007068634033203 11.534480094909668 0.489080548286438 0.000000000000000
16.007822036743164 21.926483154296875 1.612896203994751 0.000000000000000
16.008613586425781 13.106630325317383 1.708265542984009 0.000000000000000
16.010078430175781 -14.294058799743652 2.286112308502197 0.000000000000000
16.010791778564453 -7.943647861480713 2.030060768127441 0.000000000000000
16.011217117309570 -12.024182319641113 2.664589881896973 0.000000000000000
16.011367797851562 14.256595611572266 0.243223890662193 0.000000000000000
16.011877059936523 10.920104026794434 2.579111814498901 0.000000000000000
16.014753341674805 14.798175811767578 1.001600503921509 0.000000000000000
16.019346237182617 13.931300163269043 1.056877493858337 0.000000000000000
16.023973464965820 -19.571891784667969 -0.247235238552094 1.000000000000000
16.024381637573242 -18.573598861694336 -1.277017712593079 1.000000000000000
16.026206970214844 13.683808326721191 0.886919379234314 0.000000000000000
16.027126312255859 -11.222732543945312 1.963268518447876 0.000000000000000
16.029268264770508 3.358036994934082 1.067679524421692 0.000000000000000
16.030254364013672 -11.141729354858398 1.958875536918640 1.000000000000000
16.032609939575195 14.175477981567383 1.230207443237305 0.000000000000000
16.033775329589844 -0.366097271442413 1.045560836791992 0.000000000000000
16.034761428833008 -13.571543693542480 1.491070985794067 0.000000000000000
16.035034179687500 0.368371337652206 0.891117990016937 0.000000000000000
16.040084838867188 22.149562835693359 2.099476575851440 1.000000000000000
16.041437149047852 -9.359592437744141 1.765409469604492 0.000000000000000
16.042940139770508 -16.579332351684570 0.660537958145142 0.000000000000000
16.044855117797852 -13.742877960205078 2.119818687438965 0.000000000000000
16.047332763671875 11.502323150634766 0.072365380823612 0.000000000000000
16.047899246215820 -18.596920013427734 -0.098605960607529 1.000000000000000
16.048151016235352 12.869889259338379 1.955425739288330 0.000000000000000
16.049209594726562 12.143202781677246 1.824478149414062 0.000000000000000
16.050746917724609 15.376540184020996 1.406229376792908 0.000000000000000
16.050823211669922 14.727990150451660 -0.003802025225013 0.000000000000000
16.051721572875977 12.587056159973145 1.172588109970093 0.000000000000000
16.052871704101562 -0.899746000766754 1.457560181617737 0.000000000000000
16.053686141967773 21.242971420288086 1.684545636177063 1.000000000000000
16.057880401611328 22.403783798217773 1.690727472305298 1.000000000000000
16.059328079223633 -14.948862075805664 1.726727962493896 0.000000000000000
16.065818786621094 12.957011222839355 -0.122479505836964 0.000000000000000
16.066219329833984 -11.901834487915039 1.226414203643799 0.000000000000000
16.066701889038086 2.172871112823486 1.182071208953857 0.000000000000000
16.069808959960938 -19.488689422607422 0.141077727079391 1.000000000000000
16.069929122924805 10.615903854370117 1.181354165077209 0.000000000000000
16.073026657104492 21.983533859252930 3.334101676940918 1.000000000000000
16.073204040527344 -15.971413612365723 2.054163217544556 0.000000000000000
16.073247909545898 13.075425148010254 0.911898851394653 0.000000000000000
16.075458526611328 -4.496818065643311 1.088236808776855 0.000000000000000
16.077993392944336 10.720258712768555 1.036415219306946 0.000000000000000
16.079280853271484 -6.294279575347900 1.125708341598511 0.000000000000000
16.079874038696289 3.364537954330444 1.356409072875977 0.000000000000000
16.087116241455078 11.242568969726562 0.260348021984100 0.000000000000000
16.088222503662109 2.152921676635742 1.843621850013733 0.000000000000000
16.088485717773438 2.210137605667114 1.844524621963501 0.000000000000000
16.089492797851562 14.637236595153809 -0.170838057994843 0.000000000000000
16.089506149291992 -9.277303695678711 1.210800051689148 0.000000000000000
16.089904785156250 11.127891540527344 0.710508525371552 0.000000000000000
16.090795516967773 10.899207115173340 -0.227273702621460 0.000000000000000
16.090969085693359 8.968632698059082 2.451422691345215 0.000000000000000
16.091081619262695 19.072271347045898 2.174366950988770 0.000000000000000
16.091144561767578 14.308509826660156 1.486833572387695 0.000000000000000
16.091947555541992 -13.188938140869141 2.363212585449219 0.000000000000000
16.093048095703125 -16.447458267211914 0.216879785060883 1.000000000000000
16.093191146850586 -18.926828384399414 -1.341144800186157 1.000000000000000
16.094499588012695 -18.772470474243164 -1.192062377929688 1.000000000000000
16.096544265747070 11.571660995483398 -0.384106874465942 0.000000000000000
16.098417282104492 10.257401466369629 1.023776054382324 0.000000000000000
16.098638534545898 18.680749893188477 0.611301124095917 0.000000000000000
16.102237701416016 -17.957580566406250 0.458909451961517 1.000000000000000
16.102272033691406 3.179866552352905 1.291750669479370 0.000000000000000
16.102470397949219 18.588548660278320 0.373460263013840 0.000000000000000
16.103929519653320 -6.258916378021240 1.093060493469238 0.000000000000000
16.104389190673828 11.480368614196777 1.671193599700928 0.000000000000000
16.104669570922852 13.959152221679688 1.595006227493286 0.000000000000000
16.105669021606445 -20.694601058959961 0.498933732509613 1.000000000000000
16.106241226196289 14.104413032531738 1.643574357032776 0.000000000000000
16.106403350830078 -7.156217098236084 2.345366716384888 0.000000000000000
16.107173919677734 -10.321577072143555 1.431714177131653 0.000000000000000
16.110725402832031 -2.096421003341675 2.407774686813354 0.000000000000000
16.111091613769531 -18.384767532348633 0.371213078498840 1.000000000000000
16.111629486083984 -3.777761697769165 1.142679572105408 0.000000000000000
16.114252090454102 14.906822204589844 2.338223218917847 0.000000000000000
16.117115020751953 -6.655834197998047 1.857360243797302 0.000000000000000
16.118391036987305 -16.418233871459961 0.084328539669514 1.000000000000000
16.120895385742188 22.045776367187500 -0.214505761861801 1.000000000000000
16.122190475463867 -18.527509689331055 -0.004286528564990 0.000000000000000
16.122316360473633 8.782138824462891 3.818690299987793 0.000000000000000
16.123920440673828 2.003196954727173 0.808867335319519 0.000000000000000
16.126060485839844 9.385225296020508 1.872213721275330 0.000000000000000
16.127332687377930 -19.467601776123047 -0.004412192385644 1.000000000000000
16.130567550659180 20.846450805664062 1.160054922103882 1.000000000000000
16.131517410278320 -2.917344093322754 1.005522489547729 0.000000000000000
16.131881713867188 -17.671617507934570 0.639099955558777 1.000000000000000
16.133932113647461 -3.325909137725830 -0.699071228504181 1.000000000000000
16.134014129638672 -12.097034454345703 2.468858957290649 0.000000000000000
16.134239196777344 -13.433479309082031 2.106639862060547 0.000000000000000
16.135986328125000 9.072144508361816 1.028469085693359 0.000000000000000
16.136720657348633 -9.391418457031250 0.893548607826233 0.000000000000000
16.137210845947266 11.588940620422363 -0.156041309237480 0.000000000000000
16.138315200805664 -3.951409101486206 2.840057134628296 0.000000000000000
16.140783309936523 -17.784578323364258 2.092767477035522 0.000000000000000
16.142482757568359 12.597387313842773 0.901170551776886 0.000000000000000
16.144855499267578 19.022550582885742 1.867258667945862 0.000000000000000
16.144948959350586 12.064342498779297 0.615778625011444 0.000000000000000
16.146129608154297 11.576978683471680 -0.575776219367981 0.000000000000000
16.147207260131836 0.721379995346069 1.978878498077393 0.000000000000000
16.149780273437500 14.044733047485352 1.395295500755310 0.000000000000000
16.151144027709961 -2.915363073348999 1.355092406272888 0.000000000000000
16.152175903320312 11.846741676330566 1.344499230384827 0.000000000000000
16.154153823852539 21.568586349487305 1.808738708496094 1.000000000000000
16.156564712524414 8.947628974914551 1.755567908287048 0.000000000000000
16.158515930175781 -18.077396392822266 0.275078952312469 1.000000000000000
16.162599563598633 12.077531814575195 1.548964738845825 0.000000000000000
16.167936325073242 -18.924863815307617 -0.243286669254303 1.000000000000000
16.168416976928711 -5.328102588653564 1.813298702239990 0.000000000000000
16.168983459472656 6.683861255645752 -0.003053628141060 0.000000000000000
16.170768737792969 12.663111686706543 2.733183383941650 1.000000000000000
16.171491622924805 8.078320503234863 1.248212695121765 0.000000000000000
16.171724319458008 16.952934265136719 1.121285915374756 0.000000000000000
16.172012329101562 22.117300033569336 1.944764256477356 1.000000000000000
16.173004150390625 23.568861007690430 3.246652603149414 1.000000000000000
16.176992416381836 -17.352558135986328 0.633653044700623 1.000000000000000
16.178369522094727 -3.252729415893555 0.440769642591476 1.000000000000000
16.180223464965820 12.202416419982910 2.301818847656250 0.000000000000000
16.180860519409180 -18.230066299438477 0.651061713695526 1.000000000000000
16.180961608886719 2.884602069854736 1.357067227363586 0.000000000000000
16.181406021118164 2.195294141769409 2.420089006423950 0.000000000000000
16.183761596679688 -18.891256332397461 -0.147616282105446 1.000000000000000
16.184123992919922 -19.145898818969727 0.717776894569397 1.000000000000000
16.184835433959961 -17.492723464965820 -0.141421094536781 0.000000000000000
16.184852600097656 22.868015289306641 1.772434830665588 1.000000000000000
16.185226440429688 21.983625411987305 2.253989219665527 1.000000000000000
16.186372756958008 2.129252910614014 1.379526138305664 0.000000000000000
16.188453674316406 10.875726699829102 1.647954463958740 0.000000000000000
16.191389083862305 -6.449229240417480 1.579986572265625 0.000000000000000
16.192975997924805 -4.519941806793213 1.160865426063538 0.000000000000000
16.193941116333008 -3.292339801788330 0.473137497901917 0.000000000000000
16.194459915161133 18.111232757568359 0.135693758726120 0.000000000000000
16.195882797241211 13.155469894409180 0.517231941223145 0.000000000000000
16.200557708740234 11.118113517761230 -0.871623814105988 0.000000000000000
16.201171875000000 -16.202304840087891 2.177994489669800 0.000000000000000
16.202056884765625 12.209568977355957 1.283487319946289 0.000000000000000
16.203624725341797 -6.524986743927002 1.239868760108948 0.000000000000000
16.206129074096680 -3.083276987075806 2.019710302352905 0.000000000000000
16.207218170166016 13.553266525268555 -0.165937229990959 0.000000000000000
16.207376480102539 -18.399192810058594 -0.145503744482994 0.000000000000000
16.209447860717773 -18.857198715209961 -1.438144922256470 1.000000000000000
16.209566116333008 -9.397869110107422 1.329927682876587 0.000000000000000
16.209753036499023 -13.909151077270508 1.763562083244324 0.000000000000000
16.212171554565430 11.329965591430664 1.880100488662720 0.000000000000000
16.215759277343750 17.865942001342773 0.459061652421951 0.000000000000000
16.217178344726562 -9.944909095764160 1.240204811096191 0.000000000000000
16.218231201171875 -12.320124626159668 1.524256348609924 0.000000000000000
16.219038009643555 -12.966963768005371 1.714519381523132 0.000000000000000
16.219795227050781 -18.675846099853516 -1.335323214530945 1.000000000000000
16.220247268676758 11.067191123962402 0.788670003414154 0.000000000000000
16.221839904785156 -18.535280227661133 -0.477247178554535 1.000000000000000
16.223958969116211 22.178617477416992 0.206233158707619 1.000000000000000
16.224582672119141 -3.804246425628662 1.408154010772705 0.000000000000000
16.224727630615234 11.948360443115234 -0.313017100095749 0.000000000000000
16.229627609252930 -9.294419288635254 0.895078361034393 0.000000000000000
16.230049133300781 12.815881729125977 1.467848181724548 0.000000000000000
16.230094909667969 14.031212806701660 0.490614712238312 0.000000000000000
16.230169296264648 15.761672973632812 0.734706282615662 0.000000000000000
16.232053756713867 11.449604034423828 0.568726599216461 0.000000000000000
16.234388351440430 20.050659179687500 1.383672118186951 0.000000000000000
16.234926223754883 -1.189939379692078 1.218270659446716 0.000000000000000
16.235204696655273 -4.390322685241699 0.999193906784058 0.000000000000000
16.236038208007812 13.267290115356445 -0.164680600166321 0.000000000000000
16.237991333007812 14.841883659362793 -0.215021163225174 0.000000000000000
16.238000869750977 14.349001884460449 1.538082838058472 0.000000000000000
16.240520477294922 16.645763397216797 2.026446104049683 0.000000000000000
16.240701675415039 7.666897773742676 0.859512329101562 0.000000000000000
16.242187500000000 7.645763397216797 3.733975410461426 0.000000000000000
16.244729995727539 11.450481414794922 0.607227861881256 0.000000000000000
16.245325088500977 14.147751808166504 1.404403209686279 0.000000000000000
16.245479583740234 -11.766681671142578 2.669338464736938 0.000000000000000
16.245588302612305 9.519042968750000 3.916438341140747 0.000000000000000
16.245943069458008 16.025154113769531 0.127450272440910 0.000000000000000
16.248493194580078 -15.019427299499512 2.356864690780640 0.000000000000000
16.248741149902344 8.259153366088867 2.425568103790283 0.000000000000000
16.248807907104492 2.675115108489990 1.264217376708984 0.000000000000000
16.250602722167969 14.184295654296875 1.879566907882690 0.000000000000000
16.250614166259766 10.917488098144531 1.351817131042480 0.000000000000000
16.250951766967773 -14.049236297607422 1.524772286415100 0.000000000000000
16.256313323974609 19.935060501098633 1.379601955413818 0.000000000000000
16.256952285766602 -7.718673706054688 2.044054985046387 0.000000000000000
16.257154464721680 7.767507076263428 2.205883264541626 0.000000000000000
16.259275436401367 15.697020530700684 1.125095248222351 0.000000000000000
16.259658813476562 -6.481683254241943 1.242417454719543 0.000000000000000
16.260139465332031 22.530317306518555 1.811386108398438 1.000000000000000
16.266305923461914 20.647058486938477 1.764270305633545 0.000000000000000
16.266332626342773 20.499490737915039 1.756501674652100 0.000000000000000
16.266370773315430 5.412371158599854 1.183735489845276 0.000000000000000
16.266910552978516 3.252816677093506 3.450505971908569 0.000000000000000
16.267406463623047 11.694493293762207 0.227296367287636 0.000000000000000
16.268447875976562 -14.205879211425781 1.741519927978516 0.000000000000000
16.268545150756836 12.810823440551758 1.589686870574951 0.000000000000000
16.269596099853516 -18.843189239501953 -1.200152039527893 1.000000000000000
16.270246505737305 14.775746345520020 2.924717187881470 0.000000000000000
16.270627975463867 -22.792903900146484 -1.242289900779724 1.000000000000000
16.274341583251953 -5.268392086029053 1.550734281539917 0.000000000000000
16.274673461914062 -16.171607971191406 1.672758698463440 0.000000000000000
16.275279998779297 -22.642780303955078 -1.129731893539429 1.000000000000000
16.277475357055664 22.261535644531250 -0.587302207946777 1.000000000000000
16.279962539672852 13.815217018127441 2.029615402221680 0.000000000000000
16.283409118652344 -16.067714691162109 3.910301685333252 0.000000000000000
16.283596038818359 2.496978759765625 1.232898235321045 0.000000000000000
16.287158966064453 10.185658454895020 0.623831689357758 0.000000000000000
16.287343978881836 15.117132186889648 1.234606623649597 0.000000000000000
16.290739059448242 -16.766178131103516 1.659294366836548 0.000000000000000
16.293037414550781 -13.846368789672852 1.682790875434875 0.000000000000000
16.293909072875977 -2.236044168472290 1.167368412017822 0.000000000000000
16.294574737548828 3.364368438720703 2.465828657150269 0.000000000000000
16.296846389770508 -3.125890254974365 -0.449018478393555 1.000000000000000
16.298677444458008 22.311771392822266 -0.535363018512726 1.000000000000000
16.300239562988281 14.852373123168945 -0.003848800202832 0.000000000000000
16.301387786865234 1.856157898902893 1.164536237716675 0.000000000000000
16.305309295654297 12.198378562927246 1.288285970687866 0.000000000000000
16.306575775146484 -5.600164413452148 0.957907438278198 0.000000000000000
16.309244155883789 22.339351654052734 2.629188299179077 1.000000000000000
16.309637069702148 12.258090972900391 1.684567093849182 0.000000000000000
16.311544418334961 1.631558656692505 0.942340254783630 0.000000000000000
16.312686920166016 -19.558954238891602 -1.178800940513611 1.000000000000000
16.312994003295898 22.241603851318359 3.132893323898315 1.000000000000000
16.313510894775391 13.279396057128906 0.844854593276978 0.000000000000000
16.313581466674805 21.413866043090820 -0.004698426462710 1.000000000000000
16.314268112182617 -19.575435638427734 -1.228465676307678 1.000000000000000
16.315641403198242 22.040462493896484 2.751610994338989 1.000000000000000
16.318017959594727 3.669042110443115 2.858927965164185 0.000000000000000
16.321229934692383 14.042436599731445 1.777715325355530 0.000000000000000
16.324365615844727 -14.312051773071289 2.657948493957520 0.000000000000000
16.324563980102539 13.853064537048340 1.272003293037415 0.000000000000000
16.324640274047852 13.244933128356934 1.451563835144043 0.000000000000000
16.325311660766602 -16.641201019287109 1.834687590599060 0.000000000000000
16.325719833374023 15.434147834777832 -0.262728214263916 0.000000000000000
16.326938629150391 15.370672225952148 -0.434473931789398 0.000000000000000
16.327644348144531 11.824460029602051 3.445945024490356 0.000000000000000
16.330150604248047 -18.191305160522461 -0.943385958671570 1.000000000000000
16.331762313842773 -4.598033428192139 2.514499902725220 0.000000000000000
16.336072921752930 7.744369029998779 0.691356956958771 0.000000000000000
16.338109970092773 -12.805190086364746 1.033408999443054 0.000000000000000
16.343107223510742 12.586337089538574 0.036002632230520 0.000000000000000
16.343912124633789 12.586957931518555 0.352877229452133 0.000000000000000
16.345041275024414 -18.863906860351562 -0.627448260784149 1.000000000000000
16.345405578613281 -19.598184585571289 -0.788617491722107 1.000000000000000
16.346292495727539 23.597377777099609 1.760766386985779 1.000000000000000
16.347888946533203 -3.085714817047119 1.309325575828552 0.000000000000000
16.348403930664062 -17.940227508544922 0.088961333036423 1.000000000000000
16.357294082641602 2.713512420654297 1.017032384872437 0.000000000000000
16.360742568969727 -6.602198123931885 0.946227014064789 0.000000000000000
16.360761642456055 -18.899372100830078 0.859817922115326 1.000000000000000
16.361188888549805 -17.760900497436523 -1.071226835250854 1.000000000000000
16.362836837768555 -17.646146774291992 -0.373843580484390 1.000000000000000
16.365795135498047 14.289886474609375 0.872625768184662 0.000000000000000
16.366130828857422 18.158590316772461 0.840842247009277 0.000000000000000
16.366594314575195 18.760715484619141 0.760653316974640 0.000000000000000
16.367406845092773 18.695020675659180 2.051564455032349 0.000000000000000
16.368852615356445 -18.502923965454102 -0.621015012264252 1.000000000000000
16.369554519653320 21.553594589233398 1.451581239700317 1.000000000000000
16.371088027954102 -2.628377914428711 1.663746356964111 0.000000000000000
16.372028350830078 -15.133617401123047 1.754659295082092 0.000000000000000
16.372564315795898 16.199756622314453 3.413457155227661 0.000000000000000
16.373277664184570 -16.819969177246094 0.356454461812973 1.000000000000000
16.374822616577148 -12.937624931335449 1.400754451751709 0.000000000000000
16.374898910522461 -16.365753173828125 3.431049346923828 0.000000000000000
16.377725601196289 22.180967330932617 1.691217184066772 1.000000000000000
16.378751754760742 18.792518615722656 0.617942452430725 1.000000000000000
16.378768920898438 -18.138195037841797 2.775815725326538 0.000000000000000
16.379751205444336 -14.635416030883789 2.204084396362305 0.000000000000000
16.380420684814453 15.225900650024414 -0.046839013695717 0.000000000000000
16.381345748901367 -14.241091728210449 2.063303470611572 0.000000000000000
16.381893157958984 -8.067640304565430 1.945059418678284 0.000000000000000
16.385517120361328 21.574611663818359 1.870665788650513 1.000000000000000
16.389909744262695 -18.184320449829102 0.747949302196503 1.000000000000000
16.393980026245117 -3.077527284622192 0.349403321743011 1.000000000000000
16.395296096801758 0.894257426261902 0.817419350147247 0.000000000000000
16.395824432373047 -9.730484008789062 1.728415012359619 0.000000000000000
16.396038055419922 18.993654251098633 0.140139445662498 0.000000000000000
16.397823333740234 13.179947853088379 -0.286420643329620 0.000000000000000
16.398559570312500 14.722887992858887 0.292341053485870 0.000000000000000
16.399181365966797 1.983360528945923 0.663458824157715 0.000000000000000
16.404478073120117 22.224506378173828 1.428328394889832 1.000000000000000
16.405828475952148 -18.721099853515625 0.760531187057495 1.000000000000000
16.416086196899414 -5.987624168395996 1.375231266021729 0.000000000000000
16.417444229125977 10.622557640075684 1.652332901954651 0.000000000000000
16.419214248657227 -0.362855732440948 2.185491323471069 0.000000000000000
16.420564651489258 2.384383678436279 1.081731319427490 0.000000000000000
16.420942306518555 -0.120946988463402 2.010474443435669 0.000000000000000
16.422536849975586 -19.290960311889648 -1.221339106559753 1.000000000000000
16.424064636230469 -17.002862930297852 -0.049511462450027 1.000000000000000
16.424903869628906 -23.616504669189453 -1.386790990829468 1.000000000000000
16.425415039062500 10.082077026367188 1.405163884162903 0.000000000000000
16.427803039550781 11.070689201354980 0.491063058376312 0.000000000000000
16.428358078002930 9.561159133911133 1.459254145622253 0.000000000000000
16.429864883422852 13.649069786071777 2.030372381210327 0.000000000000000
16.429876327514648 -16.000804901123047 1.893574595451355 0.000000000000000
16.433736801147461 -18.361419677734375 -1.140518546104431 1.000000000000000
16.435062408447266 12.807250976562500 -0.043638780713081 0.000000000000000
16.435226440429688 -14.853491783142090 2.947933435440063 0.000000000000000
16.436685562133789 -13.737354278564453 1.066424012184143 0.000000000000000
16.439544677734375 -1.442324042320251 0.662816703319550 0.000000000000000
16.439722061157227 -8.197975158691406 1.600739598274231 0.000000000000000
16.440011978149414 9.462597846984863 2.524237394332886 0.000000000000000
16.440282821655273 -17.942674636840820 0.135917156934738 1.000000000000000
16.440622329711914 22.957260131835938 1.405722618103027 1.000000000000000
16.442285537719727 -17.009244918823242 2.373813629150391 0.000000000000000
16.443822860717773 11.514510154724121 2.138252019882202 0.000000000000000
16.445671081542969 10.559559822082520 1.048197507858276 0.000000000000000
16.445869445800781 13.790437698364258 2.286112308502197 0.000000000000000
16.445915222167969 22.118623733520508 -0.269401967525482 1.000000000000000
16.454479217529297 14.289047241210938 0.372785568237305 0.000000000000000
16.454723358154297 -18.990491867065430 0.140340492129326 1.000000000000000
16.455743789672852 3.095673084259033 2.228230237960815 0.000000000000000
16.458135604858398 15.470348358154297 0.126154541969299 0.000000000000000
16.458919525146484 -6.561115741729736 2.625916719436646 0.000000000000000
16.459430694580078 -20.686408996582031 0.147645711898804 1.000000000000000
16.460554122924805 -6.797662258148193 1.401593327522278 0.000000000000000
16.462331771850586 -1.046684145927429 0.821198225021362 0.000000000000000
16.464035034179688 21.354303359985352 2.226340770721436 0.000000000000000
16.465673446655273 -19.081052780151367 -0.488327950239182 1.000000000000000
16.465856552124023 3.041070699691772 1.414890050888062 0.000000000000000
16.467788696289062 -6.712333679199219 2.366472244262695 0.000000000000000
16.470037460327148 21.076152801513672 3.559469938278198 0.000000000000000
16.472030639648438 -17.040018081665039 -0.004136430565268 0.000000000000000
16.472040176391602 9.557740211486816 2.534262418746948 0.000000000000000
16.472656250000000 -10.935706138610840 2.106053352355957 0.000000000000000
16.474533081054688 14.546757698059082 1.857106328010559 0.000000000000000
16.475387573242188 11.502801895141602 1.821589112281799 0.000000000000000
16.475795745849609 15.965044021606445 0.304331809282303 0.000000000000000
16.477825164794922 11.624257087707520 0.654860973358154 0.000000000000000
16.478069305419922 -16.883344650268555 1.629014015197754 0.000000000000000
16.481681823730469 21.579004287719727 3.324379920959473 0.000000000000000
16.481864929199219 9.580353736877441 3.965312242507935 0.000000000000000
16.483224868774414 -6.532161235809326 1.155893802642822 0.000000000000000
16.484601974487305 15.533216476440430 0.300458699464798 0.000000000000000
16.485074996948242 8.301222801208496 1.523944020271301 0.000000000000000
16.485353469848633 -13.887859344482422 1.446830153465271 0.000000000000000
16.487722396850586 23.877136230468750 2.451892137527466 0.000000000000000
16.488494873046875 -11.420581817626953 1.307601571083069 0.000000000000000
16.491170883178711 -17.633949279785156 0.459365993738174 1.000000000000000
16.492618560791016 12.324139595031738 2.065904855728149 0.000000000000000
16.494050979614258 12.104572296142578 1.728786110877991 0.000000000000000
16.494363784790039 -6.695654392242432 2.638231277465820 0.000000000000000
16.499977111816406 11.037015914916992 0.911847472190857 0.000000000000000
16.500717163085938 13.372517585754395 1.712585687637329 0.000000000000000
16.501169204711914 -5.303664684295654 1.968666672706604 0.000000000000000
16.503950119018555 18.404296875000000 0.612787961959839 0.000000000000000
16.504493713378906 15.161245346069336 1.417846918106079 0.000000000000000
16.504861831665039 13.757201194763184 -0.251268625259399 0.000000000000000
16.508338928222656 15.532754898071289 1.608883976936340 0.000000000000000
16.508905410766602 21.861993789672852 2.208968639373779 1.000000000000000
16.510284423828125 -1.547305226325989 0.666027247905731 0.000000000000000
16.513242721557617 12.472574234008789 1.109894037246704 0.000000000000000
16.513319015502930 13.687254905700684 0.820212543010712 0.000000000000000
16.513778686523438 -6.535600662231445 1.192074537277222 0.000000000000000
16.516706466674805 22.545766830444336 2.361630439758301 1.000000000000000
16.526201248168945 15.426049232482910 0.473550021648407 0.000000000000000
16.526453018188477 14.271299362182617 2.480132102966309 0.000000000000000
16.527059555053711 21.193304061889648 1.544933080673218 1.000000000000000
16.528570175170898 12.318230628967285 1.796231269836426 0.000000000000000
16.530221939086914 -13.948855400085449 1.702248692512512 0.000000000000000
16.534488677978516 -6.146492958068848 1.456469297409058 0.000000000000000
16.536954879760742 11.570275306701660 0.927081584930420 0.000000000000000
16.537374496459961 20.224893569946289 0.747999072074890 0.000000000000000
16.537723541259766 3.641503572463989 1.136622905731201 0.000000000000000
16.539825439453125 21.662942886352539 2.250368356704712 0.000000000000000
16.542184829711914 12.962347030639648 0.077027492225170 0.000000000000000
16.544162750244141 21.082878112792969 2.547428369522095 0.000000000000000
16.545133590698242 22.299167633056641 2.419512748718262 1.000000000000000
16.545398712158203 1.885697126388550 0.957261621952057 0.000000000000000
16.547288894653320 2.350900650024414 2.476970195770264 0.000000000000000
16.549814224243164 15.147051811218262 0.211451187729836 0.000000000000000
16.549873352050781 3.644178628921509 1.399198055267334 0.000000000000000
16.550662994384766 -4.672135353088379 0.955466628074646 0.000000000000000
16.550956726074219 12.756086349487305 0.397579520940781 0.000000000000000
16.551433563232422 6.819306373596191 -0.621995449066162 0.000000000000000
16.552774429321289 2.179809808731079 1.217265844345093 0.000000000000000
16.554821014404297 1.831184148788452 1.214357137680054 0.000000000000000
16.555519104003906 -0.412705779075623 0.951981842517853 0.000000000000000
16.556133270263672 9.658745765686035 1.471501350402832 0.000000000000000
16.561283111572266 21.722490310668945 2.044282674789429 1.000000000000000
16.561367034912109 13.062492370605469 1.782337069511414 0.000000000000000
16.562501907348633 14.955916404724121 -0.089581936597824 0.000000000000000
16.563966751098633 15.385725021362305 2.767805099487305 0.000000000000000
16.564199447631836 13.001074790954590 2.001604795455933 0.000000000000000
16.564897537231445 0.449970334768295 2.455859661102295 0.000000000000000
16.568944931030273 -18.781881332397461 0.717090070247650 1.000000000000000
16.569007873535156 -3.545735597610474 1.804825425148010 0.000000000000000
16.569252014160156 11.862856864929199 -0.277435958385468 0.000000000000000
16.572746276855469 -10.376726150512695 1.463357686996460 0.000000000000000
16.574945449829102 -0.132496371865273 0.825175940990448 0.000000000000000
16.575675964355469 -14.947871208190918 3.307904481887817 0.000000000000000
16.580450057983398 2.242350578308105 1.516787171363831 0.000000000000000
16.582771301269531 -18.422203063964844 0.281204938888550 1.000000000000000
16.584760665893555 -7.945373535156250 2.088746070861816 0.000000000000000
16.587383270263672 11.632745742797852 0.074256613850594 0.000000000000000
16.588975906372070 -6.005780220031738 1.320365428924561 0.000000000000000
16.589506149291992 21.926528930664062 0.840053498744965 1.000000000000000
16.589782714843750 14.668110847473145 0.931997001171112 0.000000000000000
16.594289779663086 20.963840484619141 1.897752404212952 0.000000000000000
16.596082687377930 14.030735969543457 2.468394994735718 0.000000000000000
16.596397399902344 -18.063625335693359 1.741140365600586 0.000000000000000
16.597356796264648 17.599149703979492 2.299498796463013 0.000000000000000
16.603374481201172 -1.601355552673340 1.312777638435364 0.000000000000000
16.605318069458008 -6.387156009674072 1.895066618919373 0.000000000000000
16.607543945312500 10.441341400146484 1.468134045600891 0.000000000000000
16.610599517822266 10.183775901794434 0.969964563846588 0.000000000000000
16.612211227416992 -7.710427761077881 3.130532979965210 0.000000000000000
16.613861083984375 8.155591011047363 -0.109828040003777 0.000000000000000
16.614582061767578 11.931764602661133 1.728449344635010 0.000000000000000
16.615137100219727 21.636077880859375 2.041595935821533 1.000000000000000
16.615697860717773 13.274590492248535 2.415578126907349 0.000000000000000
16.617528915405273 15.315973281860352 1.604069471359253 0.000000000000000
16.618970870971680 12.706634521484375 1.001202702522278 0.000000000000000
16.620149612426758 13.168716430664062 0.688616752624512 0.000000000000000
16.620164871215820 2.833177566528320 1.424657106399536 0.000000000000000
16.620723724365234 2.557879447937012 1.031480908393860 0.000000000000000
16.621513366699219 -22.305967330932617 -0.752728104591370 1.000000000000000
16.621543884277344 12.854937553405762 1.734926462173462 0.000000000000000
16.623672485351562 0.785694420337677 2.466414928436279 0.000000000000000
16.624794006347656 15.031152725219727 1.331546783447266 0.000000000000000
16.625661849975586 14.341264724731445 0.713024675846100 0.000000000000000
16.626399993896484 -5.001445770263672 2.125678062438965 0.000000000000000
16.627408981323242 -14.342774391174316 1.346900582313538 0.000000000000000
16.627536773681641 21.105573654174805 2.218441247940063 0.000000000000000
16.629318237304688 -0.757457017898560 2.845448732376099 0.000000000000000
16.636558532714844 2.188472986221313 0.899954617023468 0.000000000000000
16.637331008911133 -7.957710742950439 1.237882375717163 0.000000000000000
16.637390136718750 10.609801292419434 2.924396514892578 0.000000000000000
16.641014099121094 -19.018255233764648 0.238179460167885 1.000000000000000
16.641210556030273 6.121464252471924 1.258560180664062 0.000000000000000
16.643424987792969 10.370101928710938 1.089489340782166 0.000000000000000
16.643808364868164 13.282291412353516 -0.289905607700348 0.000000000000000
16.648258209228516 14.899910926818848 1.155262589454651 0.000000000000000
16.648544311523438 2.190049648284912 2.234561920166016 0.000000000000000
16.651195526123047 15.076163291931152 0.988579213619232 0.000000000000000
16.657253265380859 -17.139801025390625 1.742565989494324 0.000000000000000
16.661844253540039 3.350846290588379 1.337570786476135 0.000000000000000
16.664052963256836 0.094234094023705 1.150670289993286 0.000000000000000
16.665695190429688 20.653301239013672 2.662952423095703 0.000000000000000
16.666866302490234 18.007411956787109 1.315977334976196 0.000000000000000
16.668697357177734 11.299129486083984 1.825561642646790 0.000000000000000
16.674245834350586 15.171336174011230 1.861318349838257 0.000000000000000
16.678201675415039 21.724458694458008 2.386525630950928 0.000000000000000
16.679708480834961 -11.326583862304688 2.147572755813599 0.000000000000000
16.680149078369141 -7.275593280792236 0.976004123687744 0.000000000000000
16.681224822998047 -17.048587799072266 1.692995667457581 0.000000000000000
16.681791305541992 22.031694412231445 2.068164348602295 1.000000000000000
16.684373855590820 15.597666740417480 0.961263775825500 0.000000000000000
16.684688568115234 16.349121093750000 0.130466178059578 0.000000000000000
16.687417984008789 17.439205169677734 2.188146114349365 0.000000000000000
16.688659667968750 2.176959037780762 0.578895449638367 0.000000000000000
16.690233230590820 14.482541084289551 0.675145506858826 0.000000000000000
16.691749572753906 -20.784109115600586 3.263618469238281 0.000000000000000
16.694435119628906 22.062814712524414 2.410831928253174 1.000000000000000
16.696502685546875 -12.177977561950684 2.750067949295044 0.000000000000000
16.698654174804688 13.451992034912109 2.853485584259033 0.000000000000000
16.700851440429688 -15.366904258728027 2.057413578033447 0.000000000000000
16.700878143310547 -13.122954368591309 2.262386798858643 0.000000000000000
16.701255798339844 21.067222595214844 2.271705150604248 1.000000000000000
16.703042984008789 3.101157188415527 1.271407723426819 0.000000000000000
16.706472396850586 22.038703918457031 2.409790277481079 1.000000000000000
16.708566665649414 12.351960182189941 1.434755802154541 0.000000000000000
16.708765029907227 19.548252105712891 1.924575090408325 0.000000000000000
16.709981918334961 3.968862771987915 1.829398155212402 0.000000000000000
16.712095260620117 -14.579914093017578 1.488619804382324 0.000000000000000
16.717479705810547 21.785850524902344 0.417007356882095 1.000000000000000
16.718950271606445 3.343209028244019 1.012952923774719 0.000000000000000
16.720306396484375 15.204710960388184 -0.090721972286701 0.000000000000000
16.721523284912109 15.434506416320801 -0.047660015523434 0.000000000000000
16.722959518432617 -5.824205398559570 1.188592076301575 0.000000000000000
16.724582672119141 -3.617816209793091 0.917735219001770 0.000000000000000
16.726049423217773 11.602409362792969 1.934985756874084 0.000000000000000
16.727384567260742 21.940355300903320 0.365983426570892 1.000000000000000
16.733221054077148 15.634593963623047 1.272328257560730 0.000000000000000
16.736120223999023 3.706632375717163 1.415326118469238 0.000000000000000
16.736701965332031 15.007495880126953 2.037911891937256 0.000000000000000
16.736747741699219 -13.802597999572754 2.656003952026367 0.000000000000000
16.739397048950195 -17.345054626464844 2.185256719589233 0.000000000000000
16.739963531494141 11.721878051757812 0.035667531192303 0.000000000000000
16.740091323852539 -5.373366355895996 1.485617637634277 0.000000000000000
16.741407394409180 3.939615011215210 0.856202065944672 0.000000000000000
16.742977142333984 -2.697377920150757 -0.556657373905182 0.000000000000000
16.745384216308594 -4.568141460418701 1.098111510276794 0.000000000000000
16.746425628662109 13.268770217895508 1.681535482406616 0.000000000000000
16.747331619262695 6.922935962677002 -0.281516581773758 0.000000000000000
16.747344970703125 -20.505762100219727 0.808904170989990 1.000000000000000
16.747968673706055 12.827035903930664 0.117821685969830 0.000000000000000
16.750198364257812 -1.389479279518127 0.739719688892365 0.000000000000000
16.750402450561523 -17.194168090820312 0.410618275403976 1.000000000000000
16.751987457275391 -2.826770544052124 -0.329168051481247 1.000000000000000
16.756366729736328 21.669265747070312 2.386873006820679 1.000000000000000
16.757186889648438 -3.124520301818848 1.407426476478577 0.000000000000000
16.758094787597656 4.042135238647461 1.356714844703674 0.000000000000000
16.762554168701172 8.440949440002441 2.297754526138306 0.000000000000000
16.762582778930664 16.374502182006836 0.715944945812225 0.000000000000000
16.764270782470703 14.682222366333008 2.531142950057983 0.000000000000000
16.765184402465820 16.491792678833008 0.718510210514069 0.000000000000000
16.766962051391602 3.223341941833496 1.547845125198364 0.000000000000000
16.767293930053711 -17.198888778686523 0.457007199525833 1.000000000000000
16.768316268920898 13.640856742858887 -0.045272409915924 0.000000000000000
16.768346786499023 11.880569458007812 2.516009569168091 0.000000000000000
16.770284652709961 1.618335008621216 0.968510091304779 0.000000000000000
16.771242141723633 17.704751968383789 0.791961133480072 0.000000000000000
16.771909713745117 8.085477828979492 0.962753236293793 0.000000000000000
16.772558212280273 15.790190696716309 -0.092472188174725 0.000000000000000
16.774396896362305 2.266196012496948 2.252501726150513 0.000000000000000
16.776182174682617 2.209229946136475 0.712159395217896 0.000000000000000
16.776292800903320 -3.793624877929688 3.577578544616699 0.000000000000000
16.779672622680664 2.917657613754272 1.176020264625549 0.000000000000000
16.781526565551758 -17.290603637695312 0.180836766958237 1.000000000000000
16.782508850097656 19.237468719482422 0.387672305107117 0.000000000000000
16.785900115966797 -3.158986568450928 1.377269983291626 0.000000000000000
16.786954879760742 -3.534199953079224 1.350124239921570 0.000000000000000
16.787706375122070 12.518647193908691 1.203808188438416 0.000000000000000
16.787994384765625 -14.470054626464844 1.744302749633789 0.000000000000000
16.789640426635742 17.423889160156250 2.193563222885132 0.000000000000000
16.792760848999023 -2.800503730773926 -0.722475409507751 0.000000000000000
16.794723510742188 -13.863221168518066 1.755987048149109 0.000000000000000
16.798786163330078 12.114768028259277 0.592995941638947 0.000000000000000
16.801078796386719 15.485145568847656 1.269443631172180 0.000000000000000
16.802831649780273 -1.113686323165894 0.741126656532288 0.000000000000000
