# This PCD file was generated using the MATLAB® pcwrite function
# from Computer Vision Toolbox®.
# .PCD v.7 - Point Cloud Data file format
VERSION .7
FIELDS x y z intensity
SIZE 8 8 8 8
TYPE F F F F
COUNT 1 1 1 1
WIDTH 644
HEIGHT 1
VIEWPOINT 0 0 0 1 0 0 0
POINTS 644
DATA ascii
7.566968917846680 -21.911455154418945 -1.340682744979858 1.000000000000000
7.572057723999023 11.354684829711914 -0.054786439985037 0.000000000000000
7.579683303833008 -19.805656433105469 -1.389947414398193 0.000000000000000
7.587959766387939 -20.346868515014648 -1.255922913551331 1.000000000000000
7.588924407958984 -21.728899002075195 2.614205360412598 0.000000000000000
7.590390682220459 -21.206129074096680 1.208008646965027 1.000000000000000
7.591349601745605 -20.327777862548828 1.122007131576538 1.000000000000000
7.591475009918213 13.364503860473633 1.239350080490112 0.000000000000000
7.592189788818359 -22.169914245605469 0.535881102085114 1.000000000000000
7.593414306640625 -6.538749217987061 -0.792168855667114 1.000000000000000
7.598123073577881 -18.635368347167969 -1.319050431251526 0.000000000000000
7.598661899566650 -23.812618255615234 0.139603272080421 1.000000000000000
7.598776340484619 -22.498739242553711 -0.642583310604095 1.000000000000000
7.599249362945557 -20.279783248901367 0.911476552486420 0.000000000000000
7.600776672363281 -21.308965682983398 0.039486307650805 1.000000000000000
7.602001667022705 -7.153499126434326 -0.784877300262451 1.000000000000000
7.603506565093994 -21.972496032714844 -0.227257803082466 1.000000000000000
7.615636348724365 -21.120847702026367 -0.736960828304291 1.000000000000000
7.619986534118652 -18.111303329467773 -0.342974692583084 0.000000000000000
7.620961189270020 -19.875051498413086 0.650348246097565 0.000000000000000
7.623877048492432 -20.131361007690430 0.244222208857536 1.000000000000000
7.625041007995605 -23.846418380737305 0.091761529445648 1.000000000000000
7.626567840576172 7.779305458068848 -0.357588738203049 0.000000000000000
7.627013683319092 -18.218671798706055 -0.724226295948029 0.000000000000000
7.627418994903564 -18.680164337158203 0.655250489711761 1.000000000000000
7.627979755401611 -21.329917907714844 -0.569448053836823 1.000000000000000
7.628159523010254 -18.653135299682617 -0.545314013957977 0.000000000000000
7.628272533416748 -20.780035018920898 -0.046361494809389 0.000000000000000
7.634512424468994 -21.815387725830078 -0.581007838249207 1.000000000000000
7.638421058654785 -19.942445755004883 0.611426830291748 0.000000000000000
7.640951633453369 -21.767967224121094 -0.801593542098999 0.000000000000000
7.642469882965088 -20.748146057128906 2.355170011520386 0.000000000000000
7.651840209960938 6.598372936248779 -0.040559947490692 0.000000000000000
7.652863025665283 -20.966844558715820 -0.603956878185272 1.000000000000000
7.654061794281006 -22.294717788696289 2.885925292968750 0.000000000000000
7.656488895416260 -10.268974304199219 -0.617507159709930 0.000000000000000
7.656783580780029 -21.679794311523438 2.611496686935425 1.000000000000000
7.658473491668701 -21.550331115722656 -1.234629511833191 1.000000000000000
7.660355567932129 -20.930641174316406 1.109582185745239 1.000000000000000
7.661535739898682 -21.329778671264648 1.346491932868958 0.000000000000000
7.668728828430176 -20.684658050537109 0.928464829921722 1.000000000000000
7.673314571380615 -18.291618347167969 -1.261872768402100 0.000000000000000
7.677935600280762 -23.901065826416016 -0.775768339633942 1.000000000000000
7.678310871124268 -22.188663482666016 0.131136387586594 0.000000000000000
7.678652763366699 -20.372570037841797 -1.259156227111816 0.000000000000000
7.680503845214844 -5.450587272644043 -0.890264630317688 0.000000000000000
7.683928012847900 4.378215789794922 -0.069459907710552 0.000000000000000
7.684201717376709 -14.917241096496582 2.232979059219360 0.000000000000000
7.691360473632812 5.535157203674316 -0.274620562791824 0.000000000000000
7.695680141448975 -21.882316589355469 2.021237611770630 0.000000000000000
7.705571651458740 -11.943883895874023 -0.794674992561340 0.000000000000000
7.706188678741455 -20.298414230346680 -0.003789459122345 0.000000000000000
7.707875251770020 -21.278844833374023 0.082950435578823 1.000000000000000
7.709504604339600 -19.587749481201172 -0.488726556301117 1.000000000000000
7.713021278381348 -20.786310195922852 -1.410432934761047 0.000000000000000
7.716634273529053 -18.685852050781250 1.552026629447937 1.000000000000000
7.718525409698486 -17.980930328369141 -1.433518409729004 0.000000000000000
7.720465183258057 5.201252460479736 -0.234011471271515 1.000000000000000
7.726171493530273 -21.901811599731445 2.473797082901001 0.000000000000000
7.726291179656982 -22.188131332397461 1.803706645965576 1.000000000000000
7.729952335357666 -21.304952621459961 0.605350673198700 1.000000000000000
7.729969501495361 -21.075246810913086 0.944780170917511 1.000000000000000
7.732815265655518 -20.584825515747070 -0.341597467660904 0.000000000000000
7.736085891723633 -22.766277313232422 1.799494147300720 1.000000000000000
7.742063045501709 -11.908986091613770 -0.575471818447113 0.000000000000000
7.742711067199707 -19.012762069702148 -0.358332812786102 0.000000000000000
7.743506431579590 10.414861679077148 -0.600681722164154 0.000000000000000
7.743935108184814 11.672346115112305 -0.352122932672501 0.000000000000000
7.750247478485107 -21.702880859375000 1.858221292495728 1.000000000000000
7.751900672912598 -19.603052139282227 1.836857557296753 1.000000000000000
7.756629467010498 -21.286888122558594 0.735744893550873 1.000000000000000
7.758218765258789 -22.094640731811523 2.866967678070068 0.000000000000000
7.759716510772705 -17.832506179809570 -0.115406081080437 0.000000000000000
7.761281490325928 -18.899524688720703 0.192564219236374 0.000000000000000
7.762784957885742 -17.657316207885742 -0.373723536729813 0.000000000000000
7.767737388610840 6.938333988189697 -0.121798872947693 0.000000000000000
7.769725799560547 8.215973854064941 -0.001973618287593 0.000000000000000
7.770594596862793 -17.452219009399414 -0.553644359111786 0.000000000000000
7.773234367370605 -22.374479293823242 0.678167521953583 1.000000000000000
7.775975227355957 -22.199728012084961 1.261564612388611 1.000000000000000
7.777966499328613 -23.746189117431641 -0.148280903697014 1.000000000000000
7.778333187103271 -7.286987781524658 -0.678043901920319 0.000000000000000
7.779325485229492 -6.718725204467773 -0.872191190719604 1.000000000000000
7.780654907226562 -20.785968780517578 -0.259547591209412 1.000000000000000
7.784294605255127 -21.634733200073242 2.307120084762573 1.000000000000000
7.785036087036133 -6.731252193450928 -0.913067400455475 1.000000000000000
7.785150051116943 7.995584487915039 -0.087649539113045 0.000000000000000
7.785726070404053 -17.793727874755859 -0.824232459068298 0.000000000000000
7.788112163543701 7.855832099914551 -0.363100200891495 0.000000000000000
7.791193962097168 -21.548782348632812 1.891928791999817 1.000000000000000
7.792681217193604 -6.705366611480713 -0.634182870388031 1.000000000000000
7.793693065643311 -5.411111354827881 -0.019871605560184 1.000000000000000
7.794313430786133 -18.846904754638672 -0.199344173073769 1.000000000000000
7.798316478729248 -18.880840301513672 0.702649831771851 0.000000000000000
7.799559116363525 -24.418643951416016 3.411202669143677 0.000000000000000
7.799714088439941 7.423418521881104 -0.084570810198784 0.000000000000000
7.800074577331543 -20.583604812622070 -1.188271522521973 1.000000000000000
7.802555561065674 -23.543111801147461 -0.528197228908539 1.000000000000000
7.802968502044678 -22.119514465332031 1.845985770225525 1.000000000000000
7.803910255432129 -21.878456115722656 2.474220752716064 0.000000000000000
7.807164669036865 8.750571250915527 -0.339857429265976 0.000000000000000
7.814413070678711 5.224976539611816 -0.380841225385666 0.000000000000000
7.819416999816895 -18.087791442871094 -0.306120544672012 0.000000000000000
7.822607040405273 4.115844249725342 -0.392115473747253 0.000000000000000
7.825903892517090 -19.723718643188477 2.410161018371582 0.000000000000000
7.826728343963623 7.551319599151611 -0.085419028997421 0.000000000000000
7.827397823333740 8.490198135375977 -0.068526804447174 0.000000000000000
7.829077243804932 3.746195316314697 -0.118162125349045 1.000000000000000
7.832806587219238 3.549986600875854 -0.646616578102112 1.000000000000000
7.835608482360840 6.244794368743896 -0.078696094453335 0.000000000000000
7.835898399353027 -20.782066345214844 1.362328648567200 1.000000000000000
7.836458683013916 -21.509468078613281 -0.399590313434601 1.000000000000000
7.837829589843750 -24.260589599609375 3.392735242843628 0.000000000000000
7.847287654876709 -22.587635040283203 -0.050081133842468 1.000000000000000
7.849284648895264 -19.299528121948242 0.236371874809265 1.000000000000000
7.855759143829346 -17.687509536743164 -0.635261297225952 0.000000000000000
7.862131118774414 11.782533645629883 -0.301656663417816 0.000000000000000
7.865492343902588 -18.061796188354492 -0.684500634670258 0.000000000000000
7.870904922485352 -21.013664245605469 0.168408736586571 1.000000000000000
7.872824192047119 -19.023580551147461 1.342210888862610 0.000000000000000
7.874499320983887 -21.689176559448242 -1.245626091957092 1.000000000000000
7.875028610229492 -21.611816406250000 2.450071811676025 0.000000000000000
7.875057220458984 -21.187835693359375 -0.003945142496377 1.000000000000000
7.876782894134521 -21.482488632202148 -1.191134572029114 1.000000000000000
7.877615928649902 -20.681404113769531 0.761226952075958 1.000000000000000
7.877659320831299 -21.040643692016602 0.211752772331238 1.000000000000000
7.878689765930176 -19.295545578002930 -0.283752471208572 1.000000000000000
7.881793022155762 -4.809556961059570 -0.587384104728699 1.000000000000000
7.886922359466553 -19.760715484619141 1.592319369316101 1.000000000000000
7.891522884368896 -20.196950912475586 -0.420138716697693 0.000000000000000
7.892853260040283 -17.913269042968750 -0.906015932559967 0.000000000000000
7.903230190277100 -22.407472610473633 -0.414739012718201 1.000000000000000
7.907754898071289 -17.947090148925781 -0.003422939917073 0.000000000000000
7.909282684326172 -19.315542221069336 2.555383205413818 0.000000000000000
7.909338951110840 7.170238494873047 -0.083848252892494 0.000000000000000
7.911046504974365 -16.908243179321289 2.484136343002319 0.000000000000000
7.917164802551270 -22.817035675048828 -0.143320009112358 0.000000000000000
7.917532444000244 -24.163724899291992 -0.102074265480042 1.000000000000000
7.921303749084473 -22.586830139160156 -0.142038241028786 0.000000000000000
7.922680377960205 -5.277379989624023 -0.403975695371628 1.000000000000000
7.923800945281982 -5.373090267181396 -0.443113744258881 1.000000000000000
7.925444126129150 -21.608194351196289 0.614749193191528 0.000000000000000
7.929330825805664 -22.517807006835938 -0.370861291885376 1.000000000000000
7.931961059570312 -19.045000076293945 1.305207133293152 1.000000000000000
7.939546585083008 12.058344841003418 -0.807179033756256 0.000000000000000
7.939836502075195 -18.926952362060547 -0.358263015747070 0.000000000000000
7.950636386871338 -22.097043991088867 1.440448880195618 1.000000000000000
7.950731277465820 -18.044628143310547 -0.609346926212311 0.000000000000000
7.954011917114258 -21.903409957885742 1.384448170661926 1.000000000000000
7.955636501312256 -22.187500000000000 2.053877592086792 0.000000000000000
7.956004619598389 7.828178882598877 -0.237697273492813 0.000000000000000
7.956178188323975 -9.936618804931641 -0.883427619934082 0.000000000000000
7.958974361419678 -22.722173690795898 3.203839778900146 0.000000000000000
7.959646701812744 -21.241561889648438 0.605884730815887 0.000000000000000
7.962451457977295 -5.054683685302734 -0.110292524099350 1.000000000000000
7.967435836791992 -21.436382293701172 2.294739723205566 0.000000000000000
7.974786281585693 -18.400436401367188 -1.469173669815063 0.000000000000000
7.978194713592529 7.989622116088867 -0.153719678521156 0.000000000000000
7.981695652008057 -19.813114166259766 1.936431646347046 1.000000000000000
7.985546112060547 7.377630233764648 -0.419556885957718 0.000000000000000
7.989954948425293 -19.408155441284180 1.828871130943298 0.000000000000000
8.011816024780273 -21.033725738525391 0.428244471549988 1.000000000000000
8.013046264648438 -5.107036590576172 -1.395021319389343 1.000000000000000
8.018161773681641 -19.153009414672852 -0.123215340077877 0.000000000000000
8.018179893493652 -20.405447006225586 -0.930399000644684 1.000000000000000
8.018389701843262 -19.934303283691406 -0.251268625259399 1.000000000000000
8.021031379699707 -21.387195587158203 -1.453096270561218 0.000000000000000
8.026223182678223 3.145605802536011 -0.515179097652435 0.000000000000000
8.040669441223145 -21.596475601196289 1.813660621643066 1.000000000000000
8.041465759277344 -22.031513214111328 2.663862228393555 0.000000000000000
8.048152923583984 -21.689476013183594 0.662369549274445 0.000000000000000
8.058185577392578 -18.772197723388672 2.320327281951904 0.000000000000000
8.058426856994629 -21.466396331787109 1.997973084449768 1.000000000000000
8.064493179321289 -22.185920715332031 3.498485803604126 0.000000000000000
8.064896583557129 5.722527980804443 -0.248586922883987 0.000000000000000
8.070936203002930 -18.049562454223633 0.072468005120754 0.000000000000000
8.079127311706543 -19.180116653442383 0.395981580018997 0.000000000000000
8.079609870910645 -23.682199478149414 -0.821338653564453 1.000000000000000
8.081643104553223 8.147070884704590 -0.685791850090027 0.000000000000000
8.081885337829590 -20.136814117431641 -1.213112950325012 0.000000000000000
8.085619926452637 -20.351339340209961 1.469868063926697 1.000000000000000
8.088768959045410 -21.460666656494141 0.788865447044373 1.000000000000000
8.089441299438477 -18.565443038940430 -1.405453085899353 0.000000000000000
8.100094795227051 -11.426636695861816 -0.702181816101074 0.000000000000000
8.100764274597168 -23.603931427001953 -0.483523696660995 1.000000000000000
8.105467796325684 5.990946769714355 -0.311468690633774 0.000000000000000
8.105885505676270 -23.077032089233398 -0.192106425762177 1.000000000000000
8.108500480651855 -18.634042739868164 -1.371148467063904 0.000000000000000
8.108632087707520 -19.165952682495117 1.886594295501709 1.000000000000000
8.111236572265625 -19.335535049438477 -0.043915241956711 0.000000000000000
8.111602783203125 -4.949789524078369 -0.165867671370506 1.000000000000000
8.119833946228027 -20.464515686035156 1.775276541709900 1.000000000000000
8.125673294067383 -18.223161697387695 -0.539904177188873 0.000000000000000
8.127029418945312 -21.792366027832031 2.641742229461670 0.000000000000000
8.129355430603027 -21.640417098999023 -0.714364111423492 0.000000000000000
8.130274772644043 3.491530418395996 -0.256428390741348 0.000000000000000
8.130301475524902 -18.581230163574219 -1.173010826110840 0.000000000000000
8.131307601928711 -22.510351181030273 -0.693619668483734 1.000000000000000
8.132928848266602 -20.619194030761719 0.549447417259216 0.000000000000000
8.134897232055664 -19.623870849609375 -0.452399849891663 0.000000000000000
8.135810852050781 7.835837364196777 -0.088717669248581 0.000000000000000
8.139355659484863 -21.250289916992188 -0.746933937072754 1.000000000000000
8.140938758850098 -14.440764427185059 1.882895827293396 0.000000000000000
8.145295143127441 -22.151390075683594 2.368222713470459 0.000000000000000
8.152402877807617 -19.799806594848633 2.148572921752930 0.000000000000000
8.153856277465820 -19.849571228027344 -0.745616734027863 0.000000000000000
8.162808418273926 -22.884635925292969 1.912205338478088 1.000000000000000
8.166869163513184 -22.103990554809570 0.855833292007446 1.000000000000000
8.169467926025391 -15.724214553833008 2.358030080795288 0.000000000000000
8.175433158874512 -19.807603836059570 -0.703367173671722 0.000000000000000
8.177268981933594 -10.977045059204102 -0.738923370838165 0.000000000000000
8.181307792663574 6.529185295104980 -0.122406929731369 0.000000000000000
8.182048797607422 -23.914144515991211 1.696496129035950 1.000000000000000
8.182111740112305 -21.909692764282227 0.130622550845146 1.000000000000000
8.183794021606445 -21.437973022460938 -0.885542690753937 1.000000000000000
8.183876037597656 -21.610074996948242 -0.092761218547821 1.000000000000000
8.184270858764648 3.306826591491699 -0.663711667060852 0.000000000000000
8.187237739562988 6.249207973480225 -0.080895185470581 0.000000000000000
8.188305854797363 12.715026855468750 1.161034822463989 0.000000000000000
8.188941001892090 -21.570001602172852 -1.423278808593750 1.000000000000000
8.189416885375977 -11.484530448913574 -0.273299366235733 1.000000000000000
8.189651489257812 -22.108667373657227 0.584438383579254 1.000000000000000
8.191790580749512 -18.457986831665039 0.849915385246277 0.000000000000000
8.192957878112793 8.034626960754395 -0.332557380199432 0.000000000000000
8.194208145141602 -21.619134902954102 -0.048422377556562 1.000000000000000
8.194635391235352 -20.122493743896484 0.622073352336884 0.000000000000000
8.196465492248535 -21.746402740478516 0.442169278860092 0.000000000000000
8.208731651306152 -17.645473480224609 -0.938202619552612 0.000000000000000
8.219298362731934 -19.975147247314453 3.201179027557373 0.000000000000000
8.238060951232910 -18.562244415283203 -0.393482893705368 0.000000000000000
8.241424560546875 8.195806503295898 -0.158239230513573 0.000000000000000
8.243457794189453 -22.342462539672852 1.920269131660461 1.000000000000000
8.244407653808594 7.155648231506348 -0.400295883417130 0.000000000000000
8.245150566101074 7.153265476226807 -0.085733182728291 1.000000000000000
8.250884056091309 6.730217456817627 -0.083628341555595 0.000000000000000
8.251741409301758 8.435524940490723 -0.523470580577850 0.000000000000000
8.261427879333496 6.869498729705811 -0.580012798309326 1.000000000000000
8.263075828552246 -23.611488342285156 0.139714986085892 1.000000000000000
8.263183593750000 -20.915199279785156 1.336054086685181 0.000000000000000
8.264998435974121 -20.114135742187500 1.795489311218262 0.000000000000000
8.268679618835449 -12.180247306823730 -0.879789352416992 0.000000000000000
8.269877433776855 -10.944264411926270 -0.714098513126373 1.000000000000000
8.273365974426270 -12.211442947387695 -0.938341677188873 0.000000000000000
8.276631355285645 -22.087484359741211 2.138308763504028 1.000000000000000
8.279043197631836 -18.845886230468750 1.461051344871521 1.000000000000000
8.279216766357422 3.219776391983032 -0.394065409898758 0.000000000000000
8.279519081115723 -20.813968658447266 1.115150928497314 1.000000000000000
8.281062126159668 -18.535106658935547 -0.783429980278015 1.000000000000000
8.285562515258789 -14.578116416931152 1.904564380645752 0.000000000000000
8.296437263488770 6.103480339050293 -0.298490554094315 0.000000000000000
8.317636489868164 7.835678100585938 -0.331166893243790 0.000000000000000
8.322070121765137 1.714482307434082 -0.507781863212585 0.000000000000000
8.325551986694336 13.133158683776855 0.564748287200928 0.000000000000000
8.339812278747559 -19.522195816040039 1.220336437225342 0.000000000000000
8.349020004272461 -5.968939304351807 -0.652902960777283 1.000000000000000
8.349484443664551 3.931105136871338 -0.249719187617302 0.000000000000000
8.350970268249512 -24.059108734130859 -0.493442147970200 1.000000000000000
8.353131294250488 6.783809185028076 -0.643078982830048 0.000000000000000
8.357381820678711 -24.055891036987305 -0.835904657840729 1.000000000000000
8.372896194458008 -19.614797592163086 1.184902787208557 1.000000000000000
8.375025749206543 -19.102390289306641 1.762465953826904 1.000000000000000
8.376351356506348 -18.748386383056641 1.101325035095215 1.000000000000000
8.379768371582031 3.068550825119019 -0.035823140293360 0.000000000000000
8.381910324096680 -17.773796081542969 -0.192072525620461 1.000000000000000
8.382863998413086 7.670994758605957 -0.154699817299843 0.000000000000000
8.386983871459961 -19.335786819458008 1.292779564857483 1.000000000000000
8.396512031555176 -19.008684158325195 1.675614118576050 1.000000000000000
8.396653175354004 -20.843172073364258 1.291729331016541 1.000000000000000
8.400243759155273 -20.222055435180664 1.300944685935974 0.000000000000000
8.402985572814941 -18.002212524414062 -1.148991703987122 0.000000000000000
8.405280113220215 -17.776687622070312 -0.116687841713428 0.000000000000000
8.405693054199219 12.965416908264160 2.056219100952148 0.000000000000000
8.410452842712402 -21.168937683105469 1.880737900733948 1.000000000000000
8.410851478576660 -13.208496093750000 1.917145013809204 0.000000000000000
8.415034294128418 -17.449281692504883 2.871033668518066 0.000000000000000
8.420936584472656 13.275424957275391 1.267641305923462 0.000000000000000
8.423320770263672 4.139492511749268 -0.705699801445007 1.000000000000000
8.425034523010254 -20.044322967529297 0.956922233104706 1.000000000000000
8.425046920776367 3.049157857894897 -0.053169395774603 0.000000000000000
8.425896644592285 -8.922916412353516 -1.326718449592590 1.000000000000000
8.429614067077637 -22.756465911865234 -0.144008368253708 1.000000000000000
8.430305480957031 8.800572395324707 -0.353182882070541 0.000000000000000
8.432310104370117 -21.371654510498047 1.675085663795471 0.000000000000000
8.434150695800781 8.777245521545410 -0.610253274440765 0.000000000000000
8.435037612915039 13.409141540527344 0.575346469879150 0.000000000000000
8.439857482910156 -5.025376319885254 -1.442083716392517 1.000000000000000
8.441652297973633 -20.971763610839844 0.213072225451469 1.000000000000000
8.441904067993164 -11.615871429443359 -0.360968708992004 0.000000000000000
8.441967964172363 -19.776607513427734 0.202667430043221 1.000000000000000
8.443769454956055 -13.039100646972656 2.302221775054932 0.000000000000000
8.446448326110840 -19.346038818359375 0.523278534412384 0.000000000000000
8.449115753173828 -12.672747611999512 2.603497982025146 0.000000000000000
8.452522277832031 -17.863693237304688 0.831749677658081 0.000000000000000
8.452576637268066 9.010847091674805 -0.358049601316452 0.000000000000000
8.454093933105469 8.555629730224609 -0.048283360898495 0.000000000000000
8.463781356811523 -17.968538284301758 -0.842887938022614 0.000000000000000
8.467357635498047 7.223633289337158 -0.365331023931503 0.000000000000000
8.468053817749023 -5.032160758972168 -1.446150779724121 1.000000000000000
8.468452453613281 3.428528308868408 -0.264771312475204 0.000000000000000
8.471027374267578 -19.763435363769531 2.290348768234253 1.000000000000000
8.475305557250977 -19.986934661865234 -0.670874655246735 0.000000000000000
8.480738639831543 -20.785556793212891 0.556485235691071 1.000000000000000
8.485333442687988 -21.698820114135742 1.384210944175720 1.000000000000000
8.487081527709961 -18.061323165893555 -0.003482979256660 0.000000000000000
8.489934921264648 12.471953392028809 0.373996943235397 0.000000000000000
8.492897033691406 -18.076156616210938 0.802154302597046 0.000000000000000
8.495355606079102 5.853555679321289 -0.259342610836029 0.000000000000000
8.496957778930664 -21.414983749389648 1.501985430717468 1.000000000000000
8.503073692321777 -20.957328796386719 3.009667634963989 0.000000000000000
8.505349159240723 -20.057785034179688 2.186113119125366 1.000000000000000
8.510826110839844 -19.162412643432617 0.600322544574738 0.000000000000000
8.515427589416504 3.989643812179565 -0.073858089745045 0.000000000000000
8.517529487609863 -23.302968978881836 -0.242504760622978 1.000000000000000
8.517877578735352 -19.747920989990234 0.243995308876038 1.000000000000000
8.518825531005859 -19.705656051635742 2.154163837432861 0.000000000000000
8.525024414062500 -20.881595611572266 0.645770251750946 0.000000000000000
8.526238441467285 9.486651420593262 -0.149161517620087 0.000000000000000
8.526451110839844 -17.938882827758789 -0.842887938022614 0.000000000000000
8.527395248413086 -19.636028289794922 1.808944106101990 1.000000000000000
8.535911560058594 -20.960521697998047 -0.047400314360857 1.000000000000000
8.539118766784668 -21.239585876464844 0.083903372287750 1.000000000000000
8.540644645690918 -19.222316741943359 3.117323398590088 0.000000000000000
8.541306495666504 3.263996839523315 -0.071816071867943 0.000000000000000
8.543210029602051 -11.595351219177246 -0.389726400375366 0.000000000000000
8.548684120178223 -17.841678619384766 0.034529574215412 0.000000000000000
8.549544334411621 4.311386585235596 -0.130359500646591 0.000000000000000
8.551342964172363 7.825166225433350 -0.692711830139160 0.000000000000000
8.552686691284180 -22.490264892578125 1.893688917160034 1.000000000000000
8.560017585754395 -19.800941467285156 -0.003765024244785 0.000000000000000
8.561443328857422 3.320936441421509 -0.407360464334488 0.000000000000000
8.562791824340820 -19.867300033569336 1.885122776031494 1.000000000000000
8.566436767578125 -8.760288238525391 -1.324568867683411 1.000000000000000
8.571043968200684 -17.804542541503906 2.928501367568970 0.000000000000000
8.571540832519531 -21.025938034057617 2.278365850448608 1.000000000000000
8.577157020568848 -12.027392387390137 -1.025219202041626 0.000000000000000
8.579987525939941 3.564302206039429 -0.144330844283104 0.000000000000000
8.582368850708008 -19.534511566162109 2.612255811691284 0.000000000000000
8.584162712097168 -8.668777465820312 -1.129595279693604 0.000000000000000
8.587627410888672 -11.924138069152832 -0.200058832764626 1.000000000000000
8.590238571166992 -20.625553131103516 1.758425354957581 1.000000000000000
8.598193168640137 -23.303909301757812 0.472606003284454 1.000000000000000
8.599023818969727 -17.394216537475586 -0.115144975483418 0.000000000000000
8.602628707885742 -6.150250911712646 -0.835985600948334 1.000000000000000
8.604263305664062 11.958234786987305 -0.342034310102463 0.000000000000000
8.605731964111328 -12.810544013977051 1.399055480957031 0.000000000000000
8.606471061706543 8.549277305603027 -0.561474680900574 0.000000000000000
8.607627868652344 -19.632926940917969 1.480220437049866 1.000000000000000
8.610641479492188 -11.891637802124023 -0.256271153688431 0.000000000000000
8.612042427062988 -19.981569290161133 0.873909950256348 1.000000000000000
8.614779472351074 4.609725952148438 -0.583901405334473 0.000000000000000
8.617152214050293 4.572372436523438 -0.132809877395630 0.000000000000000
8.626243591308594 -18.396663665771484 0.230518177151680 1.000000000000000
8.630384445190430 -19.403297424316406 1.302575230598450 1.000000000000000
8.630813598632812 -21.964538574218750 1.902908682823181 1.000000000000000
8.631599426269531 -21.223054885864258 1.670431852340698 1.000000000000000
8.632098197937012 -19.703699111938477 1.443883538246155 0.000000000000000
8.640931129455566 -22.874797821044922 3.253965616226196 1.000000000000000
8.642004013061523 -22.600387573242188 2.108392953872681 1.000000000000000
8.644654273986816 -17.461961746215820 -1.239525198936462 0.000000000000000
8.644798278808594 7.450417518615723 -0.418471127748489 0.000000000000000
8.646727561950684 6.000242233276367 -0.264569669961929 0.000000000000000
8.647688865661621 -20.033493041992188 -0.716227233409882 0.000000000000000
8.648623466491699 -21.472963333129883 1.911348462104797 1.000000000000000
8.650753021240234 4.416150093078613 -0.374824702739716 0.000000000000000
8.654090881347656 -20.455223083496094 0.251981765031815 1.000000000000000
8.657246589660645 -23.370981216430664 0.234899699687958 1.000000000000000
8.661356925964355 -18.618434906005859 -1.306313753128052 0.000000000000000
8.661975860595703 -22.633678436279297 1.019965648651123 1.000000000000000
8.662467002868652 -22.691886901855469 1.302695512771606 1.000000000000000
8.663042068481445 -21.396604537963867 0.439201712608337 0.000000000000000
8.671061515808105 -18.408592224121094 -0.550615668296814 0.000000000000000
8.675402641296387 8.951699256896973 -0.505035638809204 0.000000000000000
8.676422119140625 -17.502305984497070 -1.205070614814758 0.000000000000000
8.680477142333984 4.429800987243652 -0.357349455356598 0.000000000000000
8.680818557739258 -22.553104400634766 1.203058362007141 1.000000000000000
8.690155982971191 -23.633159637451172 0.769326269626617 0.000000000000000
8.694746971130371 -18.556232452392578 -1.066780805587769 0.000000000000000
8.694754600524902 6.398155689239502 -0.437352150678635 0.000000000000000
8.699334144592285 -20.620302200317383 1.891122937202454 1.000000000000000
8.700208663940430 9.468368530273438 -0.372649669647217 0.000000000000000
8.703223228454590 -21.495845794677734 2.634068250656128 0.000000000000000
8.704626083374023 -21.409032821655273 0.217822253704071 1.000000000000000
8.714578628540039 -13.404927253723145 1.957490682601929 0.000000000000000
8.716812133789062 8.124007225036621 -0.093587085604668 0.000000000000000
8.718867301940918 8.034561157226562 -0.525952398777008 0.000000000000000
8.719501495361328 -18.658206939697266 -0.834385633468628 0.000000000000000
8.719520568847656 -22.803108215332031 3.618112087249756 1.000000000000000
8.723297119140625 -18.484325408935547 1.411334514617920 0.000000000000000
8.724862098693848 8.991423606872559 -0.531680822372437 0.000000000000000
8.727128028869629 -22.654541015625000 1.629525661468506 1.000000000000000
8.727218627929688 7.781404495239258 -0.518684387207031 0.000000000000000
8.729384422302246 -18.448818206787109 1.488060116767883 1.000000000000000
8.733606338500977 -21.899835586547852 1.355317234992981 0.000000000000000
8.735435485839844 -19.575037002563477 1.314819812774658 0.000000000000000
8.735888481140137 -19.752725601196289 -0.875028133392334 0.000000000000000
8.739582061767578 -18.679067611694336 1.742594838142395 1.000000000000000
8.742875099182129 -17.987655639648438 -0.080284930765629 0.000000000000000
8.744490623474121 12.391968727111816 0.725852906703949 0.000000000000000
8.749583244323730 1.783940553665161 -0.207318827509880 0.000000000000000
8.749874114990234 5.376854896545410 -0.455577224493027 0.000000000000000
8.750267028808594 7.018063545227051 -0.497589588165283 0.000000000000000
8.752568244934082 -13.127893447875977 1.150367021560669 0.000000000000000
8.754498481750488 -19.888578414916992 0.288255721330643 1.000000000000000
8.754930496215820 -19.662969589233398 0.037566445767879 1.000000000000000
8.755515098571777 -19.993949890136719 1.338819146156311 1.000000000000000
8.758586883544922 -20.921663284301758 1.260124206542969 1.000000000000000
8.761790275573730 -18.304483413696289 -1.251864671707153 0.000000000000000
8.765087127685547 -20.082553863525391 -0.003824365558103 0.000000000000000
8.768523216247559 -22.070196151733398 1.227969884872437 0.000000000000000
8.768609046936035 -21.566398620605469 0.577103197574615 1.000000000000000
8.772307395935059 -21.638242721557617 1.207314372062683 1.000000000000000
8.777055740356445 4.709768772125244 -0.250396311283112 0.000000000000000
8.778005599975586 -21.422155380249023 1.509271502494812 0.000000000000000
8.778779029846191 -17.949838638305664 1.302657365798950 0.000000000000000
8.784925460815430 7.629094123840332 -0.136064872145653 0.000000000000000
8.787611007690430 12.474796295166016 -0.383585810661316 0.000000000000000
8.787936210632324 4.258474826812744 -0.226723060011864 0.000000000000000
8.788296699523926 -24.077636718750000 0.487672150135040 1.000000000000000
8.788559913635254 -21.775428771972656 2.356241703033447 0.000000000000000
8.790362358093262 -19.929479598999023 -0.296548813581467 0.000000000000000
8.795552253723145 -11.520346641540527 -0.866188049316406 1.000000000000000
8.801060676574707 -19.845754623413086 1.891720175743103 1.000000000000000
8.805281639099121 7.440512180328369 -0.024144168943167 0.000000000000000
8.806169509887695 -12.997859001159668 1.174984812736511 0.000000000000000
8.822753906250000 -20.945510864257812 1.131459593772888 1.000000000000000
8.824002265930176 8.187723159790039 -0.395119130611420 0.000000000000000
8.826631546020508 -21.019283294677734 0.696522474288940 1.000000000000000
8.837758064270020 -11.555961608886719 -0.589397132396698 0.000000000000000
8.840502738952637 -19.934694290161133 0.205532506108284 1.000000000000000
8.843286514282227 -11.647221565246582 -0.592473685741425 1.000000000000000
8.844729423522949 -17.381999969482422 0.595867514610291 0.000000000000000
8.845499038696289 -17.331842422485352 -1.387979984283447 0.000000000000000
8.847318649291992 13.761034011840820 0.814436137676239 0.000000000000000
8.851897239685059 7.543953418731689 -0.359405964612961 0.000000000000000
8.852685928344727 -18.311845779418945 -0.589449286460876 1.000000000000000
8.854192733764648 8.664013862609863 -0.025945346802473 0.000000000000000
8.855579376220703 -22.390613555908203 -1.114442229270935 1.000000000000000
8.859820365905762 9.228610038757324 -0.419920682907104 0.000000000000000
8.861266136169434 -13.341319084167480 1.291431665420532 0.000000000000000
8.862069129943848 -20.718687057495117 2.142035245895386 1.000000000000000
8.862876892089844 -20.424144744873047 1.838278055191040 0.000000000000000
8.869895935058594 12.934292793273926 0.720410883426666 0.000000000000000
8.872298240661621 2.927535533905029 -0.414451152086258 0.000000000000000
8.872637748718262 -13.827983856201172 -0.855296194553375 0.000000000000000
8.873384475708008 -19.074209213256836 1.574408054351807 1.000000000000000
8.874038696289062 2.283587932586670 -0.124750889837742 0.000000000000000
8.874940872192383 4.229709625244141 -0.114969901740551 0.000000000000000
8.875162124633789 8.971103668212891 -0.123343952000141 0.000000000000000
8.879077911376953 8.423285484313965 -0.354689240455627 0.000000000000000
8.886023521423340 -20.601432800292969 0.944275617599487 1.000000000000000
8.888648986816406 -21.486665725708008 1.605592727661133 1.000000000000000
8.889963150024414 -13.779728889465332 -0.664367198944092 0.000000000000000
8.890659332275391 9.362581253051758 -0.572750985622406 0.000000000000000
8.890937805175781 -18.228315353393555 0.346925228834152 0.000000000000000
8.894213676452637 -13.738895416259766 0.217106997966766 0.000000000000000
8.894657135009766 -13.728547096252441 0.248406648635864 0.000000000000000
8.897365570068359 13.071950912475586 0.483119308948517 0.000000000000000
8.897954940795898 -20.254737854003906 0.208510696887970 1.000000000000000
8.898236274719238 7.537711143493652 -0.382783949375153 0.000000000000000
8.900807380676270 -18.914319992065430 0.036484345793724 1.000000000000000
8.903111457824707 12.828042984008789 1.289263367652893 0.000000000000000
8.906599998474121 -21.144563674926758 0.084093965590000 1.000000000000000
8.906805038452148 13.124686241149902 0.576072335243225 0.000000000000000
8.907147407531738 5.314781665802002 -0.400275766849518 0.000000000000000
8.908255577087402 -20.852832794189453 0.954367637634277 1.000000000000000
8.910995483398438 -8.352774620056152 -0.236647650599480 1.000000000000000
8.911091804504395 -18.381052017211914 1.726091861724854 1.000000000000000
8.915452003479004 -12.312593460083008 1.137669563293457 0.000000000000000
8.915688514709473 -20.351024627685547 1.148859381675720 0.000000000000000
8.921035766601562 -21.840715408325195 -0.411806970834732 1.000000000000000
8.922191619873047 -21.260358810424805 2.009084463119507 0.000000000000000
8.923468589782715 -22.672100067138672 1.306765794754028 1.000000000000000
8.931789398193359 -17.942621231079102 -1.081971764564514 1.000000000000000
8.934371948242188 8.725996017456055 -0.289949268102646 0.000000000000000
8.935005187988281 -20.060808181762695 -0.383324652910233 0.000000000000000
8.942026138305664 -14.135050773620605 3.479016065597534 0.000000000000000
8.943553924560547 -20.032947540283203 1.134400486946106 1.000000000000000
8.946782112121582 -17.431743621826172 -0.304380863904953 0.000000000000000
8.952651977539062 -18.316696166992188 0.427057832479477 0.000000000000000
8.952843666076660 -19.891263961791992 1.758880496025085 0.000000000000000
8.953418731689453 -20.658462524414062 2.557325839996338 0.000000000000000
8.956908226013184 6.248661994934082 -0.821167051792145 0.000000000000000
8.968406677246094 -0.756093263626099 -0.260831594467163 0.000000000000000
8.971997261047363 -21.790361404418945 -0.366077184677124 0.000000000000000
8.972344398498535 -21.201272964477539 1.900815725326538 1.000000000000000
8.972491264343262 6.982630729675293 -1.030692934989929 0.000000000000000
8.973772048950195 12.559429168701172 2.054108619689941 0.000000000000000
8.974786758422852 -20.960952758789062 2.287950515747070 1.000000000000000
8.975484848022461 -20.872924804687500 1.525051712989807 0.000000000000000
8.979970932006836 4.311349391937256 -0.365264475345612 0.000000000000000
8.984706878662109 -0.758888900279999 -0.243984743952751 0.000000000000000
8.985439300537109 -20.057140350341797 1.992408156394958 1.000000000000000
8.985643386840820 -20.536054611206055 2.546040058135986 1.000000000000000
8.986489295959473 12.147210121154785 1.072494864463806 0.000000000000000
8.990386009216309 5.103309631347656 -0.458590745925903 0.000000000000000
8.990901947021484 12.138104438781738 0.751986026763916 0.000000000000000
8.993799209594727 4.450680732727051 -0.155887246131897 0.000000000000000
8.994050025939941 -20.514308929443359 -0.864410579204559 1.000000000000000
8.995163917541504 -22.640644073486328 2.982657432556152 0.000000000000000
8.995294570922852 -20.202810287475586 2.355593681335449 1.000000000000000
9.002228736877441 -18.832946777343750 1.984193086624146 1.000000000000000
9.005223274230957 -21.466615676879883 1.383024811744690 1.000000000000000
9.008397102355957 8.979518890380859 -0.124321319162846 0.000000000000000
9.011689186096191 8.468165397644043 -0.382139116525650 0.000000000000000
9.013419151306152 4.764709949493408 -0.119226306676865 0.000000000000000
9.018205642700195 -20.685146331787109 3.344261407852173 0.000000000000000
9.020230293273926 3.858440399169922 -0.152407899498940 0.000000000000000
9.023676872253418 -20.403444290161133 1.497459888458252 0.000000000000000
9.025401115417480 2.288975238800049 -0.126765638589859 0.000000000000000
9.026117324829102 -24.366777420043945 -1.352711200714111 1.000000000000000
9.035835266113281 12.480685234069824 0.856059074401855 0.000000000000000
9.036578178405762 -11.730847358703613 -0.599922120571136 1.000000000000000
9.041006088256836 -20.894533157348633 0.651837587356567 1.000000000000000
9.048531532287598 -18.093944549560547 -0.936345934867859 1.000000000000000
9.051046371459961 -21.833906173706055 -0.140258029103279 0.000000000000000
9.053196907043457 -21.625400543212891 3.474443197250366 0.000000000000000
9.053541183471680 -19.113185882568359 3.134329080581665 0.000000000000000
9.061725616455078 7.234919548034668 -0.091073840856552 0.000000000000000
9.064086914062500 -22.156681060791016 1.468366384506226 1.000000000000000
9.067171096801758 -12.653687477111816 1.074895739555359 0.000000000000000
9.068528175354004 -18.343935012817383 0.192865803837776 0.000000000000000
9.070224761962891 -20.585378646850586 2.257199764251709 1.000000000000000
9.071619987487793 13.267634391784668 0.336670339107513 0.000000000000000
9.072406768798828 6.062219142913818 -0.316219210624695 0.000000000000000
9.074533462524414 -20.240861892700195 1.660084128379822 0.000000000000000
9.075626373291016 -16.910379409790039 0.070342198014259 0.000000000000000
9.086345672607422 -18.945997238159180 0.399786144495010 0.000000000000000
9.088642120361328 -17.820545196533203 0.380611032247543 0.000000000000000
9.089623451232910 -18.952831268310547 1.694903612136841 1.000000000000000
9.094161987304688 -20.315025329589844 1.236603736877441 1.000000000000000
9.097136497497559 -18.134136199951172 -0.899986565113068 1.000000000000000
9.098037719726562 -19.416931152343750 1.868455529212952 1.000000000000000
9.100479125976562 -20.313928604125977 1.279562711715698 1.000000000000000
9.101880073547363 -18.893737792968750 3.584780216217041 0.000000000000000
9.104095458984375 12.667819023132324 0.866709828376770 0.000000000000000
9.106468200683594 -19.005809783935547 1.658625483512878 1.000000000000000
9.113408088684082 -14.423788070678711 2.528573751449585 0.000000000000000
9.116311073303223 -0.986484825611115 -0.212889432907104 0.000000000000000
9.116515159606934 -21.548233032226562 1.344987034797668 1.000000000000000
9.117550849914551 -20.738882064819336 1.302289128303528 0.000000000000000
9.117619514465332 -19.333864212036133 1.434775590896606 0.000000000000000
9.117857933044434 17.955198287963867 2.465456008911133 1.000000000000000
9.120502471923828 -21.557657241821289 -0.453535914421082 0.000000000000000
9.130605697631836 12.137862205505371 0.318157255649567 0.000000000000000
9.136486053466797 9.361849784851074 -0.529971718788147 0.000000000000000
9.140992164611816 13.034831047058105 0.486417472362518 0.000000000000000
9.141698837280273 -18.487073898315430 -0.082789823412895 0.000000000000000
9.142644882202148 -18.860357284545898 1.366411209106445 1.000000000000000
9.150799751281738 7.973762989044189 -0.398399770259857 0.000000000000000
9.152812957763672 4.999400138854980 -0.242135018110275 0.000000000000000
9.155874252319336 -17.017107009887695 0.070826001465321 0.000000000000000
9.156527519226074 -21.659658432006836 -0.139545932412148 0.000000000000000
9.156745910644531 -21.808603286743164 0.949999809265137 1.000000000000000
9.168023109436035 8.005675315856934 -0.118965342640877 0.000000000000000
9.169337272644043 -20.660625457763672 0.603748679161072 1.000000000000000
9.169514656066895 -19.460632324218750 1.651535153388977 1.000000000000000
9.172306060791016 12.372158050537109 1.033756256103516 0.000000000000000
9.175303459167480 18.149847030639648 2.309944391250610 0.000000000000000
9.177711486816406 -19.484207153320312 2.446274995803833 0.000000000000000
9.181114196777344 12.666454315185547 0.357741802930832 0.000000000000000
9.183627128601074 12.611463546752930 0.686606168746948 0.000000000000000
9.183668136596680 -20.647218704223633 1.734816193580627 1.000000000000000
9.197432518005371 -17.416473388671875 -0.797953128814697 0.000000000000000
9.202698707580566 -21.639236450195312 1.805237531661987 1.000000000000000
9.206072807312012 -22.190359115600586 1.751582860946655 1.000000000000000
9.209942817687988 6.925332546234131 -0.333947896957397 0.000000000000000
9.216558456420898 -22.537246704101562 1.963349103927612 0.000000000000000
9.217630386352539 -20.940727233886719 1.359302282333374 1.000000000000000
9.217811584472656 -18.048896789550781 -1.094046473503113 1.000000000000000
9.217881202697754 8.317603111267090 -0.550769805908203 0.000000000000000
9.219279289245605 -22.414266586303711 1.813823103904724 1.000000000000000
9.220111846923828 -20.652418136596680 0.821425735950470 0.000000000000000
9.223210334777832 -19.849740982055664 -0.424090564250946 0.000000000000000
9.223512649536133 4.747567176818848 -0.220919638872147 0.000000000000000
9.225521087646484 6.932258605957031 -0.312257200479507 0.000000000000000
9.226942062377930 9.467088699340820 -0.078448593616486 0.000000000000000
9.229388236999512 -18.890407562255859 1.289595961570740 1.000000000000000
9.231685638427734 -17.907529830932617 1.002979516983032 1.000000000000000
9.235527992248535 -21.779733657836914 0.722785592079163 1.000000000000000
9.237640380859375 -12.427613258361816 1.308461785316467 0.000000000000000
9.238305091857910 -19.299982070922852 -0.990348100662231 1.000000000000000
9.238361358642578 -21.642280578613281 -0.139640882611275 1.000000000000000
9.244897842407227 -21.735301971435547 0.449397981166840 1.000000000000000
9.248042106628418 -16.754182815551758 2.342961072921753 0.000000000000000
9.253474235534668 12.041073799133301 0.551536977291107 0.000000000000000
9.254763603210449 -7.938457489013672 -0.869728684425354 1.000000000000000
9.257281303405762 12.374915122985840 0.739620387554169 0.000000000000000
9.258587837219238 -18.889116287231445 1.533725738525391 1.000000000000000
9.260059356689453 11.947471618652344 0.985450208187103 0.000000000000000
9.260536193847656 -19.707309722900391 2.184915065765381 1.000000000000000
9.261874198913574 -19.523923873901367 -0.335695028305054 0.000000000000000
9.264163970947266 -22.523393630981445 2.315018177032471 1.000000000000000
9.267687797546387 14.610309600830078 0.595121026039124 0.000000000000000
9.269002914428711 -19.364114761352539 2.154163837432861 1.000000000000000
9.273334503173828 -21.893335342407227 3.523701190948486 0.000000000000000
9.280604362487793 -20.911333084106445 1.315144300460815 1.000000000000000
9.281067848205566 -17.338899612426758 -0.607740759849548 0.000000000000000
9.294547080993652 -22.109769821166992 0.041859954595566 1.000000000000000
9.295820236206055 -22.406684875488281 0.275215089321136 1.000000000000000
9.297945022583008 11.925701141357422 1.015004634857178 0.000000000000000
9.299436569213867 10.079116821289062 -0.529227852821350 0.000000000000000
9.302056312561035 -20.943895339965820 2.178372859954834 1.000000000000000
9.310141563415527 4.243658542633057 -0.080361120402813 0.000000000000000
9.311437606811523 -21.280633926391602 1.873009920120239 1.000000000000000
9.312051773071289 -21.693180084228516 1.903551697731018 1.000000000000000
9.318186759948730 10.032484054565430 -0.317895084619522 0.000000000000000
9.319318771362305 -19.171939849853516 -1.150754094123840 1.000000000000000
9.319790840148926 -19.237764358520508 2.617116689682007 0.000000000000000
9.320069313049316 -17.851165771484375 -1.242259621620178 0.000000000000000
9.322998046875000 -12.187801361083984 2.041972875595093 0.000000000000000
9.326194763183594 -20.772083282470703 2.284755706787109 1.000000000000000
9.327957153320312 8.775174140930176 -0.174357205629349 0.000000000000000
9.329193115234375 8.824953079223633 -0.396841496229172 0.000000000000000
9.329445838928223 -17.956884384155273 1.397281765937805 1.000000000000000
9.329962730407715 -14.076811790466309 1.471569418907166 0.000000000000000
9.332023620605469 11.859315872192383 0.722219824790955 0.000000000000000
9.334145545959473 -21.640361785888672 0.629487812519073 1.000000000000000
9.342747688293457 4.693192005157471 -0.122266605496407 0.000000000000000
9.343087196350098 12.537451744079590 0.868706881999969 0.000000000000000
9.344717025756836 -20.059000015258789 2.220458269119263 0.000000000000000
9.351234436035156 -22.085836410522461 -0.050231933593750 1.000000000000000
9.352199554443359 7.434018135070801 -0.162649899721146 0.000000000000000
9.352963447570801 -19.349252700805664 0.615319132804871 0.000000000000000
9.353104591369629 -18.810369491577148 0.440042138099670 0.000000000000000
9.354368209838867 -19.295404434204102 -0.168419048190117 1.000000000000000
9.357123374938965 7.786657333374023 -0.259244173765182 0.000000000000000
9.360093116760254 -5.490655422210693 -0.085230536758900 1.000000000000000
9.363627433776855 -11.864068984985352 1.370164394378662 0.000000000000000
9.364029884338379 -19.369564056396484 2.291619777679443 1.000000000000000
9.365904808044434 -5.289483070373535 -0.580659627914429 1.000000000000000
9.367827415466309 -18.501798629760742 1.112250566482544 1.000000000000000
9.369049072265625 -17.479791641235352 1.254696130752563 1.000000000000000
9.373949050903320 -22.722633361816406 -0.429049968719482 1.000000000000000
9.377555847167969 -19.908473968505859 -0.257349222898483 1.000000000000000
9.380855560302734 7.135696887969971 -0.364224404096603 0.000000000000000
9.383894920349121 -18.902908325195312 0.036833409219980 1.000000000000000
9.385540008544922 -20.030513763427734 1.570084929466248 1.000000000000000
9.387065887451172 -22.691497802734375 2.075014829635620 1.000000000000000
9.388050079345703 9.346203804016113 -0.358457416296005 0.000000000000000
9.388278007507324 -17.853252410888672 -1.283204436302185 0.000000000000000
9.391673088073730 3.863109827041626 -0.313816159963608 0.000000000000000
9.398250579833984 -17.511516571044922 -0.843396723270416 0.000000000000000
9.400659561157227 12.151634216308594 1.060842990875244 0.000000000000000
9.403264999389648 -18.850139617919922 0.886582970619202 0.000000000000000
