# This PCD file was generated using the MATLAB® pcwrite function
# from Computer Vision Toolbox®.
# .PCD v.7 - Point Cloud Data file format
VERSION .7
FIELDS x y z intensity
SIZE 8 8 8 8
TYPE F F F F
COUNT 1 1 1 1
WIDTH 637
HEIGHT 1
VIEWPOINT 0 0 0 1 0 0 0
POINTS 637
DATA ascii
10.525539398193359 -8.984578132629395 -0.507442057132721 0.000000000000000
10.526942253112793 -18.129287719726562 1.690402746200562 1.000000000000000
10.528014183044434 11.058598518371582 0.319832652807236 0.000000000000000
10.530268669128418 -14.865828514099121 -1.053608059883118 0.000000000000000
10.531862258911133 -17.429967880249023 1.327638506889343 1.000000000000000
10.533268928527832 12.628074645996094 0.344460904598236 0.000000000000000
10.534419059753418 -1.624978303909302 -0.145116165280342 0.000000000000000
10.539805412292480 -22.938381195068359 -0.052870869636536 1.000000000000000
10.543231010437012 -6.875144004821777 -1.019342660903931 1.000000000000000
10.544590950012207 -11.712598800659180 2.335646867752075 0.000000000000000
10.545750617980957 -17.993497848510742 2.775394678115845 0.000000000000000
10.545764923095703 -9.124723434448242 -0.270199865102768 1.000000000000000
10.547321319580078 13.275022506713867 0.844070076942444 0.000000000000000
10.551068305969238 13.421509742736816 1.277676582336426 0.000000000000000
10.553098678588867 -15.876474380493164 -0.076527602970600 0.000000000000000
10.555758476257324 8.622581481933594 -0.525988578796387 0.000000000000000
10.556702613830566 -16.610340118408203 -0.948796153068542 0.000000000000000
10.557802200317383 4.385278224945068 -0.419204026460648 0.000000000000000
10.558272361755371 9.030054092407227 -0.643032789230347 0.000000000000000
10.559294700622559 10.999219894409180 0.935238718986511 0.000000000000000
10.562851905822754 -16.085910797119141 0.033587101846933 0.000000000000000
10.567218780517578 11.904664993286133 2.359102964401245 0.000000000000000
10.567399978637695 -16.818479537963867 -1.148760795593262 0.000000000000000
10.568215370178223 11.825723648071289 0.362679958343506 0.000000000000000
10.568340301513672 3.458761930465698 -0.300896495580673 0.000000000000000
10.571391105651855 -14.874292373657227 -1.477836966514587 0.000000000000000
10.571454048156738 -19.728906631469727 1.545524239540100 1.000000000000000
10.573242187500000 12.161415100097656 0.647245585918427 0.000000000000000
10.574630737304688 -18.626823425292969 2.850319862365723 0.000000000000000
10.577244758605957 8.264451026916504 -0.363218069076538 0.000000000000000
10.579607009887695 -19.269720077514648 -0.214864775538445 1.000000000000000
10.581179618835449 -18.175907135009766 -1.094853997230530 0.000000000000000
10.584358215332031 -16.845470428466797 -1.457483530044556 0.000000000000000
10.585774421691895 -16.153364181518555 1.835813999176025 1.000000000000000
10.586292266845703 11.278780937194824 0.591543555259705 0.000000000000000
10.589415550231934 12.094486236572266 0.893114984035492 0.000000000000000
10.590550422668457 -19.131048202514648 1.467724919319153 1.000000000000000
10.595211982727051 -6.899556636810303 -1.391407012939453 1.000000000000000
10.595288276672363 -19.044580459594727 0.330945700407028 0.000000000000000
10.604208946228027 11.487248420715332 1.568697929382324 0.000000000000000
10.609422683715820 -17.741807937622070 -0.003607944585383 0.000000000000000
10.614530563354492 -16.600028991699219 -0.419611036777496 0.000000000000000
10.614532470703125 5.708410739898682 -0.534638464450836 0.000000000000000
10.618168830871582 3.601904630661011 -0.281859189271927 0.000000000000000
10.619443893432617 11.714081764221191 0.391938507556915 0.000000000000000
10.623457908630371 -6.948618888854980 -1.126222491264343 0.000000000000000
10.623822212219238 9.654066085815430 -0.167871028184891 0.000000000000000
10.623872756958008 13.261240005493164 0.029656618833542 0.000000000000000
10.624918937683105 -18.151813507080078 2.388943910598755 1.000000000000000
10.625098228454590 -17.678937911987305 -0.756326138973236 1.000000000000000
10.627473831176758 12.847325325012207 0.701731026172638 0.000000000000000
10.631406784057617 5.426558494567871 -0.529497742652893 0.000000000000000
10.631477355957031 -16.816682815551758 2.119187116622925 1.000000000000000
10.633272171020508 5.472037315368652 -0.714664757251740 0.000000000000000
10.633715629577637 -1.640295267105103 -0.311816006898880 0.000000000000000
10.634478569030762 11.017711639404297 0.585582256317139 0.000000000000000
10.634981155395508 11.194403648376465 0.917351067066193 0.000000000000000
10.636400222778320 -18.072164535522461 0.963239789009094 1.000000000000000
10.640500068664551 -17.335176467895508 0.387002766132355 0.000000000000000
10.643090248107910 -6.990671634674072 -0.246721073985100 1.000000000000000
10.645111083984375 -18.087690353393555 0.923682272434235 1.000000000000000
10.646998405456543 13.350641250610352 1.277975082397461 0.000000000000000
10.649385452270508 12.473681449890137 1.290809273719788 0.000000000000000
10.650448799133301 -17.470170974731445 1.057975053787231 0.000000000000000
10.651034355163574 -19.904115676879883 1.820285320281982 1.000000000000000
10.656302452087402 -12.981506347656250 1.522565364837646 0.000000000000000
10.657212257385254 -15.003915786743164 -0.674830496311188 0.000000000000000
10.657937049865723 -6.971171379089355 -0.344608157873154 1.000000000000000
10.659401893615723 10.620769500732422 0.373005717992783 0.000000000000000
10.659856796264648 -19.261798858642578 -0.638000309467316 1.000000000000000
10.661561012268066 -17.180601119995117 -0.081168070435524 0.000000000000000
10.661694526672363 -16.420076370239258 1.087714195251465 1.000000000000000
10.665427207946777 -6.715858459472656 -1.313586592674255 1.000000000000000
10.674231529235840 8.289037704467773 -0.599518358707428 0.000000000000000
10.674908638000488 -19.643566131591797 0.382431864738464 1.000000000000000
10.677010536193848 -20.016437530517578 1.976791977882385 1.000000000000000
10.683657646179199 10.680678367614746 1.715868473052979 0.000000000000000
10.686203002929688 11.327237129211426 1.165432214736938 0.000000000000000
10.689378738403320 -4.608439922332764 -0.740515351295471 0.000000000000000
10.689500808715820 11.107645988464355 0.708113431930542 0.000000000000000
10.692009925842285 3.453636884689331 -0.671474695205688 0.000000000000000
10.693036079406738 11.880817413330078 0.795740902423859 0.000000000000000
10.693413734436035 7.505433559417725 -0.303318709135056 0.000000000000000
10.701684951782227 -15.381661415100098 -0.903340220451355 0.000000000000000
10.704628944396973 -12.765420913696289 1.510286569595337 0.000000000000000
10.710200309753418 10.788245201110840 1.020362257957458 0.000000000000000
10.714594841003418 10.717591285705566 1.855411291122437 0.000000000000000
10.716801643371582 -19.080724716186523 1.722334265708923 1.000000000000000
10.717109680175781 10.921433448791504 1.629850506782532 0.000000000000000
10.720996856689453 -19.039133071899414 1.846328735351562 1.000000000000000
10.721701622009277 7.950738906860352 -0.002329665469006 0.000000000000000
10.722100257873535 -14.839793205261230 -0.003195348894224 0.000000000000000
10.724928855895996 -6.701158046722412 -1.121980667114258 1.000000000000000
10.726083755493164 -10.548224449157715 1.154911041259766 0.000000000000000
10.727189064025879 -19.465982437133789 0.294834703207016 1.000000000000000
10.729684829711914 -6.726021766662598 -1.393594861030579 0.000000000000000
10.730539321899414 -9.135957717895508 -0.652279734611511 0.000000000000000
10.731125831604004 -17.410495758056641 -0.042834535241127 1.000000000000000
10.733586311340332 11.657162666320801 1.799833655357361 0.000000000000000
10.734204292297363 5.770353794097900 -0.353182882070541 0.000000000000000
10.735186576843262 4.426479339599609 -0.024320095777512 0.000000000000000
10.735982894897461 -17.789520263671875 -0.282881230115891 0.000000000000000
10.738404273986816 -16.005161285400391 0.292682558298111 0.000000000000000
10.747038841247559 -17.536890029907227 0.035897914320230 1.000000000000000
10.747393608093262 4.612781524658203 -0.541316330432892 0.000000000000000
10.753590583801270 -18.247961044311523 0.687837719917297 1.000000000000000
10.754381179809570 -19.490367889404297 1.022524476051331 1.000000000000000
10.758240699768066 -6.669870853424072 -0.927330017089844 1.000000000000000
10.759959220886230 -18.034250259399414 1.531108021736145 0.000000000000000
10.760448455810547 -2.385139703750610 -1.382583975791931 0.000000000000000
10.762063026428223 -22.102691650390625 0.467736124992371 1.000000000000000
10.762907028198242 -2.336069345474243 -0.764344990253448 1.000000000000000
10.764437675476074 -20.048694610595703 -0.440905392169952 1.000000000000000
10.766839027404785 -18.382490158081055 1.101558208465576 0.000000000000000
10.774089813232422 8.656709671020508 -1.039205193519592 0.000000000000000
10.775094985961914 -18.682584762573242 1.822416067123413 1.000000000000000
10.776148796081543 -9.164412498474121 -0.627526581287384 0.000000000000000
10.780494689941406 -19.107334136962891 -0.762284815311432 0.000000000000000
10.780522346496582 -17.767147064208984 -1.322058677673340 0.000000000000000
10.786058425903320 -7.063309192657471 -0.770501673221588 1.000000000000000
10.789011955261230 -10.643868446350098 1.440640807151794 0.000000000000000
10.789939880371094 -16.745275497436523 1.735812902450562 1.000000000000000
10.791856765747070 -15.982731819152832 -1.226827740669250 0.000000000000000
10.792776107788086 -18.164102554321289 -0.693525314331055 0.000000000000000
10.797593116760254 8.603885650634766 -0.214476987719536 0.000000000000000
10.800956726074219 7.190007686614990 -0.575587272644043 0.000000000000000
10.801716804504395 -17.002407073974609 1.663172721862793 0.000000000000000
10.803033828735352 12.564560890197754 1.765000700950623 0.000000000000000
10.803581237792969 -19.693143844604492 1.724406123161316 1.000000000000000
10.805045127868652 -11.073113441467285 1.277414083480835 0.000000000000000
10.805298805236816 -11.282631874084473 0.657494366168976 0.000000000000000
10.806568145751953 -15.873951911926270 1.673311114311218 0.000000000000000
10.807699203491211 11.282767295837402 1.416390299797058 0.000000000000000
10.807835578918457 -12.872974395751953 2.491043806076050 0.000000000000000
10.809053421020508 -17.799455642700195 -1.284620523452759 0.000000000000000
10.811541557312012 -16.497873306274414 1.476194143295288 0.000000000000000
10.812488555908203 -19.164041519165039 -0.426337718963623 1.000000000000000
10.818484306335449 4.940757274627686 -0.253282606601715 0.000000000000000
10.819800376892090 10.400491714477539 1.837425947189331 0.000000000000000
10.822267532348633 11.774076461791992 0.796138644218445 0.000000000000000
10.830722808837891 -16.021595001220703 0.590859234333038 0.000000000000000
10.834843635559082 11.380891799926758 0.570700705051422 0.000000000000000
10.836323738098145 -16.391162872314453 1.971655130386353 1.000000000000000
10.850189208984375 -15.365176200866699 -1.196607828140259 0.000000000000000
10.851712226867676 -17.805202484130859 -0.924981296062469 1.000000000000000
10.851799964904785 -12.443158149719238 1.331296682357788 0.000000000000000
10.855483055114746 10.924676895141602 1.749274015426636 0.000000000000000
10.858081817626953 -17.602025985717773 0.314061343669891 0.000000000000000
10.860002517700195 11.116228103637695 0.923281729221344 0.000000000000000
10.861761093139648 8.054601669311523 -0.210065662860870 0.000000000000000
10.865298271179199 -16.971311569213867 1.663830995559692 0.000000000000000
10.873470306396484 -15.020004272460938 -0.216843143105507 0.000000000000000
10.875146865844727 8.233172416687012 -0.657570064067841 0.000000000000000
10.876292228698730 8.981359481811523 -0.435883194208145 0.000000000000000
10.877066612243652 10.036358833312988 -0.030997024849057 0.000000000000000
10.882177352905273 -16.641119003295898 0.989853084087372 1.000000000000000
10.884040832519531 -18.155689239501953 0.402753740549088 0.000000000000000
10.884573936462402 11.778165817260742 0.459171146154404 0.000000000000000
10.885116577148438 -1.507723808288574 -0.255133092403412 0.000000000000000
10.888710021972656 12.815024375915527 2.492216587066650 0.000000000000000
10.890580177307129 -17.948530197143555 0.278493314981461 1.000000000000000
10.895835876464844 -19.377302169799805 1.706647634506226 1.000000000000000
10.895923614501953 12.000528335571289 0.308399915695190 0.000000000000000
10.899310111999512 -34.461212158203125 2.286638259887695 0.000000000000000
10.899850845336914 -18.003461837768555 1.047728776931763 1.000000000000000
10.900421142578125 7.564434528350830 -0.002315702848136 0.000000000000000
10.902732849121094 -17.207824707031250 -0.199109598994255 1.000000000000000
10.903209686279297 12.346403121948242 0.820004880428314 0.000000000000000
10.903267860412598 12.591963768005371 1.310894608497620 0.000000000000000
10.903911590576172 10.396729469299316 1.069379687309265 0.000000000000000
10.905768394470215 12.819673538208008 0.190948903560638 0.000000000000000
10.914064407348633 -1.550580739974976 -0.086581408977509 0.000000000000000
10.914274215698242 -16.419839859008789 -0.382014721632004 0.000000000000000
10.918013572692871 4.490283012390137 -0.251408934593201 0.000000000000000
10.918853759765625 11.941762924194336 0.307867288589478 0.000000000000000
10.928207397460938 -18.509542465209961 1.774753093719482 0.000000000000000
10.928926467895508 11.560246467590332 0.333235800266266 0.000000000000000
10.933987617492676 -17.401920318603516 2.334321498870850 1.000000000000000
10.934632301330566 -2.652639627456665 -1.311827540397644 1.000000000000000
10.939385414123535 -4.416245460510254 -0.795977056026459 1.000000000000000
10.940196990966797 -19.009456634521484 0.375180035829544 0.000000000000000
10.941556930541992 11.597909927368164 0.701731204986572 0.000000000000000
10.941574096679688 13.223277091979980 1.185113191604614 0.000000000000000
10.945317268371582 -14.645824432373047 0.067014209926128 0.000000000000000
10.950052261352539 -19.863834381103516 1.976444721221924 1.000000000000000
10.950360298156738 -16.160243988037109 -0.528218865394592 0.000000000000000
10.951361656188965 13.328623771667480 0.858787596225739 0.000000000000000
10.952523231506348 -18.902456283569336 2.192103624343872 1.000000000000000
10.952960968017578 5.306904315948486 -0.352719396352768 0.000000000000000
10.953857421875000 -17.252531051635742 -0.395962506532669 0.000000000000000
10.955127716064453 -15.385770797729492 -1.237950563430786 0.000000000000000
10.957347869873047 5.226624011993408 -0.538538336753845 0.000000000000000
10.957891464233398 -14.686154365539551 0.102339997887611 0.000000000000000
10.958131790161133 -19.422178268432617 0.938556849956512 0.000000000000000
10.958242416381836 -16.156082153320312 -0.490740567445755 0.000000000000000
10.958913803100586 -15.681221008300781 -0.186990201473236 0.000000000000000
10.959285736083984 11.246494293212891 1.672641038894653 0.000000000000000
10.960555076599121 -18.128005981445312 1.749079704284668 1.000000000000000
10.961135864257812 11.377591133117676 0.209573000669479 0.000000000000000
10.963257789611816 8.498154640197754 -0.828963458538055 0.000000000000000
10.967522621154785 11.202795028686523 0.569394052028656 0.000000000000000
10.969155311584473 -20.571041107177734 -1.483062267303467 1.000000000000000
10.977107048034668 9.890076637268066 -0.371422857046127 0.000000000000000
10.978754043579102 10.935158729553223 0.622363865375519 0.000000000000000
10.983448028564453 12.456526756286621 0.156524404883385 0.000000000000000
10.984884262084961 -16.708906173706055 0.380458831787109 0.000000000000000
10.985054969787598 -18.157073974609375 1.465341091156006 1.000000000000000
10.991600036621094 8.376996040344238 -0.055476892739534 0.000000000000000
10.994239807128906 -16.956844329833984 2.474205732345581 1.000000000000000
10.995586395263672 -15.357339859008789 -0.075821094214916 0.000000000000000
10.996511459350586 12.009429931640625 0.528796374797821 0.000000000000000
10.999823570251465 -11.450088500976562 0.271601885557175 0.000000000000000
11.000201225280762 6.798112392425537 -0.474169582128525 0.000000000000000
11.001999855041504 -19.031465530395508 -0.763812661170959 0.000000000000000
11.004505157470703 15.495151519775391 3.953094005584717 0.000000000000000
11.013607978820801 -17.824892044067383 0.680437445640564 1.000000000000000
11.016132354736328 7.662685394287109 -0.363109886646271 0.000000000000000
11.019906044006348 -16.463825225830078 -0.421910554170609 1.000000000000000
11.021974563598633 -9.190009117126465 -1.328740358352661 1.000000000000000
11.022078514099121 -15.143339157104492 0.284422576427460 1.000000000000000
11.022850990295410 -10.842718124389648 1.246744394302368 0.000000000000000
11.023271560668945 -16.314401626586914 1.715673565864563 1.000000000000000
11.024233818054199 -9.168107032775879 -1.494370460510254 1.000000000000000
11.024427413940430 -20.201768875122070 -0.799649000167847 1.000000000000000
11.024550437927246 -20.946235656738281 1.817178606987000 1.000000000000000
11.027117729187012 8.163213729858398 -0.055075466632843 0.000000000000000
11.028594970703125 -14.122052192687988 2.193730831146240 0.000000000000000
11.028988838195801 -15.946903228759766 0.853333294391632 0.000000000000000
11.030890464782715 12.193574905395508 0.660408854484558 0.000000000000000
11.032061576843262 -19.225698471069336 0.294038861989975 1.000000000000000
11.037673950195312 -11.365359306335449 1.436252951622009 0.000000000000000
11.040691375732422 8.637738227844238 -0.783733963966370 0.000000000000000
11.041361808776855 10.808355331420898 0.947728157043457 0.000000000000000
11.042401313781738 -19.848247528076172 -0.701885640621185 1.000000000000000
11.042809486389160 -20.536191940307617 -1.124071121215820 1.000000000000000
11.046087265014648 13.625218391418457 1.448240637779236 0.000000000000000
11.047222137451172 12.149685859680176 0.785894453525543 0.000000000000000
11.047421455383301 6.408088207244873 -0.468306601047516 0.000000000000000
11.049092292785645 -15.011843681335449 2.480443000793457 0.000000000000000
11.050527572631836 -15.983413696289062 0.892575323581696 1.000000000000000
11.051413536071777 11.032531738281250 1.228983402252197 0.000000000000000
11.054088592529297 10.683765411376953 1.299031376838684 0.000000000000000
11.058047294616699 6.564221858978271 -0.101001173257828 0.000000000000000
11.058767318725586 8.127042770385742 -0.055091526359320 0.000000000000000
11.063974380493164 -17.739797592163086 -0.605903327465057 1.000000000000000
11.065710067749023 7.704631328582764 -0.338954776525497 0.000000000000000
11.066390991210938 -15.887513160705566 0.294018715620041 0.000000000000000
11.067215919494629 -2.695441007614136 -1.428885817527771 1.000000000000000
11.069699287414551 7.900023937225342 -0.106813058257103 0.000000000000000
11.071629524230957 -12.304059982299805 1.206794619560242 0.000000000000000
11.071941375732422 -20.763799667358398 -0.772391617298126 1.000000000000000
11.073319435119629 10.863506317138672 1.406278371810913 0.000000000000000
11.074589729309082 -16.401458740234375 0.262523353099823 0.000000000000000
11.076756477355957 -19.670917510986328 -0.871197521686554 1.000000000000000
11.078841209411621 -20.808223724365234 -0.819095015525818 1.000000000000000
11.086338996887207 -18.225940704345703 0.364917993545532 0.000000000000000
11.087374687194824 -17.635108947753906 -0.843939065933228 1.000000000000000
11.090271949768066 -15.687143325805664 1.474869370460510 1.000000000000000
11.092164993286133 8.662406921386719 -0.245660066604614 0.000000000000000
11.095538139343262 -20.507078170776367 -0.854970991611481 1.000000000000000
11.101120948791504 -14.212876319885254 3.082681894302368 0.000000000000000
11.101865768432617 -15.377269744873047 3.944948434829712 0.000000000000000
11.103755950927734 -17.761444091796875 0.237642452120781 1.000000000000000
11.104928016662598 5.269205570220947 -0.096540160477161 0.000000000000000
11.105043411254883 9.105250358581543 -0.664670586585999 0.000000000000000
11.106418609619141 -17.546911239624023 2.358698606491089 1.000000000000000
11.109229087829590 -20.362232208251953 -0.137647032737732 1.000000000000000
11.110918045043945 12.263095855712891 2.828599691390991 0.000000000000000
11.113601684570312 -15.465073585510254 -1.101415276527405 0.000000000000000
11.117605209350586 -14.258591651916504 2.406045675277710 0.000000000000000
11.119644165039062 -17.546112060546875 2.764314174652100 0.000000000000000
11.126203536987305 -16.487825393676758 0.225662752985954 1.000000000000000
11.126351356506348 -17.642383575439453 -1.326883673667908 0.000000000000000
11.128800392150879 11.652956008911133 0.461346238851547 0.000000000000000
11.129904747009277 -19.778221130371094 1.873825907707214 0.000000000000000
11.130801200866699 -17.563718795776367 -1.122508049011230 1.000000000000000
11.131444931030273 -15.013671875000000 -0.721267640590668 1.000000000000000
11.135200500488281 -15.653699874877930 2.846991062164307 0.000000000000000
11.135542869567871 -18.051818847656250 0.648027300834656 0.000000000000000
11.136385917663574 -15.795024871826172 1.073734998703003 1.000000000000000
11.140634536743164 -15.008535385131836 -0.685383915901184 0.000000000000000
11.141068458557129 7.140916824340820 -0.536124706268311 0.000000000000000
11.145667076110840 13.470889091491699 1.241001605987549 0.000000000000000
11.147564888000488 -17.594245910644531 2.550036191940308 1.000000000000000
11.150691032409668 12.735535621643066 0.159540280699730 0.000000000000000
11.154788970947266 -20.445739746093750 -0.496004641056061 1.000000000000000
11.155448913574219 -16.766164779663086 0.267139256000519 0.000000000000000
11.155966758728027 -17.944442749023438 0.320863664150238 1.000000000000000
11.156379699707031 11.027833938598633 1.920547604560852 0.000000000000000
11.159728050231934 -16.403789520263672 -0.041552763432264 0.000000000000000
11.160019874572754 -11.535972595214844 -1.206857562065125 0.000000000000000
11.160960197448730 10.241127014160156 0.929116427898407 0.000000000000000
11.161935806274414 -16.756248474121094 -0.312768608331680 0.000000000000000
11.164828300476074 -1.271281957626343 -0.260889351367950 0.000000000000000
11.165301322937012 12.492977142333984 0.834125757217407 0.000000000000000
11.167313575744629 -18.193447113037109 0.734275996685028 1.000000000000000
11.167600631713867 12.758456230163574 0.909380495548248 0.000000000000000
11.170690536499023 8.511020660400391 -0.110300190746784 0.000000000000000
11.171025276184082 -17.459587097167969 -0.720198035240173 1.000000000000000
11.173500061035156 13.348672866821289 0.531858801841736 0.000000000000000
11.173903465270996 5.469686985015869 -0.527949750423431 0.000000000000000
11.178564071655273 -15.059633255004883 1.042004466056824 1.000000000000000
11.178742408752441 -18.731693267822266 1.801084637641907 1.000000000000000
11.181917190551758 -18.075410842895508 -0.248555749654770 1.000000000000000
11.184890747070312 -10.018727302551270 1.838398098945618 0.000000000000000
11.185865402221680 -18.036733627319336 -1.432004690170288 1.000000000000000
11.193800926208496 10.878657341003418 0.296986162662506 0.000000000000000
11.193825721740723 -16.089019775390625 -0.041050110012293 0.000000000000000
11.195343017578125 5.654932498931885 -0.194843515753746 0.000000000000000
11.200741767883301 -15.861599922180176 1.453207850456238 0.000000000000000
11.201243400573730 -20.918273925781250 -0.596487998962402 1.000000000000000
11.205499649047852 11.987462997436523 0.785320818424225 0.000000000000000
11.206841468811035 -16.276826858520508 -1.409609317779541 0.000000000000000
11.207641601562500 -15.778846740722656 1.075288295745850 0.000000000000000
11.207835197448730 7.808234691619873 -0.107284292578697 0.000000000000000
11.208394050598145 -20.028783798217773 -0.444702327251434 1.000000000000000
11.210453033447266 -16.008998870849609 1.771751761436462 1.000000000000000
11.213224411010742 -17.294591903686523 -1.470228552818298 1.000000000000000
11.216413497924805 18.373998641967773 -1.037781953811646 0.000000000000000
11.218546867370605 6.430382728576660 -0.176045224070549 0.000000000000000
11.219022750854492 -21.076831817626953 0.958989381790161 1.000000000000000
11.221161842346191 11.461874961853027 1.963809609413147 0.000000000000000
11.222572326660156 10.993031501770020 0.570555508136749 0.000000000000000
11.224291801452637 -15.504610061645508 -0.517940104007721 0.000000000000000
11.225095748901367 -16.870840072631836 -0.042440790683031 0.000000000000000
11.225139617919922 -20.071855545043945 0.923673391342163 1.000000000000000
11.225688934326172 10.045391082763672 0.344481945037842 0.000000000000000
11.225694656372070 -17.372882843017578 2.075489521026611 1.000000000000000
11.226143836975098 -14.804913520812988 0.068099111318588 0.000000000000000
11.226466178894043 -20.279785156250000 -1.295952081680298 1.000000000000000
11.227296829223633 -16.118518829345703 0.902303159236908 1.000000000000000
11.235999107360840 11.611268043518066 0.276390820741653 0.000000000000000
11.242729187011719 -18.297685623168945 0.119943998754025 0.000000000000000
11.243132591247559 -19.195676803588867 1.493173837661743 0.000000000000000
11.246697425842285 -3.944708585739136 -0.781175017356873 1.000000000000000
11.248222351074219 -15.928838729858398 0.558309078216553 0.000000000000000
11.250426292419434 -20.269599914550781 0.263008534908295 1.000000000000000
11.251566886901855 -10.381192207336426 2.037224054336548 0.000000000000000
11.253841400146484 10.702285766601562 0.743253469467163 0.000000000000000
11.254350662231445 13.864292144775391 2.028254985809326 0.000000000000000
11.256058692932129 4.934273242950439 -0.734470188617706 0.000000000000000
11.258242607116699 -16.043249130249023 0.900284111499786 1.000000000000000
11.259754180908203 11.019435882568359 0.541906714439392 0.000000000000000
11.260469436645508 -19.649160385131836 1.607467889785767 1.000000000000000
11.264157295227051 -12.031247138977051 1.392661333084106 0.000000000000000
11.264451980590820 -19.260591506958008 0.381679356098175 1.000000000000000
11.266388893127441 -19.896255493164062 0.391120404005051 1.000000000000000
11.268258094787598 10.951018333435059 1.266998291015625 0.000000000000000
11.272782325744629 11.136672019958496 2.708635330200195 0.000000000000000
11.275328636169434 13.723892211914062 1.226444721221924 0.000000000000000
11.278237342834473 -17.359001159667969 1.509293079376221 1.000000000000000
11.286684036254883 -17.580141067504883 1.644189000129700 1.000000000000000
11.287084579467773 8.483212471008301 -0.680683255195618 0.000000000000000
11.289456367492676 10.914298057556152 1.023702502250671 0.000000000000000
11.294228553771973 12.407413482666016 0.254783838987350 0.000000000000000
11.296299934387207 -17.418729782104492 2.762731075286865 0.000000000000000
11.297073364257812 -17.135509490966797 1.456803202629089 1.000000000000000
11.297108650207520 -15.273853302001953 -0.623582243919373 0.000000000000000
11.298053741455078 8.938364982604980 -0.223796680569649 0.000000000000000
11.298427581787109 -17.937429428100586 -0.451463013887405 1.000000000000000
11.299944877624512 4.737071990966797 -0.284471511840820 0.000000000000000
11.300546646118164 10.689393043518066 -0.630201578140259 0.000000000000000
11.301482200622559 -16.148584365844727 1.399029493331909 1.000000000000000
11.302501678466797 11.425070762634277 0.738214671611786 0.000000000000000
11.306397438049316 14.028192520141602 0.619734466075897 0.000000000000000
11.307677268981934 -16.727140426635742 2.025968551635742 0.000000000000000
11.308594703674316 -19.189758300781250 2.372540473937988 1.000000000000000
11.310234069824219 -20.410919189453125 1.161690115928650 1.000000000000000
11.314145088195801 11.570577621459961 0.183597728610039 0.000000000000000
11.314526557922363 -15.186238288879395 -0.621613860130310 0.000000000000000
11.324566841125488 -16.368175506591797 0.569871366024017 0.000000000000000
11.330159187316895 4.257380485534668 -0.095063626766205 0.000000000000000
11.331981658935547 -20.585557937622070 0.266593366861343 1.000000000000000
11.332314491271973 10.615361213684082 0.713252604007721 0.000000000000000
11.332771301269531 8.041587829589844 -0.002425309503451 0.000000000000000
11.333948135375977 10.877982139587402 2.090515851974487 0.000000000000000
11.334371566772461 -19.301982879638672 -0.433699041604996 0.000000000000000
11.336003303527832 -15.805385589599609 1.951686978340149 0.000000000000000
11.338654518127441 -17.084154129028320 1.336746096611023 0.000000000000000
11.341736793518066 -17.012002944946289 -0.278361678123474 1.000000000000000
11.343050003051758 -21.347549438476562 -0.932897090911865 1.000000000000000
11.344701766967773 5.238143444061279 -0.098142348229885 0.000000000000000
11.345786094665527 4.849692821502686 -0.476166218519211 0.000000000000000
11.348889350891113 11.275449752807617 1.104654550552368 0.000000000000000
11.351911544799805 -18.581369400024414 0.247035607695580 1.000000000000000
11.352678298950195 -19.228485107421875 1.498799324035645 0.000000000000000
11.359313964843750 -16.622200012207031 -1.436076760292053 0.000000000000000
11.363206863403320 4.021917343139648 -0.906342864036560 0.000000000000000
11.364407539367676 -15.755977630615234 0.817620873451233 0.000000000000000
11.367244720458984 -15.260885238647461 1.497627377510071 1.000000000000000
11.370357513427734 -15.964803695678711 -0.003420845372602 0.000000000000000
11.371494293212891 -16.393163681030273 1.339141607284546 0.000000000000000
11.372323989868164 11.508498191833496 0.525420784950256 0.000000000000000
11.373122215270996 -15.869417190551758 1.855875372886658 1.000000000000000
11.374425888061523 -15.229984283447266 1.019491553306580 0.000000000000000
11.376585960388184 9.047406196594238 -0.114164307713509 0.000000000000000
11.380053520202637 10.112218856811523 1.051199078559875 0.000000000000000
11.381167411804199 -16.850425720214844 3.013530015945435 0.000000000000000
11.386504173278809 -16.314888000488281 1.604243040084839 1.000000000000000
11.388347625732422 10.917982101440430 0.785398781299591 0.000000000000000
11.391151428222656 -16.870286941528320 -0.042633473873138 0.000000000000000
11.394493103027344 -20.949405670166016 0.453735232353210 1.000000000000000
11.395726203918457 -16.654258728027344 0.073963396251202 0.000000000000000
11.399714469909668 12.611456871032715 0.519399106502533 0.000000000000000
11.401380538940430 -12.715078353881836 1.939775705337524 0.000000000000000
11.407400131225586 14.222979545593262 1.829481959342957 0.000000000000000
11.409337997436523 10.078522682189941 0.143480703234673 0.000000000000000
11.409595489501953 -16.662046432495117 0.849915385246277 0.000000000000000
11.416870117187500 11.433622360229492 1.464782953262329 0.000000000000000
11.418005943298340 10.078377723693848 1.286906599998474 0.000000000000000
11.418266296386719 6.461192607879639 -0.103043191134930 0.000000000000000
11.419804573059082 -16.836578369140625 2.490732908248901 0.000000000000000
11.420270919799805 4.586523056030273 -0.167550623416901 0.000000000000000
11.422804832458496 5.819959163665771 -0.002237512264401 0.000000000000000
11.423039436340332 -17.298969268798828 0.274991601705551 1.000000000000000
11.423583030700684 -19.849376678466797 -0.311795562505722 1.000000000000000
11.430090904235840 9.545516967773438 -0.088370390236378 0.000000000000000
11.430136680603027 -6.001464843750000 -0.821271181106567 1.000000000000000
11.430295944213867 -15.065413475036621 2.315253734588623 0.000000000000000
11.430572509765625 6.209908962249756 -0.302018910646439 0.000000000000000
11.434112548828125 10.374372482299805 -0.388109236955643 0.000000000000000
11.439196586608887 -16.345363616943359 -0.731554985046387 0.000000000000000
11.440186500549316 -17.091728210449219 0.193845957517624 1.000000000000000
11.441607475280762 -0.831787049770355 -0.310417830944061 0.000000000000000
11.442207336425781 -19.966287612915039 -0.843831360340118 1.000000000000000
11.442369461059570 7.134445667266846 -0.727926850318909 0.000000000000000
11.442623138427734 -17.323371887207031 1.809078812599182 1.000000000000000
11.447623252868652 -17.179271697998047 0.908557295799255 1.000000000000000
11.452596664428711 -19.385358810424805 1.207580089569092 1.000000000000000
11.453296661376953 -16.795574188232422 0.347746193408966 0.000000000000000
11.453860282897949 8.932335853576660 -0.448855906724930 0.000000000000000
11.455066680908203 -33.360580444335938 3.757086992263794 1.000000000000000
11.460876464843750 10.398654937744141 -0.151257604360580 0.000000000000000
11.461032867431641 12.038639068603516 0.859475672245026 0.000000000000000
11.461555480957031 -19.531063079833984 0.909547030925751 1.000000000000000
11.462997436523438 -16.335029602050781 2.002406120300293 0.000000000000000
11.465088844299316 -2.334265708923340 -1.467719674110413 1.000000000000000
11.471075057983398 9.683860778808594 0.487510502338409 0.000000000000000
11.471673011779785 -16.514183044433594 -0.119322575628757 0.000000000000000
11.475337028503418 -16.383605957031250 2.448929071426392 1.000000000000000
11.475817680358887 7.982436656951904 -0.163474291563034 0.000000000000000
11.476023674011230 -20.414957046508789 -0.633711159229279 1.000000000000000
11.476029396057129 10.148849487304688 1.264906525611877 0.000000000000000
11.482824325561523 -11.316094398498535 0.988869845867157 0.000000000000000
11.484139442443848 -10.288943290710449 1.124189257621765 0.000000000000000
11.484162330627441 -20.116743087768555 0.040428787469864 1.000000000000000
11.485477447509766 -20.257593154907227 -0.988231003284454 1.000000000000000
11.486887931823730 8.563315391540527 -0.112530700862408 0.000000000000000
11.487085342407227 -18.986875534057617 -0.174293786287308 1.000000000000000
11.487561225891113 11.107370376586914 0.150605723261833 0.000000000000000
11.490341186523438 -19.154926300048828 -0.561506927013397 1.000000000000000
11.490628242492676 -19.618234634399414 0.126981124281883 1.000000000000000
11.490651130676270 -14.882726669311523 1.189536690711975 1.000000000000000
11.492983818054199 -17.393009185791016 0.837309718132019 1.000000000000000
11.493766784667969 -15.944710731506348 -0.418589085340500 0.000000000000000
11.495450973510742 -14.850862503051758 1.224331498146057 1.000000000000000
11.496054649353027 8.865303039550781 -0.811644732952118 0.000000000000000
11.496209144592285 -19.452968597412109 1.473101019859314 1.000000000000000
11.498785018920898 -16.245727539062500 2.120034217834473 1.000000000000000
11.499102592468262 -12.869181632995605 1.258277535438538 0.000000000000000
11.499743461608887 9.520527839660645 -0.662270963191986 0.000000000000000
11.501051902770996 -19.160652160644531 -0.862405300140381 1.000000000000000
11.508083343505859 -19.742738723754883 -0.047861080616713 1.000000000000000
11.510017395019531 -20.986940383911133 -1.384332895278931 1.000000000000000
11.510531425476074 -10.243983268737793 1.396888732910156 0.000000000000000
11.511301040649414 -19.497150421142578 1.170754194259644 1.000000000000000
11.514543533325195 -15.235453605651855 -0.847160875797272 1.000000000000000
11.517844200134277 12.440758705139160 0.941931247711182 0.000000000000000
11.519697189331055 -16.681301116943359 0.892201125621796 1.000000000000000
11.520986557006836 -21.111690521240234 1.012228488922119 1.000000000000000
11.523699760437012 -15.429856300354004 1.329773664474487 0.000000000000000
11.526350975036621 -15.776475906372070 1.273773193359375 1.000000000000000
11.527202606201172 -18.488998413085938 0.414547979831696 0.000000000000000
11.527393341064453 4.262053012847900 -0.734470188617706 0.000000000000000
11.528085708618164 -15.051413536071777 -0.585872471332550 0.000000000000000
11.528992652893066 4.237731933593750 -0.143642216920853 0.000000000000000
11.529435157775879 -20.474817276000977 -1.268481612205505 1.000000000000000
11.533136367797852 8.595288276672363 -0.085355870425701 0.000000000000000
11.533196449279785 -17.887788772583008 1.551759243011475 1.000000000000000
11.535374641418457 -10.852156639099121 1.939018964767456 0.000000000000000
11.535579681396484 10.697782516479492 0.783211112022400 0.000000000000000
11.541214942932129 -17.900224685668945 -1.395964622497559 1.000000000000000
11.544300079345703 -13.631369590759277 1.902692675590515 0.000000000000000
11.544399261474609 -19.434478759765625 0.386673539876938 1.000000000000000
11.544984817504883 -5.910918712615967 -1.226043224334717 0.000000000000000
11.548766136169434 -20.588920593261719 -1.092619419097900 1.000000000000000
11.549697875976562 -16.235193252563477 1.491120338439941 0.000000000000000
11.550382614135742 -20.207340240478516 -0.629816055297852 1.000000000000000
11.553941726684570 -17.644168853759766 2.582118034362793 1.000000000000000
11.556694984436035 5.372780799865723 -0.295891225337982 0.000000000000000
11.557362556457520 12.710735321044922 -1.291733503341675 0.000000000000000
11.562420845031738 10.119289398193359 1.745211124420166 0.000000000000000
11.562525749206543 -9.807815551757812 1.281181097030640 0.000000000000000
11.563559532165527 -20.785007476806641 -0.369494408369064 1.000000000000000
11.566743850708008 11.869871139526367 0.283505827188492 0.000000000000000
11.567453384399414 -17.097265243530273 1.305964827537537 1.000000000000000
11.570658683776855 7.878477573394775 -0.620967686176300 0.000000000000000
11.571989059448242 -20.692064285278320 -0.869335293769836 1.000000000000000
11.573807716369629 -34.093383789062500 3.835041999816895 0.000000000000000
11.575893402099609 5.723178863525391 -0.523170948028564 0.000000000000000
11.575936317443848 -16.033906936645508 -0.041418723762035 0.000000000000000
11.577041625976562 -19.828409194946289 2.303925037384033 1.000000000000000
11.581320762634277 -5.810115337371826 -0.425300925970078 1.000000000000000
11.584335327148438 10.584628105163574 0.087640210986137 0.000000000000000
11.585165977478027 -14.880729675292969 2.142014265060425 0.000000000000000
11.586611747741699 -10.061085700988770 1.634510874748230 0.000000000000000
11.587464332580566 9.493687629699707 -0.031374014914036 0.000000000000000
11.588904380798340 -12.833796501159668 1.394309043884277 0.000000000000000
11.590312957763672 -17.456716537475586 1.043154478073120 1.000000000000000
11.590654373168945 -20.689825057983398 -0.778427958488464 1.000000000000000
11.592646598815918 -17.036304473876953 -1.430100440979004 0.000000000000000
11.593190193176270 -5.807714939117432 -0.375778287649155 1.000000000000000
11.597997665405273 -5.792155265808105 -0.052040696144104 1.000000000000000
11.598120689392090 -15.475916862487793 0.888353765010834 1.000000000000000
11.599020957946777 -16.687559127807617 0.230563551187515 0.000000000000000
11.599244117736816 -5.887687206268311 -0.027243869379163 1.000000000000000
11.599630355834961 -19.268442153930664 -1.430748820304871 0.000000000000000
11.602904319763184 -15.201246261596680 2.544815301895142 0.000000000000000
11.603054046630859 -17.075939178466797 -1.392959833145142 0.000000000000000
11.604322433471680 -16.179492950439453 0.608327209949493 0.000000000000000
11.604984283447266 10.312089920043945 0.593683540821075 0.000000000000000
11.608346939086914 -16.509658813476562 2.292338848114014 0.000000000000000
11.609421730041504 -16.937370300292969 0.272391855716705 0.000000000000000
11.611612319946289 -17.521957397460938 0.399938315153122 0.000000000000000
11.611660957336426 5.546933650970459 -0.298769384622574 0.000000000000000
11.612288475036621 -16.528135299682617 1.277931213378906 0.000000000000000
11.613230705261230 -16.672586441040039 0.620786964893341 0.000000000000000
11.614465713500977 -16.288290023803711 0.957414507865906 1.000000000000000
11.617506027221680 10.918728828430176 1.347193479537964 0.000000000000000
11.617808341979980 -20.197463989257812 -0.406710892915726 1.000000000000000
11.621857643127441 -11.686538696289062 0.281932353973389 0.000000000000000
11.621894836425781 7.839358329772949 -0.190856337547302 0.000000000000000
11.626529693603516 -16.345611572265625 -1.082834362983704 1.000000000000000
11.632268905639648 -20.764108657836914 -0.415437072515488 1.000000000000000
11.632773399353027 10.407481193542480 1.047686219215393 0.000000000000000
11.633104324340820 -17.960039138793945 2.430475234985352 1.000000000000000
11.634232521057129 9.821598052978516 -0.441246867179871 0.000000000000000
11.637992858886719 -15.305289268493652 1.929322719573975 1.000000000000000
11.638372421264648 -16.158391952514648 0.761516809463501 0.000000000000000
11.639760971069336 -16.855161666870117 1.947098255157471 1.000000000000000
11.640429496765137 9.702224731445312 -0.439161151647568 0.000000000000000
11.645032882690430 -11.686567306518555 0.853072464466095 0.000000000000000
11.651102066040039 -17.351095199584961 0.036477364599705 1.000000000000000
11.651155471801758 -10.801179885864258 1.189015388488770 0.000000000000000
11.652292251586914 8.713225364685059 -0.253967434167862 0.000000000000000
11.653076171875000 -16.156196594238281 -0.385966598987579 0.000000000000000
11.655747413635254 -20.841833114624023 -1.243121862411499 1.000000000000000
11.656449317932129 10.283055305480957 1.903048276901245 0.000000000000000
11.657380104064941 -15.459755897521973 0.256846278905869 0.000000000000000
11.657837867736816 -20.316246032714844 -0.768848538398743 1.000000000000000
11.661789894104004 7.412508010864258 -0.400459349155426 0.000000000000000
11.664978981018066 9.439717292785645 0.949356317520142 0.000000000000000
11.666063308715820 11.926307678222656 0.830545783042908 0.000000000000000
11.668166160583496 9.130607604980469 -0.343984007835388 0.000000000000000
11.668439865112305 -17.476919174194336 1.613262653350830 0.000000000000000
11.670422554016113 -14.448857307434082 2.273936271667480 0.000000000000000
11.671824455261230 -9.492877960205078 1.242195487022400 0.000000000000000
11.673403739929199 -16.570198059082031 0.775120735168457 0.000000000000000
11.673979759216309 -17.263156890869141 0.917174994945526 1.000000000000000
11.675929069519043 15.044931411743164 1.351734399795532 0.000000000000000
11.678987503051758 -17.532444000244141 2.113828420639038 1.000000000000000
11.681756019592285 5.710451602935791 -0.177025377750397 0.000000000000000
11.683214187622070 11.727764129638672 0.251382678747177 0.000000000000000
11.684747695922852 14.362199783325195 1.857836723327637 0.000000000000000
11.686100959777832 -15.739938735961914 -0.078695289790630 0.000000000000000
11.690271377563477 7.162124633789062 -0.529073536396027 0.000000000000000
11.690880775451660 11.079513549804688 -0.188357949256897 0.000000000000000
11.692497253417969 -15.848887443542480 1.872151613235474 1.000000000000000
11.695830345153809 -15.301936149597168 -0.077314391732216 0.000000000000000
11.703218460083008 -17.223348617553711 -0.443457454442978 1.000000000000000
11.706233978271484 -17.217443466186523 -0.403401345014572 0.000000000000000
11.709212303161621 -15.771067619323730 0.826703727245331 1.000000000000000
11.710631370544434 -15.277595520019531 1.217822909355164 0.000000000000000
11.711051940917969 -16.532768249511719 0.385480910539627 0.000000000000000
11.713704109191895 4.814654350280762 -0.294034361839294 0.000000000000000
11.717176437377930 14.537858009338379 2.120797395706177 0.000000000000000
11.719758987426758 -18.071697235107422 1.820058465003967 1.000000000000000
11.720888137817383 14.165105819702148 0.986072599887848 0.000000000000000
11.720972061157227 -15.265134811401367 -0.483804643154144 0.000000000000000
11.723223686218262 -15.483457565307617 -0.861519515514374 0.000000000000000
11.723736763000488 11.473516464233398 0.060123670846224 0.000000000000000
11.724167823791504 14.271216392517090 1.310953021049500 0.000000000000000
11.729649543762207 -17.524187088012695 1.171589374542236 1.000000000000000
11.733241081237793 -17.948041915893555 2.853485584259033 0.000000000000000
11.733777046203613 -17.600044250488281 0.686928927898407 1.000000000000000
11.739185333251953 -19.606206893920898 0.742106497287750 1.000000000000000
11.741645812988281 -15.150340080261230 -0.408198863267899 1.000000000000000
11.742143630981445 -17.558759689331055 1.377080202102661 0.000000000000000
11.742814064025879 12.460741996765137 0.260007053613663 0.000000000000000
11.747385978698730 14.373994827270508 1.496864795684814 0.000000000000000
11.748634338378906 -20.487728118896484 1.721914649009705 1.000000000000000
11.748901367187500 9.125870704650879 -0.831740438938141 0.000000000000000
11.758899688720703 -17.557279586791992 -0.734226942062378 0.000000000000000
11.759037017822266 13.818778991699219 1.252897024154663 0.000000000000000
11.759800910949707 12.176780700683594 0.354597061872482 0.000000000000000
11.761178970336914 9.403625488281250 1.272424221038818 0.000000000000000
11.761808395385742 -16.972278594970703 -0.876298189163208 0.000000000000000
11.762191772460938 -16.853181838989258 2.334321498870850 1.000000000000000
11.763139724731445 11.596795082092285 1.331939578056335 0.000000000000000
11.763921737670898 -11.069488525390625 1.177708268165588 0.000000000000000
11.764091491699219 -15.330155372619629 2.194831132888794 0.000000000000000
11.766134262084961 -17.018463134765625 -0.957614004611969 1.000000000000000
11.766383171081543 -14.849737167358398 1.717580795288086 0.000000000000000
11.766676902770996 -21.040187835693359 0.227209195494652 1.000000000000000
11.771595001220703 12.491282463073730 0.524407386779785 0.000000000000000
11.774268150329590 -16.566780090332031 1.842535257339478 1.000000000000000
11.778233528137207 -17.252012252807617 -0.886473894119263 1.000000000000000
11.779875755310059 -11.805396080017090 -1.447344660758972 0.000000000000000
11.781513214111328 -18.226787567138672 0.955163478851318 0.000000000000000
11.786451339721680 -17.679052352905273 2.263234138488770 1.000000000000000
11.787290573120117 -17.814731597900391 1.351424813270569 1.000000000000000
11.794440269470215 -16.876783370971680 1.382002830505371 0.000000000000000
11.796750068664551 10.244282722473145 0.027269009500742 0.000000000000000
11.797468185424805 -15.213590621948242 -0.077282279729843 0.000000000000000
11.799741744995117 -15.699797630310059 0.109689891338348 0.000000000000000
11.804161071777344 9.552348136901855 1.195088982582092 0.000000000000000
11.804234504699707 13.577310562133789 0.169568091630936 0.000000000000000
11.805571556091309 -17.394870758056641 2.797555446624756 0.000000000000000
11.810300827026367 5.894578456878662 -0.103671498596668 0.000000000000000
11.816669464111328 -15.069272994995117 1.544124126434326 0.000000000000000
11.819333076477051 -16.718397140502930 0.940480291843414 0.000000000000000
11.824810981750488 -11.402746200561523 1.749748468399048 0.000000000000000
11.828481674194336 -11.874402046203613 1.028052449226379 0.000000000000000
11.831082344055176 11.836868286132812 0.639998137950897 0.000000000000000
11.832056045532227 -20.040426254272461 -0.585028648376465 0.000000000000000
11.832119941711426 -16.861036300659180 0.629337728023529 0.000000000000000
11.832808494567871 -14.575332641601562 1.999712586402893 0.000000000000000
11.834444999694824 -16.430614471435547 -0.781424760818481 1.000000000000000
11.836598396301270 12.048797607421875 0.775841176509857 0.000000000000000
11.841351509094238 -16.045969009399414 2.955476045608521 0.000000000000000
11.841445922851562 -16.417358398437500 1.475843787193298 1.000000000000000
11.842254638671875 -18.145898818969727 1.663476109504700 0.000000000000000
11.843878746032715 12.466892242431641 3.576764106750488 0.000000000000000
11.848670005798340 -17.046731948852539 -0.402239024639130 0.000000000000000
11.848871231079102 -16.042673110961914 -0.003480884712189 1.000000000000000
11.852751731872559 11.127365112304688 1.059872984886169 0.000000000000000
11.852895736694336 -21.194358825683594 -0.144103303551674 1.000000000000000
