# This PCD file was generated using the MATLAB® pcwrite function
# from Computer Vision Toolbox®.
# .PCD v.7 - Point Cloud Data file format
VERSION .7
FIELDS x y z intensity
SIZE 8 8 8 8
TYPE F F F F
COUNT 1 1 1 1
WIDTH 642
HEIGHT 1
VIEWPOINT 0 0 0 1 0 0 0
POINTS 642
DATA ascii
-4.021236896514893 -11.123101234436035 0.088767319917679 0.000000000000000
-4.020652294158936 -5.549829006195068 0.196215257048607 1.000000000000000
-4.019660472869873 8.947484016418457 1.114118218421936 0.000000000000000
-4.017300128936768 -5.265067577362061 0.265993535518646 0.000000000000000
-4.016351222991943 -6.610416412353516 0.280922353267670 0.000000000000000
-4.016320705413818 -5.253510475158691 0.599492073059082 0.000000000000000
-4.015134334564209 -6.645735263824463 0.491220563650131 0.000000000000000
-4.014110088348389 -11.571153640747070 0.633297860622406 1.000000000000000
-4.009598255157471 -3.792219161987305 0.381076842546463 0.000000000000000
-4.008829593658447 -10.420521736145020 2.322330713272095 0.000000000000000
-4.007896900177002 -8.110790252685547 0.485217124223709 0.000000000000000
-4.005592346191406 -6.682529449462891 0.372869610786438 0.000000000000000
-4.003137588500977 -10.080942153930664 1.854057312011719 0.000000000000000
-3.997806310653687 -10.826049804687500 1.972673654556274 0.000000000000000
-3.996532201766968 -2.242382764816284 0.399316847324371 0.000000000000000
-3.995486021041870 -7.071211338043213 0.404334187507629 0.000000000000000
-3.986284017562866 -6.383355140686035 1.115340232849121 0.000000000000000
-3.985934734344482 -6.510574817657471 0.527114987373352 1.000000000000000
-3.983008384704590 -5.650043487548828 0.657107830047607 0.000000000000000
-3.982096433639526 -10.448871612548828 0.923253357410431 0.000000000000000
-3.980114221572876 -7.041710376739502 1.076388835906982 0.000000000000000
-3.979770660400391 -6.342330932617188 0.257546633481979 0.000000000000000
-3.977159261703491 -10.556438446044922 1.671837568283081 0.000000000000000
-3.976007699966431 -8.228065490722656 0.419765532016754 1.000000000000000
-3.974978446960449 -5.815973281860352 0.323588371276855 0.000000000000000
-3.974877119064331 -9.884825706481934 1.417772769927979 1.000000000000000
-3.971172094345093 -12.550632476806641 0.048248473554850 0.000000000000000
-3.970258712768555 -2.232198476791382 0.396886199712753 0.000000000000000
-3.965408325195312 -6.958873748779297 1.065835833549500 0.000000000000000
-3.963893890380859 -10.557517051696777 0.887529373168945 0.000000000000000
-3.959085464477539 -10.718893051147461 1.398971319198608 0.000000000000000
-3.957165718078613 9.376133918762207 0.741994023323059 1.000000000000000
-3.956684350967407 -5.211985111236572 0.061674833297729 0.000000000000000
-3.946120023727417 -10.622710227966309 0.019778061658144 1.000000000000000
-3.945942163467407 -11.640387535095215 0.470024883747101 1.000000000000000
-3.942843914031982 -7.573491096496582 0.310103446245193 0.000000000000000
-3.941054821014404 -6.302600860595703 0.198543921113014 0.000000000000000
-3.939697265625000 -10.784389495849609 1.962564468383789 0.000000000000000
-3.934092283248901 -5.110737800598145 0.584685325622559 0.000000000000000
-3.933774471282959 -8.825452804565430 1.431998372077942 0.000000000000000
-3.931193828582764 -6.813421249389648 0.685436010360718 0.000000000000000
-3.929728269577026 -12.388830184936523 0.422076344490051 0.000000000000000
-3.928736448287964 -12.366971015930176 0.321659177541733 0.000000000000000
-3.927206516265869 -10.247293472290039 0.694275200366974 1.000000000000000
-3.926470041275024 -7.115135669708252 0.295149952173233 0.000000000000000
-3.924016952514648 -11.345972061157227 0.505273222923279 1.000000000000000
-3.923454284667969 -7.217690944671631 0.282572507858276 0.000000000000000
-3.922039508819580 -6.440740585327148 0.477077454328537 0.000000000000000
-3.920432567596436 -8.259761810302734 0.138840481638908 1.000000000000000
-3.920218944549561 -5.361795425415039 0.631368577480316 0.000000000000000
-3.917078018188477 -9.003506660461426 1.202104330062866 0.000000000000000
-3.911897897720337 -6.737805843353271 0.372869610786438 0.000000000000000
-3.910684585571289 -4.542740345001221 0.148587703704834 0.000000000000000
-3.904968738555908 -7.447976112365723 0.418653964996338 0.000000000000000
-3.904548168182373 -10.805046081542969 1.041527152061462 0.000000000000000
-3.904202222824097 -9.024671554565430 0.243747279047966 0.000000000000000
-3.904024362564087 -6.147489070892334 1.244799613952637 0.000000000000000
-3.901137351989746 -9.837095260620117 0.791980385780334 1.000000000000000
-3.895867109298706 -9.882143020629883 1.413551688194275 1.000000000000000
-3.895532608032227 -6.650142669677734 0.117036581039429 0.000000000000000
-3.893539428710938 -7.400714397430420 0.400213420391083 0.000000000000000
-3.892422437667847 -6.318637371063232 0.526760101318359 0.000000000000000
-3.884717464447021 -1.547174334526062 0.296798169612885 0.000000000000000
-3.883101701736450 -2.773779392242432 0.478836208581924 0.000000000000000
-3.878245353698730 -8.849995613098145 1.431998372077942 0.000000000000000
-3.877612113952637 -10.071043014526367 0.978327691555023 0.000000000000000
-3.876790523529053 -1.612878918647766 0.421327978372574 0.000000000000000
-3.876235485076904 -6.151071548461914 1.242777705192566 1.000000000000000
-3.875981330871582 -12.369029998779297 0.221728399395943 0.000000000000000
-3.875696182250977 -10.083908081054688 0.941346049308777 1.000000000000000
-3.875626802444458 -6.150105953216553 0.194165065884590 0.000000000000000
-3.871853828430176 -10.161730766296387 0.457672595977783 1.000000000000000
-3.870797634124756 -7.158291816711426 1.692670345306396 0.000000000000000
-3.870660781860352 -10.708931922912598 1.394110441207886 0.000000000000000
-3.866987705230713 -2.087908267974854 0.108937889337540 0.000000000000000
-3.864628791809082 -10.142767906188965 0.623941779136658 0.000000000000000
-3.861271619796753 -5.019035339355469 1.317155003547668 0.000000000000000
-3.861231565475464 -8.013022422790527 1.010290384292603 0.000000000000000
-3.859594821929932 9.531746864318848 0.710075974464417 1.000000000000000
-3.857679128646851 -4.441195964813232 1.005544662475586 1.000000000000000
-3.857041120529175 -8.957672119140625 0.673428654670715 0.000000000000000
-3.855701208114624 8.824512481689453 1.093804121017456 1.000000000000000
-3.849187850952148 -4.523739337921143 0.055982351303101 0.000000000000000
-3.848736524581909 -11.272048950195312 0.707643687725067 0.000000000000000
-3.847705602645874 -5.789509773254395 0.630188941955566 0.000000000000000
-3.847279071807861 9.586844444274902 0.733216106891632 1.000000000000000
-3.844727754592896 -4.457620143890381 1.006218552589417 0.000000000000000
-3.837124109268188 -4.953571319580078 1.303307294845581 0.000000000000000
-3.836804866790771 -8.343347549438477 0.775983512401581 0.000000000000000
-3.836732864379883 -2.736312150955200 0.698407113552094 0.000000000000000
-3.832271814346313 -4.772864818572998 1.273168325424194 0.000000000000000
-3.830592393875122 -10.953165054321289 0.087086230516434 1.000000000000000
-3.823693513870239 -7.621115207672119 0.605207741260529 0.000000000000000
-3.822223901748657 -3.190439224243164 0.362998217344284 0.000000000000000
-3.818562030792236 8.823327064514160 1.091998457908630 1.000000000000000
-3.818501710891724 -8.967962265014648 0.849329531192780 0.000000000000000
-3.816299676895142 -7.087046623229980 0.416208475828171 0.000000000000000
-3.807988643646240 8.143244743347168 1.536623358726501 1.000000000000000
-3.807366609573364 -6.502755641937256 0.360631853342056 0.000000000000000
-3.807296991348267 -9.858648300170898 0.404144972562790 0.000000000000000
-3.805451869964600 -8.882637977600098 0.969653427600861 1.000000000000000
-3.800267934799194 -10.750705718994141 1.949085354804993 0.000000000000000
-3.800090789794922 -3.697493314743042 0.785781264305115 0.000000000000000
-3.796141147613525 -10.609213829040527 0.041299287229776 0.000000000000000
-3.793324232101440 -12.155050277709961 0.266722679138184 0.000000000000000
-3.792084217071533 -1.388757467269897 0.278850167989731 0.000000000000000
-3.791599035263062 -9.871788024902344 1.061107516288757 1.000000000000000
-3.789890289306641 -1.605435609817505 0.856109976768494 0.000000000000000
-3.788257837295532 -10.162425041198730 1.607333183288574 1.000000000000000
-3.787487030029297 -6.823255062103271 0.433576822280884 0.000000000000000
-3.784514665603638 8.167217254638672 1.538645029067993 1.000000000000000
-3.779838800430298 9.840661048889160 0.687238931655884 1.000000000000000
-3.779608726501465 -10.720242500305176 3.045782566070557 0.000000000000000
-3.773382425308228 -11.256556510925293 0.431183159351349 1.000000000000000
-3.764089822769165 -12.551144599914551 0.123500466346741 0.000000000000000
-3.759943723678589 -9.892405509948730 1.061906218528748 1.000000000000000
-3.759928703308105 -6.856567382812500 0.615433216094971 0.000000000000000
-3.756407737731934 -8.043914794921875 0.733007192611694 1.000000000000000
-3.755096197128296 -9.825396537780762 0.888810932636261 0.000000000000000
-3.748109579086304 -8.170752525329590 0.742223322391510 0.000000000000000
-3.734694242477417 -10.756006240844727 0.216633275151253 1.000000000000000
-3.734591007232666 -8.824680328369141 1.088386893272400 1.000000000000000
-3.733315706253052 -7.828465938568115 0.732873320579529 0.000000000000000
-3.732558727264404 -12.742885589599609 0.507779777050018 0.000000000000000
-3.727492570877075 -7.405498504638672 0.941673755645752 0.000000000000000
-3.726230621337891 -5.466344833374023 0.405784368515015 0.000000000000000
-3.724413633346558 -4.109763145446777 0.137485757470131 0.000000000000000
-3.724313020706177 -2.565493106842041 0.481710433959961 0.000000000000000
-3.720759868621826 -8.855234146118164 2.573696613311768 1.000000000000000
-3.720077276229858 -7.309261798858643 0.203304469585419 0.000000000000000
-3.713199377059937 -10.703741073608398 0.237319514155388 1.000000000000000
-3.712708950042725 -6.840237617492676 0.282664537429810 0.000000000000000
-3.708523750305176 -10.292932510375977 0.271204769611359 0.000000000000000
-3.704648256301880 -10.266434669494629 2.270198345184326 0.000000000000000
-3.702756166458130 -8.278394699096680 0.591218054294586 0.000000000000000
-3.701900005340576 -7.115530967712402 0.553842723369598 1.000000000000000
-3.701549530029297 -12.048535346984863 1.142646312713623 0.000000000000000
-3.700170516967773 -12.572914123535156 0.224191278219223 0.000000000000000
-3.695883274078369 -10.804638862609863 0.810530900955200 0.000000000000000
-3.694395065307617 -2.283308029174805 0.903354883193970 0.000000000000000
-3.690792560577393 -10.025343894958496 2.862538814544678 0.000000000000000
-3.688187837600708 -1.366206049919128 0.342718005180359 0.000000000000000
-3.687509536743164 -10.271697044372559 0.375388264656067 0.000000000000000
-3.680997133255005 -4.997894287109375 1.291088819503784 0.000000000000000
-3.680280923843384 -10.269592285156250 0.921817243099213 0.000000000000000
-3.677574872970581 -9.000844955444336 0.847246110439301 1.000000000000000
-3.674052953720093 -10.294057846069336 2.273456573486328 0.000000000000000
-3.673793554306030 -12.646101951599121 0.630245327949524 0.000000000000000
-3.672756433486938 11.212950706481934 1.748656511306763 1.000000000000000
-3.669224739074707 -2.323084354400635 1.163650512695312 0.000000000000000
-3.668151855468750 -5.017036437988281 1.292717933654785 0.000000000000000
-3.662492275238037 -10.056607246398926 0.162527188658714 1.000000000000000
-3.660762071609497 -5.524732112884521 0.521596133708954 0.000000000000000
-3.657331705093384 -10.462426185607910 1.894494652748108 0.000000000000000
-3.656505584716797 -10.358967781066895 0.483473449945450 1.000000000000000
-3.656174421310425 -6.117259502410889 0.602195501327515 0.000000000000000
-3.655108213424683 -8.942290306091309 0.918285489082336 1.000000000000000
-3.653838872909546 -11.905083656311035 0.931987524032593 0.000000000000000
-3.651809453964233 -10.027275085449219 2.859432935714722 1.000000000000000
-3.650245189666748 -10.185778617858887 0.413774758577347 1.000000000000000
-3.649902343750000 -11.981660842895508 0.262366652488708 0.000000000000000
-3.648056507110596 -10.664820671081543 0.106234520673752 1.000000000000000
-3.647127628326416 -7.070417404174805 0.672249555587769 0.000000000000000
-3.645299434661865 -12.273284912109375 0.859365165233612 0.000000000000000
-3.637941360473633 -2.357905864715576 0.332817703485489 1.000000000000000
-3.634909868240356 -5.118220806121826 1.305750966072083 0.000000000000000
-3.634041547775269 -7.826727390289307 0.729168534278870 0.000000000000000
-3.633786439895630 -9.912632942199707 0.221151962876320 0.000000000000000
-3.632113695144653 -4.937114715576172 0.615019023418427 0.000000000000000
-3.631713390350342 -7.329207420349121 0.517486333847046 0.000000000000000
-3.630280494689941 -9.826570510864258 0.078620769083500 0.000000000000000
-3.627117156982422 -10.622977256774902 0.494025796651840 1.000000000000000
-3.626594066619873 -4.965833663940430 0.617015838623047 0.000000000000000
-3.625844001770020 -10.065107345581055 1.073487758636475 1.000000000000000
-3.624881505966187 -6.563482284545898 0.575618505477905 0.000000000000000
-3.624182939529419 -9.951416015625000 1.062704920768738 1.000000000000000
-3.621733903884888 -10.740676879882812 0.455255091190338 0.000000000000000
-3.621397972106934 -7.496562957763672 0.206377312541008 0.000000000000000
-3.620478868484497 -10.242094039916992 0.792022585868835 1.000000000000000
-3.620445728302002 -9.095005989074707 0.827176809310913 1.000000000000000
-3.615393400192261 -9.107283592224121 0.809039890766144 1.000000000000000
-3.614618301391602 -5.210258483886719 0.291284590959549 0.000000000000000
-3.609720230102539 -9.088368415832520 1.197243332862854 0.000000000000000
-3.607954740524292 -5.425478458404541 0.462472736835480 0.000000000000000
-3.607400417327881 -7.937002182006836 0.719841420650482 0.000000000000000
-3.602543592453003 -6.996571540832520 0.195077121257782 0.000000000000000
-3.602357387542725 -8.939499855041504 1.094707012176514 0.000000000000000
-3.599032163619995 -5.455317020416260 0.463888764381409 0.000000000000000
-3.595710992813110 -12.451112747192383 0.047500777989626 1.000000000000000
-3.592219591140747 -7.269583225250244 0.559904694557190 0.000000000000000
-3.588388681411743 -9.363213539123535 1.068066835403442 1.000000000000000
-3.586118221282959 -6.982628345489502 0.315275371074677 0.000000000000000
-3.585620403289795 -10.765601158142090 1.138583898544312 1.000000000000000
-3.585448265075684 -2.415775299072266 0.273517668247223 0.000000000000000
-3.581455707550049 -7.063712120056152 0.669218420982361 0.000000000000000
-3.576608180999756 -12.197849273681641 0.853203892707825 0.000000000000000
-3.575127124786377 -1.774786353111267 0.068276748061180 1.000000000000000
-3.573523044586182 -8.213836669921875 0.739590167999268 0.000000000000000
-3.572409391403198 -10.481292724609375 2.967101812362671 0.000000000000000
-3.572094440460205 -7.106645107269287 1.058448910713196 0.000000000000000
-3.572016000747681 -6.847474575042725 0.369618982076645 0.000000000000000
-3.561718702316284 -8.192955970764160 0.204293251037598 0.000000000000000
-3.561541557312012 -9.257844924926758 0.942889213562012 1.000000000000000
-3.561198711395264 -12.122566223144531 0.969978392124176 0.000000000000000
-3.558234214782715 -9.877427101135254 0.159429714083672 0.000000000000000
-3.549802780151367 -5.701222896575928 0.231008172035217 0.000000000000000
-3.543175220489502 -6.868892192840576 0.414523243904114 0.000000000000000
-3.542069911956787 -12.705101966857910 0.250950664281845 0.000000000000000
-3.538425207138062 -7.256775379180908 0.324264883995056 0.000000000000000
-3.537843704223633 -7.287195205688477 1.077971696853638 0.000000000000000
-3.533704757690430 -9.230646133422852 0.796977639198303 1.000000000000000
-3.529313802719116 -6.284538745880127 0.247921273112297 0.000000000000000
-3.528556346893311 -8.984422683715820 0.917528390884399 1.000000000000000
-3.526111125946045 -10.625884056091309 0.902748346328735 0.000000000000000
-3.526047468185425 -12.529205322265625 0.047706026583910 0.000000000000000
-3.525772571563721 -12.387170791625977 0.146115854382515 1.000000000000000
-3.523172616958618 -9.320852279663086 0.841995954513550 1.000000000000000
-3.515188932418823 -12.608682632446289 1.055456876754761 0.000000000000000
-3.507952928543091 -9.214396476745605 0.937211394309998 1.000000000000000
-3.506474733352661 -10.444596290588379 0.378963410854340 1.000000000000000
-3.505400419235229 -10.603080749511719 0.105254359543324 1.000000000000000
-3.503388404846191 -7.205978393554688 0.910073876380920 0.000000000000000
-3.498101949691772 -4.206905841827393 0.476749569177628 1.000000000000000
-3.493091344833374 -3.777217864990234 0.489045679569244 0.000000000000000
-3.491818904876709 -7.772915363311768 0.855036139488220 0.000000000000000
-3.491637945175171 -8.344577789306641 0.206853762269020 0.000000000000000
-3.487608909606934 -12.385987281799316 0.096572361886501 1.000000000000000
-3.482405185699463 -4.878729343414307 0.638467550277710 1.000000000000000
-3.482213735580444 -5.326653480529785 0.554529547691345 0.000000000000000
-3.481229305267334 7.478807926177979 0.878687262535095 1.000000000000000
-3.480276584625244 -8.236564636230469 0.204476132988930 0.000000000000000
-3.477560997009277 -10.817714691162109 1.140181303024292 0.000000000000000
-3.476811408996582 -10.667572021484375 2.333734750747681 0.000000000000000
-3.472645759582520 -6.908792495727539 0.653388857841492 0.000000000000000
-3.472200870513916 -5.345086097717285 0.577823638916016 0.000000000000000
-3.472030639648438 -3.760759115219116 0.126879438757896 0.000000000000000
-3.471557617187500 -10.711068153381348 1.278888583183289 1.000000000000000
-3.468325614929199 -1.287516117095947 0.548287689685822 0.000000000000000
-3.465968608856201 -5.555120944976807 0.401621252298355 0.000000000000000
-3.465378284454346 -5.953640460968018 0.515548527240753 0.000000000000000
-3.461149454116821 -8.271714210510254 0.619146585464478 0.000000000000000
-3.459898233413696 -7.255131244659424 0.183809041976929 1.000000000000000
-3.459674119949341 -10.654744148254395 0.191626414656639 0.000000000000000
-3.453443288803101 -1.129960894584656 0.131968185305595 0.000000000000000
-3.446431159973145 -6.809775829315186 0.424035459756851 0.000000000000000
-3.442668199539185 -3.755170583724976 0.126284688711166 0.000000000000000
-3.432057619094849 -8.409579277038574 0.137929469347000 0.000000000000000
-3.429663181304932 -12.382071495056152 1.060836195945740 0.000000000000000
-3.427566051483154 -5.236273288726807 0.567350625991821 0.000000000000000
-3.426566123962402 -6.654802322387695 0.531291365623474 0.000000000000000
-3.425369501113892 -4.492860317230225 0.161757379770279 0.000000000000000
-3.422478675842285 -3.214370727539062 0.396748512983322 1.000000000000000
-3.421986579895020 -2.605534076690674 0.637421071529388 0.000000000000000
-3.421853065490723 -10.867278099060059 1.032859802246094 0.000000000000000
-3.420788049697876 -7.636179924011230 0.642365694046021 0.000000000000000
-3.419838190078735 6.806099414825439 1.584332942962646 1.000000000000000
-3.418639898300171 -6.032840251922607 0.438689023256302 0.000000000000000
-3.417879581451416 -8.977800369262695 1.998132944107056 1.000000000000000
-3.416656732559204 -10.378999710083008 0.333847045898438 1.000000000000000
-3.415954351425171 -10.435091018676758 0.419888943433762 0.000000000000000
-3.413306236267090 -6.479117870330811 0.734827876091003 0.000000000000000
-3.412852287292480 -4.099432468414307 0.483566194772720 0.000000000000000
-3.410351991653442 -6.833835601806641 0.586334764957428 1.000000000000000
-3.405153989791870 -7.776325702667236 0.769588887691498 0.000000000000000
-3.403832674026489 -1.341904044151306 0.259698390960693 0.000000000000000
-3.398791313171387 -1.287145137786865 0.264977097511292 0.000000000000000
-3.389247655868530 -8.917104721069336 2.556097030639648 0.000000000000000
-3.387321472167969 -7.039595127105713 0.660124838352203 0.000000000000000
-3.382178783416748 -10.361259460449219 0.988078415393829 0.000000000000000
-3.379043102264404 -8.919774055480957 0.328086614608765 0.000000000000000
-3.377055168151855 -12.278733253479004 1.026844143867493 1.000000000000000
-3.375682592391968 -10.341359138488770 0.457840800285339 1.000000000000000
-3.375346660614014 -1.170402407646179 0.475405037403107 0.000000000000000
-3.374608039855957 -10.358904838562012 0.949332416057587 0.000000000000000
-3.373142957687378 -4.292354106903076 1.135506510734558 0.000000000000000
-3.371859073638916 -10.760274887084961 1.201098561286926 0.000000000000000
-3.365330934524536 -5.025554656982422 1.033850908279419 1.000000000000000
-3.363757371902466 -1.179553508758545 0.474349766969681 0.000000000000000
-3.363541603088379 -8.943345069885254 2.560238122940063 0.000000000000000
-3.362990379333496 -5.266456604003906 0.626999914646149 0.000000000000000
-3.362955093383789 -3.817479133605957 0.214118778705597 0.000000000000000
-3.361669540405273 -8.923710823059082 1.983470916748047 0.000000000000000
-3.359503746032715 -7.721908092498779 0.565230846405029 0.000000000000000
-3.354281187057495 -3.601812601089478 0.467848658561707 0.000000000000000
-3.352267026901245 -5.755609989166260 0.603825747966766 0.000000000000000
-3.350711584091187 -10.403799057006836 2.273456573486328 0.000000000000000
-3.348786354064941 -10.376712799072266 0.081832841038704 1.000000000000000
-3.348503589630127 -4.291752815246582 1.132248282432556 0.000000000000000
-3.344375610351562 -9.403004646301270 0.631388902664185 1.000000000000000
-3.343815803527832 -4.393997192382812 0.338684231042862 0.000000000000000
-3.343581914901733 -6.109201908111572 0.467453956604004 1.000000000000000
-3.340476036071777 -10.480989456176758 1.880341649055481 1.000000000000000
-3.339860677719116 -2.594958305358887 0.234983533620834 0.000000000000000
-3.339080333709717 -10.400641441345215 0.522782385349274 1.000000000000000
-3.337896823883057 -9.236952781677246 1.678828358650208 0.000000000000000
-3.335574626922607 -9.291368484497070 0.796013176441193 0.000000000000000
-3.331588029861450 -10.570306777954102 0.615750074386597 1.000000000000000
-3.329259395599365 -10.595162391662598 0.967735707759857 0.000000000000000
-3.327261209487915 -5.349214076995850 0.325737357139587 0.000000000000000
-3.325220108032227 7.715147972106934 0.337428122758865 0.000000000000000
-3.325178384780884 -3.077857017517090 0.094911046326160 0.000000000000000
-3.322734355926514 -8.871948242187500 0.344075471162796 0.000000000000000
-3.320788860321045 -10.665764808654785 0.620631694793701 0.000000000000000
-3.319458484649658 -5.533033847808838 1.728911280632019 0.000000000000000
-3.316353797912598 -9.090869903564453 2.012795209884644 0.000000000000000
-3.312682628631592 7.628839969635010 0.222147047519684 0.000000000000000
-3.312378883361816 -5.777190685272217 1.138314366340637 0.000000000000000
-3.307096958160400 -10.796134948730469 1.132992863655090 1.000000000000000
-3.298430681228638 7.665493011474609 0.222894653677940 0.000000000000000
-3.297248125076294 -10.811128616333008 0.693286418914795 1.000000000000000
-3.296317577362061 7.575224876403809 0.331809669733047 1.000000000000000
-3.295904397964478 -4.320076942443848 0.333296656608582 0.000000000000000
-3.294122695922852 -2.574946880340576 0.353301495313644 0.000000000000000
-3.291126251220703 -7.643379688262939 0.190301805734634 0.000000000000000
-3.290243625640869 -5.527986526489258 1.723734855651855 0.000000000000000
-3.287371635437012 -6.427958965301514 0.054184988141060 0.000000000000000
-3.283150434494019 -10.814265251159668 1.024553537368774 0.000000000000000
-3.279660224914551 -5.740775108337402 0.520340800285339 0.000000000000000
-3.271744251251221 -4.850926399230957 1.000153064727783 0.000000000000000
-3.270808696746826 -7.313353061676025 0.676964700222015 0.000000000000000
-3.265271186828613 -2.919899940490723 0.370141446590424 1.000000000000000
-3.264172077178955 -1.490872979164124 0.157933488488197 0.000000000000000
-3.262913703918457 -3.730085372924805 0.284882903099060 0.000000000000000
-3.262172937393188 -4.225178241729736 0.327419251203537 0.000000000000000
-3.261171817779541 -7.053944110870361 0.103088691830635 0.000000000000000
-3.260541915893555 -2.895251989364624 0.368457436561584 0.000000000000000
-3.247578144073486 -3.955354928970337 0.874796926975250 0.000000000000000
-3.246472358703613 -4.187137126922607 0.480315923690796 0.000000000000000
-3.245064735412598 -1.390099287033081 0.354234963655472 0.000000000000000
-3.244912624359131 -8.399782180786133 1.102455615997314 0.000000000000000
-3.242478132247925 -10.811861038208008 0.801185190677643 0.000000000000000
-3.240966796875000 -10.756307601928711 0.213741779327393 1.000000000000000
-3.229440927505493 -1.922689080238342 0.107609294354916 1.000000000000000
-3.227986335754395 -1.394065499305725 0.334231674671173 0.000000000000000
-3.224616527557373 -8.326920509338379 0.951134502887726 1.000000000000000
-3.223664522171021 -5.124844074249268 1.622277855873108 1.000000000000000
-3.222361564636230 -1.903271555900574 0.107151381671429 0.000000000000000
-3.220597267150879 -10.753900527954102 0.926874041557312 0.000000000000000
-3.220274686813354 -10.853380203247070 0.781717300415039 0.000000000000000
-3.219901323318481 -10.852122306823730 0.607110559940338 1.000000000000000
-3.218703269958496 -8.934910774230957 2.544708967208862 1.000000000000000
-3.218369245529175 -8.078375816345215 0.048567373305559 0.000000000000000
-3.213595867156982 -7.063349246978760 0.431136012077332 0.000000000000000
-3.207844018936157 -3.348149538040161 0.257616519927979 0.000000000000000
-3.207048892974854 -3.200562715530396 0.514625132083893 0.000000000000000
-3.205688476562500 -3.119138956069946 0.317472100257874 0.000000000000000
-3.203155279159546 -8.455476760864258 1.026993155479431 1.000000000000000
-3.199968099594116 -10.848789215087891 0.454291909933090 0.000000000000000
-3.196697473526001 -6.460078239440918 0.247921273112297 0.000000000000000
-3.196114063262939 -2.937743425369263 0.157664954662323 0.000000000000000
-3.196030855178833 -2.466789245605469 0.294354349374771 0.000000000000000
-3.192491531372070 -6.787157058715820 0.229161024093628 1.000000000000000
-3.190029382705688 -6.448584079742432 0.441293567419052 0.000000000000000
-3.184643268585205 -3.200468540191650 0.512819409370422 0.000000000000000
-3.182884931564331 -8.675116539001465 1.049564361572266 1.000000000000000
-3.181983470916748 -5.629180908203125 0.421555161476135 0.000000000000000
-3.180886745452881 -2.468594789505005 0.278023540973663 0.000000000000000
-3.179330110549927 -4.285346508026123 0.507214546203613 0.000000000000000
-3.174770832061768 -4.827800750732422 0.454748988151550 0.000000000000000
-3.167968511581421 -2.891535758972168 0.155777618288994 0.000000000000000
-3.166604995727539 -6.261208057403564 0.403335422277451 0.000000000000000
-3.165742874145508 -5.489643573760986 0.193614184856415 0.000000000000000
-3.164207696914673 -8.477488517761230 1.546732544898987 1.000000000000000
-3.163726568222046 -8.926168441772461 0.800233006477356 0.000000000000000
-3.163062334060669 -6.368041515350342 1.053767800331116 0.000000000000000
-3.162793159484863 -8.339700698852539 0.289650052785873 0.000000000000000
-3.161275148391724 -1.026306867599487 0.492579311132431 0.000000000000000
-3.157041311264038 -8.470019340515137 0.859236657619476 0.000000000000000
-3.156391143798828 -5.555801391601562 0.281220108270645 0.000000000000000
-3.155836582183838 -3.763912916183472 0.445285350084305 0.000000000000000
-3.151810884475708 -8.537848472595215 0.751439332962036 0.000000000000000
-3.146938085556030 -3.698423862457275 0.195040509104729 0.000000000000000
-3.144683122634888 -3.065128087997437 0.382649689912796 0.000000000000000
-3.142192363739014 -7.110181331634521 0.641833901405334 0.000000000000000
-3.142015695571899 -5.064001560211182 0.540265142917633 0.000000000000000
-3.140236139297485 -4.197945117950439 0.475259989500046 1.000000000000000
-3.140138149261475 -5.102624416351318 0.543154239654541 1.000000000000000
-3.137084960937500 -7.080568313598633 0.654399275779724 0.000000000000000
-3.136353731155396 -12.599836349487305 0.446615815162659 0.000000000000000
-3.129281997680664 -5.395908355712891 0.478865593671799 0.000000000000000
-3.125477075576782 -8.757042884826660 0.883840262889862 0.000000000000000
-3.124971151351929 -5.979043960571289 0.587863802909851 0.000000000000000
-3.117083072662354 -2.481128454208374 0.399762362241745 0.000000000000000
-3.114151477813721 -3.394454240798950 0.401400208473206 0.000000000000000
-3.113499641418457 -6.646007061004639 0.266549587249756 1.000000000000000
-3.113127708435059 -7.002393245697021 0.366750746965408 0.000000000000000
-3.105017900466919 -4.678033351898193 0.489249914884567 0.000000000000000
-3.103969335556030 -8.369565963745117 1.013901710510254 0.000000000000000
-3.103829860687256 -12.469176292419434 0.244482845067978 0.000000000000000
-3.095558404922485 -12.594313621520996 0.421167552471161 0.000000000000000
-3.090123891830444 -4.910454273223877 0.551501214504242 0.000000000000000
-3.083167314529419 -2.358452796936035 0.516561090946198 0.000000000000000
-3.079949140548706 -12.500683784484863 0.195506364107132 1.000000000000000
-3.077731847763062 -4.533168792724609 0.477444052696228 0.000000000000000
-3.075251340866089 -4.971684455871582 0.460084170103073 0.000000000000000
-3.069277048110962 -2.330890893936157 0.512867629528046 0.000000000000000
-3.067371368408203 -4.747247219085693 0.368470400571823 0.000000000000000
-3.066620826721191 -4.903047084808350 0.321299493312836 0.000000000000000
-3.066479444503784 6.700245380401611 0.836942970752716 1.000000000000000
-3.062410116195679 -8.243818283081055 0.936729848384857 0.000000000000000
-3.059204578399658 -11.502182960510254 0.844798564910889 0.000000000000000
-3.056318998336792 -6.213723182678223 0.318082034587860 1.000000000000000
-3.054577350616455 -2.361356973648071 0.155069246888161 0.000000000000000
-3.042234897613525 -4.577546119689941 0.939496815204620 0.000000000000000
-3.040032625198364 -8.719494819641113 2.474310159683228 1.000000000000000
-3.038755178451538 -4.639461994171143 0.393654078245163 0.000000000000000
-3.037504434585571 -5.799851894378662 0.801564872264862 0.000000000000000
-3.037407398223877 -8.997414588928223 1.407369375228882 1.000000000000000
-3.035798072814941 -4.400968551635742 0.913886427879333 0.000000000000000
-3.035754203796387 -6.734731197357178 1.094816207885742 0.000000000000000
-3.033970117568970 -11.535277366638184 0.823599934577942 1.000000000000000
-3.032305240631104 -8.785529136657715 0.883461773395538 1.000000000000000
-3.030919790267944 -5.009772777557373 0.235172301530838 0.000000000000000
-3.029959678649902 -8.857860565185547 1.387431740760803 0.000000000000000
-3.028218984603882 -5.831561565399170 0.804481446743011 0.000000000000000
-3.019181251525879 -1.941184401512146 0.961771607398987 0.000000000000000
-3.012910604476929 -1.922320127487183 0.957630515098572 0.000000000000000
-3.011680841445923 -1.890543222427368 0.739626884460449 0.000000000000000
-3.011478900909424 -7.482985973358154 0.168963462114334 0.000000000000000
-3.008519649505615 -3.852392196655273 0.443118542432785 0.000000000000000
-3.007483720779419 -5.432126998901367 0.189705267548561 0.000000000000000
-2.994899511337280 -6.006315708160400 0.243756413459778 0.000000000000000
-2.993591070175171 -4.405266761779785 0.482843875885010 0.000000000000000
-2.992842197418213 -4.909998893737793 0.142541110515594 1.000000000000000
-2.991793394088745 -8.038680076599121 0.212622180581093 0.000000000000000
-2.987255096435547 -12.520772933959961 1.013063907623291 1.000000000000000
-2.983873128890991 -4.847940921783447 0.470019906759262 0.000000000000000
-2.982979297637939 -4.627258777618408 0.499095201492310 0.000000000000000
-2.981896877288818 -1.886388301849365 0.733924925327301 0.000000000000000
-2.978738307952881 -11.764093399047852 1.292610883712769 0.000000000000000
-2.975692272186279 -8.482055664062500 1.100511193275452 0.000000000000000
-2.971704483032227 -4.762933254241943 1.504256367683411 0.000000000000000
-2.959529876708984 -11.466770172119141 2.463250875473022 1.000000000000000
-2.955634117126465 -4.329712390899658 0.558394312858582 0.000000000000000
-2.954468727111816 -3.521747350692749 0.255397588014603 0.000000000000000
-2.953184604644775 -7.976649284362793 0.194508388638496 1.000000000000000
-2.950443744659424 -4.289874076843262 0.554581284523010 0.000000000000000
-2.947360515594482 -11.568022727966309 0.663234949111938 0.000000000000000
-2.946685075759888 -11.851996421813965 1.495217561721802 0.000000000000000
-2.946586132049561 -1.225881695747375 0.855138182640076 0.000000000000000
-2.943744659423828 -4.463066577911377 0.913886427879333 0.000000000000000
-2.942230224609375 -11.764772415161133 1.216859102249146 0.000000000000000
-2.940800905227661 -8.712249755859375 1.912603378295898 0.000000000000000
-2.940050840377808 -4.196644306182861 0.759393095970154 0.000000000000000
-2.927040100097656 -5.243552207946777 0.183475404977798 0.000000000000000
-2.926645040512085 -5.602680206298828 1.693711876869202 0.000000000000000
-2.921825170516968 -2.416972398757935 0.021178415045142 0.000000000000000
-2.921182870864868 -12.435976982116699 0.808177769184113 0.000000000000000
-2.919969320297241 -12.308196067810059 0.678447067737579 0.000000000000000
-2.915110826492310 -11.684054374694824 0.576322615146637 0.000000000000000
-2.910446643829346 -11.692288398742676 0.599838614463806 0.000000000000000
-2.909391641616821 -1.839383363723755 0.588364958763123 0.000000000000000
-2.904273033142090 -2.262462377548218 0.369410783052444 0.000000000000000
-2.902935266494751 -8.700172424316406 1.907716035842896 1.000000000000000
-2.902707815170288 -2.245005846023560 0.368212699890137 0.000000000000000
-2.900697231292725 -6.439909934997559 0.640300869941711 0.000000000000000
-2.896540403366089 -8.920463562011719 0.999008953571320 1.000000000000000
-2.893813610076904 -8.019425392150879 0.810407698154449 0.000000000000000
-2.892445802688599 -2.005738973617554 0.943136692047119 0.000000000000000
-2.886716127395630 -11.497593879699707 0.476123601198196 1.000000000000000
-2.883829116821289 -9.039502143859863 1.406196594238281 1.000000000000000
-2.883515596389771 -1.984676837921143 0.937960207462311 0.000000000000000
-2.882537603378296 -10.226171493530273 1.300780892372131 1.000000000000000
-2.882316112518311 -10.258290290832520 0.100428946316242 1.000000000000000
-2.881280660629272 -7.945584774017334 0.047204632312059 1.000000000000000
-2.879601478576660 -5.942441940307617 0.468703210353851 0.000000000000000
-2.878322601318359 -4.663678646087646 0.199041113257408 0.000000000000000
-2.876006126403809 -8.769082069396973 1.048210024833679 1.000000000000000
-2.873353481292725 -11.543272018432617 1.351116657257080 0.000000000000000
-2.869332551956177 -12.341931343078613 0.728391170501709 0.000000000000000
-2.868193864822388 -4.101686954498291 0.436123430728912 0.000000000000000
-2.867283582687378 -8.787006378173828 1.131621003150940 1.000000000000000
-2.866412878036499 -11.703448295593262 0.252398073673248 0.000000000000000
-2.864902496337891 -1.180768847465515 0.830291509628296 0.000000000000000
-2.862629890441895 -11.570815086364746 0.089457765221596 1.000000000000000
-2.862582206726074 -1.971889853477478 0.166357219219208 0.000000000000000
-2.859150886535645 -4.924566745758057 0.448158413171768 0.000000000000000
-2.856041431427002 -7.744972705841064 0.784668564796448 0.000000000000000
-2.855054378509521 -11.587896347045898 0.364629864692688 1.000000000000000
-2.853697538375854 -11.778679847717285 1.290916204452515 0.000000000000000
-2.850357055664062 -8.974051475524902 2.522968053817749 1.000000000000000
-2.848582506179810 9.027951240539551 1.618172049522400 1.000000000000000
-2.848247289657593 -11.708852767944336 0.901836693286896 1.000000000000000
-2.846016645431519 -12.115982055664062 0.595635354518890 0.000000000000000
-2.845706224441528 -5.311450481414795 0.604635596275330 0.000000000000000
-2.845628499984741 -3.803276300430298 0.413900583982468 0.000000000000000
-2.840186834335327 -1.610108494758606 0.874808371067047 1.000000000000000
-2.827822208404541 -12.199090957641602 0.190161660313606 0.000000000000000
-2.825468540191650 -11.324759483337402 0.918599128723145 0.000000000000000
-2.823289394378662 -3.730080366134644 0.133939236402512 0.000000000000000
-2.821776151657104 -1.732508182525635 0.887231707572937 1.000000000000000
-2.820458412170410 -10.336791038513184 2.228655338287354 1.000000000000000
-2.819580078125000 -11.885037422180176 0.843439102172852 1.000000000000000
-2.818830013275146 -9.523539543151855 1.697699069976807 1.000000000000000
-2.818168401718140 -11.985211372375488 0.541863083839417 1.000000000000000
-2.817516326904297 -1.939250588417053 0.157113805413246 0.000000000000000
-2.815565347671509 -11.752976417541504 1.148803114891052 1.000000000000000
-2.814232587814331 -11.823902130126953 0.792367517948151 0.000000000000000
-2.812839508056641 -5.641191482543945 0.325943917036057 0.000000000000000
-2.807641267776489 -9.650135040283203 0.442319303750992 1.000000000000000
-2.806988000869751 -11.290113449096680 0.780875802040100 0.000000000000000
-2.803625583648682 -5.628615379333496 0.313045769929886 0.000000000000000
-2.803577661514282 -11.296595573425293 0.758799254894257 0.000000000000000
-2.803122997283936 -4.033465862274170 0.445285350084305 0.000000000000000
-2.801262378692627 -3.316254377365112 0.742027282714844 0.000000000000000
-2.796058416366577 -11.854030609130859 2.533303499221802 1.000000000000000
-2.791621923446655 -3.329520225524902 0.742701172828674 0.000000000000000
-2.790614604949951 -9.110059738159180 2.552991151809692 1.000000000000000
-2.789442777633667 -8.833005905151367 0.782719433307648 0.000000000000000
-2.789077997207642 -11.576402664184570 0.822222232818604 0.000000000000000
-2.781997919082642 -8.865979194641113 2.489839315414429 1.000000000000000
-2.781009912490845 -7.127041816711426 0.292561829090118 0.000000000000000
-2.779417037963867 -11.900544166564941 0.279462933540344 0.000000000000000
-2.774890184402466 -8.401315689086914 0.802091479301453 0.000000000000000
-2.770361185073853 -11.271245002746582 0.555480182170868 1.000000000000000
-2.759854078292847 -11.297378540039062 0.578955709934235 1.000000000000000
-2.759523153305054 -11.439691543579102 0.065724574029446 1.000000000000000
-2.755914211273193 -5.912504196166992 0.099058985710144 0.000000000000000
-2.752701997756958 -2.978481769561768 0.601064085960388 0.000000000000000
-2.748224735260010 -9.598106384277344 1.133980989456177 1.000000000000000
-2.743232011795044 6.307195186614990 0.599322497844696 1.000000000000000
-2.738375902175903 -1.918001413345337 0.070031456649303 1.000000000000000
-2.737823724746704 -6.135414123535156 1.148423671722412 0.000000000000000
-2.734180927276611 -11.714246749877930 0.598844230175018 0.000000000000000
-2.731880426406860 -4.928038120269775 0.535603463649750 0.000000000000000
-2.730889320373535 -11.271787643432617 0.376635938882828 0.000000000000000
-2.726138114929199 -11.819489479064941 0.230786338448524 0.000000000000000
-2.725352525711060 -1.894734859466553 0.069528840482235 1.000000000000000
-2.722034454345703 -9.563380241394043 0.901404917240143 1.000000000000000
-2.720999717712402 -5.727316379547119 0.376714110374451 1.000000000000000
-2.720890998840332 -1.348827719688416 0.813727080821991 0.000000000000000
-2.718890190124512 -9.528326988220215 1.318576216697693 1.000000000000000
-2.717082262039185 -8.130876541137695 0.777172863483429 0.000000000000000
-2.714727640151978 -11.985711097717285 0.257424235343933 0.000000000000000
-2.710692644119263 -5.436334609985352 0.127246141433716 0.000000000000000
-2.709243297576904 -11.382793426513672 1.328996896743774 0.000000000000000
-2.707399845123291 -11.709317207336426 0.205582782626152 0.000000000000000
-2.703087329864502 -11.433083534240723 1.438344836235046 0.000000000000000
-2.696016073226929 -5.052161693572998 0.130952522158623 1.000000000000000
-2.695270061492920 -11.724908828735352 0.645242393016815 1.000000000000000
-2.695241451263428 -11.773704528808594 0.485113114118576 1.000000000000000
-2.694154024124146 -10.359324455261230 0.039232123643160 1.000000000000000
-2.691271305084229 -11.707512855529785 0.274707674980164 0.000000000000000
-2.688520669937134 -1.344492316246033 0.805444896221161 0.000000000000000
-2.684593677520752 -7.323323726654053 0.043563194572926 0.000000000000000
-2.684371471405029 -6.162452697753906 0.438209205865860 0.000000000000000
-2.681708097457886 -9.314182281494141 2.016053438186646 0.000000000000000
-2.680136919021606 -11.778592109680176 1.286679506301880 0.000000000000000
-2.679305553436279 -1.898177146911621 0.286119192838669 0.000000000000000
-2.679278373718262 -11.279615402221680 0.242848306894302 1.000000000000000
-2.671317338943481 -11.794051170349121 0.811682224273682 0.000000000000000
-2.671020030975342 -9.057253837585449 2.530215024948120 0.000000000000000
-2.665699005126953 -9.926347732543945 0.452344000339508 0.000000000000000
-2.660571336746216 -5.240192413330078 0.473878592252731 0.000000000000000
-2.648295402526855 -4.120554447174072 0.309885680675507 0.000000000000000
-2.644862890243530 -1.636627316474915 0.833397388458252 0.000000000000000
-2.644504547119141 -9.432133674621582 0.931155085563660 1.000000000000000
-2.644204854965210 -11.620678901672363 0.387022316455841 0.000000000000000
-2.641805410385132 -5.852042675018311 0.443349719047546 0.000000000000000
-2.641507625579834 -10.088918685913086 0.991339564323425 1.000000000000000
-2.641072988510132 -11.577025413513184 0.362797558307648 1.000000000000000
-2.638222694396973 -10.174873352050781 1.398777723312378 0.000000000000000
-2.630417108535767 -10.091831207275391 1.110857367515564 1.000000000000000
-2.627568483352661 -1.859183073043823 0.291800945997238 0.000000000000000
-2.625288009643555 -4.101263046264648 0.424317508935928 0.000000000000000
-2.623376846313477 -10.278427124023438 0.038880266249180 1.000000000000000
-2.622102022171021 -11.963836669921875 0.068405382335186 0.000000000000000
-2.621496438980103 -4.047723770141602 0.230796739459038 0.000000000000000
-2.618693590164185 -2.312103509902954 0.597126364707947 0.000000000000000
-2.613692998886108 -2.620911598205566 0.991794645786285 0.000000000000000
-2.611741542816162 -5.851771354675293 0.784551739692688 0.000000000000000
-2.610084295272827 -10.098261833190918 1.276962399482727 1.000000000000000
-2.609809875488281 -2.544673442840576 0.146400794386864 0.000000000000000
-2.609306335449219 -4.315103530883789 0.505992949008942 0.000000000000000
-2.607316732406616 -9.425956726074219 0.929641008377075 1.000000000000000
-2.605727672576904 -8.818264961242676 1.912603378295898 0.000000000000000
-2.603030443191528 -2.282153844833374 0.591734707355499 0.000000000000000
-2.599224567413330 -10.144628524780273 0.642349123954773 0.000000000000000
-2.599057435989380 -8.910015106201172 1.930523991584778 1.000000000000000
-2.598162412643433 -9.162788391113281 2.551955938339233 0.000000000000000
-2.596521139144897 -3.936634302139282 0.198476165533066 0.000000000000000
-2.590225934982300 -10.081688880920410 1.108738899230957 0.000000000000000
-2.589620351791382 -9.740722656250000 0.424200743436813 1.000000000000000
-2.586960077285767 -10.344192504882812 0.161919847130775 1.000000000000000
-2.581357240676880 -4.302731513977051 0.153303354978561 0.000000000000000
-2.578096389770508 -2.531366586685181 0.145116567611694 0.000000000000000
-2.577450990676880 -4.365010738372803 1.358282327651978 1.000000000000000
-2.576421260833740 -9.982406616210938 0.979983985424042 1.000000000000000
-2.572540760040283 -9.300234794616699 2.007093429565430 1.000000000000000
-2.570442914962769 -11.927061080932617 1.493759274482727 0.000000000000000
-2.568066596984863 -10.095534324645996 0.990203976631165 1.000000000000000
-2.567588567733765 -5.508472919464111 0.609827280044556 0.000000000000000
-2.561880588531494 -3.895792722702026 0.223148137331009 0.000000000000000
-2.560451984405518 -1.596780300140381 0.808550715446472 0.000000000000000
-2.552120685577393 -5.661804199218750 0.345041930675507 0.000000000000000
-2.545731782913208 -4.171887397766113 0.215092048048973 0.000000000000000
-2.544353246688843 -8.740067481994629 2.439110755920410 1.000000000000000
-2.541746377944946 -12.146537780761719 0.976658940315247 0.000000000000000
-2.536898851394653 -9.223983764648438 1.086581230163574 1.000000000000000
-2.535996675491333 -11.969960212707520 0.632678210735321 0.000000000000000
-2.530063867568970 -10.196035385131836 0.240232035517693 0.000000000000000
-2.527835607528687 -9.334884643554688 0.798507213592529 0.000000000000000
-2.526222467422485 -9.633500099182129 1.475978732109070 1.000000000000000
-2.525114059448242 -1.995574235916138 0.862385094165802 0.000000000000000
-2.517960786819458 -9.699907302856445 0.363965064287186 0.000000000000000
-2.517324209213257 -9.347782135009766 2.013609886169434 0.000000000000000
-2.512991428375244 -5.880817413330078 0.515672504901886 0.000000000000000
-2.505725383758545 -9.236619949340820 1.087032794952393 1.000000000000000
-2.502477169036865 -10.329012870788574 0.508632421493530 0.000000000000000
-2.496454477310181 -2.310772180557251 0.123547762632370 0.000000000000000
-2.495737791061401 -6.344243049621582 0.378769516944885 0.000000000000000
-2.494359254837036 -9.591091156005859 0.340874552726746 0.000000000000000
-2.493518590927124 -5.896670341491699 0.528607845306396 0.000000000000000
-2.490059614181519 -4.377247333526611 0.202264249324799 0.000000000000000
-2.489893913269043 -4.946732044219971 0.446551799774170 0.000000000000000
-2.489695549011230 -9.509090423583984 2.044563531875610 0.000000000000000
-2.484819889068604 -4.894036769866943 0.623418688774109 0.000000000000000
-2.484374046325684 -9.118227958679199 2.532285690307617 1.000000000000000
-2.476191520690918 -12.183938026428223 1.127117276191711 0.000000000000000
-2.476078271865845 -9.344497680664062 2.590260982513428 1.000000000000000
-2.474718093872070 -9.872685432434082 0.967492878437042 1.000000000000000
-2.474349260330200 -8.611497879028320 2.400805473327637 0.000000000000000
-2.473241090774536 -10.098143577575684 0.697832345962524 0.000000000000000
-2.470897436141968 5.975297927856445 0.359243005514145 1.000000000000000
-2.465895175933838 -4.211602210998535 0.519840598106384 0.000000000000000
-2.462416648864746 -9.131189346313477 1.157870054244995 1.000000000000000
-2.462332963943481 -2.183243274688721 0.373780369758606 0.000000000000000
-2.450557947158813 -3.909251928329468 0.238571122288704 0.000000000000000
-2.448997497558594 -10.310146331787109 0.384870886802673 1.000000000000000
-2.445557117462158 5.914018154144287 0.060317683964968 1.000000000000000
-2.444526672363281 -2.026027679443359 0.287828415632248 1.000000000000000
-2.439938545227051 -2.912758350372314 0.050403632223606 0.000000000000000
-2.432679414749146 -11.233553886413574 0.373260378837585 0.000000000000000
-2.432385921478271 -4.604856014251709 0.209166914224625 0.000000000000000
-2.431663036346436 -11.100475311279297 0.434562861919403 1.000000000000000
-2.429097414016724 -10.181312561035156 0.662200689315796 0.000000000000000
-2.428720712661743 -8.330399513244629 1.285983800888062 1.000000000000000
-2.427597284317017 -11.179897308349609 3.065453052520752 0.000000000000000
-2.426975488662720 -1.997232198715210 0.284939289093018 0.000000000000000
-2.425774097442627 -10.301091194152832 1.061906218528748 1.000000000000000
-2.424870252609253 -5.232544422149658 0.320411950349808 0.000000000000000
-2.424425601959229 -9.088674545288086 0.794844210147858 1.000000000000000
