# This PCD file was generated using the MATLAB® pcwrite function
# from Computer Vision Toolbox®.
# .PCD v.7 - Point Cloud Data file format
VERSION .7
FIELDS x y z intensity
SIZE 8 8 8 8
TYPE F F F F
COUNT 1 1 1 1
WIDTH 658
HEIGHT 1
VIEWPOINT 0 0 0 1 0 0 0
POINTS 658
DATA ascii
4.206396102905273 3.707915782928467 0.311536252498627 0.000000000000000
4.209957599639893 4.520795822143555 0.283759295940399 0.000000000000000
4.210655212402344 -2.386933326721191 0.438784837722778 0.000000000000000
4.212178707122803 -1.834830164909363 0.521847903728485 0.000000000000000
4.220954418182373 -0.551352918148041 0.404636085033417 1.000000000000000
4.224892139434814 -3.818957090377808 1.525997161865234 0.000000000000000
4.225404262542725 5.212733745574951 0.489233195781708 0.000000000000000
4.226388454437256 5.809021472930908 1.227950692176819 0.000000000000000
4.232394695281982 5.212420940399170 0.360110372304916 0.000000000000000
4.232920646667480 -2.533751964569092 0.429873257875443 0.000000000000000
4.232963562011719 -2.972990274429321 0.491695284843445 0.000000000000000
4.236620903015137 -13.433573722839355 1.190245509147644 0.000000000000000
4.238460540771484 4.268451690673828 0.545321106910706 0.000000000000000
4.244231700897217 -0.237215116620064 0.334549635648727 0.000000000000000
4.246902465820312 2.331956386566162 0.381311237812042 0.000000000000000
4.253824710845947 1.815464615821838 0.419283270835876 1.000000000000000
4.255933761596680 -7.214772224426270 1.241417169570923 0.000000000000000
4.257121086120605 4.600172042846680 0.595787882804871 0.000000000000000
4.259553432464600 -7.116631984710693 0.751893043518066 0.000000000000000
4.265244960784912 5.126396179199219 1.786886692047119 0.000000000000000
4.265434265136719 3.493828535079956 0.263876974582672 0.000000000000000
4.268976211547852 -5.223849773406982 0.999818682670593 0.000000000000000
4.276211261749268 2.223781347274780 0.342110872268677 0.000000000000000
4.276733875274658 0.831468284130096 0.744723081588745 0.000000000000000
4.276835441589355 -0.069723084568977 0.237646251916885 0.000000000000000
4.279161930084229 5.021958351135254 0.366565436124802 0.000000000000000
4.281071186065674 -3.029148817062378 0.498508632183075 0.000000000000000
4.284716606140137 -3.301940441131592 0.576188385486603 0.000000000000000
4.290793895721436 -4.784183025360107 1.336704492568970 0.000000000000000
4.293228626251221 4.026537895202637 0.406426846981049 1.000000000000000
4.299200057983398 -4.340517520904541 0.905407667160034 0.000000000000000
4.303883075714111 0.015699842944741 0.263992488384247 0.000000000000000
4.307002544403076 3.635577917098999 0.204703122377396 0.000000000000000
4.311563968658447 -2.859284400939941 1.386234879493713 0.000000000000000
4.312252044677734 4.898008346557617 1.748581647872925 0.000000000000000
4.315565109252930 4.109084129333496 0.883124291896820 0.000000000000000
4.317314147949219 5.527107715606689 0.611128389835358 0.000000000000000
4.317519664764404 5.432540416717529 0.586365997791290 0.000000000000000
4.318236351013184 4.060203552246094 0.878433048725128 0.000000000000000
4.318258762359619 -9.938901901245117 1.442044377326965 0.000000000000000
4.319028377532959 4.026998043060303 0.419142425060272 0.000000000000000
4.322864532470703 0.901205182075500 0.041619203984737 1.000000000000000
4.323657035827637 -5.844792842864990 0.659080088138580 0.000000000000000
4.325028896331787 -3.285136222839355 0.427445203065872 0.000000000000000
4.327806949615479 -3.311132431030273 0.580425083637238 0.000000000000000
4.328694343566895 -9.853564262390137 1.595018625259399 0.000000000000000
4.329340457916260 3.609886407852173 0.511012792587280 0.000000000000000
4.329673767089844 -0.900494575500488 0.348044604063034 0.000000000000000
4.330499649047852 -1.644829630851746 0.266288608312607 1.000000000000000
4.331765651702881 3.201596021652222 0.320017218589783 0.000000000000000
4.331796169281006 3.743859767913818 0.848526477813721 1.000000000000000
4.335525989532471 -3.738101720809937 0.518957853317261 0.000000000000000
4.344296455383301 2.532911777496338 0.269707888364792 0.000000000000000
4.347717285156250 -2.590936899185181 0.481096774339676 0.000000000000000
4.351772308349609 1.873809456825256 0.412858873605728 1.000000000000000
4.352154731750488 4.972826957702637 0.392608225345612 0.000000000000000
4.355582714080811 -4.753950595855713 0.561821401119232 0.000000000000000
4.355714797973633 -2.616349935531616 0.482989370822906 0.000000000000000
4.355848312377930 2.421050548553467 0.353722244501114 0.000000000000000
4.364808559417725 -4.348232269287109 0.618213951587677 0.000000000000000
4.367840290069580 -4.836019992828369 1.355439543724060 0.000000000000000
4.368527889251709 4.108926296234131 0.522584199905396 0.000000000000000
4.374242782592773 -0.512152791023254 0.752810597419739 0.000000000000000
4.378159999847412 -5.422813415527344 0.607308804988861 0.000000000000000
4.379755496978760 3.336363315582275 1.475268602371216 0.000000000000000
4.385305404663086 1.634452223777771 0.008168136700988 0.000000000000000
4.386502742767334 -1.554117560386658 0.495691478252411 0.000000000000000
4.387358188629150 5.104021072387695 0.140984371304512 0.000000000000000
4.389672756195068 -2.309322834014893 0.847838580608368 0.000000000000000
4.390642642974854 4.098356723785400 0.264336347579956 0.000000000000000
4.393619537353516 4.106878280639648 0.264688104391098 0.000000000000000
4.395592212677002 3.809060573577881 0.367973446846008 0.000000000000000
4.396837234497070 -3.661226987838745 0.406115025281906 1.000000000000000
4.398925781250000 3.463603496551514 0.829761564731598 0.000000000000000
4.401416301727295 1.328697085380554 0.956301689147949 0.000000000000000
4.402823925018311 -3.210359096527100 0.931409358978271 0.000000000000000
4.405048847198486 2.855318784713745 0.332110553979874 0.000000000000000
4.412536621093750 4.782156467437744 0.524674296379089 0.000000000000000
4.414352416992188 3.431041955947876 0.828588783740997 0.000000000000000
4.415498733520508 -8.326767921447754 1.396814227104187 0.000000000000000
4.420348167419434 -13.847447395324707 1.934333920478821 0.000000000000000
4.421039104461670 1.317803144454956 0.959560036659241 0.000000000000000
4.428560733795166 -5.466084957122803 0.594449162483215 1.000000000000000
4.434841156005859 4.045882225036621 0.798849284648895 0.000000000000000
4.438883304595947 4.939929485321045 0.190147921442986 0.000000000000000
4.442061424255371 -5.061278343200684 0.490978389978409 0.000000000000000
4.442518234252930 -2.733910560607910 0.891645848751068 0.000000000000000
4.443389892578125 4.941647529602051 1.780675053596497 0.000000000000000
4.443825244903564 -1.051949858665466 0.518687963485718 0.000000000000000
4.455081462860107 3.316844701766968 0.329980671405792 0.000000000000000
4.457922458648682 5.194903373718262 0.380322754383087 0.000000000000000
4.459588527679443 -1.310075879096985 1.245437264442444 0.000000000000000
4.459804534912109 -6.073064804077148 1.287932872772217 0.000000000000000
4.460182189941406 3.937440633773804 0.353466033935547 0.000000000000000
4.461065292358398 8.041032791137695 2.463957309722900 0.000000000000000
4.461564540863037 -3.578351974487305 0.573884606361389 0.000000000000000
4.463797569274902 6.220273017883301 0.425366789102554 0.000000000000000
4.467779636383057 -0.414777308702469 0.664982080459595 0.000000000000000
4.467933654785156 -0.226179420948029 0.405559986829758 0.000000000000000
4.470803737640381 4.081832408905029 0.897198021411896 0.000000000000000
4.471013545989990 3.855738639831543 0.785658299922943 0.000000000000000
4.472310066223145 5.388457775115967 0.362091064453125 0.000000000000000
4.475032806396484 6.168634891510010 0.811747789382935 0.000000000000000
4.476325035095215 5.266928672790527 1.852109074592590 0.000000000000000
4.477671623229980 5.194577217102051 1.837615251541138 0.000000000000000
4.477778911590576 1.227840065956116 0.617868244647980 0.000000000000000
4.478869438171387 -3.592231273651123 1.538420438766479 0.000000000000000
4.480040073394775 1.150780797004700 0.685506165027618 0.000000000000000
4.482736587524414 -13.329414367675781 2.925110340118408 0.000000000000000
4.483098506927490 3.853214263916016 1.583972692489624 0.000000000000000
4.489211082458496 4.219785213470459 0.366038978099823 0.000000000000000
4.492024421691895 -1.884768486022949 0.289415121078491 0.000000000000000
4.494404315948486 -3.578982114791870 1.539455771446228 0.000000000000000
4.496405124664307 5.498229026794434 0.600174725055695 0.000000000000000
4.497461318969727 5.278150558471680 0.278514653444290 0.000000000000000
4.502592086791992 4.019848823547363 0.312104701995850 0.000000000000000
4.504953861236572 -1.306337833404541 1.256825327873230 0.000000000000000
4.505094528198242 2.268587350845337 1.049162387847900 0.000000000000000
4.505876064300537 -2.751261949539185 0.902429223060608 0.000000000000000
4.512604713439941 4.986844539642334 0.295993387699127 0.000000000000000
4.517130374908447 1.011187791824341 0.962818264961243 0.000000000000000
4.522016048431396 -2.768055915832520 0.437763631343842 0.000000000000000
4.523668766021729 3.758423566818237 0.281468778848648 0.000000000000000
4.526061058044434 5.319608688354492 0.663921117782593 0.000000000000000
4.527364730834961 5.001050949096680 0.167223125696182 0.000000000000000
4.527832031250000 4.073159694671631 0.810457408428192 0.000000000000000
4.529006004333496 -1.088823199272156 0.529070734977722 0.000000000000000
4.532114982604980 3.805863380432129 1.011610269546509 0.000000000000000
4.535193443298340 3.732677698135376 0.511820018291473 0.000000000000000
4.535930633544922 0.998783409595490 0.966076612472534 0.000000000000000
4.537265777587891 -1.705265283584595 0.353399723768234 0.000000000000000
4.537669181823730 0.914296269416809 0.791226148605347 0.000000000000000
4.543761730194092 5.397423267364502 0.256241858005524 0.000000000000000
4.545919418334961 5.776419639587402 1.528942346572876 0.000000000000000
4.547203063964844 3.996360063552856 0.644822597503662 0.000000000000000
4.548789024353027 5.023482322692871 1.815874457359314 0.000000000000000
4.549102306365967 5.990621566772461 0.715021133422852 0.000000000000000
4.549516677856445 -7.496191978454590 0.740956425666809 0.000000000000000
4.549534320831299 4.817565441131592 1.775498628616333 0.000000000000000
4.553201198577881 6.443112373352051 1.348589181900024 0.000000000000000
4.553644180297852 -11.990074157714844 0.515131711959839 0.000000000000000
4.554488182067871 4.467723369598389 0.640178859233856 0.000000000000000
4.557226657867432 -0.981061935424805 0.496538817882538 0.000000000000000
4.561674594879150 3.598200321197510 0.506264269351959 0.000000000000000
4.564789772033691 -10.997567176818848 2.035351991653442 0.000000000000000
4.565735340118408 -2.271220207214355 0.411187738180161 0.000000000000000
4.565980434417725 -3.361658811569214 0.336860239505768 0.000000000000000
4.568581104278564 3.017691850662231 0.477096825838089 0.000000000000000
4.574046611785889 -4.216228485107422 0.662616670131683 0.000000000000000
4.575690269470215 6.177378654479980 0.264421850442886 0.000000000000000
4.577867984771729 4.389404773712158 0.352364361286163 0.000000000000000
4.579245567321777 -5.477105140686035 1.484955787658691 0.000000000000000
4.579707145690918 -4.251111030578613 0.665582299232483 0.000000000000000
4.579859256744385 0.776763856410980 0.688438177108765 0.000000000000000
4.582710266113281 5.584843158721924 0.331847846508026 0.000000000000000
4.583326816558838 -11.152011871337891 2.060962200164795 0.000000000000000
4.584837913513184 -12.010275840759277 0.096482299268246 0.000000000000000
4.584844589233398 2.327836275100708 1.069526553153992 0.000000000000000
4.585911273956299 -11.976685523986816 0.539754271507263 0.000000000000000
4.588620662689209 -11.973747253417969 0.170098990201950 0.000000000000000
4.589868545532227 6.273326396942139 0.596744894981384 0.000000000000000
4.590778350830078 -5.222080707550049 0.697687149047852 0.000000000000000
4.591651439666748 -11.625631332397461 0.333861380815506 1.000000000000000
4.591753959655762 -0.971736371517181 0.499928146600723 0.000000000000000
4.595274448394775 6.280025005340576 0.312546432018280 1.000000000000000
4.595636367797852 6.072554111480713 0.261946767568588 0.000000000000000
4.597113609313965 5.591044425964355 0.656190991401672 0.000000000000000
4.598296642303467 2.173800468444824 0.869405269622803 0.000000000000000
4.598789691925049 -2.561966657638550 0.500401198863983 0.000000000000000
4.599929332733154 5.230096340179443 0.199420630931854 0.000000000000000
4.600478649139404 6.607408523559570 1.376221299171448 0.000000000000000
4.600947856903076 8.562066078186035 2.021755456924438 0.000000000000000
4.604930400848389 3.665685892105103 0.463222533464432 0.000000000000000
4.605321407318115 -2.099833965301514 1.356211900711060 0.000000000000000
4.605823516845703 3.048067569732666 0.481263577938080 0.000000000000000
4.608205795288086 5.915669918060303 0.373308062553406 0.000000000000000
4.610008239746094 1.037305474281311 0.503317534923553 0.000000000000000
4.615406990051270 0.036572281271219 0.390012562274933 0.000000000000000
4.616068363189697 5.311678886413574 0.309711426496506 0.000000000000000
4.616371631622314 -3.373973608016968 0.339706927537918 0.000000000000000
4.616540431976318 5.170398712158203 1.857285499572754 0.000000000000000
4.620239734649658 1.379899740219116 1.292024731636047 0.000000000000000
4.622408390045166 5.784592628479004 1.265692353248596 0.000000000000000
4.624883174896240 5.591717243194580 0.632309556007385 0.000000000000000
4.625526428222656 -10.743449211120605 1.556542515754700 0.000000000000000
4.627799987792969 4.469328880310059 0.583240807056427 0.000000000000000
4.631053924560547 5.643758296966553 0.223053321242332 0.000000000000000
4.631763935089111 5.697150707244873 0.563677489757538 0.000000000000000
4.631779670715332 -3.346816301345825 1.531173586845398 1.000000000000000
4.632244586944580 8.762830734252930 2.061669349670410 0.000000000000000
4.637541294097900 0.177507892251015 0.374216198921204 0.000000000000000
4.638060569763184 -2.002456426620483 1.050791501998901 0.000000000000000
4.638738155364990 -9.129231452941895 1.517613291740417 0.000000000000000
4.638848781585693 8.701686859130859 2.051079988479614 0.000000000000000
4.639122962951660 6.357627868652344 0.391804426908493 0.000000000000000
4.639749526977539 6.116855144500732 0.770371258258820 0.000000000000000
4.641817092895508 6.008851051330566 0.641600906848907 0.000000000000000
4.643818855285645 0.823763012886047 0.473245143890381 0.000000000000000
4.644265651702881 6.523537158966064 1.368807792663574 0.000000000000000
4.644749641418457 1.041546225547791 0.477638155221939 0.000000000000000
4.647804260253906 0.802982151508331 0.427589505910873 0.000000000000000
4.648607254028320 5.317358493804932 1.892484903335571 0.000000000000000
4.650099277496338 2.360766410827637 0.772880375385284 0.000000000000000
4.650628089904785 5.696549892425537 0.666664063930511 0.000000000000000
4.653423309326172 6.288285255432129 0.284116327762604 0.000000000000000
4.656480312347412 0.887093842029572 0.702511906623840 0.000000000000000
4.657014369964600 -10.022598266601562 1.889103055000305 0.000000000000000
4.657412528991699 5.107497215270996 1.852109074592590 0.000000000000000
4.658397674560547 -2.104423761367798 1.369670510292053 0.000000000000000
4.660782814025879 6.588027477264404 0.401748687028885 0.000000000000000
4.661355495452881 5.757533073425293 0.645504355430603 0.000000000000000
4.661595821380615 2.517469882965088 0.253551363945007 0.000000000000000
4.663208484649658 -5.657326221466064 0.548684477806091 0.000000000000000
4.664396762847900 3.597520828247070 1.006892561912537 0.000000000000000
4.666114807128906 3.736793041229248 0.599843263626099 0.000000000000000
4.669701576232910 5.041408538818359 0.622966110706329 0.000000000000000
4.669779777526855 6.133072853088379 0.651368081569672 0.000000000000000
4.672418117523193 -9.054194450378418 1.509990096092224 0.000000000000000
4.675680160522461 -5.388053417205811 0.561453342437744 1.000000000000000
4.677040576934814 3.975973129272461 0.128586471080780 0.000000000000000
4.679360866546631 -5.423195838928223 0.549899399280548 0.000000000000000
4.684693813323975 5.235131263732910 0.390307873487473 0.000000000000000
4.685921669006348 5.767672538757324 0.498796135187149 0.000000000000000
4.689521789550781 -4.984759807586670 0.620438158512115 0.000000000000000
4.691406726837158 4.181509017944336 0.669395327568054 0.000000000000000
4.695240974426270 -2.214219093322754 0.418582051992416 0.000000000000000
4.697739124298096 6.363020420074463 1.351958870887756 0.000000000000000
4.699625492095947 -0.864408135414124 0.454221993684769 0.000000000000000
4.704267024993896 4.067498683929443 1.293532490730286 0.000000000000000
4.705635070800781 2.954013347625732 1.488727211952209 1.000000000000000
4.706366539001465 0.615260362625122 0.987255275249481 0.000000000000000
4.706618309020996 -5.353850364685059 1.910084605216980 0.000000000000000
4.707248687744141 4.126110076904297 0.927690982818604 0.000000000000000
4.709259510040283 5.241371631622314 0.554548919200897 0.000000000000000
4.712211608886719 -5.953651905059814 0.480360686779022 1.000000000000000
4.712468624114990 4.712798595428467 0.604186892509460 0.000000000000000
4.713405609130859 5.648378849029541 0.408724933862686 0.000000000000000
4.716697692871094 3.893957614898682 0.210382446646690 0.000000000000000
4.718017101287842 4.409795761108398 0.160086154937744 0.000000000000000
4.719308376312256 3.388419866561890 0.345163106918335 0.000000000000000
4.720630645751953 5.494835853576660 0.964001178741455 0.000000000000000
4.724444389343262 4.892651557922363 1.162576794624329 0.000000000000000
4.726594448089600 2.941588878631592 0.825070321559906 0.000000000000000
4.727478981018066 0.634811162948608 0.992142677307129 0.000000000000000
4.728002071380615 4.698063850402832 0.190834775567055 0.000000000000000
4.733587265014648 0.905205905437469 0.714240014553070 0.000000000000000
4.734266757965088 -1.466224908828735 0.847164690494537 0.000000000000000
4.734410762786865 6.195940971374512 0.313188523054123 0.000000000000000
4.735250473022461 -4.269777774810791 0.391090929508209 0.000000000000000
4.736644744873047 -1.485100746154785 0.848512589931488 1.000000000000000
4.737034797668457 1.144435524940491 0.833011567592621 0.000000000000000
4.738262176513672 5.430039882659912 0.137117370963097 0.000000000000000
4.738469123840332 3.474645614624023 0.532681167125702 0.000000000000000
4.738832473754883 6.099591255187988 0.429138988256454 0.000000000000000
4.739171028137207 -1.577247381210327 0.364161700010300 0.000000000000000
4.741389751434326 6.086641311645508 0.265384376049042 0.000000000000000
4.742684841156006 -3.359002113342285 0.993413448333740 1.000000000000000
4.744322299957275 -5.594708442687988 0.548983037471771 0.000000000000000
4.744382381439209 5.818433761596680 0.654185116291046 0.000000000000000
4.744669914245605 0.314226299524307 0.291665196418762 0.000000000000000
4.747969627380371 -3.721277952194214 1.031155109405518 0.000000000000000
4.748449802398682 -0.977999210357666 0.439507097005844 0.000000000000000
4.751327514648438 4.310055732727051 1.096529006958008 0.000000000000000
4.752508640289307 1.130629658699036 0.835033416748047 0.000000000000000
4.753680229187012 -0.779467165470123 0.323333472013474 0.000000000000000
4.754253387451172 -2.522349357604980 0.487899869680405 0.000000000000000
4.754506587982178 5.631378650665283 0.296012103557587 0.000000000000000
4.755908489227295 3.377227306365967 0.357785761356354 0.000000000000000
4.758152484893799 -0.960448861122131 0.461413860321045 0.000000000000000
4.759854316711426 4.020114421844482 0.142474874854088 0.000000000000000
4.762145996093750 4.695458889007568 0.063031978905201 0.000000000000000
4.762666702270508 0.839959263801575 0.438423722982407 0.000000000000000
4.767708301544189 4.197094440460205 0.035476077347994 0.000000000000000
4.768523216247559 4.220465183258057 0.678292334079742 0.000000000000000
4.768989562988281 5.869916439056396 0.274679630994797 0.000000000000000
4.771550178527832 6.521645069122314 0.495659410953522 0.000000000000000
4.772929668426514 -6.194643020629883 0.660798430442810 0.000000000000000
4.775218963623047 6.807575702667236 1.421376585960388 0.000000000000000
4.778396129608154 0.409568607807159 0.481232404708862 0.000000000000000
4.780298709869385 6.612473964691162 0.453325182199478 0.000000000000000
4.781157970428467 4.089560508728027 0.507313728332520 0.000000000000000
4.781424045562744 4.310659408569336 0.954079210758209 0.000000000000000
4.786317825317383 -4.033452987670898 1.677147507667542 0.000000000000000
4.787598609924316 4.286024093627930 0.952319979667664 1.000000000000000
4.787738800048828 5.883126735687256 0.807934701442719 0.000000000000000
4.793617248535156 5.775783538818359 0.460395097732544 0.000000000000000
4.794369220733643 6.541566848754883 1.386330723762512 0.000000000000000
4.794463634490967 5.953745841979980 0.424701124429703 0.000000000000000
4.795653343200684 4.124620437622070 0.181104153394699 0.000000000000000
4.796908855438232 -3.206887960433960 0.502792000770569 0.000000000000000
4.798182010650635 -0.143076479434967 0.435173451900482 0.000000000000000
4.798624038696289 4.347162246704102 0.861638724803925 0.000000000000000
4.803491115570068 -6.838225841522217 1.238485097885132 0.000000000000000
4.804113864898682 6.835058689117432 0.303425192832947 0.000000000000000
4.805654048919678 4.296144485473633 0.159788787364960 0.000000000000000
4.808457374572754 -4.295332431793213 0.561821401119232 0.000000000000000
4.811460494995117 0.396335482597351 0.484427332878113 0.000000000000000
4.811789035797119 5.661041736602783 0.184173420071602 0.000000000000000
4.816771507263184 6.889550685882568 0.402316778898239 0.000000000000000
4.821131229400635 -4.722189426422119 0.898045897483826 0.000000000000000
4.822287559509277 -4.092637062072754 1.694747209548950 0.000000000000000
4.824945449829102 5.826559543609619 0.685804426670074 0.000000000000000
4.826089859008789 0.289596617221832 0.408536434173584 1.000000000000000
4.826410293579102 -7.555269718170166 0.954947531223297 0.000000000000000
4.826548099517822 3.053458690643311 0.573085904121399 0.000000000000000
4.828944206237793 -6.152165412902832 0.600419044494629 1.000000000000000
4.832699775695801 3.540372610092163 0.332837879657745 0.000000000000000
4.836472988128662 5.966588020324707 1.312869310379028 0.000000000000000
4.837198734283447 3.428860664367676 0.283763349056244 0.000000000000000
4.841630458831787 6.823171615600586 0.400404632091522 0.000000000000000
4.843336582183838 0.130126819014549 1.298236370086670 0.000000000000000
4.844968318939209 3.680999517440796 0.431886643171310 0.000000000000000
4.845108509063721 5.041500091552734 0.469329118728638 0.000000000000000
4.848297119140625 -2.444591760635376 0.492233514785767 0.000000000000000
4.851449966430664 3.509027481079102 0.079425513744354 0.000000000000000
4.860303401947021 -2.366119623184204 0.394120663404465 0.000000000000000
4.860372066497803 3.839592933654785 0.272602349519730 0.000000000000000
4.865705966949463 5.188524723052979 1.905943512916565 0.000000000000000
4.865927219390869 -4.626962184906006 1.147749662399292 1.000000000000000
4.871152877807617 -0.074990220367908 1.013321399688721 0.000000000000000
4.872165203094482 2.220580577850342 0.915234327316284 0.000000000000000
4.873266220092773 -5.251238822937012 1.224580883979797 0.000000000000000
4.880338191986084 -3.131678104400635 0.658629894256592 0.000000000000000
4.881476879119873 -0.497649997472763 0.300971060991287 0.000000000000000
4.881484985351562 -5.797360420227051 0.567192912101746 0.000000000000000
4.883295536041260 0.722149908542633 0.843794882297516 1.000000000000000
4.886064052581787 -3.159485101699829 0.660887002944946 0.000000000000000
4.886787414550781 -11.218488693237305 1.498134136199951 0.000000000000000
4.886789321899414 3.885595083236694 0.094807527959347 0.000000000000000
4.890563964843750 -0.656189620494843 1.026354551315308 0.000000000000000
4.891623020172119 4.466039657592773 0.062428805977106 0.000000000000000
4.893865585327148 3.424050569534302 0.366356939077377 0.000000000000000
4.897400379180908 5.370677471160889 0.333866834640503 0.000000000000000
4.898202896118164 2.401513099670410 1.134691834449768 0.000000000000000
4.899822711944580 3.524900436401367 0.010534802451730 0.000000000000000
4.901581764221191 4.027066707611084 0.059789907187223 0.000000000000000
4.901902198791504 5.951560974121094 0.294854670763016 0.000000000000000
4.902818679809570 4.700320720672607 0.024893924593925 0.000000000000000
4.904124736785889 6.066473007202148 0.223346531391144 0.000000000000000
4.904233455657959 6.499169826507568 1.391722321510315 0.000000000000000
4.906687259674072 -2.452588796615601 0.497289508581161 0.000000000000000
4.908842086791992 -5.553903102874756 0.540425240993500 0.000000000000000
4.910113334655762 -2.393125057220459 0.387706786394119 0.000000000000000
4.910497188568115 4.766587257385254 0.248547345399857 0.000000000000000
4.914460659027100 -0.058497685939074 1.022281765937805 0.000000000000000
4.917006492614746 0.709603786468506 0.849186539649963 1.000000000000000
4.919216632843018 6.359905242919922 0.617258965969086 0.000000000000000
4.920939445495605 -4.712091922760010 1.164598584175110 0.000000000000000
4.921944618225098 6.041143417358398 0.238078266382217 0.000000000000000
4.935328483581543 3.786873102188110 0.624204397201538 0.000000000000000
4.935331344604492 -5.896522521972656 0.590315103530884 0.000000000000000
4.935339450836182 2.381483078002930 0.420691370964050 0.000000000000000
4.937268733978271 -0.073338583111763 1.323083043098450 0.000000000000000
4.937575817108154 -1.876989960670471 0.782849252223969 0.000000000000000
4.942213058471680 3.131707429885864 0.623215496540070 0.000000000000000
4.942270278930664 4.555485248565674 0.295817524194717 0.000000000000000
4.943293094635010 3.479492187500000 0.289308607578278 0.000000000000000
4.945959568023682 6.832075119018555 0.306328773498535 0.000000000000000
4.946479320526123 3.007031917572021 0.857908964157104 0.000000000000000
4.947111606597900 6.187396526336670 0.690297245979309 0.000000000000000
4.947762489318848 3.903023242950439 0.277350902557373 0.000000000000000
4.949256420135498 3.981584310531616 0.450861364603043 0.000000000000000
4.952716827392578 4.946498394012451 0.052533920854330 0.000000000000000
4.953386306762695 5.193214893341064 0.955031216144562 0.000000000000000
4.956269741058350 -5.767893791198730 0.689415872097015 0.000000000000000
4.960561275482178 -3.610808849334717 1.644018650054932 0.000000000000000
4.962942123413086 6.767608642578125 1.243762731552124 0.000000000000000
4.974220275878906 -6.756492137908936 0.660311818122864 0.000000000000000
4.974959850311279 3.627670288085938 0.188117250800133 0.000000000000000
4.977820873260498 1.505643606185913 1.393481850624084 0.000000000000000
4.979457378387451 -6.769048213958740 0.645121335983276 0.000000000000000
4.980515480041504 -2.381882429122925 0.588051080703735 0.000000000000000
4.980517864227295 6.133774757385254 0.545576453208923 0.000000000000000
4.982511520385742 -5.940242290496826 0.595214009284973 0.000000000000000
4.982817173004150 3.279452085494995 0.285484284162521 0.000000000000000
4.983489036560059 5.572169303894043 1.277823567390442 0.000000000000000
4.984407901763916 4.328911781311035 0.878523170948029 0.000000000000000
4.984723567962646 3.696450233459473 0.476416170597076 0.000000000000000
4.985715866088867 -3.608791351318359 1.052047729492188 1.000000000000000
4.986484050750732 6.710885524749756 1.239071488380432 0.000000000000000
4.988464832305908 -1.413286089897156 0.886254191398621 0.000000000000000
4.990686416625977 -5.665007114410400 0.579598844051361 0.000000000000000
4.990827083587646 3.010184526443481 0.863772988319397 0.000000000000000
4.995490074157715 3.581172704696655 0.341491669416428 0.000000000000000
4.996656417846680 6.767899513244629 0.354061275720596 0.000000000000000
4.997787475585938 -4.671777248382568 0.728708803653717 0.000000000000000
4.998692035675049 4.999042510986328 1.208405971527100 0.000000000000000
5.002471446990967 -6.105517387390137 0.484149515628815 0.000000000000000
5.002554893493652 -7.166194915771484 0.654062986373901 1.000000000000000
5.002561569213867 -2.767033338546753 0.416808068752289 0.000000000000000
5.004212379455566 4.375921249389648 0.241433545947075 0.000000000000000
5.005275249481201 4.576214313507080 1.005096316337585 0.000000000000000
5.005425453186035 6.536419868469238 0.717381358146667 0.000000000000000
5.006676197052002 5.999823570251465 0.680922031402588 0.000000000000000
5.012901306152344 4.822510242462158 0.012140504084527 0.000000000000000
5.014543056488037 -4.242270469665527 1.759969592094421 0.000000000000000
5.015158653259277 -2.419996500015259 0.593135118484497 0.000000000000000
5.017273902893066 5.654274940490723 0.658699154853821 0.000000000000000
5.018556594848633 0.102582708001137 0.534668922424316 0.000000000000000
5.019060134887695 -3.936011791229248 0.945283174514771 1.000000000000000
5.020415306091309 4.819116592407227 1.447485685348511 0.000000000000000
5.021474361419678 3.503813028335571 0.245927631855011 0.000000000000000
5.021509647369385 -3.499275922775269 0.375417917966843 0.000000000000000
5.021633625030518 4.847982883453369 0.025582980364561 0.000000000000000
5.022113323211670 -3.989619731903076 0.950560748577118 0.000000000000000
5.022569656372070 -1.652114152908325 0.903777122497559 0.000000000000000
5.023471355438232 5.910711765289307 0.778358519077301 0.000000000000000
5.024544239044189 -7.142311096191406 1.294193387031555 0.000000000000000
5.024854660034180 5.498289585113525 0.413828432559967 0.000000000000000
5.026413917541504 5.303780555725098 0.265388160943985 0.000000000000000
5.027643680572510 6.301634788513184 0.323783338069916 0.000000000000000
5.028901576995850 -3.018206119537354 1.571549415588379 0.000000000000000
5.031038284301758 -2.779803037643433 0.430171042680740 0.000000000000000
5.031406879425049 4.995704650878906 0.284775197505951 0.000000000000000
5.033099174499512 6.026782512664795 0.663492858409882 0.000000000000000
5.033379077911377 6.298891067504883 0.730946958065033 0.000000000000000
5.035472393035889 6.231844902038574 0.506879031658173 0.000000000000000
5.035635471343994 7.088192462921143 0.399392098188400 0.000000000000000
5.038598537445068 6.350749969482422 0.734919488430023 0.000000000000000
5.042003154754639 4.204118251800537 1.122139334678650 0.000000000000000
5.042994499206543 5.927175521850586 0.582417547702789 0.000000000000000
5.052010536193848 1.036296367645264 0.881536483764648 0.000000000000000
5.052802085876465 -7.486012458801270 0.606216728687286 0.000000000000000
5.053999423980713 -2.835128307342529 0.581472516059875 0.000000000000000
5.055500030517578 6.205067634582520 0.803119003772736 0.000000000000000
5.055546760559082 6.010893344879150 0.300357401371002 0.000000000000000
5.055637359619141 -3.626291513442993 0.477640867233276 0.000000000000000
5.056256294250488 -6.727939128875732 0.733354032039642 0.000000000000000
5.060303211212158 -7.582442283630371 0.541585803031921 0.000000000000000
5.064689159393311 6.323577404022217 0.543800294399261 0.000000000000000
5.068674564361572 6.674835681915283 0.497936367988586 0.000000000000000
5.068962574005127 4.164584636688232 0.972257733345032 0.000000000000000
5.071384906768799 6.467312812805176 0.298489063978195 0.000000000000000
5.071609973907471 -0.304951250553131 1.361388206481934 0.000000000000000
5.072062969207764 5.037131309509277 1.221885085105896 0.000000000000000
5.074330806732178 -9.282295227050781 1.407747745513916 0.000000000000000
5.075130939483643 -2.400195837020874 0.257879555225372 0.000000000000000
5.076596260070801 6.008615016937256 1.165771007537842 0.000000000000000
5.078349113464355 -1.829119086265564 0.922647893428802 0.000000000000000
5.078428268432617 5.641753673553467 0.568088471889496 0.000000000000000
5.078474521636963 4.056416988372803 0.461339890956879 0.000000000000000
5.079443931579590 -2.135618686676025 0.391105204820633 0.000000000000000
5.081262111663818 6.136085033416748 0.580855369567871 0.000000000000000
5.083139896392822 0.022534342482686 0.676436483860016 0.000000000000000
5.084516525268555 -3.250683784484863 1.255247950553894 0.000000000000000
5.085468292236328 -3.473495006561279 0.342157334089279 0.000000000000000
5.089316368103027 6.717333793640137 0.273680984973907 0.000000000000000
5.089876174926758 5.373749256134033 0.625434637069702 0.000000000000000
5.091646194458008 -1.824677705764771 0.457035422325134 0.000000000000000
5.092364788055420 -1.924853563308716 0.724451839923859 0.000000000000000
5.093820095062256 -0.252783268690109 1.366564631462097 0.000000000000000
5.094333171844482 -2.387552738189697 0.258430182933807 0.000000000000000
5.095617771148682 -3.401953458786011 0.555433034896851 1.000000000000000
5.096830368041992 -4.140309333801270 0.478762090206146 0.000000000000000
5.098198890686035 -7.244322776794434 0.771896779537201 0.000000000000000
5.099937438964844 6.048013687133789 0.842675507068634 0.000000000000000
5.101315021514893 -6.766233444213867 0.716033399105072 0.000000000000000
5.102105140686035 6.166949748992920 0.760821819305420 0.000000000000000
5.106256961822510 5.446368217468262 0.185065552592278 0.000000000000000
5.108904838562012 -3.686556339263916 0.548973858356476 0.000000000000000
5.111181259155273 -9.887483596801758 1.649554252624512 0.000000000000000
5.114356994628906 -4.124997138977051 0.479052960872650 0.000000000000000
5.115674018859863 1.298170685768127 1.414187312126160 0.000000000000000
5.119009494781494 -4.649943351745605 0.530916213989258 0.000000000000000
5.123019695281982 5.823413372039795 0.826152443885803 0.000000000000000
5.124109268188477 -3.535942554473877 1.064179062843323 1.000000000000000
5.124343395233154 2.837079286575317 0.280321478843689 0.000000000000000
5.124344348907471 5.348475933074951 1.097748160362244 0.000000000000000
5.124467372894287 6.587888717651367 0.544118404388428 0.000000000000000
5.125129699707031 -2.742084980010986 0.423788785934448 1.000000000000000
5.128813743591309 -2.866631746292114 0.439723759889603 0.000000000000000
5.131443977355957 4.946383476257324 0.258855074644089 0.000000000000000
5.135642051696777 7.104012489318848 0.622199952602386 0.000000000000000
5.136659145355225 -9.851469993591309 2.310926675796509 0.000000000000000
5.140648841857910 7.274393558502197 0.807508528232574 0.000000000000000
5.142609119415283 6.478130817413330 0.587082684040070 0.000000000000000
5.146308422088623 5.561012744903564 0.216935768723488 0.000000000000000
5.153520584106445 3.912303924560547 0.147961705923080 0.000000000000000
5.156339168548584 5.390338897705078 0.356998771429062 0.000000000000000
5.157194614410400 -4.735311508178711 0.510466277599335 0.000000000000000
5.157926082611084 0.179397672414780 0.336463481187820 0.000000000000000
5.158499240875244 -3.138143301010132 0.894852399826050 1.000000000000000
5.159694671630859 -1.970915079116821 0.735004663467407 0.000000000000000
5.165955066680908 6.910251140594482 0.529209434986115 0.000000000000000
5.166803359985352 6.885042667388916 1.145509719848633 0.000000000000000
5.167432308197021 4.373933792114258 1.003337144851685 0.000000000000000
5.167444229125977 -2.068294763565063 0.395070105791092 0.000000000000000
5.167734622955322 8.513483047485352 0.902849435806274 0.000000000000000
5.169367313385010 4.070229530334473 0.467003971338272 0.000000000000000
5.175318717956543 -3.918466329574585 0.651361048221588 0.000000000000000
5.176948070526123 5.655198097229004 0.278454303741455 0.000000000000000
5.179064273834229 -2.653912067413330 1.210446596145630 0.000000000000000
5.181075572967529 4.202442169189453 0.988677024841309 0.000000000000000
5.184105873107910 -0.940990090370178 0.343489378690720 0.000000000000000
5.191232681274414 -4.213988304138184 0.539141356945038 0.000000000000000
5.191329479217529 4.964236736297607 0.551430284976959 0.000000000000000
5.192485809326172 5.193207263946533 0.055115588009357 0.000000000000000
5.192678451538086 -0.945635676383972 0.323745906352997 0.000000000000000
5.194000720977783 -0.046959932893515 0.378704875707626 0.000000000000000
5.194347381591797 -11.733873367309570 1.571047782897949 0.000000000000000
5.194385051727295 4.273707389831543 0.996886670589447 0.000000000000000
5.194648265838623 2.899742126464844 0.284719437360764 0.000000000000000
5.194763660430908 5.500807285308838 0.759189069271088 0.000000000000000
5.196959972381592 7.395626544952393 0.484788656234741 0.000000000000000
5.198041439056396 5.348626136779785 0.708964884281158 0.000000000000000
5.207230567932129 5.731509208679199 1.030483961105347 0.000000000000000
5.211956977844238 -2.838230133056641 1.590184211730957 0.000000000000000
5.212366104125977 5.722496986389160 0.489705234766006 0.000000000000000
5.214996337890625 -2.695349693298340 1.221036076545715 0.000000000000000
5.215845108032227 3.657061576843262 0.353917598724365 0.000000000000000
5.218022346496582 2.940447092056274 0.680298328399658 0.000000000000000
5.219445228576660 -6.855968475341797 0.781145393848419 0.000000000000000
5.219663619995117 -2.424105405807495 0.577478885650635 0.000000000000000
5.220723628997803 4.827345371246338 0.367668032646179 0.000000000000000
5.221447467803955 -3.755307674407959 0.560432493686676 0.000000000000000
5.224412441253662 -3.128480434417725 0.902475655078888 0.000000000000000
5.242012977600098 1.027587532997131 0.568985998630524 0.000000000000000
5.245035648345947 4.822384834289551 0.395855188369751 0.000000000000000
5.246262550354004 -6.148665428161621 0.464627742767334 0.000000000000000
5.246606826782227 -6.760471820831299 0.723106145858765 0.000000000000000
5.248394489288330 0.726315021514893 0.243379577994347 0.000000000000000
5.249932289123535 1.232135176658630 1.121658921241760 0.000000000000000
5.251100063323975 6.195834636688232 0.545139670372009 0.000000000000000
5.251167297363281 5.591535568237305 0.939128816127777 0.000000000000000
5.252128601074219 -0.409110337495804 0.459040731191635 0.000000000000000
5.253310203552246 7.278002738952637 1.866987705230713 0.000000000000000
5.255270481109619 0.216678857803345 0.413950204849243 0.000000000000000
5.256087779998779 -0.484261184930801 0.782262861728668 0.000000000000000
5.258209228515625 13.692396163940430 0.504505336284637 0.000000000000000
5.258295536041260 3.875051736831665 0.036481384187937 0.000000000000000
5.260328292846680 -10.003321647644043 2.350840568542480 0.000000000000000
5.261012077331543 6.740816116333008 0.656449973583221 0.000000000000000
5.265047073364258 7.548391342163086 0.777667462825775 0.000000000000000
5.265769004821777 -4.454805850982666 0.692096054553986 0.000000000000000
5.267657279968262 -4.698921680450439 1.046144604682922 0.000000000000000
5.271368980407715 5.393483638763428 0.186948910355568 0.000000000000000
5.272286891937256 3.932420969009399 0.188316270709038 0.000000000000000
5.273495674133301 5.263929843902588 0.270614624023438 0.000000000000000
5.273617744445801 5.490450859069824 1.013071775436401 0.000000000000000
5.274113178253174 6.701722621917725 0.638241231441498 0.000000000000000
5.274695396423340 6.775161266326904 0.311845600605011 0.000000000000000
5.277111053466797 -9.269042015075684 1.419355750083923 0.000000000000000
5.277689933776855 -3.829120874404907 1.356254220008850 0.000000000000000
5.279201030731201 7.367934703826904 0.538501918315887 0.000000000000000
5.279677391052246 -6.938602447509766 1.067456960678101 0.000000000000000
5.280534744262695 4.520857810974121 0.252467185258865 0.000000000000000
5.283512115478516 -4.501552581787109 0.696489095687866 1.000000000000000
5.290692329406738 5.253149986267090 0.070270106196404 0.000000000000000
5.294049739837646 -2.735271453857422 0.883124291896820 0.000000000000000
5.294925212860107 -4.161311149597168 0.998059451580048 0.000000000000000
5.296344280242920 1.019054055213928 0.574493706226349 0.000000000000000
5.300990104675293 4.973090171813965 0.473859220743179 0.000000000000000
5.301141262054443 6.482264995574951 0.320228338241577 0.000000000000000
5.302740573883057 1.264076352119446 1.133877396583557 0.000000000000000
5.304421901702881 -4.372472763061523 0.434900701045990 0.000000000000000
5.305075645446777 5.498558521270752 1.132346034049988 0.000000000000000
5.305083751678467 6.959383487701416 0.300998151302338 0.000000000000000
5.306453704833984 0.616045057773590 0.484288454055786 0.000000000000000
5.307813644409180 -1.940388202667236 0.433857113122940 0.000000000000000
5.308421611785889 -3.965718030929565 1.378247380256653 0.000000000000000
5.309592723846436 -6.796457767486572 0.578892767429352 0.000000000000000
5.309979915618896 -4.909870147705078 0.415731638669968 0.000000000000000
5.310642242431641 -7.231678962707520 0.654153048992157 0.000000000000000
5.324036121368408 7.300545692443848 0.606484651565552 0.000000000000000
5.329183578491211 4.437587261199951 0.922845065593719 0.000000000000000
5.331144809722900 -9.288393974304199 1.425159931182861 0.000000000000000
5.334317207336426 -8.803843498229980 1.169192194938660 0.000000000000000
5.335827350616455 2.614225625991821 1.015654087066650 0.000000000000000
5.338816642761230 -8.609958648681641 1.150683641433716 0.000000000000000
5.339712619781494 -1.077838659286499 1.133062720298767 0.000000000000000
5.345841884613037 -0.020433366298676 0.255845934152603 0.000000000000000
5.350872993469238 -0.231004148721695 0.509107112884521 0.000000000000000
5.351700782775879 -6.007461547851562 0.701061427593231 0.000000000000000
5.357478618621826 6.053828716278076 0.918199598789215 0.000000000000000
5.360615730285645 7.422304630279541 0.667532801628113 0.000000000000000
5.362549781799316 -4.573902606964111 0.669977426528931 0.000000000000000
5.365494728088379 -4.276170253753662 1.016824483871460 0.000000000000000
5.366303443908691 -3.736766576766968 0.656153440475464 1.000000000000000
5.366617202758789 -3.461730718612671 0.946455955505371 0.000000000000000
5.367184638977051 -3.854441165924072 0.979294598102570 0.000000000000000
5.367320060729980 3.764385223388672 0.049201767891645 1.000000000000000
5.367896556854248 7.153010368347168 0.479647308588028 0.000000000000000
5.369631290435791 -4.063083171844482 0.374109774827957 1.000000000000000
5.369645595550537 5.123999595642090 0.569801032543182 0.000000000000000
5.369853019714355 -0.002717939438298 0.256993234157562 0.000000000000000
5.370489120483398 6.122576236724854 1.083775758743286 0.000000000000000
5.371678829193115 -8.564517021179199 0.880927681922913 0.000000000000000
5.371969699859619 7.505982875823975 0.423987030982971 0.000000000000000
5.376591682434082 -4.015476226806641 0.584738731384277 0.000000000000000
5.377758026123047 -6.892882347106934 0.931222140789032 0.000000000000000
5.378614425659180 4.231641769409180 0.472557336091995 0.000000000000000
5.380356788635254 -4.986104011535645 0.492366939783096 0.000000000000000
5.381038665771484 6.247427463531494 0.878263652324677 0.000000000000000
5.381132602691650 -4.302010059356689 0.691297352313995 0.000000000000000
5.381679534912109 -6.327478408813477 0.943479418754578 0.000000000000000
5.382691383361816 -0.185240000486374 0.330357968807220 0.000000000000000
5.382698535919189 -4.773609638214111 0.652218461036682 0.000000000000000
5.382858753204346 -4.236500740051270 0.596891880035400 0.000000000000000
5.383028984069824 5.763308525085449 0.301580220460892 0.000000000000000
5.383947372436523 -9.930871963500977 1.503250837326050 0.000000000000000
5.383980274200439 0.794653236865997 0.386290758848190 0.000000000000000
5.384761810302734 0.091263793408871 0.573646366596222 0.000000000000000
5.388356208801270 -1.589354395866394 0.398751765489578 0.000000000000000
5.389612674713135 4.519859790802002 0.936036109924316 0.000000000000000
5.390190601348877 -3.876669168472290 0.983985781669617 1.000000000000000
5.390353202819824 0.814831078052521 0.302882462739944 0.000000000000000
5.390359401702881 -4.746893405914307 0.651135027408600 0.000000000000000
5.393019199371338 -13.578262329101562 1.659440279006958 0.000000000000000
5.393182754516602 -6.410966873168945 0.610814332962036 0.000000000000000
5.393885612487793 -6.801975250244141 0.733546912670135 0.000000000000000
5.394100189208984 3.962217092514038 0.307436466217041 0.000000000000000
5.395757198333740 -4.001693248748779 0.638560414314270 0.000000000000000
5.397781372070312 -0.029958050698042 0.489344388246536 0.000000000000000
5.399120330810547 6.793469429016113 0.331845223903656 0.000000000000000
5.404662609100342 5.182161331176758 0.070571690797806 0.000000000000000
5.405635356903076 -3.740527153015137 0.491965204477310 0.000000000000000
5.405785083770752 -8.424902915954590 0.872246861457825 0.000000000000000
5.406328201293945 4.761962413787842 0.958724677562714 0.000000000000000
5.409170627593994 -0.287364125251770 0.543533027172089 0.000000000000000
5.410002708435059 -3.441376686096191 0.643373787403107 0.000000000000000
5.410980224609375 6.141442775726318 0.612568318843842 0.000000000000000
5.411528110504150 -0.118174456059933 0.543133676052094 0.000000000000000
5.413787841796875 -0.011147444136441 0.490788996219635 0.000000000000000
5.413939952850342 3.782577276229858 0.316078722476959 0.000000000000000
5.416537761688232 3.779896259307861 0.303398519754410 0.000000000000000
5.419124126434326 0.188482403755188 0.437228530645370 0.000000000000000
5.420902252197266 -3.859701156616211 0.667734920978546 0.000000000000000
5.422671318054199 -6.064075946807861 0.687405526638031 0.000000000000000
5.425026893615723 -3.395069837570190 0.681681692600250 0.000000000000000
5.429210186004639 4.945747852325439 0.592187523841858 0.000000000000000
5.431355476379395 -3.100754976272583 1.300863623619080 0.000000000000000
5.435520648956299 -1.057739615440369 1.151797771453857 0.000000000000000
5.439171791076660 -1.810215234756470 0.519680142402649 0.000000000000000
5.443511486053467 -3.414972543716431 0.480919867753983 0.000000000000000
5.444519519805908 7.354888916015625 0.561290144920349 0.000000000000000
5.445341587066650 0.164374679327011 1.459739446640015 0.000000000000000
5.446022033691406 -6.930360794067383 0.938848137855530 0.000000000000000
5.447940349578857 -1.133074045181274 0.592711448669434 0.000000000000000
5.449264526367188 -7.264073848724365 1.345797061920166 0.000000000000000
5.449508190155029 8.133625984191895 2.036417484283447 0.000000000000000
5.451913356781006 6.153825759887695 0.875721633434296 0.000000000000000
5.455646038055420 5.923419475555420 1.071640014648438 0.000000000000000
5.458574771881104 -8.301672935485840 1.472460269927979 0.000000000000000
5.459578037261963 -0.975251913070679 0.447194784879684 0.000000000000000
5.459620952606201 -4.418117046356201 0.539183020591736 0.000000000000000
5.460766315460205 4.327219009399414 0.481099188327789 0.000000000000000
5.462285995483398 5.111698150634766 0.473289132118225 0.000000000000000
5.463931560516357 7.048886775970459 0.409670591354370 0.000000000000000
5.464884757995605 7.644817352294922 0.449738115072250 0.000000000000000
5.471679687500000 7.134438514709473 0.482218027114868 0.000000000000000
5.472551345825195 -10.017393112182617 1.397513151168823 0.000000000000000
5.473448276519775 -3.684108972549438 0.366565436124802 0.000000000000000
5.473828792572021 -2.140983104705811 0.349195957183838 0.000000000000000
5.474331855773926 7.414904117584229 0.529822528362274 0.000000000000000
5.475726604461670 4.820374965667725 0.602336406707764 0.000000000000000
5.475750923156738 4.350309371948242 0.609392225742340 0.000000000000000
5.478577136993408 -4.311834335327148 1.033243775367737 0.000000000000000
5.478962898254395 0.696625113487244 0.481263577938080 0.000000000000000
