# This PCD file was generated using the MATLAB® pcwrite function
# from Computer Vision Toolbox®.
# .PCD v.7 - Point Cloud Data file format
VERSION .7
FIELDS x y z intensity
SIZE 8 8 8 8
TYPE F F F F
COUNT 1 1 1 1
WIDTH 643
HEIGHT 1
VIEWPOINT 0 0 0 1 0 0 0
POINTS 643
DATA ascii
17.495233535766602 -24.393877029418945 1.783461332321167 1.000000000000000
17.495462417602539 24.000198364257812 1.821744084358215 0.000000000000000
17.497806549072266 -3.849063873291016 1.513908743858337 0.000000000000000
17.502311706542969 -0.464733541011810 1.344130396842957 0.000000000000000
17.502691268920898 16.853805541992188 0.695682644844055 0.000000000000000
17.503623962402344 13.425179481506348 2.700724363327026 0.000000000000000
17.503738403320312 13.676414489746094 2.523017406463623 0.000000000000000
17.505462646484375 14.083823204040527 0.125484332442284 0.000000000000000
17.505706787109375 17.255744934082031 1.649884700775146 0.000000000000000
17.507036209106445 -0.578321039676666 1.175733804702759 0.000000000000000
17.510206222534180 17.539571762084961 -0.051907446235418 0.000000000000000
17.510719299316406 4.444555759429932 3.088073492050171 0.000000000000000
17.511989593505859 14.445517539978027 -0.701515018939972 0.000000000000000
17.515438079833984 -0.960559904575348 1.380566358566284 0.000000000000000
17.518255233764648 -5.887375831604004 2.459337234497070 0.000000000000000
17.520496368408203 -4.758899688720703 1.534116625785828 0.000000000000000
17.523212432861328 18.690376281738281 3.796965599060059 0.000000000000000
17.525367736816406 -24.190780639648438 3.392914295196533 0.000000000000000
17.525609970092773 3.730939626693726 -0.450431883335114 0.000000000000000
17.525627136230469 22.446308135986328 1.691892385482788 0.000000000000000
17.526287078857422 22.243175506591797 3.768415927886963 0.000000000000000
17.527139663696289 16.353471755981445 -0.142251878976822 0.000000000000000
17.532836914062500 1.855773568153381 1.421635866165161 0.000000000000000
17.533124923706055 16.093185424804688 -0.781183719635010 0.000000000000000
17.533224105834961 15.230122566223145 1.424530982971191 0.000000000000000
17.540855407714844 -25.542156219482422 -0.957509875297546 1.000000000000000
17.544059753417969 22.015674591064453 1.726726412773132 0.000000000000000
17.544425964355469 -1.285919308662415 3.659035205841064 0.000000000000000
17.545095443725586 -0.824950277805328 1.178948283195496 0.000000000000000
17.547698974609375 13.224111557006836 1.771740078926086 0.000000000000000
17.547966003417969 14.356719970703125 1.696802377700806 0.000000000000000
17.549568176269531 -22.783641815185547 2.505973577499390 0.000000000000000
17.549745559692383 -6.772586345672607 1.788120627403259 0.000000000000000
17.550874710083008 -2.540377140045166 1.224515914916992 0.000000000000000
17.557350158691406 -6.379249095916748 1.217826008796692 0.000000000000000
17.557413101196289 -24.432825088500977 2.367895841598511 0.000000000000000
17.558105468750000 -21.371023178100586 0.260685503482819 1.000000000000000
17.558671951293945 3.652526140213013 0.582415997982025 0.000000000000000
17.562423706054688 -7.882552146911621 0.995388925075531 0.000000000000000
17.563148498535156 -10.925293922424316 1.468131303787231 0.000000000000000
17.563167572021484 23.187320709228516 0.832827270030975 0.000000000000000
17.563940048217773 17.139345169067383 2.462472200393677 0.000000000000000
17.573129653930664 -20.338565826416016 2.554998874664307 0.000000000000000
17.575983047485352 16.146095275878906 1.924448609352112 0.000000000000000
17.585063934326172 -1.941719889640808 1.358214735984802 0.000000000000000
17.587591171264648 7.752663612365723 2.353168964385986 0.000000000000000
17.600694656372070 -4.583324909210205 2.420291900634766 0.000000000000000
17.600965499877930 15.779142379760742 2.059780359268188 0.000000000000000
17.603048324584961 22.319755554199219 1.469845890998840 0.000000000000000
17.603092193603516 11.984619140625000 1.758295893669128 0.000000000000000
17.608766555786133 14.481518745422363 1.926486730575562 0.000000000000000
17.609371185302734 17.336130142211914 -0.668658852577209 0.000000000000000
17.611097335815430 21.897539138793945 2.547480106353760 0.000000000000000
17.612482070922852 24.329797744750977 2.305841922760010 0.000000000000000
17.615198135375977 21.766939163208008 2.095628499984741 0.000000000000000
17.616996765136719 17.286817550659180 0.327411383390427 0.000000000000000
17.621637344360352 -6.729754447937012 1.793041229248047 0.000000000000000
17.622995376586914 -3.541257858276367 3.738862752914429 0.000000000000000
17.625467300415039 -12.260972023010254 1.870886206626892 0.000000000000000
17.627689361572266 -5.988598346710205 1.321431636810303 0.000000000000000
17.628332138061523 8.345683097839355 2.595468759536743 0.000000000000000
17.631027221679688 -1.320113658905029 0.914212763309479 0.000000000000000
17.632921218872070 13.549305915832520 0.337687313556671 0.000000000000000
17.635412216186523 -3.100713253021240 1.340067863464355 0.000000000000000
17.638746261596680 -3.058789253234863 1.167083263397217 0.000000000000000
17.639009475708008 22.898105621337891 1.661549091339111 0.000000000000000
17.641296386718750 16.759109497070312 1.915029764175415 0.000000000000000
17.641969680786133 -1.973251819610596 1.687434673309326 0.000000000000000
17.642589569091797 14.420761108398438 1.309864521026611 0.000000000000000
17.643747329711914 -25.500770568847656 0.947426915168762 1.000000000000000
17.647514343261719 11.497255325317383 2.802831888198853 0.000000000000000
17.653150558471680 24.635868072509766 2.151220321655273 0.000000000000000
17.656225204467773 -25.240074157714844 2.126921415328979 0.000000000000000
17.657760620117188 -1.513183116912842 1.429030060768127 0.000000000000000
17.659679412841797 22.115566253662109 1.626885652542114 0.000000000000000
17.665113449096680 -4.679859638214111 2.075654506683350 0.000000000000000
17.667167663574219 16.609155654907227 2.198257923126221 0.000000000000000
17.668823242187500 21.124933242797852 0.471095860004425 0.000000000000000
17.670555114746094 16.553764343261719 1.905614733695984 0.000000000000000
17.674352645874023 -25.281013488769531 2.070459365844727 1.000000000000000
17.678115844726562 -1.382605314254761 1.190199375152588 0.000000000000000
17.679552078247070 16.187852859497070 -0.786826431751251 0.000000000000000
17.682233810424805 -3.649263858795166 1.386077165603638 0.000000000000000
17.683353424072266 13.702290534973145 1.760622262954712 0.000000000000000
17.683866500854492 4.748968124389648 3.129858732223511 0.000000000000000
17.699947357177734 -4.614450454711914 0.945815682411194 0.000000000000000
17.703771591186523 22.653270721435547 1.210031867027283 0.000000000000000
17.705451965332031 -10.995820999145508 1.981164932250977 0.000000000000000
17.705757141113281 12.889498710632324 1.174589633941650 0.000000000000000
17.710712432861328 -14.254034996032715 3.886039257049561 0.000000000000000
17.712541580200195 14.360736846923828 1.926823496818542 0.000000000000000
17.713085174560547 21.678201675415039 1.447538018226624 0.000000000000000
17.713300704956055 10.630187034606934 0.948923289775848 0.000000000000000
17.715318679809570 22.039705276489258 3.461943626403809 0.000000000000000
17.716932296752930 -0.540991723537445 1.395002841949463 0.000000000000000
17.720985412597656 -6.093523502349854 1.293952941894531 0.000000000000000
17.722352981567383 -4.686417579650879 0.947881281375885 0.000000000000000
17.723449707031250 0.154051765799522 1.189663529396057 0.000000000000000
17.723890304565430 16.321954727172852 0.273354619741440 0.000000000000000
17.724855422973633 -0.847975134849548 1.396571993827820 0.000000000000000
17.725543975830078 22.505752563476562 2.033407211303711 0.000000000000000
17.725576400756836 -3.825281620025635 1.643908262252808 0.000000000000000
17.729625701904297 -8.663025856018066 1.980041742324829 0.000000000000000
17.731849670410156 4.629371643066406 3.132554769515991 0.000000000000000
17.733303070068359 -22.311393737792969 0.815998971462250 1.000000000000000
17.739978790283203 21.050500869750977 0.788180828094482 0.000000000000000
17.740804672241211 -1.449831604957581 1.194753289222717 0.000000000000000
17.741203308105469 -12.316226959228516 1.699738025665283 0.000000000000000
17.741735458374023 11.844812393188477 1.596498727798462 0.000000000000000
17.742139816284180 -21.349271774291992 -0.697812557220459 1.000000000000000
17.745046615600586 -0.990240871906281 1.548654794692993 0.000000000000000
17.745321273803711 15.926999092102051 -0.736850142478943 0.000000000000000
17.759744644165039 15.939945220947266 -0.004165053833276 0.000000000000000
17.764652252197266 22.614622116088867 1.320967435836792 0.000000000000000
17.769420623779297 2.554602861404419 1.135742306709290 0.000000000000000
17.770849227905273 -3.249379158020020 1.352008819580078 0.000000000000000
17.772392272949219 19.181697845458984 3.479796171188354 0.000000000000000
17.778821945190430 22.389516830444336 1.478314757347107 0.000000000000000
17.778959274291992 -21.131149291992188 0.684554159641266 1.000000000000000
17.779581069946289 -10.707561492919922 1.881538271903992 0.000000000000000
17.782213211059570 -2.329075336456299 2.195675373077393 0.000000000000000
17.783826828002930 22.920167922973633 1.220964789390564 0.000000000000000
17.784402847290039 13.034333229064941 0.800810217857361 0.000000000000000
17.787034988403320 21.872125625610352 1.783547401428223 0.000000000000000
17.790971755981445 -11.308794021606445 2.003875970840454 0.000000000000000
17.791070938110352 12.308101654052734 1.535534143447876 0.000000000000000
17.794677734375000 11.818720817565918 1.681221723556519 0.000000000000000
17.796005249023438 24.403509140014648 2.318701505661011 0.000000000000000
17.796543121337891 17.006155014038086 1.889743328094482 0.000000000000000
17.796674728393555 -2.250767707824707 1.626212477684021 0.000000000000000
17.798770904541016 -5.326006412506104 1.462163925170898 0.000000000000000
17.801620483398438 -6.941994190216064 2.831744432449341 0.000000000000000
17.804981231689453 -7.744781494140625 1.415634870529175 0.000000000000000
17.806278228759766 -9.640273094177246 1.554476022720337 0.000000000000000
17.806941986083984 11.737500190734863 2.271707534790039 0.000000000000000
17.811822891235352 21.379926681518555 1.171177625656128 0.000000000000000
17.811985015869141 10.205559730529785 1.615629792213440 0.000000000000000
17.814416885375977 -5.398512363433838 1.464988350868225 0.000000000000000
17.816154479980469 23.822282791137695 1.767330050468445 0.000000000000000
17.817474365234375 17.183322906494141 0.851430177688599 0.000000000000000
17.817773818969727 15.511700630187988 0.086586289107800 0.000000000000000
17.818891525268555 -5.716217517852783 1.581268429756165 0.000000000000000
17.824609756469727 -5.299522876739502 1.685800552368164 0.000000000000000
17.825960159301758 -22.069875717163086 0.594262123107910 1.000000000000000
17.826278686523438 14.742991447448730 1.865294098854065 0.000000000000000
17.827108383178711 15.392299652099609 -0.954208076000214 0.000000000000000
17.834877014160156 19.144329071044922 3.203342914581299 0.000000000000000
17.835691452026367 21.499980926513672 0.531500995159149 0.000000000000000
17.836261749267578 -0.651532232761383 0.922888159751892 0.000000000000000
17.837356567382812 17.976133346557617 2.295765638351440 0.000000000000000
17.839073181152344 -4.827382564544678 1.756703615188599 0.000000000000000
17.841089248657227 12.673374176025391 -0.718326866626740 0.000000000000000
17.845813751220703 14.060429573059082 1.218505501747131 0.000000000000000
17.845996856689453 8.695587158203125 2.430457592010498 0.000000000000000
17.848869323730469 7.132539272308350 3.285542964935303 0.000000000000000
17.850204467773438 17.696357727050781 0.478236764669418 0.000000000000000
17.856395721435547 14.248968124389648 1.753799319267273 0.000000000000000
17.857248306274414 24.926181793212891 2.235580444335938 0.000000000000000
17.862287521362305 -10.741657257080078 2.091464042663574 0.000000000000000
17.862806320190430 16.932229995727539 1.462258100509644 0.000000000000000
17.863340377807617 2.631777048110962 1.421051263809204 0.000000000000000
17.866365432739258 17.351243972778320 0.856655359268188 0.000000000000000
17.868825912475586 -5.177172660827637 1.686522722244263 0.000000000000000
17.875205993652344 18.377635955810547 -0.595217645168304 0.000000000000000
17.875761032104492 14.507567405700684 1.323408484458923 0.000000000000000
17.878280639648438 16.464134216308594 2.203313827514648 0.000000000000000
17.879179000854492 16.355714797973633 1.766707777976990 0.000000000000000
17.879896163940430 -6.454437255859375 1.496058106422424 0.000000000000000
17.880002975463867 -13.162535667419434 2.364914417266846 0.000000000000000
17.881914138793945 -3.138262987136841 1.581989169120789 0.000000000000000
17.891185760498047 17.822006225585938 0.383481562137604 0.000000000000000
17.896760940551758 21.018218994140625 1.533716917037964 0.000000000000000
17.897377014160156 21.526147842407227 1.285910487174988 0.000000000000000
17.899938583374023 6.088757514953613 0.178201064467430 0.000000000000000
17.905845642089844 15.034380912780762 0.849155008792877 0.000000000000000
17.906858444213867 -17.555294036865234 3.070154190063477 0.000000000000000
17.907829284667969 -0.094391122460365 0.925986409187317 0.000000000000000
17.908330917358398 21.411289215087891 0.906470954418182 0.000000000000000
17.919219970703125 -14.019177436828613 1.658797144889832 0.000000000000000
17.919853210449219 -12.934667587280273 2.100776672363281 0.000000000000000
17.924217224121094 11.762372016906738 2.852957725524902 0.000000000000000
17.924364089965820 -4.495306015014648 1.968361258506775 0.000000000000000
17.925289154052734 14.651834487915039 0.974383413791656 0.000000000000000
17.926002502441406 18.107769012451172 2.556721925735474 0.000000000000000
17.927143096923828 13.593154907226562 -0.306295841932297 0.000000000000000
17.932710647583008 -4.817804813385010 2.109060287475586 0.000000000000000
17.932723999023438 -16.659448623657227 1.642919778823853 0.000000000000000
17.934288024902344 21.346006393432617 1.495282888412476 0.000000000000000
17.936759948730469 12.558526992797852 -0.718720495700836 0.000000000000000
17.937480926513672 17.691232681274414 3.352634429931641 0.000000000000000
17.941152572631836 -2.674280881881714 2.060306072235107 0.000000000000000
17.943613052368164 -3.628497123718262 1.228774428367615 0.000000000000000
17.945974349975586 22.918657302856445 1.057197213172913 0.000000000000000
17.946990966796875 22.315187454223633 1.646168708801270 0.000000000000000
17.947200775146484 -3.088408231735229 1.586850404739380 0.000000000000000
17.952644348144531 17.104444503784180 1.329901933670044 0.000000000000000
17.953918457031250 -4.657242774963379 1.388129949569702 0.000000000000000
17.961996078491211 10.017240524291992 2.517954111099243 0.000000000000000
17.964157104492188 -8.114147186279297 1.437158942222595 0.000000000000000
17.964290618896484 0.075562611222267 1.413833022117615 0.000000000000000
17.965736389160156 -4.660308361053467 1.764274001121521 0.000000000000000
17.966236114501953 18.034097671508789 -0.444338262081146 0.000000000000000
17.968212127685547 -3.159227132797241 1.083883404731750 0.000000000000000
17.969350814819336 -21.284942626953125 0.102097347378731 1.000000000000000
17.970331192016602 -20.671045303344727 0.731590032577515 1.000000000000000
17.970668792724609 15.857776641845703 0.225889727473259 0.000000000000000
17.972410202026367 17.660829544067383 2.528367280960083 0.000000000000000
17.974485397338867 0.170032605528831 3.072572469711304 0.000000000000000
17.976575851440430 -4.232259273529053 1.489149093627930 0.000000000000000
17.977985382080078 -21.568662643432617 -0.544041633605957 1.000000000000000
17.983518600463867 -1.049205303192139 1.918792128562927 0.000000000000000
17.985458374023438 20.746885299682617 1.208419799804688 0.000000000000000
17.985668182373047 -7.898151874542236 1.780780315399170 0.000000000000000
17.985980987548828 7.602016448974609 1.272992491722107 0.000000000000000
17.989124298095703 17.753316879272461 -0.295563399791718 0.000000000000000
17.993762969970703 -0.486582607030869 1.416657567024231 0.000000000000000
17.995252609252930 -13.722610473632812 2.570416927337646 0.000000000000000
18.001337051391602 15.542732238769531 -0.232457414269447 0.000000000000000
18.003658294677734 -6.065197467803955 2.157814025878906 0.000000000000000
18.005933761596680 13.894500732421875 3.370649814605713 0.000000000000000
18.010934829711914 12.870345115661621 2.221256971359253 0.000000000000000
18.014152526855469 17.527791976928711 -0.535265982151031 0.000000000000000
18.014501571655273 20.713079452514648 1.948445916175842 0.000000000000000
18.014654159545898 -9.873362541198730 2.733711004257202 0.000000000000000
18.018369674682617 -20.986042022705078 -0.004827580880374 1.000000000000000
18.030403137207031 13.404247283935547 0.470618069171906 0.000000000000000
18.031972885131836 -2.752194166183472 1.470824003219604 0.000000000000000
18.033960342407227 -0.843520104885101 1.176971554756165 0.000000000000000
18.034446716308594 -11.279679298400879 1.853524565696716 0.000000000000000
18.035326004028320 13.838002204895020 1.701280236244202 0.000000000000000
18.036386489868164 4.697458744049072 1.251008510589600 0.000000000000000
18.037540435791016 14.313825607299805 1.235000848770142 0.000000000000000
18.038892745971680 17.796220779418945 0.092875748872757 0.000000000000000
18.039087295532227 -3.135673284530640 1.123070120811462 0.000000000000000
18.039552688598633 14.637364387512207 0.218953192234039 0.000000000000000
18.041734695434570 13.502841949462891 2.559582710266113 0.000000000000000
18.044578552246094 -21.315870285034180 -0.004874355625361 1.000000000000000
18.045375823974609 -1.579400420188904 1.495637536048889 0.000000000000000
18.051231384277344 10.426508903503418 2.220443487167358 0.000000000000000
18.052606582641602 -19.999555587768555 1.704497575759888 0.000000000000000
18.055393218994141 -1.106845736503601 1.458607316017151 0.000000000000000
18.058408737182617 20.453012466430664 3.340420961380005 0.000000000000000
18.058584213256836 -9.867131233215332 1.540078043937683 0.000000000000000
18.059053421020508 -23.082960128784180 2.785894870758057 0.000000000000000
18.059122085571289 14.430866241455078 -0.581108391284943 0.000000000000000
18.060670852661133 -0.605761170387268 1.387301802635193 0.000000000000000
18.064741134643555 -1.520748734474182 2.219493865966797 0.000000000000000
18.065597534179688 -2.472109079360962 1.505511999130249 0.000000000000000
18.074520111083984 20.835659027099609 2.117541313171387 0.000000000000000
18.074735641479492 -4.644837856292725 1.252615809440613 0.000000000000000
18.075761795043945 -6.368317604064941 2.176773786544800 0.000000000000000
18.080657958984375 -20.567024230957031 1.679707288742065 0.000000000000000
18.080741882324219 -9.541363716125488 1.569478988647461 0.000000000000000
18.083864212036133 -17.599302291870117 2.083491563796997 0.000000000000000
18.088619232177734 20.836477279663086 0.790012538433075 0.000000000000000
18.098945617675781 -2.353212594985962 3.119749546051025 0.000000000000000
18.100372314453125 21.787290573120117 0.919843435287476 0.000000000000000
18.102518081665039 -21.320093154907227 0.639582335948944 1.000000000000000
18.103605270385742 -13.847260475158691 1.705757975578308 0.000000000000000
18.109182357788086 22.678487777709961 0.775165021419525 0.000000000000000
18.109302520751953 -6.157151222229004 1.246970534324646 0.000000000000000
18.109323501586914 -9.942516326904297 2.346510171890259 0.000000000000000
18.110168457031250 17.498554229736328 0.237350106239319 0.000000000000000
18.110185623168945 13.439023017883301 -0.740241467952728 0.000000000000000
18.110517501831055 17.239189147949219 0.139647960662842 0.000000000000000
18.113407135009766 11.633963584899902 3.679808139801025 0.000000000000000
18.121986389160156 -6.455800533294678 1.551196932792664 0.000000000000000
18.122261047363281 12.630990028381348 -1.490437388420105 1.000000000000000
18.126773834228516 13.881035804748535 1.224503755569458 0.000000000000000
18.128463745117188 -20.748865127563477 0.630071818828583 1.000000000000000
18.137973785400391 -0.500620067119598 1.820695877075195 0.000000000000000
18.138019561767578 -21.606857299804688 -0.546598732471466 1.000000000000000
18.139732360839844 14.120380401611328 1.720385670661926 0.000000000000000
18.143905639648438 -3.448665380477905 1.755567908287048 0.000000000000000
18.144920349121094 12.666543006896973 1.827087163925171 0.000000000000000
18.148870468139648 -7.885327339172363 2.932606220245361 1.000000000000000
18.155719757080078 2.769139766693115 1.055742621421814 0.000000000000000
18.162826538085938 13.844387054443359 0.917252302169800 0.000000000000000
18.164283752441406 -10.509146690368652 1.570527195930481 0.000000000000000
18.173292160034180 -10.989235877990723 1.630408763885498 0.000000000000000
18.176956176757812 -7.924699306488037 1.675572037696838 0.000000000000000
18.178739547729492 5.486413002014160 2.526875257492065 0.000000000000000
18.183275222778320 12.660320281982422 1.829391121864319 0.000000000000000
18.188951492309570 14.534612655639648 -0.227570563554764 0.000000000000000
18.195709228515625 -7.884923934936523 1.560708403587341 0.000000000000000
18.196552276611328 12.747047424316406 2.523468732833862 0.000000000000000
18.197633743286133 16.647033691406250 1.417757272720337 0.000000000000000
18.198303222656250 17.634771347045898 -0.393663465976715 0.000000000000000
18.199659347534180 1.496925830841064 1.655464768409729 0.000000000000000
18.203676223754883 16.605937957763672 1.986817955970764 0.000000000000000
18.206666946411133 20.717651367187500 1.744906425476074 0.000000000000000
18.206901550292969 25.978988647460938 2.764314174652100 0.000000000000000
18.206968307495117 -5.910885810852051 1.321782946586609 0.000000000000000
18.209489822387695 -6.063844680786133 2.179933786392212 0.000000000000000
18.211633682250977 26.034048080444336 2.768481016159058 0.000000000000000
18.214517593383789 -1.419440388679504 0.979860126972198 0.000000000000000
18.214576721191406 -17.523380279541016 3.094458580017090 0.000000000000000
18.214990615844727 13.911826133728027 0.040002927184105 0.000000000000000
18.222423553466797 -4.881319999694824 1.011779427528381 0.000000000000000
18.226207733154297 18.608112335205078 -0.204578414559364 0.000000000000000
18.226222991943359 -2.555689811706543 1.377383232116699 0.000000000000000
18.230533599853516 18.327520370483398 -0.699495017528534 0.000000000000000
18.232820510864258 -9.382869720458984 1.257760167121887 0.000000000000000
18.233173370361328 -6.963301658630371 1.159558296203613 0.000000000000000
18.233682632446289 -0.602324783802032 0.943337082862854 0.000000000000000
18.233903884887695 22.998878479003906 1.235261797904968 0.000000000000000
18.234575271606445 21.405872344970703 1.508136272430420 0.000000000000000
18.234905242919922 1.052059888839722 1.190763235092163 0.000000000000000
18.239768981933594 -3.128266572952271 0.814465463161469 0.000000000000000
18.244789123535156 14.394396781921387 0.978083789348602 0.000000000000000
18.247446060180664 17.176292419433594 1.488827347755432 0.000000000000000
18.248086929321289 -10.642823219299316 1.580975651741028 0.000000000000000
18.253099441528320 16.731172561645508 -0.384654432535172 0.000000000000000
18.253900527954102 14.431085586547852 0.353356957435608 0.000000000000000
18.254198074340820 0.069455355405807 0.803385496139526 0.000000000000000
18.257604598999023 17.066057205200195 1.099906444549561 0.000000000000000
18.262117385864258 21.049688339233398 0.690799057483673 0.000000000000000
18.262828826904297 -23.032045364379883 2.143085718154907 0.000000000000000
18.263820648193359 -20.107604980468750 -0.004741012584418 1.000000000000000
18.265176773071289 13.777797698974609 -0.223621994256973 0.000000000000000
18.266439437866211 -6.579203605651855 2.205213785171509 0.000000000000000
18.267477035522461 25.237392425537109 2.512135267257690 0.000000000000000
18.269773483276367 15.244515419006348 1.184561967849731 0.000000000000000
18.272735595703125 20.667367935180664 2.117847442626953 0.000000000000000
18.289138793945312 0.214515984058380 2.077460289001465 0.000000000000000
18.290779113769531 27.039766311645508 1.750851988792419 0.000000000000000
18.292209625244141 8.040375709533691 1.033188462257385 0.000000000000000
18.292396545410156 -7.295705318450928 1.094149112701416 0.000000000000000
18.292501449584961 13.265423774719238 1.037942290306091 0.000000000000000
18.292663574218750 17.337270736694336 -0.197949722409248 0.000000000000000
18.292871475219727 17.831329345703125 0.338871568441391 0.000000000000000
18.294666290283203 -2.390999078750610 1.559039711952209 0.000000000000000
18.295139312744141 -4.052249431610107 1.185495853424072 0.000000000000000
18.296409606933594 20.901288986206055 0.741949796676636 0.000000000000000
18.297174453735352 21.558502197265625 0.809588253498077 0.000000000000000
18.297292709350586 15.155138015747070 3.161628246307373 0.000000000000000
18.299345016479492 -0.050782147794962 1.440195322036743 0.000000000000000
18.302421569824219 -5.627413272857666 1.174497127532959 0.000000000000000
18.308332443237305 -11.713619232177734 2.180921316146851 0.000000000000000
18.308927536010742 16.089887619018555 1.495059609413147 1.000000000000000
18.309169769287109 14.259472846984863 -1.163426756858826 1.000000000000000
18.309827804565430 -6.026339530944824 2.189414024353027 0.000000000000000
18.310564041137695 -22.124235153198242 -0.556439697742462 1.000000000000000
18.311941146850586 -9.914036750793457 2.089467287063599 0.000000000000000
18.313262939453125 -2.815736055374146 0.851094305515289 0.000000000000000
18.313438415527344 11.852946281433105 1.977601528167725 0.000000000000000
18.313840866088867 -5.908502578735352 1.930920004844666 0.000000000000000
18.314172744750977 18.189311981201172 2.181106328964233 0.000000000000000
18.317399978637695 -4.029353141784668 1.295055150985718 0.000000000000000
18.317996978759766 17.341869354248047 -0.876460850238800 0.000000000000000
18.318189620971680 17.342052459716797 1.839132905006409 0.000000000000000
18.319557189941406 15.595584869384766 -0.235154956579208 0.000000000000000
18.320280075073242 22.104549407958984 1.484511375427246 0.000000000000000
18.320917129516602 17.693548202514648 1.660458922386169 0.000000000000000
18.321367263793945 12.853558540344238 1.459049224853516 0.000000000000000
18.322042465209961 5.593920707702637 2.345391511917114 0.000000000000000
18.331365585327148 -5.320896148681641 1.612927436828613 0.000000000000000
18.337575912475586 18.368328094482422 2.467182397842407 0.000000000000000
18.337703704833984 -12.228802680969238 1.436930537223816 0.000000000000000
18.340135574340820 -0.965017437934875 1.516373753547668 0.000000000000000
18.342313766479492 17.972167968750000 -0.152387291193008 0.000000000000000
18.344636917114258 -7.102895259857178 1.055052757263184 0.000000000000000
18.346481323242188 -12.607300758361816 1.881018877029419 0.000000000000000
18.352415084838867 -13.936302185058594 2.190485477447510 0.000000000000000
18.353748321533203 16.724653244018555 0.806372284889221 0.000000000000000
18.356986999511719 -16.471359252929688 1.893417477607727 0.000000000000000
18.358274459838867 -5.102242946624756 1.811210274696350 0.000000000000000
18.358720779418945 -12.650177955627441 1.754659295082092 0.000000000000000
18.361106872558594 -22.264297485351562 0.549078226089478 1.000000000000000
18.361280441284180 -21.027177810668945 0.155911564826965 1.000000000000000
18.362110137939453 22.485324859619141 1.556979298591614 0.000000000000000
18.363208770751953 -1.155958652496338 1.093135237693787 0.000000000000000
18.367630004882812 26.425584793090820 2.408480167388916 0.000000000000000
18.368747711181641 17.169946670532227 -0.052661430090666 0.000000000000000
18.374105453491211 -23.233951568603516 1.988219618797302 0.000000000000000
18.376546859741211 16.299407958984375 0.467355638742447 0.000000000000000
18.378431320190430 -7.994219779968262 1.816894292831421 0.000000000000000
18.378749847412109 17.724620819091797 2.058832168579102 0.000000000000000
18.385362625122070 22.800693511962891 2.248586177825928 0.000000000000000
18.385562896728516 -4.950134754180908 2.028098344802856 0.000000000000000
18.386283874511719 -6.925236225128174 1.546271920204163 0.000000000000000
18.388193130493164 -11.793230056762695 1.550543904304504 0.000000000000000
18.394355773925781 -20.828363418579102 -0.004849920980632 1.000000000000000
18.396903991699219 4.050883293151855 1.264402627944946 0.000000000000000
18.399007797241211 14.811166763305664 3.143160820007324 0.000000000000000
18.400367736816406 -15.486867904663086 2.032241582870483 0.000000000000000
18.402086257934570 20.914245605468750 1.118874430656433 0.000000000000000
18.404140472412109 0.036618102341890 1.270807266235352 0.000000000000000
18.405012130737305 4.770481586456299 1.496371984481812 0.000000000000000
18.424201965332031 -18.378597259521484 2.048096418380737 0.000000000000000
18.425144195556641 -9.909306526184082 1.727356076240540 0.000000000000000
18.427871704101562 -17.173450469970703 1.885170102119446 0.000000000000000
18.428222656250000 16.857975006103516 -0.100259833037853 0.000000000000000
18.436950683593750 -3.427405595779419 1.439658522605896 0.000000000000000
18.437726974487305 -7.065030097961426 1.363389968872070 0.000000000000000
18.443819046020508 -2.788706541061401 3.188493251800537 0.000000000000000
18.444776535034180 0.151950657367706 2.095066070556641 0.000000000000000
18.447713851928711 -0.975841522216797 1.061940670013428 0.000000000000000
18.448032379150391 -16.974533081054688 2.272652626037598 0.000000000000000
18.451765060424805 17.613187789916992 1.909051895141602 0.000000000000000
18.454027175903320 -9.519939422607422 1.513947010040283 0.000000000000000
18.456598281860352 -12.034459114074707 1.861821532249451 0.000000000000000
18.456937789916992 -5.638625144958496 1.258159875869751 0.000000000000000
18.460054397583008 16.635528564453125 0.950291037559509 0.000000000000000
18.461282730102539 -2.772564411163330 0.857518374919891 0.000000000000000
18.461706161499023 1.453622102737427 1.350190520286560 0.000000000000000
18.461839675903320 17.293220520019531 -0.441545873880386 0.000000000000000
18.463623046875000 -20.995998382568359 0.156157299876213 1.000000000000000
18.466526031494141 -21.206647872924805 -0.004907866008580 1.000000000000000
18.473245620727539 -20.424669265747070 0.153811588883400 1.000000000000000
18.475162506103516 16.885520935058594 1.776540994644165 0.000000000000000
18.476011276245117 11.048038482666016 1.113125324249268 0.000000000000000
18.476343154907227 13.059720039367676 -0.525306761264801 0.000000000000000
18.479753494262695 16.068752288818359 1.643723368644714 0.000000000000000
18.482816696166992 25.505828857421875 2.478993654251099 0.000000000000000
18.486347198486328 14.080774307250977 3.443950176239014 0.000000000000000
18.486385345458984 23.423799514770508 1.830315351486206 0.000000000000000
18.488554000854492 1.970634460449219 0.997212231159210 0.000000000000000
18.493986129760742 13.078000068664551 -0.482378125190735 0.000000000000000
18.498123168945312 -0.575186669826508 1.857037901878357 0.000000000000000
18.502305984497070 16.547626495361328 0.519958436489105 0.000000000000000
18.507436752319336 13.520112991333008 1.052809357643127 0.000000000000000
18.510513305664062 -6.126784801483154 1.699006319046021 0.000000000000000
18.511922836303711 -5.433612823486328 1.749000072479248 0.000000000000000
18.514286041259766 19.604330062866211 0.772039473056793 0.000000000000000
18.514532089233398 17.747373580932617 -0.250675559043884 0.000000000000000
18.516965866088867 -7.208667278289795 1.218822479248047 0.000000000000000
18.522764205932617 15.953472137451172 0.699918329715729 0.000000000000000
18.526927947998047 17.747455596923828 1.573669552803040 0.000000000000000
18.530302047729492 -1.496772170066833 1.355426192283630 0.000000000000000
18.533607482910156 -7.447456836700439 1.898647904396057 0.000000000000000
18.534250259399414 4.832650661468506 -1.329295516014099 0.000000000000000
18.534881591796875 -7.918799877166748 1.756299614906311 0.000000000000000
18.535339355468750 17.767320632934570 0.143401101231575 0.000000000000000
18.537752151489258 -5.240763187408447 1.033201932907104 0.000000000000000
18.541828155517578 15.059945106506348 -0.187613993883133 0.000000000000000
18.545799255371094 -20.471828460693359 0.207313850522041 1.000000000000000
18.548246383666992 -3.336687564849854 1.374041438102722 0.000000000000000
18.552280426025391 20.487604141235352 1.642075061798096 0.000000000000000
18.557466506958008 -1.438993573188782 1.321148395538330 0.000000000000000
18.566883087158203 22.592437744140625 1.624692678451538 0.000000000000000
18.568992614746094 16.352926254272461 1.899541020393372 0.000000000000000
18.571472167968750 -1.369661808013916 3.183101415634155 0.000000000000000
18.572988510131836 -6.712697505950928 1.981639266014099 0.000000000000000
18.575700759887695 -9.906837463378906 1.738217830657959 0.000000000000000
18.583639144897461 17.034152984619141 2.529565095901489 0.000000000000000
18.588401794433594 4.922374725341797 3.286890983581543 0.000000000000000
18.588958740234375 13.880535125732422 1.065657377243042 0.000000000000000
18.589853286743164 -21.591344833374023 0.159128516912460 1.000000000000000
18.592609405517578 -10.292481422424316 2.413772344589233 0.000000000000000
18.592853546142578 -20.743183135986328 1.762332677841187 0.000000000000000
18.601060867309570 1.456749081611633 1.252347946166992 0.000000000000000
18.603628158569336 -1.646584510803223 1.217565774917603 0.000000000000000
18.605155944824219 -0.243230074644089 1.981918692588806 0.000000000000000
18.605501174926758 -5.104550838470459 1.833921313285828 0.000000000000000
18.606340408325195 -17.224834442138672 1.506381988525391 0.000000000000000
18.607645034790039 -7.228267192840576 1.571065068244934 0.000000000000000
18.608833312988281 22.810167312622070 1.238962173461914 0.000000000000000
18.609109878540039 26.020729064941406 1.469454646110535 0.000000000000000
18.610250473022461 17.280412673950195 -0.053189218044281 0.000000000000000
18.611686706542969 -22.316253662109375 2.174736976623535 0.000000000000000
18.618421554565430 1.202041387557983 1.000639796257019 0.000000000000000
18.626451492309570 16.476976394653320 0.616455614566803 0.000000000000000
18.626543045043945 20.845836639404297 3.422570466995239 0.000000000000000
18.628517150878906 16.671022415161133 0.235615968704224 0.000000000000000
18.632211685180664 23.487775802612305 2.127997636795044 0.000000000000000
18.632816314697266 22.894189834594727 0.901863455772400 0.000000000000000
18.633676528930664 -8.868253707885742 2.070697307586670 0.000000000000000
18.638042449951172 21.430025100708008 1.140706181526184 0.000000000000000
18.639299392700195 -5.269471645355225 0.740728676319122 0.000000000000000
18.646345138549805 14.687976837158203 -0.961656510829926 0.000000000000000
18.647232055664062 -0.020822551101446 1.036013364791870 0.000000000000000
18.647575378417969 15.937236785888672 1.126777648925781 0.000000000000000
18.648534774780273 -12.067048072814941 2.955847978591919 0.000000000000000
18.650054931640625 -9.903053283691406 2.398423910140991 0.000000000000000
18.650056838989258 14.796695709228516 -0.232691973447800 0.000000000000000
18.651868820190430 -4.038129329681396 1.612590670585632 0.000000000000000
18.652099609375000 15.550286293029785 0.881965577602386 0.000000000000000
18.652601242065430 -6.536433696746826 1.479179382324219 0.000000000000000
18.652862548828125 -9.821228981018066 2.394361257553101 0.000000000000000
18.656976699829102 17.285039901733398 0.581604778766632 0.000000000000000
18.659151077270508 26.779127120971680 2.127812623977661 0.000000000000000
18.660230636596680 14.965178489685059 2.400171518325806 0.000000000000000
18.670267105102539 -12.734080314636230 1.909646749496460 0.000000000000000
18.683446884155273 17.099840164184570 3.753571748733521 0.000000000000000
18.685981750488281 24.775552749633789 1.724100232124329 0.000000000000000
18.688577651977539 15.272485733032227 1.713103175163269 0.000000000000000
18.689981460571289 17.081857681274414 2.206312179565430 0.000000000000000
18.690740585327148 -2.163253545761108 2.303587675094604 0.000000000000000
18.694263458251953 22.634460449218750 1.179072141647339 0.000000000000000
18.699169158935547 -21.565610885620117 0.159418940544128 1.000000000000000
18.701263427734375 21.864652633666992 2.886995315551758 0.000000000000000
18.701278686523438 -1.291977882385254 0.825017750263214 0.000000000000000
18.709636688232422 -0.932731032371521 1.329644441604614 0.000000000000000
18.712785720825195 -2.684552907943726 1.647268772125244 0.000000000000000
18.719608306884766 22.173627853393555 2.171751737594604 0.000000000000000
18.720008850097656 -6.151929855346680 1.626966714859009 0.000000000000000
18.721143722534180 -18.392078399658203 3.213064908981323 0.000000000000000
18.726539611816406 -6.094740867614746 2.236813545227051 0.000000000000000
18.727132797241211 -26.853700637817383 2.576596736907959 0.000000000000000
18.727329254150391 26.349992752075195 1.920577883720398 0.000000000000000
18.736288070678711 14.375831604003906 -0.049461197108030 0.000000000000000
18.737134933471680 9.105534553527832 2.550522089004517 0.000000000000000
18.738042831420898 25.713224411010742 2.135554552078247 0.000000000000000
18.744960784912109 -3.581217765808105 1.612590670585632 0.000000000000000
18.747186660766602 17.748189926147461 -0.103631801903248 0.000000000000000
18.749265670776367 17.897167205810547 -0.054286681115627 0.000000000000000
18.757080078125000 22.804412841796875 1.469962716102600 0.000000000000000
18.760505676269531 16.152547836303711 1.089529991149902 0.000000000000000
18.768262863159180 -2.258580446243286 1.560808420181274 0.000000000000000
18.768474578857422 21.745019912719727 1.651219010353088 0.000000000000000
18.769563674926758 17.217824935913086 0.827144980430603 0.000000000000000
18.773483276367188 13.053752899169922 1.843754172325134 0.000000000000000
18.775449752807617 -1.703412890434265 1.642754793167114 0.000000000000000
18.776418685913086 -4.111775398254395 1.827107906341553 0.000000000000000
18.777828216552734 25.165821075439453 1.019682407379150 0.000000000000000
18.786096572875977 15.066121101379395 0.365686178207397 0.000000000000000
18.789100646972656 16.222902297973633 0.901564836502075 0.000000000000000
18.791284561157227 -20.400325775146484 -0.004840845242143 1.000000000000000
18.795150756835938 24.977375030517578 3.136597156524658 0.000000000000000
18.802593231201172 16.566209793090820 0.476791024208069 0.000000000000000
18.803514480590820 -1.086838126182556 2.139305591583252 0.000000000000000
18.810026168823242 -4.362697601318359 1.556983828544617 0.000000000000000
18.818956375122070 -5.764667987823486 1.510998606681824 0.000000000000000
18.818979263305664 -1.061363697052002 1.083519220352173 0.000000000000000
18.822736740112305 26.319438934326172 3.246821165084839 0.000000000000000
18.824596405029297 0.041400607675314 1.336158275604248 0.000000000000000
18.826932907104492 26.979772567749023 1.637822151184082 0.000000000000000
18.828809738159180 16.110332489013672 0.423890501260757 0.000000000000000
18.831060409545898 27.076211929321289 2.989876270294189 0.000000000000000
18.831752777099609 -18.715103149414062 3.250494003295898 0.000000000000000
18.834091186523438 -4.350269794464111 1.334733486175537 0.000000000000000
18.834287643432617 20.470659255981445 2.350516080856323 0.000000000000000
18.834304809570312 -3.684220790863037 1.251134037971497 0.000000000000000
18.840467453002930 -4.725058078765869 1.528697133064270 0.000000000000000
18.841459274291992 -6.677291870117188 2.962512493133545 0.000000000000000
18.843175888061523 21.986274719238281 1.664533376693726 0.000000000000000
18.844175338745117 0.994516074657440 0.903109312057495 0.000000000000000
18.845741271972656 21.086706161499023 2.061934709548950 0.000000000000000
18.846384048461914 -1.967865586280823 1.901367187500000 0.000000000000000
18.849657058715820 -2.077025651931763 1.236301660537720 0.000000000000000
18.853214263916016 17.361949920654297 1.473310589790344 0.000000000000000
18.856599807739258 -6.014644622802734 1.986032128334045 0.000000000000000
18.859333038330078 17.421798706054688 2.734776496887207 0.000000000000000
18.860809326171875 -1.275218605995178 1.232398271560669 0.000000000000000
18.868515014648438 1.061846852302551 0.904447853565216 0.000000000000000
18.869394302368164 -19.384860992431641 1.607202768325806 0.000000000000000
18.870897293090820 15.718172073364258 0.467279553413391 0.000000000000000
18.873048782348633 27.014677047729492 1.577142834663391 0.000000000000000
18.873649597167969 14.340414047241211 0.132387429475784 0.000000000000000
18.882789611816406 1.393626689910889 1.197870969772339 0.000000000000000
18.883871078491211 17.274797439575195 1.077153682708740 0.000000000000000
18.883966445922852 16.753608703613281 1.548445820808411 0.000000000000000
18.884035110473633 -11.266528129577637 2.206480503082275 0.000000000000000
18.884813308715820 3.410846710205078 0.992290616035461 0.000000000000000
18.885559082031250 10.605028152465820 3.209975242614746 0.000000000000000
18.896739959716797 0.050133414566517 1.086273908615112 0.000000000000000
18.899166107177734 15.048707962036133 2.424133300781250 0.000000000000000
18.903238296508789 17.585056304931641 2.750028371810913 0.000000000000000
18.904073715209961 -12.138993263244629 2.989617109298706 0.000000000000000
18.904254913330078 13.047019958496094 1.852113008499146 0.000000000000000
18.905157089233398 -12.421199798583984 3.010195255279541 0.000000000000000
18.907718658447266 21.426998138427734 0.653482317924500 0.000000000000000
18.907735824584961 1.504010438919067 1.566074848175049 0.000000000000000
18.909286499023438 -14.087362289428711 1.992499232292175 0.000000000000000
18.922475814819336 -0.898319184780121 1.235000491142273 0.000000000000000
18.924013137817383 15.987516403198242 0.852117717266083 0.000000000000000
18.929973602294922 15.018777847290039 -0.978982269763947 0.000000000000000
18.932945251464844 -20.991035461425781 -0.004933696705848 1.000000000000000
18.936582565307617 -23.671411514282227 0.926172077655792 1.000000000000000
18.941289901733398 -0.409328520298004 1.381312966346741 0.000000000000000
18.941307067871094 24.286571502685547 1.414758443832397 0.000000000000000
18.947057723999023 16.428672790527344 0.718005836009979 0.000000000000000
18.947542190551758 15.377400398254395 -0.285366714000702 0.000000000000000
18.948135375976562 -20.489364624023438 0.102287933230400 1.000000000000000
18.949970245361328 17.214155197143555 1.077490091323853 0.000000000000000
18.957235336303711 -6.239421844482422 1.301096081733704 0.000000000000000
18.958894729614258 13.123858451843262 -0.801176846027374 1.000000000000000
18.959276199340820 7.423182010650635 3.480316638946533 0.000000000000000
18.959772109985352 5.665847778320312 2.422680139541626 0.000000000000000
18.966686248779297 17.748098373413086 1.994150638580322 0.000000000000000
18.969697952270508 -11.902435302734375 2.980119466781616 0.000000000000000
18.973060607910156 -12.976052284240723 2.448376893997192 1.000000000000000
18.973756790161133 26.510097503662109 1.434767603874207 0.000000000000000
18.977046966552734 23.225105285644531 1.089281916618347 0.000000000000000
18.983430862426758 14.998682975769043 -1.212895870208740 1.000000000000000
18.985496520996094 -19.071176528930664 1.702476978302002 0.000000000000000
18.985599517822266 -16.833105087280273 1.947917461395264 0.000000000000000
18.989681243896484 14.210755348205566 1.820852756500244 0.000000000000000
18.994695663452148 26.212207794189453 1.549225449562073 0.000000000000000
18.995738983154297 15.724699974060059 -0.999060571193695 0.000000000000000
19.003459930419922 15.131752967834473 -0.004239753820002 0.000000000000000
19.010183334350586 20.129423141479492 2.631838083267212 0.000000000000000
19.014005661010742 -1.035752654075623 1.535443782806396 0.000000000000000
19.015615463256836 -11.846310615539551 1.849798321723938 0.000000000000000
19.017829895019531 -4.142732620239258 1.531835436820984 0.000000000000000
19.018114089965820 20.815828323364258 2.382511854171753 0.000000000000000
19.020759582519531 -0.854080677032471 0.874587953090668 0.000000000000000
19.023109436035156 15.201179504394531 0.510073602199554 0.000000000000000
19.023176193237305 -15.897948265075684 2.094886064529419 0.000000000000000
19.024124145507812 -17.200473785400391 2.913048982620239 0.000000000000000
19.024372100830078 6.264467239379883 2.968376636505127 0.000000000000000
19.029449462890625 25.932010650634766 1.663181424140930 0.000000000000000
19.047790527343750 21.284355163574219 1.531915187835693 0.000000000000000
19.052608489990234 19.744720458984375 0.732871651649475 0.000000000000000
19.055057525634766 17.344245910644531 2.585476160049438 0.000000000000000
19.055229187011719 -14.098068237304688 2.002940177917480 0.000000000000000
19.056215286254883 3.373162984848022 1.298959493637085 0.000000000000000
19.059490203857422 16.650697708129883 0.432921081781387 0.000000000000000
19.065805435180664 26.218738555908203 1.801096796989441 0.000000000000000
19.068361282348633 21.281167984008789 1.752684950828552 0.000000000000000
19.073366165161133 26.505302429199219 1.562801837921143 0.000000000000000
19.076713562011719 11.018834114074707 -0.977275192737579 0.000000000000000
19.085405349731445 14.963801383972168 1.815017342567444 0.000000000000000
19.088706970214844 21.370571136474609 2.365898609161377 0.000000000000000
19.089557647705078 -21.492017745971680 0.767795681953430 1.000000000000000
19.090463638305664 17.033512115478516 2.013574361801147 0.000000000000000
19.091014862060547 22.613563537597656 2.813148260116577 0.000000000000000
19.093357086181641 -0.316275626420975 2.034029722213745 0.000000000000000
19.096193313598633 17.158718109130859 1.624184846878052 0.000000000000000
19.099967956542969 12.919020652770996 -0.889861643314362 0.000000000000000
19.101669311523438 12.961510658264160 1.772170066833496 0.000000000000000
19.102313995361328 -20.291448593139648 1.763090372085571 0.000000000000000
19.106288909912109 -0.316489845514297 1.503904104232788 0.000000000000000
19.112140655517578 -12.507110595703125 1.753493070602417 0.000000000000000
19.112462997436523 -0.527516543865204 1.467827081680298 0.000000000000000
19.113281250000000 -6.275995254516602 1.311504960060120 0.000000000000000
19.113723754882812 19.999979019165039 0.792073071002960 0.000000000000000
19.114252090454102 21.690025329589844 1.216759800910950 0.000000000000000
19.122909545898438 20.678363800048828 2.107867956161499 0.000000000000000
19.128402709960938 15.859302520751953 -0.099746003746986 0.000000000000000
19.135131835937500 -1.466990351676941 1.672269582748413 0.000000000000000
19.135662078857422 -1.339434266090393 2.842886209487915 0.000000000000000
19.135873794555664 -6.796671390533447 1.769494414329529 0.000000000000000
19.136547088623047 15.260660171508789 0.418691068887711 0.000000000000000
19.139438629150391 17.216316223144531 0.489802718162537 0.000000000000000
19.140768051147461 7.254853725433350 -0.514563918113708 0.000000000000000
19.141870498657227 -7.851432800292969 2.533022880554199 0.000000000000000
19.143421173095703 21.269872665405273 2.086367368698120 0.000000000000000
19.143888473510742 26.191310882568359 1.302999138832092 0.000000000000000
19.149051666259766 18.338918685913086 -0.310063242912292 0.000000000000000
19.150266647338867 25.635051727294922 1.469821691513062 0.000000000000000
19.160503387451172 12.960925102233887 -0.848228514194489 0.000000000000000
