# This PCD file was generated using the MATLAB® pcwrite function
# from Computer Vision Toolbox®.
# .PCD v.7 - Point Cloud Data file format
VERSION .7
FIELDS x y z intensity
SIZE 8 8 8 8
TYPE F F F F
COUNT 1 1 1 1
WIDTH 645
HEIGHT 1
VIEWPOINT 0 0 0 1 0 0 0
POINTS 645
DATA ascii
0.987826466560364 -9.032883644104004 -0.823759853839874 0.000000000000000
0.997515976428986 -4.401962280273438 -0.148153275251389 1.000000000000000
1.006314158439636 -16.933179855346680 0.550867378711700 0.000000000000000
1.008546948432922 -15.057230949401855 1.714062809944153 0.000000000000000
1.016518712043762 -16.793083190917969 0.902311086654663 0.000000000000000
1.025940299034119 -25.301404953002930 1.455634474754333 0.000000000000000
1.026860356330872 -17.278909683227539 1.095080971717834 0.000000000000000
1.045909881591797 -19.539535522460938 2.603911161422729 0.000000000000000
1.046394109725952 -9.070066452026367 -0.686505198478699 0.000000000000000
1.048104047775269 -23.795845031738281 1.002472877502441 0.000000000000000
1.056368470191956 -18.523239135742188 0.995070099830627 0.000000000000000
1.076728582382202 -7.757570266723633 -0.031439580023289 1.000000000000000
1.079556226730347 -9.187053680419922 -0.179229214787483 0.000000000000000
1.081656098365784 -7.777123451232910 -0.016445176675916 1.000000000000000
1.083720684051514 -6.040607929229736 -0.366757839918137 1.000000000000000
1.087180018424988 -18.752593994140625 1.550934076309204 0.000000000000000
1.087331056594849 -10.781308174133301 -0.001891238847747 0.000000000000000
1.094097614288330 -18.158767700195312 0.940651834011078 0.000000000000000
1.094603061676025 -16.130884170532227 0.804889619350433 0.000000000000000
1.101035952568054 -18.359319686889648 1.483040690422058 0.000000000000000
1.101884245872498 -16.450721740722656 0.820800483226776 0.000000000000000
1.102706789970398 4.339382171630859 -0.155568316578865 0.000000000000000
1.104456901550293 -10.951118469238281 -0.170985132455826 0.000000000000000
1.105407953262329 -4.310902118682861 -0.120423510670662 0.000000000000000
1.118877172470093 -16.036878585815430 1.017041325569153 0.000000000000000
1.128509879112244 -17.273147583007812 1.645419120788574 0.000000000000000
1.130954742431641 -15.917875289916992 1.101899027824402 0.000000000000000
1.140840768814087 -23.995630264282227 1.011051058769226 0.000000000000000
1.144871354103088 -15.092411994934082 1.438748121261597 0.000000000000000
1.146975755691528 -20.311611175537109 0.699762284755707 0.000000000000000
1.148921012878418 -20.543506622314453 2.191634178161621 0.000000000000000
1.153294324874878 -16.753387451171875 1.256780028343201 0.000000000000000
1.155536174774170 -9.098478317260742 -0.089644275605679 0.000000000000000
1.156499147415161 -28.205053329467773 2.683316469192505 0.000000000000000
1.162175536155701 -9.413536071777344 -0.238434374332428 0.000000000000000
1.169131636619568 -16.983449935913086 3.540922880172729 0.000000000000000
1.171813726425171 -17.109561920166016 1.415984272956848 0.000000000000000
1.172753334045410 -15.729296684265137 2.098958015441895 0.000000000000000
1.173568367958069 -17.375381469726562 0.934016168117523 0.000000000000000
1.178442120552063 -35.226741790771484 3.071267366409302 0.000000000000000
1.178805947303772 -17.309150695800781 0.963898539543152 0.000000000000000
1.179022073745728 -26.768173217773438 2.429026126861572 0.000000000000000
1.182325124740601 -16.946277618408203 1.336943149566650 0.000000000000000
1.186017632484436 -22.623001098632812 1.084190130233765 0.000000000000000
1.189944028854370 -35.570564270019531 2.526182889938354 0.000000000000000
1.191279292106628 2.398345708847046 -0.180683553218842 1.000000000000000
1.192409992218018 -17.727964401245117 1.192610263824463 0.000000000000000
1.205208659172058 -17.579170227050781 3.011916399002075 0.000000000000000
1.206524968147278 -28.407571792602539 3.229498386383057 0.000000000000000
1.215630650520325 -16.589424133300781 1.771779298782349 0.000000000000000
1.216361880302429 -17.128414154052734 1.119463086128235 0.000000000000000
1.217126846313477 -19.775218963623047 3.386636734008789 0.000000000000000
1.218611478805542 -16.843849182128906 1.605296254158020 0.000000000000000
1.220006346702576 -7.548402786254883 -0.456955939531326 0.000000000000000
1.223941683769226 -8.729800224304199 -0.120013512670994 1.000000000000000
1.224955677986145 -17.105749130249023 0.952803909778595 0.000000000000000
1.237055182456970 -18.391719818115234 1.521969199180603 0.000000000000000
1.241166949272156 -17.264463424682617 1.569152474403381 0.000000000000000
1.244088053703308 -16.686058044433594 1.413879752159119 0.000000000000000
1.248111248016357 -22.766050338745117 1.706354975700378 0.000000000000000
1.249081254005432 2.535339355468750 -0.316524356603622 0.000000000000000
1.265535950660706 -17.143184661865234 0.591270923614502 0.000000000000000
1.267895698547363 -27.581258773803711 2.226329088211060 0.000000000000000
1.267953157424927 5.692088603973389 -0.068196140229702 0.000000000000000
1.268027663230896 -20.602228164672852 1.504930257797241 0.000000000000000
1.268909692764282 -23.956232070922852 0.825166702270508 0.000000000000000
1.274412989616394 -17.157394409179688 0.624852657318115 0.000000000000000
1.277562141418457 -26.871330261230469 2.438776969909668 0.000000000000000
1.277615904808044 -22.010818481445312 -0.427190095186234 0.000000000000000
1.285311102867126 -21.233585357666016 0.813486993312836 0.000000000000000
1.299579501152039 -22.662658691406250 1.130067348480225 0.000000000000000
1.300137639045715 -8.044190406799316 -0.236150503158569 0.000000000000000
1.312033772468567 -23.932022094726562 2.278301715850830 0.000000000000000
1.319363474845886 -17.563352584838867 0.978543400764465 0.000000000000000
1.323714494705200 -26.759014129638672 3.043059587478638 0.000000000000000
1.324705839157104 3.915476799011230 -0.294842571020126 0.000000000000000
1.327392339706421 1.067862272262573 -0.036280561238527 0.000000000000000
1.339427232742310 -23.602560043334961 -0.594276547431946 0.000000000000000
1.341428041458130 -23.110174179077148 2.098583459854126 0.000000000000000
1.361552238464355 -8.553983688354492 -0.201098337769508 0.000000000000000
1.361791491508484 -25.440788269042969 2.152815341949463 0.000000000000000
1.374721646308899 -17.776845932006836 0.887625992298126 0.000000000000000
1.380169034004211 -19.629016876220703 2.235007762908936 0.000000000000000
1.385425686836243 -7.523440837860107 -0.177609011530876 0.000000000000000
1.391224622726440 -27.256078720092773 1.989800572395325 0.000000000000000
1.394214034080505 -27.165632247924805 2.585658788681030 0.000000000000000
1.398175001144409 4.671018600463867 -1.013455152511597 0.000000000000000
1.409999847412109 -21.827600479125977 3.241641044616699 0.000000000000000
1.422824263572693 -23.117279052734375 2.099666595458984 0.000000000000000
1.423222780227661 -15.307008743286133 2.627760410308838 0.000000000000000
1.424952268600464 -21.688390731811523 1.333186626434326 0.000000000000000
1.425365567207336 -24.234546661376953 0.975042104721069 0.000000000000000
1.437776923179626 3.076171636581421 -0.052749410271645 1.000000000000000
1.443078875541687 -4.636610984802246 -0.010170374996960 0.000000000000000
1.446900844573975 -20.445482254028320 1.059834122657776 0.000000000000000
1.453813910484314 -18.932849884033203 2.022590637207031 0.000000000000000
1.457049369812012 -23.946004867553711 1.194307327270508 0.000000000000000
1.461684584617615 3.802265405654907 -0.141539394855499 0.000000000000000
1.468778014183044 4.729073047637939 -0.029385587200522 0.000000000000000
1.486042380332947 -8.629303932189941 -0.253763288259506 0.000000000000000
1.490411877632141 -5.999567985534668 -0.274232655763626 1.000000000000000
1.491525411605835 -17.270378112792969 2.569035530090332 0.000000000000000
1.491539835929871 -18.574590682983398 1.466557621955872 0.000000000000000
1.497234702110291 -27.450464248657227 2.492225646972656 0.000000000000000
1.503190398216248 4.702184200286865 -0.437975436449051 1.000000000000000
1.503739714622498 -11.004706382751465 -0.151214852929115 0.000000000000000
1.527673721313477 -19.158676147460938 1.928523778915405 0.000000000000000
1.527701735496521 -20.958589553833008 0.642041742801666 0.000000000000000
1.567942261695862 -6.292882919311523 -0.187947064638138 0.000000000000000
1.587696194648743 -8.118053436279297 -0.049086745828390 0.000000000000000
1.589381217956543 -9.879765510559082 -0.155452325940132 0.000000000000000
1.596211552619934 -7.759628295898438 -0.305721223354340 0.000000000000000
1.609024882316589 3.053337812423706 -0.066871948540211 0.000000000000000
1.612344264984131 -21.152111053466797 2.128604888916016 0.000000000000000
1.618369460105896 4.722026824951172 -0.288691341876984 0.000000000000000
1.623354554176331 -18.061126708984375 2.687489271163940 0.000000000000000
1.631958723068237 -25.263652801513672 1.796931624412537 0.000000000000000
1.655355215072632 -17.072813034057617 3.567803621292114 0.000000000000000
1.659693002700806 -15.814824104309082 0.272012352943420 0.000000000000000
1.664174675941467 -15.801733016967773 0.302312612533569 0.000000000000000
1.664502978324890 -15.424800872802734 1.191040396690369 0.000000000000000
1.666183471679688 -15.440375328063965 1.558314442634583 0.000000000000000
1.685494303703308 6.480450630187988 -0.400164544582367 1.000000000000000
1.686892151832581 4.717535495758057 -0.584115326404572 0.000000000000000
1.690523982048035 -8.728704452514648 -0.668510317802429 0.000000000000000
1.694240450859070 -15.460018157958984 1.314187288284302 0.000000000000000
1.696415543556213 -16.666172027587891 1.902758598327637 0.000000000000000
1.702772617340088 -7.804385185241699 -0.016730014234781 0.000000000000000
1.704628705978394 -16.697668075561523 1.029521703720093 0.000000000000000
1.706342577934265 -6.041352748870850 -0.169869646430016 0.000000000000000
1.709418535232544 2.745121955871582 -0.199490547180176 0.000000000000000
1.716924309730530 -16.535293579101562 3.457837343215942 0.000000000000000
1.731546640396118 6.214687347412109 -0.087832033634186 0.000000000000000
1.733782052993774 -25.776727676391602 0.938295245170593 0.000000000000000
1.742618083953857 5.084556102752686 -0.476859450340271 0.000000000000000
1.744078159332275 6.377021789550781 -0.770791351795197 0.000000000000000
1.748236179351807 -11.061663627624512 -0.152467265725136 0.000000000000000
1.748803257942200 -26.781824111938477 3.977577924728394 0.000000000000000
1.755794525146484 -16.021701812744141 1.112920761108398 0.000000000000000
1.756155848503113 -6.398359775543213 -0.115814164280891 1.000000000000000
1.760165452957153 4.515056133270264 -0.607898831367493 1.000000000000000
1.763033509254456 -9.226395606994629 -0.525168716907501 0.000000000000000
1.765385746955872 -16.359672546386719 0.755834877490997 0.000000000000000
1.767483830451965 -16.782678604125977 1.916752934455872 0.000000000000000
1.775742650032043 -8.779811859130859 -0.207968726754189 0.000000000000000
1.784896612167358 5.451882839202881 -0.420264929533005 0.000000000000000
1.809312582015991 3.477433204650879 -0.015735847875476 0.000000000000000
1.819157600402832 -25.304237365722656 1.067734599113464 0.000000000000000
1.840267419815063 -17.140529632568359 3.585724353790283 0.000000000000000
1.844283699989319 -13.974797248840332 -0.029522569850087 0.000000000000000
1.850864887237549 -11.913224220275879 -0.534815728664398 0.000000000000000
1.854816436767578 -15.023875236511230 1.016076087951660 0.000000000000000
1.856104731559753 -27.710952758789062 1.810605406761169 0.000000000000000
1.862856626510620 -17.425422668457031 -0.339551419019699 0.000000000000000
1.870785951614380 -11.922086715698242 -0.025275141000748 0.000000000000000
1.880725383758545 -0.109495840966702 -0.018413629382849 0.000000000000000
1.888518810272217 -5.763958930969238 -0.175780341029167 1.000000000000000
1.896251797676086 -12.148052215576172 -0.143782541155815 0.000000000000000
1.909707307815552 -8.454084396362305 -1.272426724433899 0.000000000000000
1.910723924636841 -15.877641677856445 0.796138644218445 0.000000000000000
1.919169068336487 5.708627700805664 -0.336715310811996 1.000000000000000
1.928547620773315 -18.636728286743164 1.546984314918518 0.000000000000000
1.936573386192322 -18.308441162109375 1.235739350318909 0.000000000000000
1.947738051414490 -15.336130142211914 -0.626315474510193 0.000000000000000
1.948272824287415 5.592167377471924 -0.160240083932877 0.000000000000000
1.948317289352417 -17.899631500244141 0.619321942329407 0.000000000000000
1.956893086433411 -17.902896881103516 2.204911231994629 0.000000000000000
1.966134309768677 -15.870873451232910 0.796138644218445 1.000000000000000
1.967653632164001 -16.547897338867188 1.311522364616394 0.000000000000000
1.970101118087769 -15.512212753295898 1.049561381340027 0.000000000000000
1.979789614677429 -6.295944213867188 -0.039164960384369 1.000000000000000
1.990395784378052 4.213002681732178 -0.341355651617050 0.000000000000000
1.996086835861206 -16.499601364135742 2.034779071807861 0.000000000000000
2.006703376770020 6.732217311859131 -0.460438102483749 0.000000000000000
2.019228458404541 -18.208341598510742 -0.038369290530682 0.000000000000000
2.022393226623535 -17.728302001953125 1.473255753517151 0.000000000000000
2.026257038116455 -27.798284530639648 2.796739101409912 0.000000000000000
2.027450561523438 -16.749038696289062 2.883864402770996 0.000000000000000
2.035872936248779 -25.799104690551758 1.886834621429443 0.000000000000000
2.037324905395508 -9.699671745300293 -0.115905381739140 0.000000000000000
2.039224624633789 -7.271332263946533 -0.044814206659794 0.000000000000000
2.042288064956665 -7.221621990203857 -0.217494845390320 0.000000000000000
2.043842792510986 -29.811483383178711 2.708909511566162 0.000000000000000
2.048552513122559 -9.450175285339355 -1.026561498641968 0.000000000000000
2.052114963531494 -15.684659957885742 1.092254996299744 0.000000000000000
2.054652214050293 6.724247455596924 -0.109226696193218 0.000000000000000
2.062103509902954 -18.274644851684570 1.234399914741516 0.000000000000000
2.063713550567627 -17.209724426269531 1.431125044822693 0.000000000000000
2.079586029052734 1.026802897453308 -0.058301828801632 0.000000000000000
2.079685211181641 -16.984235763549805 1.346672058105469 0.000000000000000
2.084076642990112 -8.509840011596680 -1.176792502403259 1.000000000000000
2.085603237152100 -17.144165039062500 1.504903554916382 0.000000000000000
2.090736627578735 -9.492625236511230 -0.881181061267853 0.000000000000000
2.109486579895020 -27.674049377441406 2.130706787109375 0.000000000000000
2.119900941848755 -18.813360214233398 1.161273121833801 0.000000000000000
2.134310007095337 -20.265781402587891 1.643143415451050 0.000000000000000
2.147248029708862 6.940067768096924 -0.406157284975052 0.000000000000000
2.151846885681152 -17.709327697753906 1.695762038230896 0.000000000000000
2.154646635055542 -15.940303802490234 1.328102469444275 0.000000000000000
2.160581827163696 -20.699033737182617 2.088268995285034 0.000000000000000
2.168820381164551 -19.925441741943359 2.276539087295532 0.000000000000000
2.185503005981445 4.291510581970215 -0.019332613795996 0.000000000000000
2.188697099685669 -17.502161026000977 3.668810129165649 0.000000000000000
2.194696426391602 4.304731369018555 -0.028673496097326 1.000000000000000
2.218070507049561 -17.174400329589844 1.737628459930420 0.000000000000000
2.219173192977905 -15.988608360290527 2.759182453155518 0.000000000000000
2.221083641052246 -18.478420257568359 -0.146176815032959 0.000000000000000
2.241940259933472 3.975399494171143 -0.000796568288933 0.000000000000000
2.242347478866577 -15.181485176086426 1.237421154975891 0.000000000000000
2.247014999389648 5.709642887115479 -0.737091422080994 0.000000000000000
2.247056484222412 -16.310739517211914 1.136893153190613 0.000000000000000
2.254355669021606 1.169096231460571 -0.151761874556541 1.000000000000000
2.259506940841675 -20.427137374877930 1.863120198249817 0.000000000000000
2.268840551376343 4.741383075714111 -0.578440308570862 0.000000000000000
2.269243717193604 -17.231966018676758 -0.336761862039566 0.000000000000000
2.275279521942139 -15.191599845886230 1.149610400199890 0.000000000000000
2.281052589416504 6.866705417633057 -0.726041913032532 0.000000000000000
2.290445327758789 -15.141279220581055 1.739342570304871 0.000000000000000
2.303278446197510 -16.384513854980469 1.879284501075745 0.000000000000000
2.310409069061279 1.208418607711792 -0.155818402767181 1.000000000000000
2.314948320388794 -15.515606880187988 0.630069196224213 0.000000000000000
2.314974784851074 6.580688953399658 -0.001217541750520 1.000000000000000
2.315671920776367 -14.016687393188477 -0.193415611982346 0.000000000000000
2.319535493850708 -18.858449935913086 0.361512005329132 0.000000000000000
2.335662126541138 -15.524460792541504 0.389162987470627 0.000000000000000
2.347865104675293 4.485138893127441 -0.547282099723816 1.000000000000000
2.354218959808350 -16.333103179931641 1.874318957328796 0.000000000000000
2.355103731155396 -14.115907669067383 -0.167356505990028 0.000000000000000
2.367592573165894 -13.681260108947754 -0.562518060207367 0.000000000000000
2.368347167968750 -16.792102813720703 1.400185346603394 0.000000000000000
2.369071722030640 4.437995433807373 -0.417137861251831 1.000000000000000
2.385561943054199 -16.757638931274414 1.534482955932617 0.000000000000000
2.386664628982544 -16.324085235595703 1.568201422691345 0.000000000000000
2.392894983291626 -18.799196243286133 1.308556675910950 0.000000000000000
2.400229215621948 4.861198902130127 -0.397176653146744 0.000000000000000
2.404934406280518 -18.019336700439453 2.064820528030396 0.000000000000000
2.405128955841064 1.968506932258606 -0.000542448309716 0.000000000000000
2.405225992202759 -16.202051162719727 2.179687261581421 0.000000000000000
2.410894632339478 -7.832355499267578 -0.127306878566742 0.000000000000000
2.415182590484619 -18.974292755126953 2.545342922210693 0.000000000000000
2.415252208709717 -18.147378921508789 1.158219814300537 0.000000000000000
2.418984413146973 -15.774980545043945 1.194388866424561 0.000000000000000
2.419069528579712 -16.937927246093750 3.558843612670898 0.000000000000000
2.420866489410400 -7.845752716064453 -0.143319174647331 0.000000000000000
2.428711891174316 -16.391765594482422 1.112245798110962 0.000000000000000
2.442081212997437 -18.348964691162109 1.456828594207764 0.000000000000000
2.445444583892822 -12.494545936584473 -0.099995873868465 0.000000000000000
2.457860231399536 -9.387493133544922 -0.038954250514507 0.000000000000000
2.461413621902466 -9.130004882812500 -0.019804583862424 0.000000000000000
2.468505144119263 -15.553897857666016 1.057062029838562 0.000000000000000
2.474611520767212 -15.546804428100586 1.087019681930542 0.000000000000000
2.486633300781250 -19.070421218872070 1.179639935493469 0.000000000000000
2.491837501525879 -19.719387054443359 2.257579326629639 0.000000000000000
2.497498035430908 7.021158218383789 -0.690000891685486 0.000000000000000
2.498562812805176 -16.517065048217773 0.317835301160812 0.000000000000000
2.500509738922119 -20.657041549682617 -0.083528444170952 0.000000000000000
2.500582218170166 -37.737632751464844 2.392711162567139 0.000000000000000
2.504940748214722 -26.391345977783203 2.137597560882568 0.000000000000000
2.508049726486206 -16.579780578613281 1.093181014060974 0.000000000000000
2.511319398880005 -20.156345367431641 -0.393560409545898 0.000000000000000
2.516953468322754 -15.407200813293457 1.911311864852905 0.000000000000000
2.518296480178833 -16.480224609375000 2.041098356246948 0.000000000000000
2.522714853286743 -15.094569206237793 1.263589978218079 0.000000000000000
2.523589134216309 -16.913991928100586 2.534437656402588 0.000000000000000
2.524339675903320 -16.605155944824219 2.235089540481567 0.000000000000000
2.524459600448608 -17.091485977172852 1.962346792221069 0.000000000000000
2.530261278152466 -20.571708679199219 2.354184150695801 0.000000000000000
2.537159204483032 -13.450695037841797 -0.054947011172771 0.000000000000000
2.539223909378052 5.173830509185791 -0.533635079860687 0.000000000000000
2.542043209075928 -17.123678207397461 -0.401918143033981 0.000000000000000
2.543438196182251 -18.033538818359375 2.229701757431030 0.000000000000000
2.549412727355957 4.297457218170166 -0.559593737125397 1.000000000000000
2.550280570983887 -16.289468765258789 1.361346125602722 0.000000000000000
2.553483963012695 -16.617250442504883 1.464972019195557 0.000000000000000
2.556271553039551 -12.948065757751465 -0.230371773242950 0.000000000000000
2.556323766708374 -16.509035110473633 1.347049713134766 0.000000000000000
2.567104339599609 -26.124977111816406 2.116700410842896 0.000000000000000
2.567581176757812 -18.225439071655273 1.128947496414185 0.000000000000000
2.571824073791504 2.534924268722534 -0.187986314296722 0.000000000000000
2.576087236404419 -16.977455139160156 2.102345943450928 0.000000000000000
2.582630157470703 4.325195312500000 -0.554375112056732 0.000000000000000
2.590601205825806 -25.945310592651367 0.295816540718079 0.000000000000000
2.627292394638062 -19.149877548217773 1.558591127395630 0.000000000000000
2.632358551025391 -18.168458938598633 2.442980289459229 0.000000000000000
2.636477231979370 -25.901662826538086 2.099339962005615 0.000000000000000
2.641095876693726 5.064429283142090 -0.055827312171459 0.000000000000000
2.646963596343994 4.431877613067627 -0.378179967403412 1.000000000000000
2.652391195297241 4.417110443115234 -0.347634077072144 1.000000000000000
2.656377077102661 -21.083608627319336 1.672434329986572 0.000000000000000
2.656549692153931 5.380326747894287 -0.532357513904572 1.000000000000000
2.659584283828735 -18.257545471191406 2.258867263793945 0.000000000000000
2.662478208541870 5.062261104583740 -0.055905498564243 0.000000000000000
2.664731264114380 4.538657188415527 -0.589420914649963 0.000000000000000
2.666850090026855 -16.461982727050781 1.087195873260498 0.000000000000000
2.667717933654785 -19.943159103393555 1.544678330421448 0.000000000000000
2.670460939407349 -18.896003723144531 2.539538860321045 0.000000000000000
2.671809196472168 -10.988533020019531 -0.588704943656921 0.000000000000000
2.677331447601318 -11.528841018676758 -0.092958778142929 0.000000000000000
2.681619882583618 -17.771242141723633 1.414460778236389 0.000000000000000
2.689708709716797 -16.111063003540039 1.999780535697937 0.000000000000000
2.694553613662720 -16.216747283935547 2.187602043151855 0.000000000000000
2.696393728256226 -24.439270019531250 -0.145907267928123 0.000000000000000
2.700817108154297 -19.970415115356445 -0.390460848808289 0.000000000000000
2.706095933914185 -20.332679748535156 0.035800177603960 0.000000000000000
2.706247568130493 -17.477260589599609 0.608321547508240 0.000000000000000
2.720620155334473 -11.924747467041016 -0.143034160137177 0.000000000000000
2.730081796646118 5.354849815368652 -0.128003939986229 0.000000000000000
2.730869054794312 -7.936418533325195 -0.340036839246750 1.000000000000000
2.731952190399170 -18.059917449951172 0.909304440021515 0.000000000000000
2.732196092605591 4.916458606719971 -0.357814162969589 0.000000000000000
2.748673439025879 5.726408958435059 -0.391838818788528 1.000000000000000
2.757322549819946 5.668157100677490 -0.097918815910816 1.000000000000000
2.764795541763306 -16.287672042846680 1.140750765800476 0.000000000000000
2.770895242691040 -16.891279220581055 2.536783456802368 0.000000000000000
2.776861667633057 -15.601824760437012 1.436614036560059 0.000000000000000
2.818682670593262 -13.844365119934082 -0.463749915361404 0.000000000000000
2.825343847274780 -18.162540435791016 1.198309540748596 0.000000000000000
2.830758333206177 -15.778513908386230 1.261622309684753 0.000000000000000
2.839491128921509 -18.713392257690430 1.562783241271973 0.000000000000000
2.841302633285522 -24.829908370971680 -0.052343081682920 0.000000000000000
2.842485189437866 -17.484272003173828 1.223138213157654 0.000000000000000
2.851377964019775 -8.878870964050293 -0.216510295867920 0.000000000000000
2.858627796173096 -15.742500305175781 2.734919786453247 0.000000000000000
2.868402242660522 -18.569477081298828 2.001407384872437 0.000000000000000
2.872236967086792 -19.136327743530273 1.686158776283264 0.000000000000000
2.882289886474609 -18.237194061279297 1.966666460037231 0.000000000000000
2.882890701293945 -15.078322410583496 1.060016393661499 0.000000000000000
2.886019229888916 5.963640689849854 -0.549352705478668 1.000000000000000
2.889539003372192 -18.645914077758789 1.448537826538086 0.000000000000000
2.890594720840454 -20.562425613403320 1.674328207969666 0.000000000000000
2.892166614532471 -20.573606491088867 1.354441165924072 0.000000000000000
2.899370908737183 -15.489659309387207 1.789902210235596 0.000000000000000
2.902109146118164 2.498058080673218 -0.228835910558701 1.000000000000000
2.913986921310425 -19.220199584960938 -0.563377737998962 0.000000000000000
2.915661096572876 -22.140666961669922 -0.089646160602570 0.000000000000000
2.917507410049438 2.529097080230713 -0.230744868516922 0.000000000000000
2.917866945266724 -24.734296798706055 0.330382555723190 0.000000000000000
2.943599939346313 -14.338829040527344 -0.424213469028473 0.000000000000000
2.944567203521729 -24.960630416870117 1.880990743637085 0.000000000000000
2.947324275970459 5.567934036254883 -0.037384733557701 1.000000000000000
2.950975656509399 -20.473283767700195 1.667898297309875 0.000000000000000
2.956904649734497 -21.904289245605469 2.706071615219116 0.000000000000000
2.964319229125977 -24.395835876464844 1.839197635650635 0.000000000000000
2.968653202056885 5.887406349182129 -0.292491197586060 1.000000000000000
2.981748580932617 -15.929756164550781 0.557444751262665 0.000000000000000
2.989911556243896 -23.909162521362305 2.290414333343506 0.000000000000000
2.992499351501465 -21.344091415405273 0.368680745363235 0.000000000000000
2.996703147888184 5.661218166351318 -0.432186454534531 0.000000000000000
3.001392841339111 -15.380622863769531 1.021620631217957 0.000000000000000
3.014317035675049 -16.470668792724609 1.317799091339111 0.000000000000000
3.019395589828491 -17.339658737182617 2.154843568801880 0.000000000000000
3.026218414306641 -21.672613143920898 1.342247605323792 0.000000000000000
3.026618480682373 -19.719181060791016 2.956648588180542 0.000000000000000
3.034703016281128 -15.577361106872559 1.095837116241455 0.000000000000000
3.035272836685181 2.926831007003784 -0.170828029513359 0.000000000000000
3.036315917968750 -12.762901306152344 -0.153417930006981 0.000000000000000
3.060138225555420 -17.683170318603516 2.197133541107178 0.000000000000000
3.060661792755127 -20.974945068359375 1.921624779701233 0.000000000000000
3.073186159133911 -16.741184234619141 0.323846548795700 0.000000000000000
3.078505039215088 -18.135763168334961 0.420657545328140 0.000000000000000
3.083222866058350 1.826901078224182 -0.035028900951147 1.000000000000000
3.095351696014404 -18.592760086059570 0.938341796398163 0.000000000000000
3.096218347549438 -22.894096374511719 0.262100994586945 0.000000000000000
3.101684331893921 -17.344366073608398 1.767979979515076 0.000000000000000
3.105167627334595 -16.589111328125000 1.360873937606812 0.000000000000000
3.106367826461792 -19.309518814086914 1.962469696998596 0.000000000000000
3.117239236831665 -17.293716430664062 0.638209164142609 0.000000000000000
3.119884014129639 -12.608750343322754 -0.426350742578506 0.000000000000000
3.130071878433228 -18.903139114379883 0.364555686712265 0.000000000000000
3.130746841430664 -17.054746627807617 1.398166775703430 0.000000000000000
3.132710456848145 5.908931732177734 -0.001167276175693 0.000000000000000
3.134766101837158 -12.956576347351074 -0.386322766542435 0.000000000000000
3.143950700759888 6.274499893188477 -0.690604507923126 0.000000000000000
3.151424884796143 2.269621610641479 -0.052873469889164 0.000000000000000
3.151673316955566 -18.886299133300781 0.143702790141106 0.000000000000000
3.169699430465698 5.494287967681885 -0.685714781284332 0.000000000000000
3.170685768127441 -16.308717727661133 1.339655518531799 0.000000000000000
3.170835971832275 5.705770492553711 -0.516028821468353 0.000000000000000
3.173346042633057 -20.432518005371094 1.387896180152893 0.000000000000000
3.184644222259521 -18.772951126098633 1.278064608573914 0.000000000000000
3.207282304763794 2.785199880599976 -0.188435241580009 0.000000000000000
3.221053600311279 -16.325822830200195 1.309639334678650 0.000000000000000
3.231015920639038 -10.948414802551270 -0.133492305874825 0.000000000000000
3.236975193023682 -17.118106842041016 1.656017661094666 0.000000000000000
3.244615793228149 1.507202863693237 -0.131184473633766 0.000000000000000
3.248699665069580 3.136795759201050 -0.026798326522112 0.000000000000000
3.251813411712646 -15.017392158508301 1.031345367431641 0.000000000000000
3.260286092758179 -17.241380691528320 1.313200831413269 0.000000000000000
3.272231578826904 -23.624082565307617 2.078183650970459 0.000000000000000
3.275275230407715 1.507566690444946 -0.132210507988930 0.000000000000000
3.284390926361084 -22.845748901367188 1.816485047340393 0.000000000000000
3.292052984237671 -12.731253623962402 -0.229534044861794 0.000000000000000
3.306577682495117 5.822050094604492 -0.245512843132019 1.000000000000000
3.309018373489380 5.532473087310791 -0.137287005782127 0.000000000000000
3.309692144393921 -19.163066864013672 1.492933988571167 0.000000000000000
3.320175647735596 -13.152086257934570 -0.445247173309326 0.000000000000000
3.320799827575684 -16.189147949218750 0.568445146083832 0.000000000000000
3.334578752517700 5.512343406677246 -0.696462690830231 0.000000000000000
3.346132755279541 -23.866392135620117 1.524677872657776 0.000000000000000
3.361954927444458 -16.259986877441406 1.505230665206909 0.000000000000000
3.374687671661377 5.219671249389648 -0.323569387197495 0.000000000000000
3.384184598922729 -17.406869888305664 0.337390899658203 0.000000000000000
3.395750522613525 -20.309633255004883 1.866731524467468 0.000000000000000
3.398066759109497 7.374028205871582 -0.375795960426331 1.000000000000000
3.406255006790161 3.283758878707886 -0.209884583950043 0.000000000000000
3.410659074783325 7.052458763122559 -0.589032888412476 1.000000000000000
3.413713216781616 -12.580166816711426 -0.152435675263405 0.000000000000000
3.436086177825928 -18.341075897216797 -0.540782332420349 0.000000000000000
3.472148418426514 -18.748649597167969 3.259258985519409 0.000000000000000
3.486904382705688 -15.649544715881348 1.707805395126343 0.000000000000000
3.491362810134888 6.810705184936523 -0.472127586603165 0.000000000000000
3.509100437164307 -15.081843376159668 1.158864617347717 0.000000000000000
3.517404556274414 -16.050151824951172 1.750172138214111 0.000000000000000
3.550983428955078 -18.825462341308594 1.736721158027649 0.000000000000000
3.551305532455444 -12.350690841674805 -0.150284081697464 0.000000000000000
3.566510915756226 7.245232582092285 -1.084672689437866 1.000000000000000
3.571983814239502 -13.456631660461426 -0.510520160198212 0.000000000000000
3.574663162231445 7.507258415222168 -0.593100309371948 1.000000000000000
3.604542970657349 -16.923185348510742 1.194757342338562 0.000000000000000
3.607861995697021 -20.270809173583984 3.519406318664551 0.000000000000000
3.609105110168457 7.468785762786865 -1.217811226844788 0.000000000000000
3.612470388412476 6.427090644836426 -0.327058345079422 0.000000000000000
3.632475852966309 -15.219254493713379 1.080406665802002 0.000000000000000
3.633499622344971 -27.381263732910156 2.771579265594482 0.000000000000000
3.646096706390381 5.962030887603760 -0.620023310184479 0.000000000000000
3.655137538909912 -21.605884552001953 1.766917705535889 0.000000000000000
3.658450841903687 -17.269449234008789 1.116800785064697 0.000000000000000
3.662523031234741 -15.993975639343262 -0.034364808350801 0.000000000000000
3.666428327560425 6.121071338653564 -0.110842101275921 1.000000000000000
3.678780555725098 6.225687980651855 -0.767704129219055 1.000000000000000
3.683689355850220 7.636405467987061 -0.604768753051758 0.000000000000000
3.688067436218262 6.262597560882568 -0.043128926306963 1.000000000000000
3.698686361312866 -14.132710456848145 -0.311110049486160 0.000000000000000
3.699284553527832 -16.780609130859375 1.120243787765503 0.000000000000000
3.699311494827271 1.519158363342285 -0.085165627300739 0.000000000000000
3.699361801147461 5.711998939514160 -0.301886379718781 1.000000000000000
3.708945989608765 -15.940764427185059 0.217106997966766 0.000000000000000
3.718312025070190 -18.983955383300781 1.753694891929626 0.000000000000000
3.720890045166016 -14.577432632446289 -0.464917391538620 0.000000000000000
3.721622228622437 7.637901782989502 -0.360559314489365 0.000000000000000
3.722715616226196 -17.171810150146484 1.145485043525696 0.000000000000000
3.723130702972412 -21.692287445068359 2.208477258682251 0.000000000000000
3.723602533340454 -21.352880477905273 1.964961647987366 0.000000000000000
3.736528873443604 -14.959701538085938 1.064700603485107 0.000000000000000
3.741935491561890 -17.616518020629883 1.452177524566650 0.000000000000000
3.749097824096680 -16.469776153564453 2.247753143310547 0.000000000000000
3.750293254852295 -28.348653793334961 2.491736888885498 0.000000000000000
3.751955986022949 -16.566482543945312 1.074623942375183 0.000000000000000
3.753638029098511 -18.559127807617188 1.307454586029053 0.000000000000000
3.754852771759033 -22.683673858642578 1.765128016471863 0.000000000000000
3.759868860244751 -23.876398086547852 2.425331592559814 0.000000000000000
3.764472007751465 -15.718824386596680 1.978878498077393 0.000000000000000
3.784811019897461 -16.797262191772461 1.636713266372681 0.000000000000000
3.799730062484741 -21.509817123413086 1.466117620468140 0.000000000000000
3.802556753158569 5.147495746612549 -0.234666302800179 1.000000000000000
3.817158460617065 -16.405853271484375 1.601132512092590 0.000000000000000
3.820002317428589 3.426172256469727 -0.079714365303516 0.000000000000000
3.820488214492798 3.168227672576904 -0.086633749306202 0.000000000000000
3.828068733215332 -22.120698928833008 1.506835818290710 0.000000000000000
3.834831953048706 -18.629016876220703 1.239944696426392 0.000000000000000
3.840683460235596 -19.061401367187500 0.369958192110062 0.000000000000000
3.853269815444946 -15.809148788452148 -0.034079972654581 0.000000000000000
3.855262756347656 -25.740839004516602 -0.054512873291969 0.000000000000000
3.859145402908325 -17.908256530761719 1.441764473915100 0.000000000000000
3.886087656021118 -16.970264434814453 1.654882192611694 0.000000000000000
3.889747619628906 -8.852272033691406 -1.298731684684753 1.000000000000000
3.912897109985352 -16.916292190551758 2.310542345046997 0.000000000000000
3.919924497604370 -29.702669143676758 2.242202997207642 0.000000000000000
3.928188085556030 -18.180879592895508 2.112671613693237 0.000000000000000
3.928726673126221 -20.095424652099609 0.075048297643661 0.000000000000000
3.945303201675415 5.155390262603760 -0.050987526774406 0.000000000000000
3.960394382476807 -27.657583236694336 2.803528308868408 0.000000000000000
3.975317478179932 -18.220230102539062 3.878968238830566 0.000000000000000
3.975584268569946 7.435922145843506 -0.260566234588623 0.000000000000000
3.983480215072632 6.087628841400146 -0.772349238395691 1.000000000000000
3.986383914947510 -16.277467727661133 1.060228347778320 0.000000000000000
3.990195751190186 -16.882345199584961 1.298274636268616 0.000000000000000
3.996446609497070 7.558175086975098 -0.494470566511154 0.000000000000000
3.999456882476807 7.099629402160645 -0.801853358745575 0.000000000000000
4.003465652465820 -16.078536987304688 1.881993055343628 0.000000000000000
4.009541988372803 -25.369689941406250 2.021420478820801 0.000000000000000
4.015050411224365 -12.678533554077148 -0.155522748827934 0.000000000000000
4.023871898651123 -16.861722946166992 1.130132198333740 0.000000000000000
4.026039600372314 -14.820328712463379 1.030809640884399 0.000000000000000
4.029224872589111 -15.488380432128906 0.058657597750425 0.000000000000000
4.030880451202393 3.490304946899414 -0.000930609588977 0.000000000000000
4.034592151641846 6.511191368103027 -0.045455086976290 0.000000000000000
4.048332691192627 -16.642271041870117 2.927671670913696 0.000000000000000
4.065310478210449 6.311999320983887 -0.044553108513355 1.000000000000000
4.075371742248535 -20.962055206298828 -0.249725103378296 0.000000000000000
4.076616287231445 -30.080123901367188 2.271756649017334 0.000000000000000
4.106862068176270 -29.528400421142578 2.231157779693604 1.000000000000000
4.112131118774414 3.585849761962891 -0.000952251662966 0.000000000000000
4.119157314300537 -20.235456466674805 3.060442209243774 0.000000000000000
4.148208618164062 -17.315803527832031 3.043592453002930 0.000000000000000
4.163840293884277 -29.300647735595703 3.623326301574707 0.000000000000000
4.166437149047852 -16.285007476806641 0.287542253732681 0.000000000000000
4.180562496185303 -14.853910446166992 0.946503758430481 0.000000000000000
4.203608036041260 -24.155286788940430 -0.286723136901855 0.000000000000000
4.206218242645264 7.902091503143311 -0.759573996067047 0.000000000000000
4.212320327758789 -21.820936203002930 1.936512947082520 0.000000000000000
4.212661743164062 -15.507307052612305 1.326785922050476 0.000000000000000
4.212758064270020 -15.074182510375977 -0.363388240337372 0.000000000000000
4.214735507965088 -21.127231597900391 3.682504177093506 0.000000000000000
4.219753742218018 3.879721164703369 -0.298407495021820 0.000000000000000
4.222217082977295 -19.681467056274414 1.913410186767578 0.000000000000000
4.226929664611816 -20.396724700927734 1.980029463768005 0.000000000000000
4.243016719818115 -22.674547195434570 1.770945429801941 0.000000000000000
4.243486404418945 -15.427967071533203 1.228394269943237 0.000000000000000
4.246409893035889 -17.054239273071289 1.417134881019592 0.000000000000000
4.246597290039062 -22.930461883544922 2.114112377166748 0.000000000000000
4.270836830139160 -15.113956451416016 1.205736994743347 0.000000000000000
4.279202938079834 -16.325284957885742 1.263049125671387 0.000000000000000
4.282005310058594 -17.838573455810547 1.743834018707275 0.000000000000000
4.296904087066650 3.853907108306885 -0.001007404061966 0.000000000000000
4.297117710113525 -16.509883880615234 1.046419262886047 0.000000000000000
4.307693481445312 -21.993061065673828 3.830775022506714 0.000000000000000
4.308570384979248 -16.331518173217773 1.296672463417053 0.000000000000000
4.312839984893799 -14.649992942810059 1.054505467414856 0.000000000000000
4.317854404449463 -15.667327880859375 1.090815067291260 0.000000000000000
4.318058490753174 -23.407573699951172 1.184959769248962 0.000000000000000
4.326595783233643 -22.812740325927734 2.329883575439453 0.000000000000000
4.340062141418457 -19.104402542114258 1.201680064201355 0.000000000000000
4.352870464324951 -22.779659271240234 1.556661844253540 0.000000000000000
4.354450225830078 -22.650653839111328 2.090999364852905 0.000000000000000
4.359698772430420 -21.697906494140625 1.741792082786560 0.000000000000000
4.365111351013184 -17.571506500244141 1.928536295890808 0.000000000000000
4.367111206054688 -15.942692756652832 -0.256788372993469 0.000000000000000
4.369818210601807 8.331048011779785 -0.399226993322372 0.000000000000000
4.394388675689697 -15.039325714111328 1.172596693038940 0.000000000000000
4.397112846374512 -16.775114059448242 1.648447275161743 0.000000000000000
4.401644229888916 -17.526268005371094 1.717716097831726 0.000000000000000
4.408575534820557 7.815028667449951 -0.588105022907257 0.000000000000000
4.421722888946533 -14.488117218017578 0.987531960010529 0.000000000000000
4.423601150512695 -15.541522026062012 1.209314942359924 0.000000000000000
4.434785842895508 -23.867498397827148 2.115337610244751 0.000000000000000
4.440665245056152 2.244210243225098 -0.067739024758339 0.000000000000000
4.444631099700928 -28.565443038940430 3.847034692764282 0.000000000000000
4.461202144622803 5.216205596923828 -0.410186558961868 0.000000000000000
4.466161727905273 -7.990599632263184 -0.741340100765228 0.000000000000000
4.469033241271973 -15.127912521362305 1.931241631507874 0.000000000000000
4.474583625793457 7.250910758972168 -0.246926754713058 0.000000000000000
4.475214958190918 -15.263485908508301 1.694247961044312 0.000000000000000
4.480583190917969 -18.995656967163086 3.336089849472046 0.000000000000000
4.485889434814453 8.163518905639648 -0.413210302591324 0.000000000000000
4.487852096557617 -21.981889724731445 2.251209259033203 0.000000000000000
4.499263286590576 1.220399618148804 -0.531149506568909 1.000000000000000
4.517213344573975 -16.107179641723633 1.457680106163025 0.000000000000000
4.527754783630371 -15.987964630126953 1.083292603492737 0.000000000000000
4.527873516082764 -24.851163864135742 2.201103925704956 0.000000000000000
4.532054424285889 -15.146455764770508 1.935616374015808 0.000000000000000
4.533078193664551 5.905705451965332 -0.215756744146347 0.000000000000000
4.540382385253906 -18.628227233886719 1.822565674781799 0.000000000000000
4.540896415710449 4.316840171813965 -0.181574016809464 0.000000000000000
4.543755054473877 8.119444847106934 -0.663680374622345 0.000000000000000
4.568560600280762 -17.667852401733398 1.365740776062012 0.000000000000000
4.574831485748291 -15.435469627380371 1.615423321723938 0.000000000000000
4.581048965454102 -18.169448852539062 1.474717378616333 0.000000000000000
4.585829257965088 7.373468875885010 -0.118216574192047 1.000000000000000
4.591241836547852 -15.998920440673828 1.085114121437073 0.000000000000000
4.591865539550781 5.453211784362793 -0.206602737307549 1.000000000000000
4.599049091339111 -16.283058166503906 1.103069305419922 0.000000000000000
4.600006580352783 3.658877849578857 -0.272045224905014 0.000000000000000
4.605205059051514 -7.811225891113281 -0.664299130439758 1.000000000000000
4.610804557800293 -17.804298400878906 1.845456480979919 0.000000000000000
4.616310596466064 -14.832200050354004 1.476600050926208 0.000000000000000
4.620140552520752 -14.296552658081055 1.507595300674438 0.000000000000000
4.627614498138428 -16.893693923950195 1.757596492767334 0.000000000000000
4.629145145416260 -26.390529632568359 2.688511848449707 0.000000000000000
4.639938354492188 7.860724925994873 -0.019117623567581 0.000000000000000
4.643920421600342 -15.296456336975098 3.325062751770020 0.000000000000000
4.650813102722168 6.050336360931396 -0.103895552456379 0.000000000000000
4.653581142425537 -18.259387969970703 1.791148781776428 0.000000000000000
4.665133476257324 -15.175563812255859 1.509152650833130 0.000000000000000
4.666315555572510 -18.408670425415039 -0.440912276506424 0.000000000000000
4.676908969879150 -17.310567855834961 1.376585483551025 0.000000000000000
4.680564880371094 -19.247158050537109 2.425110578536987 0.000000000000000
4.704092025756836 4.669085979461670 -0.039331112056971 1.000000000000000
4.722389698028564 4.021344661712646 -0.132091894745827 0.000000000000000
4.723766326904297 -14.658291816711426 2.632478237152100 0.000000000000000
4.728781223297119 -21.041460037231445 1.879219770431519 0.000000000000000
4.729705810546875 -15.011670112609863 3.273744821548462 0.000000000000000
4.733229637145996 -24.489528656005859 2.502807855606079 0.000000000000000
4.744588375091553 3.844014644622803 -0.141771540045738 0.000000000000000
4.753225803375244 -19.548917770385742 -0.737711191177368 0.000000000000000
4.768281936645508 7.431927680969238 -0.323783814907074 1.000000000000000
4.777396202087402 -24.522737503051758 3.324669361114502 0.000000000000000
4.779829502105713 7.407749176025391 -0.018464172258973 0.000000000000000
4.781291484832764 -22.129306793212891 1.475963473320007 0.000000000000000
4.786880970001221 7.254455089569092 -0.385556608438492 1.000000000000000
4.791967868804932 -24.148103713989258 3.276126384735107 0.000000000000000
4.811220169067383 -15.680004119873047 2.008044004440308 0.000000000000000
4.825857162475586 8.481599807739258 -0.432886987924576 1.000000000000000
4.832912921905518 7.449429988861084 -0.599137008190155 0.000000000000000
4.842865467071533 -31.275787353515625 3.594701528549194 0.000000000000000
4.847449302673340 -16.581275939941406 2.560239553451538 0.000000000000000
4.850578308105469 -14.489283561706543 -0.707206547260284 0.000000000000000
4.855860710144043 -15.303902626037598 0.367160886526108 0.000000000000000
4.861252784729004 -15.169224739074707 1.222883105278015 0.000000000000000
4.880130767822266 -14.352527618408203 0.929851114749908 0.000000000000000
4.891783237457275 8.625824928283691 -0.268329113721848 0.000000000000000
4.898342132568359 -20.695631027221680 1.853177428245544 0.000000000000000
4.902950763702393 -14.565457344055176 2.045138597488403 0.000000000000000
4.903809547424316 7.592336654663086 -0.175122350454330 1.000000000000000
4.914188385009766 -18.109695434570312 0.357022583484650 0.000000000000000
4.915854454040527 -14.856341361999512 -0.483573377132416 0.000000000000000
4.917119503021240 -18.634250640869141 2.188962459564209 0.000000000000000
4.927733421325684 -14.532462120056152 1.634510874748230 0.000000000000000
4.941084384918213 -15.217939376831055 1.073938608169556 0.000000000000000
4.944019317626953 3.955809831619263 -0.049730904400349 0.000000000000000
4.947055816650391 -30.236333847045898 2.777526140213013 0.000000000000000
4.952299594879150 6.598484039306641 -0.747920513153076 1.000000000000000
4.952659130096436 7.660339832305908 -0.194262802600861 0.000000000000000
4.953790664672852 -15.612543106079102 2.179687261581421 0.000000000000000
4.961935997009277 -23.308071136474609 1.599522829055786 0.000000000000000
4.970369338989258 -18.436355590820312 1.429027557373047 0.000000000000000
4.972063064575195 -15.497308731079102 1.092422366142273 0.000000000000000
4.972870826721191 9.087655067443848 -0.121144041419029 0.000000000000000
4.977355957031250 -15.878877639770508 1.406133294105530 0.000000000000000
4.985884666442871 -18.458011627197266 1.666019320487976 0.000000000000000
4.990550518035889 -17.933336257934570 1.177666544914246 0.000000000000000
4.993908405303955 -14.337327957153320 2.020339488983154 0.000000000000000
4.998277664184570 -14.714323997497559 1.765073776245117 0.000000000000000
5.003153800964355 -16.748575210571289 0.064067408442497 0.000000000000000
5.013137340545654 8.101779937744141 -0.111415103077888 0.000000000000000
5.015679359436035 4.404677867889404 -0.103697009384632 0.000000000000000
5.021265983581543 4.434323310852051 -0.116931125521660 0.000000000000000
5.023268699645996 2.341212987899780 -0.256510347127914 1.000000000000000
5.028357505798340 -14.555522918701172 1.271489381790161 0.000000000000000
5.029067993164062 -18.875434875488281 1.960073709487915 0.000000000000000
5.042550086975098 -9.360723495483398 -1.428125619888306 1.000000000000000
5.043931484222412 -18.972476959228516 1.866095423698425 0.000000000000000
5.045654296875000 -21.632804870605469 0.337322890758514 0.000000000000000
5.063491344451904 -28.091068267822266 1.915891408920288 0.000000000000000
5.075182437896729 -19.509050369262695 2.289630174636841 0.000000000000000
5.082288742065430 -19.419466018676758 1.424801111221313 0.000000000000000
5.099747657775879 9.025542259216309 -0.439929842948914 0.000000000000000
5.104162216186523 -17.235780715942383 2.664033174514771 0.000000000000000
5.110567569732666 -19.096889495849609 2.245390653610229 0.000000000000000
5.122435092926025 -9.340058326721191 -1.336282014846802 0.000000000000000
5.127736091613770 4.021961212158203 -0.201385945081711 1.000000000000000
5.139640808105469 -26.177614212036133 1.996518969535828 0.000000000000000
5.170063495635986 -18.578411102294922 1.517712950706482 0.000000000000000
5.181294918060303 -23.567825317382812 1.480121135711670 0.000000000000000
5.188033103942871 9.175795555114746 -0.386517822742462 0.000000000000000
