# This PCD file was generated using the MATLAB® pcwrite function
# from Computer Vision Toolbox®.
# .PCD v.7 - Point Cloud Data file format
VERSION .7
FIELDS x y z intensity
SIZE 8 8 8 8
TYPE F F F F
COUNT 1 1 1 1
WIDTH 659
HEIGHT 1
VIEWPOINT 0 0 0 1 0 0 0
POINTS 659
DATA ascii
7.337990760803223 -4.512949943542480 0.711283624172211 0.000000000000000
7.338291168212891 8.154001235961914 0.757469475269318 0.000000000000000
7.338307380676270 11.542834281921387 0.523065149784088 0.000000000000000
7.338443279266357 6.805954933166504 0.382745504379272 0.000000000000000
7.344658851623535 8.346139907836914 0.639092683792114 0.000000000000000
7.345564842224121 5.946414470672607 0.743792295455933 0.000000000000000
7.345807552337646 11.487214088439941 0.364192992448807 1.000000000000000
7.348609447479248 8.223017692565918 0.591472208499908 0.000000000000000
7.349475383758545 -0.995124816894531 0.226595789194107 0.000000000000000
7.349774360656738 -3.911565065383911 1.019333958625793 0.000000000000000
7.350015640258789 0.619911074638367 0.239535778760910 0.000000000000000
7.351466178894043 4.718467712402344 0.468507647514343 0.000000000000000
7.352565765380859 5.923031806945801 0.215907052159309 0.000000000000000
7.354088783264160 0.351183831691742 0.508378028869629 1.000000000000000
7.354321002960205 -6.428252220153809 0.073307335376740 0.000000000000000
7.357908248901367 -3.229283094406128 0.678985536098480 0.000000000000000
7.358582496643066 4.690822601318359 0.484833866357803 0.000000000000000
7.360773563385010 -6.709069252014160 1.702416777610779 0.000000000000000
7.362627506256104 9.418310165405273 1.590839266777039 0.000000000000000
7.363074779510498 7.585909843444824 0.079341232776642 0.000000000000000
7.364447116851807 11.170463562011719 0.100414842367172 0.000000000000000
7.370119094848633 11.540300369262695 0.549966096878052 0.000000000000000
7.370375633239746 0.939981997013092 0.384192466735840 0.000000000000000
7.373120307922363 7.855423927307129 0.910365998744965 0.000000000000000
7.376850128173828 2.807805061340332 0.651708304882050 0.000000000000000
7.377594947814941 -1.975578665733337 0.586334764957428 0.000000000000000
7.379687309265137 -8.271437644958496 2.970207452774048 0.000000000000000
7.383694648742676 1.824274778366089 0.722970008850098 0.000000000000000
7.384159088134766 -3.516369342803955 1.212096929550171 0.000000000000000
7.386684417724609 7.365832328796387 1.046730399131775 0.000000000000000
7.389080047607422 -3.347015857696533 0.513192892074585 0.000000000000000
7.389853477478027 1.268348932266235 0.459905296564102 0.000000000000000
7.390099525451660 -1.955170392990112 0.601624369621277 0.000000000000000
7.395199298858643 7.260144233703613 0.117573335766792 0.000000000000000
7.397218704223633 1.134049057960510 0.652101755142212 0.000000000000000
7.399034023284912 8.125164985656738 0.822429716587067 0.000000000000000
7.401154994964600 8.120089530944824 0.996023535728455 0.000000000000000
7.401578426361084 -3.526567220687866 0.692794322967529 0.000000000000000
7.402659416198730 5.102750778198242 0.136532559990883 0.000000000000000
7.407221794128418 5.067847728729248 0.136289626359940 0.000000000000000
7.411396980285645 -4.565942764282227 0.735567629337311 0.000000000000000
7.415265083312988 3.293427467346191 0.544603884220123 0.000000000000000
7.418389797210693 -2.362089872360229 1.619359254837036 0.000000000000000
7.418872833251953 8.530833244323730 0.236816897988319 0.000000000000000
7.421759605407715 6.445046424865723 0.773606777191162 0.000000000000000
7.422717094421387 7.240497589111328 0.985661745071411 0.000000000000000
7.423534870147705 7.329294681549072 1.388224959373474 0.000000000000000
7.425783634185791 4.851528644561768 1.844994425773621 0.000000000000000
7.425894737243652 6.649786949157715 1.326490879058838 0.000000000000000
7.428490638732910 6.595785140991211 0.341699600219727 0.000000000000000
7.430007934570312 0.922559559345245 0.271921247243881 0.000000000000000
7.432270526885986 4.041104316711426 0.584152519702911 0.000000000000000
7.432386398315430 -1.737230062484741 1.015709996223450 0.000000000000000
7.432464122772217 -2.395178079605103 1.624246716499329 0.000000000000000
7.432778358459473 7.917322158813477 0.728906691074371 0.000000000000000
7.442447662353516 5.910239219665527 0.071326054632664 0.000000000000000
7.443482875823975 -3.698540210723877 0.686268568038940 0.000000000000000
7.443686008453369 0.019748242571950 0.427898257970810 0.000000000000000
7.444475650787354 -6.591413021087646 2.068185806274414 0.000000000000000
7.445289134979248 -6.795147418975830 0.696023225784302 0.000000000000000
7.448729515075684 5.872950077056885 0.216912984848022 0.000000000000000
7.448935508728027 0.355713099241257 0.630149781703949 0.000000000000000
7.449247360229492 4.829837322235107 1.846623659133911 0.000000000000000
7.449801445007324 2.797823190689087 1.058976650238037 0.000000000000000
7.453575134277344 7.440840721130371 0.504043281078339 0.000000000000000
7.454183101654053 -2.500212430953979 0.527727365493774 0.000000000000000
7.454439163208008 0.505840241909027 0.256996601819992 0.000000000000000
7.455559253692627 0.044505883008242 0.428586930036545 0.000000000000000
7.457087039947510 8.454838752746582 0.236146748065948 0.000000000000000
7.461262226104736 0.107965715229511 0.572862863540649 0.000000000000000
7.461740970611572 -8.131942749023438 1.107433676719666 0.000000000000000
7.461832523345947 -2.646184921264648 0.546678602695465 0.000000000000000
7.462291240692139 1.377125620841980 0.421594649553299 0.000000000000000
7.470426559448242 7.486611843109131 0.282489866018295 0.000000000000000
7.474137783050537 0.360056430101395 0.444560617208481 0.000000000000000
7.476716518402100 7.809192657470703 0.600661396980286 0.000000000000000
7.480419635772705 3.127744913101196 0.014151123352349 0.000000000000000
7.483237266540527 1.446329355239868 0.764780163764954 0.000000000000000
7.483311176300049 5.299654960632324 0.509463846683502 0.000000000000000
7.484010696411133 0.112472817301750 0.589070916175842 0.000000000000000
7.487637519836426 7.912972450256348 0.207273989915848 0.000000000000000
7.487810611724854 1.054875016212463 0.580517411231995 0.000000000000000
7.488713264465332 2.521105289459229 1.171048641204834 0.000000000000000
7.494497299194336 -6.682516574859619 2.088549852371216 0.000000000000000
7.495084285736084 7.000045776367188 0.708147168159485 0.000000000000000
7.495525360107422 6.854918003082275 0.544771432876587 0.000000000000000
7.495622158050537 -1.051573514938354 0.639580130577087 0.000000000000000
7.500262737274170 -6.734801292419434 2.096695661544800 0.000000000000000
7.503542900085449 7.839395999908447 0.081442587077618 0.000000000000000
7.505364894866943 -2.950693607330322 0.665861487388611 0.000000000000000
7.507202148437500 -2.664634466171265 0.534692287445068 0.000000000000000
7.507819175720215 5.038960456848145 0.328396052122116 0.000000000000000
7.508259296417236 0.897833228111267 0.580517411231995 0.000000000000000
7.508735656738281 0.566429793834686 0.519950866699219 0.000000000000000
7.509623527526855 -4.520804405212402 0.571441411972046 0.000000000000000
7.510118007659912 0.595809400081635 1.116513013839722 0.000000000000000
7.510373115539551 4.643213272094727 0.626731216907501 0.000000000000000
7.510806560516357 7.220749378204346 0.598919868469238 0.000000000000000
7.512073516845703 0.775235891342163 0.492334783077240 0.000000000000000
7.514351367950439 -4.253319740295410 0.662879824638367 0.000000000000000
7.514875411987305 3.472041368484497 1.013500809669495 0.000000000000000
7.516970634460449 0.121760532259941 0.388736665248871 0.000000000000000
7.518155097961426 0.803724884986877 0.685443341732025 0.000000000000000
7.521561145782471 7.184748649597168 0.617972433567047 0.000000000000000
7.522470474243164 -6.707458972930908 0.958029925823212 0.000000000000000
7.522732257843018 -3.737917900085449 1.747246503829956 0.000000000000000
7.523446083068848 7.794567584991455 0.247730702161789 0.000000000000000
7.524498462677002 -3.756169080734253 0.955216467380524 0.000000000000000
7.526778697967529 1.052328228950500 0.349101006984711 0.000000000000000
7.527186870574951 7.688657760620117 0.060094866901636 0.000000000000000
7.528108596801758 1.070338726043701 0.554386734962463 0.000000000000000
7.532355308532715 0.603262245655060 0.230871185660362 0.000000000000000
7.533287048339844 -7.579711914062500 0.737905919551849 0.000000000000000
7.537848472595215 0.051045265048742 0.716535210609436 0.000000000000000
7.539729118347168 3.527215957641602 0.014528113417327 0.000000000000000
7.539946079254150 -7.566838741302490 0.799443483352661 0.000000000000000
7.540805816650391 4.305387020111084 0.599582970142365 0.000000000000000
7.541606426239014 1.554380178451538 0.427807629108429 1.000000000000000
7.547891139984131 -6.468410968780518 1.322797417640686 0.000000000000000
7.548710823059082 3.473935604095459 0.413681834936142 0.000000000000000
7.548881530761719 7.371539592742920 0.322364568710327 0.000000000000000
7.552398681640625 -4.312879562377930 0.684477150440216 0.000000000000000
7.554263591766357 8.288070678710938 0.817618608474731 0.000000000000000
7.557025432586670 -6.818478584289551 1.084166169166565 0.000000000000000
7.563526153564453 -3.306152582168579 0.828278899192810 0.000000000000000
7.563831329345703 0.522016465663910 0.720698893070221 0.000000000000000
7.564829826354980 -10.995379447937012 2.776044607162476 0.000000000000000
7.565154552459717 7.417150020599365 1.409858226776123 0.000000000000000
7.565817832946777 3.476852893829346 0.398492485284805 0.000000000000000
7.566339015960693 -7.389354705810547 0.873223245143890 0.000000000000000
7.567775726318359 7.930573940277100 1.167628765106201 0.000000000000000
7.570517539978027 -3.105821609497070 0.691447138786316 0.000000000000000
7.572194576263428 0.467383444309235 0.377683550119400 0.000000000000000
7.572940349578857 -5.494393348693848 0.772504746913910 1.000000000000000
7.575894355773926 -5.510676383972168 0.773492157459259 0.000000000000000
7.577993869781494 0.386802285909653 0.553223252296448 0.000000000000000
7.579559803009033 7.445295810699463 2.209920406341553 0.000000000000000
7.580290794372559 -5.361387729644775 0.712787151336670 0.000000000000000
7.584977626800537 6.336632728576660 0.093153126537800 0.000000000000000
7.585877895355225 0.514759361743927 0.613084435462952 0.000000000000000
7.587594509124756 -0.345611065626144 0.436621487140656 0.000000000000000
7.589216709136963 0.704564690589905 0.526288330554962 0.000000000000000
7.590250968933105 3.958645343780518 1.139178156852722 0.000000000000000
7.592144966125488 -1.022315740585327 0.815984427928925 0.000000000000000
7.593335628509521 0.498759478330612 0.723348557949066 0.000000000000000
7.594321250915527 0.661614656448364 2.042599916458130 0.000000000000000
7.595805168151855 -8.573728561401367 1.149366617202759 0.000000000000000
7.597995281219482 6.900083065032959 0.708698213100433 0.000000000000000
7.598412990570068 8.438306808471680 1.390221714973450 0.000000000000000
7.598867416381836 4.235384941101074 0.466579675674438 0.000000000000000
7.600040912628174 -3.782287120819092 0.769588887691498 0.000000000000000
7.601798057556152 0.954803764820099 0.768773794174194 0.000000000000000
7.602489948272705 4.634755134582520 0.846366941928864 0.000000000000000
7.602859497070312 7.696590423583984 0.851438164710999 0.000000000000000
7.608623027801514 8.278374671936035 0.429977267980576 0.000000000000000
7.608940124511719 8.048478126525879 0.061859734356403 0.000000000000000
7.610616207122803 7.905286312103271 0.482945829629898 0.000000000000000
7.611901760101318 -1.068157196044922 0.382655709981918 0.000000000000000
7.615996360778809 6.393300533294678 0.801800012588501 0.000000000000000
7.618987083435059 1.038119435310364 0.771569311618805 0.000000000000000
7.619553089141846 -3.058098554611206 0.744309127330780 0.000000000000000
7.623579502105713 5.344436645507812 0.177141636610031 0.000000000000000
7.623647212982178 9.127810478210449 1.266767144203186 0.000000000000000
7.623830318450928 0.938655674457550 0.589702785015106 0.000000000000000
7.626810073852539 -4.237011432647705 1.293020725250244 0.000000000000000
7.627930641174316 -1.054256558418274 0.820221126079559 0.000000000000000
7.629639148712158 8.966065406799316 0.269220829010010 0.000000000000000
7.631575107574463 -2.593690395355225 0.618789911270142 0.000000000000000
7.634240627288818 0.533573210239410 0.219110831618309 0.000000000000000
7.635484695434570 -4.451811313629150 0.770160675048828 0.000000000000000
7.637163162231445 5.604723453521729 0.362263113260269 0.000000000000000
7.637387752532959 -3.434140682220459 0.840259730815887 0.000000000000000
7.638633728027344 -3.257523059844971 0.573406338691711 1.000000000000000
7.642787933349609 0.638962209224701 2.055023431777954 0.000000000000000
7.645365238189697 7.007164955139160 1.536964654922485 0.000000000000000
7.645720958709717 8.337417602539062 0.846610069274902 0.000000000000000
7.648761272430420 0.175978869199753 0.513529598712921 0.000000000000000
7.653465270996094 -3.548399686813354 0.735090196132660 0.000000000000000
7.659451484680176 7.991115570068359 0.253126114606857 0.000000000000000
7.659595012664795 0.977957963943481 0.310138493776321 0.000000000000000
7.659792423248291 5.584802627563477 0.089345574378967 0.000000000000000
7.659966468811035 -4.571331024169922 0.650371849536896 0.000000000000000
7.662712097167969 6.057728767395020 0.928505420684814 0.000000000000000
7.663224220275879 0.203077748417854 0.632946968078613 0.000000000000000
7.665494441986084 -1.102702856063843 0.654399275779724 0.000000000000000
7.668375015258789 -1.351037383079529 0.522637605667114 0.000000000000000
7.671059131622314 6.491272449493408 1.230297684669495 0.000000000000000
7.671505928039551 -1.104660868644714 0.675366282463074 0.000000000000000
7.673184871673584 -1.329251289367676 0.507687687873840 0.000000000000000
7.674996852874756 8.061796188354492 0.747122645378113 0.000000000000000
7.678180217742920 -6.487646102905273 0.694094419479370 0.000000000000000
7.680773735046387 4.719336509704590 0.674660980701447 0.000000000000000
7.682445526123047 -7.320497512817383 1.205306172370911 0.000000000000000
7.684140205383301 0.530319511890411 0.457608014345169 0.000000000000000
7.687300205230713 2.915219068527222 0.551836788654327 0.000000000000000
7.690680980682373 6.997491836547852 0.617735207080841 0.000000000000000
7.691552639007568 -2.332766771316528 0.601522982120514 0.000000000000000
7.693540096282959 -4.231657981872559 0.521658897399902 0.000000000000000
7.700242042541504 7.191653251647949 0.402922183275223 0.000000000000000
7.701301574707031 0.074467182159424 0.531799197196960 0.000000000000000
7.701755523681641 -6.511252403259277 0.676937639713287 0.000000000000000
7.702691078186035 8.940052986145020 0.860375642776489 0.000000000000000
7.702999114990234 -6.194697856903076 1.315410375595093 0.000000000000000
7.703511238098145 -0.212756186723709 0.576745629310608 0.000000000000000
7.705256938934326 -0.133416637778282 0.457845240831375 0.000000000000000
7.706223487854004 -6.057234287261963 1.675458431243896 0.000000000000000
7.706597328186035 -0.380421102046967 1.026790499687195 0.000000000000000
7.711555480957031 7.057924747467041 1.549279212951660 0.000000000000000
7.714238643646240 9.086025238037109 0.341258853673935 0.000000000000000
7.728327751159668 1.035163521766663 0.478272110223770 0.000000000000000
7.728621006011963 5.388350963592529 0.650558531284332 0.000000000000000
7.731097221374512 -0.757768273353577 0.704222559928894 0.000000000000000
7.731191635131836 -3.882299661636353 0.753840684890747 0.000000000000000
7.732009410858154 9.506101608276367 1.067738413810730 0.000000000000000
7.735036373138428 0.098020367324352 0.072909004986286 0.000000000000000
7.735801696777344 -2.804291963577271 0.568170964717865 0.000000000000000
7.735816955566406 0.366979151964188 0.549699664115906 0.000000000000000
7.739478111267090 2.463735103607178 1.689412117004395 0.000000000000000
7.740106105804443 -3.525086164474487 1.131791234016418 0.000000000000000
7.741672992706299 0.538502395153046 0.237101033329964 0.000000000000000
7.742106437683105 -0.060267027467489 0.296077460050583 0.000000000000000
7.753361225128174 0.032342433929443 0.475578337907791 0.000000000000000
7.755155563354492 9.535576820373535 0.564581871032715 0.000000000000000
7.758183479309082 10.305938720703125 1.579311251640320 0.000000000000000
7.758543491363525 9.658659934997559 0.688308775424957 0.000000000000000
7.760687828063965 9.002271652221680 0.660350322723389 0.000000000000000
7.763503551483154 -0.113285072147846 0.656083226203918 0.000000000000000
7.764321804046631 -4.447028636932373 0.850530743598938 0.000000000000000
7.764569282531738 9.597346305847168 0.876234292984009 0.000000000000000
7.767667293548584 8.966925621032715 0.544942617416382 0.000000000000000
7.768548965454102 -4.697575569152832 0.910947024822235 0.000000000000000
7.769238471984863 -6.696294784545898 0.747811257839203 0.000000000000000
7.770595550537109 9.458066940307617 0.279920160770416 0.000000000000000
7.771253108978271 0.370831370353699 0.705305993556976 0.000000000000000
7.774666786193848 -4.391174316406250 0.582110404968262 0.000000000000000
7.775176525115967 -4.519993782043457 0.690436005592346 0.000000000000000
7.784460067749023 0.424591600894928 0.706750571727753 0.000000000000000
7.784758090972900 8.236186981201172 0.782543957233429 0.000000000000000
7.789587497711182 10.074552536010742 3.412270545959473 0.000000000000000
7.791913509368896 8.918828964233398 0.703610837459564 0.000000000000000
7.792863845825195 9.681288719177246 0.834184229373932 0.000000000000000
7.795920372009277 5.322802066802979 0.070845745503902 1.000000000000000
7.799057006835938 -0.549740433692932 0.524780690670013 0.000000000000000
7.804821491241455 5.664086341857910 0.294635593891144 0.000000000000000
7.805073738098145 8.209331512451172 0.804017186164856 0.000000000000000
7.808045387268066 3.567224502563477 1.142343997955322 0.000000000000000
7.808726787567139 -4.276569843292236 0.717890679836273 0.000000000000000
7.809807300567627 -0.875458300113678 1.045785546302795 0.000000000000000
7.812877655029297 -6.781583309173584 0.937880039215088 0.000000000000000
7.813026428222656 -5.828105926513672 0.748304009437561 0.000000000000000
7.815483570098877 7.777929306030273 0.464064180850983 1.000000000000000
7.815757274627686 -6.874046802520752 0.859399139881134 0.000000000000000
7.816941261291504 -5.940264701843262 0.658989489078522 0.000000000000000
7.818293094635010 1.294169425964355 0.608379781246185 0.000000000000000
7.819444179534912 -2.371554851531982 0.776719570159912 0.000000000000000
7.820321083068848 -6.791872978210449 0.735198557376862 0.000000000000000
7.822713851928711 7.616294860839844 0.753887414932251 0.000000000000000
7.823406219482422 -3.433583498001099 0.458224952220917 0.000000000000000
7.827226638793945 -3.199651479721069 0.736826419830322 0.000000000000000
7.827313899993896 0.436109572649002 2.100575447082520 0.000000000000000
7.827810287475586 7.745722770690918 2.290562629699707 0.000000000000000
7.831200599670410 0.660494923591614 0.376120299100876 0.000000000000000
7.831280231475830 0.837475299835205 0.665513575077057 1.000000000000000
7.831331729888916 -2.858423471450806 0.623912215232849 0.000000000000000
7.832883834838867 0.032674152404070 0.601337611675262 0.000000000000000
7.833156585693359 9.596878051757812 0.449911326169968 0.000000000000000
7.834811210632324 -1.093024253845215 1.645425438880920 0.000000000000000
7.835705280303955 4.367391586303711 0.619422137737274 0.000000000000000
7.839054584503174 1.059044599533081 1.052644968032837 0.000000000000000
7.841670513153076 0.836095690727234 0.687172174453735 0.000000000000000
7.842051506042480 5.399373054504395 0.905037283897400 0.000000000000000
7.842332363128662 -6.335651397705078 0.878497064113617 0.000000000000000
7.846107959747314 9.154862403869629 0.600236415863037 0.000000000000000
7.849298954010010 7.210469722747803 0.182322174310684 0.000000000000000
7.850636005401611 -1.863915443420410 1.073750615119934 0.000000000000000
7.853355407714844 2.291720151901245 1.701630473136902 0.000000000000000
7.855365276336670 1.107075452804565 0.901045382022858 0.000000000000000
7.860290527343750 4.893362522125244 0.782382667064667 0.000000000000000
7.862002372741699 7.657753467559814 0.609758973121643 0.000000000000000
7.863545894622803 5.365354061126709 0.089722558856010 0.000000000000000
7.863948822021484 -6.756662845611572 0.815974652767181 0.000000000000000
7.865674972534180 7.244018077850342 0.244530051946640 0.000000000000000
7.866567134857178 9.913766860961914 0.459638357162476 0.000000000000000
7.868357658386230 7.866163253784180 0.211687296628952 0.000000000000000
7.869282722473145 6.265794754028320 0.133436977863312 0.000000000000000
7.873135089874268 -6.136575698852539 0.869816243648529 0.000000000000000
7.874197483062744 5.266541957855225 0.234826073050499 0.000000000000000
7.875630855560303 -7.903720855712891 1.060608386993408 0.000000000000000
7.877638339996338 -4.331483840942383 0.783355414867401 0.000000000000000
7.880340099334717 -0.022281333804131 0.346820533275604 0.000000000000000
7.880644798278809 7.257804870605469 1.425687551498413 0.000000000000000
7.881475925445557 1.865862846374512 0.812703728675842 0.000000000000000
7.882301807403564 7.631017208099365 0.994579017162323 0.000000000000000
7.882577419281006 -0.799015164375305 0.577655851840973 0.000000000000000
7.883893013000488 2.220665216445923 0.644620001316071 0.000000000000000
7.884186267852783 0.059032443910837 0.791138112545013 0.000000000000000
7.884618759155273 0.759757995605469 0.546954154968262 0.000000000000000
7.886013984680176 -4.804390430450439 2.474310159683228 1.000000000000000
7.886560440063477 6.231118679046631 0.423023343086243 0.000000000000000
7.893391609191895 12.130640029907227 0.748349070549011 0.000000000000000
7.894885540008545 0.403253197669983 0.545851945877075 0.000000000000000
7.896324157714844 9.234963417053223 0.721877276897430 0.000000000000000
7.898473739624023 12.141231536865234 1.927474617958069 0.000000000000000
7.900182247161865 12.133664131164551 1.644543290138245 0.000000000000000
7.905536651611328 7.262130260467529 0.844847619533539 0.000000000000000
7.905565738677979 -4.194441795349121 0.953252792358398 0.000000000000000
7.907400131225586 9.653731346130371 0.573208451271057 0.000000000000000
7.908209323883057 -2.975809097290039 0.847847640514374 0.000000000000000
7.909589767456055 0.957447052001953 0.722279548645020 0.000000000000000
7.910134792327881 12.156371116638184 0.973482847213745 0.000000000000000
7.914093494415283 9.461459159851074 0.566600859165192 0.000000000000000
7.914390087127686 1.143585205078125 0.908268213272095 0.000000000000000
7.918650150299072 -4.445738792419434 0.697171986103058 0.000000000000000
7.919596672058105 7.392387390136719 0.226932063698769 0.000000000000000
7.921719074249268 7.801242351531982 0.361056387424469 0.000000000000000
7.922418117523193 12.178038597106934 1.227630138397217 0.000000000000000
7.924400329589844 7.035370349884033 0.813520371913910 0.000000000000000
7.925162792205811 -2.294375658035278 0.697172701358795 0.000000000000000
7.927244186401367 -0.089382179081440 0.669892013072968 0.000000000000000
7.928158283233643 1.096739053726196 0.444671422243118 0.000000000000000
7.928602695465088 0.730211019515991 0.642018675804138 0.000000000000000
7.929996490478516 -3.456456899642944 0.664104521274567 0.000000000000000
7.931521415710449 7.764142036437988 0.680796980857849 0.000000000000000
7.933409690856934 8.334980010986328 0.972336947917938 0.000000000000000
7.933483123779297 10.195050239562988 0.817269802093506 0.000000000000000
7.935680389404297 12.144565582275391 1.085726618766785 0.000000000000000
7.941380023956299 -0.940205276012421 1.663345932960510 0.000000000000000
7.941986560821533 5.285041332244873 0.621923983097076 0.000000000000000
7.946773052215576 3.271207094192505 0.328635305166245 0.000000000000000
7.948771953582764 8.466953277587891 0.243267148733139 0.000000000000000
7.951132297515869 3.606458187103271 1.068915247917175 0.000000000000000
7.951832294464111 7.756623268127441 0.659961342811584 0.000000000000000
7.952390193939209 9.567818641662598 0.931091904640198 0.000000000000000
7.953383445739746 7.807044982910156 1.364458918571472 0.000000000000000
7.953599452972412 -0.969816267490387 1.666604161262512 0.000000000000000
7.954384803771973 10.501571655273438 2.740203619003296 0.000000000000000
7.956420898437500 8.977927207946777 0.874628007411957 0.000000000000000
7.957067966461182 0.532832920551300 0.849454224109650 0.000000000000000
7.957077503204346 9.372047424316406 0.730417370796204 0.000000000000000
7.958151817321777 -4.335502147674561 0.909349560737610 1.000000000000000
7.959589004516602 7.472463607788086 0.375525802373886 0.000000000000000
7.961822986602783 1.628681063652039 0.388931721448898 0.000000000000000
7.962467670440674 7.732625007629395 0.531195819377899 0.000000000000000
7.966635704040527 -5.919998168945312 0.226972177624702 0.000000000000000
7.975412845611572 -5.926520347595215 0.686103641986847 0.000000000000000
7.975860118865967 -0.646206021308899 0.537103235721588 0.000000000000000
7.975994586944580 3.075761318206787 0.244753897190094 0.000000000000000
7.977365970611572 1.418401002883911 1.384982705116272 0.000000000000000
7.977438449859619 -3.675623655319214 0.708245933055878 0.000000000000000
7.977607727050781 0.439874708652496 0.696200251579285 0.000000000000000
7.981039524078369 9.428259849548340 0.424890041351318 0.000000000000000
7.981145858764648 -1.307105779647827 0.371493399143219 0.000000000000000
7.985104560852051 9.435398101806641 0.758182525634766 0.000000000000000
7.985515117645264 12.235280990600586 1.466061592102051 0.000000000000000
7.987509250640869 12.223882675170898 1.388026714324951 0.000000000000000
7.992914676666260 5.640684604644775 0.317693263292313 0.000000000000000
7.993213176727295 -1.782593607902527 0.549693644046783 0.000000000000000
7.994037628173828 -1.313945293426514 0.705922663211823 0.000000000000000
7.994196891784668 7.991967201232910 0.041431233286858 0.000000000000000
7.995452880859375 0.806231200695038 0.983849287033081 0.000000000000000
7.996110916137695 -7.538316249847412 0.822429716587067 0.000000000000000
7.998402118682861 11.979044914245605 3.859509706497192 0.000000000000000
7.999715328216553 6.708041191101074 0.018221229314804 0.000000000000000
8.000282287597656 8.561561584472656 1.248125672340393 0.000000000000000
8.003434181213379 12.299754142761230 1.796594262123108 0.000000000000000
8.005914688110352 5.287356853485107 1.089741230010986 0.000000000000000
8.006319999694824 7.487469196319580 0.630139887332916 0.000000000000000
8.007935523986816 12.230887413024902 1.037660837173462 0.000000000000000
8.009375572204590 7.821215152740479 0.169997602701187 0.000000000000000
8.010393142700195 3.966642141342163 0.617217719554901 0.000000000000000
8.010669708251953 11.632967948913574 1.342604517936707 0.000000000000000
8.011908531188965 -5.892008781433105 2.664800882339478 0.000000000000000
8.013274192810059 0.017901914194226 0.414349466562271 0.000000000000000
8.017109870910645 7.370049476623535 1.236906051635742 0.000000000000000
8.021421432495117 12.305316925048828 1.564605593681335 0.000000000000000
8.021917343139648 -3.575614929199219 0.765299379825592 0.000000000000000
8.023273468017578 2.858854055404663 0.620994567871094 0.000000000000000
8.024498939514160 2.949901819229126 0.722432553768158 0.000000000000000
8.024641990661621 -3.756625890731812 0.748702764511108 0.000000000000000
8.024836540222168 3.904266834259033 0.754091560840607 0.000000000000000
8.026879310607910 10.265809059143066 0.473285228013992 0.000000000000000
8.027525901794434 -1.129909753799438 0.294424057006836 0.000000000000000
8.030477523803711 1.488072633743286 0.776341080665588 0.000000000000000
8.031145095825195 8.237875938415527 0.506336867809296 0.000000000000000
8.031173706054688 0.232888221740723 0.855809152126312 0.000000000000000
8.031773567199707 6.475275993347168 0.898983776569366 0.000000000000000
8.032418251037598 -6.048027515411377 0.911516845226288 0.000000000000000
8.032738685607910 2.957382678985596 1.463161826133728 0.000000000000000
8.033234596252441 -1.787987112998962 0.409704148769379 0.000000000000000
8.033846855163574 -4.214643955230713 1.110719084739685 0.000000000000000
8.034068107604980 5.896002292633057 0.227886646986008 0.000000000000000
8.034170150756836 7.570489406585693 0.146435827016830 0.000000000000000
8.035057067871094 8.093607902526855 0.589714705944061 0.000000000000000
8.035934448242188 2.618167161941528 1.252558827400208 0.000000000000000
8.039451599121094 9.280672073364258 0.186456829309464 0.000000000000000
8.040317535400391 0.831453323364258 0.683027148246765 0.000000000000000
8.042814254760742 -5.869436740875244 2.667906761169434 0.000000000000000
8.044418334960938 1.401370763778687 1.395766139030457 0.000000000000000
8.046438217163086 7.064493179321289 0.780678868293762 0.000000000000000
8.048829078674316 2.655041933059692 1.256077289581299 0.000000000000000
8.049110412597656 7.197243213653564 0.371400654315948 0.000000000000000
8.051019668579102 12.286396980285645 0.561737120151520 0.000000000000000
8.056224822998047 7.214239120483398 0.746723234653473 0.000000000000000
8.057969093322754 5.513073921203613 0.298300236463547 0.000000000000000
8.061326026916504 -3.406232357025146 0.469364583492279 1.000000000000000
8.061977386474609 -4.083707332611084 0.641457855701447 0.000000000000000
8.062391281127930 12.321566581726074 1.073578953742981 0.000000000000000
8.062822341918945 6.952527999877930 0.182116940617561 0.000000000000000
8.064578056335449 12.292108535766602 1.669823050498962 0.000000000000000
8.065675735473633 5.581612586975098 0.677286267280579 0.000000000000000
8.067007064819336 -11.633744239807129 2.944659948348999 0.000000000000000
8.067467689514160 -0.261142671108246 0.572922408580780 0.000000000000000
8.068360328674316 -4.050554752349854 0.658225119113922 0.000000000000000
8.069091796875000 2.854089975357056 0.393151611089706 0.000000000000000
8.071254730224609 12.317276954650879 1.959660768508911 0.000000000000000
8.071669578552246 -0.935637176036835 0.545407533645630 0.000000000000000
8.072257995605469 9.477498054504395 0.260775029659271 0.000000000000000
8.073015213012695 5.102367401123047 0.512209355831146 0.000000000000000
8.073022842407227 -1.770833730697632 0.427362442016602 0.000000000000000
8.073147773742676 5.181671619415283 0.366848707199097 0.000000000000000
8.075052261352539 -8.012157440185547 0.961222589015961 0.000000000000000
8.075932502746582 7.910752296447754 0.584550857543945 0.000000000000000
8.077604293823242 3.325062513351440 0.603165030479431 0.000000000000000
8.077755928039551 -0.001693216036074 0.479907184839249 0.000000000000000
8.079719543457031 6.598587036132812 0.058262977749109 0.000000000000000
8.082138061523438 6.920137882232666 0.018570294603705 0.000000000000000
8.084970474243164 -0.111764393746853 0.480381667613983 0.000000000000000
8.085459709167480 -2.002745628356934 1.019819974899292 0.000000000000000
8.085515022277832 2.609841108322144 2.276572465896606 0.000000000000000
8.086008071899414 10.598281860351562 2.772786140441895 0.000000000000000
8.089093208312988 9.775954246520996 0.290162235498428 0.000000000000000
8.089719772338867 -8.754779815673828 1.196092128753662 0.000000000000000
8.090779304504395 3.868468761444092 0.757796347141266 0.000000000000000
8.092082977294922 -0.371139019727707 1.077971696853638 0.000000000000000
8.092399597167969 -6.524847507476807 0.657654702663422 0.000000000000000
8.093201637268066 8.262205123901367 1.313648343086243 0.000000000000000
8.095268249511719 3.646483182907104 0.407835155725479 0.000000000000000
8.103933334350586 5.403024196624756 0.484882861375809 0.000000000000000
8.104053497314453 -0.205418363213539 0.294424057006836 0.000000000000000
8.104972839355469 2.883821249008179 0.477955192327499 0.000000000000000
8.109120368957520 -0.220984339714050 0.622770249843597 0.000000000000000
8.113443374633789 8.615503311157227 0.361576020717621 0.000000000000000
8.119269371032715 -0.742054760456085 0.421578913927078 0.000000000000000
8.120087623596191 -6.211870193481445 0.705942809581757 0.000000000000000
8.123558998107910 6.061295032501221 0.758545875549316 0.000000000000000
8.124525070190430 6.764535427093506 0.018451612442732 0.000000000000000
8.127308845520020 8.330978393554688 0.176739200949669 0.000000000000000
8.128713607788086 -8.065401077270508 1.523828864097595 0.000000000000000
8.130513191223145 0.048535011708736 0.737086296081543 0.000000000000000
8.132594108581543 -4.515023708343506 0.843261361122131 0.000000000000000
8.132715225219727 0.784808337688446 0.740697741508484 0.000000000000000
8.134817123413086 10.325640678405762 0.275350958108902 0.000000000000000
8.135079383850098 5.181424617767334 0.665988981723785 0.000000000000000
8.137799263000488 8.045154571533203 0.129825294017792 0.000000000000000
8.139416694641113 0.005542411934584 0.373879492282867 0.000000000000000
8.142263412475586 6.786772727966309 1.203951835632324 0.000000000000000
8.143492698669434 -3.601559638977051 0.649208366870880 0.000000000000000
8.143995285034180 6.322141647338867 0.354625076055527 0.000000000000000
8.144599914550781 8.655244827270508 1.265919804573059 0.000000000000000
8.144834518432617 0.472767025232315 0.739614307880402 0.000000000000000
8.145306587219238 5.425670623779297 0.506059944629669 0.000000000000000
8.146118164062500 7.966419219970703 0.370014637708664 0.000000000000000
8.147294044494629 8.462742805480957 0.336336284875870 0.000000000000000
8.149176597595215 8.110019683837891 0.660900831222534 0.000000000000000
8.150565147399902 0.643467366695404 1.087996840476990 0.000000000000000
8.153012275695801 0.055211067199707 0.610180139541626 0.000000000000000
8.154261589050293 7.250903129577637 1.452069520950317 0.000000000000000
8.155622482299805 7.177259445190430 0.834034442901611 0.000000000000000
8.156417846679688 -1.173323512077332 0.568997621536255 0.000000000000000
8.157597541809082 9.111601829528809 0.232688635587692 0.000000000000000
8.161795616149902 8.526522636413574 0.133909270167351 0.000000000000000
8.163796424865723 2.051969528198242 0.844652712345123 0.000000000000000
8.164458274841309 -3.036172389984131 0.927832722663879 0.000000000000000
8.165834426879883 12.215502738952637 3.056255578994751 0.000000000000000
8.166500091552734 7.002504348754883 0.370025604963303 0.000000000000000
8.166811943054199 -5.868234157562256 0.481288671493530 0.000000000000000
8.167898178100586 5.906928539276123 0.696023225784302 0.000000000000000
8.169174194335938 -1.268743276596069 0.284360051155090 0.000000000000000
8.170052528381348 7.709303855895996 0.494377553462982 0.000000000000000
8.174341201782227 9.370091438293457 0.188825502991676 0.000000000000000
8.175387382507324 5.955914974212646 1.346013665199280 0.000000000000000
8.178699493408203 8.769976615905762 0.066975615918636 0.000000000000000
8.180877685546875 7.788370609283447 1.282951474189758 0.000000000000000
8.181370735168457 1.442451357841492 0.637773036956787 0.000000000000000
8.183561325073242 -4.464046478271484 0.697647273540497 0.000000000000000
8.185904502868652 0.077435918152332 0.596852838993073 0.000000000000000
8.185959815979004 5.856040954589844 2.696894407272339 0.000000000000000
8.187321662902832 8.421564102172852 0.246031552553177 0.000000000000000
8.188014030456543 9.734269142150879 1.354890108108521 0.000000000000000
8.190690040588379 7.293028354644775 0.994217813014984 0.000000000000000
8.191123962402344 -6.309381008148193 0.713933587074280 0.000000000000000
8.192135810852051 -4.487107753753662 0.717073619365692 0.000000000000000
8.192817687988281 5.945661544799805 2.712423801422119 0.000000000000000
8.193992614746094 -4.054707050323486 0.737180233001709 0.000000000000000
8.195391654968262 -3.383587360382080 0.772591292858124 0.000000000000000
8.196105957031250 3.911450624465942 1.031507372856140 0.000000000000000
8.196619033813477 -4.037146568298340 0.754401683807373 0.000000000000000
8.198892593383789 3.898204803466797 0.417012333869934 0.000000000000000
8.199913024902344 6.575957775115967 2.186297893524170 0.000000000000000
8.203377723693848 -3.365453958511353 0.612257957458496 0.000000000000000
8.203574180603027 5.289073467254639 1.039681196212769 0.000000000000000
8.203914642333984 7.412291049957275 0.656877458095551 0.000000000000000
8.203949928283691 0.594976902008057 0.488684564828873 0.000000000000000
8.204693794250488 -0.369992822408676 0.614657938480377 0.000000000000000
8.205177307128906 7.484752655029297 0.360666900873184 0.000000000000000
8.205410957336426 0.388105660676956 0.298343896865845 0.000000000000000
8.206765174865723 -0.385729283094406 0.630730926990509 0.000000000000000
8.213732719421387 -4.123536109924316 1.570995092391968 0.000000000000000
8.214692115783691 7.565451145172119 0.083814114332199 0.000000000000000
8.215983390808105 -0.417497634887695 0.393712073564529 0.000000000000000
8.217578887939453 0.784313797950745 0.937610864639282 0.000000000000000
8.220799446105957 -5.467264652252197 0.834249615669250 0.000000000000000
8.221405982971191 3.721438884735107 1.200912117958069 0.000000000000000
8.226959228515625 -4.053874492645264 1.122871398925781 0.000000000000000
8.228004455566406 0.908673524856567 0.603542745113373 0.000000000000000
8.229315757751465 -3.536953687667847 0.514901161193848 0.000000000000000
8.234007835388184 -4.127238750457764 0.875512957572937 0.000000000000000
8.236862182617188 9.169830322265625 1.017718195915222 0.000000000000000
8.238225936889648 8.414950370788574 0.427698850631714 0.000000000000000
8.238239288330078 -9.708700180053711 1.887047886848450 0.000000000000000
8.239803314208984 -0.633731842041016 1.412615060806274 1.000000000000000
8.240776062011719 8.433444976806641 0.133773148059845 0.000000000000000
8.244854927062988 9.114523887634277 0.730180084705353 0.000000000000000
8.249829292297363 -1.874466538429260 0.518924057483673 0.000000000000000
8.249948501586914 0.896376669406891 0.397153973579407 0.000000000000000
8.250569343566895 9.363048553466797 1.054515719413757 0.000000000000000
8.251869201660156 7.984341621398926 0.637939274311066 0.000000000000000
8.253599166870117 -2.359823465347290 1.142343997955322 0.000000000000000
8.255660057067871 -2.215031862258911 0.910462379455566 0.000000000000000
8.258139610290527 -7.869068622589111 0.919787406921387 0.000000000000000
8.258439064025879 0.680998861789703 0.700203835964203 0.000000000000000
8.258591651916504 -1.944944262504578 0.242922276258469 1.000000000000000
8.258680343627930 0.926507413387299 0.397727608680725 0.000000000000000
8.262145042419434 -0.986956059932709 0.430254250764847 0.000000000000000
8.262153625488281 6.830437183380127 0.018709920346737 0.000000000000000
8.263553619384766 -8.417277336120605 1.069334983825684 0.000000000000000
8.264969825744629 2.038026332855225 1.455074429512024 0.000000000000000
8.266783714294434 -2.623807668685913 0.682594239711761 0.000000000000000
8.267625808715820 0.913049221038818 0.754059851169586 0.000000000000000
8.272047996520996 -3.335072517395020 0.719176650047302 0.000000000000000
8.274554252624512 1.114057183265686 0.560408949851990 0.000000000000000
8.274999618530273 9.373608589172363 1.420184731483459 0.000000000000000
8.275321960449219 8.162857055664062 0.064920328557491 0.000000000000000
8.279675483703613 -1.473493099212646 0.843854069709778 0.000000000000000
8.283608436584473 -0.989520013332367 0.302989661693573 0.000000000000000
8.283914566040039 -8.162206649780273 1.547572612762451 0.000000000000000
8.284235000610352 4.247291564941406 0.212889283895493 0.000000000000000
8.285964012145996 6.223088741302490 1.268698811531067 0.000000000000000
8.287871360778809 8.175235748291016 0.243853554129601 0.000000000000000
8.288172721862793 -2.248895406723022 0.526760518550873 0.000000000000000
8.288475036621094 -6.175563812255859 0.494673728942871 0.000000000000000
8.288836479187012 1.443949460983276 0.613432168960571 0.000000000000000
8.291931152343750 -1.157091617584229 0.729534506797791 0.000000000000000
8.291962623596191 9.410022735595703 0.866033673286438 0.000000000000000
8.297453880310059 7.125359535217285 0.924174785614014 0.000000000000000
8.299066543579102 0.428835928440094 1.728511452674866 0.000000000000000
8.301799774169922 1.063781499862671 0.758754670619965 0.000000000000000
8.302618026733398 5.889033317565918 0.135028675198555 0.000000000000000
8.306239128112793 -0.490862876176834 0.622718095779419 0.000000000000000
8.308295249938965 -1.448684692382812 0.846250236034393 0.000000000000000
8.308618545532227 2.015284299850464 0.722432553768158 0.000000000000000
8.309437751770020 -1.178021550178528 0.893939316272736 0.000000000000000
8.312058448791504 -9.162422180175781 1.646241664886475 0.000000000000000
8.312934875488281 6.025969505310059 0.768397092819214 0.000000000000000
8.314355850219727 -7.059074401855469 1.036761641502380 0.000000000000000
8.315011978149414 5.510270595550537 0.904294073581696 0.000000000000000
8.317934036254883 1.601482748985291 1.761908531188965 0.000000000000000
8.322978973388672 5.847754001617432 0.037282247096300 0.000000000000000
8.325383186340332 8.396015167236328 0.043337129056454 0.000000000000000
8.325742721557617 -7.878218173980713 1.301911234855652 0.000000000000000
8.327651023864746 7.773277282714844 0.063624598085880 1.000000000000000
8.328712463378906 -7.906968593597412 1.091646790504456 0.000000000000000
8.329176902770996 8.181633949279785 1.109815716743469 0.000000000000000
8.330589294433594 -0.360516637563705 0.947090744972229 0.000000000000000
8.331496238708496 -0.394215017557144 0.888431668281555 0.000000000000000
8.331719398498535 3.955837726593018 1.129190683364868 0.000000000000000
8.332408905029297 -1.148954987525940 0.645733773708344 0.000000000000000
8.332763671875000 6.536542415618896 0.445730388164520 0.000000000000000
8.334296226501465 9.647885322570801 0.267057746648788 0.000000000000000
8.334489822387695 9.169447898864746 0.783932447433472 0.000000000000000
8.338502883911133 8.533456802368164 1.081613659858704 0.000000000000000
8.341751098632812 -0.585652887821198 1.112796068191528 0.000000000000000
8.344622611999512 0.694562554359436 1.025167107582092 0.000000000000000
8.344643592834473 6.947807312011719 0.185742855072021 0.000000000000000
8.346042633056641 1.962774395942688 0.327871054410934 0.000000000000000
8.346537590026855 8.348872184753418 0.792394697666168 0.000000000000000
8.346879959106445 1.637294650077820 1.769239783287048 0.000000000000000
8.348974227905273 -6.027230739593506 1.370285153388977 0.000000000000000
8.350414276123047 -1.439065098762512 0.421836137771606 0.000000000000000
8.350422859191895 7.485044002532959 0.471969604492188 0.000000000000000
8.353828430175781 7.086572647094727 0.904492080211639 0.000000000000000
8.354687690734863 -9.145060539245605 1.648352146148682 0.000000000000000
8.356191635131836 0.424184471368790 0.593879520893097 0.000000000000000
8.359017372131348 1.125429034233093 0.306328773498535 0.000000000000000
8.359504699707031 3.482126235961914 0.067963883280754 0.000000000000000
8.362667083740234 6.358662605285645 1.286198139190674 0.000000000000000
8.365986824035645 0.005696691572666 0.839460968971252 0.000000000000000
8.366569519042969 0.770546972751617 0.954313576221466 0.000000000000000
8.369860649108887 -4.387941360473633 0.798548936843872 0.000000000000000
8.369921684265137 9.957934379577637 0.447440832853317 0.000000000000000
8.374038696289062 1.733573675155640 0.745159924030304 0.000000000000000
8.374375343322754 8.984187126159668 0.800694584846497 0.000000000000000
8.375241279602051 9.824192047119141 0.245624229311943 0.000000000000000
8.375972747802734 4.111325263977051 0.500427067279816 1.000000000000000
8.376122474670410 9.252493858337402 1.087530732154846 0.000000000000000
8.381723403930664 0.022236874327064 0.611105203628540 0.000000000000000
8.386190414428711 -4.285153388977051 0.650282979011536 0.000000000000000
8.388052940368652 -8.439744949340820 1.583452343940735 0.000000000000000
8.388171195983887 -0.912135958671570 1.122821211814880 0.000000000000000
8.389380455017090 9.316703796386719 0.262617975473404 0.000000000000000
8.389446258544922 0.108652018010616 0.482303768396378 0.000000000000000
8.395542144775391 9.690712928771973 0.514971196651459 0.000000000000000
8.399400711059570 8.066571235656738 0.579751253128052 0.000000000000000
8.401165008544922 0.184927195310593 0.531629443168640 0.000000000000000
8.402698516845703 -0.204184874892235 0.499359697103500 0.000000000000000
8.403452873229980 10.211996078491211 1.015293002128601 0.000000000000000
8.406866073608398 9.558565139770508 0.756274938583374 0.000000000000000
8.408430099487305 7.537039756774902 0.301607340574265 0.000000000000000
8.409982681274414 -4.511661052703857 1.985099911689758 0.000000000000000
8.410135269165039 9.748060226440430 0.492341548204422 0.000000000000000
8.413453102111816 9.550581932067871 0.046650454401970 0.000000000000000
8.417284011840820 -5.973454952239990 0.981119453907013 0.000000000000000
8.417399406433105 -3.649861574172974 0.872106254100800 0.000000000000000
8.417997360229492 0.635020971298218 0.713338971138000 0.000000000000000
8.422321319580078 -0.445522546768188 0.549843251705170 0.000000000000000
8.424534797668457 1.623227000236511 0.747590541839600 0.000000000000000
8.425589561462402 0.577649116516113 0.765616357326508 0.000000000000000
8.428544998168945 8.968901634216309 0.944871664047241 0.000000000000000
8.428877830505371 -3.692651987075806 0.834232926368713 0.000000000000000
8.430778503417969 6.664920330047607 0.142562687397003 0.000000000000000
8.433207511901855 -7.903259754180908 1.415012478828430 0.000000000000000
8.435336112976074 6.507351875305176 0.223162427544594 0.000000000000000
8.436240196228027 6.534156799316406 0.162041321396828 0.000000000000000
8.436839103698730 -1.907204270362854 0.497225135564804 0.000000000000000
8.438841819763184 9.349623680114746 0.796812832355499 0.000000000000000
8.439863204956055 9.095422744750977 0.021656034514308 0.000000000000000
8.445584297180176 8.415573120117188 0.892283976078033 0.000000000000000
8.447602272033691 0.959795951843262 0.554266989231110 0.000000000000000
8.447649955749512 -5.880457878112793 0.690867483615875 0.000000000000000
8.448372840881348 -0.001770902774297 0.632270812988281 0.000000000000000
8.448842048645020 7.626616954803467 0.479034006595612 0.000000000000000
8.448962211608887 2.079017400741577 0.735230863094330 0.000000000000000
8.454163551330566 2.498782396316528 1.306507945060730 0.000000000000000
8.457537651062012 4.588626861572266 1.092901229858398 0.000000000000000
8.458401679992676 6.566213607788086 0.039246782660484 0.000000000000000
8.458710670471191 -7.389929294586182 1.375152945518494 0.000000000000000
8.462401390075684 10.346765518188477 1.051979660987854 0.000000000000000
8.462635993957520 0.867362558841705 0.292610347270966 0.000000000000000
8.465400695800781 8.871230125427246 0.209756016731262 0.000000000000000
8.466466903686523 0.479428648948669 0.903260052204132 0.000000000000000
8.471185684204102 3.857152462005615 0.016245516017079 0.000000000000000
8.472135543823242 10.222517967224121 1.019273400306702 0.000000000000000
8.472183227539062 2.151980161666870 1.494163870811462 0.000000000000000
8.472956657409668 -0.352456152439117 0.634658992290497 0.000000000000000
8.473425865173340 8.871895790100098 0.304114133119583 0.000000000000000
8.476048469543457 -7.377992153167725 0.386526167392731 0.000000000000000
8.476661682128906 -5.417299747467041 0.752873897552490 0.000000000000000
8.478877067565918 -1.885622262954712 1.484728455543518 0.000000000000000
8.479271888732910 5.820675849914551 0.690331697463989 0.000000000000000
