# This PCD file was generated using the MATLAB® pcwrite function
# from Computer Vision Toolbox®.
# .PCD v.7 - Point Cloud Data file format
VERSION .7
FIELDS x y z intensity
SIZE 8 8 8 8
TYPE F F F F
COUNT 1 1 1 1
WIDTH 642
HEIGHT 1
VIEWPOINT 0 0 0 1 0 0 0
POINTS 642
DATA ascii
-5.191330432891846 -10.138642311096191 0.632835805416107 0.000000000000000
-5.175807476043701 -2.668688774108887 0.233888089656830 0.000000000000000
-5.170083999633789 -8.416353225708008 0.358738601207733 0.000000000000000
-5.169942378997803 -2.675151586532593 0.357051074504852 0.000000000000000
-5.166287422180176 -13.134877204895020 0.214334264397621 0.000000000000000
-5.164624214172363 -7.149351119995117 1.307094335556030 0.000000000000000
-5.163547039031982 -10.834361076354980 1.140854239463806 0.000000000000000
-5.162286758422852 -9.036524772644043 0.518096685409546 0.000000000000000
-5.157682895660400 -4.344402313232422 0.244917839765549 0.000000000000000
-5.152546882629395 -6.869037151336670 0.477067619562149 0.000000000000000
-5.150913238525391 -2.703029155731201 0.356806159019470 0.000000000000000
-5.144399166107178 7.649326324462891 1.575712680816650 0.000000000000000
-5.138851165771484 -7.075099945068359 0.250363320112228 0.000000000000000
-5.129887104034424 -4.290469646453857 0.242885336279869 0.000000000000000
-5.121191978454590 -6.189578056335449 0.322659611701965 0.000000000000000
-5.116502761840820 -12.970409393310547 0.158186286687851 0.000000000000000
-5.115385055541992 -3.819003582000732 0.849502921104431 0.000000000000000
-5.112308502197266 -8.802900314331055 0.860183060169220 0.000000000000000
-5.111631870269775 -5.022836685180664 0.370559811592102 0.000000000000000
-5.108191013336182 7.103043079376221 1.495511770248413 1.000000000000000
-5.107999801635742 -11.917280197143555 0.995391309261322 0.000000000000000
-5.101818084716797 -7.160940647125244 1.502925276756287 0.000000000000000
-5.100083827972412 -6.846277236938477 0.342886060476303 0.000000000000000
-5.092838287353516 -13.082018852233887 0.213180288672447 0.000000000000000
-5.083463668823242 -9.910063743591309 1.482145071029663 0.000000000000000
-5.080675601959229 -8.265628814697266 0.333724290132523 0.000000000000000
-5.080516338348389 -8.058050155639648 0.437569290399551 0.000000000000000
-5.075146198272705 -4.028140544891357 1.736158132553101 0.000000000000000
-5.062946319580078 7.585251331329346 1.558863878250122 1.000000000000000
-5.060989856719971 -4.783598423004150 1.032070994377136 0.000000000000000
-5.060769557952881 -10.063098907470703 0.300859719514847 0.000000000000000
-5.058912754058838 -6.192242145538330 1.366785883903503 0.000000000000000
-5.057316303253174 -5.111268520355225 0.607584297657013 0.000000000000000
-5.057093620300293 -8.793847084045410 1.241963744163513 0.000000000000000
-5.052569389343262 -10.697492599487305 1.124577999114990 0.000000000000000
-5.048183917999268 -3.001206874847412 0.473557084798813 0.000000000000000
-5.044386386871338 -8.347015380859375 0.372962862253189 0.000000000000000
-5.043546199798584 -10.341718673706055 1.306877017021179 0.000000000000000
-5.042967319488525 -6.638090133666992 0.726409375667572 0.000000000000000
-5.033195972442627 -5.580521583557129 1.284563183784485 0.000000000000000
-5.029621124267578 -2.201152324676514 0.389689207077026 0.000000000000000
-5.026147842407227 -11.619754791259766 0.776549398899078 0.000000000000000
-5.025192737579346 -6.815507411956787 0.372673809528351 0.000000000000000
-5.023190975189209 7.244136810302734 1.833590507507324 1.000000000000000
-5.022954463958740 -8.608858108520508 0.947431325912476 1.000000000000000
-5.021736621856689 -12.861512184143066 0.156643450260162 0.000000000000000
-5.018863201141357 -8.299545288085938 0.501515746116638 0.000000000000000
-5.014379024505615 -7.090457439422607 0.787284731864929 0.000000000000000
-5.013792514801025 -7.812182903289795 1.136482000350952 0.000000000000000
-5.013200759887695 -11.211351394653320 2.554482221603394 0.000000000000000
-5.007709026336670 -12.990610122680664 0.211418971419334 0.000000000000000
-5.006658554077148 -2.977349281311035 0.357295989990234 0.000000000000000
-5.004840850830078 -11.804417610168457 0.687658727169037 0.000000000000000
-5.001259803771973 -7.916719913482666 0.773163020610809 0.000000000000000
-4.995793342590332 -6.423391342163086 0.326833307743073 0.000000000000000
-4.994946479797363 -4.341733932495117 0.629097461700439 0.000000000000000
-4.987742900848389 -8.056334495544434 0.489948660135269 0.000000000000000
-4.985533237457275 -10.372145652770996 1.093917965888977 0.000000000000000
-4.979439258575439 8.501522064208984 0.737350761890411 1.000000000000000
-4.975759983062744 -9.553459167480469 1.318766236305237 0.000000000000000
-4.971378803253174 -2.155019044876099 0.384591519832611 0.000000000000000
-4.971308708190918 -10.621293067932129 1.114736437797546 0.000000000000000
-4.969108581542969 -9.130670547485352 0.717791140079498 0.000000000000000
-4.966683387756348 -9.783942222595215 0.778812050819397 0.000000000000000
-4.954032421112061 -7.663044929504395 0.753414273262024 0.000000000000000
-4.953780651092529 -12.985589027404785 0.211054548621178 0.000000000000000
-4.949861049652100 -9.422501564025879 0.100315846502781 0.000000000000000
-4.949535369873047 -5.529538631439209 1.543604612350464 0.000000000000000
-4.943724155426025 8.508503913879395 0.736455142498016 1.000000000000000
-4.943330764770508 -11.692256927490234 0.925529181957245 0.000000000000000
-4.934626579284668 -9.898196220397949 0.295412838459015 0.000000000000000
-4.934550285339355 -10.919670104980469 1.086308479309082 0.000000000000000
-4.920329570770264 -11.508828163146973 0.623108267784119 0.000000000000000
-4.916415214538574 -6.766368865966797 0.368101119995117 0.000000000000000
-4.913757324218750 -10.776278495788574 0.977891564369202 0.000000000000000
-4.910624980926514 -2.943490505218506 0.351173669099808 1.000000000000000
-4.904659748077393 -6.587781906127930 0.219370216131210 0.000000000000000
-4.903665065765381 -6.801101684570312 0.240060314536095 0.000000000000000
-4.898322582244873 9.309393882751465 1.798118829727173 1.000000000000000
-4.893960475921631 8.635263442993164 0.723669588565826 0.000000000000000
-4.892263889312744 -6.632312297821045 0.204295709729195 0.000000000000000
-4.889610290527344 -7.578182697296143 0.904956519603729 0.000000000000000
-4.888452053070068 -9.448533058166504 1.415662288665771 0.000000000000000
-4.885807991027832 -11.669601440429688 0.727243423461914 0.000000000000000
-4.885481834411621 -9.332367897033691 0.463599860668182 0.000000000000000
-4.877081871032715 -10.040387153625488 1.011913657188416 0.000000000000000
-4.876740455627441 -8.358261108398438 0.724215745925903 0.000000000000000
-4.876497745513916 -8.027372360229492 0.539923071861267 0.000000000000000
-4.871169567108154 -6.553299427032471 0.327957004308701 0.000000000000000
-4.871053218841553 -11.476595878601074 1.005304217338562 0.000000000000000
-4.858094215393066 7.975103855133057 1.143287181854248 1.000000000000000
-4.857361316680908 -12.718839645385742 0.180604159832001 0.000000000000000
-4.853907585144043 -6.107885837554932 0.313349068164825 0.000000000000000
-4.851868152618408 -11.475923538208008 0.716224551200867 0.000000000000000
-4.845718383789062 9.363527297973633 1.802162408828735 1.000000000000000
-4.844760894775391 -10.304511070251465 0.698429167270660 0.000000000000000
-4.841550827026367 8.998500823974609 1.160615086555481 1.000000000000000
-4.835368633270264 -10.251986503601074 1.137385845184326 0.000000000000000
-4.831788063049316 8.491325378417969 0.768899202346802 0.000000000000000
-4.831739425659180 -7.627720832824707 0.745514750480652 0.000000000000000
-4.830659866333008 -8.610250473022461 0.548516809940338 0.000000000000000
-4.827613830566406 -8.948636054992676 0.702085196971893 0.000000000000000
-4.827146530151367 -8.559120178222656 0.432470440864563 0.000000000000000
-4.826497077941895 -4.248546600341797 0.159392282366753 0.000000000000000
-4.823648929595947 -11.008934020996094 0.552100837230682 0.000000000000000
-4.816715240478516 -8.162168502807617 0.654416143894196 0.000000000000000
-4.811809062957764 -4.229362010955811 0.146498560905457 0.000000000000000
-4.798587799072266 -10.518833160400391 1.415498495101929 0.000000000000000
-4.798243999481201 -5.317033767700195 0.508351802825928 0.000000000000000
-4.793716907501221 -11.277419090270996 0.586457014083862 0.000000000000000
-4.781727313995361 -8.294897079467773 0.642648696899414 0.000000000000000
-4.779589176177979 -7.601330280303955 0.550759851932526 0.000000000000000
-4.779169082641602 -8.061210632324219 1.949259042739868 0.000000000000000
-4.777360916137695 -8.797342300415039 0.710559725761414 0.000000000000000
-4.774922370910645 -7.442277908325195 0.491268694400787 0.000000000000000
-4.772882461547852 -9.913777351379395 0.997468113899231 0.000000000000000
-4.772735118865967 -6.416194438934326 1.185122370719910 0.000000000000000
-4.770999908447266 -8.570387840270996 0.544966578483582 0.000000000000000
-4.769841670989990 -5.211939334869385 0.392526805400848 0.000000000000000
-4.764752864837646 -11.812170982360840 0.830359578132629 0.000000000000000
-4.750440120697021 -9.891002655029297 0.271997779607773 0.000000000000000
-4.745633125305176 -9.189772605895996 1.266268372535706 0.000000000000000
-4.744034290313721 -11.298856735229492 0.657238900661469 0.000000000000000
-4.739481449127197 -8.272591590881348 1.015532016754150 0.000000000000000
-4.739134311676025 -11.440154075622559 0.164262786507607 0.000000000000000
-4.735419273376465 -7.578551769256592 0.703307390213013 0.000000000000000
-4.735363483428955 -10.414398193359375 3.065453052520752 1.000000000000000
-4.729647159576416 9.378551483154297 1.795422911643982 1.000000000000000
-4.728836536407471 -1.578761577606201 0.325013816356659 0.000000000000000
-4.727920055389404 -10.335250854492188 0.938394069671631 0.000000000000000
-4.727725028991699 -7.344154834747314 0.670534312725067 0.000000000000000
-4.723988533020020 -10.551715850830078 0.664573729038239 0.000000000000000
-4.718830585479736 -6.486815452575684 0.698978066444397 1.000000000000000
-4.715674400329590 -10.617502212524414 0.578359067440033 0.000000000000000
-4.715047359466553 8.811235427856445 0.728614270687103 1.000000000000000
-4.708963871002197 -6.471354007720947 0.106165967881680 0.000000000000000
-4.703031063079834 -6.235696792602539 0.680574774742126 0.000000000000000
-4.694088935852051 -7.924325942993164 0.423069298267365 0.000000000000000
-4.693108081817627 -4.611583232879639 0.238965481519699 0.000000000000000
-4.691549301147461 -4.065094470977783 0.320986568927765 0.000000000000000
-4.689365863800049 -10.742734909057617 0.786769151687622 0.000000000000000
-4.689123153686523 -7.658553600311279 0.377945750951767 0.000000000000000
-4.683558940887451 -6.436440467834473 0.756658136844635 0.000000000000000
-4.673781394958496 -10.385575294494629 0.896316826343536 0.000000000000000
-4.672647476196289 -0.375788420438766 0.278502732515335 0.000000000000000
-4.668615341186523 -5.110279083251953 0.603142023086548 0.000000000000000
-4.668049812316895 -7.749933242797852 0.859993636608124 0.000000000000000
-4.666808605194092 -11.111669540405273 0.623176693916321 0.000000000000000
-4.663778781890869 -6.181406974792480 1.147592544555664 0.000000000000000
-4.663568496704102 -5.705079078674316 0.409390568733215 1.000000000000000
-4.659536838531494 -10.451254844665527 0.547640323638916 0.000000000000000
-4.652988433837891 -5.544431686401367 0.290714710950851 0.000000000000000
-4.649146080017090 -8.263716697692871 0.344365835189819 0.000000000000000
-4.646934509277344 -4.442879199981689 0.543255805969238 0.000000000000000
-4.646729469299316 -8.062666893005371 0.642567753791809 0.000000000000000
-4.645956993103027 -10.258137702941895 0.777584135532379 0.000000000000000
-4.644443035125732 -9.951422691345215 1.169747114181519 0.000000000000000
-4.643903255462646 7.446825981140137 1.825444817543030 1.000000000000000
-4.639756202697754 -7.246345520019531 2.305560111999512 0.000000000000000
-4.627698898315430 -6.170690536499023 0.324626266956329 0.000000000000000
-4.626909255981445 -9.625182151794434 0.930581808090210 0.000000000000000
-4.624034881591797 -7.799540042877197 0.399054646492004 0.000000000000000
-4.622073173522949 -8.317204475402832 0.565308392047882 0.000000000000000
-4.620332241058350 -10.430306434631348 2.372833728790283 0.000000000000000
-4.616827487945557 -7.886213779449463 0.630994975566864 0.000000000000000
-4.615555763244629 -5.460998535156250 0.287183105945587 0.000000000000000
-4.613379955291748 -9.897488594055176 0.838320970535278 0.000000000000000
-4.608859062194824 -5.265769958496094 0.173467978835106 1.000000000000000
-4.608480930328369 -10.786690711975098 0.651696562767029 0.000000000000000
-4.608039379119873 9.169240951538086 1.165580749511719 1.000000000000000
-4.606348991394043 -9.483032226562500 0.606036126613617 0.000000000000000
-4.603886604309082 -5.065996170043945 0.380322754383087 0.000000000000000
-4.603362083435059 -6.048467636108398 1.126482009887695 0.000000000000000
-4.603238105773926 -7.455607414245605 0.723462045192719 0.000000000000000
-4.602427005767822 -5.847801208496094 0.184470802545547 0.000000000000000
-4.600696086883545 -10.086906433105469 0.808310985565186 0.000000000000000
-4.599881172180176 -10.149326324462891 0.683490753173828 0.000000000000000
-4.596942901611328 -4.022618770599365 0.580647110939026 0.000000000000000
-4.596108436584473 -10.735939979553223 0.986819267272949 0.000000000000000
-4.595055580139160 -7.218906402587891 0.623903274536133 0.000000000000000
-4.593706130981445 -4.018370628356934 0.503921866416931 0.000000000000000
-4.580832958221436 -9.948469161987305 0.777395963668823 0.000000000000000
-4.574430942535400 -6.081290245056152 0.466762244701385 0.000000000000000
-4.569082736968994 -9.833360671997070 1.327515959739685 0.000000000000000
-4.566823959350586 -3.957023382186890 0.126575991511345 0.000000000000000
-4.558966636657715 -9.934275627136230 2.928796529769897 0.000000000000000
-4.558057308197021 -7.047843933105469 1.027597427368164 0.000000000000000
-4.557151794433594 -3.949478387832642 0.137902513146400 0.000000000000000
-4.543470382690430 -9.406160354614258 1.278906702995300 0.000000000000000
-4.539879322052002 -7.473253726959229 0.792701840400696 0.000000000000000
-4.538242816925049 -9.645128250122070 1.210723280906677 1.000000000000000
-4.529599189758301 -10.610258102416992 1.971999764442444 1.000000000000000
-4.527136325836182 -7.518361568450928 1.300643920898438 0.000000000000000
-4.525462627410889 -5.947408676147461 0.314534276723862 0.000000000000000
-4.523296833038330 -5.969818592071533 0.459415495395660 0.000000000000000
-4.522175788879395 -7.399507522583008 0.264952152967453 0.000000000000000
-4.518599033355713 -9.667689323425293 2.859432935714722 0.000000000000000
-4.504201889038086 -7.275306224822998 0.574338793754578 0.000000000000000
-4.499980449676514 -5.703283309936523 0.403621405363083 0.000000000000000
-4.497117042541504 -12.595275878906250 0.228774979710579 0.000000000000000
-4.493424415588379 -9.552907943725586 0.810458540916443 0.000000000000000
-4.490998268127441 -10.622373580932617 1.971325874328613 1.000000000000000
-4.489508628845215 -5.535781383514404 1.482511997222900 0.000000000000000
-4.489225864410400 -9.158799171447754 1.248769044876099 0.000000000000000
-4.477807044982910 -9.765968322753906 0.307602316141129 1.000000000000000
-4.476403713226318 -7.447336673736572 0.683849573135376 0.000000000000000
-4.474092483520508 -11.689547538757324 0.888412058353424 0.000000000000000
-4.471979618072510 -5.285881996154785 1.440154552459717 1.000000000000000
-4.460970401763916 -9.995080947875977 0.481714725494385 0.000000000000000
-4.459142684936523 -6.083285331726074 1.568856239318848 0.000000000000000
-4.458838462829590 9.083152770996094 0.718206226825714 1.000000000000000
-4.458036422729492 -0.474223166704178 0.085298873484135 0.000000000000000
-4.457762718200684 -10.626395225524902 0.751252889633179 0.000000000000000
-4.448742389678955 -7.771715164184570 0.722070097923279 0.000000000000000
-4.448247909545898 -8.822860717773438 0.377854168415070 0.000000000000000
-4.439917564392090 -9.774591445922852 0.513795197010040 0.000000000000000
-4.429096698760986 -9.651280403137207 0.324441194534302 0.000000000000000
-4.428311347961426 -5.271473884582520 1.432008981704712 0.000000000000000
-4.426903247833252 -8.220278739929199 0.662698209285736 0.000000000000000
-4.424819469451904 7.045023441314697 1.422050476074219 1.000000000000000
-4.423827171325684 -12.527932167053223 0.227269902825356 0.000000000000000
-4.421318531036377 -9.887685775756836 1.029569864273071 0.000000000000000
-4.420479297637939 -7.205662250518799 0.420841723680496 0.000000000000000
-4.415608406066895 -9.811891555786133 0.514942526817322 0.000000000000000
-4.409645557403564 9.062786102294922 0.715374171733856 0.000000000000000
-4.409433364868164 -10.124568939208984 0.443536609411240 0.000000000000000
-4.409420490264893 -4.820816516876221 1.116747617721558 0.000000000000000
-4.408547878265381 -10.439543724060059 1.679460883140564 0.000000000000000
-4.405413627624512 -9.932956695556641 0.624630451202393 0.000000000000000
-4.399469852447510 9.533555030822754 1.794749021530151 1.000000000000000
-4.399350166320801 -9.751650810241699 0.800637543201447 0.000000000000000
-4.394618988037109 -10.838376998901367 3.133781194686890 0.000000000000000
-4.392797946929932 -4.395253658294678 0.154039546847343 0.000000000000000
-4.392505168914795 -4.384233474731445 0.153841301798820 0.000000000000000
-4.391678333282471 -7.517266273498535 0.617951929569244 0.000000000000000
-4.390111923217773 -3.828660011291504 0.469699203968048 0.000000000000000
-4.389814376831055 -9.860613822937012 0.371263116598129 0.000000000000000
-4.388284683227539 -7.721953868865967 0.946050465106964 0.000000000000000
-4.387761592864990 -7.357911586761475 0.541984260082245 0.000000000000000
-4.382598876953125 -5.929665565490723 0.310329258441925 0.000000000000000
-4.381098270416260 -3.394167661666870 0.393370866775513 0.000000000000000
-4.379548549652100 -7.401874542236328 0.246242120862007 0.000000000000000
-4.378486156463623 -10.465056419372559 1.681220054626465 0.000000000000000
-4.374342441558838 -7.432684421539307 0.362975895404816 0.000000000000000
-4.374143600463867 -9.782185554504395 0.306800961494446 1.000000000000000
-4.373824119567871 -7.579353332519531 0.300998151302338 0.000000000000000
-4.365293979644775 -7.428278923034668 0.263242006301880 0.000000000000000
-4.365230560302734 -11.618437767028809 0.641766607761383 0.000000000000000
-4.361149787902832 -3.950013875961304 0.720387637615204 0.000000000000000
-4.360034942626953 -5.771696090698242 0.193203851580620 0.000000000000000
-4.359067916870117 -3.975914955139160 0.722332000732422 0.000000000000000
-4.356498718261719 -7.407098770141602 0.816842496395111 0.000000000000000
-4.354358196258545 -9.614295005798340 0.891842186450958 0.000000000000000
-4.353920936584473 -7.195411682128906 0.548281908035278 0.000000000000000
-4.338559150695801 -9.404158592224121 1.378199815750122 1.000000000000000
-4.336361885070801 -7.147792339324951 0.728492796421051 0.000000000000000
-4.336133480072021 -0.590276300907135 0.184179157018661 0.000000000000000
-4.336050510406494 -7.464459419250488 0.446365505456924 0.000000000000000
-4.328484535217285 -9.722851753234863 0.529830932617188 0.000000000000000
-4.328095436096191 -10.590348243713379 0.900396704673767 0.000000000000000
-4.325179576873779 -6.569207191467285 0.482435286045074 0.000000000000000
-4.324784755706787 -9.239981651306152 0.606111168861389 0.000000000000000
-4.324256420135498 -5.296020984649658 0.649915993213654 0.000000000000000
-4.322913646697998 -10.097790718078613 0.589115738868713 0.000000000000000
-4.321572780609131 -6.862804412841797 0.863858878612518 0.000000000000000
-4.320453166961670 -10.290014266967773 0.943035483360291 0.000000000000000
-4.316506385803223 -1.871141552925110 0.697234272956848 0.000000000000000
-4.306782722473145 -10.023346900939941 0.480131864547729 1.000000000000000
-4.304074764251709 -3.815430164337158 0.054210521280766 0.000000000000000
-4.302711486816406 -9.839622497558594 1.143903374671936 1.000000000000000
-4.299520969390869 -0.349783509969711 0.140086233615875 0.000000000000000
-4.299321651458740 -9.296487808227539 0.175207167863846 1.000000000000000
-4.289016246795654 -10.456664085388184 2.350840568542480 1.000000000000000
-4.288776874542236 -9.236001968383789 0.585375845432281 0.000000000000000
-4.288192749023438 -11.500491142272949 0.587413072586060 0.000000000000000
-4.287421703338623 -6.929477691650391 0.562660098075867 0.000000000000000
-4.285903453826904 -3.711519479751587 0.457161039113998 0.000000000000000
-4.282811641693115 -5.020912647247314 0.468419998884201 0.000000000000000
-4.278943061828613 9.679230690002441 1.061906218528748 1.000000000000000
-4.274245738983154 -7.384744644165039 0.244295999407768 0.000000000000000
-4.273739337921143 -10.167818069458008 0.379375904798508 0.000000000000000
-4.266463756561279 -4.319211483001709 0.550377011299133 0.000000000000000
-4.265342712402344 -8.707419395446777 0.557369649410248 0.000000000000000
-4.260848999023438 -9.369508743286133 0.255146592855453 1.000000000000000
-4.258383274078369 -10.486084938049316 2.354098796844482 0.000000000000000
-4.257873058319092 -9.776569366455078 0.100504346191883 0.000000000000000
-4.256307601928711 9.719627380371094 1.064701795578003 1.000000000000000
-4.250575065612793 -4.776780128479004 0.355248957872391 0.000000000000000
-4.249093055725098 -4.422562599182129 0.908926069736481 0.000000000000000
-4.243991851806641 -9.778713226318359 2.856327056884766 1.000000000000000
-4.241817474365234 -9.773702621459961 1.069094777107239 1.000000000000000
-4.238860607147217 -10.211331367492676 0.784759283065796 0.000000000000000
-4.238682270050049 7.532280445098877 1.797749400138855 0.000000000000000
-4.234831333160400 -5.000967979431152 0.594074964523315 1.000000000000000
-4.229722976684570 -11.534553527832031 1.113755106925964 0.000000000000000
-4.226245403289795 -3.101195096969604 0.250874340534210 0.000000000000000
-4.220206737518311 -10.248128890991211 0.743908107280731 0.000000000000000
-4.219489097595215 -10.265713691711426 0.445783972740173 1.000000000000000
-4.216998100280762 -11.522246360778809 0.918255448341370 0.000000000000000
-4.213054656982422 -7.050110340118408 0.614657938480377 0.000000000000000
-4.209461688995361 -9.758318901062012 0.100165054202080 1.000000000000000
-4.203362464904785 -7.237783432006836 0.191399186849594 0.000000000000000
-4.203314304351807 -4.478582382202148 0.152255311608315 0.000000000000000
-4.201693058013916 -0.586920797824860 0.113316357135773 0.000000000000000
-4.200423240661621 -10.570772171020508 3.047853231430054 0.000000000000000
-4.199769496917725 -10.729783058166504 1.533326387405396 1.000000000000000
-4.197110176086426 -9.896414756774902 0.555839717388153 0.000000000000000
-4.196257591247559 -9.635092735290527 1.557488799095154 0.000000000000000
-4.195861339569092 -11.307697296142578 0.600435316562653 0.000000000000000
-4.195477008819580 -11.565907478332520 0.897024512290955 1.000000000000000
-4.195102214813232 -9.759198188781738 1.065899848937988 1.000000000000000
-4.194723129272461 -7.837574481964111 0.339946478605270 0.000000000000000
-4.193881034851074 -9.456010818481445 0.276295393705368 0.000000000000000
-4.190482616424561 -6.809134960174561 0.629242002964020 0.000000000000000
-4.187908649444580 -9.772064208984375 1.207563400268555 1.000000000000000
-4.174500465393066 -9.066013336181641 0.247414886951447 0.000000000000000
-4.170449256896973 -7.234508514404297 0.303279995918274 0.000000000000000
-4.165918350219727 -5.553729057312012 0.492775589227676 1.000000000000000
-4.163353443145752 -9.041804313659668 0.867385625839233 0.000000000000000
-4.163059711456299 -10.069899559020996 0.500524938106537 1.000000000000000
-4.160828590393066 -4.241785049438477 1.015654087066650 0.000000000000000
-4.159780502319336 -8.968859672546387 0.587370336055756 0.000000000000000
-4.159384250640869 -7.177046775817871 0.460869520902634 0.000000000000000
-4.159155845642090 -10.608553886413574 1.294237017631531 1.000000000000000
-4.158657073974609 -9.714107513427734 1.406164765357971 0.000000000000000
-4.147047519683838 -6.008794307708740 0.321319043636322 0.000000000000000
-4.146321296691895 -7.764064311981201 0.624748826026917 0.000000000000000
-4.144146442413330 -10.066417694091797 0.751683056354523 0.000000000000000
-4.143113613128662 -8.885748863220215 0.790547788143158 0.000000000000000
-4.135072708129883 -7.165623664855957 0.667095005512238 0.000000000000000
-4.134329795837402 6.784824848175049 1.177499175071716 1.000000000000000
-4.129043102264404 6.829690456390381 1.182776808738708 1.000000000000000
-4.129015922546387 -1.864842891693115 0.112308114767075 0.000000000000000
-4.128977298736572 -10.159287452697754 0.461541205644608 0.000000000000000
-4.125248432159424 -9.242011070251465 0.250884264707565 0.000000000000000
-4.123054027557373 -6.340705871582031 0.659046411514282 0.000000000000000
-4.121897220611572 -9.332798957824707 0.174523025751114 0.000000000000000
-4.121511459350586 -11.362001419067383 1.095698118209839 0.000000000000000
-4.120660781860352 -10.619302749633789 1.293785572052002 1.000000000000000
-4.119264125823975 -11.508457183837891 0.115206785500050 0.000000000000000
-4.117801666259766 -5.913281917572021 1.498803377151489 0.000000000000000
-4.116931915283203 -9.344935417175293 0.862877428531647 0.000000000000000
-4.116763114929199 -10.449942588806152 2.336178302764893 0.000000000000000
-4.107231616973877 -6.814551830291748 1.360046386718750 0.000000000000000
-4.103757381439209 -9.227592468261719 1.343903064727783 1.000000000000000
-4.102684020996094 -9.711470603942871 0.788995146751404 0.000000000000000
-4.102214336395264 -10.554830551147461 0.019764099270105 0.000000000000000
-4.098061561584473 -3.392138957977295 0.463554739952087 0.000000000000000
-4.098010540008545 -9.795648574829102 0.794667124748230 0.000000000000000
-4.090480804443359 -10.634428024291992 0.370014637708664 0.000000000000000
-4.081673145294189 -10.168348312377930 1.099446296691895 0.000000000000000
-4.079971313476562 -6.147600650787354 0.566433072090149 0.000000000000000
-4.077853679656982 -10.372406959533691 0.490508347749710 1.000000000000000
-4.077348709106445 -6.818695545196533 1.358024477958679 0.000000000000000
-4.070302486419678 -10.438709259033203 2.330476284027100 1.000000000000000
-4.069302558898926 -4.616692066192627 0.152552694082260 1.000000000000000
-4.065359115600586 -10.235549926757812 0.484704554080963 0.000000000000000
-4.058881282806396 -7.012652397155762 1.685339212417603 1.000000000000000
-4.049562931060791 -6.830555438995361 0.227353259921074 1.000000000000000
-4.045860290527344 -10.967374801635742 0.379622012376785 0.000000000000000
-4.045289039611816 -10.757758140563965 0.395326495170593 0.000000000000000
-4.044755935668945 -11.398007392883301 1.096420407295227 0.000000000000000
-4.044157505035400 -5.098068237304688 0.567029953002930 0.000000000000000
-4.042347431182861 -11.547014236450195 0.491373687982559 0.000000000000000
-4.040942192077637 -4.213267326354980 0.508694887161255 0.000000000000000
-4.039803504943848 -6.506914615631104 0.667379975318909 0.000000000000000
-4.038852691650391 -5.082266330718994 0.460773497819901 1.000000000000000
-4.036509990692139 -6.750399589538574 0.210078477859497 0.000000000000000
-4.032887458801270 -11.558788299560547 0.491694748401642 0.000000000000000
-4.032484531402588 -10.327870368957520 1.895168542861938 0.000000000000000
-4.028748989105225 -11.132939338684082 0.111587718129158 1.000000000000000
-4.028452396392822 -6.156354427337646 0.579028129577637 0.000000000000000
-4.027634620666504 -11.466465950012207 0.675217151641846 0.000000000000000
-4.024285793304443 -10.111556053161621 1.034490585327148 0.000000000000000
-4.018778324127197 -6.999608516693115 1.678822755813599 0.000000000000000
-4.015339851379395 8.975554466247559 1.116826891899109 1.000000000000000
-4.014201641082764 -6.538795471191406 0.648336887359619 0.000000000000000
-4.010636329650879 -10.167021751403809 1.868210315704346 0.000000000000000
-4.009554862976074 -9.852629661560059 0.755022823810577 1.000000000000000
-4.004236698150635 -11.150279045104980 0.111663118004799 0.000000000000000
-3.984169006347656 -9.873071670532227 0.735150456428528 1.000000000000000
-3.977898597717285 -7.373573780059814 0.707950174808502 0.000000000000000
-3.975927114486694 -9.920937538146973 0.018654070794582 0.000000000000000
-3.969280958175659 -10.717712402343750 0.943660438060760 0.000000000000000
-3.968615770339966 -2.029882192611694 0.447286546230316 0.000000000000000
-3.966590166091919 -10.386384963989258 2.312556028366089 0.000000000000000
-3.964740037918091 9.466864585876465 0.708698213100433 0.000000000000000
-3.959694385528564 -10.766777992248535 0.064071401953697 0.000000000000000
-3.958894252777100 9.428881645202637 0.725852787494659 1.000000000000000
-3.958321571350098 -9.908548355102539 1.419883489608765 0.000000000000000
-3.954105854034424 -7.329470634460449 0.446656823158264 1.000000000000000
-3.949975252151489 -9.306461334228516 0.347749799489975 0.000000000000000
-3.949507951736450 -10.566814422607422 1.671837568283081 0.000000000000000
-3.949438810348511 -6.417461872100830 0.360631853342056 0.000000000000000
-3.947185754776001 -10.699892044067383 0.897572159767151 0.000000000000000
-3.944353342056274 -9.862586975097656 0.202099740505219 0.000000000000000
-3.940140008926392 -3.273956298828125 0.681712865829468 0.000000000000000
-3.939295291900635 -10.742550849914551 1.955824851989746 1.000000000000000
-3.938869476318359 -11.531416893005371 0.395720899105072 0.000000000000000
-3.934769153594971 -3.292779922485352 0.682768166065216 0.000000000000000
-3.930363416671753 -11.533493041992188 0.419114828109741 0.000000000000000
-3.928644895553589 -11.545605659484863 0.630612671375275 0.000000000000000
-3.926135540008545 -2.025475263595581 0.443292915821075 0.000000000000000
-3.923287153244019 -3.400136470794678 0.358482301235199 0.000000000000000
-3.920727729797363 -4.375249862670898 0.326403021812439 0.000000000000000
-3.917670249938965 -10.552335739135742 0.733818233013153 0.000000000000000
-3.915544271469116 -8.963182449340820 1.110958337783813 1.000000000000000
-3.912076473236084 -10.242574691772461 1.624925255775452 0.000000000000000
-3.909246206283569 -9.041524887084961 1.205993056297302 1.000000000000000
-3.908200025558472 -8.787867546081543 0.812694489955902 0.000000000000000
-3.897668361663818 -11.527090072631836 0.535531699657440 1.000000000000000
-3.884187221527100 -6.577754974365234 0.277438074350357 1.000000000000000
-3.878948211669922 -12.349034309387207 0.047442130744457 0.000000000000000
-3.876970291137695 -6.315256595611572 0.511684536933899 0.000000000000000
-3.875039100646973 -6.619131088256836 0.175395905971527 0.000000000000000
-3.874621868133545 -6.165675163269043 0.615330696105957 0.000000000000000
-3.867341279983521 -6.074254035949707 0.400071144104004 0.000000000000000
-3.857004642486572 9.585888862609863 0.693546295166016 1.000000000000000
-3.854374647140503 9.543745040893555 0.750429093837738 0.000000000000000
-3.853185415267944 -11.153140068054199 0.020594874396920 1.000000000000000
-3.852817773818970 -10.436788558959961 0.489629000425339 1.000000000000000
-3.849382877349854 -2.918242454528809 0.119742460548878 1.000000000000000
-3.848568201065063 -10.455600738525391 0.383226066827774 1.000000000000000
-3.846888542175293 -6.801014423370361 0.193689391016960 0.000000000000000
-3.846329689025879 -10.654995918273926 0.019771078601480 0.000000000000000
-3.836726188659668 -8.853854179382324 1.027818441390991 1.000000000000000
-3.830785274505615 8.809359550476074 1.091095566749573 1.000000000000000
-3.828775882720947 -3.716306686401367 0.296447604894638 0.000000000000000
-3.816652059555054 -1.985892295837402 0.431711405515671 0.000000000000000
-3.811339616775513 -10.591044425964355 1.378069400787354 1.000000000000000
-3.810031175613403 -12.067717552185059 0.167870610952377 1.000000000000000
-3.808910369873047 -1.777095556259155 0.274010866880417 0.000000000000000
-3.804221153259277 -1.758764028549194 0.273230195045471 0.000000000000000
-3.800186634063721 8.159937858581543 1.538645029067993 1.000000000000000
-3.799974918365479 -8.746024131774902 0.830926239490509 0.000000000000000
-3.799733638763428 -7.630423545837402 0.637942731380463 0.000000000000000
-3.796756505966187 -6.121396064758301 0.767262637615204 0.000000000000000
-3.784926652908325 -8.617399215698242 0.777112722396851 0.000000000000000
-3.784407615661621 -10.149391174316406 0.018905397504568 0.000000000000000
-3.784149646759033 -7.657317161560059 0.622739732265472 0.000000000000000
-3.782616853713989 -10.660485267639160 0.084894813597202 0.000000000000000
-3.779550790786743 -10.802371978759766 0.283694475889206 0.000000000000000
-3.778565168380737 -10.031973838806152 0.018709920346737 0.000000000000000
-3.778438806533813 -3.020500898361206 1.296165823936462 0.000000000000000
-3.777781486511230 -9.023114204406738 0.713198482990265 0.000000000000000
-3.774652004241943 -6.068008422851562 0.287022590637207 0.000000000000000
-3.772698163986206 -9.961012840270996 0.100391246378422 0.000000000000000
-3.770848989486694 -6.175461292266846 0.346290737390518 0.000000000000000
-3.767431259155273 -12.554318428039551 0.123538158833981 0.000000000000000
-3.766863822937012 -10.208341598510742 1.612610936164856 0.000000000000000
-3.764861822128296 -3.031248569488525 1.295130491256714 0.000000000000000
-3.762511491775513 -11.015111923217773 0.020315622910857 1.000000000000000
-3.759625434875488 -6.396866798400879 0.646546065807343 0.000000000000000
-3.754940509796143 9.541741371154785 1.092215895652771 0.000000000000000
-3.752678632736206 -8.851067543029785 0.812357723712921 0.000000000000000
-3.748388290405273 -11.273330688476562 0.431473523378372 0.000000000000000
-3.746572971343994 -4.240096092224121 0.838557600975037 0.000000000000000
-3.738555192947388 -10.587295532226562 0.019596546888351 0.000000000000000
-3.736527442932129 -2.876682043075562 0.806053280830383 1.000000000000000
-3.736043691635132 9.591854095458984 1.096452593803406 1.000000000000000
-3.735712051391602 -12.696135520935059 0.506098389625549 0.000000000000000
-3.735233783721924 -6.246564388275146 0.659802436828613 0.000000000000000
-3.731575965881348 -8.850681304931641 2.573696613311768 0.000000000000000
-3.730591058731079 -12.704934120178223 0.531826555728912 0.000000000000000
-3.730209350585938 -10.797183036804199 1.216774344444275 1.000000000000000
-3.726620435714722 -9.328550338745117 0.229715585708618 0.000000000000000
-3.724465131759644 -2.875584363937378 0.501199185848236 0.000000000000000
-3.724349975585938 -1.605423450469971 0.406950891017914 0.000000000000000
-3.724151372909546 -6.211281776428223 0.611962676048279 0.000000000000000
-3.723281145095825 -0.521815538406372 0.049873068928719 0.000000000000000
-3.717363119125366 -9.120040893554688 0.680041730403900 0.000000000000000
-3.717196941375732 -3.033401727676392 0.418067395687103 0.000000000000000
-3.711851358413696 -10.818012237548828 1.036832332611084 0.000000000000000
-3.709186315536499 -3.005355834960938 0.415983974933624 0.000000000000000
-3.708965301513672 -10.288521766662598 0.271105647087097 0.000000000000000
-3.702148675918579 -8.867218017578125 2.574732065200806 1.000000000000000
-3.701537370681763 -2.870378732681274 0.800661623477936 0.000000000000000
-3.701003074645996 -10.959963798522949 0.020189959555864 0.000000000000000
-3.699961662292480 -9.251502037048340 1.131723880767822 1.000000000000000
-3.695286035537720 -10.162648200988770 0.226513236761093 0.000000000000000
-3.695019721984863 -12.523925781250000 0.248439624905586 0.000000000000000
-3.692412376403809 -11.863722801208496 1.126394987106323 0.000000000000000
-3.690361261367798 -0.316894680261612 0.020686931908131 1.000000000000000
-3.689239740371704 -12.641604423522949 0.630245327949524 0.000000000000000
-3.688387393951416 -3.838965654373169 0.213822185993195 0.000000000000000
-3.681324243545532 -2.831522703170776 0.329649865627289 0.000000000000000
-3.679249525070190 -10.483992576599121 1.899212360382080 0.000000000000000
-3.675309419631958 -12.019898414611816 0.263288110494614 0.000000000000000
-3.674202919006348 -7.443338871002197 0.621225476264954 0.000000000000000
-3.671132802963257 -12.187050819396973 0.903421878814697 0.000000000000000
-3.669764280319214 -6.088724136352539 0.518319606781006 0.000000000000000
-3.667869329452515 -3.617769241333008 0.206919521093369 0.000000000000000
-3.658642292022705 -9.012859344482422 0.847593426704407 1.000000000000000
-3.657810211181641 -12.381092071533203 0.220839023590088 0.000000000000000
-3.651747941970825 -12.666713714599609 0.377433896064758 1.000000000000000
-3.651170730590820 -7.975583553314209 0.996296107769012 0.000000000000000
-3.646910190582275 -10.676677703857422 0.192994683980942 0.000000000000000
-3.641856431961060 -10.562347412109375 0.276953995227814 0.000000000000000
-3.639800310134888 -10.514677047729492 0.618190884590149 1.000000000000000
-3.637589693069458 -3.786094188690186 0.130150541663170 0.000000000000000
-3.636590480804443 -8.919203758239746 1.179257988929749 0.000000000000000
-3.632613420486450 0.374047935009003 0.174770683050156 1.000000000000000
-3.632448911666870 -6.200779438018799 0.371592611074448 0.000000000000000
-3.632324695587158 -9.391909599304199 0.877455353736877 1.000000000000000
-3.631812334060669 -8.943181037902832 0.917528390884399 0.000000000000000
-3.629676103591919 -8.930763244628906 1.647826313972473 0.000000000000000
-3.626420259475708 -3.098132848739624 0.246626749634743 0.000000000000000
-3.625353813171387 -9.152865409851074 1.118181109428406 1.000000000000000
-3.623754024505615 -5.868732929229736 0.383207350969315 1.000000000000000
-3.619796037673950 -2.829723834991455 0.400358498096466 0.000000000000000
-3.614559650421143 -10.723111152648926 0.041475217789412 1.000000000000000
-3.613612890243530 -3.477215766906738 0.105047181248665 0.000000000000000
-3.613434553146362 -12.604865074157715 0.299855649471283 1.000000000000000
-3.609037876129150 -10.474875450134277 0.679572522640228 1.000000000000000
-3.608386278152466 -11.983293533325195 0.912440240383148 0.000000000000000
-3.607713699340820 -11.826874732971191 0.877650320529938 0.000000000000000
-3.607175588607788 -10.539300918579102 0.104990467429161 0.000000000000000
-3.605065107345581 7.799214363098145 1.787160038948059 1.000000000000000
-3.601049184799194 -5.180845260620117 0.180646240711212 0.000000000000000
-3.599966764450073 -11.845916748046875 0.878783106803894 0.000000000000000
-3.595732212066650 -10.479588508605957 1.893820762634277 1.000000000000000
-3.592534542083740 -10.330283164978027 0.250108331441879 0.000000000000000
-3.591802358627319 -9.121124267578125 0.854190766811371 1.000000000000000
-3.590990066528320 -11.013329505920410 0.020217884331942 1.000000000000000
-3.587633609771729 -12.192878723144531 0.877606511116028 1.000000000000000
-3.586331129074097 -2.839027881622314 0.677882909774780 0.000000000000000
-3.585355043411255 -12.709311485290527 0.530381798744202 1.000000000000000
-3.581610679626465 -3.428167581558228 0.734764099121094 0.000000000000000
-3.580339908599854 -10.851989746093750 1.217198014259338 0.000000000000000
-3.578721284866333 -3.497941493988037 0.278030574321747 0.000000000000000
-3.578290939331055 -10.312525749206543 0.081922896206379 0.000000000000000
-3.573014974594116 -3.667291402816772 0.284465432167053 0.000000000000000
-3.569539070129395 -3.488966703414917 0.354288637638092 0.000000000000000
-3.568605184555054 -3.275300025939941 0.343810111284256 0.000000000000000
-3.565332651138306 -2.724128484725952 0.766963660717010 0.000000000000000
-3.559931039810181 -12.691218376159668 0.428048521280289 0.000000000000000
-3.559842109680176 6.698471546173096 1.577816367149353 1.000000000000000
-3.559771537780762 -10.211941719055176 0.538383007049561 0.000000000000000
-3.557174921035767 -2.755849838256836 0.042410872876644 0.000000000000000
-3.556586980819702 -10.740292549133301 2.353284358978271 0.000000000000000
-3.555228710174561 -7.687523841857910 0.666588544845581 0.000000000000000
-3.553359508514404 7.758342266082764 1.774941682815552 1.000000000000000
-3.553176879882812 -3.400951862335205 0.121923200786114 0.000000000000000
-3.550571441650391 -12.515764236450195 0.247526541352272 1.000000000000000
-3.550148248672485 -10.208402633666992 0.413316220045090 0.000000000000000
-3.544291973114014 -5.982579708099365 0.605919897556305 0.000000000000000
-3.539422273635864 -8.984427452087402 0.917906999588013 0.000000000000000
-3.538795471191406 -10.323042869567871 0.648337304592133 0.000000000000000
-3.532791614532471 -3.633611679077148 0.203548446297646 0.000000000000000
-3.531695127487183 -7.707137107849121 0.667216241359711 0.000000000000000
-3.529476642608643 -0.704874396324158 0.304128944873810 1.000000000000000
-3.529469966888428 -3.526760816574097 0.474283456802368 0.000000000000000
-3.523271799087524 -9.256093025207520 1.054933071136475 0.000000000000000
-3.522037744522095 -10.416788101196289 2.946396112442017 0.000000000000000
-3.521480083465576 -0.652286589145660 0.136956855654716 0.000000000000000
-3.520233869552612 -12.711645126342773 0.225627958774567 0.000000000000000
-3.519221305847168 -10.942716598510742 0.926860213279724 0.000000000000000
-3.515478610992432 -10.828534126281738 0.786126017570496 0.000000000000000
-3.511670351028442 -7.742152690887451 0.965599298477173 0.000000000000000
-3.508121013641357 -12.649021148681641 0.199332669377327 0.000000000000000
-3.507848501205444 -12.604460716247559 1.080255866050720 0.000000000000000
-3.507406949996948 -9.291401863098145 0.303430706262589 0.000000000000000
-3.502821683883667 -5.842139720916748 0.470353007316589 0.000000000000000
-3.499543666839600 -0.660865664482117 0.136192589998245 0.000000000000000
-3.498145341873169 -10.799527168273926 0.303209364414215 1.000000000000000
-3.495663404464722 -12.068315505981445 0.891810536384583 0.000000000000000
-3.493130445480347 -10.953342437744141 1.042249441146851 0.000000000000000
-3.492340087890625 -10.187526702880859 2.240059614181519 1.000000000000000
-3.489625930786133 -0.676166117191315 0.309730976819992 1.000000000000000
-3.486481904983521 -12.589766502380371 1.028128147125244 0.000000000000000
-3.486425638198853 -7.068531036376953 0.195374503731728 0.000000000000000
-3.485651969909668 6.785840988159180 1.586776614189148 1.000000000000000
-3.479588747024536 -8.085729598999023 0.767035543918610 0.000000000000000
-3.474104404449463 -6.092236995697021 0.389642208814621 0.000000000000000
-3.472881793975830 -3.009790420532227 0.388328522443771 0.000000000000000
-3.471842527389526 -10.244162559509277 2.249834299087524 1.000000000000000
-3.471090555191040 -7.140815734863281 0.441121131181717 0.000000000000000
-3.470349550247192 -1.336036205291748 0.263946473598480 0.000000000000000
-3.469827651977539 -10.936964035034180 0.770160555839539 0.000000000000000
-3.466122388839722 -0.484171301126480 0.039705391973257 0.000000000000000
-3.465697050094604 -6.043132305145264 0.279798865318298 0.000000000000000
-3.459999799728394 -6.130249977111816 0.540407776832581 1.000000000000000
-3.459935665130615 -10.352064132690430 2.924655199050903 1.000000000000000
-3.457461595535278 -10.993093490600586 0.020113164559007 0.000000000000000
-3.456868648529053 -10.581932067871094 0.511354029178619 1.000000000000000
-3.456729173660278 -5.964610576629639 0.600711405277252 0.000000000000000
-3.451463937759399 -5.814315319061279 0.375663012266159 0.000000000000000
-3.448926210403442 -10.253012657165527 0.559351146221161 0.000000000000000
-3.448197126388550 -6.245369434356689 0.506369411945343 0.000000000000000
-3.445671081542969 -7.104913234710693 0.347524017095566 0.000000000000000
-3.439834117889404 -3.433356523513794 0.195201054215431 0.000000000000000
-3.437706708908081 -1.309708952903748 0.261114418506622 0.000000000000000
-3.430261850357056 -7.085736751556396 0.346468806266785 0.000000000000000
-3.429107427597046 -5.440276145935059 0.258288234472275 0.000000000000000
-3.419147968292236 -2.548739194869995 0.484379619359970 0.000000000000000
-3.414155006408691 -2.875799655914307 0.024931551888585 0.000000000000000
-3.413030385971069 -11.054397583007812 0.843505501747131 1.000000000000000
-3.409223556518555 -10.200334548950195 0.328594416379929 1.000000000000000
-3.403476715087891 -7.215098857879639 0.197753489017487 0.000000000000000
-3.397995233535767 -2.696986675262451 0.435305655002594 0.000000000000000
-3.393656492233276 -2.610260486602783 0.237868130207062 0.000000000000000
-3.391436338424683 -10.446453094482422 1.461567163467407 1.000000000000000
-3.391004800796509 -12.351380348205566 1.057544827461243 1.000000000000000
-3.390012025833130 -5.324535369873047 0.448029279708862 0.000000000000000
-3.387352466583252 -2.833070755004883 0.024663470685482 0.000000000000000
-3.383688926696777 -12.101075172424316 1.037466883659363 0.000000000000000
-3.383512258529663 -12.332510948181152 0.957063376903534 0.000000000000000
-3.381912946701050 -3.747568130493164 0.202745810151100 0.000000000000000
-3.379450321197510 -10.676650047302246 0.622184932231903 1.000000000000000
-3.378079891204834 -10.464358329772949 2.946396112442017 1.000000000000000
-3.377158403396606 -10.737768173217773 1.198980212211609 0.000000000000000
-3.363691329956055 -12.840803146362305 0.227064654231071 0.000000000000000
-3.363600969314575 -12.151810646057129 0.943629920482635 0.000000000000000
-3.362185239791870 -8.906698226928711 2.550920724868774 1.000000000000000
-3.350277662277222 -10.783676147460938 1.202793240547180 1.000000000000000
-3.345343351364136 -10.343804359436035 2.261238098144531 0.000000000000000
-3.339307308197021 -9.372173309326172 0.610268354415894 1.000000000000000
-3.338934898376465 -2.931468248367310 0.084537960588932 0.000000000000000
-3.338421821594238 -9.203214645385742 1.673436522483826 1.000000000000000
-3.337833881378174 -8.936476707458496 2.556097030639648 0.000000000000000
-3.332020282745361 -5.273994445800781 0.346595168113708 0.000000000000000
-3.331846237182617 -12.298858642578125 0.929019570350647 0.000000000000000
-3.329759836196899 -5.339919567108154 0.434532314538956 0.000000000000000
-3.328243255615234 -10.860427856445312 1.290174126625061 1.000000000000000
-3.327930927276611 -10.435329437255859 1.872254133224487 0.000000000000000
-3.327079057693481 -10.396292686462402 0.081922896206379 1.000000000000000
-3.326113462448120 -10.743606567382812 0.754891216754913 1.000000000000000
-3.321853160858154 -9.603238105773926 2.722776412963867 0.000000000000000
-3.319612741470337 -10.738533020019531 0.041196662932634 1.000000000000000
-3.311354398727417 -9.497706413269043 0.772186040878296 0.000000000000000
-3.309868812561035 -10.254895210266113 0.976883172988892 0.000000000000000
-3.301227331161499 -10.499544143676758 0.959054827690125 0.000000000000000
-3.300559759140015 -8.369536399841309 1.101483345031738 0.000000000000000
-3.298191308975220 -11.909844398498535 1.316336274147034 0.000000000000000
-3.293689012527466 -7.568461894989014 0.601797521114349 0.000000000000000
-3.284708023071289 -2.572857141494751 0.444427639245987 0.000000000000000
-3.281901597976685 -5.675037384033203 0.402111023664474 0.000000000000000
-3.280279636383057 -10.795994758605957 1.132194042205811 1.000000000000000
-3.278609037399292 -11.783936500549316 0.891788959503174 0.000000000000000
-3.274375200271606 -10.605310440063477 0.125922814011574 0.000000000000000
-3.273043870925903 -10.814918518066406 1.283402800559998 1.000000000000000
-3.272077560424805 -8.532063484191895 0.331880360841751 0.000000000000000
