# This PCD file was generated using the MATLAB® pcwrite function
# from Computer Vision Toolbox®.
# .PCD v.7 - Point Cloud Data file format
VERSION .7
FIELDS x y z intensity
SIZE 8 8 8 8
TYPE F F F F
COUNT 1 1 1 1
WIDTH 649
HEIGHT 1
VIEWPOINT 0 0 0 1 0 0 0
POINTS 649
DATA ascii
10.607889175415039 9.047836303710938 0.908945798873901 0.000000000000000
10.609164237976074 -1.800882101058960 0.763802111148834 0.000000000000000
10.610124588012695 10.179019927978516 0.505742907524109 0.000000000000000
10.610342979431152 -1.395370960235596 0.553361058235168 0.000000000000000
10.610773086547852 -3.199136257171631 1.004690885543823 0.000000000000000
10.612352371215820 9.191413879394531 0.132321923971176 0.000000000000000
10.613979339599609 -0.907326579093933 0.571335136890411 0.000000000000000
10.619969367980957 -0.982941329479218 0.695305764675140 0.000000000000000
10.623066902160645 -3.276607751846313 0.831982433795929 0.000000000000000
10.627036094665527 -3.008350372314453 0.933268308639526 0.000000000000000
10.627365112304688 -3.303748607635498 1.185422897338867 0.000000000000000
10.627736091613770 9.451677322387695 0.516548693180084 0.000000000000000
10.628564834594727 3.499019145965576 1.912691473960876 0.000000000000000
10.629764556884766 8.731703758239746 0.658353924751282 0.000000000000000
10.631374359130859 7.996197223663330 0.176465779542923 0.000000000000000
10.632170677185059 10.036431312561035 1.122456073760986 0.000000000000000
10.634769439697266 -1.722837805747986 2.240874052047729 0.000000000000000
10.637953758239746 -7.909663677215576 2.757309675216675 0.000000000000000
10.638868331909180 -2.972827434539795 0.912062466144562 0.000000000000000
10.639626502990723 -1.794019460678101 1.082673072814941 0.000000000000000
10.640369415283203 9.105734825134277 0.562487244606018 0.000000000000000
10.641427040100098 -6.127992153167725 1.634105920791626 0.000000000000000
10.646867752075195 8.280611991882324 1.139725685119629 0.000000000000000
10.647034645080566 8.162082672119141 0.100685007870197 0.000000000000000
10.650131225585938 0.897873163223267 0.655573189258575 0.000000000000000
10.650155067443848 -0.733151376247406 1.212528944015503 0.000000000000000
10.652791023254395 9.493965148925781 1.747012853622437 0.000000000000000
10.652895927429199 7.209302425384521 0.863383352756500 0.000000000000000
10.652947425842285 -9.243831634521484 1.110039353370667 0.000000000000000
10.653026580810547 4.120917320251465 0.766678035259247 0.000000000000000
10.661995887756348 -3.920315265655518 0.740583956241608 0.000000000000000
10.665270805358887 -5.046917438507080 1.748656511306763 0.000000000000000
10.667382240295410 -7.138225555419922 1.367176413536072 0.000000000000000
10.668224334716797 -8.653765678405762 2.348068237304688 0.000000000000000
10.670084953308105 2.133834362030029 1.091858506202698 0.000000000000000
10.671286582946777 -3.099891662597656 0.724450349807739 0.000000000000000
10.671362876892090 -6.954981327056885 0.511600077152252 1.000000000000000
10.674137115478516 5.053397655487061 0.997933566570282 0.000000000000000
10.676066398620605 -6.263360500335693 0.974148213863373 0.000000000000000
10.677029609680176 -3.334521293640137 0.974680304527283 0.000000000000000
10.679328918457031 9.977475166320801 0.783845245838165 0.000000000000000
10.679635047912598 10.081236839294434 1.473649382591248 0.000000000000000
10.680191040039062 -0.283774256706238 0.717119872570038 0.000000000000000
10.683055877685547 -5.923907756805420 0.772820055484772 0.000000000000000
10.684041976928711 -6.952091217041016 0.364955782890320 1.000000000000000
10.684343338012695 -0.503113448619843 0.409036308526993 0.000000000000000
10.685622215270996 -4.053966045379639 0.789156973361969 0.000000000000000
10.686326980590820 -3.512658596038818 1.496919155120850 0.000000000000000
10.692646980285645 5.081356048583984 2.462436437606812 0.000000000000000
10.694297790527344 1.313479781150818 0.536394178867340 0.000000000000000
10.695631980895996 -5.437005043029785 1.596643447875977 0.000000000000000
10.695709228515625 7.882390022277832 0.201762095093727 0.000000000000000
10.696062088012695 6.869917869567871 0.632853627204895 0.000000000000000
10.700037002563477 -1.967299342155457 0.986272811889648 0.000000000000000
10.701929092407227 4.975395202636719 0.997260034084320 0.000000000000000
10.701990127563477 8.553071975708008 1.556063890457153 0.000000000000000
10.702540397644043 8.869025230407715 0.077631846070290 0.000000000000000
10.702988624572754 -9.405453681945801 1.618360638618469 0.000000000000000
10.705127716064453 -1.462803721427917 0.496303439140320 0.000000000000000
10.708054542541504 -2.641647338867188 1.252705812454224 0.000000000000000
10.709352493286133 8.063931465148926 0.615790724754333 0.000000000000000
10.711664199829102 -2.665158271789551 1.049252748489380 0.000000000000000
10.712439537048340 9.024546623229980 0.158912330865860 0.000000000000000
10.713481903076172 -0.903779029846191 1.021999478340149 0.000000000000000
10.714142799377441 -1.246870160102844 0.453972190618515 0.000000000000000
10.714297294616699 7.865824222564697 0.099754415452480 0.000000000000000
10.715161323547363 -3.115475654602051 0.748997867107391 0.000000000000000
10.717940330505371 6.169068813323975 0.853909790515900 0.000000000000000
10.718175888061523 -0.003924993798137 1.075484514236450 0.000000000000000
10.718984603881836 -3.373307466506958 0.884391009807587 0.000000000000000
10.723155021667480 2.455734014511108 1.103839397430420 0.000000000000000
10.727303504943848 5.077187061309814 0.613675177097321 0.000000000000000
10.730107307434082 8.575543403625488 0.050344958901405 0.000000000000000
10.733297348022461 8.507418632507324 0.023904018104076 0.000000000000000
10.734232902526855 -3.166994094848633 0.902426898479462 0.000000000000000
10.735961914062500 -0.543108999729156 0.908345222473145 0.000000000000000
10.736970901489258 -5.856174945831299 0.962536275386810 0.000000000000000
10.741221427917480 3.164575338363647 1.659523129463196 0.000000000000000
10.742488861083984 -0.505851447582245 0.742590129375458 0.000000000000000
10.745477676391602 10.337712287902832 1.351746320724487 0.000000000000000
10.749403953552246 -0.177872851490974 1.221106052398682 0.000000000000000
10.750207901000977 -4.857971191406250 2.016480922698975 0.000000000000000
10.752293586730957 -0.869264423847198 1.025406122207642 0.000000000000000
10.753974914550781 -0.957118213176727 0.579047203063965 0.000000000000000
10.756737709045410 6.141508102416992 0.855287432670593 0.000000000000000
10.760129928588867 -6.952518939971924 0.736425757408142 0.000000000000000
10.762262344360352 9.376626968383789 0.985619604587555 0.000000000000000
10.766072273254395 8.843672752380371 0.452456474304199 0.000000000000000
10.766104698181152 2.148548364639282 0.956624209880829 0.000000000000000
10.768172264099121 5.142618179321289 0.800966918468475 0.000000000000000
10.769142150878906 10.392745018005371 0.946830749511719 0.000000000000000
10.770152091979980 7.071447849273682 1.063798546791077 0.000000000000000
10.774312973022461 -0.246008604764938 0.702591896057129 0.000000000000000
10.774945259094238 -0.561296641826630 0.474855691194534 0.000000000000000
10.783455848693848 7.974097251892090 0.874336600303650 0.000000000000000
10.784441947937012 9.382044792175293 0.711612284183502 0.000000000000000
10.784907341003418 9.930435180664062 0.758057117462158 0.000000000000000
10.785499572753906 7.128489971160889 0.444690734148026 0.000000000000000
10.789103507995605 9.796011924743652 0.305256724357605 0.000000000000000
10.795996665954590 1.117184162139893 0.812279939651489 0.000000000000000
10.796435356140137 -1.522720813751221 0.988439619541168 0.000000000000000
10.796878814697266 -2.615231513977051 0.254040569067001 0.000000000000000
10.797557830810547 -2.651735067367554 1.007941126823425 0.000000000000000
10.799311637878418 -1.660050630569458 0.691244602203369 0.000000000000000
10.800134658813477 9.742938995361328 0.556234359741211 0.000000000000000
10.802300453186035 2.306348562240601 0.634960591793060 1.000000000000000
10.804805755615234 8.759559631347656 0.264647185802460 0.000000000000000
10.808686256408691 -1.226908206939697 0.751131951808929 0.000000000000000
10.809066772460938 -3.018759250640869 0.623516321182251 0.000000000000000
10.810798645019531 9.976619720458984 0.392922580242157 0.000000000000000
10.811618804931641 -8.057559013366699 0.931061983108521 0.000000000000000
10.819883346557617 9.371156692504883 0.795260608196259 0.000000000000000
10.821277618408203 8.735419273376465 0.157777890563011 0.000000000000000
10.822918891906738 1.323328375816345 0.521826267242432 0.000000000000000
10.824052810668945 -6.231146812438965 0.814225971698761 0.000000000000000
10.825942993164062 -7.630921840667725 1.410814166069031 0.000000000000000
10.829113960266113 -0.280544728040695 0.768899857997894 0.000000000000000
10.829970359802246 7.938543319702148 0.049216080456972 0.000000000000000
10.831325531005859 -9.367178916931152 1.016420483589172 0.000000000000000
10.832378387451172 -2.665498733520508 0.105141259729862 1.000000000000000
10.833912849426270 8.207904815673828 0.807515621185303 0.000000000000000
10.836153984069824 9.891647338867188 0.025607459247112 0.000000000000000
10.840606689453125 -10.275132179260254 1.031359910964966 0.000000000000000
10.842339515686035 6.755066394805908 1.079438805580139 0.000000000000000
10.843204498291016 -1.496132850646973 0.755816161632538 0.000000000000000
10.847255706787109 3.087673425674438 3.021971225738525 0.000000000000000
10.856233596801758 6.919912815093994 1.087858796119690 0.000000000000000
10.857011795043945 6.814294338226318 1.083143591880798 0.000000000000000
10.862053871154785 8.918379783630371 0.402390062808990 0.000000000000000
10.862712860107422 1.187357783317566 0.733460664749146 0.000000000000000
10.867015838623047 -8.639680862426758 0.958616316318512 0.000000000000000
10.868902206420898 4.337129592895508 0.988840043544769 0.000000000000000
10.871654510498047 7.901909351348877 0.023457214236259 0.000000000000000
10.872178077697754 7.443217277526855 0.326615393161774 0.000000000000000
10.876177787780762 9.419914245605469 0.577897846698761 0.000000000000000
10.878705978393555 8.704273223876953 0.318602353334427 0.000000000000000
10.878960609436035 6.987926006317139 1.092574000358582 0.000000000000000
10.881379127502441 7.851070880889893 0.229527547955513 0.000000000000000
10.883389472961426 4.967644691467285 0.826079845428467 0.000000000000000
10.888719558715820 -4.648476600646973 1.073307394981384 0.000000000000000
10.890406608581543 9.397367477416992 0.467127263545990 0.000000000000000
10.890420913696289 4.368874073028564 3.144134044647217 0.000000000000000
10.891270637512207 6.041848659515381 0.572107136249542 1.000000000000000
10.891307830810547 4.776645183563232 1.266767144203186 0.000000000000000
10.893686294555664 -6.022571086883545 1.051821351051331 0.000000000000000
10.896348953247070 7.223624706268311 0.953161239624023 0.000000000000000
10.900126457214355 8.238924980163574 1.818252801895142 0.000000000000000
10.902629852294922 1.140330791473389 0.862736284732819 0.000000000000000
10.906014442443848 8.290726661682129 1.104645013809204 0.000000000000000
10.906515121459961 -5.697183132171631 0.754754066467285 0.000000000000000
10.907626152038574 4.975256919860840 0.920377194881439 0.000000000000000
10.908117294311523 -1.100120425224304 0.524694502353668 0.000000000000000
10.908412933349609 7.891147613525391 0.877719461917877 0.000000000000000
10.909922599792480 2.479476928710938 0.945393085479736 0.000000000000000
10.910883903503418 -1.082127094268799 0.778245568275452 0.000000000000000
10.915708541870117 -2.966959476470947 0.606682062149048 0.000000000000000
10.916410446166992 -1.259403586387634 1.102641224861145 0.000000000000000
10.920325279235840 10.009449005126953 1.223104953765869 0.000000000000000
10.921352386474609 -1.294366717338562 1.171441793441772 0.000000000000000
10.922100067138672 4.790149688720703 0.570777356624603 0.000000000000000
10.924339294433594 -0.823705971240997 0.735335826873779 0.000000000000000
10.924494743347168 -1.621762275695801 0.783909678459167 0.000000000000000
10.925849914550781 8.051113128662109 0.336428731679916 0.000000000000000
10.927822113037109 5.973146438598633 0.596017777919769 0.000000000000000
10.928566932678223 8.133454322814941 0.494771808385849 0.000000000000000
10.928965568542480 -1.719052672386169 0.529474854469299 0.000000000000000
10.931129455566406 -0.714164972305298 0.545343995094299 0.000000000000000
10.931830406188965 8.531359672546387 3.715606451034546 0.000000000000000
10.934556007385254 7.009620189666748 0.846753358840942 0.000000000000000
10.943254470825195 10.164127349853516 0.140766397118568 0.000000000000000
10.948893547058105 -0.635527372360229 0.736139476299286 0.000000000000000
10.951975822448730 -0.592370927333832 0.419430375099182 0.000000000000000
10.955245971679688 0.987175464630127 0.844444572925568 0.000000000000000
10.956321716308594 9.158312797546387 0.052338819950819 0.000000000000000
10.961075782775879 -7.075850009918213 1.136837720870972 0.000000000000000
10.965525627136230 9.917857170104980 1.405438542366028 0.000000000000000
10.966697692871094 -2.786816596984863 1.285208463668823 0.000000000000000
10.968639373779297 10.170593261718750 1.004021406173706 0.000000000000000
10.975956916809082 -9.425491333007812 1.026898980140686 0.000000000000000
10.976818084716797 8.834747314453125 1.081734061241150 0.000000000000000
10.983265876770020 8.457648277282715 0.396895140409470 0.000000000000000
10.986924171447754 -5.187396049499512 1.058710455894470 0.000000000000000
10.987746238708496 -2.880326747894287 0.543624818325043 0.000000000000000
10.988990783691406 9.587658882141113 0.109450668096542 0.000000000000000
10.990812301635742 8.285479545593262 0.024022700265050 0.000000000000000
10.993827819824219 0.945981919765472 0.911074995994568 0.000000000000000
10.995302200317383 -1.589932560920715 0.638633549213409 0.000000000000000
10.996882438659668 -1.480192542076111 0.595113992691040 0.000000000000000
10.999778747558594 7.174499988555908 0.906814098358154 0.000000000000000
11.000464439392090 -9.735125541687012 1.668468832969666 0.000000000000000
11.002209663391113 -5.058589458465576 1.151074290275574 0.000000000000000
11.002520561218262 1.995133042335510 0.923253357410431 0.000000000000000
11.003858566284180 5.907392024993896 1.253201127052307 0.000000000000000
11.007844924926758 5.592815399169922 1.643075823783875 0.000000000000000
11.008302688598633 -9.485027313232422 0.919302225112915 0.000000000000000
11.009691238403320 8.401723861694336 1.036470413208008 0.000000000000000
11.012416839599609 1.826647758483887 0.749265730381012 0.000000000000000
11.013812065124512 6.828589916229248 1.300325870513916 0.000000000000000
11.014641761779785 9.297891616821289 0.218889385461807 0.000000000000000
11.017011642456055 -3.208662509918213 0.925252735614777 0.000000000000000
11.020289421081543 3.670662403106689 1.985478997230530 0.000000000000000
11.020455360412598 9.358603477478027 0.636306643486023 0.000000000000000
11.020621299743652 1.794033527374268 0.972944140434265 0.000000000000000
11.023529052734375 7.189990997314453 0.705867767333984 0.000000000000000
11.030353546142578 -2.867436647415161 0.501588344573975 0.000000000000000
11.032893180847168 -9.103873252868652 1.624680519104004 0.000000000000000
11.034218788146973 9.979287147521973 2.204878807067871 0.000000000000000
11.038741111755371 8.782504081726074 0.783722221851349 0.000000000000000
11.046507835388184 6.790009975433350 2.697031497955322 0.000000000000000
11.056356430053711 -9.672635078430176 1.474048852920532 0.000000000000000
11.058528900146484 8.132813453674316 0.155735895037651 0.000000000000000
11.058620452880859 7.161262989044189 0.935140788555145 0.000000000000000
11.058933258056641 1.730991601943970 0.975374758243561 0.000000000000000
11.063134193420410 -1.237214565277100 1.117018342018127 0.000000000000000
11.070160865783691 -0.953134953975677 0.681531667709351 0.000000000000000
11.073365211486816 8.674513816833496 0.971291303634644 0.000000000000000
11.074254989624023 -3.205215215682983 0.951889097690582 0.000000000000000
11.076599121093750 -2.773618698120117 1.296945571899414 0.000000000000000
11.086558341979980 9.724016189575195 0.790914654731750 0.000000000000000
11.093011856079102 3.523603200912476 1.989522695541382 0.000000000000000
11.098221778869629 -7.397116661071777 1.162185549736023 0.000000000000000
11.098433494567871 9.614445686340332 0.844089031219482 0.000000000000000
11.102446556091309 9.861371040344238 0.739257395267487 0.000000000000000
11.116250991821289 7.936759948730469 2.024266481399536 0.000000000000000
11.122619628906250 9.151834487915039 0.080446697771549 0.000000000000000
11.124781608581543 9.056353569030762 2.983759164810181 0.000000000000000
11.125933647155762 0.480710387229919 0.941014707088470 0.000000000000000
11.129074096679688 6.776167869567871 1.931028246879578 0.000000000000000
11.134243011474609 9.472971916198730 0.924858450889587 0.000000000000000
11.134384155273438 -1.711557388305664 0.886587858200073 0.000000000000000
11.141409873962402 7.791454792022705 2.014883995056152 0.000000000000000
11.142271995544434 8.194400787353516 0.369426250457764 0.000000000000000
11.143583297729492 1.702424049377441 1.670664906501770 0.000000000000000
11.147250175476074 8.238903045654297 0.716746151447296 0.000000000000000
11.149364471435547 -0.642087340354919 0.427073031663895 0.000000000000000
11.151763916015625 8.920836448669434 0.299141526222229 0.000000000000000
11.164203643798828 9.897765159606934 0.915157675743103 0.000000000000000
11.171266555786133 5.905149459838867 0.022053970023990 0.000000000000000
11.177227020263672 -5.381157875061035 1.124589323997498 0.000000000000000
11.178461074829102 -9.459248542785645 2.503078460693359 0.000000000000000
11.185588836669922 -4.873849391937256 0.866038918495178 0.000000000000000
11.187283515930176 -7.042009353637695 1.040367722511292 0.000000000000000
11.189347267150879 8.868892669677734 0.244236454367638 0.000000000000000
11.191431999206543 -1.286777734756470 0.886587858200073 0.000000000000000
11.193584442138672 5.908957958221436 3.391565084457397 0.000000000000000
11.197647094726562 8.948250770568848 1.100411057472229 0.000000000000000
11.203174591064453 9.735683441162109 0.939001560211182 0.000000000000000
11.205830574035645 -1.771621465682983 0.988569557666779 0.000000000000000
11.210251808166504 -2.995810508728027 2.413562059402466 0.000000000000000
11.210939407348633 6.237881660461426 1.457201719284058 0.000000000000000
11.216077804565430 7.952604293823242 1.683334827423096 0.000000000000000
11.216494560241699 4.474477767944336 0.438587307929993 0.000000000000000
11.216984748840332 4.914343833923340 0.374157905578613 0.000000000000000
11.217718124389648 -5.785433769226074 0.749869883060455 0.000000000000000
11.221249580383301 5.746651172637939 0.651887834072113 0.000000000000000
11.221929550170898 8.751140594482422 0.188774868845940 0.000000000000000
11.231040000915527 9.480561256408691 3.938190698623657 0.000000000000000
11.233551979064941 6.872877597808838 1.011006474494934 0.000000000000000
11.234487533569336 2.715421915054321 0.775786042213440 0.000000000000000
11.238562583923340 3.102373123168945 1.992892622947693 0.000000000000000
11.239055633544922 3.144768238067627 1.994914293289185 0.000000000000000
11.240744590759277 -1.489652991294861 0.542668700218201 0.000000000000000
11.241370201110840 -3.871152639389038 0.798020184040070 0.000000000000000
11.244806289672852 -1.701018452644348 1.081048369407654 0.000000000000000
11.248275756835938 -8.363457679748535 1.332384586334229 0.000000000000000
11.249209403991699 -3.786214113235474 0.796680808067322 0.000000000000000
11.251030921936035 4.934410572052002 0.398966670036316 0.000000000000000
11.255590438842773 -0.090760417282581 1.378069400787354 0.000000000000000
11.256895065307617 9.658213615417480 1.138683557510376 0.000000000000000
11.258118629455566 5.871098041534424 0.827757358551025 0.000000000000000
11.261311531066895 -0.948408603668213 0.984750092029572 0.000000000000000
11.262312889099121 7.345735549926758 0.514199614524841 0.000000000000000
11.265049934387207 4.674897670745850 0.818647146224976 0.000000000000000
11.273267745971680 -9.323076248168945 1.123068451881409 0.000000000000000
11.273680686950684 9.148163795471191 0.527292013168335 0.000000000000000
11.276923179626465 8.750747680664062 0.244168043136597 0.000000000000000
11.280667304992676 8.803596496582031 0.437189400196075 0.000000000000000
11.284283638000488 -7.494138717651367 1.066102266311646 0.000000000000000
11.285940170288086 9.807607650756836 0.026096150279045 0.000000000000000
11.292818069458008 7.142887592315674 1.778151988983154 0.000000000000000
11.293677330017090 -0.817070007324219 1.286111354827881 1.000000000000000
11.293723106384277 -9.163114547729492 1.032279849052429 0.000000000000000
11.294196128845215 -1.087905049324036 0.761588275432587 0.000000000000000
11.296302795410156 8.288246154785156 0.508854210376740 0.000000000000000
11.302791595458984 -3.904886722564697 0.572307050228119 0.000000000000000
11.303201675415039 7.944615364074707 0.050638172775507 0.000000000000000
11.306762695312500 6.895181179046631 1.962693929672241 0.000000000000000
11.309165954589844 -1.638541936874390 0.811097264289856 0.000000000000000
11.316938400268555 7.209136486053467 0.693818509578705 0.000000000000000
11.320228576660156 -6.043931007385254 0.540090680122375 1.000000000000000
11.322581291198730 -5.050374984741211 1.320572853088379 0.000000000000000
11.323538780212402 -0.694957673549652 0.586616396903992 0.000000000000000
11.324901580810547 9.739584922790527 0.829875826835632 0.000000000000000
11.326073646545410 5.217557430267334 0.668807029724121 0.000000000000000
11.326834678649902 9.664463996887207 0.741246223449707 0.000000000000000
11.329660415649414 8.952132225036621 0.108369976282120 0.000000000000000
11.331498146057129 -3.506817340850830 1.002311944961548 0.000000000000000
11.332078933715820 -3.337790966033936 0.792930424213409 0.000000000000000
11.332509040832520 -3.465560913085938 1.756279826164246 0.000000000000000
11.332915306091309 -3.957409381866455 0.759434580802917 0.000000000000000
11.334707260131836 2.491683959960938 1.420845508575439 0.000000000000000
11.335741043090820 -2.989106178283691 0.877357840538025 0.000000000000000
11.337302207946777 -2.910502433776855 0.853394925594330 0.000000000000000
11.337521553039551 1.199226379394531 0.589508175849915 0.000000000000000
11.338017463684082 -1.004706621170044 0.632391989231110 0.000000000000000
11.341059684753418 9.160234451293945 1.203685402870178 0.000000000000000
11.349499702453613 9.762795448303223 0.630077779293060 0.000000000000000
11.352669715881348 -6.866756916046143 0.864968717098236 0.000000000000000
11.353625297546387 9.278953552246094 0.984198153018951 0.000000000000000
11.353998184204102 8.800403594970703 3.849157094955444 0.000000000000000
11.354180335998535 6.801799774169922 0.099334143102169 0.000000000000000
11.355863571166992 0.294190406799316 0.609252750873566 0.000000000000000
11.356155395507812 -9.625949859619141 1.257941961288452 0.000000000000000
11.361215591430664 -9.001882553100586 1.454480051994324 0.000000000000000
11.367141723632812 -1.476737499237061 2.384237766265869 0.000000000000000
11.367596626281738 -3.683468818664551 1.770939946174622 0.000000000000000
11.374131202697754 -2.839263439178467 0.628747165203094 0.000000000000000
11.375058174133301 -8.500036239624023 1.117571473121643 0.000000000000000
11.376709938049316 9.457878112792969 1.107220172882080 0.000000000000000
11.378931045532227 -1.132960438728333 1.521718263626099 0.000000000000000
11.382787704467773 -4.296883583068848 3.260084867477417 0.000000000000000
11.383934020996094 -1.232871413230896 1.148967385292053 0.000000000000000
11.384959220886230 -0.687956273555756 0.831580102443695 0.000000000000000
11.385188102722168 9.304749488830566 0.082122206687927 0.000000000000000
11.386083602905273 8.688957214355469 0.189995154738426 0.000000000000000
11.388407707214355 -3.354382276535034 0.613881707191467 0.000000000000000
11.388646125793457 9.243430137634277 1.239418029785156 0.000000000000000
11.389674186706543 9.254819869995117 2.174972057342529 0.000000000000000
11.390152931213379 -1.617407917976379 0.417826622724533 0.000000000000000
11.390577316284180 9.206801414489746 0.870143175125122 0.000000000000000
11.392479896545410 -1.480029225349426 1.092025399208069 0.000000000000000
11.392549514770508 7.858021259307861 0.343070089817047 0.000000000000000
11.392903327941895 -6.808254241943359 1.261601567268372 0.000000000000000
11.393804550170898 8.891891479492188 0.886505424976349 0.000000000000000
11.398473739624023 -0.609737455844879 1.397513151168823 0.000000000000000
11.399350166320801 -8.557629585266113 0.984241902828217 0.000000000000000
11.401870727539062 -0.728929817676544 1.035748839378357 0.000000000000000
11.407587051391602 -5.976676940917969 0.591562807559967 0.000000000000000
11.409038543701172 -8.587652206420898 1.123848199844360 0.000000000000000
11.409666061401367 -4.377932548522949 1.496189594268799 0.000000000000000
11.409937858581543 9.485502243041992 0.881529986858368 0.000000000000000
11.410849571228027 5.352035522460938 0.845971107482910 0.000000000000000
11.411630630493164 6.075080871582031 3.464034318923950 0.000000000000000
11.412979125976562 6.202938556671143 1.097625851631165 0.000000000000000
11.413496971130371 -1.384822964668274 0.395464003086090 0.000000000000000
11.417002677917480 -3.616862058639526 0.873173654079437 0.000000000000000
11.417935371398926 -0.352639347314835 1.216774344444275 0.000000000000000
11.424276351928711 -4.274544239044189 1.062877178192139 0.000000000000000
11.424599647521973 1.248775243759155 0.594258964061737 0.000000000000000
11.426418304443359 8.974282264709473 2.153275251388550 0.000000000000000
11.426990509033203 -4.188923358917236 1.004881501197815 0.000000000000000
11.430241584777832 8.869721412658691 0.025251410901546 0.000000000000000
11.435708045959473 -1.676239848136902 0.375337630510330 0.000000000000000
11.437506675720215 -6.886483192443848 0.999155044555664 0.000000000000000
11.446939468383789 9.306658744812012 1.075614929199219 0.000000000000000
11.447348594665527 -0.699347674846649 0.791912436485291 0.000000000000000
11.448105812072754 2.232753276824951 1.016348123550415 0.000000000000000
11.449489593505859 9.046165466308594 0.838809132575989 0.000000000000000
11.449968338012695 -4.498492717742920 0.968185305595398 0.000000000000000
11.453536987304688 2.248969316482544 3.127569437026978 0.000000000000000
11.455348014831543 -8.662355422973633 0.991681575775146 0.000000000000000
11.460670471191406 -1.206991910934448 1.095432043075562 0.000000000000000
11.461009979248047 8.937582015991211 0.639648199081421 0.000000000000000
11.461057662963867 1.057561397552490 0.572989106178284 0.000000000000000
11.465950012207031 -4.215467453002930 1.625663638114929 0.000000000000000
11.466888427734375 8.395880699157715 0.024804607033730 0.000000000000000
11.466919898986816 -2.895615100860596 2.459992647171021 0.000000000000000
11.468153953552246 -5.060688495635986 0.962323844432831 0.000000000000000
11.468668937683105 -9.303063392639160 1.338745236396790 0.000000000000000
11.470615386962891 -0.887046337127686 0.506336867809296 0.000000000000000
11.473106384277344 -6.767889499664307 1.125580191612244 0.000000000000000
11.474299430847168 -0.024432212114334 1.404804468154907 0.000000000000000
11.479656219482422 -6.054841041564941 1.382428526878357 0.000000000000000
11.479817390441895 -0.240668341517448 1.152162313461304 0.000000000000000
11.483694076538086 -3.995898962020874 0.839581489562988 0.000000000000000
11.487347602844238 -4.309575080871582 0.870853364467621 0.000000000000000
11.488234519958496 -1.574100852012634 0.867805123329163 0.000000000000000
11.488345146179199 9.324348449707031 0.338354974985123 0.000000000000000
11.491751670837402 -0.992868542671204 0.930075168609619 0.000000000000000
11.493173599243164 2.738914489746094 0.633674323558807 0.000000000000000
11.495871543884277 8.250889778137207 1.732430100440979 0.000000000000000
11.496834754943848 -1.147941827774048 0.775518178939819 0.000000000000000
11.498818397521973 -2.452960968017578 0.789180099964142 0.000000000000000
11.500797271728516 4.943274497985840 0.382464349269867 0.000000000000000
11.510581970214844 -0.150279909372330 0.750472247600555 0.000000000000000
11.515307426452637 -0.637556016445160 0.729633033275604 0.000000000000000
11.515948295593262 6.904718399047852 0.746000647544861 0.000000000000000
11.516448974609375 -4.385962963104248 0.779639005661011 0.000000000000000
11.518410682678223 -5.089592933654785 1.341332674026489 0.000000000000000
11.518730163574219 -4.670481204986572 1.247210621833801 0.000000000000000
11.518868446350098 -6.674030780792236 0.970613062381744 0.000000000000000
11.520506858825684 -4.457871913909912 0.876800715923309 0.000000000000000
11.520764350891113 8.960286140441895 0.782774150371552 0.000000000000000
11.522859573364258 -1.069348812103271 0.420294702053070 0.000000000000000
11.524078369140625 7.172551155090332 0.701874196529388 0.000000000000000
11.524097442626953 -2.115483283996582 0.515658140182495 0.000000000000000
11.525789260864258 -1.398447751998901 0.936183512210846 0.000000000000000
11.526416778564453 6.959774017333984 0.722148776054382 0.000000000000000
11.528142929077148 9.306033134460449 0.851664483547211 0.000000000000000
11.530295372009277 -1.107397794723511 0.621249318122864 0.000000000000000
11.530584335327148 -4.116971492767334 0.774587929248810 0.000000000000000
11.537604331970215 -5.764006614685059 0.890557050704956 0.000000000000000
11.538513183593750 -2.118129491806030 0.696968555450439 0.000000000000000
11.542205810546875 4.591099739074707 0.594488084316254 0.000000000000000
11.542350769042969 9.028264999389648 0.729511976242065 0.000000000000000
11.542570114135742 -3.162237644195557 1.200884580612183 0.000000000000000
11.543993949890137 7.240978240966797 0.494916975498199 0.000000000000000
11.544177055358887 -4.892130374908447 0.672448813915253 0.000000000000000
11.545433998107910 -5.859359741210938 0.146887272596359 1.000000000000000
11.545518875122070 9.427038192749023 0.283594042062759 0.000000000000000
11.551129341125488 9.064410209655762 0.166581138968468 0.000000000000000
11.557228088378906 -0.749803125858307 1.417928934097290 0.000000000000000
11.557562828063965 8.280819892883301 0.243210241198540 0.000000000000000
11.559864997863770 7.392562389373779 0.630290687084198 0.000000000000000
11.560378074645996 8.793267250061035 0.751034259796143 0.000000000000000
11.565080642700195 3.149099588394165 2.048830986022949 0.000000000000000
11.566197395324707 8.715121269226074 0.414639234542847 0.000000000000000
11.566520690917969 -1.631332993507385 0.851649761199951 0.000000000000000
11.567189216613770 9.455503463745117 0.341647058725357 0.000000000000000
11.567196846008301 9.046713829040527 1.127354979515076 0.000000000000000
11.568993568420410 9.321005821228027 0.311204373836517 0.000000000000000
11.570312500000000 8.708095550537109 1.261841177940369 0.000000000000000
11.571011543273926 1.305670857429504 0.602108061313629 0.000000000000000
11.571978569030762 -3.275848865509033 0.645028173923492 0.000000000000000
11.575639724731445 7.435427188873291 0.526122212409973 0.000000000000000
11.576203346252441 -3.016669273376465 0.641600608825684 0.000000000000000
11.576835632324219 -4.438367843627930 0.856114089488983 0.000000000000000
11.577617645263672 -1.234838128089905 0.759059488773346 0.000000000000000
11.578256607055664 8.487049102783203 1.630549073219299 0.000000000000000
11.578313827514648 -6.758232593536377 1.106916666030884 0.000000000000000
11.580532073974609 8.893118858337402 1.064562082290649 0.000000000000000
11.581002235412598 7.561667442321777 0.369426250457764 0.000000000000000
11.582844734191895 -1.115708947181702 0.601694941520691 0.000000000000000
11.583252906799316 -8.416035652160645 1.099186301231384 0.000000000000000
11.584887504577637 9.402706146240234 1.030257701873779 0.000000000000000
11.585667610168457 -3.258984327316284 0.552835047245026 0.000000000000000
11.586445808410645 9.152394294738770 0.820334434509277 0.000000000000000
11.587416648864746 5.130239486694336 1.349805951118469 0.000000000000000
11.590847015380859 9.474842071533203 1.265014767646790 0.000000000000000
11.593011856079102 -0.737902462482452 0.959130227565765 0.000000000000000
11.595335960388184 4.565421581268311 0.596400201320648 0.000000000000000
11.601255416870117 -6.275130748748779 0.834443569183350 0.000000000000000
11.601567268371582 8.212541580200195 0.981486499309540 0.000000000000000
11.602584838867188 -3.059470176696777 2.495833396911621 0.000000000000000
11.603088378906250 9.484848976135254 0.803768038749695 0.000000000000000
11.605037689208984 -3.432942152023315 0.579190790653229 0.000000000000000
11.614658355712891 7.346457004547119 1.161280870437622 0.000000000000000
11.615744590759277 -2.505895853042603 1.035445928573608 0.000000000000000
11.616012573242188 9.020699501037598 0.505880415439606 0.000000000000000
11.617136001586914 -2.376415729522705 3.177262783050537 0.000000000000000
11.619720458984375 6.290361404418945 1.014374494552612 0.000000000000000
11.621362686157227 -6.889839649200439 1.011096000671387 0.000000000000000
11.629850387573242 8.210340499877930 1.120396018028259 0.000000000000000
11.633667945861816 2.368800640106201 1.191299796104431 0.000000000000000
11.639030456542969 2.434491395950317 0.637744545936584 0.000000000000000
11.639075279235840 1.318288445472717 0.583132266998291 0.000000000000000
11.642233848571777 2.574201345443726 0.984474480152130 0.000000000000000
11.643137931823730 9.199165344238281 0.396340221166611 0.000000000000000
11.646599769592285 5.801959991455078 1.024048209190369 0.000000000000000
11.648967742919922 -5.779557704925537 0.047662045806646 1.000000000000000
11.649225234985352 6.341876029968262 0.099544279277325 0.000000000000000
11.649799346923828 6.384424686431885 0.303787916898727 0.000000000000000
11.650115013122559 -0.752562344074249 0.986482501029968 0.000000000000000
11.650523185729980 -5.788186073303223 0.422465831041336 1.000000000000000
11.654104232788086 -5.782105922698975 0.247526541352272 1.000000000000000
11.656565666198730 -4.080015659332275 1.239223361015320 0.000000000000000
11.658072471618652 8.553681373596191 0.970536172389984 0.000000000000000
11.658283233642578 -0.582831442356110 1.429108977317810 0.000000000000000
11.658568382263184 5.369246959686279 0.466171443462372 0.000000000000000
11.660083770751953 -4.140048980712891 1.121700167655945 0.000000000000000
11.660216331481934 9.128990173339844 0.310199141502380 0.000000000000000
11.662256240844727 8.894557952880859 0.617294490337372 0.000000000000000
11.663150787353516 9.005860328674316 1.245143651962280 0.000000000000000
11.663705825805664 -5.776218891143799 0.097683072090149 1.000000000000000
11.666482925415039 -4.350087165832520 0.787720799446106 0.000000000000000
11.667102813720703 -4.529588222503662 1.421539068222046 0.000000000000000
11.670973777770996 8.383980751037598 0.715391099452972 0.000000000000000
11.674026489257812 -4.428951740264893 1.661543250083923 0.000000000000000
11.674688339233398 -1.764379978179932 1.028848528862000 0.000000000000000
11.681062698364258 -0.429550021886826 1.555487394332886 0.000000000000000
11.684206008911133 -5.129494190216064 1.053595066070557 0.000000000000000
11.688963890075684 7.392885684967041 0.901659607887268 0.000000000000000
11.689943313598633 -1.851923346519470 0.977233290672302 0.000000000000000
11.694190025329590 -1.179398655891418 1.251938700675964 0.000000000000000
11.694679260253906 -3.196888685226440 0.767011225223541 0.000000000000000
11.695523262023926 2.830307006835938 1.016794323921204 0.000000000000000
11.695944786071777 8.847505569458008 0.814787149429321 0.000000000000000
11.698450088500977 9.098481178283691 0.338903665542603 0.000000000000000
11.699770927429199 -0.152749925851822 1.328996896743774 0.000000000000000
11.701974868774414 7.435191154479980 0.877125442028046 0.000000000000000
11.705582618713379 9.104028701782227 0.567086994647980 0.000000000000000
11.706934928894043 -1.812747597694397 2.464065313339233 0.000000000000000
11.708995819091797 -9.158604621887207 1.227383852005005 0.000000000000000
11.711710929870605 8.352034568786621 1.215505361557007 0.000000000000000
11.713024139404297 5.835050582885742 1.393867492675781 0.000000000000000
11.719438552856445 -2.193656682968140 0.708355367183685 0.000000000000000
11.727790832519531 -3.099929809570312 0.650597989559174 0.000000000000000
11.731430053710938 -4.649065494537354 1.017520904541016 0.000000000000000
11.733238220214844 -4.364017963409424 1.532646536827087 0.000000000000000
11.735130310058594 6.429590702056885 0.280293375253677 0.000000000000000
11.739910125732422 -1.732342958450317 1.034057021141052 0.000000000000000
11.742096900939941 -7.448599338531494 1.481142997741699 0.000000000000000
11.746689796447754 8.950525283813477 0.593147933483124 0.000000000000000
11.752626419067383 -3.343167304992676 1.301507830619812 0.000000000000000
11.758179664611816 -0.276686221361160 0.585518896579742 0.000000000000000
11.758580207824707 -1.385060667991638 1.344796657562256 0.000000000000000
11.760776519775391 -1.488234043121338 1.126849055290222 0.000000000000000
11.763434410095215 1.536991477012634 1.578703522682190 0.000000000000000
11.768496513366699 1.010576128959656 1.446122288703918 0.000000000000000
11.768603324890137 2.772875070571899 0.998298645019531 0.000000000000000
11.772535324096680 -0.532938718795776 0.518647968769073 0.000000000000000
11.773819923400879 -7.411213397979736 0.880156099796295 0.000000000000000
11.774790763854980 4.880167007446289 1.447721719741821 0.000000000000000
11.774941444396973 -0.353997349739075 0.609130918979645 0.000000000000000
11.776367187500000 7.005087375640869 2.030716657638550 0.000000000000000
11.779087066650391 8.894886970520020 0.763221025466919 0.000000000000000
11.780474662780762 8.299754142761230 2.135683059692383 0.000000000000000
11.784704208374023 7.686460494995117 1.188898324966431 0.000000000000000
11.785163879394531 -2.524583816528320 0.925276100635529 0.000000000000000
11.791383743286133 -5.656824111938477 0.223712384700775 1.000000000000000
11.792055130004883 1.406538486480713 1.348859548568726 0.000000000000000
11.796139717102051 -4.722417831420898 1.443207502365112 0.000000000000000
11.802280426025391 -0.542541444301605 1.123063921928406 0.000000000000000
11.802691459655762 1.082022905349731 0.430457264184952 0.000000000000000
11.808167457580566 -4.469472408294678 1.545771002769470 0.000000000000000
11.809681892395020 -0.721483528614044 1.574482440948486 0.000000000000000
11.810031890869141 7.912397384643555 1.514189124107361 0.000000000000000
11.810398101806641 -5.267963409423828 1.017771482467651 0.000000000000000
11.810520172119141 -1.660280704498291 0.892582535743713 0.000000000000000
11.815251350402832 -4.529772758483887 0.678661346435547 0.000000000000000
11.819991111755371 -4.999767780303955 0.935709416866302 0.000000000000000
11.821800231933594 -2.394860744476318 1.476745963096619 0.000000000000000
11.823122978210449 6.966578483581543 0.498401284217834 0.000000000000000
11.825154304504395 -0.393520623445511 1.574482440948486 0.000000000000000
11.825263977050781 -1.285474061965942 1.036487579345703 0.000000000000000
11.826609611511230 -1.412750124931335 0.891388416290283 0.000000000000000
11.827994346618652 7.864754676818848 1.117885351181030 0.000000000000000
11.829291343688965 8.413171768188477 0.025335187092423 0.000000000000000
11.830969810485840 9.148634910583496 0.112242475152016 0.000000000000000
11.832169532775879 5.537811756134033 0.022800970822573 0.000000000000000
11.832760810852051 2.287410259246826 1.283713817596436 0.000000000000000
11.836418151855469 -7.168107986450195 1.473940730094910 0.000000000000000
11.838276863098145 -4.781051158905029 0.856954216957092 0.000000000000000
11.839552879333496 -4.265069484710693 0.771896421909332 0.000000000000000
11.839739799499512 6.364653110504150 0.229938015341759 0.000000000000000
11.842255592346191 -4.872806549072266 0.686801791191101 0.000000000000000
11.845407485961914 0.749191462993622 0.911191761493683 0.000000000000000
11.845619201660156 4.248812198638916 0.432865321636200 0.000000000000000
11.848577499389648 -8.619242668151855 2.171453714370728 0.000000000000000
11.852736473083496 5.167009353637695 1.720639109611511 0.000000000000000
11.854305267333984 -1.753028392791748 0.989411652088165 0.000000000000000
11.855264663696289 -6.305945396423340 1.430302977561951 0.000000000000000
11.856463432312012 7.611124992370605 0.728519737720490 0.000000000000000
11.859086036682129 -6.814320087432861 1.129298567771912 0.000000000000000
11.864459991455078 -1.036127924919128 0.730509817600250 0.000000000000000
11.870381355285645 -4.581351280212402 1.108711838722229 0.000000000000000
11.871770858764648 7.834234714508057 0.680726110935211 0.000000000000000
11.873301506042480 7.169226646423340 0.530402123928070 0.000000000000000
11.876626968383789 -1.538499951362610 1.201683282852173 0.000000000000000
11.878281593322754 8.799744606018066 0.394845008850098 0.000000000000000
11.878286361694336 6.501018524169922 1.538006782531738 0.000000000000000
11.881230354309082 5.321703433990479 0.673162996768951 0.000000000000000
11.882587432861328 -5.548264980316162 0.224328100681305 1.000000000000000
11.883025169372559 -4.573129653930664 1.002079606056213 0.000000000000000
11.883623123168945 1.459553360939026 0.411827087402344 0.000000000000000
11.883646011352539 7.080144405364990 2.050068140029907 0.000000000000000
11.886057853698730 5.388752937316895 1.597782850265503 0.000000000000000
11.887948036193848 -5.668222904205322 2.739388942718506 0.000000000000000
11.887961387634277 -0.099176079034805 0.683397591114044 0.000000000000000
11.888469696044922 7.321852684020996 0.399757087230682 0.000000000000000
11.888969421386719 7.325881481170654 1.099055051803589 0.000000000000000
11.891797065734863 8.879384040832520 1.410737872123718 0.000000000000000
11.893006324768066 -4.624698162078857 1.004276514053345 0.000000000000000
11.894617080688477 0.979589283466339 1.461191058158875 0.000000000000000
11.895896911621094 5.185824394226074 0.896067917346954 0.000000000000000
11.897303581237793 7.998270988464355 0.052544068545103 0.000000000000000
11.899682044982910 -4.935824394226074 0.740557789802551 0.000000000000000
11.901418685913086 4.387833595275879 2.638382673263550 0.000000000000000
11.901506423950195 -0.594158530235291 0.685004532337189 0.000000000000000
11.902306556701660 -6.715091228485107 3.661772012710571 0.000000000000000
11.905710220336914 8.142244338989258 1.079457640647888 0.000000000000000
11.906239509582520 4.860783100128174 1.061823606491089 0.000000000000000
11.907828330993652 -1.369148135185242 0.573645591735840 0.000000000000000
11.909545898437500 -0.837391912937164 0.709304332733154 0.000000000000000
11.913178443908691 8.588584899902344 0.223019376397133 0.000000000000000
11.913621902465820 2.632026433944702 1.493759274482727 0.000000000000000
11.914216041564941 7.477837562561035 0.971291303634644 0.000000000000000
11.915710449218750 -5.478598594665527 0.173972114920616 1.000000000000000
11.916506767272949 2.795872211456299 1.628829479217529 0.000000000000000
11.917317390441895 -4.063485145568848 1.430116176605225 0.000000000000000
11.918372154235840 6.219123363494873 0.126704841852188 0.000000000000000
11.923603057861328 7.683953285217285 0.651581823825836 0.000000000000000
11.928782463073730 -1.650587081909180 0.785081446170807 0.000000000000000
11.929381370544434 8.297620773315430 0.695449650287628 0.000000000000000
11.930117607116699 -5.894159317016602 1.098688006401062 0.000000000000000
11.931676864624023 -0.485691815614700 0.732468962669373 0.000000000000000
11.932045936584473 4.654993534088135 0.046943668276072 0.000000000000000
11.937298774719238 7.002447605133057 1.205936789512634 0.000000000000000
11.937581062316895 -1.647133708000183 0.646313548088074 0.000000000000000
11.940816879272461 8.846073150634766 1.083468317985535 0.000000000000000
11.947917938232422 3.749290466308594 2.140489101409912 0.000000000000000
11.948369979858398 -2.371042490005493 0.864622950553894 0.000000000000000
11.951282501220703 -0.791917622089386 0.734673023223877 0.000000000000000
11.951464653015137 -2.327026128768921 0.699925899505615 0.000000000000000
11.955930709838867 8.061034202575684 1.446892142295837 0.000000000000000
11.957844734191895 -4.166969776153564 0.654779553413391 0.000000000000000
11.962120056152344 -2.379848003387451 0.818647146224976 0.000000000000000
11.965147018432617 0.897984325885773 1.087753057479858 0.000000000000000
11.968439102172852 -5.230872631072998 1.053206443786621 1.000000000000000
11.968680381774902 4.775985240936279 1.714835166931152 0.000000000000000
11.972920417785645 0.940611064434052 2.052874803543091 0.000000000000000
11.974116325378418 -5.283211708068848 1.486544370651245 0.000000000000000
11.978253364562988 2.027687072753906 0.815432548522949 0.000000000000000
11.979207992553711 4.369076728820801 2.652230262756348 0.000000000000000
11.979836463928223 -1.792750120162964 0.742999315261841 0.000000000000000
11.980394363403320 8.138505935668945 1.453281998634338 0.000000000000000
11.984055519104004 4.255075931549072 1.556951045989990 0.000000000000000
11.988679885864258 -0.858517885208130 0.829937458038330 0.000000000000000
11.992558479309082 7.825611591339111 1.016420483589172 0.000000000000000
11.992695808410645 8.410487174987793 0.053687606006861 0.000000000000000
11.993058204650879 -0.103401720523834 0.666341483592987 0.000000000000000
11.993581771850586 -5.873517990112305 1.102637767791748 0.000000000000000
11.993644714355469 8.671751022338867 0.765286564826965 0.000000000000000
11.994379043579102 8.751582145690918 1.293786525726318 0.000000000000000
12.004909515380859 -0.649742305278778 0.783780276775360 0.000000000000000
12.006319999694824 4.696045398712158 0.641803503036499 0.000000000000000
12.007346153259277 -0.879868209362030 1.208073019981384 0.000000000000000
12.007931709289551 7.582004070281982 0.871077299118042 0.000000000000000
12.009034156799316 8.433204650878906 0.532954037189484 0.000000000000000
12.009990692138672 -0.079444825649261 0.574792861938477 0.000000000000000
12.010777473449707 -8.964953422546387 1.702325701713562 0.000000000000000
12.014524459838867 -2.004506349563599 0.817575573921204 0.000000000000000
12.014622688293457 -5.382958889007568 0.528776526451111 1.000000000000000
12.015481948852539 4.961750030517578 0.972885072231293 0.000000000000000
12.016060829162598 8.767402648925781 1.055785894393921 0.000000000000000
12.017254829406738 1.061516284942627 0.438151776790619 0.000000000000000
12.017660140991211 8.421424865722656 1.154917955398560 0.000000000000000
12.020870208740234 7.087620258331299 0.963576138019562 0.000000000000000
12.022417068481445 5.501250267028809 1.618684768676758 0.000000000000000
12.025117874145508 -0.697996675968170 0.252314269542694 0.000000000000000
12.026008605957031 1.062289595603943 0.810342788696289 0.000000000000000
12.029521942138672 7.371124267578125 0.946962535381317 0.000000000000000
12.030182838439941 8.423002243041992 0.646331369876862 0.000000000000000
12.032229423522949 -1.509144306182861 0.954376518726349 0.000000000000000
12.033750534057617 7.893277645111084 0.495017528533936 0.000000000000000
12.034052848815918 -5.442182540893555 0.124480620026588 0.000000000000000
12.039241790771484 0.615780472755432 0.995336294174194 0.000000000000000
12.040132522583008 1.530420899391174 1.615110754966736 0.000000000000000
12.044960975646973 -4.333602428436279 0.834523081779480 0.000000000000000
