# This PCD file was generated using the MATLAB® pcwrite function
# from Computer Vision Toolbox®.
# .PCD v.7 - Point Cloud Data file format
VERSION .7
FIELDS x y z intensity
SIZE 8 8 8 8
TYPE F F F F
COUNT 1 1 1 1
WIDTH 643
HEIGHT 1
VIEWPOINT 0 0 0 1 0 0 0
POINTS 643
DATA ascii
18.678760528564453 -11.565980911254883 1.856432676315308 0.000000000000000
18.685291290283203 20.116230010986328 3.118447780609131 0.000000000000000
18.685811996459961 -16.059854507446289 2.233649730682373 0.000000000000000
18.686841964721680 3.985307693481445 0.583774268627167 0.000000000000000
18.687591552734375 23.302591323852539 1.027436375617981 0.000000000000000
18.687885284423828 18.983106613159180 2.672936677932739 0.000000000000000
18.687990188598633 23.416749954223633 0.857783496379852 0.000000000000000
18.689771652221680 18.360626220703125 1.657522082328796 0.000000000000000
18.690135955810547 16.970365524291992 0.383360087871552 0.000000000000000
18.692592620849609 18.836034774780273 0.402977555990219 0.000000000000000
18.695043563842773 -18.572109222412109 -0.004599291831255 1.000000000000000
18.698844909667969 22.738462448120117 1.295652627944946 0.000000000000000
18.700469970703125 21.909379959106445 1.046163558959961 0.000000000000000
18.701440811157227 18.781251907348633 0.911657214164734 0.000000000000000
18.701953887939453 -11.823798179626465 1.655904769897461 0.000000000000000
18.713304519653320 -20.351274490356445 0.844695329666138 1.000000000000000
18.716384887695312 -19.022010803222656 -0.568310260772705 1.000000000000000
18.719738006591797 14.850912094116211 1.327579379081726 0.000000000000000
18.724386215209961 8.838184356689453 -0.520494639873505 0.000000000000000
18.724533081054688 -11.171366691589355 1.673886418342590 0.000000000000000
18.724765777587891 18.784339904785156 1.677979230880737 0.000000000000000
18.727092742919922 11.540827751159668 1.858790278434753 0.000000000000000
18.729997634887695 22.497198104858398 2.303873062133789 0.000000000000000
18.730150222778320 20.306203842163086 1.800977349281311 0.000000000000000
18.736736297607422 -1.074447512626648 1.404548764228821 0.000000000000000
18.738296508789062 20.285894393920898 0.472395718097687 0.000000000000000
18.740591049194336 15.720768928527832 -0.849930882453918 0.000000000000000
18.745140075683594 -9.956899642944336 1.465616583824158 0.000000000000000
18.745246887207031 2.236568450927734 0.721927642822266 0.000000000000000
18.745403289794922 16.323314666748047 0.759431838989258 0.000000000000000
18.745788574218750 -19.319845199584961 -0.159745559096336 0.000000000000000
18.760128021240234 19.054494857788086 0.662845909595490 0.000000000000000
18.760467529296875 15.506764411926270 -0.144435629248619 0.000000000000000
18.761085510253906 3.159060955047607 1.276993036270142 0.000000000000000
18.765445709228516 -20.068628311157227 1.420685768127441 1.000000000000000
18.767333984375000 -1.875213503837585 1.593729972839355 0.000000000000000
18.768020629882812 16.983209609985352 0.481584817171097 0.000000000000000
18.773487091064453 20.381717681884766 1.592910885810852 0.000000000000000
18.774934768676758 19.319513320922852 1.237454771995544 0.000000000000000
18.776119232177734 -4.776201725006104 1.599647521972656 0.000000000000000
18.776784896850586 20.547348022460938 2.645843029022217 0.000000000000000
18.780878067016602 20.096384048461914 1.846242070198059 0.000000000000000
18.782571792602539 14.069578170776367 1.303836941719055 0.000000000000000
18.783815383911133 18.692907333374023 0.453308343887329 0.000000000000000
18.786918640136719 -1.208968877792358 0.828535318374634 0.000000000000000
18.787216186523438 20.482561111450195 2.241117715835571 0.000000000000000
18.788301467895508 16.685722351074219 -0.052627917379141 0.000000000000000
18.791984558105469 3.243237018585205 1.728776216506958 0.000000000000000
18.792137145996094 17.151176452636719 -0.541823744773865 0.000000000000000
18.800329208374023 -1.143948912620544 1.790391683578491 0.000000000000000
18.805732727050781 -18.843845367431641 0.302033245563507 1.000000000000000
18.806411743164062 16.445219039916992 0.523309230804443 0.000000000000000
18.807035446166992 18.680099487304688 2.309787511825562 0.000000000000000
18.808515548706055 15.096525192260742 0.829566895961761 0.000000000000000
18.811155319213867 -4.494635581970215 1.410108447074890 0.000000000000000
18.812194824218750 23.404356002807617 0.859729588031769 0.000000000000000
18.817111968994141 19.491155624389648 1.609575152397156 0.000000000000000
18.817239761352539 -5.307364940643311 0.898081600666046 0.000000000000000
18.819206237792969 15.495718002319336 0.323379099369049 0.000000000000000
18.823596954345703 16.391403198242188 -0.771320581436157 0.000000000000000
18.826107025146484 17.529842376708984 -0.646647632122040 0.000000000000000
18.826519012451172 15.815254211425781 -0.098702304065228 0.000000000000000
18.827890396118164 20.452239990234375 1.651564002037048 0.000000000000000
18.828769683837891 21.403676986694336 0.542382121086121 0.000000000000000
18.833169937133789 -7.873838901519775 1.606528639793396 0.000000000000000
18.834774017333984 4.673007011413574 0.742104351520538 0.000000000000000
18.837814331054688 18.944660186767578 1.124418020248413 0.000000000000000
18.837854385375977 13.943860054016113 0.716067135334015 0.000000000000000
18.838468551635742 2.114409208297729 1.016706705093384 0.000000000000000
18.839460372924805 2.812559366226196 2.028945684432983 0.000000000000000
18.845312118530273 2.460291147232056 3.953094005584717 0.000000000000000
18.848669052124023 8.904099464416504 -0.764387726783752 0.000000000000000
18.849403381347656 20.435491561889648 3.157721757888794 0.000000000000000
18.850660324096680 21.305307388305664 0.158882796764374 0.000000000000000
18.852668762207031 -3.551344394683838 0.955048084259033 0.000000000000000
18.856319427490234 -9.768341064453125 1.794461727142334 0.000000000000000
18.856864929199219 20.746694564819336 0.102757081389427 0.000000000000000
18.861864089965820 20.356136322021484 1.167981743812561 0.000000000000000
18.864170074462891 2.842168569564819 1.280475497245789 0.000000000000000
18.866094589233398 20.058044433593750 1.476859569549561 0.000000000000000
18.866607666015625 16.544996261596680 1.152657389640808 0.000000000000000
18.866714477539062 3.493677616119385 2.043774127960205 0.000000000000000
18.868841171264648 -15.041777610778809 1.480121135711670 0.000000000000000
18.870443344116211 -17.499933242797852 2.446363925933838 0.000000000000000
18.871809005737305 20.912260055541992 1.565003752708435 0.000000000000000
18.876392364501953 13.965757369995117 0.943097174167633 0.000000000000000
18.876455307006836 16.941635131835938 -0.442732661962509 0.000000000000000
18.878334045410156 -24.014225006103516 -0.591851592063904 1.000000000000000
18.880908966064453 18.855886459350586 1.533914208412170 0.000000000000000
18.883060455322266 -2.590351104736328 0.875505745410919 0.000000000000000
18.885351181030273 8.416602134704590 0.036086410284042 0.000000000000000
18.889820098876953 8.997040748596191 -0.204504668712616 0.000000000000000
18.890470504760742 -1.958138227462769 1.238123178482056 0.000000000000000
18.890707015991211 23.681779861450195 1.449793577194214 0.000000000000000
18.891578674316406 16.856647491455078 -0.685104846954346 0.000000000000000
18.893289566040039 -8.351847648620605 1.665647864341736 0.000000000000000
18.894477844238281 6.841204643249512 2.674087524414062 0.000000000000000
18.899101257324219 -18.937400817871094 0.714608609676361 1.000000000000000
18.905908584594727 20.047729492187500 1.690237760543823 0.000000000000000
18.910671234130859 -8.070375442504883 2.063109397888184 0.000000000000000
18.911315917968750 -12.216026306152344 1.728386402130127 0.000000000000000
18.913471221923828 18.626493453979492 1.935408830642700 0.000000000000000
18.914091110229492 23.346960067749023 1.785122036933899 0.000000000000000
18.914220809936523 20.993097305297852 2.060189485549927 0.000000000000000
18.914344787597656 -13.108637809753418 2.005264997482300 0.000000000000000
18.919502258300781 -14.288991928100586 2.253698110580444 0.000000000000000
18.919832229614258 21.709632873535156 1.045873284339905 0.000000000000000
18.920928955078125 -2.425169467926025 1.662199735641479 0.000000000000000
18.921186447143555 4.075014591217041 1.635493040084839 0.000000000000000
18.921190261840820 19.462533950805664 2.031446218490601 0.000000000000000
18.926660537719727 1.921163201332092 1.657685637474060 0.000000000000000
18.929468154907227 22.398408889770508 2.194737911224365 0.000000000000000
18.936311721801758 18.154193878173828 1.104065656661987 0.000000000000000
18.937810897827148 9.370339393615723 3.131397008895874 0.000000000000000
18.938007354736328 -3.203464031219482 0.586828112602234 0.000000000000000
18.938810348510742 20.174140930175781 1.271043300628662 0.000000000000000
18.944847106933594 11.505975723266602 1.616040229797363 0.000000000000000
18.945034027099609 -4.889643192291260 1.011706829071045 0.000000000000000
18.945520401000977 11.640791893005371 -0.729874670505524 0.000000000000000
18.948810577392578 21.821935653686523 0.938538908958435 0.000000000000000
18.955171585083008 -18.850919723510742 0.765399754047394 1.000000000000000
18.955501556396484 -7.286205768585205 1.715987801551819 0.000000000000000
18.964235305786133 15.549160957336426 1.882701039314270 0.000000000000000
18.964408874511719 13.789580345153809 0.085941225290298 0.000000000000000
18.965330123901367 22.105371475219727 0.330439627170563 0.000000000000000
18.966033935546875 15.797412872314453 -0.478254526853561 0.000000000000000
18.967552185058594 19.295461654663086 1.294909358024597 0.000000000000000
18.972452163696289 13.074543952941895 1.857899904251099 0.000000000000000
18.972822189331055 21.499242782592773 0.765873312950134 0.000000000000000
18.975065231323242 16.182201385498047 1.866363167762756 0.000000000000000
18.975471496582031 -19.831735610961914 -0.162878751754761 1.000000000000000
18.980003356933594 19.505311965942383 1.984274029731750 0.000000000000000
18.980264663696289 15.505315780639648 0.607534408569336 0.000000000000000
18.983272552490234 -18.379371643066406 0.249036654829979 1.000000000000000
18.984006881713867 14.820195198059082 1.245320558547974 0.000000000000000
18.990695953369141 10.332153320312500 2.169339895248413 0.000000000000000
18.993951797485352 19.802551269531250 0.205932959914207 0.000000000000000
18.994840621948242 14.970026969909668 2.192479610443115 0.000000000000000
18.998592376708984 -19.917047500610352 -0.903485596179962 1.000000000000000
19.000511169433594 -11.653565406799316 2.728917837142944 0.000000000000000
19.003055572509766 -19.224563598632812 -0.679517865180969 1.000000000000000
19.003637313842773 19.943239212036133 1.159403562545776 0.000000000000000
19.016019821166992 -9.220972061157227 1.337029099464417 0.000000000000000
19.017471313476562 6.661314487457275 2.681474447250366 0.000000000000000
19.021278381347656 -10.866271018981934 3.744508266448975 0.000000000000000
19.022911071777344 17.029968261718750 0.632910251617432 0.000000000000000
19.029630661010742 18.872186660766602 1.954024195671082 0.000000000000000
19.029767990112305 -2.422242164611816 1.671574950218201 0.000000000000000
19.029968261718750 -20.528203964233398 0.478826612234116 1.000000000000000
19.040195465087891 -12.363902091979980 1.830573081970215 0.000000000000000
19.041458129882812 16.581115722656250 -1.168629288673401 0.000000000000000
19.046897888183594 19.807888031005859 0.945208489894867 0.000000000000000
19.050525665283203 17.154390335083008 0.093960642814636 0.000000000000000
19.050703048706055 -1.504676342010498 0.730793178081512 0.000000000000000
19.051805496215820 20.012664794921875 0.844206690788269 0.000000000000000
19.054075241088867 2.619573593139648 1.828243613243103 0.000000000000000
19.054172515869141 3.423581361770630 1.374107599258423 0.000000000000000
19.057111740112305 21.015596389770508 0.376329451799393 0.000000000000000
19.057914733886719 4.702593326568604 0.939440250396729 0.000000000000000
19.062389373779297 -3.461473703384399 1.001792192459106 0.000000000000000
19.070945739746094 19.228696823120117 1.087732195854187 0.000000000000000
19.072738647460938 -11.518128395080566 1.624475240707397 0.000000000000000
19.078607559204102 -11.430978775024414 1.621566653251648 0.000000000000000
19.080963134765625 23.413097381591797 0.516659319400787 0.000000000000000
19.081518173217773 15.206428527832031 0.464235901832581 0.000000000000000
19.081678390502930 19.045751571655273 1.913611888885498 0.000000000000000
19.089210510253906 2.986218690872192 1.222368955612183 0.000000000000000
19.091638565063477 16.812608718872070 0.923922419548035 0.000000000000000
19.091953277587891 -7.797502517700195 1.424009561538696 0.000000000000000
19.096614837646484 20.167308807373047 2.517866611480713 0.000000000000000
19.099058151245117 7.991653919219971 -0.122859284281731 0.000000000000000
19.099885940551758 15.868860244750977 0.043339993804693 0.000000000000000
19.100257873535156 -10.823133468627930 3.752595663070679 0.000000000000000
19.102531433105469 9.105715751647949 -0.775967121124268 0.000000000000000
19.103935241699219 14.037861824035645 1.088967561721802 0.000000000000000
19.107818603515625 -5.260299682617188 1.883885741233826 0.000000000000000
19.110628128051758 20.193382263183594 2.642815113067627 0.000000000000000
19.110921859741211 -1.503386259078979 3.276781797409058 0.000000000000000
19.111486434936523 -19.284383773803711 0.308023095130920 1.000000000000000
19.116703033447266 -1.918884396553040 1.289583444595337 0.000000000000000
19.122240066528320 -5.951521873474121 1.614852190017700 0.000000000000000
19.123538970947266 20.783584594726562 1.188670396804810 0.000000000000000
19.127603530883789 -21.441209793090820 -1.495780587196350 1.000000000000000
19.127716064453125 19.245590209960938 1.507533669471741 0.000000000000000
19.132402420043945 -12.563816070556641 2.175723314285278 0.000000000000000
19.136356353759766 18.580724716186523 1.893221139907837 0.000000000000000
19.138069152832031 20.035253524780273 0.527163803577423 0.000000000000000
19.139350891113281 -7.891016483306885 1.110322475433350 0.000000000000000
19.139741897583008 -10.983181953430176 2.350509643554688 0.000000000000000
19.142005920410156 -15.599602699279785 0.849367618560791 1.000000000000000
19.142612457275391 18.093423843383789 3.903691053390503 0.000000000000000
19.145952224731445 8.402098655700684 -0.806875765323639 0.000000000000000
19.147851943969727 18.678445816040039 2.053549528121948 0.000000000000000
19.148073196411133 -11.112255096435547 3.784271717071533 0.000000000000000
19.150701522827148 2.896951436996460 1.755861759185791 0.000000000000000
19.151861190795898 27.794372558593750 -0.978205382823944 0.000000000000000
19.155847549438477 21.320320129394531 3.052951097488403 0.000000000000000
19.156185150146484 11.540252685546875 1.587360501289368 0.000000000000000
19.157768249511719 1.638702750205994 0.883214533329010 0.000000000000000
19.163827896118164 20.040481567382812 1.754250884056091 0.000000000000000
19.165714263916016 16.649936676025391 2.301543951034546 0.000000000000000
19.166479110717773 4.013159275054932 2.902113199234009 0.000000000000000
19.168445587158203 19.294666290283203 1.196988105773926 0.000000000000000
19.170682907104492 -7.581696987152100 1.868898391723633 0.000000000000000
19.173715591430664 -6.817650318145752 3.015875339508057 0.000000000000000
19.174678802490234 -5.902199268341064 2.136981010437012 0.000000000000000
19.175861358642578 22.548322677612305 0.506328880786896 0.000000000000000
19.179168701171875 -16.983816146850586 3.409092187881470 0.000000000000000
19.182352066040039 -1.200465083122253 1.178905248641968 0.000000000000000
19.182708740234375 -20.804124832153320 1.463236093521118 1.000000000000000
19.183839797973633 2.325240373611450 1.520851254463196 0.000000000000000
19.186311721801758 27.872474670410156 1.228944540023804 0.000000000000000
19.191625595092773 -1.515806794166565 1.626736283302307 0.000000000000000
19.193620681762695 -7.454736709594727 2.740042686462402 0.000000000000000
19.197132110595703 4.576244831085205 1.875936865806580 0.000000000000000
19.200841903686523 20.220035552978516 1.334490895271301 0.000000000000000
19.203796386718750 -13.190508842468262 3.452746391296387 0.000000000000000
19.206472396850586 14.140584945678711 1.187346458435059 0.000000000000000
19.207323074340820 16.922798156738281 0.683743000030518 0.000000000000000
19.207710266113281 -6.051745891571045 2.287373304367065 0.000000000000000
19.209852218627930 18.782812118530273 1.492666959762573 0.000000000000000
19.211200714111328 2.357478857040405 1.373824357986450 0.000000000000000
19.213100433349609 -1.996326684951782 1.296548485755920 0.000000000000000
19.216087341308594 -19.223464965820312 0.412755906581879 1.000000000000000
19.216608047485352 2.792776107788086 1.948492050170898 0.000000000000000
19.219289779663086 11.572782516479492 1.549106359481812 0.000000000000000
19.219789505004883 21.367469787597656 2.883800268173218 0.000000000000000
19.220405578613281 -11.417686462402344 1.845848560333252 0.000000000000000
19.222076416015625 -6.644219875335693 1.639928579330444 0.000000000000000
19.224956512451172 -11.315778732299805 2.238429784774780 0.000000000000000
19.225765228271484 -1.001186728477478 1.180864334106445 0.000000000000000
19.227664947509766 15.924606323242188 1.050746321678162 0.000000000000000
19.231447219848633 19.971189498901367 0.900368928909302 0.000000000000000
19.233293533325195 2.829152107238770 1.304852843284607 0.000000000000000
19.234415054321289 17.323623657226562 0.343381375074387 0.000000000000000
19.234458923339844 -5.262313365936279 1.530900120735168 0.000000000000000
19.236637115478516 -0.986604332923889 0.736601650714874 0.000000000000000
19.237714767456055 27.854412078857422 -0.005908288527280 1.000000000000000
19.238435745239258 -2.559778690338135 1.527441740036011 0.000000000000000
19.244352340698242 19.171277999877930 2.137853622436523 0.000000000000000
19.246013641357422 14.721091270446777 1.019797444343567 0.000000000000000
19.249414443969727 17.399906158447266 0.045287780463696 0.000000000000000
19.249969482421875 -12.434783935546875 2.299532175064087 0.000000000000000
19.253625869750977 2.569664239883423 1.760917663574219 0.000000000000000
19.255861282348633 -13.361254692077637 3.118889331817627 0.000000000000000
19.255884170532227 15.962716102600098 -0.052384968847036 0.000000000000000
19.256212234497070 19.424308776855469 2.099782705307007 0.000000000000000
19.257795333862305 16.539787292480469 2.413054466247559 0.000000000000000
19.259553909301758 20.187810897827148 1.872762441635132 0.000000000000000
19.262077331542969 -5.291555881500244 2.004402875900269 0.000000000000000
19.263904571533203 20.709394454956055 0.483820796012878 0.000000000000000
19.270906448364258 -12.693314552307129 2.825163841247559 0.000000000000000
19.272966384887695 -10.533722877502441 2.339494228363037 0.000000000000000
19.275218963623047 22.948532104492188 1.261332869529724 0.000000000000000
19.277458190917969 -14.251035690307617 2.088947772979736 0.000000000000000
19.279548645019531 18.277065277099609 0.862718343734741 0.000000000000000
19.281009674072266 18.997737884521484 1.921258449554443 0.000000000000000
19.282201766967773 -10.696220397949219 2.504508972167969 0.000000000000000
19.282407760620117 22.004411697387695 0.781466305255890 0.000000000000000
19.284341812133789 19.403181076049805 2.383747816085815 0.000000000000000
19.288934707641602 2.948516130447388 1.234491586685181 0.000000000000000
19.291198730468750 19.982223510742188 2.640165328979492 0.000000000000000
19.294410705566406 18.403383255004883 0.660962522029877 0.000000000000000
19.297578811645508 15.413886070251465 1.753034949302673 0.000000000000000
19.299728393554688 2.160714626312256 1.303513407707214 0.000000000000000
19.299758911132812 22.148700714111328 1.915213465690613 0.000000000000000
19.305606842041016 -19.081829071044922 -1.465340971946716 1.000000000000000
19.305679321289062 19.012750625610352 1.140396952629089 0.000000000000000
19.311466217041016 -14.585023880004883 1.811136484146118 0.000000000000000
19.312704086303711 -1.179182529449463 2.867515325546265 0.000000000000000
19.314125061035156 19.161014556884766 1.773654341697693 0.000000000000000
19.316102981567383 -15.297682762145996 1.986817955970764 0.000000000000000
19.317907333374023 0.928239524364471 1.522106647491455 0.000000000000000
19.321245193481445 23.262651443481445 1.098283052444458 0.000000000000000
19.324304580688477 4.851067066192627 2.262996196746826 0.000000000000000
19.325901031494141 1.633710861206055 0.816275298595428 0.000000000000000
19.333395004272461 16.208854675292969 1.401691317558289 0.000000000000000
19.333463668823242 17.503488540649414 1.448954224586487 0.000000000000000
19.334438323974609 -8.721303939819336 1.669295907020569 0.000000000000000
19.345106124877930 -4.693656921386719 1.804615497589111 0.000000000000000
19.347242355346680 0.189440637826920 1.522734284400940 0.000000000000000
19.348287582397461 22.235713958740234 2.672073364257812 0.000000000000000
19.349985122680664 18.540414810180664 1.488894820213318 0.000000000000000
19.351566314697266 -0.504034698009491 1.598331093788147 0.000000000000000
19.354011535644531 19.341863632202148 1.362166762351990 0.000000000000000
19.356683731079102 -12.680656433105469 1.821192741394043 0.000000000000000
19.356912612915039 21.026903152465820 2.138914346694946 0.000000000000000
19.362222671508789 10.577683448791504 0.462157338857651 0.000000000000000
19.362251281738281 6.033640384674072 2.482955455780029 0.000000000000000
19.367422103881836 -20.950092315673828 1.200780868530273 1.000000000000000
19.368909835815430 22.668476104736328 1.082894086837769 0.000000000000000
19.370706558227539 -1.221756458282471 1.227925181388855 0.000000000000000
19.372041702270508 17.043939590454102 -0.698196649551392 0.000000000000000
19.378646850585938 21.528228759765625 2.391571760177612 0.000000000000000
19.380361557006836 13.324240684509277 1.805543780326843 0.000000000000000
19.382648468017578 20.718551635742188 0.158458322286606 0.000000000000000
19.383182525634766 15.913607597351074 0.236369937658310 0.000000000000000
19.383726119995117 18.302116394042969 1.481128573417664 0.000000000000000
19.385766983032227 2.178577661514282 1.121396422386169 0.000000000000000
19.386972427368164 -5.749677181243896 2.153927803039551 0.000000000000000
19.388399124145508 -20.880475997924805 1.473357439041138 1.000000000000000
19.398794174194336 -6.245455265045166 1.722050189971924 0.000000000000000
19.403934478759766 21.005012512207031 2.195311069488525 0.000000000000000
19.403968811035156 20.819860458374023 2.479931116104126 0.000000000000000
19.406583786010742 19.809051513671875 1.647531151771545 0.000000000000000
19.407405853271484 2.841278791427612 1.505793452262878 0.000000000000000
19.409395217895508 4.548149108886719 2.440665483474731 0.000000000000000
19.409439086914062 20.343498229980469 1.129308700561523 0.000000000000000
19.413307189941406 14.145012855529785 -0.050307329744101 0.000000000000000
19.414058685302734 20.258249282836914 0.857277214527130 0.000000000000000
19.417222976684570 1.899772882461548 1.008815050125122 0.000000000000000
19.417266845703125 -9.000428199768066 1.684360027313232 0.000000000000000
19.419393539428711 16.947198867797852 0.837012052536011 0.000000000000000
19.425451278686523 16.228387832641602 0.627458453178406 0.000000000000000
19.427711486816406 -15.212476730346680 1.846660614013672 0.000000000000000
19.429382324218750 1.574167251586914 0.520657122135162 0.000000000000000
19.430622100830078 22.139223098754883 1.523137211799622 0.000000000000000
19.431715011596680 19.280366897583008 1.520847201347351 0.000000000000000
19.439243316650391 4.198659420013428 2.434832334518433 0.000000000000000
19.440534591674805 -19.667142868041992 1.004351854324341 1.000000000000000
19.442350387573242 20.532428741455078 2.061643838882446 0.000000000000000
19.448423385620117 -12.091922760009766 2.297934770584106 0.000000000000000
19.449346542358398 -5.663074970245361 1.437828540802002 0.000000000000000
19.451833724975586 22.897115707397461 0.975670158863068 0.000000000000000
19.463291168212891 2.290207386016846 0.937910556793213 0.000000000000000
19.463346481323242 20.548858642578125 1.082356572151184 0.000000000000000
19.466981887817383 20.005767822265625 0.745581030845642 0.000000000000000
19.469827651977539 -21.488801956176758 2.756370544433594 0.000000000000000
19.469955444335938 -12.642970085144043 2.636776447296143 0.000000000000000
19.471141815185547 23.481451034545898 1.636027932167053 0.000000000000000
19.471481323242188 17.335060119628906 -0.855719685554504 0.000000000000000
19.477994918823242 22.455907821655273 1.022486209869385 0.000000000000000
19.479772567749023 -4.006418704986572 2.434832334518433 0.000000000000000
19.479816436767578 -19.558851242065430 -0.640896499156952 1.000000000000000
19.481676101684570 20.147111892700195 1.611046075820923 0.000000000000000
19.492006301879883 13.908137321472168 0.363621205091476 0.000000000000000
19.492494583129883 14.682249069213867 1.261844992637634 0.000000000000000
19.494836807250977 1.436400413513184 2.601272821426392 0.000000000000000
19.495338439941406 20.985351562500000 0.159977450966835 0.000000000000000
19.495878219604492 -19.367677688598633 0.417311042547226 1.000000000000000
19.495882034301758 17.299533843994141 -1.005856752395630 0.000000000000000
19.497959136962891 17.197010040283203 -0.304029434919357 0.000000000000000
19.499298095703125 1.839103937149048 1.012739539146423 0.000000000000000
19.500223159790039 -11.450322151184082 1.736040830612183 0.000000000000000
19.501758575439453 1.654071092605591 1.860417723655701 0.000000000000000
19.503173828125000 14.721258163452148 2.129226922988892 0.000000000000000
19.504699707031250 -0.709067165851593 1.159558296203613 0.000000000000000
19.504762649536133 21.312597274780273 2.517432212829590 0.000000000000000
19.505283355712891 16.154533386230469 0.287330895662308 0.000000000000000
19.505706787109375 2.091800451278687 0.938866615295410 0.000000000000000
19.507106781005859 16.286184310913086 -0.053222727030516 0.000000000000000
19.513124465942383 -19.783357620239258 0.688816547393799 1.000000000000000
19.515579223632812 2.743439435958862 1.132874488830566 0.000000000000000
19.520391464233398 -3.610138177871704 0.988262057304382 0.000000000000000
19.521091461181641 -12.354076385498047 1.327999711036682 0.000000000000000
19.522857666015625 14.420859336853027 -0.470273286104202 0.000000000000000
19.526096343994141 -15.353385925292969 2.002892732620239 0.000000000000000
19.526420593261719 13.760087013244629 0.454496115446091 0.000000000000000
19.527923583984375 21.590024948120117 3.100825548171997 0.000000000000000
19.529008865356445 18.154462814331055 0.046537436544895 0.000000000000000
19.541681289672852 -1.680118680000305 2.906804323196411 0.000000000000000
19.548372268676758 17.735340118408203 1.060121417045593 0.000000000000000
19.548921585083008 3.910524368286133 0.685736775398254 0.000000000000000
19.554306030273438 -4.974153995513916 1.043309688568115 0.000000000000000
19.554450988769531 20.956375122070312 1.206331491470337 0.000000000000000
19.557018280029297 -13.078445434570312 1.579163908958435 0.000000000000000
19.557336807250977 21.086030960083008 1.985843062400818 0.000000000000000
19.562162399291992 15.963610649108887 1.402800798416138 0.000000000000000
19.562997817993164 14.375187873840332 0.741719484329224 0.000000000000000
19.563556671142578 -6.951651573181152 1.553810000419617 0.000000000000000
19.566667556762695 17.407564163208008 0.749830722808838 0.000000000000000
19.566989898681641 -2.424713134765625 2.922050714492798 0.000000000000000
19.567844390869141 20.866085052490234 1.313992738723755 0.000000000000000
19.568090438842773 -4.541398525238037 1.387086749076843 0.000000000000000
19.569244384765625 -12.147163391113281 1.812719225883484 0.000000000000000
19.569433212280273 14.140929222106934 1.760308861732483 0.000000000000000
19.569545745849609 -19.440860748291016 -0.428519070148468 1.000000000000000
19.574695587158203 18.324733734130859 -0.365050196647644 0.000000000000000
19.576036453247070 -4.569534778594971 2.141217708587646 0.000000000000000
19.578638076782227 19.570446014404297 2.071746826171875 0.000000000000000
19.581480026245117 20.963329315185547 0.325448095798492 0.000000000000000
19.582252502441406 -16.902347564697266 2.035856962203979 0.000000000000000
19.583600997924805 14.892799377441406 2.230399370193481 0.000000000000000
19.588689804077148 -20.247879028320312 2.271659612655640 0.000000000000000
19.589591979980469 13.257171630859375 1.770238876342773 0.000000000000000
19.590461730957031 -0.867670834064484 0.749899923801422 0.000000000000000
19.591297149658203 19.204643249511719 2.752809047698975 0.000000000000000
19.594022750854492 21.913957595825195 2.949695110321045 0.000000000000000
19.595268249511719 22.879169464111328 0.515291035175323 0.000000000000000
19.595293045043945 18.023838043212891 -0.055761128664017 0.000000000000000
19.595527648925781 -13.476698875427246 2.156004667282104 0.000000000000000
19.596557617187500 7.172875881195068 2.776977539062500 0.000000000000000
19.598136901855469 14.057821273803711 1.015087842941284 0.000000000000000
19.605581283569336 -13.518924713134766 1.920269131660461 0.000000000000000
19.606561660766602 17.617938995361328 0.501520812511444 0.000000000000000
19.606815338134766 18.643939971923828 2.233911037445068 0.000000000000000
19.609132766723633 2.629652261734009 1.480671882629395 0.000000000000000
19.609720230102539 14.667801856994629 0.607038736343384 0.000000000000000
19.609861373901367 19.873094558715820 1.175046205520630 0.000000000000000
19.610877990722656 15.199705123901367 0.901129245758057 0.000000000000000
19.611591339111328 -0.918679416179657 1.469328165054321 0.000000000000000
19.618839263916016 20.875879287719727 2.143989086151123 0.000000000000000
19.619009017944336 16.787036895751953 0.888143897056580 0.000000000000000
19.622997283935547 -12.090568542480469 1.813974380493164 0.000000000000000
19.623430252075195 15.560030937194824 0.091790847480297 0.000000000000000
19.624971389770508 -0.034938640892506 0.863709747791290 0.000000000000000
19.626344680786133 22.045164108276367 0.108181551098824 0.000000000000000
19.628025054931641 24.979539871215820 2.009837150573730 0.000000000000000
19.628202438354492 -10.840715408325195 2.131436586380005 0.000000000000000
19.634761810302734 -7.686083316802979 1.911512851715088 0.000000000000000
19.635087966918945 -1.619818687438965 1.664794445037842 0.000000000000000
19.637598037719727 20.941911697387695 0.932307004928589 0.000000000000000
19.643962860107422 22.413846969604492 0.853318870067596 0.000000000000000
19.644811630249023 14.091300010681152 1.389751076698303 0.000000000000000
19.645095825195312 3.507110595703125 2.266607761383057 0.000000000000000
19.645288467407227 -0.801400005817413 0.751887023448944 0.000000000000000
19.647340774536133 12.013511657714844 1.590162396430969 0.000000000000000
19.652153015136719 -11.368597030639648 2.418296575546265 0.000000000000000
19.653211593627930 20.074802398681641 0.372668534517288 0.000000000000000
19.656450271606445 14.800919532775879 1.509263157844543 0.000000000000000
19.659189224243164 -13.241327285766602 1.590950608253479 0.000000000000000
19.662900924682617 18.972343444824219 0.677318096160889 0.000000000000000
19.663906097412109 -7.575055122375488 2.393458127975464 0.000000000000000
19.667644500732422 21.097627639770508 2.214294195175171 0.000000000000000
19.668704986572266 -4.041698455810547 1.657906293869019 0.000000000000000
19.673156738281250 22.510503768920898 0.855951786041260 0.000000000000000
19.677444458007812 22.318901062011719 2.985637664794922 0.000000000000000
19.681640625000000 -11.007812500000000 1.818356394767761 0.000000000000000
19.685523986816406 -4.813011646270752 2.158588171005249 0.000000000000000
19.686944961547852 3.713135957717896 1.576714158058167 0.000000000000000
19.689020156860352 -5.788073062896729 1.694441556930542 0.000000000000000
19.695270538330078 -18.894344329833984 0.414456486701965 1.000000000000000
19.695785522460938 -8.936891555786133 1.493446469306946 0.000000000000000
19.699672698974609 17.976924896240234 1.944425702095032 0.000000000000000
19.700767517089844 -1.639777421951294 2.245390653610229 0.000000000000000
19.702579498291016 11.289264678955078 -0.614452064037323 0.000000000000000
19.703662872314453 19.011672973632812 2.385831356048584 0.000000000000000
19.706228256225586 23.107309341430664 1.278152942657471 0.000000000000000
19.707168579101562 17.939065933227539 2.838575124740601 0.000000000000000
19.707180023193359 18.768192291259766 0.726890742778778 0.000000000000000
19.709751129150391 -10.233156204223633 1.790708065032959 0.000000000000000
19.710050582885742 21.988828659057617 1.982058167457581 0.000000000000000
19.713167190551758 14.568881034851074 0.607633531093597 0.000000000000000
19.713640213012695 -18.430923461914062 -0.160149067640305 1.000000000000000
19.716579437255859 -10.686966896057129 1.765015959739685 0.000000000000000
19.719982147216797 9.671817779541016 3.255128145217896 0.000000000000000
19.721204757690430 2.422858715057373 0.759835362434387 0.000000000000000
19.721769332885742 14.963136672973633 0.899096727371216 0.000000000000000
19.722537994384766 17.517869949340820 -0.511109352111816 0.000000000000000
19.723037719726562 2.769795656204224 1.375238299369812 0.000000000000000
19.724565505981445 -5.356089115142822 1.529629588127136 0.000000000000000
19.726911544799805 -18.955797195434570 0.310382723808289 1.000000000000000
19.727622985839844 23.252159118652344 0.638743817806244 0.000000000000000
19.727628707885742 -10.155167579650879 1.789100646972656 0.000000000000000
19.734014511108398 18.532773971557617 1.139387726783752 0.000000000000000
19.734729766845703 2.704027175903320 1.145041108131409 0.000000000000000
19.742404937744141 17.507204055786133 0.248697355389595 0.000000000000000
19.743314743041992 20.320926666259766 2.468819618225098 0.000000000000000
19.745655059814453 -20.488693237304688 -0.988692283630371 1.000000000000000
19.752552032470703 21.758071899414062 1.632680773735046 0.000000000000000
19.756320953369141 -19.997777938842773 0.534849047660828 1.000000000000000
19.756994247436523 16.706609725952148 0.343222200870514 0.000000000000000
19.758466720581055 -17.277748107910156 2.981214284896851 0.000000000000000
19.759910583496094 17.821895599365234 0.352984607219696 0.000000000000000
19.760946273803711 -13.481014251708984 2.928701400756836 0.000000000000000
19.761068344116211 18.281024932861328 1.132996201515198 0.000000000000000
19.764209747314453 3.751637220382690 1.040211319923401 0.000000000000000
19.770380020141602 14.818141937255859 0.659926235675812 0.000000000000000
19.772760391235352 -6.819117546081543 1.363548755645752 0.000000000000000
19.775510787963867 -6.959401607513428 1.528490185737610 0.000000000000000
19.776645660400391 -8.729137420654297 2.876701831817627 0.000000000000000
19.777069091796875 10.909422874450684 -0.264131426811218 0.000000000000000
19.777122497558594 -17.539207458496094 3.002431392669678 0.000000000000000
19.777263641357422 19.549383163452148 0.796194314956665 0.000000000000000
19.778570175170898 -12.998023033142090 2.897591590881348 0.000000000000000
19.780401229858398 -18.285453796386719 1.652279496192932 0.000000000000000
19.781034469604492 19.036392211914062 1.736824631690979 0.000000000000000
19.783113479614258 -0.800790488719940 1.138154268264771 0.000000000000000
19.784030914306641 -7.108650207519531 3.115564107894897 0.000000000000000
19.786304473876953 13.603331565856934 2.409357070922852 0.000000000000000
19.787300109863281 14.118838310241699 -0.004242546390742 0.000000000000000
19.795089721679688 -20.521337509155273 -0.935898303985596 1.000000000000000
19.795156478881836 -11.617465019226074 2.606982469558716 0.000000000000000
19.797752380371094 -15.263394355773926 1.919136524200439 0.000000000000000
19.799461364746094 21.353038787841797 1.449676394462585 0.000000000000000
19.804483413696289 14.960642814636230 2.359304666519165 0.000000000000000
19.804809570312500 3.735366344451904 2.146725416183472 0.000000000000000
19.808612823486328 3.412286043167114 1.698474287986755 0.000000000000000
19.809486389160156 -1.634205818176270 2.645066976547241 0.000000000000000
19.809494018554688 14.632588386535645 -0.098862864077091 0.000000000000000
19.811075210571289 13.550723075866699 1.935379385948181 0.000000000000000
19.814205169677734 22.447944641113281 1.663523674011230 0.000000000000000
19.814300537109375 -7.518041610717773 3.622522115707397 0.000000000000000
19.814779281616211 2.364178419113159 1.070262670516968 0.000000000000000
19.817770004272461 18.025199890136719 0.767002403736115 0.000000000000000
19.818315505981445 14.350816726684570 0.747582852840424 0.000000000000000
19.820125579833984 -6.809915542602539 1.568437576293945 0.000000000000000
19.822580337524414 -0.206897184252739 1.598456144332886 0.000000000000000
19.823015213012695 -10.784532546997070 1.297238826751709 0.000000000000000
19.841196060180664 16.076251983642578 1.418776988983154 0.000000000000000
19.847093582153320 4.004764556884766 1.671730518341064 0.000000000000000
19.851636886596680 17.408813476562500 0.806705415248871 0.000000000000000
19.852825164794922 -6.239006042480469 1.116106510162354 0.000000000000000
19.854814529418945 10.667488098144531 0.472125917673111 0.000000000000000
19.859077453613281 19.245460510253906 2.176455497741699 0.000000000000000
19.859600067138672 -0.402822285890579 2.431915760040283 0.000000000000000
19.860353469848633 19.705665588378906 1.985828995704651 0.000000000000000
19.860481262207031 17.381650924682617 1.517156362533569 0.000000000000000
19.869432449340820 -0.124151475727558 1.295371294021606 0.000000000000000
19.869819641113281 -0.002774449530989 1.295371294021606 0.000000000000000
19.870449066162109 1.009724736213684 1.996415615081787 0.000000000000000
19.876791000366211 18.011806488037109 1.541948795318604 0.000000000000000
19.879230499267578 18.582498550415039 -0.004749390296638 0.000000000000000
19.881900787353516 16.617374420166016 0.791680514812469 0.000000000000000
19.884656906127930 -13.011165618896484 2.699073314666748 0.000000000000000
19.884983062744141 -6.930132389068604 3.120841503143311 0.000000000000000
19.885015487670898 14.293564796447754 0.371881157159805 0.000000000000000
19.885904312133789 1.611154556274414 1.146877527236938 0.000000000000000
19.888963699340820 -11.520418167114258 2.306321144104004 0.000000000000000
19.890281677246094 -18.175697326660156 -0.004702615551651 1.000000000000000
19.895591735839844 8.618248939514160 -0.295187532901764 0.000000000000000
19.897041320800781 2.306389093399048 0.843019068241119 0.000000000000000
19.899267196655273 -11.172428131103516 2.169288635253906 0.000000000000000
19.909399032592773 -7.431148529052734 1.713550209999084 0.000000000000000
19.912612915039062 17.669319152832031 1.427802324295044 0.000000000000000
19.915353775024414 -3.691811561584473 0.735624611377716 0.000000000000000
19.917079925537109 24.012390136718750 2.214374780654907 0.000000000000000
19.923059463500977 20.289434432983398 2.292877912521362 0.000000000000000
19.927833557128906 18.731838226318359 0.362800031900406 0.000000000000000
19.936248779296875 20.049324035644531 0.320774197578430 0.000000000000000
19.938865661621094 8.826541900634766 2.669614553451538 0.000000000000000
19.939777374267578 13.611697196960449 2.422536134719849 0.000000000000000
19.942274093627930 -14.789929389953613 1.666493296623230 0.000000000000000
19.944076538085938 -9.975932121276855 1.582829117774963 0.000000000000000
19.945442199707031 -1.700109124183655 1.902811765670776 0.000000000000000
19.946516036987305 16.133941650390625 -0.250753760337830 0.000000000000000
19.946857452392578 17.564500808715820 -0.566010773181915 0.000000000000000
19.951545715332031 19.945981979370117 0.103402152657509 0.000000000000000
19.951938629150391 -5.362531185150146 1.466432213783264 0.000000000000000
19.953685760498047 20.412364959716797 0.926984012126923 0.000000000000000
19.954114913940430 -20.242458343505859 -0.004960923921317 1.000000000000000
19.954856872558594 21.839582443237305 1.700574159622192 0.000000000000000
19.956979751586914 4.001570701599121 1.366197824478149 0.000000000000000
19.967599868774414 18.094095230102539 0.305708855390549 0.000000000000000
19.968801498413086 21.465702056884766 2.250729560852051 0.000000000000000
19.970266342163086 -4.404634952545166 1.175572395324707 0.000000000000000
19.971065521240234 17.371603012084961 0.757844209671021 0.000000000000000
19.971286773681641 1.732858657836914 1.229597687721252 0.000000000000000
19.974985122680664 -13.257280349731445 1.609166741371155 0.000000000000000
19.982324600219727 20.965921401977539 2.055780410766602 0.000000000000000
19.986005783081055 2.529078960418701 1.826283931732178 0.000000000000000
19.986637115478516 17.197908401489258 1.668129563331604 0.000000000000000
19.986715316772461 -10.461241722106934 2.562291383743286 0.000000000000000
19.987886428833008 -9.304371833801270 2.699266195297241 0.000000000000000
19.988124847412109 22.354721069335938 1.839376211166382 0.000000000000000
19.988885879516602 -14.669335365295410 2.160477638244629 0.000000000000000
19.992082595825195 -19.999759674072266 -0.873866736888885 1.000000000000000
19.994615554809570 20.248891830444336 1.635838508605957 0.000000000000000
19.997247695922852 -1.774856925010681 1.502464175224304 0.000000000000000
20.005439758300781 -2.697020053863525 1.471771717071533 0.000000000000000
20.011632919311523 2.354729652404785 1.585815429687500 0.000000000000000
20.013156890869141 3.215983390808105 1.243311524391174 0.000000000000000
20.013778686523438 -4.032214164733887 1.567335724830627 0.000000000000000
20.015266418457031 6.260133743286133 2.567535400390625 0.000000000000000
20.015750885009766 -9.407606124877930 1.569801807403564 0.000000000000000
20.019239425659180 18.259586334228516 1.401063084602356 0.000000000000000
20.021911621093750 -11.530785560607910 3.949391126632690 0.000000000000000
20.023395538330078 22.068817138671875 1.712970376014709 0.000000000000000
20.023929595947266 -22.276325225830078 2.715410232543945 0.000000000000000
20.024187088012695 -19.209884643554688 -0.431066423654556 1.000000000000000
20.029827117919922 -19.081481933593750 -0.004828278906643 1.000000000000000
20.030677795410156 17.319330215454102 -0.055459540337324 0.000000000000000
20.030998229980469 22.695152282714844 1.798406600952148 0.000000000000000
20.031270980834961 14.488510131835938 0.327941954135895 0.000000000000000
20.031995773315430 -5.991598606109619 1.726368665695190 0.000000000000000
20.032035827636719 23.614303588867188 0.589178562164307 0.000000000000000
20.034353256225586 -4.418769836425781 1.859869837760925 0.000000000000000
20.040620803833008 -18.602046966552734 1.993581652641296 0.000000000000000
20.041101455688477 -5.237501144409180 1.750341176986694 0.000000000000000
20.042541503906250 0.431030213832855 0.998007416725159 0.000000000000000
20.046472549438477 2.079033136367798 2.146725416183472 0.000000000000000
20.047842025756836 3.647656917572021 2.314458847045898 0.000000000000000
20.048910140991211 17.581192016601562 0.353727370500565 0.000000000000000
20.050437927246094 -0.139280825853348 1.616781234741211 0.000000000000000
20.051208496093750 16.471429824829102 1.491675257682800 0.000000000000000
20.055093765258789 19.879470825195312 1.460137844085693 0.000000000000000
20.055767059326172 -10.372839927673340 2.046940326690674 0.000000000000000
20.056329727172852 -0.607175648212433 1.424234747886658 0.000000000000000
20.060350418090820 -0.105724759399891 1.191820979118347 0.000000000000000
20.063922882080078 16.266016006469727 1.087077498435974 0.000000000000000
20.064365386962891 -18.494125366210938 1.989509582519531 0.000000000000000
20.066818237304688 18.311965942382812 0.308204591274261 0.000000000000000
20.068447113037109 -15.433035850524902 1.552853822708130 0.000000000000000
20.071971893310547 1.917868375778198 1.664818406105042 0.000000000000000
20.074934005737305 -5.376057624816895 1.975487232208252 0.000000000000000
20.075172424316406 21.514429092407227 2.145412683486938 0.000000000000000
20.078790664672852 -19.946758270263672 -0.874608039855957 1.000000000000000
20.084741592407227 -7.454289436340332 2.036428451538086 0.000000000000000
20.088047027587891 14.563243865966797 2.642840623855591 0.000000000000000
20.089021682739258 -11.650818824768066 1.737998485565186 0.000000000000000
20.089874267578125 21.357667922973633 0.783175110816956 0.000000000000000
20.094301223754883 -22.309932708740234 3.012794494628906 0.000000000000000
20.104021072387695 19.976720809936523 0.375958055257797 0.000000000000000
20.105268478393555 -24.468713760375977 0.967582345008850 1.000000000000000
20.106214523315430 -8.874604225158691 1.857106328010559 0.000000000000000
20.106887817382812 15.206177711486816 1.157980203628540 0.000000000000000
20.108541488647461 0.902221202850342 1.545290708541870 0.000000000000000
20.110317230224609 15.525077819824219 0.337014585733414 0.000000000000000
20.114919662475586 17.190696716308594 -0.461860477924347 0.000000000000000
20.119178771972656 12.205744743347168 1.988457679748535 0.000000000000000
20.119241714477539 19.970916748046875 2.694672107696533 0.000000000000000
20.121049880981445 11.052955627441406 1.806756258010864 0.000000000000000
20.121475219726562 16.855224609375000 1.711201667785645 0.000000000000000
20.121965408325195 0.503718078136444 1.700831890106201 0.000000000000000
20.122905731201172 16.430564880371094 0.693889081478119 0.000000000000000
20.124061584472656 24.991764068603516 0.918685793876648 0.000000000000000
20.124624252319336 17.977069854736328 -0.626505792140961 0.000000000000000
20.129785537719727 19.682294845581055 1.998289942741394 0.000000000000000
20.137367248535156 18.750816345214844 0.153677538037300 0.000000000000000
20.141418457031250 20.437456130981445 2.369189977645874 0.000000000000000
20.141515731811523 -15.107292175292969 1.884274482727051 0.000000000000000
20.142791748046875 17.551891326904297 0.764941811561584 0.000000000000000
20.145961761474609 20.026079177856445 1.304815411567688 0.000000000000000
20.147226333618164 -9.404225349426270 2.722112655639648 0.000000000000000
20.151853561401367 17.997600555419922 -0.264085054397583 0.000000000000000
20.153766632080078 15.518258094787598 1.805427789688110 0.000000000000000
20.153839111328125 -3.565272092819214 1.531719326972961 0.000000000000000
20.158456802368164 -11.736268997192383 2.649416685104370 0.000000000000000
20.159530639648438 18.609851837158203 0.469317108392715 0.000000000000000
20.159545898437500 -7.253113746643066 1.231584787368774 0.000000000000000
20.161930084228516 15.468554496765137 0.629936575889587 0.000000000000000
20.163467407226562 21.913785934448242 1.711822509765625 0.000000000000000
20.165138244628906 16.817655563354492 0.348315626382828 0.000000000000000
20.172348022460938 0.969296038150787 1.277678489685059 0.000000000000000
20.174057006835938 23.370220184326172 0.409542769193649 0.000000000000000
20.176776885986328 16.971191406250000 0.754867792129517 0.000000000000000
20.177013397216797 10.992193222045898 1.808325290679932 0.000000000000000
20.177459716796875 17.553606033325195 1.125595331192017 0.000000000000000
20.179761886596680 15.029474258422852 1.883080363273621 0.000000000000000
20.186384201049805 17.039499282836914 1.773110389709473 0.000000000000000
20.187204360961914 17.438648223876953 1.122735977172852 0.000000000000000
20.189319610595703 -6.936765670776367 2.029236793518066 0.000000000000000
20.189943313598633 -4.638580322265625 1.630380153656006 0.000000000000000
