# This PCD file was generated using the MATLAB® pcwrite function
# from Computer Vision Toolbox®.
# .PCD v.7 - Point Cloud Data file format
VERSION .7
FIELDS x y z intensity
SIZE 8 8 8 8
TYPE F F F F
COUNT 1 1 1 1
WIDTH 653
HEIGHT 1
VIEWPOINT 0 0 0 1 0 0 0
POINTS 653
DATA ascii
0.578824222087860 -5.712304592132568 0.407531052827835 0.000000000000000
0.592614591121674 -8.710701942443848 0.300310611724854 0.000000000000000
0.594824552536011 -9.806731224060059 0.470198154449463 0.000000000000000
0.596659004688263 -9.179341316223145 0.564228892326355 0.000000000000000
0.605396330356598 -9.830553054809570 1.310661673545837 0.000000000000000
0.605431079864502 3.524142742156982 0.040567569434643 0.000000000000000
0.605503916740417 -3.335510730743408 0.260253041982651 0.000000000000000
0.608289301395416 -9.300587654113770 0.463999867439270 0.000000000000000
0.611933231353760 -7.149616718292236 0.246821239590645 1.000000000000000
0.612756133079529 -6.587810039520264 0.456851363182068 0.000000000000000
0.613436341285706 3.423737049102783 0.199946016073227 0.000000000000000
0.618941366672516 -8.846834182739258 0.646590590476990 0.000000000000000
0.619802832603455 3.533826589584351 0.040703698992729 0.000000000000000
0.621970355510712 -8.659970283508301 0.315329909324646 0.000000000000000
0.622290790081024 -9.448826789855957 1.159328341484070 0.000000000000000
0.624089002609253 -3.536494016647339 0.746958017349243 0.000000000000000
0.625452756881714 -6.975057601928711 0.591754794120789 0.000000000000000
0.633116126060486 -3.419652700424194 0.266988992691040 0.000000000000000
0.634347379207611 -3.522731542587280 0.744514286518097 0.000000000000000
0.636423110961914 -3.681432247161865 0.777096986770630 0.000000000000000
0.647874832153320 -9.996939659118652 0.827142834663391 0.000000000000000
0.648949503898621 -9.499582290649414 0.345817625522614 0.000000000000000
0.649996638298035 -14.048851013183594 3.768405437469482 0.000000000000000
0.664431035518646 -10.208221435546875 1.361315250396729 0.000000000000000
0.673425793647766 -3.541637897491455 0.144795522093773 1.000000000000000
0.681733846664429 -3.995865106582642 0.139429941773415 1.000000000000000
0.682873070240021 -7.073789596557617 0.600511550903320 0.000000000000000
0.697268307209015 -10.492341995239258 1.797444820404053 0.000000000000000
0.697343409061432 -14.062056541442871 3.772546768188477 0.000000000000000
0.698187351226807 -8.738697052001953 1.073290109634399 0.000000000000000
0.704694688320160 -4.260405540466309 0.391475558280945 0.000000000000000
0.707219064235687 -6.088117122650146 0.908339679241180 1.000000000000000
0.708052814006805 -13.262406349182129 0.533431828022003 0.000000000000000
0.710953533649445 -9.005375862121582 0.345449179410934 0.000000000000000
0.731534242630005 -9.846305847167969 0.605615437030792 0.000000000000000
0.732750415802002 -6.769287586212158 0.562180697917938 0.000000000000000
0.738378703594208 -3.780658721923828 0.303165972232819 0.000000000000000
0.738889157772064 5.604096889495850 1.514609098434448 1.000000000000000
0.739085316658020 -8.606930732727051 0.713258504867554 0.000000000000000
0.740223586559296 -6.183831214904785 0.922999799251556 0.000000000000000
0.740477263927460 -4.687895774841309 0.413553357124329 0.000000000000000
0.748892128467560 -10.411902427673340 0.882075011730194 0.000000000000000
0.756922245025635 -12.024220466613770 0.878409206867218 0.000000000000000
0.764826595783234 -8.998813629150391 0.397471785545349 0.000000000000000
0.764996469020844 -6.040304660797119 0.578754544258118 0.000000000000000
0.768939614295959 -5.871552944183350 0.466047048568726 0.000000000000000
0.769007444381714 -5.914561748504639 1.240585684776306 0.000000000000000
0.769444406032562 -4.022503376007080 0.410944521427155 0.000000000000000
0.769961714744568 -6.169332027435303 0.827341973781586 0.000000000000000
0.775521397590637 -5.059787273406982 0.681185245513916 0.000000000000000
0.778742432594299 -10.311201095581055 0.634267687797546 0.000000000000000
0.780202805995941 -8.885604858398438 0.847881019115448 0.000000000000000
0.786771893501282 -5.849072456359863 0.464477866888046 0.000000000000000
0.788930535316467 -10.433975219726562 1.392446160316467 0.000000000000000
0.790482580661774 -6.158740520477295 0.826286673545837 0.000000000000000
0.793159067630768 -3.846581697463989 0.187964543700218 1.000000000000000
0.794305741786957 -4.232486724853516 0.432110756635666 0.000000000000000
0.795295178890228 -9.880278587341309 1.694329380989075 0.000000000000000
0.803013443946838 -9.351397514343262 0.340881496667862 0.000000000000000
0.808365225791931 -10.960690498352051 1.044710636138916 0.000000000000000
0.819701254367828 -9.757475852966309 0.887681603431702 0.000000000000000
0.821377873420715 5.473742961883545 0.482305288314819 1.000000000000000
0.826812624931335 -10.005393981933594 1.335988402366638 0.000000000000000
0.831495225429535 -9.104897499084473 0.869078040122986 0.000000000000000
0.837668955326080 -4.956806182861328 0.859295904636383 0.000000000000000
0.844435095787048 -10.696135520935059 1.427798032760620 0.000000000000000
0.845616579055786 -9.460021018981934 0.344946533441544 0.000000000000000
0.851162850856781 -10.300059318542480 0.873318254947662 0.000000000000000
0.859425008296967 -14.517099380493164 1.200723171234131 0.000000000000000
0.866216838359833 -14.941236495971680 1.004557132720947 0.000000000000000
0.874782979488373 -5.666448593139648 0.406964659690857 0.000000000000000
0.887477695941925 -3.402454376220703 0.161518871784210 0.000000000000000
0.888647794723511 -14.650926589965820 0.251077800989151 0.000000000000000
0.890047729015350 -4.381769180297852 0.507853686809540 0.000000000000000
0.904200077056885 -3.576515197753906 0.767322182655334 0.000000000000000
0.911816418170929 -9.112689018249512 0.632372677326202 0.000000000000000
0.913760185241699 -3.561957359313965 0.764878511428833 0.000000000000000
0.914512395858765 -5.779226779937744 1.000153064727783 0.000000000000000
0.918464124202728 -14.172228813171387 1.738749384880066 0.000000000000000
0.934985935688019 -9.026096343994141 0.626586258411407 0.000000000000000
0.935667991638184 -4.391041278839111 1.202991008758545 0.000000000000000
0.936481356620789 -5.000179290771484 1.058122634887695 0.000000000000000
0.939687132835388 -10.943015098571777 0.737210988998413 0.000000000000000
0.939936876296997 -4.080408573150635 0.715742945671082 0.000000000000000
0.940116703510284 -6.222109794616699 1.075636267662048 0.000000000000000
0.943075478076935 -5.134377479553223 1.085817933082581 0.000000000000000
0.944442212581635 -4.357540130615234 1.194708704948425 1.000000000000000
0.946992516517639 -4.111038208007812 0.382447034120560 0.000000000000000
0.948165297508240 -10.987754821777344 0.718985736370087 0.000000000000000
0.957441210746765 -3.626843452453613 0.356564253568649 1.000000000000000
0.958366692066193 -14.937397003173828 0.486082375049591 0.000000000000000
0.964489459991455 -6.235978126525879 0.572045445442200 0.000000000000000
0.976573169231415 -5.128127574920654 0.892319858074188 0.000000000000000
0.980080068111420 -10.152516365051270 0.704289555549622 0.000000000000000
0.987015366554260 -3.490826606750488 0.048122204840183 0.000000000000000
0.988563597202301 -4.002987384796143 0.268806457519531 0.000000000000000
0.998574793338776 -9.979751586914062 0.537916243076324 0.000000000000000
1.001273751258850 -3.851663112640381 0.360778659582138 0.000000000000000
1.008194088935852 -11.740804672241211 1.442719697952271 0.000000000000000
1.010240554809570 -5.205970287322998 0.906472921371460 0.000000000000000
1.025716066360474 -3.733507633209229 0.661826312541962 0.000000000000000
1.031890749931335 -11.543893814086914 0.777929067611694 0.000000000000000
1.034952044487000 -10.343305587768555 0.878370165824890 0.000000000000000
1.039233565330505 -6.422101974487305 1.112030029296875 0.000000000000000
1.041480302810669 -11.614602088928223 1.551793813705444 0.000000000000000
1.054978132247925 -3.580815076828003 0.149932384490967 0.000000000000000
1.055673003196716 -7.070421695709229 0.576434433460236 0.000000000000000
1.060600042343140 -3.651560306549072 0.563534140586853 0.000000000000000
1.068012118339539 -3.177568674087524 0.697269439697266 0.000000000000000
1.068281531333923 -12.354542732238770 0.617340564727783 0.000000000000000
1.071245670318604 -3.950466871261597 0.298426419496536 0.000000000000000
1.077417135238647 -7.484152317047119 0.318234682083130 1.000000000000000
1.085334658622742 -12.597867965698242 1.682648897171021 0.000000000000000
1.086805582046509 -5.113893985748291 1.087447047233582 0.000000000000000
1.090359091758728 -13.498844146728516 0.179649159312248 0.000000000000000
1.090443134307861 -3.207190990447998 0.704600512981415 0.000000000000000
1.092266678810120 -10.977989196777344 0.889567255973816 0.000000000000000
1.094825625419617 -10.627062797546387 1.213431954383850 0.000000000000000
1.097022533416748 -4.509744644165039 0.159643143415451 1.000000000000000
1.097297906875610 -3.833801746368408 0.045241460204124 0.000000000000000
1.107736229896545 -6.492804527282715 0.531104087829590 0.000000000000000
1.111772418022156 -6.988658905029297 0.325056701898575 0.000000000000000
1.111812829971313 -7.487579822540283 0.187642782926559 0.000000000000000
1.120814323425293 -6.433907985687256 0.526603221893311 0.000000000000000
1.139171719551086 -4.544630050659180 0.161155700683594 1.000000000000000
1.140672326087952 -11.700751304626465 1.439316987991333 0.000000000000000
1.143917918205261 -3.797939538955688 0.678001284599304 0.000000000000000
1.148751974105835 -11.947727203369141 1.363305211067200 0.000000000000000
1.152434349060059 -14.616973876953125 0.532518446445465 0.000000000000000
1.157620906829834 -3.603621244430542 0.379794210195541 1.000000000000000
1.163055539131165 -4.090524673461914 0.483025342226028 0.000000000000000
1.164846062660217 -7.614080905914307 0.517012059688568 0.000000000000000
1.165721535682678 -4.354179382324219 0.937566697597504 0.000000000000000
1.172061443328857 -4.145288467407227 0.896023750305176 0.000000000000000
1.177374482154846 -10.640686988830566 1.424632191658020 0.000000000000000
1.180889725685120 -11.868707656860352 1.354728102684021 0.000000000000000
1.182239651679993 -6.077563762664795 1.287830591201782 0.000000000000000
1.183820247650146 -7.229953765869141 0.449374973773956 1.000000000000000
1.185129284858704 -4.036603927612305 0.719112694263458 0.000000000000000
1.187415003776550 -7.616586208343506 0.487684786319733 0.000000000000000
1.193479180335999 5.581824779510498 0.009962334297597 0.000000000000000
1.196964263916016 -4.024884223937988 0.717764794826508 1.000000000000000
1.201458692550659 -11.894211769104004 1.463621616363525 0.000000000000000
1.207321047782898 -11.330876350402832 0.918822944164276 0.000000000000000
1.209301233291626 -11.532831192016602 1.010445237159729 0.000000000000000
1.210209727287292 5.675086498260498 0.659081280231476 0.000000000000000
1.212576627731323 -12.574683189392090 1.043062448501587 0.000000000000000
1.214103937149048 -6.127180576324463 1.299234390258789 0.000000000000000
1.218758583068848 -13.117904663085938 0.681218624114990 0.000000000000000
1.225130677223206 -6.875067234039307 0.482201397418976 0.000000000000000
1.229878544807434 3.095110893249512 0.892408132553101 0.000000000000000
1.235188484191895 -6.689890384674072 0.535404920578003 0.000000000000000
1.236218214035034 -8.805069923400879 0.100874386727810 0.000000000000000
1.239945173263550 -10.448121070861816 1.288142561912537 0.000000000000000
1.244085907936096 -6.843043804168701 0.587713181972504 0.000000000000000
1.245891094207764 3.105358600616455 0.896549224853516 1.000000000000000
1.248617887496948 -5.655034542083740 0.616860508918762 0.000000000000000
1.249619126319885 -8.775889396667480 0.749039649963379 0.000000000000000
1.251520037651062 -5.000607490539551 0.549073636531830 0.000000000000000
1.259854435920715 -11.934609413146973 1.778563141822815 0.000000000000000
1.269221901893616 -5.654521942138672 0.617284119129181 0.000000000000000
1.282514214515686 -4.032979965209961 0.007386229932308 0.000000000000000
1.284863233566284 -13.324310302734375 0.692166030406952 0.000000000000000
1.287221074104309 -4.213465690612793 0.916387915611267 0.000000000000000
1.287245273590088 -8.725636482238770 1.507642984390259 0.000000000000000
1.287296056747437 -5.954987049102783 0.579133033752441 1.000000000000000
1.295495152473450 -7.738255977630615 0.179419592022896 1.000000000000000
1.307059049606323 -13.554486274719238 0.914013087749481 0.000000000000000
1.307221293449402 -6.944180965423584 0.556118130683899 0.000000000000000
1.310954093933105 -8.812829971313477 0.426409870386124 0.000000000000000
1.312371730804443 -9.716730117797852 1.113666772842407 0.000000000000000
1.312390923500061 -12.515974044799805 0.699181437492371 0.000000000000000
1.312696695327759 -3.978076934814453 0.475802510976791 0.000000000000000
1.313698410987854 -7.520949840545654 0.512458086013794 0.000000000000000
1.322795152664185 -4.084238052368164 0.636248290538788 0.000000000000000
1.330117583274841 -4.194077491760254 0.652081191539764 1.000000000000000
1.337893605232239 -8.854773521423340 0.811842262744904 0.000000000000000
1.344803571701050 -11.003355026245117 1.357167482376099 0.000000000000000
1.349825978279114 -8.606043815612793 0.601511776447296 0.000000000000000
1.373756051063538 -14.769407272338867 0.567239820957184 0.000000000000000
1.376331925392151 -6.701402664184570 1.013892412185669 0.000000000000000
1.379445791244507 -14.830577850341797 0.798840939998627 0.000000000000000
1.388039946556091 -7.429829597473145 1.291976571083069 0.000000000000000
1.397914409637451 -10.629676818847656 0.864490866661072 0.000000000000000
1.409230828285217 -7.691905498504639 0.708917379379272 0.000000000000000
1.416163563728333 -7.034794330596924 1.226602792739868 0.000000000000000
1.418902635574341 -14.814452171325684 0.941527128219604 0.000000000000000
1.421120047569275 -9.077154159545898 0.475076705217361 0.000000000000000
1.424821853637695 -9.287395477294922 0.612556040287018 0.000000000000000
1.425020694732666 -6.674973487854004 0.727014183998108 1.000000000000000
1.425987124443054 -6.500911235809326 1.137640357017517 0.000000000000000
1.428538560867310 -10.144018173217773 1.518199801445007 0.000000000000000
1.430588245391846 -6.588333129882812 0.718117117881775 0.000000000000000
1.434547305107117 -4.247460842132568 0.509208023548126 0.000000000000000
1.443136334419250 -9.939702033996582 0.635429799556732 0.000000000000000
1.443157434463501 -4.322667121887207 0.367464870214462 0.000000000000000
1.445375442504883 -9.447776794433594 0.347124218940735 0.000000000000000
1.452559709548950 -3.146655082702637 0.928642749786377 0.000000000000000
1.456858754158020 -7.041715621948242 0.552042603492737 0.000000000000000
1.458650708198547 -4.201418876647949 0.659118056297302 1.000000000000000
1.458814263343811 -6.367472648620605 0.451064944267273 0.000000000000000
1.459613919258118 -5.167804241180420 0.486816436052322 0.000000000000000
1.460276126861572 -14.201096534729004 0.024916308000684 0.000000000000000
1.464799761772156 -5.180630683898926 0.511756777763367 0.000000000000000
1.465127587318420 -5.019450187683105 0.179856374859810 0.000000000000000
1.465877175331116 -7.697534084320068 0.710361957550049 0.000000000000000
1.466262817382812 -9.625885963439941 1.037139177322388 0.000000000000000
1.468888759613037 -9.101391792297363 1.128704428672791 0.000000000000000
1.480942606925964 -8.763301849365234 0.805702924728394 0.000000000000000
1.481482028961182 -3.180090904235840 0.940030813217163 0.000000000000000
1.482128262519836 -11.119883537292480 0.817909479141235 0.000000000000000
1.488513946533203 -9.212769508361816 0.770529806613922 0.000000000000000
1.488986015319824 -8.776393890380859 0.683393836021423 0.000000000000000
1.495556950569153 -9.328729629516602 0.780075073242188 0.000000000000000
1.495843291282654 -9.537001609802246 0.815725684165955 0.000000000000000
1.496175765991211 -10.793426513671875 0.878636479377747 0.000000000000000
1.498257994651794 -7.687092781066895 0.359746545553207 1.000000000000000
1.500020861625671 5.720184326171875 0.515292346477509 0.000000000000000
1.506335973739624 -4.184237957000732 1.191602945327759 0.000000000000000
1.507030487060547 -6.757576465606689 1.183469414710999 0.000000000000000
1.511251091957092 -3.132029771804810 0.723335564136505 0.000000000000000
1.519178509712219 -7.557427883148193 0.547150790691376 0.000000000000000
1.523349046707153 -7.578174114227295 0.310459554195404 1.000000000000000
1.526641488075256 -10.474980354309082 0.853560209274292 0.000000000000000
1.529639124870300 -4.810086727142334 0.537634611129761 0.000000000000000
1.537120342254639 -6.603292942047119 0.572894036769867 0.000000000000000
1.543491840362549 -7.520637989044189 0.729783356189728 0.000000000000000
1.544394612312317 -4.925458431243896 1.383129000663757 0.000000000000000
1.546989440917969 -7.668068408966064 1.159320592880249 0.000000000000000
1.547768592834473 -4.997251987457275 1.401764035224915 0.000000000000000
1.552144885063171 -10.690505981445312 0.850182831287384 0.000000000000000
1.554133892059326 -8.533216476440430 0.565456390380859 0.000000000000000
1.554743766784668 -3.193636178970337 0.738812327384949 0.000000000000000
1.557525157928467 -7.054086685180664 0.012608252465725 1.000000000000000
1.558019638061523 -11.239568710327148 1.288819909095764 0.000000000000000
1.559148669242859 -7.618531227111816 0.551965296268463 0.000000000000000
1.560079574584961 -9.522665023803711 0.815388858318329 0.000000000000000
1.561048746109009 -8.873070716857910 0.743869006633759 0.000000000000000
1.563606381416321 -14.701452255249023 1.574773669242859 0.000000000000000
1.566862106323242 -10.600524902343750 1.018592834472656 0.000000000000000
1.575371026992798 -10.590361595153809 0.842650771141052 0.000000000000000
1.582456111907959 -9.053994178771973 0.776657044887543 0.000000000000000
1.584505200386047 -4.867642402648926 0.545260608196259 0.000000000000000
1.590335726737976 -7.067224979400635 0.026550589129329 1.000000000000000
1.590590596199036 -10.396984100341797 0.543859541416168 0.000000000000000
1.595315814018250 -9.127571105957031 0.639812290668488 0.000000000000000
1.597340464591980 2.900635004043579 0.332269996404648 1.000000000000000
1.598922371864319 -11.245866775512695 1.290174126625061 0.000000000000000
1.601935267448425 2.933165311813354 0.895513951778412 0.000000000000000
1.605402827262878 -5.485782623291016 0.372633934020996 0.000000000000000
1.605740666389465 -14.737956047058105 1.409223794937134 0.000000000000000
1.606045961380005 -5.502229213714600 0.373674809932709 0.000000000000000
1.606272816658020 -10.545039176940918 0.674828469753265 0.000000000000000
1.611549019813538 -10.274703025817871 1.384003877639771 0.000000000000000
1.614433884620667 -11.247883796691895 1.391193985939026 0.000000000000000
1.616862893104553 -10.549008369445801 0.408119171857834 0.000000000000000
1.627807497978210 -7.404920578002930 1.577001810073853 0.000000000000000
1.628291845321655 -10.756415367126465 1.034112095832825 0.000000000000000
1.632035255432129 -8.356373786926270 0.407479584217072 0.000000000000000
1.633887171745300 -8.888366699218750 1.339346647262573 0.000000000000000
1.634108424186707 -5.683458328247070 0.465419381856918 0.000000000000000
1.635518312454224 -9.500267982482910 1.180230259895325 0.000000000000000
1.638049840927124 6.362273216247559 0.746206462383270 0.000000000000000
1.644398689270020 -5.808856964111328 0.526056528091431 0.000000000000000
1.644745469093323 -6.393813133239746 0.163654640316963 1.000000000000000
1.653307437896729 -5.079004764556885 0.337919354438782 0.000000000000000
1.656502366065979 -7.683693408966064 0.557912588119507 0.000000000000000
1.658793330192566 -5.156949996948242 0.342717915773392 0.000000000000000
1.663645386695862 -2.986281633377075 0.584321200847626 0.000000000000000
1.664482355117798 -11.147952079772949 1.280242919921875 0.000000000000000
1.672728657722473 3.085407018661499 0.520140290260315 1.000000000000000
1.672855496406555 -5.390464782714844 0.601184785366058 0.000000000000000
1.673035383224487 -10.435773849487305 0.383854627609253 0.000000000000000
1.673143386840820 -7.734669685363770 1.172807812690735 0.000000000000000
1.680436968803406 -5.871205806732178 0.553627312183380 0.000000000000000
1.685776948928833 -11.039786338806152 0.900497913360596 0.000000000000000
1.695802450180054 -4.867219924926758 1.381058573722839 0.000000000000000
1.696614742279053 -6.897501468658447 0.545306682586670 1.000000000000000
1.708492755889893 -8.324602127075195 1.767610549926758 0.000000000000000
1.717577099800110 -9.827087402343750 1.327546119689941 0.000000000000000
1.719835758209229 -6.248933792114258 1.348108530044556 0.000000000000000
1.720768094062805 -5.124397277832031 0.923995792865753 1.000000000000000
1.725434660911560 -11.067672729492188 0.881566464900970 0.000000000000000
1.726469159126282 -5.201472282409668 0.936801016330719 0.000000000000000
1.727071762084961 -4.745346546173096 1.353106021881104 0.000000000000000
1.728333592414856 -9.251336097717285 0.106773473322392 0.000000000000000
1.729990124702454 -5.596299171447754 0.556800484657288 0.000000000000000
1.731169223785400 -2.573533773422241 0.645137131214142 0.000000000000000
1.734581232070923 -8.829810142517090 0.621350944042206 0.000000000000000
1.736045002937317 -8.384514808654785 0.310974538326263 0.000000000000000
1.749591112136841 -5.556093215942383 0.357295989990234 0.000000000000000
1.756511688232422 -6.029842376708984 0.668971657752991 0.000000000000000
1.758050799369812 -9.670086860656738 0.678663969039917 0.000000000000000
1.759346246719360 -9.762391090393066 1.470114707946777 0.000000000000000
1.764658570289612 3.258092164993286 0.992829918861389 0.000000000000000
1.764885187149048 -6.092234134674072 0.940005481243134 0.000000000000000
1.772970557212830 -9.503130912780762 0.798178076744080 0.000000000000000
1.789451599121094 -10.459927558898926 0.876185595989227 0.000000000000000
1.794134974479675 -10.863375663757324 0.909100115299225 0.000000000000000
1.802091002464294 -6.127716064453125 0.607143402099609 0.000000000000000
1.805172324180603 -6.470633506774902 0.638560414314270 0.000000000000000
1.814033150672913 -6.986166477203369 0.512316703796387 0.000000000000000
1.814686536788940 -6.128635406494141 0.850558221340179 0.000000000000000
1.819356203079224 -5.713878631591797 0.483523339033127 0.000000000000000
1.821345567703247 -5.289870262145996 1.499079942703247 1.000000000000000
1.823393106460571 -5.658158779144287 0.479343950748444 0.000000000000000
1.826975941658020 -4.978440284729004 0.906472921371460 1.000000000000000
1.828563094139099 -7.628831863403320 0.602256178855896 0.000000000000000
1.829382419586182 3.100476741790771 0.020106090232730 1.000000000000000
1.837377786636353 -5.058589935302734 0.919952034950256 1.000000000000000
1.837648153305054 -4.852433204650879 0.886928200721741 0.000000000000000
1.839998483657837 -5.471865653991699 0.855563342571259 0.000000000000000
1.840829014778137 -7.579544067382812 0.613864004611969 1.000000000000000
1.853070855140686 -7.545491218566895 1.616101026535034 0.000000000000000
1.857694029808044 -9.648685455322266 0.659525275230408 0.000000000000000
1.860269784927368 -9.841432571411133 1.332822561264038 0.000000000000000
1.867402553558350 -10.294034957885742 0.843593895435333 0.000000000000000
1.869280695915222 -5.495378017425537 0.860254585742950 0.000000000000000
1.873354434967041 5.952029228210449 1.671971201896667 0.000000000000000
1.885303854942322 -10.603330612182617 0.370438128709793 0.000000000000000
1.889086484909058 -9.441947937011719 0.664886832237244 0.000000000000000
1.891391158103943 -10.609623908996582 0.391403973102570 0.000000000000000
1.892007708549500 -9.340392112731934 1.015108346939087 0.000000000000000
1.894070386886597 -11.313668251037598 0.969305694103241 0.000000000000000
1.902498722076416 -7.305893898010254 1.118858695030212 0.000000000000000
1.904071569442749 -4.358454704284668 1.274425029754639 0.000000000000000
1.904522776603699 -2.408431053161621 0.455049455165863 0.000000000000000
1.906272768974304 4.896665096282959 1.407975554466248 0.000000000000000
1.907723784446716 2.954317331314087 0.731481254100800 0.000000000000000
1.909481644630432 2.934509754180908 0.728222966194153 0.000000000000000
1.915532946586609 -12.011413574218750 1.295576453208923 0.000000000000000
1.917190074920654 -4.567954063415527 1.030427336692810 0.000000000000000
1.924439311027527 4.892736911773682 0.527558565139771 0.000000000000000
1.925260305404663 -7.722941875457764 0.105582349002361 0.000000000000000
1.926576137542725 -8.598561286926270 0.884189605712891 0.000000000000000
1.926964402198792 -7.833975791931152 0.809508860111237 0.000000000000000
1.932278871536255 -5.153850078582764 0.940844714641571 1.000000000000000
1.935382485389709 -4.568783283233643 1.032056450843811 0.000000000000000
1.942951321601868 -7.214913368225098 0.027386249974370 0.000000000000000
1.945397257804871 -3.052250623703003 0.618693053722382 0.000000000000000
1.952126622200012 -12.168491363525391 1.041380643844604 0.000000000000000
1.953889012336731 -7.011271953582764 1.244125604629517 0.000000000000000
1.955571055412292 -8.340237617492676 1.269564628601074 0.000000000000000
1.966253280639648 -10.604820251464844 0.911376416683197 0.000000000000000
1.968386292457581 -4.465250015258789 1.307553768157959 0.000000000000000
1.968857049942017 -2.945600986480713 0.949348330497742 0.000000000000000
1.970649957656860 -10.219988822937012 1.385059118270874 0.000000000000000
1.986901879310608 -2.633455276489258 0.438997775316238 1.000000000000000
1.988629817962646 -9.996603012084961 0.802165925502777 0.000000000000000
1.990721225738525 -3.544233322143555 0.694850206375122 0.000000000000000
1.992527842521667 3.593288421630859 0.437648952007294 0.000000000000000
1.998892545700073 3.515545129776001 0.177982956171036 0.000000000000000
2.002068996429443 2.405434131622314 0.838573753833771 0.000000000000000
2.009342670440674 -2.983576059341431 0.963842153549194 0.000000000000000
2.009726762771606 -2.229522705078125 0.195684865117073 0.000000000000000
2.012156009674072 -10.997964859008789 1.368833780288696 0.000000000000000
2.012286901473999 -8.361202239990234 0.031520575284958 0.000000000000000
2.013734817504883 -11.072072982788086 0.929178059101105 0.000000000000000
2.015713453292847 -6.817165374755859 0.573219478130341 0.000000000000000
2.027334451675415 -6.465673923492432 0.520199894905090 0.000000000000000
2.027834415435791 2.668283939361572 0.496684134006500 1.000000000000000
2.030512809753418 -6.452133655548096 0.519281387329102 0.000000000000000
2.036279439926147 2.491037845611572 0.129224374890327 0.000000000000000
2.046805381774902 -4.785239219665527 1.082559704780579 0.000000000000000
2.047697067260742 -14.029592514038086 0.979006588459015 0.000000000000000
2.051473855972290 -11.672605514526367 1.450983166694641 0.000000000000000
2.061186313629150 2.692608594894409 0.502548158168793 0.000000000000000
2.064305067062378 -12.071607589721680 0.845643460750580 0.000000000000000
2.067540884017944 2.466534376144409 0.862385094165802 0.000000000000000
2.068705558776855 -9.496694564819336 0.746160745620728 0.000000000000000
2.069055795669556 -6.862564563751221 0.681333005428314 0.000000000000000
2.069982290267944 6.736538887023926 1.888343811035156 0.000000000000000
2.079018354415894 -7.567426681518555 0.711445391178131 0.000000000000000
2.080754756927490 -12.312618255615234 0.141668841242790 0.000000000000000
2.081669092178345 2.552013635635376 0.132274404168129 0.000000000000000
2.082488536834717 -7.134496212005615 0.844165802001953 0.000000000000000
2.093355655670166 -6.865909099578857 0.509484648704529 0.000000000000000
2.098038673400879 -6.995787620544434 0.971915781497955 0.000000000000000
2.104660272598267 -8.952880859375000 0.706051170825958 0.000000000000000
2.105057477951050 -10.536696434020996 0.390242546796799 0.000000000000000
2.108324289321899 -14.263758659362793 0.191268518567085 0.000000000000000
2.109451293945312 -2.452290296554565 0.293245524168015 0.000000000000000
2.114069938659668 -11.402057647705078 0.800729811191559 0.000000000000000
2.117300033569336 -7.032346248626709 0.639948606491089 0.000000000000000
2.121622800827026 -7.907513141632080 2.193750381469727 0.000000000000000
2.127200841903687 -3.023558855056763 0.768951356410980 0.000000000000000
2.133653402328491 -5.576969146728516 0.239827603101730 1.000000000000000
2.137900114059448 -7.376959800720215 0.696277499198914 0.000000000000000
2.137971878051758 -3.014431476593018 0.547701239585876 0.000000000000000
2.147128105163574 -2.139198303222656 0.449185401201248 1.000000000000000
2.147316455841064 -14.009883880615234 1.197655081748962 0.000000000000000
2.148839950561523 -10.314694404602051 0.869931817054749 0.000000000000000
2.153314352035522 -7.433058738708496 0.674324631690979 0.000000000000000
2.154354572296143 -12.142344474792480 0.021523389965296 0.000000000000000
2.154526472091675 -2.550259828567505 0.379197448492050 0.000000000000000
2.163415431976318 -2.542723655700684 0.379197448492050 0.000000000000000
2.172721862792969 -10.478779792785645 1.424104571342468 0.000000000000000
2.178976774215698 -8.073404312133789 1.112796068191528 0.000000000000000
2.179416894912720 -8.515412330627441 0.623899221420288 0.000000000000000
2.195520639419556 -8.506590843200684 0.572742521762848 0.000000000000000
2.195822954177856 -7.462690830230713 1.152870178222656 1.000000000000000
2.196085453033447 2.601387739181519 0.156379640102386 0.000000000000000
2.198492288589478 -10.853433609008789 0.700589120388031 0.000000000000000
2.199178457260132 -8.349512100219727 0.612854242324829 0.000000000000000
2.206320047378540 -3.325938940048218 1.069440245628357 0.000000000000000
2.207431077957153 -8.263621330261230 0.212027430534363 0.000000000000000
2.216528892517090 2.462397813796997 0.314927250146866 0.000000000000000
2.219097137451172 -2.229501247406006 0.466191112995148 0.000000000000000
2.224391222000122 -3.113191366195679 0.567052602767944 0.000000000000000
2.225749492645264 6.210133552551270 0.598047494888306 0.000000000000000
2.228982448577881 -11.046563148498535 1.071206927299500 0.000000000000000
2.230814933776855 -3.388481855392456 1.087040066719055 0.000000000000000
2.231300354003906 -8.383487701416016 0.599031865596771 0.000000000000000
2.234520673751831 -7.520474910736084 0.960516810417175 0.000000000000000
2.243677616119385 -8.673156738281250 0.618595480918884 0.000000000000000
2.247650861740112 -3.022714853286743 0.501259505748749 0.000000000000000
2.250042915344238 -12.161464691162109 0.997266948223114 0.000000000000000
2.253350257873535 -2.129844665527344 0.214097410440445 0.000000000000000
2.253911018371582 -9.104907035827637 0.070395454764366 0.000000000000000
2.257308959960938 -8.943107604980469 0.086932860314846 0.000000000000000
2.258449554443359 -8.734031677246094 0.744856476783752 1.000000000000000
2.260285854339600 -11.739708900451660 0.987107634544373 0.000000000000000
2.262763023376465 -11.107941627502441 1.508527278900146 0.000000000000000
2.263411998748779 -11.689989089965820 1.457788467407227 0.000000000000000
2.265073299407959 -6.673455238342285 0.862812459468842 0.000000000000000
2.271384477615356 -13.929966926574707 0.241431504487991 0.000000000000000
2.273351430892944 -2.413940668106079 0.566798269748688 1.000000000000000
2.275232553482056 -4.176713466644287 1.274425029754639 0.000000000000000
2.278121471405029 -7.242020606994629 0.494936972856522 0.000000000000000
2.280497789382935 -4.151813507080078 1.269248604774475 0.000000000000000
2.284541845321655 -10.257443428039551 0.260499328374863 0.000000000000000
2.294111013412476 -8.450727462768555 1.821371912956238 0.000000000000000
2.294468164443970 -8.672564506530762 0.900164246559143 0.000000000000000
2.299921751022339 -2.459298133850098 0.575559735298157 1.000000000000000
2.300013542175293 -8.894769668579102 0.616664171218872 0.000000000000000
2.307260513305664 -3.811089754104614 0.281852006912231 1.000000000000000
2.308708667755127 -2.381737232208252 0.315305769443512 0.000000000000000
2.309617280960083 2.230528354644775 0.085761576890945 0.000000000000000
2.318785429000854 3.885022163391113 1.212308406829834 0.000000000000000
2.322374820709229 3.860349893569946 1.207131981849670 0.000000000000000
2.340126037597656 -7.977788925170898 1.017875671386719 0.000000000000000
2.342042207717896 -2.399309396743774 0.318712443113327 0.000000000000000
2.347656726837158 -1.929210424423218 0.180528610944748 0.000000000000000
2.350411415100098 -7.781992912292480 0.708353400230408 0.000000000000000
2.352572917938232 -1.938690543174744 0.816832959651947 1.000000000000000
2.352716922760010 2.277474880218506 0.100044183433056 0.000000000000000
2.354862451553345 -10.290943145751953 0.810458540916443 0.000000000000000
2.365572214126587 -8.764764785766602 0.626861810684204 0.000000000000000
2.369525909423828 2.522583484649658 0.145661324262619 0.000000000000000
2.377172946929932 3.465023279190063 0.874030470848083 0.000000000000000
2.384117126464844 -10.469198226928711 2.877032518386841 0.000000000000000
2.389776468276978 2.850955009460449 0.170879617333412 0.000000000000000
2.394469499588013 -8.871833801269531 0.351410478353500 1.000000000000000
2.401083707809448 -2.045506715774536 0.539166033267975 0.000000000000000
2.402636528015137 -7.411276817321777 1.331740140914917 0.000000000000000
2.404083013534546 -9.858955383300781 0.700707495212555 0.000000000000000
2.404373645782471 -3.869709730148315 0.606260120868683 0.000000000000000
2.404747962951660 -8.825975418090820 0.719940721988678 0.000000000000000
2.418473720550537 3.001106262207031 0.273575395345688 0.000000000000000
2.431246995925903 -2.633056402206421 0.340666502714157 0.000000000000000
2.435411930084229 -10.869561195373535 2.984701395034790 0.000000000000000
2.440012216567993 2.820605993270874 0.135452494025230 0.000000000000000
2.443358182907104 -11.512880325317383 2.011763334274292 0.000000000000000
2.443926095962524 -8.899306297302246 0.655051708221436 0.000000000000000
2.444569826126099 -3.836318969726562 0.252734899520874 1.000000000000000
2.448977947235107 -11.757442474365234 0.852445125579834 0.000000000000000
2.450181007385254 -2.175066709518433 0.276848256587982 0.000000000000000
2.450847864151001 4.101238727569580 0.993771791458130 0.000000000000000
2.456667423248291 -1.951952099800110 0.198508664965630 0.000000000000000
2.463402271270752 -2.865385055541992 0.560015738010406 0.000000000000000
2.463748931884766 -11.882369995117188 0.837928235530853 0.000000000000000
2.464931249618530 -11.163760185241699 0.899769008159637 0.000000000000000
2.470041751861572 -8.349957466125488 0.534107267856598 0.000000000000000
2.470467567443848 4.167037487030029 1.007619500160217 0.000000000000000
2.470987796783447 -3.641550779342651 1.179179668426514 0.000000000000000
2.473956584930420 -11.459926605224609 1.062834382057190 0.000000000000000
2.477500200271606 -4.795549869537354 0.922647893428802 0.000000000000000
2.478811025619507 -2.943473815917969 0.657782614231110 1.000000000000000
2.479103326797485 -10.936551094055176 1.016608476638794 0.000000000000000
2.480982065200806 -8.036601066589355 0.596994757652283 0.000000000000000
2.487126827239990 2.634295463562012 0.089806847274303 0.000000000000000
2.488945960998535 -9.457704544067383 0.073397390544415 0.000000000000000
2.490742921829224 -1.830368518829346 0.828220963478088 0.000000000000000
2.490746498107910 -2.029521703720093 0.476159989833832 0.000000000000000
2.498950719833374 2.660368442535400 0.209817066788673 0.000000000000000
2.499172925949097 3.062762260437012 0.344454169273376 0.000000000000000
2.508153200149536 -11.139526367187500 0.876593470573425 0.000000000000000
2.509078025817871 3.118210077285767 0.832487583160400 0.000000000000000
2.509907245635986 -9.006469726562500 0.847595095634460 0.000000000000000
2.511934280395508 3.072919845581055 0.345843106508255 0.000000000000000
2.512848615646362 -1.819734215736389 0.831326782703400 0.000000000000000
2.516716241836548 -2.047760486602783 0.480851233005524 0.000000000000000
2.516997337341309 -2.383036613464355 0.513689875602722 0.000000000000000
2.519624233245850 2.866918325424194 0.293014287948608 0.000000000000000
2.520872116088867 2.902899026870728 0.295157551765442 0.000000000000000
2.521890163421631 6.935616016387939 0.041217483580112 0.000000000000000
2.522239685058594 5.867560386657715 1.711311578750610 0.000000000000000
2.522248983383179 -3.945296287536621 0.296247690916061 1.000000000000000
2.524334430694580 3.115959167480469 0.834116697311401 0.000000000000000
2.524823904037476 -2.420711278915405 0.518381118774414 0.000000000000000
2.526468992233276 6.492106914520264 0.279798865318298 0.000000000000000
2.530534744262695 -8.686948776245117 0.712094783782959 0.000000000000000
2.532662153244019 -8.324478149414062 0.433172643184662 0.000000000000000
2.544053792953491 -10.384129524230957 1.584463477134705 0.000000000000000
2.551411390304565 6.908112049102783 1.973236560821533 0.000000000000000
2.558300971984863 2.977240085601807 0.142566293478012 0.000000000000000
2.562698841094971 5.904798030853271 1.724770188331604 0.000000000000000
2.562771081924438 -8.704180717468262 0.790647387504578 0.000000000000000
2.564795970916748 2.296900749206543 0.300008475780487 0.000000000000000
2.566367149353027 6.443110466003418 1.185491323471069 1.000000000000000
2.571388483047485 4.115240097045898 0.516874849796295 1.000000000000000
2.571388721466064 -9.583839416503906 0.761775970458984 0.000000000000000
2.574270248413086 -14.626288414001465 1.346329092979431 0.000000000000000
2.578297138214111 -13.738549232482910 0.212269261479378 0.000000000000000
2.580003499984741 1.908126831054688 0.475573599338531 0.000000000000000
2.580522537231445 -2.275197267532349 0.284052640199661 0.000000000000000
2.589187860488892 -3.823351621627808 0.684333384037018 0.000000000000000
2.591356277465820 -9.565484046936035 0.818255960941315 0.000000000000000
2.595944404602051 1.976721167564392 0.244191467761993 0.000000000000000
2.598511219024658 -8.050906181335449 0.047249309718609 0.000000000000000
2.600470066070557 -12.342252731323242 0.264209568500519 0.000000000000000
2.600932598114014 2.300949096679688 0.152833178639412 0.000000000000000
2.601046800613403 -10.352140426635742 1.420411109924316 0.000000000000000
2.615978956222534 -1.604707360267639 0.408394575119019 1.000000000000000
2.629268407821655 -8.989064216613770 0.646700918674469 0.000000000000000
2.629411935806274 -10.465033531188965 0.745070040225983 0.000000000000000
2.629878044128418 -14.758090019226074 1.266698718070984 0.000000000000000
2.630516767501831 -8.736931800842285 1.352247357368469 0.000000000000000
2.632745504379272 -2.205066442489624 0.587017059326172 1.000000000000000
2.633583545684814 -1.883306026458740 0.344865679740906 0.000000000000000
2.634367942810059 -10.808251380920410 0.404034614562988 0.000000000000000
2.641707658767700 5.039831161499023 1.183565974235535 0.000000000000000
2.642300844192505 6.012487411499023 0.466154366731644 1.000000000000000
2.643740415573120 -11.180320739746094 0.793290138244629 0.000000000000000
2.645775318145752 3.178830862045288 0.317508697509766 0.000000000000000
2.651822090148926 -3.909959316253662 0.700166285037994 0.000000000000000
2.652552366256714 -2.205948114395142 0.589712858200073 0.000000000000000
2.655881643295288 -11.131847381591797 3.066488265991211 0.000000000000000
2.656121492385864 4.794137477874756 0.622515797615051 0.000000000000000
2.657850980758667 -3.747017860412598 1.230943441390991 1.000000000000000
2.658405303955078 -1.836102962493896 0.672017812728882 0.000000000000000
2.664558887481689 2.756922721862793 0.568225383758545 0.000000000000000
2.664820671081543 -12.699295997619629 1.021223664283752 0.000000000000000
2.673019647598267 -10.080630302429199 1.110857367515564 0.000000000000000
2.679063320159912 3.353363513946533 0.892765522003174 0.000000000000000
2.680766344070435 -1.855489134788513 0.156031608581543 1.000000000000000
2.684336662292480 2.031546831130981 0.102853722870350 0.000000000000000
2.686689853668213 -4.973284244537354 1.514609098434448 0.000000000000000
2.694751262664795 -1.961302161216736 0.217283055186272 0.000000000000000
2.696378946304321 -10.892301559448242 1.493225574493408 0.000000000000000
2.701652526855469 -1.464192271232605 0.408922195434570 0.000000000000000
2.705378055572510 -6.914677143096924 1.544419169425964 1.000000000000000
2.708437204360962 3.065427303314209 0.211512401700020 0.000000000000000
2.711594820022583 7.396183013916016 0.195275381207466 0.000000000000000
2.714702606201172 3.075329303741455 0.220007956027985 0.000000000000000
2.714925289154053 -11.528968811035156 0.749332368373871 0.000000000000000
2.715892791748047 2.981695413589478 0.429599285125732 0.000000000000000
2.716542243957520 -6.872413635253906 1.537088036537170 0.000000000000000
2.719002485275269 -1.920320630073547 0.692381978034973 0.000000000000000
2.719910383224487 -8.569567680358887 0.902161002159119 0.000000000000000
2.722023248672485 -8.600690841674805 1.542014837265015 0.000000000000000
2.722173929214478 -9.813182830810547 0.703187346458435 0.000000000000000
2.723375558853149 2.760321140289307 0.574675858020782 1.000000000000000
2.725936174392700 2.405097484588623 0.621388852596283 0.000000000000000
2.727046966552734 2.923581123352051 0.683392941951752 0.000000000000000
2.728320837020874 3.113464593887329 0.046965807676315 0.000000000000000
2.732379198074341 2.124190330505371 0.145661324262619 0.000000000000000
2.732905626296997 -9.219044685363770 0.626868128776550 0.000000000000000
2.737810134887695 -1.947962880134583 0.698898553848267 0.000000000000000
2.741013050079346 -10.143157958984375 0.523068845272064 0.000000000000000
2.742197275161743 -8.104265213012695 0.590765535831451 0.000000000000000
2.742352247238159 4.478973865509033 0.897711455821991 0.000000000000000
2.748032808303833 2.925539731979370 0.686088740825653 0.000000000000000
2.749505519866943 -1.446646332740784 0.238514259457588 1.000000000000000
2.754281282424927 -8.784087181091309 0.923726677894592 0.000000000000000
2.755595684051514 2.126849412918091 0.146502330899239 0.000000000000000
2.758101463317871 -1.337953686714172 0.199848353862762 0.000000000000000
2.761206150054932 1.626994490623474 0.141049727797508 0.000000000000000
2.764321327209473 -1.472973227500916 0.314298689365387 0.000000000000000
2.769941329956055 -2.156418085098267 0.352238148450851 0.000000000000000
2.772790908813477 -1.170759439468384 0.806480169296265 0.000000000000000
2.774996995925903 -8.147302627563477 0.395354121923447 1.000000000000000
2.775088548660278 7.658576965332031 1.392396211624146 0.000000000000000
2.776397943496704 3.219784021377563 0.195290982723236 0.000000000000000
2.782099485397339 -8.685008049011230 1.558863878250122 0.000000000000000
2.784507513046265 -10.714417457580566 0.914037346839905 0.000000000000000
2.784794807434082 1.718312740325928 0.484956055879593 0.000000000000000
2.784834384918213 -10.171267509460449 0.687499225139618 0.000000000000000
2.785886049270630 2.330107212066650 0.973159670829773 0.000000000000000
2.786803483963013 -6.708721637725830 1.511021971702576 0.000000000000000
2.787053346633911 -2.779087305068970 0.356806099414825 0.000000000000000
2.789612531661987 -2.441776990890503 0.493344873189926 0.000000000000000
2.791042804718018 1.647201299667358 0.142632588744164 0.000000000000000
2.792438745498657 3.517123460769653 0.767637670040131 0.000000000000000
2.798916339874268 1.702839255332947 0.485542476177216 0.000000000000000
2.806289911270142 -11.381420135498047 0.200520187616348 0.000000000000000
2.807581186294556 -10.271235466003418 0.714708983898163 0.000000000000000
2.809520483016968 -1.350802540779114 0.203231215476990 0.000000000000000
2.817026138305664 2.247837543487549 0.020128428936005 0.000000000000000
2.821258068084717 3.002445220947266 0.015100556425750 0.000000000000000
2.828449249267578 4.728991508483887 0.136593639850616 0.000000000000000
2.831076383590698 -6.820676326751709 1.262322545051575 0.000000000000000
2.831384181976318 3.035437822341919 0.376307666301727 0.000000000000000
2.833127737045288 -3.291722297668457 0.903354883193970 0.000000000000000
2.833808660507202 -12.054558753967285 3.318060398101807 0.000000000000000
2.834227323532104 -5.921058177947998 1.758934378623962 0.000000000000000
2.835987329483032 -1.785778164863586 0.572863936424255 0.000000000000000
2.836047172546387 3.007542848587036 0.134243905544281 0.000000000000000
2.836680173873901 2.092451572418213 0.469073355197906 0.000000000000000
2.836884975433350 -8.268904685974121 0.620500802993774 1.000000000000000
2.838423252105713 7.748805046081543 1.410593271255493 0.000000000000000
2.840418338775635 -10.261682510375977 1.209369063377380 0.000000000000000
2.846347570419312 3.373928546905518 0.126383692026138 0.000000000000000
2.854387283325195 6.388839721679688 0.609739422798157 1.000000000000000
2.858108282089233 3.363971710205078 0.126383692026138 0.000000000000000
2.859698534011841 4.720249652862549 0.434349596500397 1.000000000000000
2.859736204147339 -11.956697463989258 0.588369131088257 0.000000000000000
2.862478971481323 2.267796754837036 0.020396510139108 0.000000000000000
2.863358974456787 -2.916624784469604 0.370529413223267 0.000000000000000
2.868201971054077 4.795455455780029 0.052664879709482 1.000000000000000
2.871681928634644 -5.945919990539551 1.769287109375000 0.000000000000000
2.875032663345337 7.764733791351318 1.415310859680176 0.000000000000000
2.877570629119873 2.517171144485474 0.080083817243576 0.000000000000000
2.886995792388916 0.832251727581024 0.143793821334839 0.000000000000000
2.893726348876953 0.823261618614197 0.143985033035278 1.000000000000000
2.895404338836670 -3.387927293777466 0.926977276802063 0.000000000000000
2.909750699996948 1.898001670837402 0.514862656593323 1.000000000000000
2.910458326339722 -0.873123943805695 0.239143341779709 0.000000000000000
2.911934137344360 -2.177691936492920 0.167025193572044 1.000000000000000
2.912865400314331 -3.474988698959351 0.482981473207474 0.000000000000000
2.913972139358521 2.402863025665283 0.231666877865791 0.000000000000000
2.918410539627075 3.083543777465820 0.629211425781250 0.000000000000000
2.921138763427734 -3.337729930877686 0.503790915012360 0.000000000000000
2.922261238098145 -2.463737487792969 0.566466212272644 0.000000000000000
2.930547952651978 7.210566997528076 0.567475616931915 0.000000000000000
2.935287952423096 7.843274116516113 1.431485891342163 0.000000000000000
2.937451601028442 2.781504631042480 0.841447710990906 0.000000000000000
2.949369430541992 4.053209781646729 1.042645812034607 0.000000000000000
2.949619531631470 -1.861934900283813 0.288002401590347 1.000000000000000
2.958333015441895 -3.504310369491577 0.488489091396332 0.000000000000000
2.959802627563477 2.142383098602295 0.759991049766541 0.000000000000000
2.960687875747681 -0.618196308612823 0.263549119234085 0.000000000000000
2.963952064514160 -5.067728042602539 1.003522753715515 0.000000000000000
2.966113328933716 1.171733379364014 0.472641587257385 0.000000000000000
2.969966173171997 -1.831568360328674 0.725779235363007 0.000000000000000
2.970500469207764 7.234198093414307 0.555080533027649 0.000000000000000
2.970611333847046 1.171113610267639 0.473227977752686 0.000000000000000
2.971764802932739 -11.418586730957031 0.156516537070274 0.000000000000000
2.972468376159668 -2.509618997573853 0.276124238967896 0.000000000000000
2.972994804382324 -2.342710971832275 0.646999239921570 0.000000000000000
2.973196029663086 -2.507923364639282 0.283592373132706 0.000000000000000
2.973532915115356 -1.848126053810120 0.728222966194153 0.000000000000000
2.974031209945679 -3.681022167205811 0.701339125633240 0.000000000000000
