# This PCD file was generated using the MATLAB® pcwrite function
# from Computer Vision Toolbox®.
# .PCD v.7 - Point Cloud Data file format
VERSION .7
FIELDS x y z intensity
SIZE 8 8 8 8
TYPE F F F F
COUNT 1 1 1 1
WIDTH 644
HEIGHT 1
VIEWPOINT 0 0 0 1 0 0 0
POINTS 644
DATA ascii
19.273843765258789 -11.708545684814453 2.044412374496460 0.000000000000000
19.275150299072266 -3.451131343841553 1.964865922927856 0.000000000000000
19.277624130249023 -11.507280349731445 1.956305265426636 0.000000000000000
19.281764984130859 14.673888206481934 -0.283355414867401 0.000000000000000
19.284154891967773 17.624908447265625 2.276453256607056 0.000000000000000
19.285177230834961 2.058268785476685 3.315197229385376 0.000000000000000
19.287853240966797 2.567048311233521 2.072583436965942 0.000000000000000
19.288431167602539 19.787008285522461 1.748189568519592 0.000000000000000
19.291799545288086 1.309770822525024 1.037057876586914 0.000000000000000
19.297758102416992 20.256155014038086 1.877852201461792 0.000000000000000
19.299221038818359 -10.473388671875000 1.990602493286133 0.000000000000000
19.302846908569336 19.572906494140625 0.575832843780518 0.000000000000000
19.309732437133789 17.648283004760742 1.453392028808594 0.000000000000000
19.313068389892578 27.858346939086914 0.970544278621674 0.000000000000000
19.318124771118164 2.880907297134399 1.122773766517639 0.000000000000000
19.321647644042969 17.675271987915039 0.699442803859711 0.000000000000000
19.332502365112305 1.580589294433594 2.581222534179688 0.000000000000000
19.333370208740234 24.288841247558594 0.054181974381208 0.000000000000000
19.333789825439453 15.614888191223145 0.998157978057861 0.000000000000000
19.337915420532227 -9.656705856323242 1.826457619667053 0.000000000000000
19.338697433471680 -13.706752777099609 2.692301988601685 0.000000000000000
19.341028213500977 3.781241416931152 1.786558508872986 0.000000000000000
19.348064422607422 17.336879730224609 -0.503360569477081 0.000000000000000
19.351257324218750 -8.234457969665527 2.110234260559082 0.000000000000000
19.352661132812500 -19.660438537597656 -0.693490147590637 1.000000000000000
19.352729797363281 -1.379073023796082 1.339693307876587 0.000000000000000
19.357587814331055 0.504867732524872 1.038557410240173 0.000000000000000
19.366649627685547 13.917371749877930 1.738784790039062 0.000000000000000
19.367240905761719 2.468639135360718 1.047126412391663 0.000000000000000
19.372444152832031 -0.914258778095245 1.601293325424194 0.000000000000000
19.379667282104492 12.248481750488281 3.050823450088501 0.000000000000000
19.382787704467773 4.218340873718262 1.637828469276428 0.000000000000000
19.390041351318359 -19.222234725952148 0.834190130233765 1.000000000000000
19.390592575073242 22.968418121337891 1.785833716392517 0.000000000000000
19.392318725585938 17.723764419555664 -0.155900269746780 0.000000000000000
19.394750595092773 2.409555912017822 1.771751761436462 0.000000000000000
19.400167465209961 -13.811457633972168 2.158893585205078 0.000000000000000
19.403385162353516 17.858591079711914 0.248546570539474 0.000000000000000
19.404838562011719 20.813528060913086 1.580979943275452 0.000000000000000
19.405527114868164 17.627983093261719 1.103392958641052 0.000000000000000
19.411661148071289 0.297487586736679 1.602939128875732 0.000000000000000
19.411937713623047 -0.029814539477229 0.966384589672089 0.000000000000000
19.413228988647461 -15.633195877075195 1.769177675247192 0.000000000000000
19.419885635375977 1.000081539154053 1.455297470092773 0.000000000000000
19.419929504394531 10.830316543579102 2.113646268844604 0.000000000000000
19.431365966796875 -20.863857269287109 1.529130220413208 1.000000000000000
19.431861877441406 -20.983030319213867 1.203640222549438 1.000000000000000
19.434167861938477 17.610713958740234 -0.709665596485138 0.000000000000000
19.438081741333008 11.089085578918457 1.545248746871948 0.000000000000000
19.445240020751953 -19.319396972656250 -1.426949262619019 1.000000000000000
19.447624206542969 6.914274215698242 1.345593690872192 0.000000000000000
19.449226379394531 14.384318351745605 -0.515166878700256 0.000000000000000
19.453603744506836 -11.441675186157227 1.689040780067444 0.000000000000000
19.454189300537109 -13.837639808654785 2.080266952514648 0.000000000000000
19.457334518432617 12.361819267272949 1.769720673561096 0.000000000000000
19.459751129150391 18.135082244873047 -1.128825306892395 0.000000000000000
19.461202621459961 3.669494628906250 2.424624681472778 0.000000000000000
19.462528228759766 15.685218811035156 0.619627594947815 0.000000000000000
19.463165283203125 -24.710191726684570 -1.153397321701050 1.000000000000000
19.464719772338867 19.605188369750977 0.260383933782578 0.000000000000000
19.465354919433594 -11.705677986145020 2.279164552688599 0.000000000000000
19.468717575073242 -10.568012237548828 1.930262923240662 0.000000000000000
19.472625732421875 19.341197967529297 1.524841308593750 0.000000000000000
19.484592437744141 -19.223808288574219 0.678507566452026 1.000000000000000
19.490840911865234 -7.828945159912109 1.830260038375854 0.000000000000000
19.493392944335938 0.221835568547249 2.214242219924927 0.000000000000000
19.497053146362305 16.046993255615234 -0.149847507476807 0.000000000000000
19.500232696533203 -2.807247161865234 1.170470595359802 0.000000000000000
19.516122817993164 13.527732849121094 1.410780191421509 0.000000000000000
19.522760391235352 2.344542980194092 0.714138031005859 0.000000000000000
19.524051666259766 -21.322450637817383 2.900972843170166 0.000000000000000
19.527877807617188 18.694532394409180 0.877908349037170 0.000000000000000
19.530612945556641 1.389008164405823 1.314228653907776 0.000000000000000
19.530769348144531 -1.581015229225159 0.824685335159302 0.000000000000000
19.530866622924805 1.061853766441345 1.124380707740784 0.000000000000000
19.539691925048828 4.094161987304688 2.656675338745117 0.000000000000000
19.539878845214844 1.344429731369019 2.902699470520020 0.000000000000000
19.541118621826172 15.983982086181641 1.062520265579224 0.000000000000000
19.544271469116211 -2.271028757095337 1.434541106224060 0.000000000000000
19.545131683349609 3.821144342422485 3.404159545898438 0.000000000000000
19.545789718627930 16.116897583007812 0.725332438945770 0.000000000000000
19.552368164062500 -17.393608093261719 3.482434272766113 0.000000000000000
19.560235977172852 -8.872093200683594 1.731875061988831 0.000000000000000
19.564622879028320 -2.700199365615845 1.287564754486084 0.000000000000000
19.572475433349609 2.501047372817993 1.438613176345825 0.000000000000000
19.580934524536133 -0.759748578071594 1.862688660621643 1.000000000000000
19.582286834716797 14.051614761352539 1.199876189231873 0.000000000000000
19.584539413452148 -23.084310531616211 3.224536657333374 0.000000000000000
19.587242126464844 12.000257492065430 1.232001662254333 0.000000000000000
19.591205596923828 16.687585830688477 1.380244612693787 0.000000000000000
19.593307495117188 -3.543752908706665 1.336462855339050 0.000000000000000
19.611000061035156 18.905746459960938 0.465964853763580 0.000000000000000
19.612405776977539 -14.984511375427246 1.513916134834290 0.000000000000000
19.614286422729492 16.698387145996094 1.580036640167236 0.000000000000000
19.614456176757812 -3.888747215270996 1.742410302162170 0.000000000000000
19.617446899414062 20.348550796508789 2.115330934524536 0.000000000000000
19.624408721923828 -2.294227361679077 1.288085222244263 0.000000000000000
19.628601074218750 14.555171966552734 1.075460195541382 0.000000000000000
19.638956069946289 -1.218029260635376 2.095885038375854 0.000000000000000
19.645341873168945 -9.941226959228516 2.209275960922241 0.000000000000000
19.647977828979492 3.000250339508057 3.397420167922974 0.000000000000000
19.648788452148438 -1.894731879234314 1.591704845428467 0.000000000000000
19.652608871459961 1.113207936286926 1.587203979492188 0.000000000000000
19.652622222900391 19.962368011474609 1.232866048812866 0.000000000000000
19.671022415161133 20.179489135742188 2.217881917953491 0.000000000000000
19.674692153930664 7.150888442993164 1.122747421264648 0.000000000000000
19.676826477050781 -1.289342403411865 1.551921010017395 0.000000000000000
19.678180694580078 -20.091888427734375 0.211066275835037 1.000000000000000
19.679841995239258 2.940477609634399 1.891456127166748 0.000000000000000
19.683494567871094 2.178647994995117 2.934951543807983 0.000000000000000
19.686847686767578 19.667619705200195 0.101994723081589 0.000000000000000
19.688848495483398 -1.142492294311523 1.514060258865356 0.000000000000000
19.691289901733398 -19.385059356689453 -0.004822694230825 0.000000000000000
19.696447372436523 -18.407121658325195 -0.263498634099960 1.000000000000000
19.696479797363281 13.811105728149414 0.873690307140350 0.000000000000000
19.697071075439453 -6.989804267883301 1.523836374282837 0.000000000000000
19.697448730468750 -12.846484184265137 2.879120111465454 0.000000000000000
19.701158523559570 12.530729293823242 1.927805781364441 0.000000000000000
19.703960418701172 -7.417615890502930 1.331977963447571 0.000000000000000
19.705852508544922 20.788150787353516 0.489978015422821 0.000000000000000
19.709951400756836 14.426556587219238 0.840154707431793 0.000000000000000
19.711910247802734 11.799210548400879 3.057155132293701 0.000000000000000
19.713621139526367 17.630971908569336 -0.664841890335083 0.000000000000000
19.720401763916016 0.583220779895782 1.362287759780884 0.000000000000000
19.723537445068359 19.769033432006836 1.121603369712830 0.000000000000000
19.726715087890625 1.472179889678955 1.022860765457153 0.000000000000000
19.733617782592773 3.780817747116089 2.977759122848511 0.000000000000000
19.745445251464844 22.818096160888672 1.850886225700378 0.000000000000000
19.751010894775391 11.843214035034180 1.901474118232727 0.000000000000000
19.752410888671875 15.305540084838867 0.427448004484177 0.000000000000000
19.756771087646484 17.016910552978516 1.599383115768433 0.000000000000000
19.768571853637695 11.481578826904297 2.173073768615723 0.000000000000000
19.770011901855469 20.897426605224609 1.930892825126648 0.000000000000000
19.775976181030273 -3.632425069808960 1.155830383300781 0.000000000000000
19.777786254882812 20.639953613281250 0.324313640594482 0.000000000000000
19.778444290161133 3.841678380966187 0.693024575710297 0.000000000000000
19.779073715209961 3.264128684997559 2.135286331176758 0.000000000000000
19.779245376586914 11.580304145812988 1.715310692787170 0.000000000000000
19.788681030273438 -2.019832134246826 3.400115728378296 0.000000000000000
19.789255142211914 -15.948537826538086 3.382182359695435 0.000000000000000
19.790685653686523 16.639350891113281 1.436528325080872 0.000000000000000
19.792629241943359 13.446515083312988 1.513818025588989 0.000000000000000
19.793014526367188 -9.797795295715332 1.866199851036072 0.000000000000000
19.797195434570312 -2.090551376342773 3.402811765670776 0.000000000000000
19.804399490356445 -2.588312149047852 1.687696695327759 0.000000000000000
19.806211471557617 12.430191040039062 0.624574959278107 0.000000000000000
19.806222915649414 14.519344329833984 0.939132690429688 0.000000000000000
19.820276260375977 -18.369203567504883 -0.160362705588341 1.000000000000000
19.821428298950195 14.977776527404785 0.997836887836456 0.000000000000000
19.823987960815430 17.209056854248047 1.660805344581604 0.000000000000000
19.824138641357422 -20.179527282714844 3.013126373291016 0.000000000000000
19.831645965576172 20.250017166137695 0.158301949501038 0.000000000000000
19.833719253540039 1.425878882408142 0.531123638153076 0.000000000000000
19.836759567260742 4.725051879882812 2.496566057205200 0.000000000000000
19.836902618408203 16.386039733886719 0.736665785312653 0.000000000000000
19.843280792236328 -6.073517799377441 1.352879762649536 0.000000000000000
19.844577789306641 14.631757736206055 0.469105780124664 0.000000000000000
19.851646423339844 -17.600963592529297 2.662153720855713 0.000000000000000
19.852285385131836 2.127906322479248 1.897890925407410 0.000000000000000
19.863708496093750 10.004302978515625 2.016243457794189 0.000000000000000
19.864517211914062 17.242416381835938 -0.459137886762619 0.000000000000000
19.864976882934570 -6.501318454742432 1.986842632293701 0.000000000000000
19.868310928344727 14.441533088684082 -0.287237673997879 0.000000000000000
19.870174407958984 -1.146403074264526 1.335927128791809 0.000000000000000
19.871461868286133 20.612031936645508 2.721546888351440 0.000000000000000
19.875883102416992 -19.635898590087891 0.156045585870743 1.000000000000000
19.876354217529297 -8.901116371154785 1.209976553916931 0.000000000000000
19.877210617065430 -1.185796499252319 1.735118508338928 0.000000000000000
19.880414962768555 -17.561506271362305 3.529922246932983 0.000000000000000
19.880899429321289 17.933536529541016 0.303757607936859 0.000000000000000
19.881181716918945 16.775951385498047 0.744793713092804 0.000000000000000
19.886293411254883 17.914495468139648 1.435514330863953 0.000000000000000
19.904344558715820 -17.485160827636719 3.009202718734741 0.000000000000000
19.904951095581055 -1.168278574943542 2.123847246170044 0.000000000000000
19.908111572265625 12.071978569030762 2.644450902938843 0.000000000000000
19.911745071411133 12.762519836425781 1.587468147277832 0.000000000000000
19.911762237548828 -14.217608451843262 2.778975486755371 0.000000000000000
19.912412643432617 20.926177978515625 0.327716946601868 0.000000000000000
19.912828445434570 14.880993843078613 0.807281076908112 0.000000000000000
19.923597335815430 20.272987365722656 0.813823938369751 0.000000000000000
19.930166244506836 -17.755884170532227 3.031774044036865 0.000000000000000
19.930353164672852 17.670747756958008 0.046488568186760 0.000000000000000
19.933279037475586 3.693699359893799 1.927036762237549 0.000000000000000
19.937065124511719 17.064607620239258 2.065357446670532 0.000000000000000
19.938585281372070 24.098196029663086 2.220038890838623 0.000000000000000
19.939088821411133 -9.956911087036133 1.538911223411560 0.000000000000000
19.944911956787109 15.489826202392578 0.577489674091339 0.000000000000000
19.947860717773438 -10.903944015502930 2.160961151123047 0.000000000000000
19.952823638916016 -1.399436593055725 1.901297569274902 0.000000000000000
19.953718185424805 15.146786689758301 0.476638853549957 0.000000000000000
19.956497192382812 -17.505075454711914 3.532560110092163 0.000000000000000
19.957075119018555 14.236296653747559 0.278119266033173 0.000000000000000
19.962642669677734 24.694986343383789 1.458625555038452 0.000000000000000
19.963014602661133 1.595320582389832 0.611869692802429 0.000000000000000
19.965320587158203 0.330370962619781 1.648690342903137 0.000000000000000
19.966911315917969 20.771167755126953 0.492851406335831 0.000000000000000
19.967721939086914 -6.025568485260010 1.399950861930847 0.000000000000000
19.969058990478516 14.375132560729980 -0.382231295108795 0.000000000000000
19.971292495727539 20.109804153442383 0.593675732612610 0.000000000000000
19.986059188842773 -19.139842987060547 -0.429885923862457 1.000000000000000
19.988826751708984 4.115479469299316 2.715771198272705 0.000000000000000
19.992856979370117 4.220084190368652 2.050329685211182 0.000000000000000
19.993545532226562 -3.603170871734619 1.402792692184448 0.000000000000000
19.999013900756836 2.849127292633057 1.920223593711853 0.000000000000000
20.000757217407227 -20.217657089233398 3.029225826263428 0.000000000000000
20.004087448120117 18.147516250610352 1.448581933975220 0.000000000000000
20.006536483764648 -2.775424957275391 2.294144630432129 0.000000000000000
20.007934570312500 -1.129826784133911 1.654614925384521 0.000000000000000
20.008575439453125 -1.000978231430054 1.421969175338745 0.000000000000000
20.008844375610352 -3.747445106506348 3.479642868041992 0.000000000000000
20.026575088500977 -2.327072143554688 1.827728509902954 0.000000000000000
20.032270431518555 -7.701302528381348 1.689067602157593 0.000000000000000
20.039735794067383 -2.708765983581543 2.296853303909302 0.000000000000000
20.055402755737305 18.311819076538086 -1.100262045860291 0.000000000000000
20.058803558349609 12.982593536376953 -0.830206990242004 0.000000000000000
20.064666748046875 3.347601175308228 1.483115434646606 0.000000000000000
20.068016052246094 20.404262542724609 0.709434449672699 0.000000000000000
20.072128295898438 -9.579935073852539 3.296176433563232 0.000000000000000
20.078016281127930 -13.265172004699707 2.946200609207153 0.000000000000000
20.082866668701172 -3.523444414138794 2.045936584472656 0.000000000000000
20.088790893554688 -2.655084371566772 1.281972050666809 0.000000000000000
20.089864730834961 2.793428659439087 1.767410993576050 0.000000000000000
20.094512939453125 -7.998201847076416 3.205283880233765 1.000000000000000
20.095773696899414 -19.394063949584961 -0.058492220938206 1.000000000000000
20.095874786376953 -17.943185806274414 2.703288316726685 0.000000000000000
20.103506088256836 -1.376864790916443 1.624818563461304 0.000000000000000
20.115819931030273 -1.504042744636536 1.392873167991638 0.000000000000000
20.129384994506836 0.368583053350449 1.545596837997437 0.000000000000000
20.130725860595703 18.931798934936523 1.588549375534058 0.000000000000000
20.132543563842773 -2.887156724929810 0.621397733688354 0.000000000000000
20.133422851562500 16.235179901123047 -0.103824473917484 0.000000000000000
20.136529922485352 -2.846492528915405 2.706273555755615 0.000000000000000
20.137647628784180 -17.715658187866211 2.110863685607910 0.000000000000000
20.139184951782227 11.100006103515625 -0.622242271900177 0.000000000000000
20.146087646484375 3.740761280059814 0.626039624214172 0.000000000000000
20.150621414184570 -0.039389785379171 1.352535724639893 0.000000000000000
20.159444808959961 12.951086044311523 2.933562278747559 0.000000000000000
20.159946441650391 1.997307896614075 0.735769808292389 0.000000000000000
20.168066024780273 16.679737091064453 0.095925174653530 0.000000000000000
20.172969818115234 11.342784881591797 1.374959111213684 0.000000000000000
20.183378219604492 3.893652915954590 1.578051924705505 0.000000000000000
20.188009262084961 7.578526496887207 -0.127962604165077 0.000000000000000
20.196228027343750 -6.438060283660889 2.127007246017456 0.000000000000000
20.198484420776367 10.417186737060547 0.781715214252472 0.000000000000000
20.204711914062500 15.602468490600586 1.811941504478455 0.000000000000000
20.211879730224609 -6.090010166168213 1.913679718971252 0.000000000000000
20.212423324584961 16.441431045532227 1.046476721763611 0.000000000000000
20.217140197753906 16.978633880615234 -0.612950682640076 0.000000000000000
20.222375869750977 3.555194139480591 1.615943670272827 0.000000000000000
20.227411270141602 3.479704141616821 1.615316033363342 0.000000000000000
20.232751846313477 11.151576995849609 -0.270165234804153 0.000000000000000
20.239316940307617 18.240198135375977 -0.580233454704285 0.000000000000000
20.241811752319336 11.385214805603027 2.023668289184570 0.000000000000000
20.243768692016602 -6.960214138031006 1.865330457687378 0.000000000000000
20.251329421997070 19.877326965332031 2.472639322280884 0.000000000000000
20.260271072387695 3.861920118331909 1.663076043128967 0.000000000000000
20.267993927001953 16.712406158447266 1.560706734657288 0.000000000000000
20.272796630859375 16.747875213623047 0.045895155519247 0.000000000000000
20.279443740844727 -20.215127944946289 3.049985408782959 0.000000000000000
20.302841186523438 3.889876604080200 1.148512601852417 0.000000000000000
20.308324813842773 -5.045366764068604 1.989113807678223 0.000000000000000
20.319252014160156 3.618681669235229 1.961860418319702 0.000000000000000
20.320739746093750 -19.492336273193359 0.319458246231079 1.000000000000000
20.325969696044922 -3.300826549530029 1.144074678421021 0.000000000000000
20.332628250122070 0.280019730329514 0.934056282043457 0.000000000000000
20.340482711791992 13.260797500610352 -0.843680322170258 0.000000000000000
20.343282699584961 -17.996952056884766 3.085041999816895 0.000000000000000
20.350460052490234 -21.898935317993164 3.184288024902344 0.000000000000000
20.351869583129883 -3.690489292144775 0.711450159549713 0.000000000000000
20.360046386718750 3.768360376358032 3.068651914596558 0.000000000000000
20.361774444580078 -1.151949644088745 1.172358632087708 0.000000000000000
20.364664077758789 13.509249687194824 1.498977780342102 0.000000000000000
20.364950180053711 -15.578065872192383 3.799897670745850 0.000000000000000
20.365955352783203 -20.443593978881836 3.073710680007935 0.000000000000000
20.367816925048828 3.407679319381714 1.962996125221252 0.000000000000000
20.376207351684570 15.621670722961426 1.822420120239258 0.000000000000000
20.378465652465820 3.033219575881958 3.053405284881592 0.000000000000000
20.379022598266602 2.055302381515503 0.940847456455231 0.000000000000000
20.379251480102539 -18.583393096923828 -0.004813618492335 1.000000000000000
20.380758285522461 -6.911989688873291 3.189450979232788 0.000000000000000
20.384742736816406 0.031308811157942 1.054050564765930 0.000000000000000
20.387729644775391 18.797456741333008 2.416387557983398 0.000000000000000
20.388471603393555 12.011636734008789 1.999572038650513 0.000000000000000
20.391202926635742 17.633525848388672 -0.315255135297775 0.000000000000000
20.394353866577148 3.778402090072632 1.807342767715454 0.000000000000000
20.395906448364258 -3.262513875961304 2.346058368682861 0.000000000000000
20.396123886108398 -16.326354980468750 3.476630210876465 0.000000000000000
20.404226303100586 13.937612533569336 3.662092685699463 0.000000000000000
20.407957077026367 -17.993303298950195 2.246418714523315 0.000000000000000
20.415443420410156 3.044550418853760 1.504930257797241 0.000000000000000
20.423675537109375 14.290727615356445 1.961791396141052 0.000000000000000
20.424129486083984 -7.328182220458984 1.967128396034241 0.000000000000000
20.429792404174805 3.759896278381348 2.543230772018433 0.000000000000000
20.432041168212891 16.582187652587891 -0.307724565267563 0.000000000000000
20.432262420654297 1.017887115478516 1.649573206901550 0.000000000000000
20.435886383056641 17.895301818847656 1.404574513435364 0.000000000000000
20.437557220458984 3.783455133438110 2.544688940048218 0.000000000000000
20.444744110107422 -15.768460273742676 3.161053180694580 0.000000000000000
20.446407318115234 -3.187930345535278 1.388967752456665 0.000000000000000
20.459810256958008 18.568754196166992 -0.588409364223480 0.000000000000000
20.461668014526367 -4.374649524688721 1.687187790870667 0.000000000000000
20.469707489013672 8.262820243835449 -0.258144378662109 0.000000000000000
20.477100372314453 -6.257350921630859 1.437186479568481 0.000000000000000
20.478401184082031 -1.925321817398071 2.063907861709595 0.000000000000000
20.484207153320312 -17.643470764160156 2.879670858383179 0.000000000000000
20.484825134277344 -8.930872917175293 2.973787784576416 0.000000000000000
20.485616683959961 15.150814056396484 -0.151200473308563 0.000000000000000
20.486402511596680 -0.225984036922455 1.947476863861084 0.000000000000000
20.488088607788086 -18.814039230346680 -0.004854808095843 1.000000000000000
20.495952606201172 3.603290319442749 2.216630697250366 0.000000000000000
20.497316360473633 -7.178861618041992 2.064439058303833 0.000000000000000
20.498363494873047 18.595918655395508 -0.642567694187164 0.000000000000000
20.503787994384766 -19.567842483520508 -0.277025431394577 1.000000000000000
20.513149261474609 15.388279914855957 1.820154428482056 0.000000000000000
20.517433166503906 3.665429115295410 0.636789143085480 0.000000000000000
20.517929077148438 3.862821817398071 1.892733573913574 0.000000000000000
20.519214630126953 -22.080530166625977 2.372289419174194 1.000000000000000
20.529512405395508 -2.640453338623047 1.309500575065613 0.000000000000000
20.532629013061523 13.089796066284180 2.981199264526367 0.000000000000000
20.537286758422852 15.035971641540527 1.954041123390198 0.000000000000000
20.542217254638672 2.119938373565674 1.872148633003235 0.000000000000000
20.545625686645508 -4.507475376129150 3.117323398590088 0.000000000000000
20.553068161010742 15.847425460815430 0.593492925167084 0.000000000000000
20.556697845458984 -0.106200575828552 0.786126196384430 0.000000000000000
20.559505462646484 17.542110443115234 0.306616395711899 0.000000000000000
20.566457748413086 -0.132455259561539 1.301166296005249 0.000000000000000
20.569406509399414 18.474674224853516 1.695870161056519 0.000000000000000
20.570856094360352 3.067727088928223 3.555125951766968 0.000000000000000
20.573297500610352 15.545915603637695 3.821594476699829 0.000000000000000
20.587455749511719 3.323751449584961 2.221290826797485 0.000000000000000
20.595439910888672 3.371895074844360 1.561870098114014 0.000000000000000
20.595520019531250 -9.137001037597656 1.599255084991455 0.000000000000000
20.596063613891602 -3.123686790466309 1.478609919548035 0.000000000000000
20.600595474243164 9.371310234069824 0.039500273764133 0.000000000000000
20.606798171997070 -2.045208930969238 1.350017309188843 0.000000000000000
20.614585876464844 17.465137481689453 0.721657514572144 0.000000000000000
20.615701675415039 -10.460751533508301 1.640886068344116 0.000000000000000
20.619047164916992 3.010936737060547 1.559481978416443 0.000000000000000
20.620456695556641 2.940597534179688 1.814981818199158 0.000000000000000
20.628061294555664 -3.458985805511475 1.001011490821838 0.000000000000000
20.633045196533203 -3.557270050048828 1.566944956779480 0.000000000000000
20.638456344604492 -1.104730010032654 1.466998577117920 0.000000000000000
20.643854141235352 19.000301361083984 1.558790683746338 0.000000000000000
20.652406692504883 -1.530390381813049 1.509874939918518 0.000000000000000
20.656600952148438 18.598632812500000 1.704931139945984 0.000000000000000
20.658489227294922 12.428597450256348 2.738347530364990 0.000000000000000
20.658733367919922 16.724346160888672 0.097420573234558 0.000000000000000
20.662031173706055 -1.114675402641296 1.348976373672485 0.000000000000000
20.664678573608398 2.494107961654663 1.886955499649048 0.000000000000000
20.677001953125000 11.490723609924316 -0.640094816684723 0.000000000000000
20.677265167236328 16.783599853515625 -0.158036544919014 0.000000000000000
20.679271697998047 0.345799773931503 1.547839641571045 0.000000000000000
20.684719085693359 -17.690782546997070 2.899159669876099 0.000000000000000
20.703062057495117 14.333357810974121 2.194159269332886 0.000000000000000
20.705282211303711 18.021696090698242 -0.584576904773712 0.000000000000000
20.711116790771484 -12.815428733825684 2.766335725784302 0.000000000000000
20.718536376953125 20.291934967041016 3.859170198440552 0.000000000000000
20.720306396484375 9.251714706420898 0.039604991674423 0.000000000000000
20.724214553833008 14.866658210754395 2.155172824859619 0.000000000000000
20.725233078002930 2.574851512908936 1.522672891616821 0.000000000000000
20.732534408569336 23.581083297729492 0.898995518684387 0.000000000000000
20.733644485473633 15.446512222290039 1.835164308547974 0.000000000000000
20.735843658447266 -1.692409276962280 0.795603156089783 0.000000000000000
20.737442016601562 -18.687808990478516 -0.165655910968781 1.000000000000000
20.740974426269531 -2.626815080642700 0.237188667058945 0.000000000000000
20.745697021484375 0.047807540744543 1.192559719085693 0.000000000000000
20.750680923461914 -10.059883117675781 2.009431838989258 0.000000000000000
20.754234313964844 17.113346099853516 -0.469539552927017 0.000000000000000
20.761514663696289 14.635346412658691 1.999137997627258 0.000000000000000
20.763391494750977 -20.697540283203125 2.307325363159180 0.000000000000000
20.769332885742188 18.350612640380859 -0.536990225315094 0.000000000000000
20.778747558593750 3.690776109695435 1.538670539855957 0.000000000000000
20.779939651489258 -2.769682645797729 0.922627031803131 0.000000000000000
20.781518936157227 14.156003952026367 1.251785278320312 0.000000000000000
20.784463882446289 -1.749703884124756 1.982679128646851 0.000000000000000
20.785425186157227 -1.530763030052185 1.559780478477478 0.000000000000000
20.786056518554688 1.734129786491394 0.637277781963348 0.000000000000000
20.787767410278320 -7.161050319671631 2.497286081314087 0.000000000000000
20.793174743652344 -8.055122375488281 1.539737939834595 0.000000000000000
20.797822952270508 17.496030807495117 0.725929558277130 0.000000000000000
20.799898147583008 22.032232284545898 2.880146026611328 0.000000000000000
20.807043075561523 -19.376417160034180 -0.004962319973856 1.000000000000000
20.811655044555664 -6.148497104644775 1.707897782325745 0.000000000000000
20.814041137695312 14.365084648132324 2.039221048355103 0.000000000000000
20.818044662475586 -6.071454524993896 2.309837579727173 1.000000000000000
20.824184417724609 -21.315504074096680 2.402828216552734 0.000000000000000
20.829273223876953 -1.015441775321960 0.957917034626007 0.000000000000000
20.839626312255859 4.611650943756104 2.028858184814453 0.000000000000000
20.848035812377930 -1.170689225196838 1.819495797157288 0.000000000000000
20.848720550537109 1.180960774421692 1.039574503898621 0.000000000000000
20.849845886230469 15.754885673522949 2.277147531509399 0.000000000000000
20.850894927978516 24.009906768798828 1.889263987541199 0.000000000000000
20.852205276489258 -0.559873521327972 1.359905719757080 0.000000000000000
20.856086730957031 -21.175939559936523 3.955201148986816 0.000000000000000
20.857566833496094 -1.835072040557861 1.898150682449341 0.000000000000000
20.858386993408203 15.761340141296387 1.452504515647888 0.000000000000000
20.859497070312500 -20.897392272949219 -0.288597494363785 1.000000000000000
20.863842010498047 18.054994583129883 -0.958689808845520 0.000000000000000
20.867429733276367 -0.786691784858704 1.321118235588074 0.000000000000000
20.878129959106445 -2.708631515502930 2.001226425170898 0.000000000000000
20.878707885742188 -6.089147567749023 1.375922799110413 0.000000000000000
20.882089614868164 1.119237065315247 1.081315755844116 0.000000000000000
20.882814407348633 -0.959970474243164 1.726039528846741 0.000000000000000
20.884086608886719 13.502251625061035 3.309367895126343 0.000000000000000
20.884780883789062 -2.058075666427612 1.902484416961670 0.000000000000000
20.886754989624023 23.882280349731445 2.374448537826538 0.000000000000000
20.889238357543945 24.250875473022461 3.211677312850952 0.000000000000000
20.889852523803711 -1.135376214981079 1.283228874206543 0.000000000000000
20.889858245849609 3.195844888687134 1.581572651863098 0.000000000000000
20.898450851440430 19.911071777343750 2.439094066619873 0.000000000000000
20.915538787841797 -20.780179977416992 -0.174960553646088 1.000000000000000
20.917835235595703 0.539715588092804 1.727685213088989 0.000000000000000
20.919420242309570 -10.523202896118164 1.662126421928406 0.000000000000000
20.920410156250000 -1.330124855041504 0.237823963165283 0.000000000000000
20.920673370361328 22.339904785156250 3.071101427078247 0.000000000000000
20.925205230712891 0.393746852874756 1.404772758483887 0.000000000000000
20.928211212158203 3.115046024322510 1.501832723617554 0.000000000000000
20.930950164794922 14.494358062744141 2.308044433593750 0.000000000000000
20.937826156616211 -20.051311492919922 0.885739088058472 1.000000000000000
20.941478729248047 -5.733261585235596 1.666844129562378 0.000000000000000
20.950435638427734 17.859247207641602 -1.009460926055908 0.000000000000000
20.956422805786133 -3.924916505813599 1.225616335868835 0.000000000000000
20.962356567382812 3.534610033035278 1.673061966896057 0.000000000000000
20.965517044067383 -7.347771167755127 1.935818552970886 0.000000000000000
20.967302322387695 3.583255529403687 0.609022796154022 0.000000000000000
20.968318939208984 20.393648147583008 3.892411708831787 0.000000000000000
20.969388961791992 -2.097089290618896 1.617855429649353 0.000000000000000
20.971708297729492 2.454702854156494 1.498717546463013 0.000000000000000
20.972063064575195 2.748366355895996 1.175139665603638 0.000000000000000
20.974391937255859 -18.538311004638672 2.311260461807251 0.000000000000000
20.978057861328125 0.094830453395844 1.610507011413574 0.000000000000000
20.980539321899414 -1.618784546852112 1.250178456306458 0.000000000000000
20.985372543334961 19.284887313842773 3.237172603607178 0.000000000000000
20.989578247070312 -20.807929992675781 2.965669631958008 0.000000000000000
20.990253448486328 -2.976890802383423 1.422988772392273 0.000000000000000
20.995697021484375 -2.967943906784058 1.791767358779907 0.000000000000000
20.999670028686523 14.913204193115234 2.027069330215454 0.000000000000000
21.000322341918945 -0.509936094284058 2.107837915420532 0.000000000000000
21.002853393554688 2.916630268096924 3.142538547515869 0.000000000000000
21.004613876342773 -2.764563798904419 1.054689764976501 0.000000000000000
21.004842758178711 8.393691062927246 0.082906447350979 0.000000000000000
21.008228302001953 15.433214187622070 -0.104643382132053 0.000000000000000
21.008510589599609 -20.201412200927734 2.350103616714478 0.000000000000000
21.016044616699219 -23.578777313232422 3.364346981048584 0.000000000000000
21.022575378417969 16.506931304931641 -0.415222972631454 0.000000000000000
21.028337478637695 17.307310104370117 0.256689459085464 0.000000000000000
21.030162811279297 -1.263417720794678 1.536052584648132 0.000000000000000
21.035367965698242 -2.693946123123169 1.710013747215271 0.000000000000000
21.042942047119141 -8.442575454711914 1.390735983848572 0.000000000000000
21.044092178344727 15.096124649047852 1.389027714729309 0.000000000000000
21.044481277465820 -2.879741907119751 1.589632749557495 0.000000000000000
21.045839309692383 -2.900137424468994 2.827103376388550 0.000000000000000
21.051307678222656 -1.047250628471375 0.887087523937225 0.000000000000000
21.054769515991211 -7.900549411773682 1.466075181961060 0.000000000000000
21.056421279907227 -4.634948253631592 3.195315122604370 0.000000000000000
21.057098388671875 2.684772729873657 1.849704980850220 0.000000000000000
21.064540863037109 -3.366828203201294 1.308452606201172 0.000000000000000
21.070690155029297 17.251068115234375 2.038013458251953 0.000000000000000
21.077341079711914 -21.544527053833008 1.964915513992310 0.000000000000000
21.078599929809570 7.912851333618164 -0.479482501745224 0.000000000000000
21.086645126342773 13.971778869628906 1.502823710441589 0.000000000000000
21.087066650390625 13.393622398376465 1.243631005287170 0.000000000000000
21.087678909301758 -20.003065109252930 2.343673706054688 0.000000000000000
21.096382141113281 -1.590318083763123 1.297677397727966 0.000000000000000
21.098739624023438 -4.086658000946045 1.774423956871033 0.000000000000000
21.101270675659180 -18.303649902343750 2.198424100875854 0.000000000000000
21.116548538208008 19.839477539062500 1.553980112075806 0.000000000000000
21.120731353759766 3.032638788223267 1.349909424781799 0.000000000000000
21.122905731201172 -2.224579572677612 1.753687620162964 0.000000000000000
21.130998611450195 11.479878425598145 3.200145959854126 0.000000000000000
21.131845474243164 3.426021814346313 1.313105583190918 0.000000000000000
21.136028289794922 11.387256622314453 3.194869756698608 0.000000000000000
21.139530181884766 3.979847908020020 1.568338513374329 0.000000000000000
21.139844894409180 -1.425602316856384 0.077657908201218 0.000000000000000
21.143123626708984 20.975513458251953 0.566655397415161 0.000000000000000
21.144163131713867 3.973832845687866 2.862982988357544 0.000000000000000
21.146671295166016 17.174409866333008 0.727638363838196 0.000000000000000
21.163063049316406 16.905145645141602 0.983736455440521 0.000000000000000
21.164903640747070 2.979053497314453 1.064037442207336 0.000000000000000
21.177389144897461 -6.832355499267578 2.232838392257690 0.000000000000000
21.180253982543945 10.865560531616211 2.262782573699951 0.000000000000000
21.184183120727539 -3.576190948486328 1.607842564582825 0.000000000000000
21.194919586181641 -10.324176788330078 1.446081280708313 0.000000000000000
21.196683883666992 3.552428960800171 -1.491580367088318 0.000000000000000
21.202573776245117 -3.148319482803345 2.852430105209351 0.000000000000000
21.207908630371094 -1.577508807182312 1.509479284286499 0.000000000000000
21.210212707519531 13.889625549316406 1.946386575698853 0.000000000000000
21.214582443237305 -4.723363399505615 1.794501781463623 0.000000000000000
21.216514587402344 18.031789779663086 0.048596926033497 0.000000000000000
21.218807220458984 -20.462871551513672 0.900641858577728 1.000000000000000
21.225984573364258 -21.373195648193359 -0.583637893199921 1.000000000000000
21.231796264648438 -7.397016525268555 2.553714275360107 0.000000000000000
21.232486724853516 -8.686872482299805 2.301928281784058 0.000000000000000
21.244224548339844 2.589272975921631 0.983062565326691 0.000000000000000
21.245481491088867 -12.391985893249512 3.645086765289307 0.000000000000000
21.255783081054688 14.176919937133789 1.468719363212585 0.000000000000000
21.256320953369141 20.395492553710938 1.636674761772156 0.000000000000000
21.266969680786133 3.069169521331787 0.739088714122772 0.000000000000000
21.267723083496094 -4.188367843627930 1.664088606834412 0.000000000000000
21.271591186523438 -3.326478242874146 1.736054539680481 0.000000000000000
21.276443481445312 -0.802111387252808 2.267894268035889 0.000000000000000
21.286615371704102 -3.100828170776367 0.739913642406464 0.000000000000000
21.287328720092773 19.361833572387695 2.153541803359985 0.000000000000000
21.290292739868164 -25.865798950195312 3.184474706649780 0.000000000000000
21.294382095336914 -2.687085151672363 2.040213823318481 0.000000000000000
21.298440933227539 19.311576843261719 1.763460040092468 1.000000000000000
21.300708770751953 13.900602340698242 1.511126518249512 0.000000000000000
21.308317184448242 19.221136093139648 1.649612069129944 0.000000000000000
21.316589355468750 -3.044808626174927 1.362284660339355 0.000000000000000
21.318603515625000 14.980744361877441 1.447622895240784 0.000000000000000
21.320501327514648 -6.461001873016357 2.372964143753052 0.000000000000000
21.330211639404297 -1.811391234397888 1.189340710639954 0.000000000000000
21.341203689575195 2.819475412368774 0.864599347114563 0.000000000000000
21.341310501098633 2.347052097320557 1.523922562599182 0.000000000000000
21.342243194580078 -1.520845413208008 0.818225443363190 0.000000000000000
21.345893859863281 20.074596405029297 -0.567752897739410 0.000000000000000
21.351984024047852 4.135328292846680 1.711663842201233 0.000000000000000
21.352581024169922 2.989889621734619 1.364052534103394 0.000000000000000
21.352966308593750 -20.057382583618164 2.655822038650513 0.000000000000000
21.358798980712891 -7.094362258911133 3.335465431213379 1.000000000000000
21.364900588989258 22.249551773071289 0.586895823478699 0.000000000000000
21.368434906005859 19.529851913452148 1.162698388099670 0.000000000000000
21.372606277465820 -2.788714647293091 1.529870033264160 0.000000000000000
21.378501892089844 2.139888048171997 3.184173345565796 0.000000000000000
21.381689071655273 16.054996490478516 2.423970222473145 0.000000000000000
21.383350372314453 22.621738433837891 1.789413571357727 0.000000000000000
21.384220123291016 18.229026794433594 -0.166747763752937 0.000000000000000
21.386753082275391 1.210303306579590 1.644492983818054 0.000000000000000
21.389419555664062 18.765935897827148 -0.551325500011444 0.000000000000000
21.391532897949219 14.967950820922852 0.446603804826736 0.000000000000000
21.393020629882812 1.446426749229431 0.778742909431458 0.000000000000000
21.396272659301758 -1.801208019256592 1.606947064399719 0.000000000000000
21.399288177490234 12.469198226928711 1.901378154754639 0.000000000000000
21.409124374389648 -1.667646408081055 1.524205923080444 0.000000000000000
21.419015884399414 -2.678889274597168 2.299245834350586 0.000000000000000
21.420734405517578 16.699014663696289 -0.421933144330978 0.000000000000000
21.426317214965820 -4.177273750305176 1.802401304244995 0.000000000000000
21.434425354003906 5.162172794342041 2.348391294479370 0.000000000000000
21.440048217773438 -16.691825866699219 2.243456363677979 0.000000000000000
21.450105667114258 0.184945970773697 2.854540824890137 0.000000000000000
21.452659606933594 -0.931391835212708 1.482700228691101 0.000000000000000
21.453010559082031 18.804506301879883 2.485834121704102 0.000000000000000
21.455190658569336 16.617195129394531 1.194350004196167 0.000000000000000
21.456861495971680 15.482019424438477 0.503423154354095 0.000000000000000
21.464027404785156 18.246665954589844 -0.491739004850388 0.000000000000000
21.467782974243164 13.464636802673340 1.407904267311096 0.000000000000000
21.476715087890625 -6.389428615570068 3.830100774765015 0.000000000000000
21.479604721069336 2.069011688232422 3.688569545745850 0.000000000000000
21.483116149902344 -0.938724219799042 1.443347811698914 0.000000000000000
21.486476898193359 8.586153984069824 0.262509375810623 0.000000000000000
21.487722396850586 -17.103132247924805 3.119350433349609 0.000000000000000
21.490867614746094 -1.234639763832092 1.403362274169922 0.000000000000000
21.492235183715820 -4.635792732238770 1.645456433296204 0.000000000000000
21.496656417846680 -6.609539031982422 1.726549267768860 0.000000000000000
21.497323989868164 13.035653114318848 1.251586437225342 0.000000000000000
21.499055862426758 1.031927108764648 1.610827803611755 0.000000000000000
21.506328582763672 -18.121559143066406 3.194287061691284 0.000000000000000
21.509300231933594 13.079925537109375 3.349996328353882 0.000000000000000
21.511249542236328 13.931165695190430 1.918007493019104 0.000000000000000
21.512487411499023 -6.713575839996338 2.759055376052856 0.000000000000000
21.516647338867188 3.966122150421143 2.911525964736938 0.000000000000000
21.519975662231445 -1.334692239761353 1.696913361549377 0.000000000000000
21.521026611328125 -1.070617914199829 1.953405141830444 0.000000000000000
21.522296905517578 -2.817415475845337 1.415072202682495 0.000000000000000
21.528005599975586 15.015905380249023 1.458273768424988 0.000000000000000
21.536874771118164 -4.410701274871826 3.258060216903687 0.000000000000000
21.538389205932617 14.914999961853027 1.910103797912598 0.000000000000000
21.538404464721680 -3.023958683013916 1.292167305946350 0.000000000000000
21.540811538696289 4.133298397064209 1.599170088768005 0.000000000000000
21.542352676391602 -7.322708129882812 1.264118313789368 0.000000000000000
21.546855926513672 -2.438194274902344 1.497304201126099 0.000000000000000
21.548784255981445 16.797025680541992 1.097363829612732 0.000000000000000
21.551258087158203 2.081218481063843 3.208802223205566 0.000000000000000
21.553770065307617 3.895226240158081 2.914691925048828 0.000000000000000
21.554864883422852 -19.474948883056641 2.342387676239014 0.000000000000000
21.556247711181641 -1.038814663887024 1.698482632637024 0.000000000000000
21.557086944580078 2.917703390121460 1.292404651641846 0.000000000000000
21.557821273803711 4.129541873931885 1.854748725891113 0.000000000000000
21.570114135742188 17.230298995971680 1.427502155303955 0.000000000000000
21.577495574951172 -3.143200874328613 1.758237481117249 0.000000000000000
21.578596115112305 13.019095420837402 3.353689908981323 0.000000000000000
21.581686019897461 -3.436739206314087 1.424700260162354 0.000000000000000
21.590295791625977 15.986477851867676 1.596053242683411 0.000000000000000
21.592029571533203 14.510346412658691 0.694850325584412 0.000000000000000
21.603616714477539 -1.150343418121338 3.698005199432373 0.000000000000000
21.606224060058594 13.544098854064941 1.269486069679260 0.000000000000000
21.606376647949219 14.009371757507324 2.583878517150879 0.000000000000000
21.607284545898438 16.721706390380859 1.097363829612732 0.000000000000000
21.608358383178711 18.330417633056641 -0.059346731752157 0.000000000000000
21.614463806152344 -25.021163940429688 2.410680532455444 1.000000000000000
21.623371124267578 4.081089019775391 1.816883802413940 0.000000000000000
21.623655319213867 13.930692672729492 2.739860534667969 0.000000000000000
21.625139236450195 -8.450426101684570 1.647966146469116 0.000000000000000
21.626682281494141 1.159145712852478 0.786582589149475 0.000000000000000
21.631870269775391 -0.505250275135040 1.744734764099121 0.000000000000000
21.634218215942383 -3.690620660781860 1.346165776252747 0.000000000000000
21.636909484863281 -6.310271739959717 1.773803472518921 0.000000000000000
21.642566680908203 16.738145828247070 -0.057302605360746 0.000000000000000
21.643806457519531 -1.152483463287354 1.580263972282410 0.000000000000000
21.643983840942383 -3.307355880737305 2.486903429031372 0.000000000000000
21.645679473876953 -1.658324003219604 0.997195422649384 0.000000000000000
21.650775909423828 12.686687469482422 2.517983675003052 0.000000000000000
21.653049468994141 21.376674652099609 2.218419551849365 0.000000000000000
21.676935195922852 15.866275787353516 0.511108458042145 0.000000000000000
21.684476852416992 3.321294784545898 1.811288237571716 0.000000000000000
21.686092376708984 15.814929008483887 1.129632234573364 0.000000000000000
21.697956085205078 3.993289232254028 1.480851292610168 0.000000000000000
21.699766159057617 1.307838559150696 1.333431482315063 0.000000000000000
21.706296920776367 14.368184089660645 1.897887349128723 0.000000000000000
21.706596374511719 -9.506397247314453 2.377807378768921 0.000000000000000
21.709129333496094 14.275424003601074 1.543626427650452 0.000000000000000
21.709218978881836 -4.420341968536377 2.359830379486084 0.000000000000000
21.722791671752930 -3.154300212860107 1.473350524902344 0.000000000000000
21.725088119506836 3.078794717788696 1.219074249267578 0.000000000000000
21.728158950805664 -16.794643402099609 1.843295454978943 0.000000000000000
21.728296279907227 16.324745178222656 2.583387613296509 0.000000000000000
21.735347747802734 0.174122884869576 1.668681263923645 0.000000000000000
21.738534927368164 16.640830993652344 1.468290567398071 0.000000000000000
21.738937377929688 23.984823226928711 1.860806345939636 0.000000000000000
21.745491027832031 -3.373375415802002 1.604405641555786 0.000000000000000
21.753154754638672 -2.388505458831787 1.511081337928772 0.000000000000000
21.759025573730469 -12.723099708557129 3.354217529296875 0.000000000000000
21.761470794677734 16.103836059570312 1.139387726783752 0.000000000000000
21.762872695922852 -12.827498435974121 2.134628057479858 0.000000000000000
21.766515731811523 19.988004684448242 0.505507886409760 0.000000000000000
21.768850326538086 3.720237731933594 2.099262714385986 1.000000000000000
21.769435882568359 16.465284347534180 1.569036841392517 0.000000000000000
21.769741058349609 -3.331626892089844 1.690726280212402 0.000000000000000
21.772737503051758 3.080896377563477 1.858116626739502 0.000000000000000
21.778165817260742 -15.199440956115723 3.251466035842896 0.000000000000000
21.781568527221680 16.001331329345703 1.553656220436096 0.000000000000000
21.787855148315430 -2.201988458633423 1.343227148056030 0.000000000000000
21.787921905517578 -2.521718978881836 1.810959100723267 0.000000000000000
21.788463592529297 1.309357523918152 1.675723314285278 0.000000000000000
21.788888931274414 26.762523651123047 3.462876558303833 0.000000000000000
21.796506881713867 -0.593222379684448 1.716057538986206 0.000000000000000
21.801393508911133 -2.434244871139526 1.007657527923584 0.000000000000000
21.801902770996094 0.562525987625122 2.670100688934326 0.000000000000000
21.803232192993164 2.491105556488037 2.086014509201050 0.000000000000000
21.809293746948242 -1.658607006072998 1.383751869201660 0.000000000000000
21.812238693237305 0.196438610553741 1.548278331756592 0.000000000000000
21.814968109130859 19.522638320922852 0.725690901279449 0.000000000000000
21.818834304809570 5.578181743621826 2.398807764053345 0.000000000000000
21.821319580078125 0.258231312036514 1.128410458564758 0.000000000000000
