# This PCD file was generated using the MATLAB® pcwrite function
# from Computer Vision Toolbox®.
# .PCD v.7 - Point Cloud Data file format
VERSION .7
FIELDS x y z intensity
SIZE 8 8 8 8
TYPE F F F F
COUNT 1 1 1 1
WIDTH 644
HEIGHT 1
VIEWPOINT 0 0 0 1 0 0 0
POINTS 644
DATA ascii
19.303419113159180 -19.573472976684570 2.216684579849243 0.000000000000000
19.303609848022461 3.382220506668091 2.399347782135010 0.000000000000000
19.304500579833984 17.808694839477539 2.380994796752930 0.000000000000000
19.305809020996094 0.218691617250443 1.937309980392456 0.000000000000000
19.307315826416016 16.144575119018555 0.092245332896709 0.000000000000000
19.311174392700195 -22.923011779785156 2.717215776443481 0.000000000000000
19.312360763549805 -4.204421043395996 1.479179382324219 0.000000000000000
19.316957473754883 -9.179802894592285 1.559321761131287 0.000000000000000
19.327758789062500 29.283155441284180 -0.814606070518494 1.000000000000000
19.344579696655273 -7.507929325103760 1.972459077835083 0.000000000000000
19.346946716308594 -1.215851068496704 2.579639673233032 0.000000000000000
19.348785400390625 -29.402000427246094 3.345723628997803 0.000000000000000
19.350580215454102 18.102893829345703 0.300626546144485 0.000000000000000
19.363313674926758 15.798542022705078 2.661905765533447 0.000000000000000
19.363914489746094 -1.273251056671143 1.452312350273132 0.000000000000000
19.364074707031250 22.376588821411133 0.847251534461975 0.000000000000000
19.364273071289062 -19.115106582641602 1.721418738365173 0.000000000000000
19.365224838256836 2.280371904373169 2.889798641204834 0.000000000000000
19.367387771606445 22.895521163940430 1.955027103424072 0.000000000000000
19.368446350097656 -7.826147079467773 1.985707163810730 0.000000000000000
19.370134353637695 -7.419598579406738 1.312278628349304 0.000000000000000
19.370550155639648 -19.483119964599609 3.656028509140015 0.000000000000000
19.372303009033203 11.590415954589844 2.564097166061401 0.000000000000000
19.373247146606445 18.490205764770508 -0.621770858764648 0.000000000000000
19.376585006713867 -7.771272182464600 1.819148659706116 0.000000000000000
19.384073257446289 -1.104440927505493 1.190904974937439 0.000000000000000
19.386531829833984 13.494570732116699 1.494371294975281 0.000000000000000
19.387573242187500 -2.549324035644531 1.501200795173645 0.000000000000000
19.387659072875977 18.695009231567383 0.771123647689819 0.000000000000000
19.389074325561523 -1.961949229240417 1.766695857048035 0.000000000000000
19.392286300659180 -6.990829467773438 1.796231269836426 0.000000000000000
19.394498825073242 24.900768280029297 1.267683148384094 0.000000000000000
19.395982742309570 3.192910194396973 1.471119284629822 0.000000000000000
19.399675369262695 19.156076431274414 0.152270123362541 0.000000000000000
19.401588439941406 0.197087198495865 3.316545009613037 0.000000000000000
19.414543151855469 -3.349286794662476 2.237716436386108 0.000000000000000
19.419919967651367 25.113759994506836 1.275067329406738 0.000000000000000
19.421436309814453 15.733351707458496 2.662329196929932 0.000000000000000
19.422338485717773 -7.460204601287842 1.557093739509583 0.000000000000000
19.423027038574219 -12.024959564208984 1.709638833999634 0.000000000000000
19.423580169677734 19.046236038208008 0.151935011148453 0.000000000000000
19.424726486206055 19.925434112548828 0.850192308425903 0.000000000000000
19.426370620727539 22.863075256347656 1.666852116584778 0.000000000000000
19.427413940429688 -7.099428653717041 1.468131303787231 0.000000000000000
19.430536270141602 -4.628647804260254 1.572006583213806 0.000000000000000
19.430637359619141 3.128986358642578 1.472910284996033 0.000000000000000
19.433622360229492 -1.422342181205750 1.345479607582092 0.000000000000000
19.434247970581055 -5.454669475555420 1.829895377159119 0.000000000000000
19.440126419067383 0.173723235726357 1.567592978477478 0.000000000000000
19.448846817016602 10.329815864562988 2.930521249771118 0.000000000000000
19.449283599853516 -23.351211547851562 2.391747236251831 0.000000000000000
19.450037002563477 -12.230333328247070 1.719490051269531 0.000000000000000
19.453296661376953 -7.451453208923340 1.639481425285339 0.000000000000000
19.453813552856445 14.709611892700195 3.245523452758789 0.000000000000000
19.456171035766602 18.700862884521484 1.499323725700378 0.000000000000000
19.457000732421875 -9.497380256652832 1.962794780731201 0.000000000000000
19.462221145629883 -3.301921606063843 2.102663993835449 1.000000000000000
19.464744567871094 -4.411921501159668 1.224210023880005 0.000000000000000
19.468593597412109 -12.963327407836914 2.656639337539673 0.000000000000000
19.470218658447266 19.506959915161133 3.667636394500732 0.000000000000000
19.471340179443359 -7.028545856475830 1.509293079376221 0.000000000000000
19.474285125732422 -21.626865386962891 0.553719818592072 1.000000000000000
19.482034683227539 13.244454383850098 2.363829612731934 0.000000000000000
19.482828140258789 -17.670906066894531 2.987534284591675 0.000000000000000
19.485074996948242 20.358652114868164 1.565669417381287 0.000000000000000
19.485509872436523 23.095586776733398 1.678834319114685 0.000000000000000
19.489339828491211 -14.130752563476562 3.567681312561035 0.000000000000000
19.489826202392578 3.335659742355347 3.379897117614746 0.000000000000000
19.490390777587891 -14.825668334960938 1.927269339561462 0.000000000000000
19.493972778320312 18.640565872192383 -0.056489981710911 0.000000000000000
19.496969223022461 -7.813234806060791 1.531398892402649 0.000000000000000
19.502784729003906 -19.914197921752930 2.247547626495361 0.000000000000000
19.503145217895508 -15.764047622680664 1.828370928764343 0.000000000000000
19.509706497192383 -5.052092552185059 1.313846945762634 0.000000000000000
19.513704299926758 3.817122220993042 2.434346437454224 0.000000000000000
19.517200469970703 19.138038635253906 -0.267173558473587 0.000000000000000
19.518293380737305 19.999738693237305 0.370705455541611 0.000000000000000
19.518489837646484 -14.565596580505371 2.315018177032471 0.000000000000000
19.518592834472656 -17.203111648559570 3.185357809066772 0.000000000000000
19.522727966308594 -3.693092823028564 1.180434226989746 0.000000000000000
19.522945404052734 0.192183390259743 2.598107099533081 0.000000000000000
19.527200698852539 25.687952041625977 1.979209184646606 0.000000000000000
19.527273178100586 3.144547939300537 1.880100488662720 0.000000000000000
19.527425765991211 18.589855194091797 1.290320158004761 0.000000000000000
19.530857086181641 -2.474593639373779 1.207557559013367 0.000000000000000
19.536258697509766 -15.776162147521973 2.386936664581299 0.000000000000000
19.537401199340820 18.347488403320312 0.870378315448761 0.000000000000000
19.538263320922852 16.187597274780273 2.881900787353516 0.000000000000000
19.541957855224609 -19.561750411987305 2.176141738891602 0.000000000000000
19.545553207397461 3.611269474029541 1.641119837760925 0.000000000000000
19.547088623046875 21.336404800415039 1.162216782569885 0.000000000000000
19.550333023071289 -8.138817787170410 1.584856271743774 0.000000000000000
19.552280426025391 -7.035784244537354 2.085074186325073 0.000000000000000
19.552446365356445 0.735408782958984 1.653343319892883 0.000000000000000
19.558864593505859 -18.761518478393555 1.766888618469238 0.000000000000000
19.563491821289062 -3.506634712219238 1.334051847457886 0.000000000000000
19.563575744628906 -6.334325790405273 1.578664302825928 0.000000000000000
19.567419052124023 13.274056434631348 1.359219789505005 0.000000000000000
19.577404022216797 -1.729328751564026 2.232299327850342 0.000000000000000
19.582241058349609 1.296534180641174 1.468731045722961 0.000000000000000
19.593706130981445 -5.073113918304443 1.397557258605957 0.000000000000000
19.604001998901367 0.258692681789398 1.708381533622742 0.000000000000000
19.606546401977539 19.496000289916992 1.855885982513428 0.000000000000000
19.610443115234375 -12.724469184875488 3.995894432067871 0.000000000000000
19.611356735229492 -15.832281112670898 2.196242570877075 0.000000000000000
19.623003005981445 18.859918594360352 0.622390270233154 0.000000000000000
19.623495101928711 -14.750882148742676 2.333565473556519 0.000000000000000
19.623657226562500 1.996410846710205 1.979243040084839 0.000000000000000
19.629068374633789 10.337856292724609 1.874619841575623 0.000000000000000
19.635124206542969 -4.022655487060547 1.616138219833374 0.000000000000000
19.635625839233398 -21.653560638427734 0.556154787540436 1.000000000000000
19.637495040893555 19.783374786376953 0.530359625816345 0.000000000000000
19.641387939453125 1.949749231338501 1.515285134315491 0.000000000000000
19.641845703125000 20.574861526489258 2.854247331619263 0.000000000000000
19.647209167480469 -5.988386154174805 1.576827168464661 1.000000000000000
19.656120300292969 -3.816490173339844 0.996814072132111 0.000000000000000
19.660219192504883 -20.500055313110352 2.290306091308594 0.000000000000000
19.660741806030273 15.387761116027832 1.916687011718750 0.000000000000000
19.662511825561523 15.338836669921875 0.330807000398636 0.000000000000000
19.663520812988281 3.519607543945312 1.649348497390747 0.000000000000000
19.664941787719727 -7.820859909057617 1.379682302474976 0.000000000000000
19.665615081787109 -22.026491165161133 -0.005153608508408 1.000000000000000
19.666723251342773 -7.504485130310059 1.453492641448975 0.000000000000000
19.675136566162109 3.190556287765503 1.261009812355042 0.000000000000000
19.677248001098633 -21.228675842285156 0.606324970722198 1.000000000000000
19.678571701049805 12.871416091918945 1.759790658950806 0.000000000000000
19.678882598876953 18.480352401733398 0.047116886824369 0.000000000000000
19.678932189941406 -2.587635755538940 1.991623401641846 0.000000000000000
19.682752609252930 -14.756216049194336 1.936056733131409 0.000000000000000
19.687259674072266 15.103302955627441 3.301980972290039 0.000000000000000
19.688928604125977 22.251165390014648 2.588962078094482 0.000000000000000
19.690443038940430 -15.213562011718750 2.496817588806152 0.000000000000000
19.698913574218750 18.884639739990234 1.305999755859375 0.000000000000000
19.701660156250000 24.934112548828125 1.276351571083069 0.000000000000000
19.709066390991211 17.062904357910156 0.996911406517029 0.000000000000000
19.711240768432617 -5.970699787139893 1.223609209060669 0.000000000000000
19.713737487792969 -9.724307060241699 1.857443094253540 0.000000000000000
19.717245101928711 11.474788665771484 2.168531417846680 0.000000000000000
19.719144821166992 -4.152599811553955 1.508136034011841 0.000000000000000
19.719688415527344 -3.640946149826050 1.539473295211792 0.000000000000000
19.722635269165039 -0.643240094184875 2.241327762603760 0.000000000000000
19.724388122558594 -15.737882614135742 3.357910871505737 0.000000000000000
19.725891113281250 -9.847434043884277 2.348391294479370 0.000000000000000
19.730165481567383 -13.237136840820312 2.698621749877930 0.000000000000000
19.731918334960938 -16.037981033325195 2.215687751770020 0.000000000000000
19.733486175537109 -0.519841372966766 2.102663993835449 0.000000000000000
19.735645294189453 18.876955032348633 1.096882224082947 0.000000000000000
19.741975784301758 -21.493316650390625 0.835574746131897 1.000000000000000
19.743501663208008 -6.052022457122803 1.545451283454895 0.000000000000000
19.747253417968750 19.911991119384766 0.156626433134079 0.000000000000000
19.747970581054688 -17.434080123901367 2.073203325271606 0.000000000000000
19.761756896972656 0.107612311840057 1.288345336914062 0.000000000000000
19.763484954833984 0.269766211509705 3.378549098968506 0.000000000000000
19.769336700439453 -14.069077491760254 1.581872701644897 0.000000000000000
19.771587371826172 16.971456527709961 0.896256685256958 0.000000000000000
19.773954391479492 -0.954656779766083 1.725048780441284 0.000000000000000
19.774147033691406 -16.206865310668945 2.317795038223267 0.000000000000000
19.789230346679688 -0.695895969867706 1.100140094757080 0.000000000000000
19.801927566528320 -0.590820848941803 1.559139370918274 0.000000000000000
19.810031890869141 16.544977188110352 0.540649533271790 0.000000000000000
19.818155288696289 -7.861771583557129 1.932820200920105 0.000000000000000
19.820606231689453 19.997121810913086 2.379143714904785 0.000000000000000
19.824331283569336 -5.283739089965820 1.456236839294434 0.000000000000000
19.837230682373047 19.391504287719727 2.783560037612915 0.000000000000000
19.839263916015625 -15.645066261291504 1.988467574119568 0.000000000000000
19.842533111572266 -2.641919612884521 1.420836210250854 0.000000000000000
19.843671798706055 -0.672498226165771 0.912030994892120 0.000000000000000
19.845300674438477 -10.973730087280273 1.740939736366272 0.000000000000000
19.845956802368164 -8.201804161071777 1.524205923080444 0.000000000000000
19.864002227783203 -10.974114418029785 1.786043047904968 0.000000000000000
19.865116119384766 0.060327935963869 1.678603172302246 0.000000000000000
19.868724822998047 -0.889721751213074 1.733035087585449 0.000000000000000
19.877771377563477 19.034164428710938 1.211233854293823 0.000000000000000
19.878568649291992 -5.386360645294189 1.581113696098328 0.000000000000000
19.884986877441406 -11.038765907287598 3.026551961898804 0.000000000000000
19.889339447021484 12.780488967895508 -0.548888921737671 0.000000000000000
19.890205383300781 -11.194751739501953 1.708146095275879 0.000000000000000
19.892019271850586 -20.107040405273438 2.564092636108398 0.000000000000000
19.897651672363281 -9.370759963989258 1.993852853775024 0.000000000000000
19.900972366333008 19.212114334106445 0.898291647434235 0.000000000000000
19.903543472290039 19.112165451049805 0.578010797500610 0.000000000000000
19.904764175415039 -7.675021648406982 1.473056316375732 0.000000000000000
19.905572891235352 3.124959707260132 1.826645016670227 0.000000000000000
19.908784866333008 20.656515121459961 1.152264118194580 0.000000000000000
19.912385940551758 -21.482351303100586 0.163596555590630 1.000000000000000
19.917509078979492 0.764457345008850 1.645727872848511 0.000000000000000
19.918777465820312 -6.509690761566162 1.366150975227356 0.000000000000000
19.923919677734375 -15.288713455200195 2.519980669021606 0.000000000000000
19.924263000488281 11.545978546142578 2.615559577941895 0.000000000000000
19.929067611694336 3.470303297042847 2.476636409759521 0.000000000000000
19.932514190673828 -4.628174304962158 1.531420826911926 0.000000000000000
19.939229965209961 19.298185348510742 0.634552717208862 0.000000000000000
19.939409255981445 2.136541128158569 1.423385024070740 0.000000000000000
19.943078994750977 16.784116744995117 1.799851179122925 0.000000000000000
19.947174072265625 -10.045036315917969 2.378895521163940 0.000000000000000
19.952625274658203 -23.200340270996094 2.666394710540771 0.000000000000000
19.957454681396484 -22.511045455932617 -0.005250648595393 1.000000000000000
19.959127426147461 1.509843707084656 1.744146466255188 0.000000000000000
19.959474563598633 20.267002105712891 1.033097386360168 0.000000000000000
19.961673736572266 20.411251068115234 0.598031759262085 0.000000000000000
19.967029571533203 2.828227996826172 2.290533304214478 0.000000000000000
19.972843170166016 2.098881959915161 0.922492921352386 0.000000000000000
19.981536865234375 -16.251296997070312 2.448256492614746 0.000000000000000
19.983804702758789 -2.687356233596802 1.275658130645752 0.000000000000000
19.984266281127930 -29.875820159912109 3.606647253036499 0.000000000000000
19.987398147583008 -18.256120681762695 3.074659347534180 0.000000000000000
19.988235473632812 -8.496032714843750 1.968934059143066 0.000000000000000
19.996694564819336 -6.160192012786865 1.081935524940491 0.000000000000000
19.997671127319336 18.042686462402344 0.564188778400421 0.000000000000000
20.003597259521484 8.987458229064941 1.853064775466919 0.000000000000000
20.008537292480469 2.905382871627808 1.630283832550049 0.000000000000000
20.015888214111328 -21.238855361938477 2.645709991455078 0.000000000000000
20.021299362182617 -12.910761833190918 2.013043880462646 0.000000000000000
20.027198791503906 -8.397691726684570 1.373902201652527 0.000000000000000
20.027547836303711 -0.133524447679520 1.498881936073303 0.000000000000000
20.028238296508789 15.641579627990723 2.549932718276978 0.000000000000000
20.030281066894531 -15.665140151977539 2.888220548629761 0.000000000000000
20.030351638793945 -1.839825987815857 2.284664630889893 0.000000000000000
20.034957885742188 -15.129794120788574 2.674191951751709 0.000000000000000
20.037408828735352 -14.635113716125488 3.677339076995850 0.000000000000000
20.039913177490234 -16.645730972290039 3.860883474349976 0.000000000000000
20.046798706054688 -12.092526435852051 1.842533588409424 1.000000000000000
20.054740905761719 -1.459356188774109 1.504852294921875 0.000000000000000
20.055992126464844 16.651987075805664 0.095543995499611 0.000000000000000
20.059501647949219 4.812895774841309 3.526145935058594 0.000000000000000
20.067640304565430 -7.162344932556152 1.759283185005188 0.000000000000000
20.068416595458984 2.789722919464111 2.696248292922974 0.000000000000000
20.069135665893555 -2.243311882019043 0.849915385246277 0.000000000000000
20.072406768798828 16.796243667602539 1.504530668258667 0.000000000000000
20.074687957763672 -19.044839859008789 2.630323886871338 0.000000000000000
20.077976226806641 -21.756772994995117 0.790758013725281 1.000000000000000
20.084285736083984 16.621664047241211 0.846619486808777 0.000000000000000
20.085527420043945 1.533507823944092 2.985382318496704 0.000000000000000
20.087293624877930 12.113618850708008 2.664313554763794 0.000000000000000
20.087720870971680 -3.537669420242310 2.316715955734253 0.000000000000000
20.090692520141602 24.926246643066406 3.410103321075439 0.000000000000000
20.091224670410156 22.464527130126953 3.423159837722778 0.000000000000000
20.091617584228516 -1.962211847305298 3.450662851333618 0.000000000000000
20.097040176391602 15.333137512207031 0.286786377429962 0.000000000000000
20.097661972045898 20.265321731567383 1.036581754684448 0.000000000000000
20.099790573120117 0.481405228376389 1.822672605514526 0.000000000000000
20.102279663085938 -17.872125625610352 1.701719403266907 0.000000000000000
20.102561950683594 -21.053775787353516 2.536530017852783 0.000000000000000
20.110448837280273 -0.389300584793091 2.142488718032837 0.000000000000000
20.116519927978516 -12.134583473205566 1.486289501190186 0.000000000000000
20.122741699218750 18.911079406738281 2.226650714874268 0.000000000000000
20.126369476318359 -8.132398605346680 1.624559879302979 0.000000000000000
20.137987136840820 1.320622324943542 1.829534292221069 0.000000000000000
20.144493103027344 1.250439405441284 3.449988842010498 0.000000000000000
20.148464202880859 3.817290782928467 2.510662794113159 0.000000000000000
20.152372360229492 18.082958221435547 1.139555931091309 0.000000000000000
20.155187606811523 16.865514755249023 1.106084108352661 0.000000000000000
20.162488937377930 7.664657115936279 -0.500796139240265 0.000000000000000
20.166599273681641 1.181165218353271 1.831339836120605 0.000000000000000
20.176168441772461 2.714307308197021 1.641536116600037 0.000000000000000
20.182498931884766 -15.401679992675781 2.301543951034546 0.000000000000000
20.185359954833984 -5.679931163787842 1.771896243095398 0.000000000000000
20.190099716186523 -9.615482330322266 2.975898504257202 0.000000000000000
20.197065353393555 19.178350448608398 -0.058333046734333 0.000000000000000
20.197706222534180 -25.539892196655273 3.095144271850586 0.000000000000000
20.199674606323242 -20.861927032470703 0.273691505193710 1.000000000000000
20.201004028320312 -1.829903721809387 1.713966965675354 0.000000000000000
20.206857681274414 25.374402999877930 2.427585363388062 0.000000000000000
20.207126617431641 1.797043681144714 1.009940505027771 0.000000000000000
20.220996856689453 -15.588009834289551 2.899957656860352 0.000000000000000
20.224067687988281 16.879392623901367 1.615790843963623 0.000000000000000
20.226549148559570 19.341070175170898 0.371235996484756 0.000000000000000
20.226682662963867 3.943396806716919 2.340641498565674 0.000000000000000
20.235803604125977 4.328576564788818 2.753761291503906 0.000000000000000
20.242252349853516 -7.024547100067139 1.727695703506470 0.000000000000000
20.245021820068359 3.263029336929321 1.786856055259705 0.000000000000000
20.251754760742188 19.078952789306641 1.171009421348572 0.000000000000000
20.258541107177734 -19.354068756103516 2.096822500228882 0.000000000000000
20.260437011718750 3.081824302673340 1.257025480270386 0.000000000000000
20.263914108276367 -1.257854104042053 1.676338553428650 0.000000000000000
20.264259338378906 -6.675093173980713 0.938983201980591 0.000000000000000
20.272270202636719 -3.585128307342529 1.302428960800171 0.000000000000000
20.276454925537109 15.026801109313965 1.062183976173401 0.000000000000000
20.277357101440430 25.993078231811523 1.387483000755310 0.000000000000000
20.281305313110352 -3.988592863082886 2.750595569610596 0.000000000000000
20.284475326538086 -17.366254806518555 1.329350709915161 0.000000000000000
20.292524337768555 -20.743032455444336 2.283787488937378 0.000000000000000
20.294828414916992 -15.793973922729492 1.974249005317688 0.000000000000000
20.298076629638672 25.450641632080078 1.307493925094604 0.000000000000000
20.308198928833008 -4.587080001831055 1.357303500175476 0.000000000000000
20.310218811035156 7.717558860778809 -0.462704867124557 0.000000000000000
20.312976837158203 3.255798816680908 1.460201621055603 0.000000000000000
20.315921783447266 -23.456651687622070 -0.184146508574486 1.000000000000000
20.322542190551758 -2.456058740615845 0.940296769142151 0.000000000000000
20.325126647949219 15.062870979309082 1.454257249832153 0.000000000000000
20.331293106079102 -4.634458541870117 1.279065608978271 0.000000000000000
20.333700180053711 19.378421783447266 2.264908313751221 0.000000000000000
20.333776473999023 -3.376809835433960 1.622220396995544 0.000000000000000
20.335874557495117 2.553882837295532 1.948233842849731 0.000000000000000
20.337558746337891 -23.208509445190430 2.071262836456299 0.000000000000000
20.337858200073242 2.302459001541138 1.571316003799438 0.000000000000000
20.341341018676758 -6.223242759704590 1.304779171943665 0.000000000000000
20.344711303710938 -12.976490974426270 2.421337842941284 0.000000000000000
20.346420288085938 -5.536007881164551 2.115825176239014 0.000000000000000
20.352697372436523 2.025012731552124 -1.498399376869202 0.000000000000000
20.352821350097656 18.979972839355469 -0.378881126642227 0.000000000000000
20.353988647460938 -23.018951416015625 0.230608895421028 1.000000000000000
20.368730545043945 -4.820970535278320 2.785419702529907 0.000000000000000
20.374925613403320 -7.274425029754639 1.577355384826660 0.000000000000000
20.375171661376953 15.464471817016602 1.125759840011597 0.000000000000000
20.376371383666992 2.497935056686401 2.059914350509644 0.000000000000000
20.380567550659180 18.459896087646484 2.759198904037476 0.000000000000000
20.385074615478516 19.968824386596680 2.190718173980713 0.000000000000000
20.389230728149414 -3.228607177734375 2.344704389572144 0.000000000000000
20.393564224243164 18.399879455566406 1.420272707939148 0.000000000000000
20.394302368164062 -21.009304046630859 -0.005110323894769 1.000000000000000
20.405925750732422 -0.327330470085144 2.173840045928955 0.000000000000000
20.406471252441406 -7.950406551361084 1.174589633941650 0.000000000000000
20.412965774536133 19.547309875488281 0.863507032394409 0.000000000000000
20.415214538574219 1.615316867828369 1.730470061302185 0.000000000000000
20.417079925537109 11.779261589050293 2.136864185333252 0.000000000000000
20.417978286743164 19.929243087768555 2.486181259155273 0.000000000000000
20.421976089477539 19.916467666625977 0.761921644210815 0.000000000000000
20.422615051269531 19.357330322265625 0.265209317207336 0.000000000000000
20.426012039184570 -2.628228664398193 1.541272044181824 0.000000000000000
20.426864624023438 -5.516945838928223 1.501832723617554 0.000000000000000
20.429683685302734 26.000699996948242 1.391687989234924 0.000000000000000
20.434434890747070 16.987901687622070 2.194084644317627 0.000000000000000
20.440504074096680 -22.149612426757812 2.197477340698242 0.000000000000000
20.450559616088867 2.438225746154785 1.581113696098328 0.000000000000000
20.452816009521484 18.655706405639648 0.845794737339020 0.000000000000000
20.456546783447266 16.142858505249023 0.946425318717957 0.000000000000000
20.456684112548828 -1.130096912384033 1.217204093933105 0.000000000000000
20.458292007446289 -1.341624140739441 1.692795753479004 0.000000000000000
20.461927413940430 15.847907066345215 0.741015970706940 0.000000000000000
20.480754852294922 16.863838195800781 0.555728077888489 0.000000000000000
20.482109069824219 16.412788391113281 0.247377902269363 0.000000000000000
20.485349655151367 -8.115686416625977 1.649038672447205 0.000000000000000
20.488252639770508 3.580201387405396 1.885510802268982 0.000000000000000
20.488965988159180 -12.847224235534668 1.529981493949890 0.000000000000000
20.492614746093750 -6.207384109497070 1.602469086647034 0.000000000000000
20.496246337890625 5.589455604553223 2.827103376388550 0.000000000000000
20.496551513671875 4.684551239013672 1.776611447334290 0.000000000000000
20.498733520507812 18.850204467773438 -0.807060003280640 0.000000000000000
20.502141952514648 18.590869903564453 0.473421931266785 0.000000000000000
20.503997802734375 -5.846909046173096 1.143527150154114 0.000000000000000
20.508108139038086 13.312012672424316 2.324102640151978 0.000000000000000
20.516773223876953 3.287719249725342 1.434755802154541 0.000000000000000
20.519376754760742 -3.807487010955811 1.561870098114014 0.000000000000000
20.519584655761719 14.227517127990723 1.387268304824829 0.000000000000000
20.520574569702148 -7.408906459808350 2.671072959899902 0.000000000000000
20.530927658081055 18.511465072631836 1.695625305175781 0.000000000000000
20.531974792480469 -10.505837440490723 2.619622468948364 0.000000000000000
20.546510696411133 -1.009926199913025 3.048714160919189 0.000000000000000
20.552059173583984 -6.310076713562012 1.567466020584106 0.000000000000000
20.552255630493164 0.763674497604370 2.517954111099243 0.000000000000000
20.553668975830078 -2.588514566421509 1.350537776947021 0.000000000000000
20.554630279541016 -2.170535087585449 1.666612267494202 0.000000000000000
20.556959152221680 -6.813692569732666 2.459817886352539 0.000000000000000
20.562833786010742 20.100803375244141 2.207558155059814 0.000000000000000
20.562873840332031 19.477994918823242 0.158190250396729 0.000000000000000
20.564470291137695 9.153320312500000 2.995420932769775 0.000000000000000
20.565248489379883 -19.453029632568359 2.282590150833130 0.000000000000000
20.566160202026367 3.751595020294189 1.564556837081909 0.000000000000000
20.570251464843750 -4.851988315582275 1.255634665489197 0.000000000000000
20.575149536132812 21.315122604370117 3.364926099777222 0.000000000000000
20.580398559570312 -8.070342063903809 1.654412150382996 0.000000000000000
20.580701828002930 20.353507995605469 2.624041795730591 0.000000000000000
20.581171035766602 -7.222751140594482 2.477423429489136 0.000000000000000
20.590314865112305 20.786758422851562 2.133196353912354 0.000000000000000
20.592443466186523 -15.292181015014648 1.672168731689453 0.000000000000000
20.606409072875977 2.213831663131714 1.511038303375244 0.000000000000000
20.610441207885742 16.465478897094727 0.046041764318943 0.000000000000000
20.612239837646484 -25.693340301513672 3.131103515625000 0.000000000000000
20.618385314941406 -6.754265308380127 2.464331865310669 0.000000000000000
20.623922348022461 -9.780169486999512 2.290346860885620 0.000000000000000
20.626825332641602 -3.965380430221558 1.734268069267273 0.000000000000000
20.626949310302734 14.408843994140625 1.397919058799744 0.000000000000000
20.633430480957031 22.547456741333008 0.875069677829742 0.000000000000000
20.634107589721680 -4.509527206420898 1.214138269424438 0.000000000000000
20.651853561401367 17.297037124633789 2.560676574707031 0.000000000000000
20.652811050415039 15.634346961975098 1.040376663208008 0.000000000000000
20.655097961425781 28.732988357543945 1.625467061996460 0.000000000000000
20.660505294799805 2.521421432495117 1.557690858840942 0.000000000000000
20.663164138793945 26.222406387329102 3.791974544525146 0.000000000000000
20.670291900634766 15.207186698913574 1.475147008895874 0.000000000000000
20.674903869628906 19.196172714233398 1.567444443702698 0.000000000000000
20.678091049194336 3.461806774139404 1.124461174011230 0.000000000000000
20.678667068481445 9.819845199584961 0.083903372287750 0.000000000000000
20.684574127197266 -2.533883333206177 0.836988687515259 0.000000000000000
20.685012817382812 -10.627002716064453 2.210546970367432 0.000000000000000
20.685789108276367 -0.577082633972168 1.189575433731079 0.000000000000000
20.693853378295898 -13.040697097778320 1.594623446464539 0.000000000000000
20.697490692138672 28.548385620117188 2.094938516616821 0.000000000000000
20.699760437011719 -15.278474807739258 1.578077554702759 0.000000000000000
20.701761245727539 21.470273971557617 3.968919754028320 0.000000000000000
20.703325271606445 4.655831813812256 1.793114662170410 0.000000000000000
20.703575134277344 -4.976603031158447 1.470300912857056 0.000000000000000
20.710315704345703 -4.978223800659180 2.834490537643433 0.000000000000000
20.713930130004883 -8.811321258544922 3.336051940917969 0.000000000000000
20.719795227050781 20.892644882202148 1.521484613418579 0.000000000000000
20.719989776611328 15.613064765930176 0.792657732963562 0.000000000000000
20.721233367919922 -3.207075357437134 1.690724253654480 0.000000000000000
20.722391128540039 -23.520656585693359 2.467067956924438 0.000000000000000
20.725484848022461 -0.618376553058624 2.208580970764160 1.000000000000000
20.728944778442383 2.294362545013428 1.480309128761292 0.000000000000000
20.741676330566406 -0.768534898757935 0.913481652736664 0.000000000000000
20.745386123657227 20.342363357543945 -0.730381190776825 0.000000000000000
20.750837326049805 14.495385169982910 1.796648502349854 0.000000000000000
20.753566741943359 -7.250722408294678 1.263723134994507 0.000000000000000
20.760322570800781 -4.837954044342041 1.932458996772766 0.000000000000000
20.760835647583008 8.065936088562012 2.019132614135742 0.000000000000000
20.779380798339844 -5.148534774780273 1.808944106101990 0.000000000000000
20.781888961791992 -7.087687492370605 1.304503083229065 0.000000000000000
20.785741806030273 -2.252178668975830 1.483990788459778 0.000000000000000
20.789733886718750 -1.956422686576843 1.764486789703369 0.000000000000000
20.793479919433594 20.137626647949219 1.218273639678955 0.000000000000000
20.793813705444336 12.571375846862793 3.601106643676758 0.000000000000000
20.794422149658203 -0.883178830146790 1.397004127502441 0.000000000000000
20.794422149658203 17.603151321411133 1.671136140823364 0.000000000000000
20.796972274780273 -8.340940475463867 3.320805311203003 0.000000000000000
20.798286437988281 19.851682662963867 1.597399950027466 0.000000000000000
20.798824310302734 -5.246691703796387 1.729624629020691 0.000000000000000
20.799720764160156 13.752431869506836 2.010608434677124 0.000000000000000
20.803295135498047 27.840744018554688 1.997853159904480 0.000000000000000
20.804771423339844 20.675901412963867 3.331520318984985 0.000000000000000
20.813833236694336 -25.017919540405273 -0.005679999943823 1.000000000000000
20.816719055175781 -10.248511314392090 2.840718746185303 0.000000000000000
20.819259643554688 -0.280534446239471 1.719127416610718 0.000000000000000
20.821617126464844 0.988478660583496 1.721102237701416 0.000000000000000
20.826297760009766 -5.331014633178711 2.441760778427124 0.000000000000000
20.826890945434570 17.482654571533203 0.047458969056606 0.000000000000000
20.827850341796875 26.139217376708984 1.406657934188843 0.000000000000000
20.828260421752930 18.803932189941406 1.559012651443481 0.000000000000000
20.840461730957031 18.682018280029297 2.364998340606689 0.000000000000000
20.841583251953125 19.467752456665039 0.159284904599190 0.000000000000000
20.843526840209961 -2.923431158065796 1.169370412826538 0.000000000000000
20.852298736572266 18.431695938110352 3.703516244888306 0.000000000000000
20.856410980224609 2.899262428283691 1.779305934906006 0.000000000000000
20.858915328979492 -1.169116139411926 1.361987471580505 0.000000000000000
20.860754013061523 8.202135086059570 -0.176053047180176 0.000000000000000
20.866312026977539 -1.257230758666992 1.685580253601074 0.000000000000000
20.868301391601562 -23.209976196289062 -0.005447521805763 1.000000000000000
20.868450164794922 18.881238937377930 1.671965479850769 0.000000000000000
20.871358871459961 -6.015527248382568 3.712832212448120 0.000000000000000
20.873264312744141 -8.786317825317383 2.053079843521118 0.000000000000000
20.875833511352539 -22.385023117065430 2.468091011047363 0.000000000000000
20.878925323486328 2.848183631896973 1.739863634109497 0.000000000000000
20.891138076782227 -6.932956695556641 2.344578266143799 0.000000000000000
20.893575668334961 16.056549072265625 0.703821599483490 0.000000000000000
20.895118713378906 -4.472659587860107 2.616144657135010 0.000000000000000
20.895273208618164 17.327888488769531 3.323407649993896 0.000000000000000
20.903631210327148 -4.944491386413574 3.671720981597900 0.000000000000000
20.905874252319336 19.632616043090820 1.372542738914490 0.000000000000000
20.908649444580078 -2.922891139984131 1.539252161979675 0.000000000000000
20.908945083618164 -0.018976340070367 1.403433322906494 0.000000000000000
20.918481826782227 1.445152401924133 1.528780937194824 0.000000000000000
20.921344757080078 2.873683929443359 1.336018919944763 0.000000000000000
20.922216415405273 -0.913117706775665 1.324906468391418 0.000000000000000
20.924026489257812 7.870661735534668 -0.862713873386383 0.000000000000000
20.928356170654297 -2.650546312332153 1.701012015342712 0.000000000000000
20.928573608398438 -15.468811988830566 2.772059202194214 1.000000000000000
20.943946838378906 -2.742077112197876 1.662391543388367 0.000000000000000
20.945106506347656 28.922849655151367 1.640334248542786 0.000000000000000
20.958349227905273 22.497131347656250 1.589854478836060 0.000000000000000
20.960550308227539 19.975820541381836 0.550904393196106 0.000000000000000
20.961320877075195 -3.010117053985596 1.421381473541260 0.000000000000000
20.966598510742188 -12.173963546752930 1.861268520355225 0.000000000000000
20.970897674560547 -14.240038871765137 1.848149657249451 0.000000000000000
20.986675262451172 16.174182891845703 0.453239947557449 0.000000000000000
20.988571166992188 -0.092312760651112 1.408790946006775 0.000000000000000
21.002357482910156 1.782444477081299 1.333493351936340 0.000000000000000
21.002706527709961 20.514293670654297 0.727772474288940 0.000000000000000
21.003673553466797 9.576802253723145 0.040289159864187 0.000000000000000
21.003875732421875 -6.705615043640137 1.182515978813171 0.000000000000000
21.012912750244141 19.166589736938477 2.853847980499268 0.000000000000000
21.014099121093750 15.049055099487305 1.137543201446533 0.000000000000000
21.015525817871094 -10.191902160644531 1.928464055061340 0.000000000000000
21.018573760986328 -5.112894535064697 1.618887901306152 0.000000000000000
21.018941879272461 2.826565265655518 1.300861001014709 0.000000000000000
21.020610809326172 -4.744139194488525 1.072788357734680 0.000000000000000
21.021961212158203 -5.645009517669678 2.184116363525391 0.000000000000000
21.028465270996094 -11.763972282409668 1.710271239280701 0.000000000000000
21.028589248657227 3.648154497146606 1.391392230987549 0.000000000000000
21.032539367675781 -6.468042850494385 1.917415261268616 0.000000000000000
21.060270309448242 -10.869084358215332 2.691850423812866 0.000000000000000
21.066543579101562 19.978820800781250 0.775485396385193 0.000000000000000
21.069135665893555 22.595485687255859 0.587808907032013 0.000000000000000
21.074127197265625 1.083795070648193 2.808108329772949 0.000000000000000
21.075016021728516 1.628673195838928 2.121016979217529 0.000000000000000
21.075246810913086 17.566083908081055 0.469317108392715 0.000000000000000
21.075645446777344 3.844533205032349 2.036428451538086 0.000000000000000
21.081298828125000 2.144703626632690 0.647416532039642 0.000000000000000
21.081579208374023 -2.760096549987793 1.345110893249512 0.000000000000000
21.086275100708008 3.449988603591919 1.392953515052795 0.000000000000000
21.089881896972656 3.380322456359863 1.861163616180420 0.000000000000000
21.115333557128906 -2.764515876770020 2.268317937850952 0.000000000000000
21.116411209106445 16.528842926025391 0.922382652759552 0.000000000000000
21.116794586181641 -2.811580419540405 1.183571457862854 0.000000000000000
21.117206573486328 -2.895700931549072 1.718693971633911 0.000000000000000
21.120775222778320 1.706390976905823 2.126208543777466 0.000000000000000
21.124279022216797 13.861288070678711 2.037292242050171 0.000000000000000
21.124935150146484 -3.777380943298340 1.945459961891174 0.000000000000000
21.126466751098633 21.179634094238281 1.489254593849182 0.000000000000000
21.135688781738281 -7.126087665557861 1.325141787528992 0.000000000000000
21.140636444091797 19.183961868286133 2.301879644393921 0.000000000000000
21.142208099365234 -18.261056900024414 1.821274399757385 0.000000000000000
21.142766952514648 -6.979203701019287 1.623311877250671 0.000000000000000
21.144639968872070 19.668073654174805 2.745014905929565 0.000000000000000
21.159177780151367 -3.605782985687256 2.153764724731445 0.000000000000000
21.160537719726562 17.849145889282227 2.631459474563599 0.000000000000000
21.161062240600586 -11.879404067993164 1.535285353660583 0.000000000000000
21.164272308349609 -0.824887275695801 1.421649336814880 0.000000000000000
21.164461135864258 21.963973999023438 1.753372788429260 0.000000000000000
21.172840118408203 19.043376922607422 2.857442140579224 0.000000000000000
21.173412322998047 19.521854400634766 1.600062608718872 0.000000000000000
21.176403045654297 8.227390289306641 3.883343219757080 0.000000000000000
21.179962158203125 0.154517576098442 2.013339042663574 0.000000000000000
21.180072784423828 -3.853653907775879 1.611126303672791 0.000000000000000
21.195304870605469 9.093958854675293 0.084533788263798 0.000000000000000
21.202985763549805 20.646381378173828 -0.289262086153030 0.000000000000000
21.204837799072266 -5.966800212860107 1.181444883346558 0.000000000000000
21.211904525756836 -18.084049224853516 2.969064950942993 0.000000000000000
21.214214324951172 -6.971597194671631 0.982775449752808 0.000000000000000
21.214664459228516 4.212929725646973 2.456657886505127 0.000000000000000
21.217708587646484 -2.555977582931519 2.276367664337158 0.000000000000000
21.223613739013672 15.876721382141113 0.402491658926010 0.000000000000000
21.231403350830078 22.117498397827148 1.939626693725586 0.000000000000000
21.233913421630859 15.767408370971680 0.655609786510468 0.000000000000000
21.235380172729492 21.967620849609375 2.404614448547363 0.000000000000000
21.237964630126953 -3.106612682342529 1.606349945068359 0.000000000000000
21.241025924682617 20.144294738769531 0.332118600606918 0.000000000000000
21.246368408203125 -2.822039604187012 1.479944944381714 0.000000000000000
21.248897552490234 2.207860231399536 1.557576537132263 0.000000000000000
21.256734848022461 1.487906932830811 -1.478841304779053 1.000000000000000
21.257625579833984 -25.917247772216797 -0.005850343499333 1.000000000000000
21.260974884033203 -12.060251235961914 2.129921197891235 0.000000000000000
21.262212753295898 -22.499097824096680 2.436312198638916 0.000000000000000
21.273372650146484 25.262035369873047 3.313914060592651 0.000000000000000
21.284132003784180 -2.362568855285645 1.866024851799011 0.000000000000000
21.286384582519531 -10.888574600219727 1.835549354553223 0.000000000000000
21.287748336791992 -2.751950979232788 1.482149243354797 0.000000000000000
21.298620223999023 8.178336143493652 -0.485869944095612 0.000000000000000
21.306640625000000 16.302536010742188 0.458918243646622 0.000000000000000
21.310764312744141 -8.708912849426270 2.087026834487915 0.000000000000000
21.311916351318359 -14.133879661560059 2.430844783782959 0.000000000000000
21.314889907836914 17.765825271606445 0.048429369926453 0.000000000000000
21.317419052124023 -1.139957904815674 1.309432148933411 0.000000000000000
21.318246841430664 15.132186889648438 1.956516981124878 0.000000000000000
21.318437576293945 -10.564483642578125 2.387392044067383 1.000000000000000
21.338020324707031 -8.160148620605469 2.594794034957886 0.000000000000000
21.339590072631836 -13.572835922241211 1.648749113082886 0.000000000000000
21.342443466186523 -13.267969131469727 2.026361465454102 0.000000000000000
21.343736648559570 -3.208125352859497 1.956655383110046 0.000000000000000
21.345689773559570 15.264006614685059 1.559046149253845 0.000000000000000
21.347255706787109 23.429101943969727 2.310914278030396 0.000000000000000
21.348169326782227 -1.211489319801331 2.428669452667236 0.000000000000000
21.351278305053711 24.434070587158203 0.866693913936615 0.000000000000000
21.354375839233398 -5.115695953369141 1.643366694450378 0.000000000000000
21.357759475708008 8.212166786193848 2.074387073516846 0.000000000000000
21.357999801635742 5.002007961273193 2.336528539657593 0.000000000000000
21.361843109130859 -1.495259523391724 3.173618078231812 0.000000000000000
21.375638961791992 8.983727455139160 3.436326980590820 0.000000000000000
21.378425598144531 25.605522155761719 2.625241756439209 0.000000000000000
21.382555007934570 2.795707702636719 1.655515432357788 0.000000000000000
21.405721664428711 15.515666961669922 1.876512169837952 0.000000000000000
21.410966873168945 -0.808301627635956 1.272952079772949 0.000000000000000
21.411314010620117 21.130647659301758 2.425654172897339 0.000000000000000
21.418430328369141 -1.033297181129456 2.038321256637573 0.000000000000000
21.436750411987305 24.382057189941406 3.086060047149658 0.000000000000000
21.469173431396484 -4.398397922515869 2.489160537719727 0.000000000000000
21.480262756347656 -1.596636176109314 1.321187019348145 0.000000000000000
21.481382369995117 1.807240247726440 0.990220844745636 0.000000000000000
21.490079879760742 -3.874032974243164 2.325937032699585 0.000000000000000
21.500066757202148 21.047819137573242 0.514675319194794 0.000000000000000
21.501079559326172 13.213070869445801 2.287820577621460 0.000000000000000
21.502927780151367 20.561573028564453 1.767567276954651 0.000000000000000
21.506780624389648 26.798822402954102 1.446184873580933 0.000000000000000
21.512504577636719 -12.160286903381348 1.611017346382141 0.000000000000000
21.514350891113281 -11.224012374877930 2.434916257858276 0.000000000000000
21.530147552490234 -11.328039169311523 1.867698311805725 0.000000000000000
21.532039642333984 1.946699500083923 3.204111099243164 0.000000000000000
21.533546447753906 1.875616312026978 0.951294302940369 0.000000000000000
21.535882949829102 -2.258952379226685 1.411689281463623 0.000000000000000
21.537134170532227 -4.144279956817627 2.685169458389282 0.000000000000000
21.542812347412109 20.674695968627930 0.568101167678833 0.000000000000000
21.549236297607422 -1.141416072845459 1.448437452316284 0.000000000000000
21.559656143188477 -11.314753532409668 1.869229197502136 0.000000000000000
21.560379028320312 29.554759979248047 2.243936061859131 0.000000000000000
21.563381195068359 25.284097671508789 1.079144358634949 0.000000000000000
21.564563751220703 -2.940942049026489 1.502815127372742 0.000000000000000
21.566410064697266 -14.754670143127441 1.905158996582031 0.000000000000000
21.566436767578125 -21.414899826049805 3.452051162719727 0.000000000000000
21.568149566650391 -1.342592358589172 1.283864498138428 0.000000000000000
21.593162536621094 -3.783369302749634 1.987352252006531 0.000000000000000
21.598785400390625 27.416606903076172 2.140837192535400 0.000000000000000
21.608751296997070 -12.466766357421875 2.059793233871460 0.000000000000000
21.610235214233398 -2.947170734405518 1.842960715293884 0.000000000000000
21.619659423828125 -6.004602432250977 1.160219788551331 0.000000000000000
21.622814178466797 -4.021605491638184 1.858453392982483 0.000000000000000
21.625999450683594 -14.980694770812988 2.639789342880249 0.000000000000000
21.629938125610352 -3.970226764678955 1.688276767730713 0.000000000000000
21.640974044799805 -1.020183920860291 1.705073118209839 0.000000000000000
21.650424957275391 11.970429420471191 3.028836250305176 0.000000000000000
21.651803970336914 -8.268884658813477 1.198432564735413 0.000000000000000
21.656984329223633 2.050626993179321 0.664640307426453 0.000000000000000
21.663290023803711 -18.864162445068359 3.059729576110840 0.000000000000000
21.664047241210938 1.598134636878967 2.179723262786865 0.000000000000000
21.667211532592773 -0.507210791110992 0.995543539524078 0.000000000000000
21.674322128295898 20.510023117065430 2.290839195251465 0.000000000000000
21.675123214721680 14.086207389831543 2.593862771987915 0.000000000000000
21.675275802612305 -20.786567687988281 2.305535793304443 0.000000000000000
21.694530487060547 -4.005570888519287 2.213669061660767 0.000000000000000
21.694763183593750 18.211170196533203 0.919843435287476 0.000000000000000
21.701431274414062 27.928989410400391 2.851951837539673 0.000000000000000
21.702013015747070 -23.125659942626953 2.495940923690796 0.000000000000000
21.710626602172852 -22.467882156372070 0.174498513340950 1.000000000000000
21.711805343627930 -13.170898437500000 3.109041452407837 0.000000000000000
21.713912963867188 1.189674496650696 3.222876071929932 0.000000000000000
21.717184066772461 -8.844495773315430 1.483511328697205 0.000000000000000
21.720090866088867 -3.254616260528564 1.643665194511414 0.000000000000000
21.728998184204102 -22.644544601440430 0.175280421972275 1.000000000000000
21.739980697631836 -4.691613197326660 1.107195615768433 0.000000000000000
21.751037597656250 -12.242079734802246 2.372552871704102 0.000000000000000
21.757743835449219 -5.727523326873779 1.814176917076111 0.000000000000000
21.759416580200195 -28.908248901367188 3.630609035491943 0.000000000000000
21.766437530517578 -8.776097297668457 1.484774112701416 0.000000000000000
21.769363403320312 19.967540740966797 -0.061868380755186 0.000000000000000
21.770683288574219 -11.074058532714844 2.450890541076660 0.000000000000000
21.775524139404297 21.830324172973633 0.349815875291824 0.000000000000000
21.778520584106445 -4.386573314666748 1.791351079940796 0.000000000000000
21.780921936035156 18.338640213012695 1.143595695495605 0.000000000000000
21.802228927612305 -5.166687488555908 1.158567428588867 0.000000000000000
21.805355072021484 4.251174926757812 1.791351079940796 0.000000000000000
21.810144424438477 15.481346130371094 1.177114486694336 0.000000000000000
21.815679550170898 -7.173051357269287 2.304324626922607 0.000000000000000
21.821571350097656 -2.673166751861572 1.915679097175598 0.000000000000000
21.835979461669922 -8.651648521423340 3.480893850326538 0.000000000000000
21.836385726928711 -3.360160589218140 2.002881288528442 0.000000000000000
21.837650299072266 21.168073654174805 0.403441280126572 0.000000000000000
21.843477249145508 1.059158086776733 3.241054534912109 0.000000000000000
21.847019195556641 -0.901146829128265 1.805363535881042 0.000000000000000
21.853307723999023 27.812536239624023 3.206560373306274 0.000000000000000
21.855495452880859 5.889703273773193 2.051996231079102 0.000000000000000
21.856723785400391 -9.032800674438477 3.504936218261719 0.000000000000000
21.885889053344727 -14.027845382690430 2.096125125885010 0.000000000000000
21.900375366210938 18.994802474975586 2.526113033294678 0.000000000000000
21.908357620239258 1.754232645034790 -1.059546828269958 0.000000000000000
21.910669326782227 -2.790886640548706 1.738339781761169 0.000000000000000
