# This PCD file was generated using the MATLAB® pcwrite function
# from Computer Vision Toolbox®.
# .PCD v.7 - Point Cloud Data file format
VERSION .7
FIELDS x y z intensity
SIZE 8 8 8 8
TYPE F F F F
COUNT 1 1 1 1
WIDTH 657
HEIGHT 1
VIEWPOINT 0 0 0 1 0 0 0
POINTS 657
DATA ascii
3.844223499298096 -3.959871292114258 0.434349596500397 0.000000000000000
3.846911668777466 -2.604456663131714 0.365619421005249 0.000000000000000
3.847148895263672 1.601728200912476 0.554551243782043 0.000000000000000
3.851271629333496 3.483313322067261 1.080115914344788 0.000000000000000
3.856375455856323 0.911040604114532 0.677327334880829 0.000000000000000
3.857237339019775 3.132234573364258 0.333512961864471 0.000000000000000
3.860393285751343 3.770883560180664 1.122473359107971 0.000000000000000
3.862882375717163 4.265249729156494 0.131592646241188 0.000000000000000
3.864791870117188 2.503691673278809 0.255841374397278 0.000000000000000
3.868047714233398 3.830161333084106 0.072209835052490 0.000000000000000
3.868599414825439 -0.011544069275260 0.296994626522064 0.000000000000000
3.871950626373291 -3.087398290634155 0.846490681171417 0.000000000000000
3.872694969177246 -13.436629295349121 1.712014317512512 0.000000000000000
3.874962806701660 3.221399545669556 0.221775203943253 0.000000000000000
3.877151727676392 3.133832693099976 1.036943793296814 0.000000000000000
3.878581762313843 3.813868761062622 1.131433606147766 0.000000000000000
3.879158496856689 -1.222944974899292 0.265163391828537 0.000000000000000
3.880380630493164 0.686241984367371 0.241707414388657 0.000000000000000
3.892348527908325 3.675541877746582 0.163564294576645 0.000000000000000
3.892730951309204 3.140140056610107 0.326054692268372 0.000000000000000
3.893887042999268 1.005721807479858 0.687436759471893 0.000000000000000
3.895317792892456 2.772456884384155 0.376289844512939 0.000000000000000
3.898433208465576 -4.350064277648926 0.414611190557480 0.000000000000000
3.903507471084595 -14.096607208251953 0.981787204742432 0.000000000000000
3.908514499664307 3.614132881164551 0.080838449299335 0.000000000000000
3.913167715072632 -0.216586679220200 0.669913768768311 0.000000000000000
3.915039300918579 -2.100281238555908 0.543936431407928 0.000000000000000
3.919685125350952 -1.928214430809021 0.647389948368073 0.000000000000000
3.920298814773560 0.997962296009064 0.691480457782745 1.000000000000000
3.923437833786011 3.126211643218994 1.043460369110107 1.000000000000000
3.929270744323730 3.126156806945801 0.744146585464478 0.000000000000000
3.929534673690796 -0.855915009975433 0.687436759471893 0.000000000000000
3.930650472640991 3.915042400360107 0.052287895232439 0.000000000000000
3.939585447311401 -14.448237419128418 1.700971484184265 0.000000000000000
3.940309047698975 -1.244718670845032 0.253462195396423 0.000000000000000
3.942224740982056 3.823752641677856 0.813928604125977 0.000000000000000
3.944360971450806 1.626070857048035 0.567742347717285 0.000000000000000
3.945303201675415 0.409239500761032 0.678001284599304 0.000000000000000
3.945417165756226 -4.266484260559082 0.618978857994080 0.000000000000000
3.947843551635742 -13.523348808288574 1.874710440635681 0.000000000000000
3.951282978057861 8.054533958435059 2.403911352157593 0.000000000000000
3.951331377029419 -2.301022529602051 0.324552178382874 0.000000000000000
3.951885223388672 4.339413642883301 0.416593611240387 0.000000000000000
3.952292919158936 -1.146676540374756 0.323879182338715 0.000000000000000
3.953662395477295 -1.985546469688416 0.373846203088760 0.000000000000000
3.959634304046631 4.707047462463379 1.648159742355347 0.000000000000000
3.964751243591309 5.871800422668457 0.571290552616119 0.000000000000000
3.970532655715942 2.362783432006836 0.327950656414032 0.000000000000000
3.971424818038940 2.839910745620728 0.365391641855240 0.000000000000000
3.975319862365723 -2.740137100219727 0.437701404094696 0.000000000000000
3.976292371749878 -0.007701693568379 0.305261492729187 0.000000000000000
3.977366209030151 4.256109237670898 0.177978456020355 0.000000000000000
3.977756500244141 4.081712245941162 0.571887791156769 0.000000000000000
3.978640794754028 -13.919172286987305 1.312381982803345 0.000000000000000
3.981369495391846 -2.712954521179199 0.369865506887436 0.000000000000000
3.981441736221313 -4.400323867797852 0.595450222492218 0.000000000000000
3.981867551803589 6.512864112854004 0.468231588602066 1.000000000000000
3.990152359008789 0.291338860988617 0.160687699913979 0.000000000000000
3.993038177490234 0.248002305626869 0.532390356063843 0.000000000000000
3.996599674224854 -13.833854675292969 0.108069777488708 0.000000000000000
3.996640443801880 4.276734352111816 1.568443536758423 0.000000000000000
4.002933979034424 0.074133239686489 0.315091758966446 0.000000000000000
4.003620147705078 4.427164077758789 0.423673719167709 0.000000000000000
4.004379272460938 -0.471965312957764 0.177455335855484 0.000000000000000
4.007349491119385 -3.422720670700073 1.412116765975952 0.000000000000000
4.010053157806396 4.800905704498291 1.676112174987793 0.000000000000000
4.019018173217773 -5.268272876739502 1.775498628616333 0.000000000000000
4.024236679077148 -4.929983615875244 0.846864700317383 0.000000000000000
4.025854110717773 -0.460254013538361 0.178334698081017 0.000000000000000
4.033559322357178 2.382780790328979 0.424700379371643 0.000000000000000
4.036570549011230 -1.173572540283203 1.126380562782288 0.000000000000000
4.043220996856689 -9.196755409240723 1.717243790626526 0.000000000000000
4.045336246490479 -0.773957788944244 1.103604555130005 0.000000000000000
4.045608520507812 -0.239077985286713 0.303298920392990 0.000000000000000
4.047803401947021 -2.868232727050781 1.329294681549072 0.000000000000000
4.058382511138916 3.478577375411987 0.173582300543785 0.000000000000000
4.058749675750732 -1.996448278427124 0.940824985504150 0.000000000000000
4.061162948608398 -1.860889077186584 0.763593912124634 0.000000000000000
4.062242507934570 -0.293465703725815 0.847149789333344 0.000000000000000
4.064064025878906 3.557946920394897 0.575341045856476 0.000000000000000
4.066300392150879 -4.586268424987793 0.652872323989868 0.000000000000000
4.070604324340820 -0.896544516086578 0.255666196346283 0.000000000000000
4.070796966552734 -0.764108896255493 1.109816074371338 0.000000000000000
4.072455406188965 4.041441440582275 0.274585038423538 0.000000000000000
4.075120449066162 -2.599238872528076 1.295130491256714 0.000000000000000
4.077060222625732 -13.196941375732422 2.872977972030640 0.000000000000000
4.077680587768555 4.477231025695801 0.045449346303940 0.000000000000000
4.077780246734619 -1.170132040977478 1.136733293533325 1.000000000000000
4.080370903015137 -3.056062936782837 0.624141514301300 0.000000000000000
4.080949306488037 -0.923499464988708 0.256645768880844 0.000000000000000
4.081752777099609 6.166620731353760 1.981518626213074 0.000000000000000
4.081823348999023 3.348792314529419 0.212056413292885 0.000000000000000
4.086964607238770 -2.987702131271362 0.865361511707306 0.000000000000000
4.093259334564209 -3.319507837295532 0.323256105184555 0.000000000000000
4.094007968902588 -1.893258094787598 0.771007418632507 0.000000000000000
4.094414234161377 7.298544883728027 0.239602416753769 1.000000000000000
4.100660324096680 -2.927240848541260 1.350000143051147 1.000000000000000
4.101295471191406 -2.996421337127686 1.056493520736694 0.000000000000000
4.102784633636475 -1.511319756507874 0.415613114833832 0.000000000000000
4.103708267211914 -2.304683685302734 0.297762989997864 0.000000000000000
4.105349540710449 -1.544080734252930 0.912315070629120 0.000000000000000
4.105932712554932 -4.800808906555176 1.692676663398743 0.000000000000000
4.106430530548096 3.595037221908569 0.261199951171875 0.000000000000000
4.111563682556152 -9.340702056884766 2.122761726379395 0.000000000000000
4.112816333770752 7.677448272705078 1.488772273063660 1.000000000000000
4.112965106964111 -4.100349903106689 1.208002924919128 0.000000000000000
4.117228507995605 -1.664471507072449 0.923719048500061 0.000000000000000
4.120303630828857 -0.728077948093414 0.256645768880844 0.000000000000000
4.120793819427490 -0.342990934848785 0.374863117933273 0.000000000000000
4.122670173645020 3.759112358093262 1.494938969612122 0.000000000000000
4.125890731811523 -9.462690353393555 2.147198915481567 0.000000000000000
4.126092433929443 -14.173472404479980 0.252514511346817 0.000000000000000
4.126742362976074 -1.503805875778198 0.417505711317062 0.000000000000000
4.126947402954102 0.296982705593109 0.229880020022392 0.000000000000000
4.128023147583008 -1.628402352333069 0.357820123434067 0.000000000000000
4.130017280578613 -4.534216880798340 0.615418434143066 0.000000000000000
4.132808685302734 -9.139541625976562 1.714547991752625 0.000000000000000
4.142027854919434 3.776763200759888 0.171259999275208 0.000000000000000
4.144482135772705 -14.147356033325195 1.804857730865479 0.000000000000000
4.146522521972656 3.807449102401733 1.508397459983826 0.000000000000000
4.147292613983154 3.299616575241089 0.049950584769249 0.000000000000000
4.149951934814453 -9.092777252197266 1.708482384681702 0.000000000000000
4.154249191284180 -0.230949416756630 0.247188985347748 0.000000000000000
4.154444217681885 -13.395182609558105 1.103762626647949 0.000000000000000
4.155231475830078 -13.538732528686523 1.141938090324402 0.000000000000000
4.157345294952393 -0.125493228435516 0.199055016040802 0.000000000000000
4.159584045410156 3.405307054519653 0.298666536808014 1.000000000000000
4.160055160522461 -3.919004201889038 0.573485255241394 1.000000000000000
4.160884380340576 -2.653941631317139 0.495210111141205 0.000000000000000
4.163218975067139 -3.105541944503784 0.521168708801270 0.000000000000000
4.165850162506104 -2.397308588027954 0.304076910018921 0.000000000000000
4.167203426361084 -1.213997721672058 0.412584960460663 0.000000000000000
4.170764923095703 -1.003467917442322 0.733265817165375 0.000000000000000
4.176141262054443 6.261625289916992 2.016718149185181 0.000000000000000
4.177618503570557 3.299994945526123 0.050176776945591 0.000000000000000
4.179355144500732 3.218306541442871 0.232151672244072 0.000000000000000
4.181626319885254 6.132101535797119 1.988765716552734 0.000000000000000
4.182209491729736 -2.374087810516357 1.000288367271423 0.000000000000000
4.183209896087646 3.931323766708374 0.197457000613213 0.000000000000000
4.185772418975830 -3.600459814071655 1.479409694671631 0.000000000000000
4.186679840087891 -14.341483116149902 0.341647058725357 0.000000000000000
4.187240123748779 8.225732803344727 0.836760938167572 1.000000000000000
4.192711830139160 -4.699352264404297 1.687500238418579 0.000000000000000
4.192857265472412 -1.641559004783630 0.345677286386490 0.000000000000000
4.194785118103027 3.182747840881348 0.528357267379761 0.000000000000000
4.199680805206299 3.285758256912231 0.409362703561783 0.000000000000000
4.207367897033691 3.013068199157715 0.227754861116409 0.000000000000000
4.208773612976074 -3.010742187500000 0.469120562076569 0.000000000000000
4.211195945739746 3.145566463470459 0.499644190073013 0.000000000000000
4.213318347930908 -4.259456157684326 0.448380917310715 0.000000000000000
4.219344139099121 -0.117267109453678 0.401229441165924 0.000000000000000
4.224651336669922 -4.291388988494873 0.641433238983154 0.000000000000000
4.224905967712402 -14.110970497131348 1.216192960739136 0.000000000000000
4.225224494934082 -0.352870881557465 0.369454860687256 0.000000000000000
4.225661754608154 3.821933507919312 0.163131117820740 0.000000000000000
4.225721836090088 3.021754980087280 0.228634223341942 0.000000000000000
4.226026058197021 -3.953400611877441 0.580673813819885 0.000000000000000
4.228523254394531 -4.245086669921875 1.246287584304810 0.000000000000000
4.233727455139160 -1.373089194297791 0.474084407091141 0.000000000000000
4.236464023590088 4.228930950164795 0.600641965866089 0.000000000000000
4.236863613128662 -0.689333856105804 1.150191903114319 1.000000000000000
4.239583492279053 0.218329071998596 0.154180645942688 0.000000000000000
4.240319252014160 0.203528791666031 0.154180645942688 0.000000000000000
4.244981288909912 -1.299765467643738 0.657945215702057 0.000000000000000
4.247084140777588 -3.230844259262085 0.409668892621994 0.000000000000000
4.255239486694336 -3.416167736053467 0.932757258415222 0.000000000000000
4.256717681884766 -3.446775913238525 0.272671997547150 0.000000000000000
4.257095813751221 4.277806282043457 1.617101430892944 0.000000000000000
4.258185863494873 3.421100139617920 0.250904887914658 0.000000000000000
4.260657310485840 -5.133444786071777 1.140336155891418 0.000000000000000
4.261498928070068 3.944948673248291 0.618555188179016 0.000000000000000
4.262138366699219 -0.678183197975159 1.156403541564941 1.000000000000000
4.263471603393555 -4.338843345642090 0.455246925354004 0.000000000000000
4.263554573059082 4.195053577423096 0.521195292472839 0.000000000000000
4.274901866912842 -0.115822680294514 0.889507174491882 0.000000000000000
4.280151367187500 -3.365003108978271 0.806891798973083 0.000000000000000
4.285809040069580 0.996709585189819 0.752136647701263 0.000000000000000
4.285990715026855 -13.650721549987793 1.126044988632202 0.000000000000000
4.292454242706299 4.409096240997314 0.176181599497795 0.000000000000000
4.298657417297363 -5.291006565093994 1.165272593498230 0.000000000000000
4.302520275115967 -1.148350834846497 0.247409477829933 0.000000000000000
4.303181171417236 3.844517946243286 0.253959864377975 0.000000000000000
4.314666748046875 -1.484900832176208 1.222661256790161 0.000000000000000
4.315225124359131 -14.133874893188477 0.877971649169922 0.000000000000000
4.316005229949951 -4.808915615081787 1.344035625457764 0.000000000000000
4.324375152587891 3.549051284790039 0.138675257563591 0.000000000000000
4.325024604797363 3.975809097290039 0.625757575035095 1.000000000000000
4.335716724395752 -12.536371231079102 1.624031662940979 0.000000000000000
4.336386203765869 -1.105653285980225 0.663222849369049 0.000000000000000
4.340021133422852 -1.299922347068787 0.671432554721832 0.000000000000000
4.340850830078125 4.423300743103027 0.284676998853683 0.000000000000000
4.341248989105225 3.640031099319458 0.173092305660248 0.000000000000000
4.343480110168457 3.853340148925781 0.255542725324631 0.000000000000000
4.344512462615967 3.316587448120117 0.156491398811340 0.000000000000000
4.349833965301514 -5.569135665893555 0.802634656429291 0.000000000000000
4.354858875274658 -3.965674638748169 1.225108861923218 0.000000000000000
4.359882354736328 -5.070262432098389 1.143032073974609 1.000000000000000
4.366447448730469 -3.456834554672241 0.504873454570770 1.000000000000000
4.366683006286621 3.067590713500977 0.193814650177956 0.000000000000000
4.370099067687988 -0.609822332859039 0.177222013473511 0.000000000000000
4.370543479919434 -0.348421275615692 0.749440848827362 0.000000000000000
4.371558666229248 -12.803266525268555 1.536652445793152 0.000000000000000
4.373455524444580 -2.836033105850220 0.495480477809906 0.000000000000000
4.375607967376709 -13.989957809448242 3.048924684524536 0.000000000000000
4.376863479614258 -2.859994649887085 0.496994584798813 0.000000000000000
4.378104686737061 -4.524801254272461 0.446896493434906 0.000000000000000
4.378887176513672 -12.916074752807617 1.669724345207214 0.000000000000000
4.379076957702637 -5.566412925720215 0.804440319538116 0.000000000000000
4.383210659027100 5.191237449645996 0.155368953943253 0.000000000000000
4.386802673339844 -2.694980859756470 0.448623776435852 0.000000000000000
4.399472236633301 -0.789053618907928 0.405198872089386 0.000000000000000
4.402718544006348 -3.559911251068115 0.967803061008453 0.000000000000000
4.403836727142334 3.199457645416260 0.082660503685474 0.000000000000000
4.404324054718018 -1.157753586769104 0.778420984745026 0.000000000000000
4.405916213989258 -2.404578208923340 0.356271058320999 0.000000000000000
4.407843112945557 3.941206455230713 0.192018121480942 0.000000000000000
4.417274475097656 -3.067571401596069 0.487538695335388 1.000000000000000
4.427574634552002 2.977898597717285 0.040045857429504 0.000000000000000
4.430682182312012 5.039081096649170 0.166331008076668 1.000000000000000
4.433060646057129 6.992400646209717 0.459981977939606 0.000000000000000
4.435069561004639 5.056515216827393 0.166727498173714 0.000000000000000
4.438402175903320 2.614628314971924 0.415367126464844 0.000000000000000
4.439450263977051 0.007128454279155 0.504242360591888 0.000000000000000
4.442805767059326 -1.052527546882629 0.780442893505096 0.000000000000000
4.443372249603271 0.022645207121968 0.504693746566772 0.000000000000000
4.453356742858887 6.385880947113037 2.086081504821777 1.000000000000000
4.454707622528076 7.291688442230225 0.573535144329071 0.000000000000000
4.459597587585449 -13.995693206787109 1.014276146888733 0.000000000000000
4.460901737213135 2.956640481948853 0.050440665334463 1.000000000000000
4.469740867614746 -2.196575403213501 1.334470987319946 0.000000000000000
4.470181941986084 2.661804914474487 0.471648573875427 0.000000000000000
4.472551345825195 3.220726728439331 0.073111794888973 0.000000000000000
4.472733497619629 -1.005677461624146 0.378517448902130 0.000000000000000
4.474657535552979 -0.826017260551453 0.484676122665405 1.000000000000000
4.480734348297119 -4.811561107635498 0.700323104858398 0.000000000000000
4.486896991729736 3.860156536102295 0.328843832015991 0.000000000000000
4.490727901458740 -1.975874066352844 0.310390800237656 0.000000000000000
4.494338989257812 -0.270004361867905 0.293527275323868 0.000000000000000
4.498464107513428 -0.106168024241924 0.427725702524185 0.000000000000000
4.500018119812012 -0.103769890964031 1.206096768379211 0.000000000000000
4.503348350524902 -5.160830020904541 1.424677848815918 0.000000000000000
4.504932880401611 -4.134958744049072 0.554349601268768 0.000000000000000
4.507944583892822 -12.667475700378418 3.602761268615723 0.000000000000000
4.510394573211670 3.363906145095825 0.490291625261307 0.000000000000000
4.513948440551758 3.869058609008789 0.284528195858002 0.000000000000000
4.523406982421875 -4.499627113342285 0.502138257026672 0.000000000000000
4.523711204528809 1.035403728485107 0.793248057365417 1.000000000000000
4.536046981811523 -4.685416221618652 1.114725828170776 0.000000000000000
4.551646232604980 -4.655945777893066 0.693544387817383 0.000000000000000
4.562002182006836 -0.204047739505768 0.350576162338257 0.000000000000000
4.565269470214844 -13.507688522338867 1.897399067878723 0.000000000000000
4.565412044525146 3.336242437362671 0.537496030330658 0.000000000000000
4.568953514099121 -14.177888870239258 0.054596573114395 0.000000000000000
4.575679302215576 -1.237526416778564 0.336446791887283 1.000000000000000
4.575944900512695 -3.128993511199951 0.821551859378815 0.000000000000000
4.582423210144043 -2.754268407821655 0.913886427879333 0.000000000000000
4.583963394165039 -2.644632577896118 0.503050863742828 0.000000000000000
4.585921287536621 -14.225444793701172 1.003217697143555 0.000000000000000
4.587852478027344 -0.636780381202698 0.275181591510773 0.000000000000000
4.592189788818359 -3.655934333801270 0.511472761631012 0.000000000000000
4.596794605255127 4.784958362579346 0.100759565830231 0.000000000000000
4.598037719726562 4.134137630462646 0.093896508216858 0.000000000000000
4.599427223205566 -3.164763927459717 1.495974183082581 0.000000000000000
4.603624820709229 1.724981546401978 0.523653566837311 0.000000000000000
4.604460239410400 -12.797083854675293 3.644172430038452 0.000000000000000
4.604921340942383 3.392065763473511 0.229714393615723 0.000000000000000
4.605107784271240 5.394940376281738 0.618072986602783 0.000000000000000
4.607016563415527 0.598429381847382 0.494844168424606 0.000000000000000
4.609004974365234 -0.526922464370728 0.347181767225266 0.000000000000000
4.609619140625000 1.708899974822998 0.523653566837311 0.000000000000000
4.610227108001709 3.891673564910889 0.184330478310585 0.000000000000000
4.612773418426514 -1.105555772781372 0.345837265253067 0.000000000000000
4.613646984100342 -2.609319210052490 0.406913280487061 0.000000000000000
4.617820262908936 0.627473890781403 0.969334840774536 0.000000000000000
4.618229866027832 -6.422688007354736 1.645425438880920 0.000000000000000
4.618534088134766 -6.470645904541016 1.653571248054504 1.000000000000000
4.619698524475098 3.874739885330200 0.172632783651352 0.000000000000000
4.626945972442627 -1.048159480094910 0.703098297119141 0.000000000000000
4.628348827362061 -0.364990502595901 0.293722122907639 0.000000000000000
4.629927635192871 -5.122603893280029 0.656350791454315 0.000000000000000
4.632401943206787 4.439365386962891 0.504962801933289 0.000000000000000
4.632786273956299 -13.823484420776367 1.784928083419800 0.000000000000000
4.638221740722656 4.860242843627930 0.674124717712402 1.000000000000000
4.642668724060059 -0.976163566112518 0.703098297119141 0.000000000000000
4.646587371826172 -1.356468677520752 0.268932998180389 0.000000000000000
4.649394035339355 -1.841951489448547 1.040202140808105 0.000000000000000
4.654788970947266 4.395514011383057 1.715452671051025 0.000000000000000
4.654913902282715 -3.814617633819580 0.891920328140259 0.000000000000000
4.658938884735107 2.766495227813721 0.436907082796097 0.000000000000000
4.659836292266846 0.801460027694702 0.474443256855011 0.000000000000000
4.661272048950195 -0.630394339561462 0.279451668262482 0.000000000000000
4.662281513214111 -3.208012580871582 0.434469461441040 0.000000000000000
4.662986278533936 -3.160759449005127 1.509432673454285 0.000000000000000
4.666529655456543 0.785851180553436 0.474842578172684 0.000000000000000
4.670505523681641 4.928404331207275 0.681313276290894 0.000000000000000
4.671270847320557 -3.800843477249146 0.892506778240204 0.000000000000000
4.672641754150391 -14.168565750122070 0.513168156147003 0.000000000000000
4.673205375671387 -2.117008447647095 0.314684927463531 0.000000000000000
4.673909664154053 2.759300470352173 0.301551133394241 0.000000000000000
4.677390098571777 3.441167593002319 0.244394809007645 0.000000000000000
4.678213596343994 -0.518297851085663 0.352256655693054 0.000000000000000
4.682691574096680 -0.584256052970886 0.981553316116333 0.000000000000000
4.682835102081299 4.123974800109863 1.671971201896667 0.000000000000000
4.687183856964111 -3.091097593307495 0.832107186317444 0.000000000000000
4.688369274139404 5.657409667968750 0.351644754409790 0.000000000000000
4.702826023101807 3.872303485870361 0.034023974090815 0.000000000000000
4.703782081604004 4.368886947631836 0.060506176203489 0.000000000000000
4.704169273376465 -1.733034729957581 0.742973804473877 0.000000000000000
4.705638885498047 -4.319180965423584 1.091811299324036 0.000000000000000
4.706803321838379 -4.687292098999023 0.666536808013916 0.000000000000000
4.712274074554443 6.601004123687744 1.686968445777893 0.000000000000000
4.713953018188477 -10.265852928161621 1.503250837326050 0.000000000000000
4.715719699859619 3.751861333847046 0.149380713701248 0.000000000000000
4.715917110443115 5.145081043243408 0.632716894149780 0.000000000000000
4.721830844879150 -0.253906905651093 0.381289035081863 0.000000000000000
4.722435951232910 -3.425009489059448 0.554529368877411 0.000000000000000
4.723727226257324 -2.470344543457031 0.911190629005432 0.000000000000000
4.727657318115234 4.004806518554688 0.034604813903570 0.000000000000000
4.727903366088867 -4.276786804199219 0.606007874011993 0.000000000000000
4.728150367736816 3.384898185729980 0.446410506963730 0.000000000000000
4.728173732757568 -4.370372295379639 1.100572705268860 0.000000000000000
4.730576515197754 -0.939339458942413 0.295828342437744 0.000000000000000
4.740508079528809 -2.644062757492065 0.416711032390594 0.000000000000000
4.748737812042236 2.761834383010864 0.498011767864227 0.000000000000000
4.749638080596924 -1.373966336250305 0.274702191352844 0.000000000000000
4.751803874969482 0.311782836914062 0.633697509765625 0.000000000000000
4.753829479217529 2.532552719116211 0.133520781993866 1.000000000000000
4.754036903381348 -0.593916177749634 1.283742427825928 0.000000000000000
4.755307674407959 -3.884972333908081 0.697452485561371 0.000000000000000
4.760164260864258 3.433014869689941 1.572584509849548 0.000000000000000
4.760401725769043 -0.167734190821648 0.347291558980942 0.000000000000000
4.760485172271729 -2.813324689865112 1.150168657302856 0.000000000000000
4.760896682739258 6.159436702728271 0.740003347396851 1.000000000000000
4.763520240783691 -2.792729139328003 1.148539543151855 0.000000000000000
4.764573097229004 3.279746532440186 0.524374961853027 1.000000000000000
4.766158580780029 1.182948112487793 1.315836071968079 0.000000000000000
4.768372058868408 -3.234745740890503 0.547716021537781 0.000000000000000
4.771905899047852 5.557266712188721 0.322374254465103 0.000000000000000
4.774256706237793 4.025712013244629 0.371020704507828 0.000000000000000
4.774621963500977 -3.282979249954224 0.255015105009079 1.000000000000000
4.782872200012207 2.091773986816406 0.892319858074188 0.000000000000000
4.785442352294922 2.378430366516113 0.507971584796906 0.000000000000000
4.787376880645752 3.929461002349854 1.659547805786133 0.000000000000000
4.787529468536377 -3.199408292770386 0.501750290393829 0.000000000000000
4.788923263549805 3.705575704574585 0.548932492733002 0.000000000000000
4.789591312408447 1.194358706474304 0.560670554637909 0.000000000000000
4.793053627014160 -1.300357580184937 0.237680479884148 1.000000000000000
4.794771671295166 -10.346468925476074 1.517497181892395 0.000000000000000
4.797163486480713 1.213157176971436 0.562024772167206 0.000000000000000
4.802461624145508 4.278237819671631 0.060619272291660 0.000000000000000
4.804297924041748 0.141832709312439 0.304076910018921 0.000000000000000
4.805267810821533 -4.570240974426270 0.982813000679016 0.000000000000000
4.809148311614990 4.088418960571289 0.387172669172287 0.000000000000000
4.812562942504883 0.625128865242004 0.381938904523849 0.000000000000000
4.812723159790039 0.126110404729843 0.304582029581070 0.000000000000000
4.814163208007812 0.516355454921722 0.827619850635529 0.000000000000000
4.818181991577148 -0.641855716705322 0.552093446254730 0.000000000000000
4.820542335510254 4.453881263732910 0.571891129016876 0.000000000000000
4.820657253265381 -1.088504076004028 0.732418537139893 0.000000000000000
4.822216987609863 3.518483877182007 0.520153582096100 0.000000000000000
4.823090076446533 6.285124301910400 1.647869110107422 0.000000000000000
4.826060771942139 -2.718457698822021 0.526519000530243 0.000000000000000
4.826666355133057 4.483021736145020 0.467570394277573 1.000000000000000
4.827414512634277 2.699720859527588 0.481958031654358 0.000000000000000
4.831933975219727 5.830647945404053 0.595975339412689 0.000000000000000
4.832217693328857 -0.626566529273987 0.553447723388672 0.000000000000000
4.836167335510254 3.997845888137817 1.681288599967957 0.000000000000000
4.836480140686035 3.387673616409302 0.362193793058395 0.000000000000000
4.837059974670410 5.266536712646484 0.273455142974854 0.000000000000000
4.839879035949707 -0.928422391414642 0.524924576282501 0.000000000000000
4.840025424957275 -2.459628820419312 0.343475550413132 1.000000000000000
4.843812942504883 -4.285594463348389 0.648964881896973 0.000000000000000
4.844426631927490 1.220342993736267 1.338612198829651 0.000000000000000
4.844810009002686 7.773834705352783 1.905272483825684 0.000000000000000
4.845757007598877 4.349987983703613 0.048871554434299 0.000000000000000
4.846036434173584 -0.642639815807343 0.271595716476440 0.000000000000000
4.847451210021973 2.578305959701538 1.142023086547852 0.000000000000000
4.848669528961182 5.453710556030273 0.574320614337921 0.000000000000000
4.851413726806641 2.435658216476440 1.454563140869141 0.000000000000000
4.851546764373779 3.281285762786865 0.472271144390106 0.000000000000000
4.851678371429443 -0.660629451274872 0.272039502859116 0.000000000000000
4.852282047271729 3.823721408843994 0.474272876977921 0.000000000000000
4.854936599731445 3.787363529205322 0.176296085119247 0.000000000000000
4.855090141296387 -2.409243106842041 1.127360820770264 0.000000000000000
4.857398033142090 1.199925184249878 0.355138272047043 0.000000000000000
4.860434055328369 -3.057462692260742 0.545823395252228 0.000000000000000
4.862655162811279 -1.003821492195129 0.432651102542877 0.000000000000000
4.863208770751953 3.636690616607666 0.372479200363159 0.000000000000000
4.863454341888428 -2.204523086547852 0.465290904045105 0.000000000000000
4.864752292633057 -3.126833677291870 0.443961054086685 0.000000000000000
4.866350650787354 3.644604921340942 0.384642124176025 0.000000000000000
4.874133110046387 5.476189613342285 0.111327484250069 0.000000000000000
4.874155998229980 -0.164162203669548 0.383821934461594 1.000000000000000
4.877135753631592 5.587219238281250 1.267714142799377 0.000000000000000
4.877350330352783 2.470035314559937 1.464915871620178 0.000000000000000
4.882286548614502 3.762720346450806 0.010758204385638 0.000000000000000
4.882824420928955 -4.328777790069580 1.115399718284607 0.000000000000000
4.883629798889160 3.412193536758423 1.018349885940552 0.000000000000000
4.889029979705811 3.762208700180054 0.619012653827667 0.000000000000000
4.890097618103027 5.942933559417725 0.605704247951508 0.000000000000000
4.891658306121826 -4.645905971527100 0.999818682670593 0.000000000000000
4.894827365875244 -0.751462042331696 0.846490681171417 0.000000000000000
4.900610446929932 3.465845584869385 0.460800975561142 0.000000000000000
4.907151222229004 4.589785099029541 0.476916164159775 0.000000000000000
4.911538600921631 -1.975620508193970 0.437105357646942 0.000000000000000
4.912630558013916 0.201434060931206 0.178570806980133 1.000000000000000
4.919597148895264 -2.000442266464233 0.428226768970490 0.000000000000000
4.925924301147461 0.686858832836151 0.472769409418106 0.000000000000000
4.926992416381836 -2.938009500503540 0.520041286945343 1.000000000000000
4.928317070007324 -4.122320652008057 0.493256032466888 0.000000000000000
4.929255485534668 -6.700804233551025 2.228949785232544 0.000000000000000
4.934242725372314 4.761783599853516 0.730403542518616 0.000000000000000
4.937130928039551 2.666824340820312 0.311758160591125 0.000000000000000
4.937731742858887 1.036222338676453 0.328917115926743 0.000000000000000
4.937799930572510 2.199688196182251 0.923995792865753 0.000000000000000
4.938820838928223 7.620254993438721 0.242546126246452 0.000000000000000
4.939926624298096 3.496112585067749 0.312930941581726 0.000000000000000
4.943929672241211 3.301681756973267 0.421974509954453 1.000000000000000
4.944611549377441 -4.652889728546143 0.723201155662537 0.000000000000000
4.946264743804932 3.453898429870605 0.428204983472824 0.000000000000000
4.947875499725342 2.653918266296387 0.533710837364197 0.000000000000000
4.955413818359375 5.599504470825195 0.677859365940094 0.000000000000000
4.958363533020020 -2.226712942123413 0.473624497652054 0.000000000000000
4.959523677825928 5.600996017456055 0.531008183956146 0.000000000000000
4.960313796997070 2.950375795364380 0.487684071063995 0.000000000000000
4.963152408599854 4.857053279876709 0.225514188408852 0.000000000000000
4.965373039245605 5.890727996826172 1.316913127899170 0.000000000000000
4.969614982604980 8.443809509277344 0.771096050739288 0.000000000000000
4.974448680877686 -0.146682336926460 0.391667842864990 0.000000000000000
4.979177951812744 0.290760308504105 0.852556347846985 0.000000000000000
4.980943679809570 4.320415019989014 0.290189594030380 0.000000000000000
4.981111526489258 4.528334140777588 0.050522621721029 0.000000000000000
4.982412338256836 4.357016563415527 0.664140701293945 0.000000000000000
4.983710289001465 4.268238544464111 0.288782626390457 0.000000000000000
4.985391616821289 2.633616685867310 0.139765620231628 0.000000000000000
4.991055011749268 -0.149961993098259 0.383337438106537 0.000000000000000
4.997046470642090 5.567737579345703 0.678220570087433 0.000000000000000
5.000597000122070 4.342205524444580 0.664539992809296 1.000000000000000
5.001026630401611 -3.389896869659424 0.606233060359955 0.000000000000000
5.003288745880127 -12.794484138488770 2.857501268386841 0.000000000000000
5.003334522247314 5.544881820678711 2.001188993453979 1.000000000000000
5.010596275329590 4.151316642761230 0.524674296379089 0.000000000000000
5.012508392333984 5.481896877288818 0.241223573684692 0.000000000000000
5.016833305358887 -2.871074676513672 1.202301025390625 0.000000000000000
5.028744220733643 -3.236085891723633 1.243843913078308 0.000000000000000
5.029500961303711 8.395703315734863 0.852801859378815 0.000000000000000
5.030319690704346 -4.612993240356445 0.648780405521393 0.000000000000000
5.031503677368164 2.952675342559814 0.508347690105438 0.000000000000000
5.031618118286133 7.512742042541504 0.328396052122116 0.000000000000000
5.036473274230957 5.672516822814941 0.465292900800705 0.000000000000000
5.038150310516357 4.105941772460938 0.652159810066223 0.000000000000000
5.040761947631836 -12.364958763122559 3.577914476394653 0.000000000000000
5.041885852813721 -2.076159715652466 0.547127306461334 0.000000000000000
5.043547630310059 4.524681091308594 0.063861355185509 0.000000000000000
5.044773578643799 4.187660694122314 0.971671283245087 1.000000000000000
5.050343990325928 -3.850675582885742 0.255077689886093 1.000000000000000
5.050354003906250 1.102818369865417 1.075228571891785 0.000000000000000
5.051091194152832 -1.045203208923340 0.517574429512024 0.000000000000000
5.052525043487549 4.895897388458252 0.861354172229767 0.000000000000000
5.053901672363281 4.231418132781982 0.087437041103840 0.000000000000000
5.056042194366455 3.805299043655396 0.551404476165771 1.000000000000000
5.058628082275391 -0.705362617969513 0.293606162071228 0.000000000000000
5.059911727905273 8.318495750427246 2.608896255493164 0.000000000000000
5.060108184814453 3.570703506469727 0.189216643571854 0.000000000000000
5.064651489257812 -3.510986089706421 1.651265501976013 0.000000000000000
5.069295406341553 3.787625551223755 0.551404476165771 0.000000000000000
5.069376468658447 -2.719087362289429 0.983304083347321 0.000000000000000
5.069653034210205 3.621758460998535 0.564822673797607 0.000000000000000
5.071039199829102 7.764732837677002 0.840733408927917 0.000000000000000
5.072060585021973 0.636795341968536 0.205314263701439 0.000000000000000
5.072498798370361 5.777157783508301 1.139382839202881 0.000000000000000
5.073229312896729 -4.313688755035400 0.472668051719666 0.000000000000000
5.073726654052734 -2.744269132614136 0.985999882221222 0.000000000000000
5.074800968170166 -0.709062457084656 0.284687340259552 1.000000000000000
5.076322078704834 7.995306968688965 0.635683774948120 0.000000000000000
5.077844142913818 6.069158077239990 1.352632880210876 0.000000000000000
5.078345298767090 11.437831878662109 3.353259563446045 0.000000000000000
5.078977584838867 -2.457242488861084 0.964433312416077 1.000000000000000
5.083220005035400 -2.542269706726074 1.522891283035278 0.000000000000000
5.085046768188477 3.079370498657227 1.236512899398804 0.000000000000000
5.085992813110352 -1.432865262031555 0.460429668426514 0.000000000000000
5.086325168609619 -6.101764678955078 0.671239197254181 0.000000000000000
5.098717212677002 3.723776340484619 0.168639510869980 0.000000000000000
5.099345207214355 0.049130640923977 0.293147027492523 0.000000000000000
5.100909709930420 -3.483650445938110 0.619811356067657 0.000000000000000
5.101273536682129 -0.636482179164886 0.488667160272598 0.000000000000000
5.103136062622070 0.066984131932259 0.293376594781876 0.000000000000000
5.104487419128418 -1.503397226333618 0.533948302268982 0.000000000000000
5.105355262756348 -1.032294869422913 0.399871140718460 0.000000000000000
5.105564117431641 3.603985309600830 0.178929075598717 0.000000000000000
5.114745140075684 -4.566367626190186 1.172012209892273 0.000000000000000
5.115628719329834 4.787453174591064 1.197622537612915 0.000000000000000
5.116901874542236 4.312500476837158 0.050222430378199 0.000000000000000
5.118623256683350 -4.632826328277588 1.180099606513977 0.000000000000000
5.119883537292480 -2.499568223953247 0.697541296482086 0.000000000000000
5.121474266052246 3.452656030654907 0.538209617137909 0.000000000000000
5.124084949493408 4.201191902160645 1.378247380256653 0.000000000000000
5.124358654022217 -0.678092479705811 0.883558392524719 0.000000000000000
5.126430988311768 4.353380680084229 0.295993387699127 0.000000000000000
5.126869201660156 3.430329561233521 0.537515163421631 0.000000000000000
5.127889633178711 -8.496576309204102 1.696351170539856 0.000000000000000
5.129647254943848 0.077806152403355 0.514778912067413 1.000000000000000
5.132689476013184 3.083787918090820 1.245473027229309 0.000000000000000
5.132732391357422 -2.426341056823730 0.348235011100769 0.000000000000000
5.139713287353516 2.989223003387451 1.016327977180481 0.000000000000000
5.140584945678711 1.369343042373657 0.463554739952087 1.000000000000000
5.143984317779541 -5.812580585479736 1.614471912384033 0.000000000000000
5.147526264190674 4.195079803466797 0.509789764881134 0.000000000000000
5.153791904449463 5.287927627563477 0.643420934677124 0.000000000000000
5.163431167602539 7.515368461608887 0.914940655231476 0.000000000000000
5.166351318359375 6.190080642700195 0.385872274637222 1.000000000000000
5.168574810028076 -4.099793434143066 0.442808806896210 0.000000000000000
5.169716358184814 -0.521838247776031 0.288681387901306 0.000000000000000
5.170881748199463 8.081751823425293 0.643988072872162 0.000000000000000
5.172097682952881 5.588881015777588 0.511118710041046 0.000000000000000
5.173054695129395 -0.727393627166748 0.290234625339508 1.000000000000000
5.173133850097656 0.095626823604107 0.519171893596649 0.000000000000000
5.173151016235352 7.473490715026855 0.697784304618835 0.000000000000000
5.177341461181641 3.288053512573242 0.615418434143066 0.000000000000000
5.180516242980957 -13.385264396667480 2.985388278961182 0.000000000000000
5.180901050567627 4.800759315490723 0.542244851589203 0.000000000000000
5.182595729827881 3.316829204559326 0.617415189743042 0.000000000000000
5.182609558105469 -3.645237922668457 0.635785937309265 0.000000000000000
5.183125019073486 8.218569755554199 0.783474981784821 0.000000000000000
5.188567638397217 -1.130152344703674 0.481399327516556 0.000000000000000
5.189498424530029 3.680085659027100 0.576740264892578 0.000000000000000
5.190320968627930 -3.328418254852295 0.473354369401932 0.000000000000000
5.191547870635986 5.392177581787109 0.531291365623474 0.000000000000000
5.192917346954346 1.739440083503723 0.549523472785950 1.000000000000000
5.193683624267578 8.658113479614258 0.269673705101013 0.000000000000000
5.193956851959229 -3.926591634750366 0.693544387817383 0.000000000000000
5.200407505035400 5.083558559417725 0.334050387144089 0.000000000000000
5.201562404632568 5.003131866455078 1.069600820541382 0.000000000000000
5.203384876251221 2.929802656173706 0.541348576545715 0.000000000000000
5.204627513885498 0.597225964069366 0.776398837566376 0.000000000000000
5.205870151519775 -6.178228855133057 1.680451989173889 0.000000000000000
5.212201118469238 -6.142103672027588 1.675564527511597 0.000000000000000
5.212812900543213 4.951275348663330 1.065495967864990 0.000000000000000
5.218719959259033 3.197033882141113 0.493489593267441 0.000000000000000
5.224326610565186 -4.315492153167725 0.614298760890961 1.000000000000000
5.224610328674316 -4.160907268524170 0.989849865436554 0.000000000000000
5.227222442626953 5.545445442199707 0.690860450267792 0.000000000000000
5.229263305664062 -3.315007925033569 1.287830591201782 0.000000000000000
5.230562210083008 -3.653099298477173 0.640178859233856 0.000000000000000
5.230960845947266 -1.777606606483459 0.588474750518799 1.000000000000000
5.232171058654785 5.166471481323242 0.900241494178772 0.000000000000000
5.234222888946533 5.750723838806152 0.704944908618927 0.000000000000000
5.238897800445557 -4.204960346221924 0.638560414314270 0.000000000000000
5.242348670959473 5.920401573181152 0.439346015453339 0.000000000000000
5.248113632202148 -1.545698642730713 1.465951085090637 0.000000000000000
5.249836444854736 -3.997711181640625 0.702865064144135 0.000000000000000
5.250659465789795 -4.347119808197021 0.457542300224304 0.000000000000000
5.250739574432373 0.605583965778351 1.416257858276367 0.000000000000000
5.251834869384766 4.219415187835693 0.205829590559006 0.000000000000000
5.255315780639648 2.934931039810181 0.545682191848755 0.000000000000000
5.257883548736572 5.477322101593018 0.597544491291046 1.000000000000000
5.259895801544189 5.132558822631836 0.899755418300629 0.000000000000000
5.260382175445557 -4.373771667480469 0.650294482707977 0.000000000000000
5.260838985443115 5.875875949859619 0.134911566972733 0.000000000000000
5.261829376220703 3.676441907882690 0.468000143766403 0.000000000000000
5.262897014617920 0.287425428628922 0.374112963676453 0.000000000000000
5.267327308654785 3.201576471328735 0.497025996446609 0.000000000000000
5.268598556518555 5.558940887451172 0.667379975318909 0.000000000000000
5.279659271240234 3.659358263015747 0.455959022045135 0.000000000000000
5.283506870269775 1.054408311843872 0.299332201480865 1.000000000000000
5.286173820495605 5.473802566528320 0.584191560745239 0.000000000000000
5.286387920379639 3.006627321243286 0.279354214668274 0.000000000000000
5.288615226745605 -4.405994892120361 0.342679709196091 1.000000000000000
5.295380592346191 -2.746975421905518 1.019697785377502 0.000000000000000
5.295431137084961 -4.554950714111328 0.700882077217102 0.000000000000000
5.296522140502930 4.190154552459717 0.641967117786407 0.000000000000000
5.300142288208008 7.714351177215576 0.285962671041489 0.000000000000000
5.307845592498779 6.964519500732422 1.821371912956238 0.000000000000000
5.308425426483154 -0.385262370109558 0.244480818510056 0.000000000000000
5.312559127807617 -0.813030600547791 1.440069198608398 0.000000000000000
5.314075946807861 0.058341514319181 0.244113743305206 0.000000000000000
5.315907001495361 -1.333093881607056 0.936801016330719 0.000000000000000
5.317384719848633 -5.044421672821045 1.963918924331665 0.000000000000000
5.317775249481201 -1.940558791160583 0.513179659843445 0.000000000000000
5.317883014678955 4.303112983703613 0.209005609154701 0.000000000000000
5.323855876922607 -2.691372632980347 1.019697785377502 0.000000000000000
5.325462341308594 -5.959971904754639 0.907816767692566 0.000000000000000
5.328377723693848 6.187378883361816 0.202412337064743 0.000000000000000
5.328471183776855 4.757348537445068 0.108472935855389 0.000000000000000
5.328822612762451 5.134496688842773 0.644809901714325 0.000000000000000
5.329477310180664 6.001046180725098 0.647162556648254 0.000000000000000
5.332990169525146 8.339613914489746 0.645343661308289 0.000000000000000
5.334157466888428 -5.094048500061035 1.976342201232910 0.000000000000000
5.334723949432373 -2.135033369064331 0.546201944351196 1.000000000000000
5.337235927581787 -0.031579017639160 0.337666779756546 0.000000000000000
5.339423656463623 4.555145263671875 0.147015795111656 0.000000000000000
5.339700222015381 -13.223527908325195 3.821204662322998 0.000000000000000
5.340590000152588 -0.232054561376572 0.607167363166809 0.000000000000000
5.341961860656738 8.349140167236328 0.055358767509460 1.000000000000000
5.343219280242920 -2.162924289703369 0.985325932502747 0.000000000000000
5.353281021118164 -0.213886976242065 0.608521640300751 0.000000000000000
5.354421138763428 -0.351041108369827 0.329133510589600 0.000000000000000
5.356265544891357 -1.900015115737915 0.436306565999985 0.000000000000000
5.357645988464355 -0.827301084995270 0.615744471549988 0.000000000000000
5.357987403869629 -4.308856010437012 0.474761694669724 0.000000000000000
5.358263969421387 -1.296201348304749 0.587203741073608 0.000000000000000
5.360463619232178 -5.003613471984863 0.832880079746246 0.000000000000000
5.361526966094971 8.670217514038086 0.969006955623627 0.000000000000000
5.361736297607422 3.420543909072876 0.554182291030884 0.000000000000000
5.364308357238770 -2.641660451889038 0.542070806026459 0.000000000000000
5.365132331848145 0.124749913811684 0.432727664709091 0.000000000000000
5.365200042724609 4.413618087768555 0.789091825485229 0.000000000000000
5.366865634918213 5.937960147857666 1.368133902549744 0.000000000000000
5.368157863616943 -3.290771245956421 0.495547711849213 0.000000000000000
5.369027614593506 3.843704223632812 1.769287109375000 0.000000000000000
5.370815753936768 -0.763615131378174 0.405990689992905 0.000000000000000
5.371641635894775 -1.586870431900024 0.408373028039932 0.000000000000000
5.373239040374756 4.627916812896729 0.421312540769577 0.000000000000000
5.374885559082031 -4.408386230468750 0.630188941955566 1.000000000000000
5.377401828765869 3.821377277374268 0.201554208993912 0.000000000000000
5.377686023712158 4.366901397705078 0.251596093177795 0.000000000000000
5.382352828979492 3.596649408340454 0.586852192878723 0.000000000000000
5.385384559631348 12.480139732360840 3.642101764678955 0.000000000000000
5.385768413543701 -6.987505912780762 1.174002528190613 0.000000000000000
5.385904788970947 3.389849662780762 0.554529547691345 0.000000000000000
5.385971546173096 -1.283019900321960 0.589745759963989 0.000000000000000
5.390609264373779 -2.358237028121948 0.533403515815735 0.000000000000000
5.391569614410400 -0.465254008769989 0.514406442642212 0.000000000000000
5.393509864807129 2.994474172592163 0.619012653827667 0.000000000000000
5.400209903717041 4.302909851074219 0.656350791454315 0.000000000000000
5.402992248535156 6.156378746032715 2.194785594940186 0.000000000000000
5.406136989593506 5.939601898193359 1.372851610183716 0.000000000000000
5.408155441284180 3.586645126342773 0.588296711444855 0.000000000000000
5.413270950317383 12.307843208312988 3.602761268615723 0.000000000000000
5.415174484252930 0.660679638385773 0.475360661745071 0.000000000000000
5.418348789215088 -3.461714982986450 0.952906429767609 0.000000000000000
5.419421195983887 2.342726230621338 0.214430153369904 0.000000000000000
5.426506042480469 4.982764720916748 0.111874103546143 0.000000000000000
5.426582813262939 3.461642742156982 0.444451898336411 0.000000000000000
5.432366847991943 3.895075559616089 0.217075243592262 0.000000000000000
5.438116550445557 1.714422702789307 1.186009645462036 0.000000000000000
5.442004203796387 3.444814682006836 0.444727450609207 0.000000000000000
5.449010372161865 3.050218820571899 0.626600563526154 0.000000000000000
5.449550151824951 9.022432327270508 1.001937985420227 0.000000000000000
5.449850082397461 -4.164313793182373 0.486828297376633 0.000000000000000
5.452256202697754 -2.661363363265991 0.550015926361084 0.000000000000000
5.452289581298828 -1.612350940704346 0.403566211462021 0.000000000000000
5.458559989929199 3.516185283660889 1.350552201271057 0.000000000000000
5.460683822631836 -1.222709059715271 0.561504364013672 0.000000000000000
5.461683273315430 0.609343230724335 0.220724880695343 0.000000000000000
5.461782932281494 6.010636806488037 2.176150560379028 0.000000000000000
5.465102672576904 -1.361488819122314 0.599913775920868 0.000000000000000
5.465718269348145 4.871833801269531 1.251539230346680 0.000000000000000
5.473086833953857 -4.646772861480713 0.682468533515930 0.000000000000000
5.475900650024414 -4.442372798919678 0.541326344013214 0.000000000000000
5.482914924621582 9.077672004699707 2.205847740173340 0.000000000000000
5.483833312988281 6.243875026702881 1.728511452674866 0.000000000000000
5.495007991790771 -6.704272270202637 0.869812667369843 0.000000000000000
5.497624397277832 -7.262310028076172 1.349901795387268 0.000000000000000
5.500559329986572 2.971163988113403 0.926518201828003 0.000000000000000
5.501419067382812 -5.296352863311768 1.588405728340149 0.000000000000000
5.502029895782471 4.705496788024902 0.541818439960480 0.000000000000000
