# This PCD file was generated using the MATLAB® pcwrite function
# from Computer Vision Toolbox®.
# .PCD v.7 - Point Cloud Data file format
VERSION .7
FIELDS x y z intensity
SIZE 8 8 8 8
TYPE F F F F
COUNT 1 1 1 1
WIDTH 644
HEIGHT 1
VIEWPOINT 0 0 0 1 0 0 0
POINTS 644
DATA ascii
20.949384689331055 -5.577332496643066 1.965322732925415 0.000000000000000
20.956621170043945 2.026753187179565 2.801776885986328 0.000000000000000
20.956916809082031 3.596539497375488 0.608793854713440 0.000000000000000
20.962993621826172 16.371601104736328 2.668942928314209 0.000000000000000
20.964521408081055 -6.672091007232666 1.917068123817444 0.000000000000000
20.968265533447266 0.549805760383606 1.367452025413513 0.000000000000000
20.970840454101562 -5.672505378723145 2.890948057174683 0.000000000000000
20.979337692260742 23.720348358154297 2.431069612503052 0.000000000000000
20.980152130126953 22.592342376708984 1.416226863861084 0.000000000000000
20.981323242187500 -16.808609008789062 2.863571405410767 0.000000000000000
20.981735229492188 2.103881835937500 1.496735095977783 0.000000000000000
20.991165161132812 -12.950239181518555 1.655510187149048 0.000000000000000
20.992048263549805 -2.422922134399414 1.174030184745789 0.000000000000000
20.995302200317383 -23.185472488403320 3.552719116210938 0.000000000000000
20.997705459594727 -23.188127517700195 2.522423028945923 0.000000000000000
21.003070831298828 19.442934036254883 0.929450809955597 0.000000000000000
21.003366470336914 1.459866166114807 3.120255231857300 0.000000000000000
21.009048461914062 -3.073127746582031 1.589035749435425 0.000000000000000
21.009119033813477 -2.787542104721069 0.891965389251709 0.000000000000000
21.009756088256836 14.130743980407715 1.748324394226074 0.000000000000000
21.012062072753906 2.998697757720947 1.220106840133667 0.000000000000000
21.012100219726562 -2.629113674163818 1.748421430587769 0.000000000000000
21.014020919799805 2.379007577896118 1.297187685966492 0.000000000000000
21.021688461303711 -2.532364130020142 1.339554786682129 0.000000000000000
21.026243209838867 14.141833305358887 1.359036445617676 0.000000000000000
21.032091140747070 17.495948791503906 1.098808526992798 0.000000000000000
21.033294677734375 2.311691999435425 2.403389692306519 0.000000000000000
21.035531997680664 24.103284835815430 1.900650739669800 0.000000000000000
21.035919189453125 14.305660247802734 1.119604229927063 0.000000000000000
21.043306350708008 -2.727072954177856 1.178911805152893 0.000000000000000
21.044733047485352 17.764684677124023 1.689258098602295 0.000000000000000
21.059495925903320 -6.769979476928711 2.219659566879272 0.000000000000000
21.061880111694336 0.057348273694515 3.121428251266479 0.000000000000000
21.063020706176758 12.334875106811523 2.062553167343140 0.000000000000000
21.071140289306641 15.053215026855469 -0.103952936828136 0.000000000000000
21.075954437255859 13.691601753234863 1.541588783264160 0.000000000000000
21.076368331909180 -0.029787981882691 1.292779564857483 0.000000000000000
21.079881668090820 -3.621428728103638 1.229518890380859 0.000000000000000
21.080413818359375 17.649738311767578 0.364710092544556 0.000000000000000
21.081970214843750 -12.152555465698242 2.441705465316772 0.000000000000000
21.084354400634766 -0.092734038829803 1.415220260620117 0.000000000000000
21.103935241699219 -2.500803470611572 1.549432396888733 0.000000000000000
21.117053985595703 16.410785675048828 3.037642478942871 0.000000000000000
21.121416091918945 23.398504257202148 1.387282133102417 0.000000000000000
21.121812820434570 21.123292922973633 0.109486356377602 0.000000000000000
21.123577117919922 13.933191299438477 2.539149999618530 0.000000000000000
21.127738952636719 -3.685100555419922 0.861388802528381 0.000000000000000
21.133785247802734 -5.265718460083008 1.672049283981323 0.000000000000000
21.133893966674805 -7.820180416107178 1.555994987487793 0.000000000000000
21.138265609741211 -2.091623306274414 1.630714893341064 0.000000000000000
21.140005111694336 -15.213582992553711 2.613431453704834 0.000000000000000
21.149955749511719 14.638374328613281 1.330008149147034 0.000000000000000
21.156906127929688 -8.390283584594727 1.352185487747192 0.000000000000000
21.160301208496094 -19.834733963012695 2.114581108093262 0.000000000000000
21.168905258178711 1.104969739913940 2.595242500305176 0.000000000000000
21.174133300781250 -2.686554908752441 1.309187293052673 0.000000000000000
21.174161911010742 1.397480964660645 3.144884347915649 0.000000000000000
21.179944992065430 15.069062232971191 -0.353887379169464 0.000000000000000
21.181945800781250 19.120557785034180 1.860307216644287 0.000000000000000
21.199529647827148 16.603450775146484 0.150393545627594 0.000000000000000
21.210935592651367 15.734271049499512 0.350331753492355 0.000000000000000
21.221668243408203 -7.763507843017578 1.255464553833008 0.000000000000000
21.222249984741211 -17.718137741088867 2.229222774505615 0.000000000000000
21.225095748901367 -4.205761909484863 1.744734764099121 0.000000000000000
21.227184295654297 -6.476839542388916 2.520760059356689 0.000000000000000
21.232097625732422 -5.404891014099121 2.082607984542847 0.000000000000000
21.233060836791992 -9.156703948974609 2.626393795013428 0.000000000000000
21.236539840698242 -2.752114534378052 1.519957780838013 0.000000000000000
21.238540649414062 -0.744635105133057 1.549432396888733 0.000000000000000
21.241218566894531 20.073482513427734 1.848959326744080 0.000000000000000
21.241397857666016 0.002965964609757 2.600589752197266 0.000000000000000
21.244474411010742 12.811454772949219 2.817798137664795 0.000000000000000
21.245626449584961 14.188367843627930 1.813357591629028 0.000000000000000
21.249019622802734 2.350425958633423 1.393734216690063 0.000000000000000
21.249843597412109 3.006138563156128 1.068412899971008 0.000000000000000
21.250782012939453 0.667090356349945 2.603019952774048 0.000000000000000
21.252437591552734 -0.458534359931946 1.467821002006531 0.000000000000000
21.259021759033203 14.902877807617188 0.843114078044891 0.000000000000000
21.260208129882812 -5.426272869110107 1.599751949310303 0.000000000000000
21.263191223144531 24.687597274780273 1.872973084449768 0.000000000000000
21.268230438232422 23.528108596801758 1.884282231330872 0.000000000000000
21.275148391723633 -17.009273529052734 1.828294038772583 0.000000000000000
21.275224685668945 2.881067276000977 1.068810582160950 0.000000000000000
21.277025222778320 -15.497278213500977 2.122487306594849 0.000000000000000
21.278100967407227 24.880033493041992 1.881925821304321 0.000000000000000
21.279380798339844 -3.710401773452759 1.658271193504333 0.000000000000000
21.279907226562500 -19.370691299438477 -0.005022359546274 1.000000000000000
21.284576416015625 23.488466262817383 1.639014601707458 0.000000000000000
21.288599014282227 18.485687255859375 2.829087495803833 0.000000000000000
21.292407989501953 23.988981246948242 0.179145246744156 0.000000000000000
21.293619155883789 11.875256538391113 1.636490583419800 0.000000000000000
21.297523498535156 -6.764564037322998 1.370654940605164 0.000000000000000
21.300460815429688 14.463827133178711 1.133146405220032 0.000000000000000
21.301311492919922 14.682727813720703 2.459233522415161 0.000000000000000
21.301332473754883 19.781951904296875 0.329804331064224 0.000000000000000
21.304948806762695 17.804868698120117 -1.018108725547791 0.000000000000000
21.306627273559570 -0.189287200570107 2.269589185714722 0.000000000000000
21.310710906982422 -3.534844398498535 1.741841435432434 0.000000000000000
21.311960220336914 -13.045662879943848 1.677208662033081 0.000000000000000
21.332979202270508 14.303300857543945 0.439351975917816 0.000000000000000
21.342937469482422 3.665854215621948 3.209388494491577 0.000000000000000
21.343086242675781 -9.292643547058105 2.643999338150024 0.000000000000000
21.345466613769531 -5.773039340972900 1.569518566131592 0.000000000000000
21.345640182495117 13.721558570861816 1.360964417457581 0.000000000000000
21.355880737304688 -0.152071535587311 1.936070322990417 0.000000000000000
21.360361099243164 14.196634292602539 1.573179721832275 0.000000000000000
21.360984802246094 -2.617500782012939 1.486006855964661 0.000000000000000
21.369674682617188 -11.525155067443848 1.536042928695679 0.000000000000000
21.370208740234375 -17.539945602416992 2.015687227249146 0.000000000000000
21.376352310180664 -3.678507089614868 1.205095052719116 0.000000000000000
21.380270004272461 -15.728938102722168 2.663351774215698 0.000000000000000
21.381561279296875 -7.534249782562256 2.274771690368652 0.000000000000000
21.385366439819336 15.651159286499023 -0.411681503057480 0.000000000000000
21.392942428588867 -12.454988479614258 2.244122743606567 0.000000000000000
21.412519454956055 13.357176780700684 1.402135014533997 0.000000000000000
21.416671752929688 -2.917726993560791 3.694635391235352 0.000000000000000
21.418062210083008 8.613917350769043 0.350563138723373 0.000000000000000
21.434185028076172 -6.196386337280273 1.583678841590881 0.000000000000000
21.436986923217773 0.506688058376312 2.853485584259033 0.000000000000000
21.439447402954102 -16.867546081542969 1.936268210411072 0.000000000000000
21.440393447875977 16.304841995239258 0.098725378513336 0.000000000000000
21.441703796386719 14.109222412109375 1.821853637695312 0.000000000000000
21.447574615478516 17.237512588500977 -0.004802448209375 0.000000000000000
21.456542968750000 13.898942947387695 2.160224914550781 0.000000000000000
21.463981628417969 -0.265617132186890 1.689381480216980 0.000000000000000
21.467069625854492 20.458543777465820 1.020011067390442 0.000000000000000
21.473022460937500 -24.308427810668945 2.302168369293213 0.000000000000000
21.474027633666992 10.427697181701660 0.041664481163025 0.000000000000000
21.474769592285156 -1.946043729782104 1.572119712829590 0.000000000000000
21.487852096557617 -0.828490197658539 1.949432611465454 0.000000000000000
21.500619888305664 -7.928586959838867 1.715012192726135 0.000000000000000
21.501464843750000 -0.179383903741837 1.733804106712341 0.000000000000000
21.502151489257812 17.379806518554688 -0.482593923807144 0.000000000000000
21.504182815551758 -0.678795695304871 1.568629384040833 0.000000000000000
21.514503479003906 18.885000228881836 0.709632694721222 0.000000000000000
21.518213272094727 16.487051010131836 2.081105709075928 0.000000000000000
21.519346237182617 17.736665725708008 0.262834310531616 0.000000000000000
21.536878585815430 -2.153842210769653 1.661639094352722 0.000000000000000
21.540557861328125 -0.993974208831787 1.447365999221802 0.000000000000000
21.541109085083008 19.801815032958984 0.500513732433319 0.000000000000000
21.555269241333008 17.804210662841797 1.122887611389160 0.000000000000000
21.559396743774414 -19.531045913696289 0.274181574583054 1.000000000000000
21.560621261596680 14.742987632751465 0.196026563644409 0.000000000000000
21.562511444091797 22.562311172485352 1.854154586791992 0.000000000000000
21.565467834472656 9.423508644104004 -0.908217310905457 0.000000000000000
21.568649291992188 18.170211791992188 0.319957405328751 0.000000000000000
21.573421478271484 16.416093826293945 1.662809967994690 0.000000000000000
21.581539154052734 5.343288421630859 3.295003890991211 0.000000000000000
21.584720611572266 21.586235046386719 0.580808460712433 0.000000000000000
21.585397720336914 0.407302826642990 1.699110269546509 0.000000000000000
21.591497421264648 15.784070968627930 0.354788511991501 0.000000000000000
21.592971801757812 0.105900868773460 1.699424266815186 0.000000000000000
21.601856231689453 18.828571319580078 1.592074513435364 1.000000000000000
21.601938247680664 14.549864768981934 1.497184753417969 0.000000000000000
21.604633331298828 -16.376234054565430 2.576952695846558 0.000000000000000
21.605072021484375 24.023508071899414 1.732857227325439 0.000000000000000
21.605276107788086 25.061769485473633 1.838374614715576 0.000000000000000
21.607583999633789 16.703859329223633 1.938533782958984 0.000000000000000
21.608240127563477 14.177233695983887 1.984046697616577 0.000000000000000
21.615608215332031 -2.572148323059082 2.896752119064331 0.000000000000000
21.618795394897461 14.812670707702637 1.153371691703796 0.000000000000000
21.626533508300781 -8.060885429382324 2.193892240524292 0.000000000000000
21.627649307250977 13.902841567993164 1.775327682495117 0.000000000000000
21.629550933837891 -3.334516525268555 1.906998276710510 0.000000000000000
21.636497497558594 -3.174937963485718 0.584097206592560 0.000000000000000
21.637594223022461 23.795261383056641 1.477347016334534 0.000000000000000
21.641088485717773 8.070618629455566 3.948043346405029 0.000000000000000
21.656375885009766 -18.510025024414062 2.858640432357788 0.000000000000000
21.659513473510742 14.929631233215332 1.968756318092346 0.000000000000000
21.666278839111328 -8.621185302734375 1.520200729370117 0.000000000000000
21.667152404785156 20.147045135498047 2.812391281127930 0.000000000000000
21.669853210449219 23.556732177734375 1.963291049003601 0.000000000000000
21.673257827758789 -2.585146427154541 1.465046167373657 0.000000000000000
21.676748275756836 19.431692123413086 3.873944520950317 0.000000000000000
21.676870346069336 13.649591445922852 1.917111992835999 0.000000000000000
21.680614471435547 -12.225373268127441 1.814700365066528 0.000000000000000
21.681020736694336 9.832206726074219 -0.918706178665161 0.000000000000000
21.684894561767578 3.094719648361206 0.921905040740967 0.000000000000000
21.684909820556641 1.495059967041016 2.892531156539917 0.000000000000000
21.685028076171875 -0.523147284984589 1.623365759849548 0.000000000000000
21.685068130493164 -6.862667083740234 1.746144771575928 0.000000000000000
21.685386657714844 23.464054107666016 1.283254265785217 0.000000000000000
21.686180114746094 -18.435506820678711 2.580343961715698 0.000000000000000
21.693767547607422 -18.281440734863281 2.846659421920776 0.000000000000000
21.695770263671875 17.699684143066406 -0.488737195730209 0.000000000000000
21.696790695190430 -14.858327865600586 3.897240638732910 0.000000000000000
21.705207824707031 0.121983721852303 1.750200152397156 0.000000000000000
21.705987930297852 17.093818664550781 1.747937083244324 0.000000000000000
21.709373474121094 1.962732076644897 3.230499267578125 0.000000000000000
21.710590362548828 22.058954238891602 2.696951150894165 0.000000000000000
21.710882186889648 22.097785949707031 2.699381828308105 0.000000000000000
21.714227676391602 -1.690262794494629 1.672049283981323 0.000000000000000
21.715925216674805 -3.825977087020874 1.480047464370728 0.000000000000000
21.724668502807617 4.235444068908691 2.513988733291626 0.000000000000000
21.728136062622070 -7.728068351745605 2.456426620483398 0.000000000000000
21.733053207397461 -16.873685836791992 1.899873495101929 0.000000000000000
21.748661041259766 2.103352785110474 1.846328735351562 0.000000000000000
21.749479293823242 15.303946495056152 -0.310998737812042 0.000000000000000
21.754816055297852 -7.304823398590088 1.761759996414185 0.000000000000000
21.757738113403320 -1.881363749504089 1.634411096572876 0.000000000000000
21.758928298950195 -3.790497064590454 0.972047269344330 0.000000000000000
21.761051177978516 -6.534423828125000 1.262343049049377 0.000000000000000
21.764013290405273 -7.826516628265381 1.820251107215881 0.000000000000000
21.766935348510742 -19.953409194946289 0.448407411575317 1.000000000000000
21.767536163330078 22.928577423095703 2.366090059280396 0.000000000000000
21.770509719848633 20.863311767578125 1.443101048469543 0.000000000000000
21.773588180541992 15.902033805847168 0.305890351533890 0.000000000000000
21.774700164794922 -0.095770344138145 1.125931739807129 0.000000000000000
21.776185989379883 22.279094696044922 2.151169061660767 0.000000000000000
21.780494689941406 0.535351991653442 1.630530357360840 0.000000000000000
21.784626007080078 15.880979537963867 1.757520675659180 0.000000000000000
21.786634445190430 14.112767219543457 1.792411327362061 0.000000000000000
21.796018600463867 15.853760719299316 0.047040089964867 0.000000000000000
21.804880142211914 -5.730165958404541 1.252579927444458 0.000000000000000
21.813922882080078 17.777694702148438 -0.437155306339264 0.000000000000000
21.816940307617188 0.347298324108124 2.478326320648193 0.000000000000000
21.819641113281250 17.889730453491211 -0.059095405042171 0.000000000000000
21.823940277099609 15.254063606262207 0.711190938949585 0.000000000000000
21.824243545532227 -1.133065819740295 1.804376244544983 0.000000000000000
21.824596405029297 18.802633285522461 0.714093327522278 0.000000000000000
21.842187881469727 -1.610889077186584 1.427822947502136 0.000000000000000
21.849172592163086 14.486884117126465 1.456498503684998 0.000000000000000
21.850389480590820 -6.239092826843262 3.023913860321045 0.000000000000000
21.853240966796875 20.535202026367188 1.839376211166382 0.000000000000000
21.853679656982422 -8.755009651184082 1.761880278587341 0.000000000000000
21.854364395141602 14.432744026184082 1.253415584564209 0.000000000000000
21.855735778808594 16.262310028076172 1.775996208190918 0.000000000000000
21.856264114379883 -24.627689361572266 0.183903694152832 1.000000000000000
21.856483459472656 18.024789810180664 0.321409463882446 0.000000000000000
21.856685638427734 2.268688440322876 1.220849394798279 0.000000000000000
21.859077453613281 16.638900756835938 1.420479297637939 0.000000000000000
21.861268997192383 23.377017974853516 1.470188736915588 0.000000000000000
21.869304656982422 -8.005626678466797 1.608072757720947 0.000000000000000
21.870479583740234 15.173235893249512 0.710977375507355 0.000000000000000
21.873497009277344 -0.347053080797195 2.330173730850220 0.000000000000000
21.873947143554688 -2.802505493164062 1.012980222702026 0.000000000000000
21.874109268188477 -1.438305974006653 1.302368044853210 0.000000000000000
21.874267578125000 23.893325805664062 0.803008079528809 0.000000000000000
21.884929656982422 0.078686662018299 1.906998276710510 0.000000000000000
21.900659561157227 -2.915947437286377 1.227506041526794 0.000000000000000
21.907361984252930 -4.049216270446777 0.980489075183868 0.000000000000000
21.909330368041992 16.103431701660156 0.256274759769440 0.000000000000000
21.912639617919922 16.817819595336914 1.960623741149902 0.000000000000000
21.927186965942383 0.184083774685860 2.335681438446045 0.000000000000000
21.932241439819336 -6.511617660522461 1.933222770690918 0.000000000000000
21.933973312377930 -2.568499803543091 1.397137284278870 0.000000000000000
21.946710586547852 0.486935526132584 1.388803005218506 0.000000000000000
21.952482223510742 -6.163123607635498 2.167396068572998 0.000000000000000
21.957784652709961 -5.530083656311035 1.214435219764709 0.000000000000000
21.977792739868164 17.911243438720703 -0.004948357585818 0.000000000000000
21.978872299194336 -2.328690528869629 2.510377407073975 0.000000000000000
21.987611770629883 14.885621070861816 1.372971653938293 0.000000000000000
21.988342285156250 -4.306369304656982 1.720119476318359 0.000000000000000
21.996908187866211 0.322128236293793 1.688889145851135 0.000000000000000
22.000394821166992 1.058294296264648 2.931048870086670 0.000000000000000
22.000408172607422 -22.425325393676758 2.847948312759399 0.000000000000000
22.003120422363281 -16.819004058837891 2.413262605667114 0.000000000000000
22.004941940307617 0.123668231070042 1.434588670730591 0.000000000000000
22.007280349731445 23.698398590087891 0.988104224205017 0.000000000000000
22.009424209594727 -6.201494216918945 3.042908906936646 0.000000000000000
22.011772155761719 -4.919407367706299 1.818677783012390 0.000000000000000
22.016565322875977 1.132262587547302 2.933687210083008 0.000000000000000
22.020860671997070 -0.260592341423035 2.501348972320557 0.000000000000000
22.020879745483398 -1.871595382690430 1.782027840614319 0.000000000000000
22.022506713867188 -22.763589859008789 -1.100507020950317 1.000000000000000
22.024433135986328 -1.707061648368835 1.142249584197998 0.000000000000000
22.028495788574219 -3.135511636734009 1.708178520202637 0.000000000000000
22.029119491577148 15.328329086303711 1.284392476081848 0.000000000000000
22.032466888427734 19.025287628173828 2.291005849838257 0.000000000000000
22.033309936523438 -11.586884498596191 1.574936389923096 0.000000000000000
22.033821105957031 -25.579627990722656 3.596093654632568 0.000000000000000
22.033950805664062 -2.084367990493774 1.570934653282166 0.000000000000000
22.044357299804688 16.188444137573242 1.783022165298462 0.000000000000000
22.045125961303711 15.653927803039551 0.358661621809006 0.000000000000000
22.050521850585938 24.691644668579102 1.775487661361694 0.000000000000000
22.054679870605469 18.317949295043945 0.765766501426697 0.000000000000000
22.055784225463867 -4.262446880340576 2.036467313766479 0.000000000000000
22.059389114379883 -16.600013732910156 2.624267578125000 0.000000000000000
22.060798645019531 14.551386833190918 0.807438313961029 0.000000000000000
22.069404602050781 14.797059059143066 1.681009769439697 0.000000000000000
22.070251464843750 14.956175804138184 1.840907096862793 0.000000000000000
22.072837829589844 1.074908018112183 2.705585479736328 0.000000000000000
22.073562622070312 -8.126300811767578 2.360235452651978 0.000000000000000
22.074857711791992 14.912681579589844 0.046495549380779 0.000000000000000
22.082870483398438 -11.504434585571289 2.828181028366089 0.000000000000000
22.083909988403320 16.552160263061523 2.225364685058594 0.000000000000000
22.087175369262695 -17.502315521240234 2.000272274017334 0.000000000000000
22.105741500854492 14.867882728576660 1.018769502639771 0.000000000000000
22.106155395507812 22.027599334716797 2.966448068618774 0.000000000000000
22.107273101806641 -2.708948612213135 1.882029414176941 0.000000000000000
22.109598159790039 10.193613052368164 -0.284711867570877 0.000000000000000
22.109621047973633 -17.550273895263672 1.894728779792786 0.000000000000000
22.110132217407227 8.760269165039062 3.164793968200684 0.000000000000000
22.118885040283203 -2.590152978897095 2.372116804122925 0.000000000000000
22.121984481811523 -18.062833786010742 0.159508302807808 1.000000000000000
22.133348464965820 14.573202133178711 1.523354530334473 0.000000000000000
22.134178161621094 -15.472048759460449 2.353191614151001 0.000000000000000
22.135276794433594 24.810943603515625 0.377223938703537 0.000000000000000
22.137336730957031 17.559064865112305 1.352273941040039 0.000000000000000
22.140949249267578 -24.172763824462891 3.115962982177734 0.000000000000000
22.141613006591797 -0.611508846282959 1.657695889472961 0.000000000000000
22.145397186279297 16.076604843139648 0.363012284040451 0.000000000000000
22.148210525512695 -2.482754707336426 1.538911223411560 0.000000000000000
22.149625778198242 -18.812179565429688 -0.953876137733459 1.000000000000000
22.155113220214844 12.843905448913574 2.064940452575684 0.000000000000000
22.165721893310547 24.498607635498047 0.374818891286850 0.000000000000000
22.169755935668945 -4.364804744720459 2.048384904861450 0.000000000000000
22.175195693969727 16.863639831542969 0.530055284500122 0.000000000000000
22.190977096557617 17.936573028564453 0.378504753112793 0.000000000000000
22.193180084228516 -6.393984317779541 2.195406198501587 0.000000000000000
22.194688796997070 18.016567230224609 2.360303163528442 0.000000000000000
22.202108383178711 16.588750839233398 2.414998769760132 0.000000000000000
22.202247619628906 5.858211040496826 2.445834875106812 0.000000000000000
22.208435058593750 17.950683593750000 -0.059807501733303 0.000000000000000
22.212465286254883 -1.934745311737061 2.021299362182617 0.000000000000000
22.214000701904297 -17.507080078125000 0.157966837286949 1.000000000000000
22.218414306640625 -0.058933392167091 0.977851033210754 0.000000000000000
22.219848632812500 -1.510511517524719 1.752776265144348 0.000000000000000
22.221975326538086 24.707756042480469 1.654329657554626 0.000000000000000
22.223461151123047 -2.024056673049927 1.944499373435974 0.000000000000000
22.225927352905273 19.784507751464844 -0.690846145153046 0.000000000000000
22.228427886962891 -10.341208457946777 1.929466247558594 0.000000000000000
22.229188919067383 1.238140583038330 2.116295814514160 0.000000000000000
22.242227554321289 -13.500102043151855 3.462383985519409 0.000000000000000
22.244531631469727 15.727865219116211 0.518337130546570 0.000000000000000
22.244970321655273 -17.956480026245117 -0.004989547189325 1.000000000000000
22.261623382568359 11.956085205078125 2.535555839538574 0.000000000000000
22.271846771240234 -11.613264083862305 1.589079618453979 0.000000000000000
22.276128768920898 -11.084146499633789 1.766062378883362 0.000000000000000
22.281496047973633 1.088967323303223 1.841898679733276 0.000000000000000
22.290706634521484 23.375673294067383 2.542074918746948 0.000000000000000
22.293968200683594 -19.319135665893555 -0.005148721393198 1.000000000000000
22.300548553466797 -3.422024250030518 3.343675136566162 0.000000000000000
22.306217193603516 -4.807291507720947 1.884029507637024 0.000000000000000
22.307172775268555 21.603576660156250 2.264085292816162 0.000000000000000
22.307899475097656 3.411191940307617 -0.870889067649841 1.000000000000000
22.313791275024414 19.875282287597656 -1.038279652595520 0.000000000000000
22.324113845825195 21.999973297119141 3.338503360748291 0.000000000000000
22.326526641845703 -6.233258724212646 1.824331045150757 0.000000000000000
22.331239700317383 -8.132761955261230 1.824526786804199 0.000000000000000
22.335609436035156 0.294738709926605 1.241041541099548 0.000000000000000
22.335609436035156 21.128377914428711 2.360342025756836 0.000000000000000
22.345415115356445 -3.921604156494141 1.610300064086914 0.000000000000000
22.356136322021484 14.246833801269531 2.188818216323853 0.000000000000000
22.367506027221680 -16.658870697021484 2.248833656311035 0.000000000000000
22.368373870849609 -6.359981536865234 1.740386605262756 0.000000000000000
22.377355575561523 -4.459659099578857 2.289548158645630 0.000000000000000
22.377553939819336 -1.624457836151123 1.332970261573792 0.000000000000000
22.379566192626953 22.120176315307617 0.296574532985687 0.000000000000000
22.382999420166016 17.929601669311523 0.270298629999161 0.000000000000000
22.390193939208984 3.365413427352905 -1.091520071029663 0.000000000000000
22.406906127929688 19.856046676635742 0.742145538330078 0.000000000000000
22.410591125488281 15.007682800292969 1.238923192024231 0.000000000000000
22.418035507202148 -18.225791931152344 -0.005042605567724 1.000000000000000
22.418340682983398 -3.529862642288208 1.304584622383118 0.000000000000000
22.421619415283203 3.353343009948730 0.213675394654274 1.000000000000000
22.422414779663086 -17.721504211425781 -0.004988151136786 1.000000000000000
22.425567626953125 -1.963553309440613 1.597838997840881 0.000000000000000
22.429977416992188 -8.852591514587402 1.944381117820740 0.000000000000000
22.433488845825195 20.714088439941406 1.814063549041748 0.000000000000000
22.439115524291992 -6.349205970764160 2.483965158462524 0.000000000000000
22.445581436157227 -3.551818370819092 1.525319576263428 0.000000000000000
22.452465057373047 -2.693590641021729 1.736040830612183 0.000000000000000
22.453624725341797 1.485860586166382 1.960819244384766 0.000000000000000
22.454145431518555 2.007143735885620 2.760027647018433 0.000000000000000
22.456136703491211 1.312115788459778 1.553239464759827 0.000000000000000
22.461114883422852 18.655523300170898 0.331256419420242 0.000000000000000
22.462516784667969 1.172493457794189 1.683368802070618 0.000000000000000
22.462850570678711 -3.778340101242065 1.309405446052551 0.000000000000000
22.464654922485352 -5.908580780029297 1.603939533233643 0.000000000000000
22.473087310791016 2.573201656341553 3.866494655609131 0.000000000000000
22.474197387695312 16.993415832519531 3.749420881271362 0.000000000000000
22.487064361572266 6.908473968505859 2.880092144012451 0.000000000000000
22.490076065063477 -3.505365371704102 1.791378259658813 0.000000000000000
22.490634918212891 22.520515441894531 2.627898454666138 0.000000000000000
22.496986389160156 1.880427360534668 2.763916492462158 0.000000000000000
22.499553680419922 17.451835632324219 1.746562600135803 0.000000000000000
22.515619277954102 -1.518380045890808 1.819642424583435 0.000000000000000
22.521879196166992 -17.301013946533203 -0.004956735298038 1.000000000000000
22.529226303100586 -11.417865753173828 3.361076831817627 0.000000000000000
22.530975341796875 0.224940523505211 1.121714234352112 0.000000000000000
22.533861160278320 -1.581259727478027 3.347779989242554 0.000000000000000
22.537559509277344 21.348499298095703 0.173381507396698 0.000000000000000
22.543640136718750 1.074172854423523 1.514872193336487 0.000000000000000
22.550619125366211 -4.957250595092773 1.861757755279541 0.000000000000000
22.557115554809570 -1.917171120643616 2.571319818496704 0.000000000000000
22.560647964477539 5.300697803497314 2.632262468338013 0.000000000000000
22.560703277587891 24.186616897583008 3.756763458251953 0.000000000000000
22.567773818969727 16.535882949829102 2.201876163482666 0.000000000000000
22.571527481079102 13.964423179626465 3.532032489776611 0.000000000000000
22.581863403320312 22.977870941162109 1.417883992195129 0.000000000000000
22.585117340087891 -10.320730209350586 2.644958972930908 0.000000000000000
22.589248657226562 19.568807601928711 1.718020677566528 0.000000000000000
22.596464157104492 -10.211242675781250 2.816443920135498 0.000000000000000
22.596712112426758 -12.130471229553223 2.325017929077148 0.000000000000000
22.607948303222656 -4.533108711242676 1.325474500656128 0.000000000000000
22.614765167236328 14.345124244689941 1.591071486473083 0.000000000000000
22.617025375366211 -10.065491676330566 2.484037876129150 0.000000000000000
22.622587203979492 8.876632690429688 3.233915090560913 0.000000000000000
22.635732650756836 0.609342098236084 1.476223707199097 0.000000000000000
22.638694763183594 1.068405628204346 1.477524876594543 0.000000000000000
22.668273925781250 4.012944698333740 1.412041544914246 0.000000000000000
22.669811248779297 6.066307544708252 1.846927285194397 0.000000000000000
22.674463272094727 -19.286563873291016 -0.176645830273628 1.000000000000000
22.688623428344727 -3.344699859619141 3.051878929138184 0.000000000000000
22.693695068359375 -2.004599809646606 1.837002873420715 0.000000000000000
22.697315216064453 10.826556205749512 1.203508377075195 0.000000000000000
22.698957443237305 -7.578229427337646 1.975860953330994 0.000000000000000
22.700035095214844 -1.728338718414307 1.983736634254456 0.000000000000000
22.701335906982422 -5.863356590270996 2.228715896606445 0.000000000000000
22.704671859741211 3.070595264434814 1.493658423423767 0.000000000000000
22.704996109008789 -19.406295776367188 -0.463995993137360 1.000000000000000
22.711215972900391 16.246450424194336 -0.058483842760324 0.000000000000000
22.713777542114258 11.777729034423828 0.339402139186859 0.000000000000000
22.715934753417969 -4.038552761077881 2.315107345581055 0.000000000000000
22.738164901733398 1.487946629524231 1.925476431846619 0.000000000000000
22.750423431396484 -18.628299713134766 -0.005131966434419 1.000000000000000
22.752048492431641 13.347487449645996 1.974129796028137 0.000000000000000
22.753513336181641 -5.212085723876953 1.386820316314697 0.000000000000000
22.770481109619141 16.562555313110352 2.215998888015747 0.000000000000000
22.774112701416016 -0.407861053943634 1.572803139686584 0.000000000000000
22.781145095825195 -11.767289161682129 2.067512273788452 0.000000000000000
22.797357559204102 21.319972991943359 2.275719642639160 0.000000000000000
22.800903320312500 -19.018579483032227 0.165830552577972 1.000000000000000
22.809488296508789 -0.140128985047340 1.003880143165588 0.000000000000000
22.812746047973633 1.270643949508667 1.709937334060669 0.000000000000000
22.814895629882812 14.063838958740234 1.282671570777893 0.000000000000000
22.815191268920898 -10.219111442565918 2.839466810226440 0.000000000000000
22.818321228027344 -4.451552867889404 2.476339101791382 0.000000000000000
22.838674545288086 -9.032789230346680 1.932918429374695 0.000000000000000
22.848432540893555 -0.561588406562805 1.666359663009644 0.000000000000000
22.864198684692383 -3.986740112304688 0.709104359149933 0.000000000000000
22.868038177490234 13.156073570251465 2.996562957763672 0.000000000000000
22.875123977661133 -0.346572130918503 1.844718694686890 0.000000000000000
22.905105590820312 3.020395994186401 1.150154829025269 0.000000000000000
22.915266036987305 -2.087064266204834 1.633239507675171 0.000000000000000
22.916635513305664 -11.303222656250000 1.419664502143860 0.000000000000000
22.923336029052734 0.668735623359680 1.804873228073120 0.000000000000000
22.934148788452148 1.992772340774536 3.411698102951050 0.000000000000000
22.939727783203125 22.832670211791992 0.802314221858978 0.000000000000000
22.948246002197266 -25.719469070434570 3.671506166458130 0.000000000000000
22.954984664916992 16.350677490234375 0.536218702793121 0.000000000000000
22.956068038940430 -4.137894153594971 2.649416685104370 0.000000000000000
22.990564346313477 3.399462223052979 2.475491762161255 0.000000000000000
22.995012283325195 -4.433135509490967 2.226066112518311 0.000000000000000
23.003309249877930 -0.474620938301086 2.816900253295898 0.000000000000000
23.004302978515625 3.301043510437012 2.025057077407837 0.000000000000000
23.010358810424805 -7.369215965270996 1.948239088058472 0.000000000000000
23.013183593750000 -16.806737899780273 2.859439134597778 0.000000000000000
23.023565292358398 1.086569070816040 1.858542799949646 0.000000000000000
23.029518127441406 21.146327972412109 0.955244719982147 0.000000000000000
23.033086776733398 -19.686719894409180 -0.005288347601891 1.000000000000000
23.036970138549805 3.220417022705078 -1.479761004447937 0.000000000000000
23.041425704956055 -3.478928804397583 3.100949525833130 0.000000000000000
23.045204162597656 -0.175369143486023 1.947368144989014 0.000000000000000
23.049571990966797 -7.893429756164551 2.122976541519165 0.000000000000000
23.061605453491211 -0.603486537933350 2.457273960113525 0.000000000000000
23.062374114990234 -6.183427333831787 2.543278455734253 0.000000000000000
23.062547683715820 -11.592194557189941 2.181106328964233 0.000000000000000
23.067356109619141 18.035825729370117 -0.398647457361221 0.000000000000000
23.073150634765625 -0.343127697706223 2.825163841247559 0.000000000000000
23.075141906738281 -4.783671855926514 2.240071535110474 0.000000000000000
23.080368041992188 2.829417467117310 0.710448026657104 0.000000000000000
23.084186553955078 1.507357120513916 0.929131269454956 0.000000000000000
23.084335327148438 2.233346223831177 2.020890474319458 0.000000000000000
23.085710525512695 14.102093696594238 2.714470386505127 0.000000000000000
23.097455978393555 -24.828870773315430 2.668864965438843 0.000000000000000
23.102497100830078 0.145965680480003 1.506148815155029 0.000000000000000
23.104848861694336 -1.947478294372559 1.511613607406616 0.000000000000000
23.115650177001953 -3.685562849044800 1.842219710350037 0.000000000000000
23.150077819824219 -1.603383064270020 1.021291494369507 0.000000000000000
23.168651580810547 -4.339243412017822 1.900658249855042 0.000000000000000
23.178565979003906 -12.963620185852051 1.936281561851501 0.000000000000000
23.180223464965820 -3.668068885803223 1.213511109352112 0.000000000000000
23.186065673828125 -2.060735702514648 1.472651481628418 0.000000000000000
23.191450119018555 20.949216842651367 1.796529889106750 0.000000000000000
23.203527450561523 -4.568334579467773 1.359449267387390 0.000000000000000
23.208259582519531 12.879916191101074 2.663351774215698 0.000000000000000
23.208513259887695 24.752651214599609 1.819832086563110 0.000000000000000
23.217912673950195 0.596227228641510 1.469368219375610 0.000000000000000
23.218103408813477 1.863196134567261 1.923197746276855 0.000000000000000
23.233020782470703 16.510229110717773 1.309220552444458 0.000000000000000
23.238437652587891 18.127132415771484 2.568128108978271 0.000000000000000
23.239639282226562 2.922661304473877 1.391564846038818 0.000000000000000
23.247375488281250 -4.522200584411621 1.909659981727600 0.000000000000000
23.249752044677734 1.809787750244141 2.483965158462524 0.000000000000000
23.250896453857422 -4.001083850860596 1.674587368965149 0.000000000000000
23.252138137817383 3.084324598312378 3.476202726364136 0.000000000000000
23.252273559570312 10.261306762695312 -0.102026097476482 0.000000000000000
23.258077621459961 20.984354019165039 2.586426019668579 0.000000000000000
23.260951995849609 15.898493766784668 1.185811042785645 0.000000000000000
23.260955810546875 18.374351501464844 0.279383987188339 0.000000000000000
23.262971878051758 1.892540693283081 1.836884498596191 0.000000000000000
23.276929855346680 -10.699302673339844 3.409092187881470 0.000000000000000
23.304504394531250 25.600549697875977 2.590877532958984 0.000000000000000
23.313785552978516 16.377912521362305 0.159128516912460 0.000000000000000
23.319091796875000 11.056771278381348 0.144138321280479 0.000000000000000
23.319614410400391 3.838806867599487 2.246506452560425 0.000000000000000
23.331853866577148 3.840821981430054 1.769641876220703 0.000000000000000
23.335052490234375 19.489009857177734 -1.231742978096008 0.000000000000000
23.337900161743164 3.192334890365601 -1.453079223632812 0.000000000000000
23.338430404663086 26.921733856201172 1.568078994750977 0.000000000000000
23.346200942993164 1.524466037750244 1.299842834472656 0.000000000000000
23.348806381225586 2.774265050888062 0.944381415843964 0.000000000000000
23.351554870605469 -3.916928052902222 1.772029995918274 0.000000000000000
23.359375000000000 1.020709276199341 2.655736446380615 0.000000000000000
23.363670349121094 3.326803922653198 0.177114352583885 1.000000000000000
23.369556427001953 -8.248979568481445 1.854720711708069 0.000000000000000
23.372989654541016 20.354404449462891 -1.374885916709900 0.000000000000000
23.383699417114258 2.701037883758545 1.081258654594421 0.000000000000000
23.395162582397461 -0.504764974117279 1.977343320846558 0.000000000000000
23.399036407470703 3.098824024200439 0.177144393324852 0.000000000000000
23.399642944335938 17.538318634033203 0.556383013725281 0.000000000000000
23.407484054565430 14.368862152099609 3.654973268508911 0.000000000000000
23.408302307128906 2.024093151092529 2.130002498626709 0.000000000000000
23.433525085449219 -7.909936428070068 2.350977420806885 0.000000000000000
23.439620971679688 21.948234558105469 1.907767653465271 0.000000000000000
23.440450668334961 -2.522441387176514 1.946567177772522 0.000000000000000
23.457458496093750 -5.650693416595459 3.575891256332397 0.000000000000000
23.462692260742188 2.122062683105469 1.399630546569824 0.000000000000000
23.462984085083008 23.042535781860352 1.890419602394104 0.000000000000000
23.463224411010742 -7.330897331237793 1.507793784141541 0.000000000000000
23.464464187622070 2.234982728958130 2.510656118392944 0.000000000000000
23.470773696899414 -2.958389520645142 1.679118633270264 0.000000000000000
23.475055694580078 2.604948759078979 2.141197919845581 0.000000000000000
23.487895965576172 12.165612220764160 2.397968292236328 0.000000000000000
23.491134643554688 -0.480583906173706 1.939984083175659 0.000000000000000
23.491977691650391 3.856221675872803 2.158171415328979 0.000000000000000
23.499536514282227 3.659763336181641 1.917697310447693 0.000000000000000
23.503303527832031 -17.224506378173828 3.877637863159180 0.000000000000000
23.504644393920898 26.575593948364258 1.629688739776611 0.000000000000000
23.510501861572266 -4.153152465820312 1.925091624259949 0.000000000000000
23.512765884399414 0.050065878778696 2.670633554458618 0.000000000000000
23.514350891113281 2.202884435653687 1.721914649009705 0.000000000000000
23.516363143920898 -1.351415157318115 1.853831648826599 0.000000000000000
23.522609710693359 2.296456813812256 2.059433221817017 0.000000000000000
23.535236358642578 -4.583739280700684 1.840754389762878 0.000000000000000
23.536872863769531 -4.493304252624512 2.721644639968872 0.000000000000000
23.537084579467773 -2.728328943252563 1.590414881706238 0.000000000000000
23.538419723510742 1.063932299613953 1.399867773056030 0.000000000000000
23.549276351928711 -2.010190725326538 1.860108375549316 0.000000000000000
23.549772262573242 21.800460815429688 0.548950493335724 0.000000000000000
23.550693511962891 -1.652613520622253 1.675720214843750 0.000000000000000
23.553289413452148 25.010765075683594 2.107287168502808 0.000000000000000
23.570381164550781 -23.363950729370117 3.008655548095703 0.000000000000000
23.571470260620117 17.505094528198242 2.946100950241089 0.000000000000000
23.572565078735352 16.094585418701172 1.530843973159790 0.000000000000000
23.581806182861328 10.930802345275879 -0.004536459688097 0.000000000000000
23.583757400512695 -1.400306344032288 1.722496509552002 0.000000000000000
23.585729598999023 17.299480438232422 2.245524406433105 0.000000000000000
23.587772369384766 11.256353378295898 0.045615904033184 0.000000000000000
23.593717575073242 -15.865678787231445 2.237653493881226 0.000000000000000
23.602600097656250 23.063411712646484 1.452354907989502 0.000000000000000
23.603385925292969 10.845867156982422 -0.004533667583019 0.000000000000000
23.617397308349609 -1.409750699996948 3.148437261581421 0.000000000000000
23.618373870849609 -24.087991714477539 2.394493103027344 0.000000000000000
23.622640609741211 -16.049106597900391 3.496456384658813 0.000000000000000
23.624765396118164 10.677414894104004 -0.352961719036102 0.000000000000000
23.627532958984375 25.238340377807617 3.286296129226685 0.000000000000000
23.635492324829102 -12.837297439575195 2.168782234191895 0.000000000000000
23.636419296264648 1.215567946434021 1.999908804893494 0.000000000000000
23.643093109130859 -0.358207345008850 1.541538715362549 0.000000000000000
23.644300460815430 16.594081878662109 3.280960798263550 0.000000000000000
23.649757385253906 -4.343955993652344 2.731124401092529 0.000000000000000
23.660978317260742 0.475796282291412 1.542839884757996 0.000000000000000
23.662162780761719 21.524879455566406 0.117241881787777 0.000000000000000
23.669456481933594 11.247192382812500 3.883753061294556 0.000000000000000
23.673793792724609 -8.982902526855469 2.697069883346558 1.000000000000000
23.693939208984375 2.820724725723267 0.362345725297928 0.000000000000000
23.698287963867188 -8.488948822021484 1.253177523612976 0.000000000000000
23.700456619262695 -1.130537152290344 1.455387234687805 0.000000000000000
23.706014633178711 4.279056072235107 2.736090183258057 0.000000000000000
23.706813812255859 -0.097648337483406 3.154768705368042 0.000000000000000
23.708969116210938 16.252727508544922 0.933475553989410 0.000000000000000
23.723854064941406 4.149858951568604 1.755945801734924 0.000000000000000
23.730224609375000 18.025920867919922 0.967750549316406 0.000000000000000
23.731843948364258 9.303278923034668 -0.542845726013184 0.000000000000000
23.733390808105469 17.863620758056641 2.223097562789917 0.000000000000000
23.737836837768555 4.370421886444092 2.741507291793823 0.000000000000000
23.745084762573242 22.889562606811523 1.514973640441895 0.000000000000000
23.753389358520508 2.050583600997925 1.278702497482300 0.000000000000000
23.755338668823242 -17.597925186157227 2.966468334197998 0.000000000000000
23.758586883544922 17.098711013793945 -0.117505028843880 0.000000000000000
23.764366149902344 25.770343780517578 1.610233068466187 0.000000000000000
23.769660949707031 0.610395908355713 2.532686710357666 0.000000000000000
23.776111602783203 14.694756507873535 1.445265889167786 0.000000000000000
23.778989791870117 -4.074014663696289 1.433316588401794 0.000000000000000
23.786233901977539 3.418745040893555 1.103834629058838 0.000000000000000
23.789310455322266 3.916127204895020 1.432367563247681 0.000000000000000
23.794956207275391 14.517668724060059 2.086075782775879 0.000000000000000
23.797008514404297 5.003543853759766 2.054806947708130 0.000000000000000
23.797502517700195 3.906373500823975 1.758272647857666 0.000000000000000
23.798742294311523 20.616579055786133 2.854448795318604 0.000000000000000
23.799697875976562 26.080457687377930 0.197196066379547 0.000000000000000
23.823369979858398 -0.502353429794312 1.369779467582703 0.000000000000000
23.838207244873047 -24.618026733398438 2.564607381820679 0.000000000000000
23.840867996215820 4.682578563690186 2.202591657638550 0.000000000000000
23.848827362060547 18.616678237915039 0.749976396560669 0.000000000000000
23.849687576293945 11.410487174987793 -0.258416324853897 0.000000000000000
23.858423233032227 1.953977346420288 1.930235385894775 0.000000000000000
23.873641967773438 -2.092031478881836 1.562356233596802 0.000000000000000
23.881586074829102 16.493885040283203 0.496477305889130 0.000000000000000
23.888097763061523 -3.505337715148926 1.760308861732483 0.000000000000000
23.888370513916016 8.666803359985352 0.044352285563946 0.000000000000000
23.889978408813477 -14.771460533142090 1.776980876922607 0.000000000000000
23.898103713989258 -2.575909614562988 2.942798137664795 0.000000000000000
23.898855209350586 1.374655723571777 1.191721796989441 0.000000000000000
23.915536880493164 17.085250854492188 2.664489269256592 0.000000000000000
23.919273376464844 -2.688049077987671 1.615595817565918 0.000000000000000
23.919483184814453 -0.709495842456818 1.883332371711731 0.000000000000000
23.927951812744141 -4.096097469329834 2.115337610244751 0.000000000000000
23.928445816040039 20.301425933837891 1.320707559585571 0.000000000000000
23.929803848266602 -15.930248260498047 1.929553508758545 0.000000000000000
23.944414138793945 17.162118911743164 0.503934383392334 0.000000000000000
23.949977874755859 -3.177742242813110 1.761472225189209 0.000000000000000
23.951503753662109 3.924786090850830 1.722732067108154 0.000000000000000
23.952510833740234 -4.920229911804199 1.971707940101624 0.000000000000000
23.956968307495117 -16.312940597534180 3.548468112945557 0.000000000000000
23.964323043823242 -9.252828598022461 2.121014118194580 0.000000000000000
23.969539642333984 -1.598778128623962 1.658772826194763 0.000000000000000
23.993062973022461 -0.015912882983685 1.564177751541138 0.000000000000000
23.993181228637695 0.465719550848007 2.725707292556763 0.000000000000000
23.994737625122070 1.796595335006714 1.940201759338379 0.000000000000000
23.997423171997070 -1.211038112640381 1.520131826400757 0.000000000000000
23.997434616088867 21.083755493164062 1.344423770904541 0.000000000000000
24.004030227661133 2.248758792877197 2.185618162155151 0.000000000000000
24.018135070800781 -0.615513682365417 1.937308311462402 0.000000000000000
24.025150299072266 -23.981580734252930 2.474961757659912 0.000000000000000
24.029067993164062 25.003059387207031 0.992867469787598 0.000000000000000
24.033134460449219 -4.100287914276123 1.072998046875000 0.000000000000000
24.035093307495117 -0.164449229836464 2.284736633300781 0.000000000000000
24.040891647338867 -11.127804756164551 2.401579618453979 0.000000000000000
24.062681198120117 25.616991043090820 3.991955995559692 0.000000000000000
24.065288543701172 3.689389228820801 1.352653145790100 1.000000000000000
24.065443038940430 -11.241337776184082 1.936572432518005 0.000000000000000
24.069023132324219 -1.859616875648499 1.573805928230286 0.000000000000000
24.074014663696289 19.610530853271484 0.769702196121216 0.000000000000000
24.081563949584961 25.544027328491211 2.627297163009644 0.000000000000000
24.082284927368164 17.830360412597656 2.126864671707153 0.000000000000000
24.082452774047852 -0.099195599555969 1.662905931472778 0.000000000000000
24.083837509155273 -1.928432703018188 2.190312862396240 0.000000000000000
24.085357666015625 19.973340988159180 2.100194215774536 0.000000000000000
24.091123580932617 -3.546297550201416 1.728396177291870 0.000000000000000
24.091209411621094 -1.254977464675903 2.953491926193237 0.000000000000000
