# This PCD file was generated using the MATLAB® pcwrite function
# from Computer Vision Toolbox®.
# .PCD v.7 - Point Cloud Data file format
VERSION .7
FIELDS x y z intensity
SIZE 8 8 8 8
TYPE F F F F
COUNT 1 1 1 1
WIDTH 657
HEIGHT 1
VIEWPOINT 0 0 0 1 0 0 0
POINTS 657
DATA ascii
8.385950088500977 -4.028316497802734 0.678294777870178 0.000000000000000
8.390148162841797 -8.437728881835938 1.456816315650940 0.000000000000000
8.390550613403320 2.293667554855347 0.667778670787811 0.000000000000000
8.394263267517090 -0.444185167551041 0.661567151546478 0.000000000000000
8.395053863525391 -6.024019241333008 0.693546295166016 0.000000000000000
8.395479202270508 -5.768110752105713 0.781983852386475 0.000000000000000
8.395900726318359 9.700704574584961 0.885872840881348 0.000000000000000
8.399817466735840 -0.055124185979366 0.580019354820251 0.000000000000000
8.401061058044434 0.939952731132507 1.124931812286377 0.000000000000000
8.405623435974121 10.568829536437988 1.141072988510132 0.000000000000000
8.407448768615723 -3.377727508544922 1.548754453659058 0.000000000000000
8.408822059631348 0.470715016126633 0.711655020713806 0.000000000000000
8.410283088684082 -1.497190833091736 0.606340527534485 0.000000000000000
8.412530899047852 -4.427733898162842 0.748185992240906 0.000000000000000
8.417485237121582 1.150958538055420 0.740298748016357 0.000000000000000
8.419734954833984 -5.046895027160645 1.045612454414368 0.000000000000000
8.423211097717285 -1.044986367225647 0.373553156852722 0.000000000000000
8.423775672912598 0.966024518013000 0.291647821664810 0.000000000000000
8.424882888793945 5.498612403869629 0.481479853391647 0.000000000000000
8.425776481628418 -0.994572341442108 0.634957492351532 0.000000000000000
8.426535606384277 -5.797678947448730 0.804990351200104 0.000000000000000
8.427020072937012 6.592919826507568 0.883426725864410 0.000000000000000
8.431565284729004 9.351728439331055 0.336317807435989 0.000000000000000
8.431751251220703 3.768881559371948 0.069314755499363 0.000000000000000
8.434722900390625 -3.842858076095581 0.807661712169647 0.000000000000000
8.435387611389160 -8.324812889099121 1.450983166694641 0.000000000000000
8.438353538513184 5.571683406829834 0.406133770942688 0.000000000000000
8.442513465881348 -0.152670919895172 0.583050370216370 0.000000000000000
8.445360183715820 -4.035107612609863 1.063107132911682 0.000000000000000
8.448285102844238 -0.514349937438965 0.737520813941956 0.000000000000000
8.448750495910645 10.121091842651367 1.953897953033447 0.000000000000000
8.449550628662109 0.017550703138113 0.847847640514374 0.000000000000000
8.450448989868164 8.675837516784668 0.836274921894073 0.000000000000000
8.456732749938965 -0.460662990808487 0.767783224582672 0.000000000000000
8.459716796875000 4.699728488922119 0.817746520042419 0.000000000000000
8.461136817932129 2.071367263793945 0.759049236774445 1.000000000000000
8.462327957153320 -0.878076374530792 0.741340339183807 0.000000000000000
8.463590621948242 8.335761070251465 1.580814123153687 0.000000000000000
8.469927787780762 -0.246647045016289 0.962439298629761 0.000000000000000
8.470511436462402 -0.523122489452362 0.602375686168671 0.000000000000000
8.472709655761719 -0.955158472061157 0.309667915105820 0.000000000000000
8.472835540771484 -11.701322555541992 3.004937887191772 0.000000000000000
8.473243713378906 -0.661055803298950 0.652469635009766 0.000000000000000
8.474713325500488 -6.880093574523926 0.838014841079712 0.000000000000000
8.475478172302246 -0.418375372886658 0.324508249759674 0.000000000000000
8.477012634277344 7.358054637908936 0.580419778823853 0.000000000000000
8.479600906372070 10.007295608520508 0.905711948871613 0.000000000000000
8.480481147766113 -0.645391225814819 0.505290329456329 0.000000000000000
8.482273101806641 9.731642723083496 0.692371666431427 0.000000000000000
8.486250877380371 -5.795224189758301 0.491805464029312 0.000000000000000
8.486539840698242 5.366835117340088 0.615900874137878 0.000000000000000
8.487334251403809 3.547546863555908 1.224128484725952 0.000000000000000
8.488563537597656 -1.206287741661072 0.492863476276398 0.000000000000000
8.489363670349121 -0.391735851764679 0.308651655912399 0.000000000000000
8.489532470703125 3.791865348815918 0.337687581777573 0.000000000000000
8.491883277893066 7.797211170196533 0.596117973327637 0.000000000000000
8.492957115173340 7.798197269439697 0.773910880088806 0.000000000000000
8.496395111083984 -5.915271282196045 1.377672076225281 0.000000000000000
8.506782531738281 0.056274656206369 0.653082072734833 0.000000000000000
8.507971763610840 -4.113097667694092 0.434081941843033 1.000000000000000
8.508087158203125 10.272829055786133 1.101321220397949 0.000000000000000
8.508108139038086 -0.252366125583649 0.906649351119995 0.000000000000000
8.512182235717773 10.120011329650879 0.048468384891748 0.000000000000000
8.514217376708984 -0.719747900962830 0.441821336746216 0.000000000000000
8.518411636352539 -2.889290094375610 0.482432216405869 0.000000000000000
8.518682479858398 8.510362625122070 2.058266401290894 0.000000000000000
8.520858764648438 10.454313278198242 0.593569636344910 0.000000000000000
8.522092819213867 0.851819992065430 0.442854076623917 1.000000000000000
8.528994560241699 10.278339385986328 0.922244548797607 0.000000000000000
8.530380249023438 7.509438514709473 0.587649166584015 0.000000000000000
8.531184196472168 -2.441766500473022 1.086414575576782 0.000000000000000
8.534941673278809 -7.963418006896973 1.553376793861389 0.000000000000000
8.535071372985840 8.899664878845215 0.163573056459427 0.000000000000000
8.535990715026855 0.535244226455688 0.574070930480957 0.000000000000000
8.540538787841797 10.385601043701172 1.110208034515381 0.000000000000000
8.541174888610840 9.810268402099609 0.122595697641373 0.000000000000000
8.541302680969238 9.868702888488770 0.097953252494335 0.000000000000000
8.542757987976074 1.565114021301270 0.633210837841034 0.000000000000000
8.543571472167969 -1.322309255599976 0.430388212203979 0.000000000000000
8.545223236083984 -1.155055880546570 1.473945140838623 0.000000000000000
8.546376228332520 -1.109828829765320 0.412451177835464 0.000000000000000
8.550410270690918 -1.175973892211914 0.396455407142639 0.000000000000000
8.558157920837402 -1.226846337318420 0.563634872436523 0.000000000000000
8.559355735778809 8.793180465698242 0.139218449592590 0.000000000000000
8.563941955566406 7.046027660369873 0.966346800327301 0.000000000000000
8.564951896667480 1.198848128318787 0.447191774845123 0.000000000000000
8.565492630004883 1.201057791709900 0.430587112903595 0.000000000000000
8.565655708312988 -2.360661029815674 0.442321360111237 1.000000000000000
8.567314147949219 0.110357664525509 1.048985481262207 0.000000000000000
8.568305015563965 1.845337152481079 0.740619659423828 0.000000000000000
8.571269989013672 3.514287710189819 0.069524899125099 0.000000000000000
8.571940422058105 -1.437834620475769 0.650480687618256 0.000000000000000
8.573255538940430 9.440407752990723 0.708500862121582 0.000000000000000
8.574912071228027 9.501379966735840 0.489437311887741 0.000000000000000
8.575031280517578 9.462251663208008 0.512884318828583 0.000000000000000
8.576040267944336 -2.479887962341309 0.809314310550690 0.000000000000000
8.578226089477539 -1.044764041900635 1.280706167221069 0.000000000000000
8.578546524047852 8.941881179809570 1.517091631889343 0.000000000000000
8.580896377563477 5.557824134826660 0.646794795989990 0.000000000000000
8.581649780273438 9.789630889892578 0.748362839221954 0.000000000000000
8.583151817321777 -5.089820861816406 0.650548040866852 0.000000000000000
8.583615303039551 10.070038795471191 0.328003168106079 0.000000000000000
8.587317466735840 -3.825295686721802 0.943295478820801 0.000000000000000
8.587970733642578 -5.515072822570801 0.665380597114563 0.000000000000000
8.594138145446777 2.016684293746948 1.308267235755920 0.000000000000000
8.594466209411621 -5.164485454559326 0.953109145164490 0.000000000000000
8.596176147460938 -0.635185718536377 0.462295144796371 0.000000000000000
8.596377372741699 -1.708677887916565 0.520709991455078 0.000000000000000
8.598675727844238 2.079923629760742 1.840106964111328 0.000000000000000
8.599013328552246 0.364315509796143 0.478177100419998 0.000000000000000
8.602601051330566 -5.771123409271240 0.875339031219482 0.000000000000000
8.603584289550781 -0.418976217508316 0.495159089565277 0.000000000000000
8.603767395019531 -8.787717819213867 0.659595429897308 0.000000000000000
8.604045867919922 -2.321871995925903 0.847124040126801 0.000000000000000
8.604450225830078 11.054491043090820 1.864157676696777 0.000000000000000
8.608050346374512 8.163315773010254 0.933663308620453 0.000000000000000
8.608793258666992 10.464867591857910 1.659030318260193 0.000000000000000
8.610954284667969 2.014293193817139 1.310612797737122 0.000000000000000
8.610987663269043 7.689384460449219 0.797147750854492 0.000000000000000
8.611268043518066 -6.160971641540527 1.006480216979980 0.000000000000000
8.611953735351562 -2.462282180786133 1.191942214965820 0.000000000000000
8.615022659301758 -0.075780659914017 0.750715672969818 0.000000000000000
8.618066787719727 -0.861412823200226 0.631465673446655 0.000000000000000
8.618845939636230 8.119433403015137 1.261259436607361 0.000000000000000
8.619718551635742 -3.927141904830933 0.672327160835266 0.000000000000000
8.620201110839844 1.547292351722717 0.621633589267731 0.000000000000000
8.621737480163574 -1.109364628791809 0.826305508613586 1.000000000000000
8.622598648071289 -4.146811008453369 0.679123997688293 0.000000000000000
8.623235702514648 0.873483479022980 0.598480820655823 0.000000000000000
8.623729705810547 8.938247680664062 0.307880878448486 0.000000000000000
8.623803138732910 9.308952331542969 0.753902673721313 0.000000000000000
8.624751091003418 10.264747619628906 0.152105689048767 0.000000000000000
8.625015258789062 7.684881687164307 0.020162034779787 0.000000000000000
8.629534721374512 7.960598945617676 0.742765903472900 0.000000000000000
8.630060195922852 -0.758978903293610 0.598205208778381 0.000000000000000
8.632283210754395 10.302518844604492 0.436487436294556 0.000000000000000
8.632778167724609 8.165902137756348 0.705983102321625 0.000000000000000
8.633533477783203 0.961081326007843 0.298798084259033 0.000000000000000
8.634543418884277 10.355411529541016 0.593393743038177 0.000000000000000
8.636884689331055 -2.115988731384277 0.751397252082825 0.000000000000000
8.637845993041992 9.697631835937500 0.871687769889832 0.000000000000000
8.642949104309082 0.568308234214783 0.564675748348236 0.000000000000000
8.649610519409180 -5.891961574554443 0.219225257635117 0.000000000000000
8.650391578674316 0.605501115322113 1.153952002525330 0.000000000000000
8.654406547546387 -5.395070552825928 1.086284518241882 0.000000000000000
8.660684585571289 -0.530013620853424 0.824791431427002 0.000000000000000
8.662336349487305 0.640987396240234 1.484728455543518 0.000000000000000
8.663132667541504 -0.415513724088669 0.732873320579529 0.000000000000000
8.664069175720215 -1.890973567962646 0.842960298061371 0.000000000000000
8.664771080017090 7.020103931427002 0.083694040775299 0.000000000000000
8.665209770202637 -5.559121608734131 1.260435342788696 0.000000000000000
8.666465759277344 1.565434217453003 0.404531329870224 0.000000000000000
8.669181823730469 -0.047509178519249 1.284811139106750 0.000000000000000
8.677351951599121 10.426344871520996 0.440512150526047 0.000000000000000
8.677749633789062 11.842757225036621 3.053811788558960 0.000000000000000
8.678153991699219 -3.980866670608521 1.985914587974548 0.000000000000000
8.678475379943848 -5.893900394439697 0.785114347934723 0.000000000000000
8.687747001647949 -4.143098354339600 0.664611279964447 0.000000000000000
8.687813758850098 10.162066459655762 0.254374802112579 0.000000000000000
8.689143180847168 -0.826262235641479 0.451322853565216 0.000000000000000
8.690302848815918 -0.503819346427917 0.634665191173553 0.000000000000000
8.701359748840332 9.712141036987305 0.047793991863728 0.000000000000000
8.702678680419922 10.145709037780762 0.177314683794975 0.000000000000000
8.703115463256836 9.844702720642090 0.856641650199890 0.000000000000000
8.704521179199219 1.066314458847046 0.335360854864120 0.000000000000000
8.705588340759277 4.110284805297852 1.281113743782043 0.000000000000000
8.707952499389648 -1.932420015335083 0.847881019115448 0.000000000000000
8.708899497985840 5.497459411621094 0.433451771736145 0.000000000000000
8.709434509277344 -0.632245361804962 0.586125671863556 0.000000000000000
8.712313652038574 -0.399890363216400 0.568579018115997 0.000000000000000
8.712584495544434 0.428250461816788 1.160811424255371 0.000000000000000
8.715250015258789 10.111342430114746 0.433501362800598 0.000000000000000
8.716373443603516 0.135100290179253 1.813226222991943 0.000000000000000
8.716567039489746 -2.283659458160400 0.904157876968384 0.000000000000000
8.718042373657227 8.029581069946289 0.293805181980133 0.000000000000000
8.732042312622070 -6.819273948669434 1.893820762634277 0.000000000000000
8.734936714172363 -8.344079017639160 0.764233171939850 0.000000000000000
8.736917495727539 9.789233207702637 0.426101058721542 0.000000000000000
8.737389564514160 -1.015895843505859 0.454834282398224 0.000000000000000
8.738704681396484 8.760390281677246 0.973834395408630 0.000000000000000
8.738721847534180 8.374871253967285 0.882481276988983 0.000000000000000
8.739056587219238 9.489027023315430 0.716710925102234 0.000000000000000
8.744031906127930 -0.572500944137573 1.166087865829468 0.000000000000000
8.744996070861816 -2.123393535614014 0.815814793109894 0.000000000000000
8.747276306152344 0.890370190143585 1.502925276756287 0.000000000000000
8.748386383056641 -3.964578390121460 0.607648670673370 0.000000000000000
8.749444007873535 0.118965372443199 0.671759009361267 1.000000000000000
8.749771118164062 10.357253074645996 0.205892071127892 0.000000000000000
8.751566886901855 -0.709053993225098 0.589340209960938 0.000000000000000
8.752623558044434 -1.313086271286011 1.840921521186829 0.000000000000000
8.754690170288086 -5.065529346466064 0.717923045158386 0.000000000000000
8.755528450012207 7.343118190765381 1.693534612655640 0.000000000000000
8.756461143493652 5.552518844604492 0.635981917381287 0.000000000000000
8.757087707519531 8.155840873718262 0.641814768314362 0.000000000000000
8.757342338562012 10.316079139709473 0.049597259610891 0.000000000000000
8.760604858398438 7.256687641143799 1.685911417007446 0.000000000000000
8.762712478637695 -0.026917163282633 1.166087865829468 0.000000000000000
8.763491630554199 7.606717586517334 0.421456128358841 0.000000000000000
8.768227577209473 -8.256693840026855 1.282866477966309 0.000000000000000
8.768300056457520 8.294095993041992 1.147289037704468 0.000000000000000
8.768371582031250 -4.106285572052002 1.434930324554443 0.000000000000000
8.769137382507324 -5.127966403961182 0.662257909774780 0.000000000000000
8.771492004394531 0.591521263122559 0.657943725585938 0.000000000000000
8.774567604064941 7.252250671386719 0.085435166954994 0.000000000000000
8.782306671142578 8.167308807373047 0.967046678066254 0.000000000000000
8.782956123352051 -7.044279575347900 0.864346265792847 0.000000000000000
8.783065795898438 7.724810600280762 1.328545331954956 0.000000000000000
8.784239768981934 9.559159278869629 0.596334993839264 0.000000000000000
8.785324096679688 -0.741739094257355 0.744998037815094 0.000000000000000
8.786316871643066 10.021000862121582 0.125611588358879 0.000000000000000
8.787133216857910 -1.376185417175293 2.383205890655518 0.000000000000000
8.792090415954590 8.062685966491699 0.961902797222137 0.000000000000000
8.793463706970215 -0.344266384840012 0.590679645538330 0.000000000000000
8.793861389160156 5.082872390747070 0.681759476661682 0.000000000000000
8.794954299926758 -3.863644838333130 0.515208482742310 0.000000000000000
8.795585632324219 -2.516777992248535 0.596422433853149 0.000000000000000
8.796551704406738 -0.225429579615593 0.709531903266907 0.000000000000000
8.799031257629395 9.498102188110352 0.569826841354370 0.000000000000000
8.799522399902344 -1.346673250198364 2.385276556015015 0.000000000000000
8.801915168762207 0.697981536388397 0.337653666734695 0.000000000000000
8.803099632263184 8.141493797302246 0.643100142478943 0.000000000000000
8.809494972229004 10.101366996765137 0.486786931753159 0.000000000000000
8.810009956359863 -3.544459342956543 1.263701558113098 0.000000000000000
8.810791969299316 -8.113582611083984 0.734673023223877 1.000000000000000
8.815191268920898 0.281031101942062 1.307094335556030 0.000000000000000
8.818765640258789 -3.402524471282959 0.543366491794586 0.000000000000000
8.822189331054688 -3.580167531967163 0.863124072551727 0.000000000000000
8.827305793762207 5.400060653686523 0.574921965599060 0.000000000000000
8.828398704528809 10.194662094116211 0.697329938411713 0.000000000000000
8.833115577697754 5.478474140167236 0.537456333637238 0.000000000000000
8.833776473999023 -3.320222139358521 0.597041368484497 0.000000000000000
8.834764480590820 -7.525888919830322 1.544406771659851 0.000000000000000
8.834915161132812 6.894655227661133 0.752212405204773 0.000000000000000
8.835021972656250 -7.959558486938477 0.821120083332062 0.000000000000000
8.839777946472168 3.314909696578979 1.399159789085388 0.000000000000000
8.845091819763184 8.311326026916504 1.153723835945129 0.000000000000000
8.846880912780762 -1.420525074005127 0.532334089279175 0.000000000000000
8.851456642150879 4.873776912689209 1.237102866172791 0.000000000000000
8.852849006652832 10.312764167785645 0.128099694848061 0.000000000000000
8.853939056396484 8.475211143493652 1.500564455986023 0.000000000000000
8.854323387145996 0.804871618747711 0.613911271095276 0.000000000000000
8.854824066162109 -2.498653650283813 0.458033323287964 0.000000000000000
8.855820655822754 7.971578121185303 2.036699771881104 0.000000000000000
8.863235473632812 9.820854187011719 0.709509611129761 0.000000000000000
8.866905212402344 -1.242059350013733 0.635510623455048 0.000000000000000
8.867405891418457 0.013621082529426 0.390261054039001 0.000000000000000
8.868363380432129 0.023836513981223 0.749376416206360 0.000000000000000
8.868753433227539 -0.566988587379456 1.009387493133545 0.000000000000000
8.869978904724121 10.657797813415527 0.237189859151840 0.000000000000000
8.872858047485352 -1.384534478187561 0.706759572029114 0.000000000000000
8.872964859008789 -0.644116759300232 0.528538465499878 0.000000000000000
8.874654769897461 -1.440718650817871 2.409087896347046 0.000000000000000
8.880352973937988 0.003719728440046 0.750386834144592 0.000000000000000
8.882307052612305 10.276474952697754 0.154102295637131 0.000000000000000
8.885921478271484 -0.671411097049713 0.894173741340637 0.000000000000000
8.887614250183105 11.336436271667480 1.916921734809875 0.000000000000000
8.891345977783203 -1.003767251968384 0.273380786180496 1.000000000000000
8.891417503356934 -7.790977001190186 0.998943984508514 0.000000000000000
8.895406723022461 9.458085060119629 0.721370637416840 0.000000000000000
8.895546913146973 7.254004478454590 0.637717366218567 0.000000000000000
8.896273612976074 -0.912749946117401 0.721105575561523 0.000000000000000
8.896958351135254 -3.654714345932007 0.645595431327820 0.000000000000000
8.898987770080566 5.261170387268066 0.355587601661682 0.000000000000000
8.903455734252930 0.395583897829056 0.753081202507019 0.000000000000000
8.904561042785645 8.233607292175293 0.627101242542267 0.000000000000000
8.904641151428223 11.882316589355469 2.538124322891235 0.000000000000000
8.910007476806641 10.661541938781738 1.174079179763794 0.000000000000000
8.910764694213867 -0.815961182117462 0.462683349847794 1.000000000000000
8.913105964660645 -0.046975050121546 1.853954553604126 0.000000000000000
8.919156074523926 10.131404876708984 0.230895817279816 0.000000000000000
8.920067787170410 1.274595618247986 0.309935986995697 0.000000000000000
8.921118736267090 8.409482955932617 0.941197454929352 0.000000000000000
8.921665191650391 8.021269798278809 0.251309067010880 0.000000000000000
8.923880577087402 -3.730744123458862 0.876847445964813 1.000000000000000
8.924419403076172 0.404943406581879 0.737615287303925 0.000000000000000
8.925257682800293 1.177251577377319 0.621626436710358 0.000000000000000
8.925370216369629 -7.399726867675781 0.890065371990204 0.000000000000000
8.925620079040527 9.861211776733398 1.416745543479919 0.000000000000000
8.930875778198242 10.411745071411133 1.132590055465698 0.000000000000000
8.931351661682129 -0.711069166660309 0.851666212081909 0.000000000000000
8.935168266296387 -1.675561189651489 0.557616829872131 0.000000000000000
8.938148498535156 -0.330553501844406 0.652117013931274 0.000000000000000
8.939435005187988 6.511110305786133 2.300337314605713 0.000000000000000
8.939574241638184 6.047544479370117 2.244946718215942 0.000000000000000
8.940626144409180 -0.017477482557297 1.859656572341919 0.000000000000000
8.941912651062012 -2.126306295394897 0.776657044887543 0.000000000000000
8.942068099975586 -8.227262496948242 0.839030385017395 0.000000000000000
8.944597244262695 10.354376792907715 0.181506142020226 0.000000000000000
8.949902534484863 8.009441375732422 1.046557307243347 0.000000000000000
8.952531814575195 8.012365341186523 0.899149954319000 0.000000000000000
8.953886985778809 1.021434426307678 0.465988248586655 1.000000000000000
8.955084800720215 -1.216186523437500 1.339346647262573 0.000000000000000
8.956612586975098 1.308865070343018 0.764869153499603 0.000000000000000
8.957605361938477 -3.188074111938477 0.729933202266693 0.000000000000000
8.958121299743652 3.749470233917236 1.659957408905029 0.000000000000000
8.958715438842773 5.515318393707275 0.706136703491211 0.000000000000000
8.958918571472168 -10.568479537963867 0.183787569403648 0.000000000000000
8.961169242858887 0.595515549182892 0.585493206977844 0.000000000000000
8.968705177307129 7.879480361938477 0.571350991725922 0.000000000000000
8.969576835632324 -7.505317211151123 3.133781194686890 0.000000000000000
8.970891952514648 8.677931785583496 1.252402424812317 0.000000000000000
8.974349021911621 -1.141363024711609 0.729464411735535 0.000000000000000
8.979008674621582 10.814496040344238 1.160567402839661 0.000000000000000
8.983133316040039 4.521585464477539 1.231269836425781 0.000000000000000
8.983658790588379 -3.165231704711914 0.602597594261169 0.000000000000000
8.984783172607422 0.597398638725281 1.198274016380310 0.000000000000000
8.985564231872559 5.157331943511963 0.396196603775024 0.000000000000000
8.988045692443848 -10.582976341247559 0.450898528099060 0.000000000000000
8.989127159118652 -10.566671371459961 0.290597021579742 1.000000000000000
8.993094444274902 -2.499753713607788 1.383326888084412 0.000000000000000
8.997642517089844 9.233764648437500 0.840508162975311 0.000000000000000
8.997817993164062 5.461303234100342 0.747093081474304 0.000000000000000
8.998052597045898 -3.578576803207397 1.655239701271057 0.000000000000000
9.000799179077148 1.665114760398865 0.438074022531509 0.000000000000000
9.006886482238770 -0.495048254728317 1.200384497642517 0.000000000000000
9.007597923278809 -0.366664022207260 0.552963912487030 0.000000000000000
9.008904457092285 5.165295124053955 0.697028756141663 0.000000000000000
9.010194778442383 -3.588506698608398 1.290611267089844 0.000000000000000
9.011084556579590 7.582127571105957 0.518296182155609 0.000000000000000
9.014003753662109 5.252173900604248 0.700243294239044 0.000000000000000
9.020733833312988 10.014317512512207 1.112841248512268 0.000000000000000
9.021597862243652 0.400832980871201 0.623555243015289 0.000000000000000
9.021756172180176 -3.731768608093262 1.195299029350281 0.000000000000000
9.022720336914062 10.394469261169434 0.658736348152161 0.000000000000000
9.023468017578125 8.858358383178711 0.995175302028656 0.000000000000000
9.026353836059570 -2.386213541030884 0.464795410633087 0.000000000000000
9.026600837707520 -0.699155151844025 0.433293610811234 0.000000000000000
9.034459114074707 8.254800796508789 0.915867269039154 0.000000000000000
9.034468650817871 9.210891723632812 1.090216398239136 0.000000000000000
9.036200523376465 9.342239379882812 0.697084605693817 0.000000000000000
9.037639617919922 0.809928297996521 0.574058771133423 0.000000000000000
9.039752960205078 11.550395965576172 2.507122278213501 0.000000000000000
9.041381835937500 11.420068740844727 0.249162241816521 0.000000000000000
9.042240142822266 -2.162172079086304 1.589191913604736 0.000000000000000
9.042327880859375 1.567732453346252 0.799675405025482 0.000000000000000
9.042417526245117 -2.349644422531128 0.789455413818359 0.000000000000000
9.044378280639648 0.637523710727692 0.821954131126404 0.000000000000000
9.044496536254883 9.399277687072754 1.481578588485718 0.000000000000000
9.044910430908203 9.474227905273438 0.879188418388367 0.000000000000000
9.046786308288574 3.754337549209595 1.199187755584717 0.000000000000000
9.049659729003906 2.171294450759888 0.320111334323883 0.000000000000000
9.051902770996094 -8.386850357055664 1.042727828025818 0.000000000000000
9.056379318237305 10.647986412048340 0.615201950073242 0.000000000000000
9.057108879089355 4.958207130432129 0.981498062610626 0.000000000000000
9.057654380798340 8.997159004211426 2.655488729476929 0.000000000000000
9.064466476440430 -10.574201583862305 0.104527488350868 0.000000000000000
9.067303657531738 -0.395728439092636 0.714291632175446 0.000000000000000
9.068048477172852 10.732862472534180 1.224340200424194 0.000000000000000
9.068838119506836 1.759848594665527 1.579082608222961 0.000000000000000
9.069347381591797 -1.294635534286499 0.798286437988281 0.000000000000000
9.071155548095703 9.125782012939453 1.166481614112854 0.000000000000000
9.071413993835449 -4.243184566497803 1.711852312088013 0.000000000000000
9.076381683349609 8.217850685119629 0.444684863090515 0.000000000000000
9.079582214355469 5.529372692108154 0.672555446624756 0.000000000000000
9.087888717651367 -0.435886472463608 0.628239512443542 0.000000000000000
9.087952613830566 -2.327641963958740 1.248399972915649 0.000000000000000
9.088612556457520 9.940059661865234 1.221013545989990 0.000000000000000
9.089188575744629 8.529947280883789 1.130006432533264 0.000000000000000
9.089872360229492 2.001699209213257 2.493980407714844 0.000000000000000
9.091720581054688 -7.096077442169189 2.398900032043457 0.000000000000000
9.095346450805664 10.855179786682129 0.242252469062805 0.000000000000000
9.097210884094238 -10.569392204284668 0.640569150447845 1.000000000000000
9.100133895874023 8.976459503173828 1.215043783187866 0.000000000000000
9.101746559143066 6.580824375152588 2.336178302764893 0.000000000000000
9.102627754211426 -4.016824722290039 0.457024961709976 1.000000000000000
9.104725837707520 -1.242983460426331 0.800716996192932 0.000000000000000
9.106413841247559 8.150087356567383 1.161672830581665 0.000000000000000
9.107531547546387 10.099328994750977 0.128175079822540 0.000000000000000
9.109036445617676 -6.220521450042725 0.188684642314911 0.000000000000000
9.110572814941406 -1.955133438110352 0.885732889175415 0.000000000000000
9.113395690917969 -0.673403978347778 0.630994975566864 0.000000000000000
9.115135192871094 8.644202232360840 0.214887022972107 0.000000000000000
9.117272377014160 8.576375007629395 1.255996704101562 0.000000000000000
9.118513107299805 0.748397767543793 1.039181590080261 0.000000000000000
9.120591163635254 -2.886565208435059 0.642112910747528 0.000000000000000
9.121837615966797 7.630011558532715 0.752363026142120 0.000000000000000
9.124465942382812 0.960953652858734 1.568299293518066 0.000000000000000
9.124991416931152 10.399199485778809 0.955309808254242 0.000000000000000
9.130067825317383 -2.221282005310059 0.818773090839386 0.000000000000000
9.133002281188965 8.933082580566406 0.120409183204174 0.000000000000000
9.135101318359375 1.089620828628540 0.387196719646454 0.000000000000000
9.135357856750488 -1.415534257888794 0.602667748928070 0.000000000000000
9.136023521423340 1.313919544219971 0.637332499027252 0.000000000000000
9.137112617492676 5.913098812103271 0.667572855949402 0.000000000000000
9.137802124023438 5.372702121734619 0.405367851257324 0.000000000000000
9.138342857360840 -5.249687194824219 0.727710723876953 0.000000000000000
9.139842033386230 -0.685463547706604 0.438647657632828 0.000000000000000
9.143506050109863 3.104158878326416 0.555074036121368 0.000000000000000
9.145215988159180 1.247538089752197 0.335219502449036 0.000000000000000
9.145256042480469 7.986912727355957 1.379104971885681 0.000000000000000
9.146977424621582 -4.222428798675537 0.172333791851997 1.000000000000000
9.147819519042969 -1.044041514396667 2.467063188552856 0.000000000000000
9.147975921630859 8.907207489013672 0.316504687070847 0.000000000000000
9.149953842163086 9.639343261718750 1.509567022323608 0.000000000000000
9.150485038757324 -1.596027731895447 0.659299731254578 0.000000000000000
9.152790069580078 5.661933422088623 0.680889785289764 0.000000000000000
9.155657768249512 1.024708509445190 0.653918862342834 0.000000000000000
9.156412124633789 -2.127562999725342 0.721666336059570 0.000000000000000
9.156603813171387 -1.568785667419434 0.695259034633636 0.000000000000000
9.157005310058594 5.056612014770508 0.863678038120270 0.000000000000000
9.157064437866211 5.506036758422852 0.388064831495285 0.000000000000000
9.157256126403809 1.056939840316772 0.636505842208862 0.000000000000000
9.158679008483887 5.371649265289307 0.365212917327881 0.000000000000000
9.160201072692871 -1.932360887527466 0.889896571636200 0.000000000000000
9.160414695739746 9.618713378906250 1.096713185310364 0.000000000000000
9.161108970642090 3.038973808288574 1.649848103523254 0.000000000000000
9.162293434143066 1.711698651313782 1.593235611915588 0.000000000000000
9.162929534912109 -1.013377428054810 2.470169067382812 0.000000000000000
9.162972450256348 11.088344573974609 0.467127263545990 0.000000000000000
9.168894767761230 -0.975340425968170 0.761313796043396 0.000000000000000
9.173241615295410 -2.281364679336548 1.257897496223450 0.000000000000000
9.173718452453613 -2.437680482864380 0.728708505630493 0.000000000000000
9.174975395202637 3.622630834579468 1.461905002593994 0.000000000000000
9.175401687622070 -1.781190872192383 0.789792180061340 0.000000000000000
9.178834915161133 -2.852036476135254 0.737893879413605 0.000000000000000
9.180527687072754 6.257366657257080 2.310926675796509 0.000000000000000
9.183710098266602 -3.186608314514160 0.671224296092987 0.000000000000000
9.186159133911133 -0.679747700691223 0.618271470069885 0.000000000000000
9.188215255737305 9.614585876464844 0.815731883049011 0.000000000000000
9.190960884094238 5.700416564941406 0.892971992492676 0.000000000000000
9.193047523498535 9.331756591796875 0.803487360477448 0.000000000000000
9.195413589477539 -0.887199401855469 2.475345373153687 0.000000000000000
9.195962905883789 -0.017494497820735 0.979520201683044 0.000000000000000
9.197849273681641 -0.662698626518250 0.925324082374573 0.000000000000000
9.198291778564453 9.722838401794434 0.795179963111877 0.000000000000000
9.200201988220215 0.115458793938160 0.706357359886169 0.000000000000000
9.202474594116211 -1.494102001190186 0.410310506820679 0.000000000000000
9.204922676086426 -3.815814971923828 0.841995954513550 0.000000000000000
9.210026741027832 -0.028291216120124 0.635954737663269 0.000000000000000
9.213343620300293 -10.089191436767578 0.890730381011963 0.000000000000000
9.213783264160156 1.128699660301208 0.497856348752975 0.000000000000000
9.215641021728516 0.120961099863052 0.600846171379089 0.000000000000000
9.216499328613281 11.047090530395508 0.384271681308746 0.000000000000000
9.218928337097168 7.641750812530518 0.480939418077469 0.000000000000000
9.219756126403809 -0.989213287830353 0.658166944980621 0.000000000000000
9.221151351928711 -8.877121925354004 1.284351348876953 0.000000000000000
9.221786499023438 -4.929768085479736 1.187700510025024 0.000000000000000
9.223049163818359 0.020605964586139 0.405913680791855 0.000000000000000
9.223195075988770 -0.030907263979316 0.619075119495392 0.000000000000000
9.224100112915039 -8.279508590698242 0.569353997707367 0.000000000000000
9.225296020507812 10.855416297912598 0.243689149618149 0.000000000000000
9.226192474365234 7.017796039581299 2.411118507385254 0.000000000000000
9.229511260986328 -1.669300198554993 1.950888156890869 0.000000000000000
9.233739852905273 8.922530174255371 1.060177922248840 0.000000000000000
9.234443664550781 3.750848770141602 1.477151513099670 0.000000000000000
9.234496116638184 -0.555423378944397 0.620950281620026 0.000000000000000
9.234630584716797 5.568047523498535 1.025027632713318 0.000000000000000
9.234998703002930 -4.785128593444824 2.786963701248169 0.000000000000000
9.235944747924805 -4.854738712310791 0.841343462467194 0.000000000000000
9.237291336059570 -0.732830643653870 1.233098387718201 0.000000000000000
9.244060516357422 -1.629312038421631 0.793160140514374 0.000000000000000
9.246609687805176 5.684548854827881 1.232843160629272 0.000000000000000
9.249444007873535 5.438344001770020 0.906661272048950 0.000000000000000
9.249943733215332 0.665965259075165 0.336816489696503 0.000000000000000
9.250568389892578 3.587877511978149 2.658589363098145 0.000000000000000
9.255476951599121 4.539826393127441 0.851170539855957 0.000000000000000
9.257753372192383 -5.010242938995361 0.787801086902618 0.000000000000000
9.258077621459961 7.778920650482178 0.532190144062042 0.000000000000000
9.259602546691895 -2.226794242858887 0.786328852176666 0.000000000000000
9.260880470275879 -4.975634098052979 0.953047931194305 0.000000000000000
9.261348724365234 0.147429049015045 0.318598777055740 0.000000000000000
9.265357971191406 -0.565718233585358 1.375703692436218 0.000000000000000
9.268316268920898 7.611994266510010 0.666341483592987 0.000000000000000
9.269225120544434 -8.593017578125000 0.848381996154785 0.000000000000000
9.273553848266602 -3.395107269287109 0.895265519618988 0.000000000000000
9.273968696594238 11.080535888671875 0.274919569492340 0.000000000000000
9.276289939880371 -0.244366303086281 0.988417327404022 0.000000000000000
9.276653289794922 -5.539655208587646 0.766917407512665 0.000000000000000
9.278594970703125 0.036275204271078 0.497642129659653 1.000000000000000
9.278925895690918 8.851347923278809 1.286747574806213 0.000000000000000
9.284250259399414 -3.625005483627319 0.649767458438873 0.000000000000000
9.285757064819336 11.379792213439941 2.176731348037720 0.000000000000000
9.285926818847656 -2.647268056869507 1.182174563407898 0.000000000000000
9.289228439331055 10.823389053344727 0.161816492676735 0.000000000000000
9.292060852050781 0.105258256196976 0.713399529457092 0.000000000000000
9.294713020324707 -8.460799217224121 1.261188387870789 0.000000000000000
9.296029090881348 -0.389293998479843 1.056787133216858 0.000000000000000
9.296386718750000 -10.395982742309570 1.178457498550415 0.000000000000000
9.301742553710938 -0.035391658544540 0.750039875507355 0.000000000000000
9.302208900451660 8.821610450744629 0.022375110536814 0.000000000000000
9.305766105651855 -1.484212756156921 0.559852242469788 0.000000000000000
9.305890083312988 -8.325102806091309 0.862176060676575 0.000000000000000
9.307440757751465 -0.452278703451157 1.140856742858887 0.000000000000000
9.308670043945312 0.801475048065186 0.735318720340729 0.000000000000000
9.311947822570801 -4.969193458557129 0.728812932968140 0.000000000000000
9.312093734741211 -4.855421543121338 0.846808791160583 0.000000000000000
9.314642906188965 -4.155329704284668 0.763322234153748 0.000000000000000
9.315697669982910 8.619186401367188 0.119617506861687 0.000000000000000
9.319622039794922 1.076009869575500 0.521224141120911 0.000000000000000
9.322228431701660 -8.710778236389160 1.028773069381714 0.000000000000000
9.322234153747559 7.598155021667480 0.784040570259094 0.000000000000000
9.324063301086426 0.728256046772003 0.375633597373962 0.000000000000000
9.324078559875488 -4.883216857910156 1.288628578186035 0.000000000000000
9.326765060424805 0.120140343904495 0.482306092977524 0.000000000000000
9.327276229858398 -5.208779811859131 2.862538814544678 0.000000000000000
9.328919410705566 0.489560931921005 0.645047664642334 0.000000000000000
9.333857536315918 7.080679893493652 0.087926775217056 0.000000000000000
9.333988189697266 4.446882724761963 0.873655021190643 0.000000000000000
9.338256835937500 -1.640201091766357 1.160786509513855 0.000000000000000
9.344465255737305 8.571327209472656 0.777773797512054 0.000000000000000
9.346094131469727 6.209062576293945 0.407518893480301 0.000000000000000
9.346310615539551 1.146259069442749 0.468773126602173 0.000000000000000
9.346930503845215 -3.639330387115479 1.486533999443054 0.000000000000000
9.351140022277832 -4.648457050323486 0.781532049179077 0.000000000000000
9.351596832275391 -5.089978694915771 0.837943196296692 0.000000000000000
9.352091789245605 4.495632171630859 1.380837917327881 0.000000000000000
9.352208137512207 -1.757652640342712 0.829190075397491 0.000000000000000
9.355083465576172 0.112340398132801 1.946000814437866 0.000000000000000
9.355400085449219 -3.505659103393555 0.516594231128693 0.000000000000000
9.358900070190430 -3.882708311080933 1.240505456924438 0.000000000000000
9.363274574279785 -8.320705413818359 0.864931523799896 0.000000000000000
9.363612174987793 -0.346948295831680 1.147176027297974 0.000000000000000
9.364115715026855 0.990158557891846 0.820509314537048 0.000000000000000
9.366449356079102 -1.852228760719299 1.270560979843140 0.000000000000000
9.366717338562012 -5.167719841003418 1.423576951026917 0.000000000000000
9.367131233215332 -2.642863512039185 0.672050952911377 0.000000000000000
9.369418144226074 -0.071299299597740 0.646976470947266 0.000000000000000
9.370408058166504 -1.495696783065796 0.600324571132660 0.000000000000000
9.378397941589355 -4.642834663391113 1.188603520393372 0.000000000000000
9.378904342651367 3.964124679565430 0.923073351383209 0.000000000000000
9.379170417785645 -0.581213116645813 1.250510454177856 0.000000000000000
9.384795188903809 -4.797069549560547 0.585572779178619 0.000000000000000
9.386589050292969 -10.543424606323242 1.341847419738770 0.000000000000000
9.389027595520020 -10.426105499267578 0.968811452388763 0.000000000000000
9.390147209167480 -3.560982465744019 0.654711544513702 0.000000000000000
9.390645027160645 10.843919754028320 0.300481855869293 0.000000000000000
9.391215324401855 -3.957736253738403 0.135187849402428 1.000000000000000
9.392542839050293 -0.315193176269531 1.150578618049622 0.000000000000000
9.394212722778320 5.185455322265625 2.231913805007935 0.000000000000000
9.397959709167480 9.434774398803711 1.073781847953796 0.000000000000000
9.398589134216309 -10.409657478332520 1.049605369567871 0.000000000000000
9.400646209716797 -8.082692146301270 0.975717425346375 0.000000000000000
9.401046752929688 -1.082417845726013 1.074844241142273 0.000000000000000
9.402235031127930 0.462148904800415 0.650007486343384 0.000000000000000
9.403008460998535 11.064531326293945 0.471541464328766 0.000000000000000
9.403528213500977 -0.582722544670105 0.650558531284332 0.000000000000000
9.403922080993652 -4.809330940246582 0.892515718936920 0.000000000000000
9.404332160949707 -9.325222015380859 2.263823509216309 0.000000000000000
9.406492233276367 9.234375000000000 0.833938419818878 0.000000000000000
9.407794952392578 4.244619846343994 1.373450994491577 0.000000000000000
9.412528991699219 -8.302933692932129 1.060578107833862 0.000000000000000
9.413207054138184 9.463954925537109 0.921693503856659 0.000000000000000
9.413603782653809 -1.663599252700806 0.789291083812714 0.000000000000000
9.414481163024902 5.133365154266357 1.217946171760559 0.000000000000000
9.414519309997559 -1.316589951515198 0.583085477352142 0.000000000000000
9.419305801391602 9.311749458312988 1.410814166069031 0.000000000000000
9.421587944030762 -0.875838696956635 2.535391569137573 0.000000000000000
9.421592712402344 -3.616421937942505 0.638460457324982 0.000000000000000
9.424738883972168 11.438817977905273 1.972324132919312 0.000000000000000
9.427125930786133 0.987173557281494 0.636219501495361 0.000000000000000
9.428564071655273 -4.998067855834961 1.212077617645264 0.000000000000000
9.433495521545410 -5.497480392456055 1.336751699447632 0.000000000000000
9.436573028564453 -0.910467147827148 0.951282680034637 0.000000000000000
9.437952041625977 -2.287465810775757 0.846204459667206 0.000000000000000
9.438325881958008 -0.889523088932037 0.672893583774567 0.000000000000000
9.439094543457031 -1.254581809043884 0.584065079689026 1.000000000000000
9.440704345703125 8.315491676330566 0.287693172693253 0.000000000000000
9.441419601440430 -7.664081573486328 0.980549335479736 0.000000000000000
9.442830085754395 5.414088726043701 0.395323812961578 0.000000000000000
9.443550109863281 0.748363256454468 0.453371226787567 0.000000000000000
9.443739891052246 -1.154192090034485 1.626259565353394 0.000000000000000
9.443990707397461 -8.221697807312012 1.033846259117126 0.000000000000000
9.444895744323730 4.488608360290527 0.802804112434387 0.000000000000000
9.445525169372559 5.599877834320068 1.876971721649170 0.000000000000000
9.450771331787109 8.040966033935547 0.617738366127014 0.000000000000000
9.451251983642578 -2.290340185165405 0.727798044681549 1.000000000000000
9.451499938964844 9.583731651306152 0.799687206745148 0.000000000000000
9.454745292663574 7.191641807556152 0.705745875835419 0.000000000000000
9.455569267272949 9.707097053527832 0.674619615077972 0.000000000000000
9.456083297729492 0.649795591831207 1.009600639343262 0.000000000000000
9.456290245056152 3.771915197372437 1.508817315101624 0.000000000000000
9.458890914916992 8.504278182983398 0.071041516959667 0.000000000000000
9.462859153747559 -2.927615165710449 0.607574582099915 0.000000000000000
9.465201377868652 9.067927360534668 0.048043224960566 0.000000000000000
9.465251922607422 9.313828468322754 0.482286363840103 0.000000000000000
9.468955039978027 -2.136004924774170 0.576695263385773 0.000000000000000
9.469841003417969 -1.142454981803894 0.750696718692780 0.000000000000000
9.472634315490723 -0.934141457080841 0.638898372650146 0.000000000000000
9.473375320434570 9.336149215698242 0.969740450382233 0.000000000000000
9.475117683410645 9.675005912780762 1.118107557296753 0.000000000000000
9.475686073303223 9.532749176025391 2.297521352767944 0.000000000000000
9.485116958618164 9.259044647216797 0.813038110733032 0.000000000000000
9.485595703125000 -5.011347770690918 0.972549438476562 0.000000000000000
9.486662864685059 9.663140296936035 0.908923327922821 0.000000000000000
9.488327980041504 9.279335021972656 0.660697638988495 0.000000000000000
9.488515853881836 -2.264683961868286 0.850024044513702 0.000000000000000
9.489328384399414 0.414644896984100 0.326711565256119 0.000000000000000
9.489356994628906 9.488697052001953 1.275606751441956 0.000000000000000
9.489953994750977 9.281581878662109 0.507626891136169 0.000000000000000
9.491019248962402 -6.193964958190918 0.717005252838135 0.000000000000000
9.491065025329590 10.771566390991211 0.576613605022430 0.000000000000000
9.493701934814453 -2.892734766006470 0.838627934455872 0.000000000000000
9.495184898376465 10.455586433410645 0.350107908248901 0.000000000000000
9.495488166809082 1.805178046226501 0.816736102104187 0.000000000000000
9.495513916015625 -2.103539943695068 0.596554458141327 0.000000000000000
9.497011184692383 -5.761567115783691 0.788440942764282 0.000000000000000
9.497829437255859 10.076038360595703 0.689337134361267 0.000000000000000
9.498362541198730 -5.325002193450928 0.920133173465729 0.000000000000000
9.498701095581055 9.144633293151855 1.063172698020935 0.000000000000000
9.499566078186035 -1.060174942016602 1.085678458213806 0.000000000000000
9.500776290893555 -1.274594545364380 0.440322458744049 1.000000000000000
9.501418113708496 -10.787865638732910 0.494467496871948 0.000000000000000
9.501974105834961 0.607473433017731 0.712573409080505 0.000000000000000
9.504915237426758 7.765287876129150 0.918553948402405 0.000000000000000
9.504994392395020 0.244914501905441 1.409128665924072 0.000000000000000
9.506732940673828 -0.292447656393051 0.565071225166321 0.000000000000000
9.507932662963867 -7.716146945953369 0.751080691814423 0.000000000000000
9.510516166687012 -0.747157633304596 1.984285354614258 0.000000000000000
9.510740280151367 1.097739338874817 0.808989763259888 0.000000000000000
9.512020111083984 -2.750540256500244 0.721924364566803 0.000000000000000
9.514591217041016 -1.608589410781860 0.815388858318329 0.000000000000000
9.514837265014648 5.544883728027344 0.717944860458374 0.000000000000000
9.516229629516602 -0.546036660671234 0.830579042434692 0.000000000000000
9.519566535949707 -1.882853150367737 0.483092874288559 0.000000000000000
9.522144317626953 8.281560897827148 0.094711154699326 0.000000000000000
9.523027420043945 -1.394691824913025 0.914878785610199 0.000000000000000
9.524124145507812 -5.062148094177246 1.082273721694946 0.000000000000000
9.525382995605469 -4.916837692260742 0.885072529315948 0.000000000000000
9.526108741760254 9.983148574829102 0.686950504779816 0.000000000000000
9.527192115783691 4.336569309234619 1.392973661422729 0.000000000000000
9.530420303344727 9.191859245300293 1.118844270706177 0.000000000000000
9.531254768371582 -0.490504682064056 1.270033240318298 0.000000000000000
9.531921386718750 9.598030090332031 1.656113743782043 0.000000000000000
9.532232284545898 0.688465476036072 0.457386761903763 0.000000000000000
9.534215927124023 9.702769279479980 0.886827170848846 0.000000000000000
9.534446716308594 -0.423952549695969 1.270033240318298 0.000000000000000
9.534661293029785 9.325306892395020 0.715293645858765 0.000000000000000
9.535182952880859 9.342763900756836 1.163227319717407 0.000000000000000
9.536534309387207 11.521960258483887 2.216606855392456 0.000000000000000
9.539328575134277 8.254199981689453 0.579448938369751 0.000000000000000
9.544755935668945 9.737258911132812 0.154692217707634 0.000000000000000
9.547141075134277 11.202794075012207 0.166989535093307 0.000000000000000
9.548676490783691 0.811559140682220 0.569341242313385 0.000000000000000
9.548873901367188 -0.699214756488800 1.087484121322632 0.000000000000000
9.549427986145020 -2.297550916671753 0.716107130050659 0.000000000000000
9.549685478210449 6.034264087677002 0.845415890216827 0.000000000000000
9.551376342773438 8.112205505371094 1.423344731330872 0.000000000000000
9.557343482971191 -7.940578460693359 1.246811270713806 0.000000000000000
9.557540893554688 7.798829555511475 0.092579774558544 0.000000000000000
9.559492111206055 1.037147164344788 0.626868128776550 0.000000000000000
9.562684059143066 -10.829959869384766 0.108430013060570 0.000000000000000
9.563740730285645 4.662689685821533 0.509206056594849 0.000000000000000
9.564142227172852 -0.345853865146637 2.564379215240479 0.000000000000000
9.564521789550781 -0.435660660266876 1.087484121322632 0.000000000000000
9.565359115600586 -0.626276016235352 0.810000121593475 0.000000000000000
9.565435409545898 -0.995578706264496 0.719737887382507 0.000000000000000
9.567322731018066 6.191510200500488 0.523467957973480 0.000000000000000
9.572489738464355 10.606739997863770 0.107229240238667 0.000000000000000
9.574277877807617 5.672141075134277 0.940341055393219 0.000000000000000
9.576402664184570 0.156791135668755 0.347850114107132 0.000000000000000
9.577277183532715 -3.313060760498047 0.602078378200531 1.000000000000000
9.578025817871094 0.559148252010345 0.755090415477753 0.000000000000000
9.578497886657715 -5.963945865631104 1.281597137451172 0.000000000000000
9.579744338989258 0.596331655979156 1.090192675590515 0.000000000000000
9.580146789550781 -0.354970186948776 0.421918094158173 0.000000000000000
9.582670211791992 -3.014234542846680 1.007992267608643 0.000000000000000
9.582934379577637 8.879497528076172 2.717395782470703 0.000000000000000
