# This PCD file was generated using the MATLAB® pcwrite function
# from Computer Vision Toolbox®.
# .PCD v.7 - Point Cloud Data file format
VERSION .7
FIELDS x y z intensity
SIZE 8 8 8 8
TYPE F F F F
COUNT 1 1 1 1
WIDTH 644
HEIGHT 1
VIEWPOINT 0 0 0 1 0 0 0
POINTS 644
DATA ascii
23.467004776000977 -10.938855171203613 2.461126089096069 0.000000000000000
23.479946136474609 19.854755401611328 0.407898008823395 0.000000000000000
23.507940292358398 3.576654434204102 1.871406555175781 0.000000000000000
23.522424697875977 2.751179695129395 1.863874435424805 0.000000000000000
23.523237228393555 2.876636028289795 0.268862217664719 1.000000000000000
23.528097152709961 0.213950738310814 1.126066327095032 0.000000000000000
23.533922195434570 20.538627624511719 -1.325555801391602 0.000000000000000
23.560466766357422 -4.391348361968994 1.932485818862915 0.000000000000000
23.569356918334961 3.126402378082275 -1.237715244293213 0.000000000000000
23.570034027099609 -10.488140106201172 2.338741302490234 0.000000000000000
23.576126098632812 -8.868257522583008 3.733047485351562 0.000000000000000
23.581312179565430 3.803295135498047 2.165394306182861 0.000000000000000
23.588472366333008 -11.346787452697754 1.656006813049316 0.000000000000000
23.600540161132812 3.759503602981567 1.880821704864502 0.000000000000000
23.603872299194336 -7.369417190551758 1.946099519729614 0.000000000000000
23.604711532592773 9.887626647949219 -0.053599715232849 0.000000000000000
23.608219146728516 -18.245189666748047 2.175371646881104 0.000000000000000
23.612745285034180 8.624222755432129 3.345247507095337 0.000000000000000
23.614332199096680 15.947273254394531 1.199267029762268 0.000000000000000
23.627689361572266 -24.070589065551758 2.784900903701782 0.000000000000000
23.628175735473633 22.210857391357422 2.489549875259399 0.000000000000000
23.632772445678711 5.136356353759766 2.746924638748169 0.000000000000000
23.655330657958984 -5.357429027557373 1.487712860107422 0.000000000000000
23.658592224121094 1.989994049072266 1.410542845726013 0.000000000000000
23.663949966430664 14.309952735900879 2.229865550994873 0.000000000000000
23.678834915161133 23.971570968627930 2.456637144088745 0.000000000000000
23.679658889770508 -4.306739330291748 1.754782438278198 0.000000000000000
23.688058853149414 -7.712260246276855 3.691999197006226 0.000000000000000
23.694147109985352 -2.119648218154907 2.261268615722656 0.000000000000000
23.696317672729492 22.210342407226562 1.804425001144409 0.000000000000000
23.713794708251953 21.461656570434570 2.270166158676147 0.000000000000000
23.714620590209961 -4.600205898284912 2.743764400482178 0.000000000000000
23.715076446533203 -9.037889480590820 1.703461050987244 0.000000000000000
23.725006103515625 18.769195556640625 1.564241647720337 0.000000000000000
23.725265502929688 -14.076391220092773 2.117847442626953 0.000000000000000
23.728082656860352 -6.194855690002441 1.835316777229309 0.000000000000000
23.739267349243164 8.659634590148926 -0.732321500778198 0.000000000000000
23.739492416381836 -4.339026927947998 1.573285460472107 0.000000000000000
23.745952606201172 -0.622224390506744 1.823608398437500 0.000000000000000
23.746212005615234 -21.997701644897461 3.248019218444824 0.000000000000000
23.748535156250000 -9.581533432006836 2.434251308441162 0.000000000000000
23.751781463623047 -15.388072013854980 2.063389062881470 0.000000000000000
23.755167007446289 -4.707528114318848 1.905928611755371 0.000000000000000
23.755941390991211 -10.926009178161621 2.785192966461182 0.000000000000000
23.760482788085938 16.955078125000000 1.846686244010925 0.000000000000000
23.764925003051758 -9.044537544250488 3.383765220642090 0.000000000000000
23.780687332153320 -9.910634040832520 1.828650593757629 0.000000000000000
23.785734176635742 -10.203423500061035 2.346325159072876 0.000000000000000
23.820207595825195 -7.567198276519775 2.177839279174805 0.000000000000000
23.829738616943359 -5.891967773437500 2.225343465805054 0.000000000000000
23.830375671386719 1.830299139022827 1.742565989494324 0.000000000000000
23.830888748168945 -5.705455780029297 3.631599664688110 0.000000000000000
23.836994171142578 19.924472808837891 0.531436681747437 0.000000000000000
23.838144302368164 -0.409439921379089 2.077489137649536 0.000000000000000
23.856513977050781 -11.741961479187012 3.538364410400391 1.000000000000000
23.858587265014648 16.233766555786133 0.770786166191101 0.000000000000000
23.860685348510742 -0.234050631523132 2.921410083770752 0.000000000000000
23.865480422973633 -10.024283409118652 3.836254596710205 0.000000000000000
23.866842269897461 3.312649726867676 0.458452910184860 0.000000000000000
23.870922088623047 19.742136001586914 2.808223009109497 0.000000000000000
23.871957778930664 -11.646227836608887 2.244424581527710 0.000000000000000
23.880121231079102 -3.413103103637695 1.340227246284485 0.000000000000000
23.882459640502930 17.580648422241211 0.165629506111145 0.000000000000000
23.883132934570312 23.384817123413086 2.912582397460938 0.000000000000000
23.888120651245117 -3.581187009811401 3.214392423629761 0.000000000000000
23.889709472656250 -1.885195493698120 2.277923345565796 0.000000000000000
23.891977310180664 -5.979976177215576 2.341135978698730 1.000000000000000
23.896654129028320 17.392539978027344 0.846221148967743 0.000000000000000
23.916496276855469 16.807552337646484 1.286507248878479 0.000000000000000
23.924831390380859 -5.638838768005371 2.029511690139771 0.000000000000000
23.942352294921875 1.750659346580505 1.195102930068970 0.000000000000000
23.944219589233398 -12.837701797485352 2.462973356246948 0.000000000000000
23.957616806030273 -6.174451828002930 2.351734399795532 0.000000000000000
23.966939926147461 -1.126479148864746 1.841979146003723 0.000000000000000
23.970176696777344 0.301652371883392 1.516596078872681 0.000000000000000
23.970266342163086 18.982273101806641 2.664311408996582 0.000000000000000
23.986648559570312 -6.257442474365234 1.520528197288513 0.000000000000000
23.991283416748047 -15.656433105468750 2.088694095611572 0.000000000000000
23.996528625488281 -8.636443138122559 2.222285032272339 0.000000000000000
23.998445510864258 16.845127105712891 1.177627444267273 0.000000000000000
23.999971389770508 3.637790679931641 2.435714960098267 0.000000000000000
24.001127243041992 -14.173878669738770 1.978465676307678 0.000000000000000
24.003879547119141 -5.764594078063965 3.658574104309082 0.000000000000000
24.008716583251953 17.656816482543945 1.025098800659180 0.000000000000000
24.017744064331055 -1.152807235717773 2.179839849472046 0.000000000000000
24.029172897338867 15.749422073364258 1.209190845489502 0.000000000000000
24.037086486816406 17.005977630615234 0.447131991386414 0.000000000000000
24.037883758544922 2.622397422790527 0.971189379692078 0.000000000000000
24.049467086791992 -9.152830123901367 2.174370288848877 0.000000000000000
24.059505462646484 -7.419601440429688 2.681818008422852 0.000000000000000
24.072954177856445 -6.284893989562988 2.364982366561890 0.000000000000000
24.073020935058594 17.663339614868164 2.996021270751953 0.000000000000000
24.102329254150391 23.723344802856445 2.400440216064453 1.000000000000000
24.103837966918945 -11.693278312683105 1.694900393486023 0.000000000000000
24.117938995361328 -6.260231494903564 1.528364658355713 0.000000000000000
24.119125366210938 3.717462778091431 2.212342500686646 0.000000000000000
24.122179031372070 -11.537747383117676 2.541750431060791 0.000000000000000
24.131504058837891 -8.518879890441895 2.229924201965332 0.000000000000000
24.134845733642578 2.093696355819702 1.626043200492859 0.000000000000000
24.143192291259766 -11.579917907714844 1.900584459304810 0.000000000000000
24.146471023559570 -5.455814361572266 3.030780553817749 0.000000000000000
24.152421951293945 -17.877071380615234 2.724077463150024 0.000000000000000
24.161972045898438 -6.607247352600098 2.182700634002686 0.000000000000000
24.166351318359375 19.826456069946289 0.294614195823669 0.000000000000000
24.171142578125000 -4.483346939086914 1.413166046142578 0.000000000000000
24.174997329711914 -8.734050750732422 1.428096413612366 0.000000000000000
24.176284790039062 5.342935562133789 1.996462821960449 0.000000000000000
24.185312271118164 -4.159273147583008 1.978780627250671 0.000000000000000
24.192932128906250 -11.675530433654785 2.553484678268433 0.000000000000000
24.195127487182617 14.521815299987793 3.205121278762817 0.000000000000000
24.195213317871094 -14.151005744934082 2.097718238830566 0.000000000000000
24.199970245361328 -13.076141357421875 1.952410936355591 0.000000000000000
24.203310012817383 0.512057483196259 2.194646358489990 0.000000000000000
24.209028244018555 5.438868045806885 2.818249702453613 0.000000000000000
24.213516235351562 -5.909783363342285 3.316754817962646 0.000000000000000
24.214408874511719 1.763753771781921 1.348881006240845 0.000000000000000
24.231472015380859 2.901874303817749 0.745628356933594 0.000000000000000
24.231992721557617 22.396690368652344 2.342100143432617 0.000000000000000
24.233194351196289 17.106060028076172 3.631589651107788 0.000000000000000
24.241069793701172 2.921049118041992 0.417664885520935 1.000000000000000
24.242212295532227 -5.292748451232910 3.301980972290039 0.000000000000000
24.271760940551758 -4.086962223052979 0.846617460250854 0.000000000000000
24.276819229125977 21.038129806518555 -0.869256496429443 0.000000000000000
24.278556823730469 1.382467269897461 2.440107822418213 0.000000000000000
24.280941009521484 3.916134119033813 1.793176412582397 0.000000000000000
24.283592224121094 2.145472764968872 1.495304465293884 0.000000000000000
24.285881042480469 -9.632135391235352 1.854422211647034 0.000000000000000
24.293840408325195 2.927407741546631 2.606405258178711 0.000000000000000
24.297258377075195 -9.134675025939941 2.261869430541992 0.000000000000000
24.299209594726562 -8.570452690124512 2.335852146148682 0.000000000000000
24.316471099853516 -13.278698921203613 3.146887302398682 0.000000000000000
24.321256637573242 -18.110021591186523 2.269368648529053 0.000000000000000
24.324073791503906 2.045969724655151 2.320317268371582 0.000000000000000
24.334461212158203 -9.916838645935059 2.497842550277710 0.000000000000000
24.336517333984375 2.889900445938110 2.221732139587402 0.000000000000000
24.337329864501953 -8.380965232849121 2.446742534637451 0.000000000000000
24.352422714233398 -6.185631752014160 1.880393743515015 0.000000000000000
24.352666854858398 -9.179769515991211 2.267772436141968 0.000000000000000
24.353870391845703 16.889844894409180 3.366280317306519 0.000000000000000
24.358671188354492 -21.423727035522461 0.181178212165833 1.000000000000000
24.362607955932617 3.035386800765991 -1.419899582862854 0.000000000000000
24.366804122924805 -6.447997570037842 1.886364102363586 0.000000000000000
24.367227554321289 21.461452484130859 2.943650245666504 0.000000000000000
24.368114471435547 17.240175247192383 2.995222568511963 0.000000000000000
24.376132965087891 -7.369801521301270 3.117791175842285 0.000000000000000
24.377983093261719 -10.059826850891113 2.297981739044189 0.000000000000000
24.382286071777344 -6.013235569000244 2.188256263732910 0.000000000000000
24.398555755615234 22.515920639038086 2.677060604095459 0.000000000000000
24.399774551391602 -5.865074157714844 3.339443445205688 0.000000000000000
24.403799057006836 -10.097408294677734 2.129560232162476 0.000000000000000
24.403945922851562 -0.809988617897034 2.450092077255249 0.000000000000000
24.413179397583008 2.378247499465942 1.315549015998840 0.000000000000000
24.416992187500000 -5.561298847198486 1.922504544258118 0.000000000000000
24.418010711669922 21.683914184570312 2.845566511154175 0.000000000000000
24.422100067138672 -5.441534042358398 1.534731864929199 0.000000000000000
24.428016662597656 10.032612800598145 -0.460952967405319 0.000000000000000
24.448696136474609 -22.498271942138672 3.333882331848145 0.000000000000000
24.465059280395508 5.092312335968018 3.059459924697876 0.000000000000000
24.467813491821289 -2.921075105667114 2.798838376998901 0.000000000000000
24.487361907958984 -4.661469936370850 2.009965419769287 0.000000000000000
24.501262664794922 -4.191598415374756 1.237465500831604 0.000000000000000
24.506366729736328 0.335350871086121 2.070973157882690 0.000000000000000
24.506952285766602 -14.265677452087402 2.012733459472656 0.000000000000000
24.509069442749023 25.387865066528320 0.535865962505341 0.000000000000000
24.519166946411133 -11.517986297607422 3.316602468490601 0.000000000000000
24.528497695922852 16.076694488525391 1.685882449150085 0.000000000000000
24.529380798339844 -14.518773078918457 2.188268661499023 0.000000000000000
24.531391143798828 -15.276574134826660 2.162796020507812 0.000000000000000
24.535667419433594 3.429051160812378 2.158741712570190 0.000000000000000
24.536928176879883 -13.504907608032227 3.181195735931396 0.000000000000000
24.538278579711914 -7.640943527221680 2.171675920486450 0.000000000000000
24.540332794189453 -0.895993113517761 2.464069604873657 0.000000000000000
24.556388854980469 -6.662159442901611 2.710203647613525 0.000000000000000
24.562147140502930 15.492774009704590 1.669354081153870 0.000000000000000
24.575828552246094 -3.236341953277588 1.090937018394470 0.000000000000000
24.611495971679688 18.652734756469727 0.646869540214539 0.000000000000000
24.614797592163086 -4.303053855895996 1.340184807777405 0.000000000000000
24.627471923828125 2.935771226882935 0.710106849670410 0.000000000000000
24.629028320312500 -8.405515670776367 1.445847749710083 0.000000000000000
24.631202697753906 19.771461486816406 1.207849383354187 0.000000000000000
24.632040023803711 21.682477951049805 2.859455823898315 0.000000000000000
24.640861511230469 -6.167415618896484 1.900991797447205 0.000000000000000
24.646274566650391 -14.462195396423340 2.028309583663940 0.000000000000000
24.664888381958008 3.889777183532715 1.820517659187317 0.000000000000000
24.673397064208984 -9.211263656616211 1.767752766609192 0.000000000000000
24.675828933715820 -18.247158050537109 2.917240619659424 0.000000000000000
24.677125930786133 -8.594449043273926 1.955621361732483 0.000000000000000
24.677463531494141 -10.184419631958008 1.843387007713318 0.000000000000000
24.677927017211914 16.860673904418945 3.394720077514648 0.000000000000000
24.697977066040039 3.020293951034546 2.255679130554199 0.000000000000000
24.708557128906250 0.257035315036774 1.372845292091370 0.000000000000000
24.710384368896484 3.134362936019897 0.761019825935364 0.000000000000000
24.712247848510742 -4.583713054656982 1.057810783386230 0.000000000000000
24.712417602539062 7.238587379455566 3.816316843032837 0.000000000000000
24.717430114746094 2.904503822326660 0.473519116640091 0.000000000000000
24.723342895507812 -5.359379768371582 1.942100048065186 0.000000000000000
24.727388381958008 -5.189246177673340 2.086124897003174 0.000000000000000
24.734388351440430 -14.350712776184082 2.140108346939087 0.000000000000000
24.758672714233398 21.152633666992188 2.499959945678711 0.000000000000000
24.766828536987305 -10.230407714843750 1.902000546455383 0.000000000000000
24.772930145263672 -9.699427604675293 2.528880834579468 0.000000000000000
24.774675369262695 -8.954615592956543 3.225217103958130 0.000000000000000
24.781045913696289 -7.101638317108154 2.586674213409424 0.000000000000000
24.783754348754883 3.859321594238281 1.974031090736389 0.000000000000000
24.791910171508789 19.675216674804688 1.271214723587036 0.000000000000000
24.810955047607422 14.867294311523438 3.080913066864014 0.000000000000000
24.824024200439453 -1.993804693222046 1.671583175659180 0.000000000000000
24.834577560424805 17.349992752075195 2.325743675231934 0.000000000000000
24.834589004516602 -18.727119445800781 3.313083171844482 0.000000000000000
24.834907531738281 -3.288099765777588 1.681494832038879 0.000000000000000
24.846416473388672 -8.663136482238770 2.501249074935913 0.000000000000000
24.878786087036133 -6.520330429077148 1.379387617111206 0.000000000000000
24.896472930908203 -10.382779121398926 1.758561611175537 0.000000000000000
24.897956848144531 2.967134237289429 3.716041803359985 0.000000000000000
24.905311584472656 15.042227745056152 3.099130868911743 0.000000000000000
24.905847549438477 -7.292889595031738 1.992313623428345 0.000000000000000
24.914587020874023 14.325938224792480 2.883800268173218 0.000000000000000
24.914941787719727 -4.284751415252686 1.258547425270081 0.000000000000000
24.916133880615234 -16.760629653930664 2.722271919250488 0.000000000000000
24.921041488647461 -1.108992099761963 2.261457204818726 0.000000000000000
24.928155899047852 16.851001739501953 0.399143695831299 0.000000000000000
24.937118530273438 0.085308551788330 1.770027279853821 0.000000000000000
24.954994201660156 3.631203413009644 1.935976505279541 0.000000000000000
24.959741592407227 15.332540512084961 2.361998558044434 0.000000000000000
24.961160659790039 -9.184907913208008 3.256327152252197 0.000000000000000
24.961784362792969 -8.719977378845215 1.825752258300781 0.000000000000000
24.964384078979492 -12.505592346191406 2.531228780746460 1.000000000000000
24.982755661010742 -4.724153518676758 1.070089340209961 0.000000000000000
24.994840621948242 -27.693420410156250 3.080144643783569 0.000000000000000
24.998311996459961 -6.688457965850830 2.756383657455444 0.000000000000000
25.005641937255859 -7.882329940795898 2.215459823608398 0.000000000000000
25.018489837646484 -15.701373100280762 2.210559606552124 0.000000000000000
25.021974563598633 -4.573434829711914 1.266303896903992 0.000000000000000
25.024330139160156 -9.612957000732422 3.972886562347412 0.000000000000000
25.031021118164062 -11.125687599182129 2.386873006820679 0.000000000000000
25.033224105834961 21.594392776489258 2.410389900207520 0.000000000000000
25.034698486328125 -8.356092453002930 1.517156362533569 0.000000000000000
25.045986175537109 -19.889663696289062 2.786884069442749 0.000000000000000
25.047098159790039 -1.892972350120544 2.073946237564087 0.000000000000000
25.050773620605469 -8.734389305114746 1.985473752021790 0.000000000000000
25.052593231201172 -7.234848022460938 2.961802959442139 0.000000000000000
25.055244445800781 3.797743558883667 1.945467948913574 0.000000000000000
25.057592391967773 1.620846629142761 2.674615621566772 0.000000000000000
25.061016082763672 6.605498790740967 3.840945720672607 0.000000000000000
25.073392868041992 -6.021440505981445 2.246938467025757 0.000000000000000
25.077766418457031 -16.434818267822266 2.359735965728760 0.000000000000000
25.082910537719727 -5.568096637725830 3.419117450714111 0.000000000000000
25.083698272705078 -4.550340175628662 2.423274517059326 0.000000000000000
25.086256027221680 -1.926758408546448 3.080362081527710 0.000000000000000
25.098464965820312 3.054143667221069 0.141211763024330 0.000000000000000
25.106477737426758 -14.243923187255859 2.616818904876709 0.000000000000000
25.117927551269531 -13.466985702514648 2.077932357788086 0.000000000000000
25.118234634399414 -0.783228576183319 2.123513936996460 0.000000000000000
25.122594833374023 26.139106750488281 3.159116983413696 0.000000000000000
25.123027801513672 -2.601530313491821 1.890244960784912 0.000000000000000
25.132688522338867 -5.024743556976318 3.410675048828125 0.000000000000000
25.140106201171875 -19.670591354370117 0.975278019905090 1.000000000000000
25.142074584960938 -4.518789768218994 1.616103053092957 0.000000000000000
25.143295288085938 -5.125515937805176 3.141609430313110 0.000000000000000
25.147359848022461 1.942929625511169 2.397535085678101 0.000000000000000
25.153165817260742 -2.427291154861450 2.086453914642334 0.000000000000000
25.153728485107422 -25.154605865478516 3.569506645202637 0.000000000000000
25.161233901977539 -13.945950508117676 2.097420215606689 0.000000000000000
25.175559997558594 -5.211775302886963 3.421227931976318 0.000000000000000
25.176885604858398 2.574687004089355 0.773235201835632 0.000000000000000
25.178991317749023 2.897291660308838 -0.978091955184937 1.000000000000000
25.189950942993164 3.567567586898804 2.002276182174683 0.000000000000000
25.207914352416992 20.572263717651367 2.435048580169678 0.000000000000000
25.209764480590820 -9.768606185913086 2.712872743606567 0.000000000000000
25.210077285766602 -4.736611366271973 2.573894500732422 0.000000000000000
25.213375091552734 2.637580394744873 0.677121281623840 1.000000000000000
25.220663070678711 16.742605209350586 1.099444508552551 0.000000000000000
25.225101470947266 0.445594549179077 1.839423775672913 0.000000000000000
25.229635238647461 -12.091264724731445 3.723038673400879 0.000000000000000
25.250055313110352 2.934483051300049 -0.004436627030373 1.000000000000000
25.250949859619141 -2.793083667755127 1.901290297508240 0.000000000000000
25.261072158813477 2.846423625946045 -0.394906073808670 1.000000000000000
25.274438858032227 -2.470164060592651 1.704532623291016 0.000000000000000
25.275478363037109 -12.551255226135254 2.558314085006714 0.000000000000000
25.280874252319336 1.351018667221069 -0.393290668725967 1.000000000000000
25.290580749511719 18.578468322753906 -0.427235037088394 0.000000000000000
25.291700363159180 22.945997238159180 0.846523642539978 0.000000000000000
25.296030044555664 1.765330910682678 1.067229866981506 0.000000000000000
25.302661895751953 -19.409803390502930 3.904287099838257 0.000000000000000
25.303798675537109 -4.159075260162354 1.029942393302917 0.000000000000000
25.323194503784180 23.803388595581055 1.529562950134277 0.000000000000000
25.333372116088867 -6.447037220001221 1.502694249153137 0.000000000000000
25.335786819458008 -4.466927051544189 1.231234669685364 0.000000000000000
25.350135803222656 2.477565526962280 0.680325329303741 0.000000000000000
25.352661132812500 19.106006622314453 2.877923011779785 0.000000000000000
25.355527877807617 4.544835567474365 1.878108620643616 0.000000000000000
25.357187271118164 -12.255956649780273 3.747838020324707 0.000000000000000
25.370361328125000 1.681541800498962 1.461603045463562 0.000000000000000
25.373811721801758 -11.304578781127930 1.971668720245361 0.000000000000000
25.398437500000000 2.392805337905884 0.681393325328827 0.000000000000000
25.403474807739258 5.259880065917969 3.176121950149536 0.000000000000000
25.403640747070312 14.944789886474609 2.205783367156982 0.000000000000000
25.417156219482422 2.787233114242554 0.732086658477783 0.000000000000000
25.417200088500977 -16.611017227172852 2.565730094909668 0.000000000000000
25.428323745727539 19.583850860595703 1.350815296173096 0.000000000000000
25.435903549194336 17.730485916137695 1.901823520660400 0.000000000000000
25.443693161010742 1.767594099044800 -0.984261989593506 1.000000000000000
25.445642471313477 1.582178831100464 -0.249189957976341 1.000000000000000
25.448160171508789 2.768148899078369 -1.234051346778870 1.000000000000000
25.455213546752930 24.598121643066406 3.551934480667114 0.000000000000000
25.458505630493164 19.996490478515625 1.673922300338745 0.000000000000000
25.462591171264648 -12.094882965087891 2.055244922637939 0.000000000000000
25.479642868041992 3.560978889465332 1.826101779937744 0.000000000000000
25.492473602294922 -9.327912330627441 3.083236455917358 0.000000000000000
25.521663665771484 -3.285700321197510 2.174370288848877 0.000000000000000
25.522884368896484 -4.825366020202637 3.456579685211182 0.000000000000000
25.522964477539062 0.677707016468048 0.044561725109816 1.000000000000000
25.536668777465820 -13.234689712524414 3.827511787414551 0.000000000000000
25.543199539184570 -10.734225273132324 2.414304494857788 0.000000000000000
25.547779083251953 -7.196073532104492 2.037628173828125 0.000000000000000
25.551660537719727 -4.944528579711914 3.186329841613770 0.000000000000000
25.559980392456055 -8.087977409362793 2.109922170639038 0.000000000000000
25.572532653808594 2.795677900314331 -0.399628043174744 1.000000000000000
25.572803497314453 4.319812774658203 2.465290069580078 0.000000000000000
25.573818206787109 2.038761377334595 -1.039379239082336 1.000000000000000
25.578306198120117 3.153764963150024 -0.004498062655330 0.000000000000000
25.585262298583984 -4.653320789337158 1.094478368759155 0.000000000000000
25.586919784545898 -12.469624519348145 2.705648899078369 0.000000000000000
25.594764709472656 -8.910035133361816 2.361525058746338 0.000000000000000
25.596525192260742 3.232681751251221 1.930844068527222 0.000000000000000
25.607591629028320 -4.772904872894287 0.895981729030609 0.000000000000000
25.608371734619141 -13.541199684143066 3.085573673248291 0.000000000000000
25.625782012939453 -1.653102874755859 2.576689958572388 0.000000000000000
25.629308700561523 -8.947143554687500 1.508199453353882 0.000000000000000
25.630977630615234 19.043569564819336 2.328075408935547 0.000000000000000
25.654844284057617 0.177313327789307 1.821004033088684 0.000000000000000
25.666090011596680 20.766206741333008 2.876817464828491 0.000000000000000
25.667133331298828 15.073282241821289 -1.148691296577454 0.000000000000000
25.677137374877930 -10.271161079406738 1.643023848533630 0.000000000000000
25.677221298217773 17.560503005981445 3.808526992797852 0.000000000000000
25.679946899414062 -3.397245168685913 2.188852548599243 0.000000000000000
25.680177688598633 6.677692890167236 3.932424783706665 0.000000000000000
25.695386886596680 18.006816864013672 2.287645101547241 0.000000000000000
25.717189788818359 -19.476581573486328 1.606000423431396 0.000000000000000
25.724250793457031 -8.686165809631348 1.560772657394409 0.000000000000000
25.731836318969727 -22.493223190307617 2.755825996398926 0.000000000000000
25.741147994995117 9.778669357299805 0.048059362918139 0.000000000000000
25.742162704467773 14.718238830566406 2.276448726654053 0.000000000000000
25.743394851684570 -9.061639785766602 2.042491436004639 0.000000000000000
25.747920989990234 -5.810100555419922 3.512510061264038 0.000000000000000
25.761981964111328 3.241702079772949 1.492593646049500 0.000000000000000
25.763027191162109 -10.246104240417480 3.149144649505615 0.000000000000000
25.763866424560547 -6.438939094543457 2.524338722229004 0.000000000000000
25.765041351318359 19.050519943237305 3.215271711349487 0.000000000000000
25.766384124755859 -1.942811131477356 2.456205368041992 0.000000000000000
25.772802352905273 27.283519744873047 3.997730731964111 0.000000000000000
25.779031753540039 1.753370523452759 -1.146210908889771 1.000000000000000
25.791187286376953 19.863313674926758 2.373450040817261 0.000000000000000
25.792196273803711 -2.017207622528076 1.138598442077637 0.000000000000000
25.795850753784180 -5.246350288391113 3.503012418746948 0.000000000000000
25.799732208251953 18.814178466796875 1.036949753761292 0.000000000000000
25.808275222778320 2.790915012359619 0.693355083465576 0.000000000000000
25.812488555908203 1.293606281280518 -0.401491969823837 1.000000000000000
25.816183090209961 -12.000452995300293 2.856643438339233 0.000000000000000
25.817564010620117 -9.942501068115234 2.284270524978638 0.000000000000000
25.820381164550781 -9.608669281005859 3.372988939285278 0.000000000000000
25.830263137817383 -4.067084312438965 1.704696059226990 0.000000000000000
25.838798522949219 -2.216978311538696 2.259786128997803 0.000000000000000
25.839420318603516 -14.048350334167480 2.795736312866211 0.000000000000000
25.840528488159180 1.246188759803772 -1.147629141807556 1.000000000000000
25.843852996826172 -3.921896696090698 1.653733849525452 0.000000000000000
25.848798751831055 -2.886616468429565 1.745786428451538 0.000000000000000
25.861471176147461 -9.188009262084961 1.736319541931152 0.000000000000000
25.865238189697266 18.669689178466797 1.833718538284302 0.000000000000000
25.870618820190430 -14.339138031005859 2.681463003158569 0.000000000000000
25.880050659179688 19.618402481079102 0.742643415927887 0.000000000000000
25.880176544189453 1.817885637283325 -0.054336946457624 1.000000000000000
25.883996963500977 6.711418151855469 3.962917804718018 0.000000000000000
25.913101196289062 -4.632627010345459 3.503012418746948 0.000000000000000
25.913402557373047 19.813726425170898 0.871286273002625 0.000000000000000
25.913967132568359 -3.670109033584595 2.626211166381836 0.000000000000000
25.917633056640625 1.793246984481812 0.145098954439163 1.000000000000000
25.924474716186523 3.759324550628662 1.657269597053528 0.000000000000000
25.937221527099609 -8.181957244873047 3.089105129241943 0.000000000000000
25.948717117309570 17.429599761962891 3.136597156524658 0.000000000000000
25.961603164672852 -2.085172176361084 1.346739172935486 0.000000000000000
25.962728500366211 -4.454682350158691 2.225900411605835 0.000000000000000
25.968814849853516 -4.982944965362549 3.237369537353516 0.000000000000000
25.976385116577148 19.441314697265625 -0.628658235073090 1.000000000000000
25.982568740844727 2.707033157348633 -1.460513949394226 1.000000000000000
25.983068466186523 0.703988850116730 -1.103046894073486 1.000000000000000
25.983201980590820 19.446414947509766 1.865627288818359 0.000000000000000
25.990343093872070 -3.573636770248413 2.064729690551758 0.000000000000000
25.999246597290039 -28.420965194702148 3.105930089950562 0.000000000000000
26.004648208618164 1.466639995574951 -0.854932308197021 0.000000000000000
26.005117416381836 1.802946686744690 -0.154689714312553 1.000000000000000
26.010190963745117 -13.712457656860352 2.665572881698608 0.000000000000000
26.015174865722656 17.287067413330078 1.675230860710144 0.000000000000000
26.023086547851562 1.044279575347900 -0.454600274562836 1.000000000000000
26.035484313964844 -7.342274665832520 2.881365537643433 1.000000000000000
26.039657592773438 0.139979586005211 -0.454530477523804 1.000000000000000
26.044496536254883 1.077016830444336 -0.254780530929565 1.000000000000000
26.044713973999023 -4.804067134857178 1.216530680656433 0.000000000000000
26.051637649536133 1.665971398353577 -0.405530512332916 1.000000000000000
26.053297042846680 -12.264195442199707 2.099456071853638 0.000000000000000
26.082668304443359 -11.701231002807617 2.717383146286011 0.000000000000000
26.103809356689453 1.003716468811035 -0.506150126457214 0.000000000000000
26.105230331420898 21.456808090209961 3.212106466293335 0.000000000000000
26.107076644897461 0.386432349681854 -0.857031881809235 1.000000000000000
26.119153976440430 -1.882324814796448 2.162157297134399 0.000000000000000
26.121185302734375 0.354712694883347 0.145903185009956 1.000000000000000
26.124984741210938 23.158990859985352 -0.743495941162109 0.000000000000000
26.127244949340820 0.644017398357391 -1.310232043266296 1.000000000000000
26.132865905761719 1.088899493217468 -0.155211925506592 0.000000000000000
26.136024475097656 3.220215559005737 -1.421570420265198 0.000000000000000
26.143064498901367 2.749592065811157 0.197287395596504 1.000000000000000
26.143163681030273 20.329193115234375 1.521214008331299 0.000000000000000
26.147335052490234 -21.518962860107422 2.950777769088745 0.000000000000000
26.149545669555664 2.218360185623169 -0.810979962348938 0.000000000000000
26.153802871704102 -6.948236942291260 2.453222513198853 0.000000000000000
26.170808792114258 1.147677540779114 0.045720621943474 1.000000000000000
26.179063796997070 -11.416135787963867 2.192555189132690 0.000000000000000
26.181898117065430 -5.052265167236328 3.264590740203857 0.000000000000000
26.194963455200195 1.858834028244019 -0.407953619956970 1.000000000000000
26.198619842529297 -15.890830993652344 2.411519050598145 0.000000000000000
26.203594207763672 2.024536132812500 0.348633944988251 0.000000000000000
26.208496093750000 -7.682772159576416 2.202217340469360 0.000000000000000
26.213525772094727 -7.825551509857178 2.600420951843262 0.000000000000000
26.221248626708984 18.076677322387695 2.076289176940918 0.000000000000000
26.236860275268555 3.015293598175049 1.874529719352722 0.000000000000000
26.241682052612305 -8.378826141357422 3.128830432891846 0.000000000000000
26.244348526000977 18.218566894531250 2.144394636154175 0.000000000000000
26.251897811889648 -22.626464843750000 3.936430692672729 0.000000000000000
26.255193710327148 17.578975677490234 2.181754589080811 0.000000000000000
26.257753372192383 -4.221793651580811 1.477578282356262 0.000000000000000
26.263372421264648 24.515844345092773 3.605049848556519 0.000000000000000
26.266044616699219 3.502783536911011 3.927147150039673 0.000000000000000
26.267904281616211 -9.370114326477051 2.302702665328979 0.000000000000000
26.269628524780273 -3.626987934112549 2.660955667495728 0.000000000000000
26.271076202392578 0.193493187427521 -0.105462290346622 1.000000000000000
26.281429290771484 -7.178939819335938 2.469835042953491 0.000000000000000
26.283454895019531 -8.306815147399902 1.743896126747131 0.000000000000000
26.283969879150391 3.226336717605591 -1.276618123054504 0.000000000000000
26.299991607666016 -19.505046844482422 0.182876065373421 1.000000000000000
26.308351516723633 -7.692103385925293 1.786925435066223 0.000000000000000
26.311994552612305 1.628669261932373 -0.713344335556030 1.000000000000000
26.319080352783203 -3.338407516479492 2.087953567504883 0.000000000000000
26.321733474731445 2.959904193878174 2.308051347732544 0.000000000000000
26.328252792358398 -3.397016048431396 0.964137136936188 0.000000000000000
26.374319076538086 0.281725853681564 0.096672877669334 1.000000000000000
26.397649765014648 -14.161414146423340 3.667560577392578 0.000000000000000
26.401988983154297 16.386507034301758 2.205595731735229 0.000000000000000
26.405345916748047 4.785335063934326 3.048025369644165 0.000000000000000
26.409029006958008 -1.251877903938293 1.061887264251709 0.000000000000000
26.410028457641602 23.247560501098633 -1.290151596069336 0.000000000000000
26.426219940185547 -14.709249496459961 3.034759521484375 0.000000000000000
26.426382064819336 4.789147377014160 2.165567398071289 0.000000000000000
26.430164337158203 0.174371585249901 -0.258338153362274 1.000000000000000
26.431718826293945 -6.802249431610107 2.594364643096924 0.000000000000000
26.433195114135742 -4.685148715972900 2.693703413009644 0.000000000000000
26.438848495483398 -7.278004169464111 2.751610994338989 0.000000000000000
26.440658569335938 -6.851806163787842 1.780680179595947 0.000000000000000
26.451887130737305 -1.717046976089478 2.309787511825562 0.000000000000000
26.453456878662109 17.988555908203125 1.284859538078308 0.000000000000000
26.459554672241211 -3.375935554504395 2.676530838012695 0.000000000000000
26.464744567871094 1.110130429267883 -0.920353293418884 1.000000000000000
26.479007720947266 23.298439025878906 -1.361091852188110 0.000000000000000
26.481761932373047 21.336833953857422 -0.005935516208410 0.000000000000000
26.481975555419922 21.206958770751953 -0.592195093631744 0.000000000000000
26.483459472656250 -13.059048652648926 2.380966663360596 0.000000000000000
26.485332489013672 20.470939636230469 1.087064027786255 0.000000000000000
26.495384216308594 -0.089711472392082 -0.157229512929916 1.000000000000000
26.509435653686523 -8.110817909240723 2.074731826782227 0.000000000000000
26.516250610351562 -13.190480232238770 2.388039588928223 0.000000000000000
26.516435623168945 13.653357505798340 3.968919754028320 0.000000000000000
26.519729614257812 -1.813513755798340 1.989354491233826 0.000000000000000
26.526670455932617 -12.307081222534180 3.114806652069092 0.000000000000000
26.529773712158203 -1.843975663185120 1.426302790641785 0.000000000000000
26.538389205932617 -10.723282814025879 2.720789670944214 0.000000000000000
26.546653747558594 -21.584655761718750 2.981334209442139 0.000000000000000
26.556650161743164 -10.913882255554199 2.881004571914673 0.000000000000000
26.560630798339844 3.447741508483887 3.969368457794189 0.000000000000000
26.563659667968750 1.344730019569397 -0.873041391372681 0.000000000000000
26.568912506103516 -3.639960765838623 2.058754682540894 0.000000000000000
26.576187133789062 -1.686468482017517 2.044364213943481 0.000000000000000
26.578123092651367 19.083549499511719 3.283163309097290 0.000000000000000
26.586095809936523 0.276566743850708 -0.157775446772575 0.000000000000000
26.594820022583008 -3.940936565399170 1.286687016487122 0.000000000000000
26.598400115966797 -3.284252166748047 2.854674577713013 0.000000000000000
26.606821060180664 2.495406389236450 0.149254202842712 0.000000000000000
26.611522674560547 2.316038608551025 -1.030845046043396 1.000000000000000
26.614278793334961 -11.295994758605957 1.662008166313171 0.000000000000000
26.616983413696289 20.572692871093750 2.128285646438599 0.000000000000000
26.620639801025391 -9.271327972412109 2.679531335830688 0.000000000000000
26.629682540893555 -1.290286540985107 1.892371535301208 0.000000000000000
26.632009506225586 -10.426783561706543 2.869822502136230 0.000000000000000
26.637266159057617 -11.771765708923340 1.954734325408936 0.000000000000000
26.638532638549805 -11.111466407775879 1.937322020530701 0.000000000000000
26.641260147094727 -6.792751789093018 1.527503967285156 0.000000000000000
26.649242401123047 2.409342765808105 -0.569843232631683 1.000000000000000
26.659751892089844 -4.121429920196533 2.175212144851685 0.000000000000000
26.683120727539062 2.178740262985229 -0.467305630445480 1.000000000000000
26.687639236450195 -17.906991958618164 3.224856376647949 0.000000000000000
26.712348937988281 1.291497707366943 -0.672280371189117 1.000000000000000
26.713006973266602 0.395401209592819 -0.466328293085098 1.000000000000000
26.716251373291016 19.283956527709961 2.986987352371216 0.000000000000000
26.743244171142578 -18.622364044189453 0.494869798421860 1.000000000000000
26.748582839965820 20.019243240356445 1.406153202056885 0.000000000000000
26.752475738525391 1.858516335487366 -1.447660207748413 1.000000000000000
26.756372451782227 -15.035860061645508 2.674381017684937 0.000000000000000
26.760437011718750 -18.343154907226562 2.553373098373413 0.000000000000000
26.760532379150391 2.398675918579102 -1.140188336372375 1.000000000000000
26.763505935668945 18.358297348022461 1.928168892860413 0.000000000000000
26.766288757324219 -3.430739879608154 3.999274730682373 0.000000000000000
26.780872344970703 -7.101819992065430 2.073537826538086 0.000000000000000
26.781972885131836 1.787310004234314 -0.881046116352081 1.000000000000000
26.782163619995117 2.122861862182617 -0.726977169513702 1.000000000000000
26.785758972167969 19.920433044433594 1.983205318450928 0.000000000000000
26.789993286132812 -0.001862277509645 -0.982344508171082 0.000000000000000
26.798480987548828 1.857950806617737 0.253183484077454 0.000000000000000
26.799177169799805 -10.152764320373535 3.052527427673340 0.000000000000000
26.799230575561523 2.143975496292114 -1.451325774192810 1.000000000000000
26.799795150756836 1.080145478248596 -0.880389988422394 1.000000000000000
26.822425842285156 -13.868994712829590 2.870304346084595 0.000000000000000
26.828414916992188 -14.747825622558594 2.232089996337891 0.000000000000000
26.830528259277344 -8.458602905273438 1.834025144577026 0.000000000000000
26.834867477416992 -4.985176086425781 1.096240162849426 0.000000000000000
26.838287353515625 -3.519508838653564 2.716067790985107 0.000000000000000
26.848358154296875 1.716920614242554 -1.245193958282471 1.000000000000000
26.853998184204102 -4.125548839569092 2.367428064346313 0.000000000000000
26.854343414306641 28.564992904663086 1.725484967231750 0.000000000000000
26.857273101806641 -9.877293586730957 2.141600847244263 0.000000000000000
26.858406066894531 -1.341320157051086 2.864418745040894 0.000000000000000
26.858531951904297 2.171371459960938 -1.350888848304749 1.000000000000000
26.860038757324219 1.764266610145569 -1.090546607971191 1.000000000000000
26.882061004638672 0.650418102741241 -0.986008882522583 1.000000000000000
26.884117126464844 24.948183059692383 3.906641960144043 0.000000000000000
26.892467498779297 -18.455741882324219 0.495294958353043 1.000000000000000
26.896497726440430 0.600501298904419 -1.245193958282471 1.000000000000000
26.899606704711914 2.471253633499146 0.410205006599426 0.000000000000000
26.899890899658203 -1.385282993316650 1.548376441001892 0.000000000000000
26.918046951293945 0.431315749883652 -0.883670628070831 1.000000000000000
26.924583435058594 21.008577346801758 1.305981397628784 0.000000000000000
26.926731109619141 -18.771772384643555 2.456542253494263 0.000000000000000
26.930036544799805 -5.793951988220215 2.274396181106567 0.000000000000000
26.939491271972656 1.255835771560669 -0.418950855731964 1.000000000000000
26.945280075073242 -4.215663433074951 2.592472076416016 0.000000000000000
26.947790145874023 -9.675775527954102 2.873017311096191 0.000000000000000
26.971282958984375 -18.143091201782227 2.369959831237793 0.000000000000000
26.983057022094727 -1.820122838020325 2.128438711166382 0.000000000000000
26.984575271606445 2.621142625808716 0.151421189308167 1.000000000000000
26.995080947875977 -9.348413467407227 2.193167686462402 1.000000000000000
27.004106521606445 2.346415281295776 -0.577252626419067 1.000000000000000
27.006212234497070 26.279825210571289 1.151301980018616 0.000000000000000
27.007797241210938 -18.556394577026367 3.114827156066895 0.000000000000000
27.012746810913086 -25.082466125488281 2.687583208084106 0.000000000000000
27.013635635375977 -4.359772205352783 2.206396818161011 0.000000000000000
27.018617630004883 -0.439527690410614 2.568625450134277 0.000000000000000
27.019035339355469 25.322923660278320 1.986069917678833 0.000000000000000
27.026794433593750 -6.382887840270996 2.024704217910767 0.000000000000000
27.030059814453125 27.943561553955078 1.636250972747803 0.000000000000000
27.032632827758789 3.716954708099365 2.738032817840576 0.000000000000000
27.040376663208008 -6.049691677093506 2.780365228652954 0.000000000000000
27.042999267578125 2.212889432907104 -0.890625536441803 1.000000000000000
27.047206878662109 -1.200771331787109 3.314657926559448 0.000000000000000
27.047512054443359 2.389667272567749 0.412330776453018 0.000000000000000
27.066308975219727 1.127794027328491 -0.993337631225586 1.000000000000000
27.072713851928711 6.050982952117920 2.783560037612915 0.000000000000000
27.086927413940430 -18.750280380249023 3.131482362747192 0.000000000000000
27.088121414184570 -9.518513679504395 2.881004571914673 0.000000000000000
27.101869583129883 1.168604373931885 -0.838284432888031 1.000000000000000
27.102338790893555 1.713690876960754 -1.309169173240662 1.000000000000000
27.106653213500977 -1.263618826866150 2.135656833648682 0.000000000000000
27.106996536254883 26.907155990600586 3.153543949127197 0.000000000000000
27.115350723266602 1.975055575370789 -1.415304064750671 1.000000000000000
27.125972747802734 -1.085223793983459 2.724055051803589 0.000000000000000
27.133115768432617 0.187530398368835 -0.994949936866760 0.000000000000000
27.133422851562500 -9.545074462890625 2.208170413970947 0.000000000000000
27.134338378906250 2.115979909896851 -0.422802984714508 1.000000000000000
27.138313293457031 -9.793943405151367 1.602947235107422 0.000000000000000
27.144563674926758 1.865298628807068 -0.788520216941833 1.000000000000000
27.154390335083008 3.600982189178467 -1.478709220886230 1.000000000000000
27.164400100708008 20.055150985717773 2.526993513107300 0.000000000000000
27.172756195068359 1.206345438957214 -1.154264688491821 1.000000000000000
27.178411483764648 2.198181629180908 -0.214160189032555 1.000000000000000
27.180717468261719 -10.297309875488281 1.838856935501099 0.000000000000000
27.194496154785156 3.447033405303955 -1.479787349700928 0.000000000000000
27.198234558105469 -6.154831409454346 2.140810728073120 0.000000000000000
27.204978942871094 2.554382562637329 -0.634397506713867 1.000000000000000
27.209243774414062 -10.199648857116699 2.286925792694092 0.000000000000000
27.215932846069336 2.552533864974976 -0.687157392501831 1.000000000000000
27.230924606323242 2.557774305343628 0.257782697677612 1.000000000000000
27.236480712890625 -11.510182380676270 3.149547338485718 0.000000000000000
27.252124786376953 2.184043645858765 -0.949939072132111 1.000000000000000
27.290897369384766 -11.933311462402344 2.700242280960083 0.000000000000000
27.300703048706055 -14.029453277587891 2.237907409667969 0.000000000000000
27.306285858154297 2.224838972091675 0.784403085708618 0.000000000000000
27.317638397216797 -6.978920936584473 1.729420185089111 0.000000000000000
27.319961547851562 -7.283577442169189 3.211441278457642 0.000000000000000
27.321666717529297 -1.354416728019714 2.205753803253174 0.000000000000000
27.322275161743164 4.853055953979492 2.237581491470337 0.000000000000000
27.325937271118164 3.175735473632812 2.760396957397461 0.000000000000000
27.332843780517578 2.395166635513306 0.363967269659042 0.000000000000000
27.335195541381836 -11.440726280212402 2.274917602539062 0.000000000000000
27.339315414428711 0.266746610403061 1.677013635635376 0.000000000000000
27.348787307739258 -6.054066181182861 3.429375648498535 0.000000000000000
27.356378555297852 -1.941254138946533 1.735056757926941 0.000000000000000
27.356697082519531 1.729766249656677 3.355975866317749 0.000000000000000
27.360641479492188 -9.765291213989258 3.556731700897217 0.000000000000000
27.374195098876953 -11.841335296630859 2.835102319717407 0.000000000000000
27.378555297851562 -8.309889793395996 1.589633703231812 0.000000000000000
27.393661499023438 -18.288648605346680 1.893403768539429 0.000000000000000
27.422292709350586 2.486940145492554 -0.533503293991089 1.000000000000000
27.443408966064453 2.866986036300659 3.671857595443726 0.000000000000000
27.450313568115234 -7.096066474914551 2.012450218200684 0.000000000000000
27.464378356933594 -7.219491004943848 3.225435495376587 0.000000000000000
27.481054306030273 -9.316793441772461 3.295857906341553 0.000000000000000
27.483032226562500 -1.235496520996094 1.952694058418274 0.000000000000000
27.483896255493164 2.488655805587769 1.480072975158691 0.000000000000000
27.501745223999023 -1.170936942100525 2.219577789306641 0.000000000000000
27.501941680908203 -14.646445274353027 2.512456893920898 0.000000000000000
27.505214691162109 19.980779647827148 1.365444183349609 1.000000000000000
27.510885238647461 2.491099834442139 -1.066013813018799 1.000000000000000
27.513509750366211 20.130962371826172 0.124953433871269 0.000000000000000
27.513885498046875 2.507835149765015 -0.057863906025887 1.000000000000000
27.515893936157227 27.122997283935547 3.190079212188721 0.000000000000000
27.540590286254883 2.447278976440430 -0.907553613185883 0.000000000000000
27.561109542846680 2.499529361724854 0.313967555761337 1.000000000000000
27.580425262451172 2.206472158432007 -0.642381966114044 0.000000000000000
27.592370986938477 -10.222607612609863 1.861587047576904 0.000000000000000
27.599819183349609 -9.165723800659180 2.918145418167114 0.000000000000000
27.603099822998047 18.401329040527344 2.546805620193481 0.000000000000000
27.603166580200195 -8.264545440673828 2.612124204635620 0.000000000000000
27.606418609619141 -11.238439559936523 2.990829467773438 0.000000000000000
27.611806869506836 1.910467267036438 2.285257816314697 0.000000000000000
27.616474151611328 -6.493151187896729 2.846659421920776 0.000000000000000
27.618844985961914 -4.345740318298340 1.445679068565369 0.000000000000000
27.627222061157227 -10.958475112915039 2.052249193191528 0.000000000000000
27.630384445190430 2.505811929702759 -0.111371263861656 0.000000000000000
27.632808685302734 4.813750267028809 2.261693239212036 0.000000000000000
27.635707855224609 0.139395579695702 1.695135474205017 0.000000000000000
27.649486541748047 2.345605611801147 0.421380281448364 0.000000000000000
27.650457382202148 -6.854064941406250 3.487706661224365 0.000000000000000
27.659267425537109 -10.351831436157227 1.868406057357788 0.000000000000000
27.681137084960938 -11.921954154968262 2.313802480697632 0.000000000000000
27.701637268066406 -4.453945159912109 1.991493105888367 0.000000000000000
27.703271865844727 -9.570381164550781 1.910789847373962 0.000000000000000
27.717947006225586 -5.108201026916504 1.240428686141968 0.000000000000000
27.739700317382812 -1.318838000297546 1.649903416633606 0.000000000000000
