# This PCD file was generated using the MATLAB® pcwrite function
# from Computer Vision Toolbox®.
# .PCD v.7 - Point Cloud Data file format
VERSION .7
FIELDS x y z intensity
SIZE 8 8 8 8
TYPE F F F F
COUNT 1 1 1 1
WIDTH 657
HEIGHT 1
VIEWPOINT 0 0 0 1 0 0 0
POINTS 657
DATA ascii
3.572454452514648 4.269880771636963 0.951628088951111 0.000000000000000
3.572870016098022 -2.204754829406738 0.338530659675598 0.000000000000000
3.573990583419800 6.779251575469971 0.558749675750732 0.000000000000000
3.575931310653687 -0.037947934120893 0.611279547214508 0.000000000000000
3.578864574432373 -0.061345018446445 0.744514286518097 0.000000000000000
3.582125186920166 -12.392700195312500 0.642201244831085 0.000000000000000
3.585875511169434 2.208549976348877 1.128451108932495 0.000000000000000
3.586694240570068 -3.968358755111694 0.400318771600723 0.000000000000000
3.590374708175659 -0.074078813195229 0.746958017349243 0.000000000000000
3.593194484710693 6.294183254241943 0.727240025997162 0.000000000000000
3.594435214996338 1.603204131126404 0.818639874458313 0.000000000000000
3.596822023391724 -10.154856681823730 1.433602213859558 0.000000000000000
3.597355365753174 -1.589923739433289 0.582885503768921 0.000000000000000
3.597621679306030 -10.562501907348633 2.989877939224243 0.000000000000000
3.598670005798340 -5.734103202819824 1.157185196876526 0.000000000000000
3.599787235260010 -13.407441139221191 1.392978191375732 0.000000000000000
3.600668430328369 -3.445445299148560 0.451785862445831 0.000000000000000
3.601227045059204 -14.201682090759277 3.925767660140991 0.000000000000000
3.603301048278809 -0.122744791209698 0.276786774396896 0.000000000000000
3.606649160385132 0.694662630558014 0.332970887422562 0.000000000000000
3.606898069381714 -3.427367448806763 0.451063603162766 0.000000000000000
3.607353448867798 -13.761178016662598 1.092144250869751 0.000000000000000
3.609346151351929 -0.494162231683731 0.307833731174469 0.000000000000000
3.610318899154663 2.697522163391113 0.667914092540741 0.000000000000000
3.613539457321167 -1.617776751518250 0.319241136312485 0.000000000000000
3.615222692489624 -10.411923408508301 1.349390029907227 0.000000000000000
3.621830224990845 4.676985740661621 0.876673936843872 0.000000000000000
3.624246597290039 -1.961912274360657 0.236905038356781 0.000000000000000
3.624637842178345 -0.686323940753937 0.767322182655334 0.000000000000000
3.624992132186890 -10.580504417419434 0.729134261608124 0.000000000000000
3.627240419387817 3.824719429016113 1.096407294273376 0.000000000000000
3.627635240554810 2.373675584793091 0.901725709438324 0.000000000000000
3.630501031875610 -8.254068374633789 1.541340947151184 1.000000000000000
3.633623838424683 -2.484456062316895 0.915573418140411 0.000000000000000
3.634937763214111 -11.293731689453125 0.750595152378082 0.000000000000000
3.635207414627075 -3.941920757293701 0.916582226753235 0.000000000000000
3.638092279434204 -7.102730274200439 1.364090204238892 1.000000000000000
3.640070438385010 2.662960052490234 0.129131153225899 0.000000000000000
3.646395206451416 -13.345442771911621 0.901919841766357 0.000000000000000
3.646783113479614 -8.476693153381348 0.051538608968258 1.000000000000000
3.647195577621460 1.812706112861633 0.847149789333344 0.000000000000000
3.654019355773926 -9.150518417358398 2.049450635910034 0.000000000000000
3.654428958892822 -3.373627424240112 1.034500241279602 0.000000000000000
3.654695749282837 -3.077648639678955 0.366803705692291 0.000000000000000
3.658218860626221 -5.441541194915771 1.120791435241699 0.000000000000000
3.658896446228027 2.043380260467529 0.379919052124023 0.000000000000000
3.663414239883423 2.798663854598999 0.131993100047112 0.000000000000000
3.663484573364258 6.795022487640381 2.068481922149658 0.000000000000000
3.663525342941284 4.066048145294189 0.582967042922974 0.000000000000000
3.665009260177612 -7.604454040527344 1.442943096160889 0.000000000000000
3.666167020797729 2.095726490020752 0.096568331122398 1.000000000000000
3.667602300643921 6.416457653045654 0.702530026435852 1.000000000000000
3.667615413665771 3.840356349945068 1.104552984237671 0.000000000000000
3.668363094329834 -0.707876265048981 0.777096986770630 0.000000000000000
3.675836801528931 -8.439339637756348 0.802106022834778 1.000000000000000
3.680647134780884 6.033658027648926 0.066613346338272 1.000000000000000
3.681729555130005 -2.832039117813110 0.421088993549347 0.000000000000000
3.681888103485107 3.559162855148315 0.393135160207748 0.000000000000000
3.682609319686890 -8.140158653259277 1.527187824249268 0.000000000000000
3.682721376419067 -4.019267082214355 1.133877396583557 0.000000000000000
3.682911634445190 -2.706753253936768 0.113299362361431 1.000000000000000
3.682923555374146 2.922297477722168 0.370013117790222 0.000000000000000
3.684303998947144 -12.079459190368652 2.158685922622681 0.000000000000000
3.687422037124634 -13.927788734436035 1.445694088935852 0.000000000000000
3.688926696777344 0.722134411334991 0.557083725929260 0.000000000000000
3.690667867660522 6.568368434906006 2.018788576126099 0.000000000000000
3.691298723220825 -3.174008846282959 1.304448127746582 0.000000000000000
3.698657512664795 2.133872985839844 0.729896068572998 0.000000000000000
3.699769496917725 -11.960892677307129 2.604171037673950 0.000000000000000
3.701288938522339 2.098696947097778 0.097299911081791 0.000000000000000
3.704741477966309 -3.164259910583496 1.305483341217041 0.000000000000000
3.709841489791870 -1.177472472190857 0.246241673827171 0.000000000000000
3.710912704467773 -2.695541858673096 0.113695867359638 1.000000000000000
3.714224100112915 2.091320037841797 0.386419564485550 0.000000000000000
3.715641975402832 -8.470892906188965 0.638710141181946 1.000000000000000
3.720126390457153 -13.664998054504395 1.087245345115662 0.000000000000000
3.721082687377930 6.823815822601318 0.551682114601135 1.000000000000000
3.723897218704224 -11.710126876831055 0.021446594968438 0.000000000000000
3.724041700363159 4.093817710876465 0.328794568777084 0.000000000000000
3.726969242095947 -4.098471164703369 0.946910381317139 0.000000000000000
3.729058027267456 2.485280990600586 0.154142960906029 0.000000000000000
3.731002092361450 3.158752441406250 0.555253386497498 0.000000000000000
3.731691598892212 -0.273907601833344 0.639585733413696 0.000000000000000
3.733887195587158 -14.336660385131836 3.081507205963135 0.000000000000000
3.735917329788208 -2.853019714355469 0.426144957542419 0.000000000000000
3.736925601959229 -13.639318466186523 0.921956717967987 0.000000000000000
3.737028837203979 -9.126331329345703 0.661936223506927 0.000000000000000
3.737522363662720 2.157686471939087 0.897652864456177 0.000000000000000
3.738206863403320 0.639118015766144 0.343805074691772 0.000000000000000
3.743035316467285 2.801066398620605 0.214746683835983 0.000000000000000
3.748350620269775 1.846694707870483 0.869143068790436 0.000000000000000
3.752724409103394 0.710984230041504 0.467620044946671 0.000000000000000
3.754888772964478 3.550948381423950 0.406731963157654 0.000000000000000
3.755198240280151 -4.187883377075195 0.509929358959198 0.000000000000000
3.757098674774170 3.985823154449463 0.399356216192245 0.000000000000000
3.758248805999756 2.153068065643311 0.900911211967468 0.000000000000000
3.758440732955933 -0.090671688318253 0.781984388828278 0.000000000000000
3.761424779891968 -8.507370948791504 0.750039875507355 1.000000000000000
3.764745712280273 -0.528028428554535 0.331259369850159 0.000000000000000
3.766436576843262 -4.466612815856934 0.586264848709106 0.000000000000000
3.767292261123657 -10.265727996826172 0.991328716278076 0.000000000000000
3.767313003540039 -8.484627723693848 0.105321392416954 1.000000000000000
3.781636476516724 -10.304816246032715 1.876297831535339 0.000000000000000
3.783195495605469 -4.957352638244629 1.670935869216919 0.000000000000000
3.787329673767090 -4.224606513977051 0.402716606855392 0.000000000000000
3.794403076171875 -11.512967109680176 0.580146908760071 0.000000000000000
3.795937061309814 -0.352940291166306 0.167782351374626 0.000000000000000
3.801869153976440 -1.108935713768005 1.061158180236816 0.000000000000000
3.804017543792725 6.843463420867920 0.889308333396912 0.000000000000000
3.804080963134766 0.639043390750885 0.336120605468750 0.000000000000000
3.804152011871338 -11.679528236389160 0.777113437652588 0.000000000000000
3.807171344757080 -4.216141700744629 0.514985382556915 0.000000000000000
3.812719821929932 1.946788787841797 1.147086024284363 0.000000000000000
3.813997030258179 4.074585914611816 0.505956828594208 0.000000000000000
3.816886186599731 3.671278476715088 0.461471378803253 0.000000000000000
3.825031757354736 -14.193928718566895 1.185339450836182 0.000000000000000
3.828430652618408 -2.264848947525024 0.324313312768936 0.000000000000000
3.831903457641602 -4.949150562286377 1.677147507667542 0.000000000000000
3.832406759262085 -0.604114234447479 0.663174211978912 0.000000000000000
3.835130453109741 2.661714076995850 0.797965705394745 0.000000000000000
3.836575984954834 -6.882221221923828 1.638908982276917 0.000000000000000
3.841343164443970 3.155201673507690 0.498804390430450 0.000000000000000
3.842867851257324 2.401103734970093 0.339121639728546 0.000000000000000
3.843412637710571 3.071563243865967 0.008587015792727 0.000000000000000
3.843738079071045 -0.975399553775787 0.422396928071976 1.000000000000000
3.844844579696655 -1.479902744293213 0.856924533843994 0.000000000000000
3.848268985748291 1.196244239807129 0.493382930755615 0.000000000000000
3.856117486953735 0.069934986531734 0.236564695835114 0.000000000000000
3.860517740249634 1.955080986022949 1.159509301185608 0.000000000000000
3.863474607467651 3.097666740417480 0.018149986863136 0.000000000000000
3.865199327468872 -0.623810470104218 0.669239819049835 0.000000000000000
3.865439891815186 0.650946378707886 0.180056825280190 0.000000000000000
3.866673469543457 -1.461402416229248 0.229658141732216 0.000000000000000
3.866843223571777 7.293656349182129 0.379202216863632 1.000000000000000
3.866871595382690 0.640227496623993 0.187582105398178 0.000000000000000
3.867273092269897 -0.995753347873688 0.425362616777420 0.000000000000000
3.868250370025635 -6.882442951202393 1.642167210578918 0.000000000000000
3.878406763076782 2.833580493927002 0.350200235843658 0.000000000000000
3.880395650863647 2.958853960037231 0.045992232859135 0.000000000000000
3.882468223571777 2.597911357879639 0.205594927072525 0.000000000000000
3.884899616241455 -10.977920532226562 1.425706386566162 0.000000000000000
3.885643482208252 3.670489311218262 0.536344528198242 0.000000000000000
3.887733459472656 -5.777712821960449 1.032070994377136 0.000000000000000
3.889697551727295 -8.760258674621582 1.638390898704529 0.000000000000000
3.893199443817139 -0.421424329280853 0.355000406503677 0.000000000000000
3.896193981170654 3.825303316116333 0.292844086885452 0.000000000000000
3.897045612335205 5.093256950378418 0.492337495088577 0.000000000000000
3.898593902587891 2.994307279586792 0.046331524848938 0.000000000000000
3.900735855102539 -0.152442112565041 0.254494398832321 0.000000000000000
3.904013395309448 2.527940034866333 0.618923544883728 0.000000000000000
3.907902956008911 -2.220719575881958 0.768311679363251 0.000000000000000
3.909708499908447 -2.375084161758423 0.519590795040131 0.000000000000000
3.913811683654785 -2.242187023162842 0.771007418632507 0.000000000000000
3.919537782669067 3.945756912231445 0.266171544790268 0.000000000000000
3.920850515365601 -8.063210487365723 1.532579541206360 1.000000000000000
3.921242713928223 -0.180531606078148 0.522365152835846 0.000000000000000
3.929756402969360 -12.790552139282227 1.027234077453613 0.000000000000000
3.932592630386353 0.532547116279602 0.167022734880447 0.000000000000000
3.932649850845337 4.569226264953613 1.030481100082397 0.000000000000000
3.932932615280151 1.866317391395569 0.241862192749977 0.000000000000000
3.934451103210449 -9.953526496887207 2.226211786270142 0.000000000000000
3.934760332107544 -11.489872932434082 1.616166114807129 0.000000000000000
3.944335460662842 1.221578717231750 0.505535185337067 0.000000000000000
3.945027112960815 -3.255731582641602 0.303885877132416 1.000000000000000
3.948687314987183 -9.796967506408691 1.805532336235046 0.000000000000000
3.952445507049561 -8.056553840637207 1.533927321434021 0.000000000000000
3.955808877944946 3.066008329391479 1.041016817092896 0.000000000000000
3.956460237503052 -10.809197425842285 1.531743407249451 0.000000000000000
3.956462860107422 3.212809801101685 0.185103893280029 0.000000000000000
3.958296775817871 2.767719984054565 0.825598001480103 1.000000000000000
3.959442138671875 -6.502419948577881 1.583518385887146 0.000000000000000
3.959842443466187 6.747230529785156 0.510029673576355 0.000000000000000
3.961549758911133 4.939875125885010 1.082375884056091 0.000000000000000
3.963196516036987 6.248857021331787 0.069742329418659 0.000000000000000
3.963258504867554 -1.587758302688599 0.352514952421188 0.000000000000000
3.963661909103394 4.900658607482910 0.338045328855515 0.000000000000000
3.965908050537109 2.610669612884521 0.337013185024261 0.000000000000000
3.966500282287598 -2.964946269989014 0.846490681171417 0.000000000000000
3.975275278091431 4.001867294311523 0.356861025094986 0.000000000000000
3.975877761840820 -4.103360176086426 0.846767306327820 0.000000000000000
3.977598905563354 4.858987331390381 0.930623054504395 0.000000000000000
3.977753639221191 2.980179309844971 0.237871706485748 0.000000000000000
3.977882146835327 5.957374572753906 0.425582557916641 0.000000000000000
3.980802297592163 3.169425725936890 0.754115402698517 0.000000000000000
3.981245040893555 0.765513300895691 0.217437267303467 0.000000000000000
3.985272645950317 2.667504549026489 0.710721552371979 0.000000000000000
3.988718986511230 -11.781455993652344 1.655211567878723 0.000000000000000
3.990085363388062 0.554524123668671 0.169545739889145 0.000000000000000
3.990883111953735 2.667227983474731 0.192793145775795 0.000000000000000
3.991230726242065 7.161707401275635 2.196856260299683 0.000000000000000
3.994356870651245 3.478611230850220 0.345310896635056 0.000000000000000
3.997264862060547 -0.513550639152527 0.123131290078163 0.000000000000000
3.998270988464355 -5.201430797576904 1.757899045944214 0.000000000000000
4.004486083984375 3.905907392501831 0.397052526473999 0.000000000000000
4.010517120361328 -10.683394432067871 1.691188931465149 0.000000000000000
4.011900424957275 3.664781808853149 0.260052651166916 0.000000000000000
4.013715744018555 2.912070751190186 0.361543923616409 0.000000000000000
4.019491672515869 -0.189484104514122 0.254575997591019 0.000000000000000
4.022857189178467 -11.614695549011230 1.635688781738281 0.000000000000000
4.024706840515137 3.216449260711670 0.405476629734039 0.000000000000000
4.027056694030762 -4.948406219482422 0.640178859233856 1.000000000000000
4.036818981170654 -12.452146530151367 2.237539052963257 0.000000000000000
4.039517402648926 -10.324604034423828 2.306039333343506 0.000000000000000
4.040108680725098 4.718342781066895 0.321193158626556 0.000000000000000
4.041443824768066 2.312873125076294 0.795943915843964 0.000000000000000
4.043371677398682 3.476869344711304 0.347652882337570 0.000000000000000
4.043403148651123 -12.291567802429199 3.467140197753906 0.000000000000000
4.045150279998779 -2.448286533355713 0.700752675533295 0.000000000000000
4.045616626739502 -6.592029571533203 1.608770012855530 0.000000000000000
4.058455467224121 0.336661309003830 0.171395942568779 0.000000000000000
4.059711456298828 5.098645210266113 1.114051818847656 0.000000000000000
4.060664176940918 3.809086561203003 1.491833090782166 0.000000000000000
4.062160015106201 0.696403324604034 0.391766488552094 0.000000000000000
4.063570499420166 -10.489538192749023 1.667146444320679 0.000000000000000
4.064115524291992 -13.095852851867676 0.023931942880154 0.000000000000000
4.065673828125000 -0.334187805652618 0.321054637432098 0.000000000000000
4.075694084167480 -5.713490486145020 1.199644446372986 0.000000000000000
4.078795909881592 2.060528039932251 0.781116783618927 0.000000000000000
4.083940029144287 -0.178237244486809 0.258616894483566 0.000000000000000
4.085469722747803 -11.289678573608398 1.597698569297791 0.000000000000000
4.086728096008301 0.393940001726151 0.291417270898819 0.000000000000000
4.088625431060791 3.350315093994141 0.385394752025604 0.000000000000000
4.089658737182617 -0.016702299937606 0.227217331528664 0.000000000000000
4.091225624084473 3.584245443344116 0.093042455613613 1.000000000000000
4.095776081085205 -11.909852027893066 2.619647741317749 0.000000000000000
4.095800876617432 -4.174324512481689 0.866705000400543 0.000000000000000
4.102077007293701 2.995238065719604 0.360519140958786 0.000000000000000
4.104861259460449 4.816550254821777 0.498058408498764 0.000000000000000
4.107157230377197 0.078790135681629 0.315365463495255 0.000000000000000
4.113240718841553 0.703237175941467 0.304243713617325 0.000000000000000
4.117460727691650 0.346331775188446 0.181852146983147 0.000000000000000
4.119318485260010 7.799124717712402 0.592019021511078 0.000000000000000
4.129993438720703 1.909376740455627 0.777747035026550 0.000000000000000
4.130869388580322 3.161834478378296 0.248962178826332 0.000000000000000
4.134706497192383 -2.914337396621704 0.368815511465073 0.000000000000000
4.135584354400635 -0.778362095355988 0.448240697383881 0.000000000000000
4.136292457580566 7.483315467834473 2.291066169738770 0.000000000000000
4.140463352203369 -3.246654510498047 0.527957856655121 0.000000000000000
4.143597602844238 4.920333862304688 0.382170289754868 0.000000000000000
4.146798133850098 -0.460887819528580 0.312254607677460 0.000000000000000
4.148018836975098 4.603774070739746 0.487701773643494 0.000000000000000
4.149499416351318 -0.477765083312988 0.304534584283829 0.000000000000000
4.150819301605225 2.621911287307739 0.376907646656036 0.000000000000000
4.156585693359375 4.638940334320068 0.625003099441528 0.000000000000000
4.156936168670654 5.100180149078369 0.238965481519699 0.000000000000000
4.157361030578613 -13.846667289733887 0.942514061927795 0.000000000000000
4.159523010253906 4.609738826751709 1.663688898086548 0.000000000000000
4.159847259521484 -4.259927272796631 0.597447037696838 0.000000000000000
4.161819934844971 4.901554584503174 0.357246011495590 1.000000000000000
4.161859512329102 -2.942509412765503 0.391298115253448 0.000000000000000
4.164770126342773 -3.020554780960083 0.489045679569244 0.000000000000000
4.166563987731934 -4.302264213562012 1.023741483688354 1.000000000000000
4.166907310485840 -3.245133876800537 0.529954671859741 0.000000000000000
4.168895721435547 1.909726381301880 0.783812701702118 0.000000000000000
4.169669628143311 -13.622213363647461 1.093675136566162 0.000000000000000
4.170654773712158 2.411715984344482 0.147195637226105 0.000000000000000
4.171352386474609 6.063913822174072 0.641337573528290 0.000000000000000
4.172028064727783 4.193344593048096 0.237580209970474 0.000000000000000
4.172600269317627 -0.404054313898087 1.123274683952332 0.000000000000000
4.175303459167480 -4.282777309417725 1.022393584251404 0.000000000000000
4.182507991790771 3.195225477218628 1.094778180122375 0.000000000000000
4.183463096618652 0.554180562496185 0.367718696594238 0.000000000000000
4.186353683471680 -3.058565378189087 0.492830872535706 0.000000000000000
4.187191009521484 -2.713067531585693 0.383031219244003 0.000000000000000
4.189418792724609 -0.031733188778162 0.232764616608620 0.000000000000000
4.194829940795898 5.190547466278076 0.370781421661377 1.000000000000000
4.197688102722168 4.885266304016113 0.196790188550949 0.000000000000000
4.210707187652588 5.133866786956787 0.330547690391541 0.000000000000000
4.215445518493652 4.316108226776123 0.525709271430969 0.000000000000000
4.220470428466797 2.451841115951538 0.649526774883270 0.000000000000000
4.220596790313721 2.618819952011108 0.498405009508133 0.000000000000000
4.221278190612793 4.324499607086182 0.547849059104919 0.000000000000000
4.227877140045166 -13.198358535766602 2.368960857391357 0.000000000000000
4.228750228881836 2.995675802230835 0.689627528190613 0.000000000000000
4.230787754058838 -2.309383392333984 0.277077883481979 0.000000000000000
4.237581729888916 -12.731961250305176 3.595514297485352 0.000000000000000
4.238670349121094 -7.419742584228516 1.777385354042053 0.000000000000000
4.239423751831055 2.611071825027466 0.499603122472763 1.000000000000000
4.240659236907959 2.904294252395630 0.206437945365906 0.000000000000000
4.245689868927002 0.730229675769806 1.154332995414734 0.000000000000000
4.248348236083984 8.081285476684570 2.446357727050781 0.000000000000000
4.249847888946533 2.418078184127808 0.375376731157303 0.000000000000000
4.250496387481689 -2.340982437133789 0.269598692655563 0.000000000000000
4.250927448272705 -4.330005645751953 0.442404091358185 0.000000000000000
4.255595684051514 0.726352691650391 0.306427121162415 0.000000000000000
4.255961894989014 4.988202571868896 0.301195979118347 0.000000000000000
4.259922504425049 2.454910516738892 0.654275536537170 0.000000000000000
4.260491371154785 -13.891201972961426 0.248546510934830 0.000000000000000
4.267528533935547 4.769788265228271 0.503707408905029 0.000000000000000
4.273754119873047 3.084145069122314 0.130646169185638 0.000000000000000
4.274891376495361 -0.761551141738892 0.435705035924911 0.000000000000000
4.286244392395020 4.035482406616211 0.497451245784760 0.000000000000000
4.288951396942139 3.878359794616699 0.332401663064957 0.000000000000000
4.290314674377441 4.845230579376221 0.060996256768703 0.000000000000000
4.294216156005859 0.387479931116104 0.375705033540726 0.000000000000000
4.295731544494629 -0.372201740741730 0.189766407012939 0.000000000000000
4.297564029693604 3.021948099136353 0.699125051498413 0.000000000000000
4.299617767333984 -0.781450569629669 0.438500583171844 0.000000000000000
4.300595760345459 -2.788786172866821 0.383601516485214 0.000000000000000
4.302731990814209 -0.643124341964722 1.165721058845520 0.000000000000000
4.303290367126465 5.146317958831787 1.395353317260742 0.000000000000000
4.307445526123047 4.448977470397949 0.539598584175110 0.000000000000000
4.312104701995850 5.224682331085205 0.590294420719147 0.000000000000000
4.312435626983643 3.638879060745239 0.536360442638397 0.000000000000000
4.323043346405029 -6.338294982910156 1.137037277221680 1.000000000000000
4.327842235565186 -0.371940016746521 0.191173389554024 0.000000000000000
4.328314781188965 2.526327371597290 0.533821582794189 0.000000000000000
4.330399990081787 3.949904441833496 1.570514082908630 0.000000000000000
4.341507911682129 2.080288648605347 0.822902202606201 0.000000000000000
4.342008590698242 -2.607291698455811 0.750597059726715 0.000000000000000
4.343349933624268 2.929187059402466 0.776398837566376 0.000000000000000
4.345155239105225 1.209999918937683 0.480439424514771 0.000000000000000
4.349544525146484 -11.464720726013184 1.817265868186951 0.000000000000000
4.353372097015381 3.541172027587891 0.052891071885824 0.000000000000000
4.355050563812256 -5.031866073608398 0.579877495765686 0.000000000000000
4.358286380767822 -2.647588014602661 0.411187738180161 0.000000000000000
4.358686923980713 6.627393722534180 0.754008531570435 0.000000000000000
4.372324466705322 2.191024065017700 0.724795281887054 0.000000000000000
4.373243808746338 -4.515675544738770 0.569878578186035 0.000000000000000
4.376214981079102 -3.084564208984375 0.485371887683868 0.000000000000000
4.380387783050537 5.079744815826416 0.243611231446266 0.000000000000000
4.380446434020996 2.469062328338623 1.045904040336609 0.000000000000000
4.381286621093750 -0.547348916530609 0.202816292643547 0.000000000000000
4.381575584411621 -4.459345817565918 0.926518201828003 0.000000000000000
4.383486270904541 -3.566429138183594 1.175420284271240 0.000000000000000
4.387016773223877 -12.606297492980957 1.268793463706970 0.000000000000000
4.387707710266113 -12.905043601989746 1.295668244361877 0.000000000000000
4.388242244720459 1.003591060638428 0.408087939023972 0.000000000000000
4.388689041137695 -0.503287136554718 0.918831646442413 0.000000000000000
4.397400379180908 4.386364459991455 1.291903376579285 0.000000000000000
4.400356292724609 3.743541955947876 0.176512613892555 0.000000000000000
4.402945041656494 -11.389187812805176 1.809642553329468 0.000000000000000
4.408812999725342 5.592153072357178 0.203885287046432 0.000000000000000
4.409090042114258 4.674885749816895 0.357024103403091 0.000000000000000
4.411128997802734 4.011564254760742 0.136347904801369 0.000000000000000
4.413357257843018 -4.164467334747314 1.037220597267151 1.000000000000000
4.416359424591064 -4.138253211975098 1.034524917602539 0.000000000000000
4.417750835418701 -2.044282436370850 1.012506842613220 0.000000000000000
4.418368339538574 4.882019996643066 0.556390941143036 0.000000000000000
4.421318531036377 3.725206375122070 0.410363137722015 0.000000000000000
4.423747062683105 4.667531013488770 0.258288234472275 0.000000000000000
4.427805900573730 -0.062445461750031 0.322858989238739 0.000000000000000
4.430153369903564 4.087457180023193 0.056811720132828 0.000000000000000
4.430285453796387 -12.677859306335449 1.525366902351379 0.000000000000000
4.430334091186523 4.013799190521240 0.148191213607788 0.000000000000000
4.432478904724121 -12.699079513549805 1.058570265769958 0.000000000000000
4.439264297485352 6.911947250366211 0.824285268783569 0.000000000000000
4.442178249359131 0.004497791640460 0.127185031771660 0.000000000000000
4.442269802093506 3.832978963851929 0.089098431169987 0.000000000000000
4.447758674621582 2.676502466201782 0.228458344936371 0.000000000000000
4.448336124420166 -0.064753785729408 0.315772861242294 0.000000000000000
4.450748920440674 -0.025557082146406 0.474084407091141 0.000000000000000
4.451868057250977 3.187932729721069 0.219922244548798 0.000000000000000
4.457283020019531 -2.729073286056519 0.593624591827393 0.000000000000000
4.462285041809082 4.244776725769043 1.650230288505554 0.000000000000000
4.462691307067871 5.479998588562012 0.351828426122665 0.000000000000000
4.464956283569336 4.516054630279541 0.941178262233734 0.000000000000000
4.465121269226074 -0.556318521499634 0.198032408952713 0.000000000000000
4.473258972167969 -5.824189662933350 1.088365674018860 0.000000000000000
4.477167606353760 3.832790613174438 0.513556182384491 0.000000000000000
4.477186203002930 -4.162496566772461 0.905994057655334 0.000000000000000
4.480060100555420 5.242142200469971 0.625132977962494 0.000000000000000
4.480438232421875 -2.883241176605225 0.506457507610321 0.000000000000000
4.486177921295166 -5.842700004577637 1.532200574874878 0.000000000000000
4.486659049987793 -0.342236459255219 0.935937583446503 0.000000000000000
4.487558841705322 2.519227266311646 0.315664499998093 1.000000000000000
4.489999771118164 2.287969350814819 0.456841856241226 1.000000000000000
4.490168094635010 -0.767599165439606 1.220590591430664 0.000000000000000
4.491696357727051 -12.853594779968262 1.097893714904785 0.000000000000000
4.497789859771729 1.558291792869568 1.275460362434387 0.000000000000000
4.500338554382324 -2.515566349029541 0.764084339141846 0.000000000000000
4.502036571502686 -9.282295227050781 0.394515216350555 1.000000000000000
4.504756927490234 4.455649852752686 0.449728518724442 0.000000000000000
4.507472515106201 -0.418066233396530 0.216646805405617 0.000000000000000
4.507573127746582 -4.492179393768311 1.323671579360962 0.000000000000000
4.509103298187256 4.438202381134033 0.254114508628845 0.000000000000000
4.512732982635498 3.966209411621094 0.022020421922207 0.000000000000000
4.515167713165283 -0.328562587499619 0.941639482975006 0.000000000000000
4.515861988067627 -7.969421386718750 1.905272483825684 0.000000000000000
4.526581764221191 -0.661244392395020 1.225767016410828 0.000000000000000
4.527722358703613 -0.369700759649277 0.515979349613190 0.000000000000000
4.531675815582275 -0.534033536911011 1.222661256790161 0.000000000000000
4.532117843627930 -5.496334075927734 0.677169263362885 0.000000000000000
4.534253120422363 3.101416826248169 0.498011767864227 0.000000000000000
4.537972450256348 -3.056523561477661 0.520084202289581 0.000000000000000
4.538576126098633 -9.612721443176270 1.414607048034668 0.000000000000000
4.553820133209229 -5.483543872833252 0.677547812461853 0.000000000000000
4.557037830352783 -13.558179855346680 1.359637856483459 0.000000000000000
4.557461738586426 -12.366167068481445 1.037229299545288 0.000000000000000
4.557914257049561 -3.494757175445557 0.611776530742645 0.000000000000000
4.564572811126709 -0.080312855541706 0.413866192102432 0.000000000000000
4.565968513488770 2.309036254882812 0.445845931768417 0.000000000000000
4.567090988159180 3.120836734771729 0.222169607877731 0.000000000000000
4.568584918975830 2.851001024246216 0.798095762729645 0.000000000000000
4.575223445892334 -6.461340904235840 1.353306770324707 1.000000000000000
4.575455188751221 -4.343766212463379 1.312267541885376 0.000000000000000
4.577249050140381 -4.375948905944824 1.317155003547668 0.000000000000000
4.577634334564209 -0.554846346378326 0.211809962987900 0.000000000000000
4.579411029815674 4.593179225921631 0.160780027508736 0.000000000000000
4.579605579376221 -4.435002326965332 1.708205819129944 0.000000000000000
4.581561565399170 3.580669879913330 0.583469331264496 0.000000000000000
4.583065032958984 -0.130737900733948 0.254731923341751 0.000000000000000
4.583380222320557 -2.151793479919434 0.539329230785370 0.000000000000000
4.583497047424316 0.771868407726288 1.245437264442444 0.000000000000000
4.584705352783203 4.537260055541992 0.271475046873093 0.000000000000000
4.587989807128906 -2.119074344635010 1.354141354560852 0.000000000000000
4.588215351104736 3.670857429504395 0.021536618471146 0.000000000000000
4.588384628295898 2.656692266464233 0.564749360084534 0.000000000000000
4.590359687805176 -4.007531166076660 1.267466425895691 0.000000000000000
4.593147277832031 2.826388597488403 0.799268543720245 0.000000000000000
4.596266746520996 -3.189969778060913 0.531818270683289 0.000000000000000
4.598237037658691 1.575135231018066 1.302377462387085 0.000000000000000
4.599330425262451 3.996587991714478 0.186162784695625 0.000000000000000
4.601311683654785 -5.384398460388184 1.049663066864014 0.000000000000000
4.602999210357666 3.652351856231689 0.010255550034344 0.000000000000000
4.607182025909424 -0.195998147130013 0.613647162914276 0.000000000000000
4.608070850372314 -2.726073741912842 0.485371887683868 0.000000000000000
4.610392093658447 4.505069732666016 1.340777397155762 0.000000000000000
4.617146015167236 4.577991008758545 0.161176517605782 0.000000000000000
4.621553897857666 4.539367198944092 0.359908699989319 0.000000000000000
4.624893188476562 -3.503112077713013 0.551501214504242 0.000000000000000
4.625682830810547 -5.936391353607178 1.115340232849121 0.000000000000000
4.628072261810303 3.539580821990967 1.561196446418762 0.000000000000000
4.628319263458252 -0.060668192803860 1.240260958671570 0.000000000000000
4.630532741546631 -2.154237031936646 0.543989598751068 0.000000000000000
4.634054660797119 -3.240221500396729 0.537496030330658 0.000000000000000
4.634255409240723 4.026936054229736 1.645053982734680 0.000000000000000
4.636552810668945 -1.867737293243408 0.306603550910950 0.000000000000000
4.638058185577393 3.881322860717773 0.045389309525490 0.000000000000000
4.638517856597900 -1.559321284294128 0.375682920217514 0.000000000000000
4.643006324768066 -2.530818462371826 0.460776895284653 0.000000000000000
4.645495891571045 -0.662061870098114 0.470848977565765 0.000000000000000
4.647439479827881 -0.662338852882385 1.257860541343689 0.000000000000000
4.648469448089600 -0.349438577890396 0.366874754428864 0.000000000000000
4.649245262145996 4.068532943725586 1.655406713485718 0.000000000000000
4.653948783874512 -0.630148410797119 0.471248358488083 0.000000000000000
4.654140949249268 5.565900802612305 0.096244409680367 0.000000000000000
4.656311511993408 2.213567972183228 0.764084339141846 0.000000000000000
4.657643318176270 -0.112364783883095 0.442866444587708 0.000000000000000
4.658318996429443 4.323931217193604 0.230835422873497 0.000000000000000
4.663818836212158 -4.729727268218994 0.813231110572815 0.000000000000000
4.664743900299072 3.960473775863647 1.045982122421265 0.000000000000000
4.664894104003906 -6.634519100189209 1.386330723762512 0.000000000000000
4.667113780975342 -1.574376225471497 0.378132343292236 0.000000000000000
4.667413234710693 -2.694080352783203 0.798682212829590 0.000000000000000
4.668375015258789 -4.499387741088867 0.460207104682922 0.000000000000000
4.671438217163086 7.313526630401611 1.483380675315857 0.000000000000000
4.674643993377686 2.338438749313354 0.774639606475830 0.000000000000000
4.674972057342529 -4.831615924835205 0.477199345827103 0.000000000000000
4.676755905151367 4.403147697448730 0.854779362678528 0.000000000000000
4.678911209106445 -0.416676253080368 0.500351846218109 0.000000000000000
4.679215431213379 -2.872034549713135 1.471127629280090 0.000000000000000
4.679764747619629 3.200946331024170 0.969150960445404 0.000000000000000
4.680964946746826 4.345868587493896 0.244260102510452 0.000000000000000
4.684794902801514 -0.769851505756378 0.282061129808426 0.000000000000000
4.688040733337402 3.351607561111450 0.242544606328011 0.000000000000000
4.688478469848633 5.216965198516846 0.933397889137268 0.000000000000000
4.691829204559326 3.985725164413452 1.280499339103699 0.000000000000000
4.691977500915527 4.554153919219971 0.262622445821762 0.000000000000000
4.695236682891846 2.354072570800781 0.499265670776367 0.000000000000000
4.697391986846924 2.231692790985107 0.888949990272522 0.000000000000000
4.703521728515625 4.034400463104248 0.201236024498940 0.000000000000000
4.705714225769043 -0.361093014478683 0.806727170944214 0.000000000000000
4.713868141174316 -0.253478705883026 0.380646020174026 0.000000000000000
4.714134693145752 4.736572265625000 0.582308113574982 0.000000000000000
4.718925476074219 -2.642292261123657 0.719703078269958 1.000000000000000
4.720520019531250 4.034841537475586 1.061483144760132 0.000000000000000
4.721950054168701 -0.356868594884872 0.208408892154694 0.000000000000000
4.725245952606201 0.233501359820366 0.217316284775734 0.000000000000000
4.726362228393555 5.572740554809570 0.434122681617737 0.000000000000000
4.727218627929688 5.173521518707275 0.012231261469424 0.000000000000000
4.727952957153320 2.513052701950073 0.915234327316284 0.000000000000000
4.728518486022949 5.748610019683838 0.356233894824982 0.000000000000000
4.732171535491943 3.687344312667847 0.240951284766197 0.000000000000000
4.738392829895020 -0.624746739864349 1.280636787414551 0.000000000000000
4.740599155426025 -6.092638015747070 1.144074082374573 0.000000000000000
4.743934154510498 0.048521630465984 0.703098297119141 0.000000000000000
4.744069099426270 0.032788611948490 0.703098297119141 0.000000000000000
4.747727394104004 3.428077697753906 0.010220643132925 0.000000000000000
4.749231815338135 5.247603416442871 0.941840171813965 0.000000000000000
4.753248214721680 7.616252899169922 1.534601449966431 0.000000000000000
4.753566265106201 3.557288408279419 0.181398779153824 0.000000000000000
4.760458469390869 -2.174384355545044 0.331100344657898 0.000000000000000
4.760690689086914 -2.527149200439453 1.444210410118103 0.000000000000000
4.761165142059326 -2.945264101028442 1.500115275382996 0.000000000000000
4.768141269683838 4.567533969879150 0.662543177604675 0.000000000000000
4.769231796264648 5.684153556823730 0.598295807838440 0.000000000000000
4.770060539245605 12.065629005432129 3.476457595825195 0.000000000000000
4.770085334777832 3.543743610382080 1.592254877090454 0.000000000000000
4.773265361785889 5.328492641448975 0.177333831787109 0.000000000000000
4.778709411621094 3.731656551361084 0.243519723415375 0.000000000000000
4.781358718872070 7.438591480255127 1.839292407035828 0.000000000000000
4.782541751861572 0.811397314071655 0.297542572021484 0.000000000000000
4.782735347747803 5.794912815093994 0.186255037784576 0.000000000000000
4.787258625030518 -1.893380403518677 0.405162781476974 0.000000000000000
4.795976161956787 -2.660422801971436 0.937474966049194 0.000000000000000
4.797460556030273 -4.781076908111572 0.506891310214996 0.000000000000000
4.802738189697266 4.105116844177246 0.572767734527588 0.000000000000000
4.803699493408203 4.011961936950684 0.516758561134338 0.000000000000000
4.804547786712646 -3.433633804321289 0.561342656612396 0.000000000000000
4.805785179138184 -0.079774126410484 1.287883639335632 0.000000000000000
4.805973529815674 2.907391548156738 0.509207129478455 1.000000000000000
4.810273170471191 5.001756668090820 1.443412780761719 0.000000000000000
4.813256263732910 -3.414537906646729 0.560964167118073 0.000000000000000
4.814198017120361 3.599647521972656 0.241432875394821 0.000000000000000
4.815670967102051 -2.733680963516235 1.151797771453857 0.000000000000000
4.816445827484131 -9.309354782104492 1.553384065628052 0.000000000000000
4.818692207336426 -4.978064060211182 0.848229706287384 0.000000000000000
4.819323062896729 2.691442489624023 0.943540573120117 0.000000000000000
4.820067882537842 7.441579341888428 1.844179868698120 0.000000000000000
4.823030471801758 4.683482170104980 1.801380634307861 0.000000000000000
4.825310707092285 4.394083499908447 0.274670839309692 0.000000000000000
4.825698852539062 7.661300182342529 0.625208497047424 0.000000000000000
4.825894355773926 2.943655729293823 0.512457370758057 0.000000000000000
4.826334476470947 -3.180930852890015 0.524013817310333 0.000000000000000
4.827909946441650 4.481348514556885 0.340609312057495 0.000000000000000
4.828988552093506 -0.670249342918396 0.214564427733421 0.000000000000000
4.836150169372559 5.763909339904785 0.490513265132904 0.000000000000000
4.836556911468506 6.098278045654297 0.267721980810165 0.000000000000000
4.836709022521973 4.380896091461182 1.748581647872925 0.000000000000000
4.837257385253906 4.013690471649170 0.531131029129028 0.000000000000000
4.840469837188721 -12.255616188049316 2.252366304397583 0.000000000000000
4.841027259826660 3.050801992416382 1.533244132995605 0.000000000000000
4.844123363494873 -9.165194511413574 1.269184947013855 0.000000000000000
4.847136974334717 4.907751560211182 0.170989856123924 0.000000000000000
4.849076271057129 3.008782386779785 1.529103040695190 0.000000000000000
4.856754779815674 -9.420276641845703 1.410385847091675 0.000000000000000
4.858210086822510 -4.983958244323730 0.852118432521820 0.000000000000000
4.862511157989502 0.405581891536713 0.289889574050903 0.000000000000000
4.862535476684570 -0.638351798057556 0.522382557392120 0.000000000000000
4.863077640533447 1.061746120452881 0.737696111202240 0.000000000000000
4.865756988525391 1.148602843284607 0.854578137397766 0.000000000000000
4.869312286376953 3.168336391448975 0.278026908636093 0.000000000000000
4.871490478515625 -7.414443969726562 0.083615392446518 0.000000000000000
4.873050689697266 0.803148329257965 0.226860597729683 1.000000000000000
4.873426914215088 -2.951219558715820 0.973868668079376 0.000000000000000
4.873595237731934 -3.187733650207520 0.995435357093811 0.000000000000000
4.876848220825195 -3.263286590576172 0.531958878040314 0.000000000000000
4.877720832824707 5.150656223297119 1.900767087936401 0.000000000000000
4.886513233184814 5.739400863647461 0.578680276870728 0.000000000000000
4.888083457946777 4.475023746490479 0.253431320190430 0.000000000000000
4.895328998565674 -0.645438492298126 0.150860264897346 0.000000000000000
4.899021148681641 5.996313571929932 0.370575040578842 0.000000000000000
4.900760173797607 7.284315586090088 0.657048225402832 0.000000000000000
4.901761531829834 5.994974613189697 0.355708599090576 0.000000000000000
4.904188632965088 -0.626414000988007 0.526619195938110 0.000000000000000
4.908035755157471 8.163183212280273 0.364250212907791 0.000000000000000
4.908242702484131 3.682267665863037 0.222850561141968 0.000000000000000
4.908425807952881 -10.485988616943359 1.540713310241699 0.000000000000000
4.908997535705566 -5.038170814514160 0.499289304018021 0.000000000000000
4.910758972167969 -3.061556100845337 0.580673813819885 0.000000000000000
4.913264751434326 -0.115873292088509 1.316871404647827 0.000000000000000
4.916849613189697 -0.135793954133987 1.023096203804016 0.000000000000000
4.917107105255127 5.794361591339111 0.086217425763607 0.000000000000000
4.920716285705566 -2.973170518875122 1.540490984916687 0.000000000000000
4.922000408172607 -4.455801963806152 0.471252053976059 0.000000000000000
4.922976970672607 -9.597197532653809 1.598537087440491 0.000000000000000
4.923547744750977 4.459081649780273 0.266796171665192 0.000000000000000
4.923916816711426 12.328781127929688 3.557209014892578 0.000000000000000
4.928389072418213 -4.517935752868652 0.635532319545746 0.000000000000000
4.931184768676758 1.145889043807983 0.865361511707306 0.000000000000000
4.931939125061035 -3.808948993682861 0.394239246845245 0.000000000000000
4.939248085021973 4.829953670501709 1.851073861122131 1.000000000000000
4.940132141113281 4.500852584838867 0.990436255931854 0.000000000000000
4.946425914764404 -4.446595668792725 0.472101658582687 0.000000000000000
4.947311878204346 -2.389600276947021 1.472162723541260 0.000000000000000
4.949035644531250 14.060614585876465 3.994095802307129 0.000000000000000
4.953711032867432 -5.006558895111084 1.043799042701721 0.000000000000000
4.954465389251709 -9.292937278747559 1.401415944099426 0.000000000000000
4.961350440979004 -3.145168781280518 1.221850633621216 0.000000000000000
4.961608409881592 -2.759441375732422 0.348235011100769 1.000000000000000
4.962090015411377 -3.604375123977661 0.908926069736481 0.000000000000000
4.974564075469971 -5.617582321166992 0.653837919235229 0.000000000000000
4.977478504180908 3.816458940505981 0.384723752737045 0.000000000000000
4.978747367858887 5.623887062072754 1.283889174461365 1.000000000000000
4.978894233703613 5.939508438110352 0.162345647811890 0.000000000000000
4.983171939849854 -0.100119106471539 1.335506319999695 1.000000000000000
4.983247756958008 -2.327327966690063 0.815101504325867 0.000000000000000
4.983390331268311 -2.289364099502563 0.812755823135376 0.000000000000000
4.984907627105713 0.257060647010803 0.452508151531219 0.000000000000000
4.989315986633301 6.034903049468994 0.164021030068398 0.000000000000000
4.990010261535645 -4.633920669555664 0.683310091495514 0.000000000000000
4.993424892425537 3.171250820159912 1.585007786750793 0.000000000000000
4.997865200042725 -2.883425712585449 0.548473060131073 0.000000000000000
4.998243331909180 5.578269004821777 0.575006127357483 0.000000000000000
5.001377105712891 4.999808311462402 0.338450908660889 0.000000000000000
5.002141475677490 -0.947153806686401 0.302462548017502 0.000000000000000
5.003956794738770 -0.808134019374847 0.441679149866104 0.000000000000000
5.004062652587891 5.534608364105225 0.676414847373962 0.000000000000000
5.006238460540771 -4.681641578674316 1.836580038070679 0.000000000000000
5.007977485656738 -3.765839815139771 1.303307294845581 0.000000000000000
5.008544445037842 -4.604948043823242 0.574914872646332 0.000000000000000
5.014318466186523 -0.114578858017921 0.534245252609253 0.000000000000000
5.016016006469727 2.406072139739990 0.824483931064606 0.000000000000000
5.016741275787354 -2.808819770812988 0.408097505569458 0.000000000000000
5.020524024963379 6.423433780670166 0.500067412853241 0.000000000000000
5.021378993988037 3.213651418685913 1.597431302070618 0.000000000000000
5.029404640197754 3.884083986282349 0.133110031485558 0.000000000000000
5.030660629272461 4.988521099090576 0.216456994414330 0.000000000000000
5.030757904052734 1.064641833305359 0.515976965427399 0.000000000000000
5.031490802764893 -2.582616567611694 0.567494869232178 0.000000000000000
5.032446384429932 6.090539932250977 0.423734873533249 0.000000000000000
5.035077571868896 5.647679805755615 1.293324589729309 0.000000000000000
5.041615486145020 5.152289390563965 0.581256806850433 0.000000000000000
5.045980453491211 2.794959306716919 0.985999882221222 0.000000000000000
5.049720287322998 3.862060070037842 0.488050997257233 0.000000000000000
5.052143573760986 -0.564724504947662 0.292228788137436 0.000000000000000
5.054614067077637 8.162434577941895 1.641086697578430 0.000000000000000
5.055547714233398 5.656707763671875 0.144346088171005 0.000000000000000
5.055962562561035 -3.904732465744019 0.502765953540802 0.000000000000000
5.058027744293213 13.614442825317383 3.891603231430054 0.000000000000000
5.059172630310059 -0.045828547328711 0.538905620574951 0.000000000000000
5.064283847808838 -0.388607829809189 0.460453242063522 0.000000000000000
5.065260887145996 5.646908760070801 0.721077442169189 0.000000000000000
5.066537380218506 -2.779712677001953 0.579875051975250 0.000000000000000
5.066717624664307 -0.829797565937042 0.515178263187408 1.000000000000000
5.072254180908203 3.554135560989380 1.659547805786133 0.000000000000000
5.075499057769775 2.673970460891724 0.980608224868774 0.000000000000000
5.077597618103027 -0.369489848613739 0.302462548017502 0.000000000000000
5.078174114227295 5.002344608306885 0.715259134769440 0.000000000000000
5.081016540527344 3.895702838897705 0.134115263819695 0.000000000000000
5.083531379699707 -3.075543880462646 0.517722964286804 0.000000000000000
5.084046840667725 5.731937885284424 0.396172642707825 0.000000000000000
5.084177494049072 0.942481219768524 0.468759447336197 0.000000000000000
5.091003894805908 3.995590448379517 0.060996256768703 0.000000000000000
5.091726303100586 2.575141191482544 1.186824202537537 0.000000000000000
5.093122959136963 4.523638725280762 0.011889176443219 0.000000000000000
5.095935344696045 0.670530915260315 0.761738717556000 0.000000000000000
5.097874164581299 3.212666511535645 0.604635596275330 0.000000000000000
5.107681274414062 -2.484454393386841 0.604997813701630 0.000000000000000
5.107806682586670 4.578791618347168 0.473659515380859 0.000000000000000
5.109802722930908 3.499936819076538 1.659547805786133 0.000000000000000
5.110668659210205 -4.123936176300049 0.658948957920074 0.000000000000000
5.111423015594482 -0.174118265509605 0.313705354928970 0.000000000000000
5.113322734832764 3.317081689834595 0.552543878555298 0.000000000000000
5.114294052124023 -3.192291259765625 0.573076725006104 1.000000000000000
5.115805149078369 3.608271837234497 0.545501530170441 0.000000000000000
5.115845680236816 -0.053039349615574 0.758220314979553 0.000000000000000
5.116042613983154 -4.681258201599121 0.545761525630951 0.000000000000000
5.117768764495850 5.383963584899902 0.484267979860306 0.000000000000000
5.119608402252197 3.657986879348755 0.548279404640198 0.000000000000000
5.119695663452148 6.311254978179932 0.388931721448898 0.000000000000000
5.121062755584717 0.246162667870522 0.464786916971207 0.000000000000000
5.123488426208496 -2.470064878463745 0.605845153331757 0.000000000000000
5.125141620635986 4.691068649291992 0.038804754614830 0.000000000000000
5.125193595886230 3.429467678070068 0.461515903472900 0.000000000000000
5.126366138458252 5.577225685119629 0.860417127609253 0.000000000000000
5.127972126007080 5.740969657897949 0.398031622171402 0.000000000000000
5.129586219787598 4.565156459808350 0.355068176984787 0.000000000000000
5.134570121765137 5.052427291870117 0.684739708900452 0.000000000000000
5.134795188903809 -1.186499357223511 0.323256105184555 0.000000000000000
5.137282848358154 -1.190663576126099 0.333625912666321 0.000000000000000
5.139325141906738 0.695961415767670 0.378123164176941 0.000000000000000
5.144242763519287 -5.063004016876221 0.512316703796387 1.000000000000000
5.147309303283691 -9.022732734680176 0.077960342168808 1.000000000000000
5.147734165191650 5.693512439727783 0.559622287750244 0.000000000000000
5.148741245269775 5.473083972930908 0.753997385501862 0.000000000000000
