# This PCD file was generated using the MATLAB® pcwrite function
# from Computer Vision Toolbox®.
# .PCD v.7 - Point Cloud Data file format
VERSION .7
FIELDS x y z intensity
SIZE 8 8 8 8
TYPE F F F F
COUNT 1 1 1 1
WIDTH 651
HEIGHT 1
VIEWPOINT 0 0 0 1 0 0 0
POINTS 651
DATA ascii
9.741195678710938 9.040046691894531 0.252852946519852 0.000000000000000
9.741276741027832 -10.854540824890137 2.161484956741333 0.000000000000000
9.743083000183105 6.988494396209717 0.573836803436279 0.000000000000000
9.743327140808105 11.108570098876953 0.593468964099884 0.000000000000000
9.743441581726074 -1.394331812858582 0.857663094997406 0.000000000000000
9.743618011474609 2.060769081115723 0.902849435806274 0.000000000000000
9.746199607849121 1.500776886940002 1.312244653701782 0.000000000000000
9.747824668884277 6.910538196563721 0.273244500160217 0.000000000000000
9.750082969665527 -7.414403915405273 0.751325547695160 0.000000000000000
9.752861976623535 -7.611001968383789 0.901969134807587 0.000000000000000
9.753716468811035 5.386783123016357 0.190600201487541 0.000000000000000
9.755692481994629 5.999870300292969 1.038276910781860 0.000000000000000
9.755917549133301 8.644062995910645 0.749281048774719 0.000000000000000
9.756988525390625 9.179111480712891 0.460778802633286 0.000000000000000
9.757358551025391 -0.515118360519409 0.505233705043793 0.000000000000000
9.759681701660156 7.787707805633545 0.741804182529449 0.000000000000000
9.761483192443848 10.406567573547363 1.620617747306824 0.000000000000000
9.762521743774414 7.182312011718750 0.044422022998333 0.000000000000000
9.762854576110840 6.672757625579834 0.588701069355011 0.000000000000000
9.763710975646973 6.720952033996582 0.590093255043030 0.000000000000000
9.764525413513184 -0.665849804878235 0.751365840435028 0.000000000000000
9.764603614807129 -6.793149471282959 1.582924723625183 0.000000000000000
9.764630317687988 6.095458984375000 0.972673773765564 0.000000000000000
9.765466690063477 -7.675837039947510 1.126033782958984 0.000000000000000
9.767024040222168 9.966457366943359 0.211904838681221 0.000000000000000
9.774675369262695 -3.387841939926147 0.554839909076691 0.000000000000000
9.776381492614746 1.117681860923767 0.793441236019135 0.000000000000000
9.778726577758789 -3.364986181259155 1.101536631584167 0.000000000000000
9.779981613159180 -8.914087295532227 0.964795827865601 0.000000000000000
9.781847000122070 10.332817077636719 1.427722811698914 0.000000000000000
9.782791137695312 3.356652736663818 2.151271581649780 0.000000000000000
9.785213470458984 -1.641345739364624 1.214742660522461 0.000000000000000
9.786993026733398 6.703306198120117 1.127606034278870 0.000000000000000
9.787804603576660 8.017502784729004 0.629870355129242 0.000000000000000
9.788470268249512 9.147725105285645 0.254907429218292 0.000000000000000
9.789153099060059 -5.726967811584473 0.717510342597961 0.000000000000000
9.791238784790039 2.116765499114990 0.460145235061646 0.000000000000000
9.791896820068359 9.716646194458008 1.384192109107971 0.000000000000000
9.792626380920410 -10.102029800415039 1.411748170852661 0.000000000000000
9.795339584350586 -1.423922419548035 0.993215799331665 0.000000000000000
9.795836448669434 10.586695671081543 0.496117562055588 0.000000000000000
9.799643516540527 9.479619026184082 0.836302757263184 0.000000000000000
9.799755096435547 5.522784233093262 1.496919155120850 0.000000000000000
9.800498962402344 4.577126502990723 1.439406156539917 0.000000000000000
9.801672935485840 4.341047763824463 1.312447071075439 0.000000000000000
9.803507804870605 10.428356170654297 0.657455205917358 0.000000000000000
9.803529739379883 8.188891410827637 0.243037119507790 0.000000000000000
9.804393768310547 6.837602615356445 0.595065414905548 0.000000000000000
9.806553840637207 7.055550575256348 1.020835876464844 0.000000000000000
9.807138442993164 3.546648979187012 1.782617807388306 0.000000000000000
9.809031486511230 2.286968231201172 0.851089537143707 0.000000000000000
9.809861183166504 -1.783107638359070 2.073887586593628 0.000000000000000
9.810153007507324 -7.150801181793213 0.768021464347839 0.000000000000000
9.810480117797852 9.373135566711426 1.805589437484741 0.000000000000000
9.811911582946777 -3.430700302124023 1.272587537765503 0.000000000000000
9.813613891601562 -9.086232185363770 1.779734969139099 0.000000000000000
9.816979408264160 -10.909750938415527 1.183410525321960 0.000000000000000
9.818927764892578 9.239633560180664 0.826996862888336 0.000000000000000
9.820941925048828 5.534724235534668 0.778410792350769 0.000000000000000
9.827418327331543 9.521437644958496 0.944839119911194 0.000000000000000
9.829211235046387 6.976485252380371 0.669669806957245 0.000000000000000
9.829393386840820 -4.476612567901611 1.437295675277710 0.000000000000000
9.832366943359375 7.579876899719238 0.570271730422974 0.000000000000000
9.834163665771484 8.883983612060547 1.119854569435120 0.000000000000000
9.834411621093750 0.333458125591278 0.793441236019135 0.000000000000000
9.838822364807129 10.000882148742676 0.725421428680420 0.000000000000000
9.839360237121582 6.926512718200684 0.275164902210236 0.000000000000000
9.839474678039551 -7.430204391479492 0.234590932726860 1.000000000000000
9.839822769165039 10.048445701599121 0.673077523708344 0.000000000000000
9.841093063354492 -1.366264820098877 1.472460269927979 0.000000000000000
9.843228340148926 -1.083398699760437 2.653413057327271 0.000000000000000
9.844950675964355 -4.682730197906494 1.863492608070374 0.000000000000000
9.845301628112793 -2.001617670059204 0.955001711845398 0.000000000000000
9.847643852233887 2.660049915313721 1.511749267578125 0.000000000000000
9.848108291625977 9.940668106079102 0.293110102415085 0.000000000000000
9.848887443542480 7.838086128234863 1.063609361648560 0.000000000000000
9.850612640380859 -8.583856582641602 0.826614379882812 0.000000000000000
9.850902557373047 9.237036705017090 0.802296698093414 0.000000000000000
9.851631164550781 3.976518154144287 1.131617069244385 0.000000000000000
9.854936599731445 9.502855300903320 1.301346063613892 0.000000000000000
9.858383178710938 -7.345268249511719 0.588369131088257 1.000000000000000
9.865136146545410 -3.724576473236084 1.562766551971436 0.000000000000000
9.866188049316406 8.788597106933594 1.116486668586731 0.000000000000000
9.866441726684570 1.448857307434082 0.688583552837372 0.000000000000000
9.866771697998047 9.136092185974121 0.591810941696167 0.000000000000000
9.866896629333496 8.417900085449219 0.995697498321533 0.000000000000000
9.868906974792480 10.389494895935059 0.934187054634094 0.000000000000000
9.872381210327148 11.194466590881348 0.255319446325302 0.000000000000000
9.873500823974609 -7.319881916046143 0.163042485713959 1.000000000000000
9.874607086181641 10.154642105102539 1.114746928215027 0.000000000000000
9.878558158874512 -8.146440505981445 3.430905342102051 0.000000000000000
9.878737449645996 -10.861159324645996 3.053811788558960 0.000000000000000
9.880377769470215 9.223596572875977 0.646880984306335 0.000000000000000
9.880563735961914 8.247084617614746 0.220154881477356 0.000000000000000
9.899674415588379 7.786921501159668 1.197253465652466 0.000000000000000
9.902396202087402 -5.793218612670898 0.902907311916351 0.000000000000000
9.902956962585449 8.415563583374023 1.073014616966248 0.000000000000000
9.903254508972168 -8.588757514953613 1.942756295204163 0.000000000000000
9.906588554382324 5.950597763061523 1.975369691848755 0.000000000000000
9.908804893493652 8.807039260864258 0.430515289306641 0.000000000000000
9.909025192260742 4.543822288513184 0.921143591403961 0.000000000000000
9.909563064575195 7.886373996734619 0.289613574743271 0.000000000000000
9.910007476806641 -6.759894371032715 0.758929431438446 0.000000000000000
9.910264968872070 -4.131741046905518 0.637899398803711 0.000000000000000
9.911305427551270 5.631322383880615 0.963243365287781 0.000000000000000
9.914636611938477 3.856386899948120 1.415662288665771 0.000000000000000
9.916775703430176 8.910952568054199 0.561115682125092 0.000000000000000
9.916825294494629 2.093781709671021 0.504572510719299 0.000000000000000
9.917327880859375 -4.314646720886230 1.324113368988037 0.000000000000000
9.917521476745605 8.876951217651367 0.227680370211601 0.000000000000000
9.918537139892578 -3.730306148529053 0.813520371913910 0.000000000000000
9.918710708618164 8.523006439208984 1.054492473602295 0.000000000000000
9.923106193542480 10.132444381713867 0.406053364276886 0.000000000000000
9.924276351928711 10.148154258728027 1.089694857597351 0.000000000000000
9.924815177917480 10.364706039428711 0.714396715164185 0.000000000000000
9.926579475402832 9.167046546936035 0.049523960798979 0.000000000000000
9.927684783935547 0.055620506405830 1.057475090026855 0.000000000000000
9.930267333984375 -4.384325504302979 1.031840920448303 0.000000000000000
9.930355072021484 -3.876076698303223 0.715512633323669 0.000000000000000
9.932962417602539 7.663508892059326 0.600415706634521 0.000000000000000
9.933754920959473 10.287064552307129 0.464400827884674 0.000000000000000
9.937376976013184 1.714344739913940 2.097510099411011 0.000000000000000
9.941256523132324 -8.810138702392578 2.270563125610352 0.000000000000000
9.946592330932617 -10.096316337585449 1.609783530235291 0.000000000000000
9.947445869445801 9.767818450927734 0.720877230167389 0.000000000000000
9.948275566101074 8.099747657775879 0.539922416210175 0.000000000000000
9.948449134826660 8.211375236511230 0.915599644184113 0.000000000000000
9.953929901123047 1.251119375228882 0.847721576690674 0.000000000000000
9.957611083984375 10.121627807617188 0.515677690505981 0.000000000000000
9.961655616760254 6.909108638763428 0.837101578712463 0.000000000000000
9.965106964111328 8.646663665771484 1.615282177925110 0.000000000000000
9.966925621032715 8.028230667114258 0.218923434615135 0.000000000000000
9.967623710632324 6.923042297363281 2.074441194534302 0.000000000000000
9.971738815307617 10.892931938171387 3.071732282638550 0.000000000000000
9.974853515625000 -2.539221286773682 0.849853873252869 0.000000000000000
9.975173950195312 4.641121387481689 0.696043133735657 0.000000000000000
9.978538513183594 1.960968017578125 0.839650392532349 0.000000000000000
9.982587814331055 -0.097218982875347 0.905016303062439 0.000000000000000
9.982676506042480 7.940015792846680 0.856150567531586 0.000000000000000
9.984248161315918 -2.288165330886841 0.588819205760956 0.000000000000000
9.984661102294922 -7.448030948638916 0.764059901237488 0.000000000000000
9.985415458679199 3.686585903167725 0.407049208879471 0.000000000000000
9.986662864685059 8.341862678527832 0.447578340768814 0.000000000000000
9.987593650817871 9.730172157287598 0.479616969823837 0.000000000000000
9.990242004394531 10.093294143676758 1.200012683868408 0.000000000000000
9.990681648254395 -9.185617446899414 1.146798491477966 0.000000000000000
9.991658210754395 5.228846549987793 0.778686344623566 0.000000000000000
9.991858482360840 2.113271713256836 0.744611799716949 0.000000000000000
9.991986274719238 10.591378211975098 0.305005431175232 0.000000000000000
9.992061614990234 7.320857048034668 0.568986892700195 0.000000000000000
9.994645118713379 -7.768859386444092 1.020735740661621 0.000000000000000
10.001381874084473 -6.946481704711914 1.490842700004578 0.000000000000000
10.003334045410156 10.830646514892578 1.245817184448242 0.000000000000000
10.003534317016602 -5.400094032287598 0.522183120250702 1.000000000000000
10.006121635437012 -0.663904070854187 0.692441165447235 0.000000000000000
10.009332656860352 -0.734336853027344 0.848058342933655 0.000000000000000
10.012509346008301 9.646035194396973 0.157732501626015 0.000000000000000
10.014848709106445 -0.692230284214020 0.712542116641998 0.000000000000000
10.015384674072266 -7.066123485565186 0.870003759860992 0.000000000000000
10.019753456115723 5.110607624053955 0.603254497051239 0.000000000000000
10.022356986999512 2.490679740905762 1.530514240264893 0.000000000000000
10.022596359252930 -4.770659923553467 0.787874519824982 0.000000000000000
10.027282714843750 8.925193786621094 0.461741358041763 0.000000000000000
10.030310630798340 -4.432679653167725 1.342584729194641 0.000000000000000
10.031200408935547 1.635662794113159 0.643006443977356 0.000000000000000
10.031345367431641 1.867171168327332 0.862203896045685 0.000000000000000
10.040107727050781 6.574069976806641 1.778563141822815 0.000000000000000
10.048906326293945 10.230128288269043 2.451183557510376 0.000000000000000
10.048919677734375 -1.844503045082092 0.626676023006439 0.000000000000000
10.049675941467285 9.587587356567383 0.264266699552536 0.000000000000000
10.052467346191406 -8.617834091186523 1.118844270706177 0.000000000000000
10.052470207214355 10.661461830139160 0.560361385345459 0.000000000000000
10.053334236145020 8.690363883972168 0.635981738567352 0.000000000000000
10.062511444091797 0.302339017391205 1.072303533554077 0.000000000000000
10.062911987304688 7.441272735595703 1.009162068367004 0.000000000000000
10.063106536865234 7.646348953247070 0.191922992467880 0.000000000000000
10.063372611999512 7.734740257263184 0.705172538757324 0.000000000000000
10.063520431518555 9.818520545959473 0.754068136215210 0.000000000000000
10.066851615905762 -7.524939537048340 1.139396071434021 0.000000000000000
10.068444252014160 -5.384859561920166 0.370793610811234 1.000000000000000
10.071612358093262 -9.218911170959473 1.074575901031494 0.000000000000000
10.073098182678223 -7.766295909881592 0.853739619255066 0.000000000000000
10.073509216308594 -4.560857295989990 0.699578940868378 0.000000000000000
10.076524734497070 -8.475908279418945 1.036287784576416 0.000000000000000
10.078454017639160 1.702473998069763 2.126019954681396 0.000000000000000
10.079861640930176 9.057497978210449 2.316392183303833 0.000000000000000
10.081620216369629 6.950171947479248 0.515365242958069 0.000000000000000
10.083033561706543 -5.438010692596436 0.019994482398033 1.000000000000000
10.084581375122070 8.230355262756348 3.487845659255981 0.000000000000000
10.084906578063965 -2.577359676361084 0.558267474174500 0.000000000000000
10.084959030151367 5.055461406707764 0.778961896896362 0.000000000000000
10.086194992065430 8.264865875244141 0.047793991863728 0.000000000000000
10.088443756103516 -0.013910042122006 0.482818365097046 0.000000000000000
10.089443206787109 1.448876142501831 0.743157446384430 0.000000000000000
10.089714050292969 -2.876796007156372 0.582910060882568 0.000000000000000
10.092921257019043 9.043786048889160 1.092749953269958 0.000000000000000
10.093361854553223 8.038987159729004 0.915882945060730 0.000000000000000
10.095353126525879 -8.425469398498535 1.060279250144958 0.000000000000000
10.095370292663574 1.338761329650879 0.703187346458435 0.000000000000000
10.095613479614258 7.738808155059814 0.437540501356125 0.000000000000000
10.096740722656250 -2.067421436309814 0.532912135124207 0.000000000000000
10.097976684570312 9.240777969360352 1.554709553718567 0.000000000000000
10.101075172424316 8.038785934448242 0.692371666431427 0.000000000000000
10.102831840515137 3.380756378173828 1.821033358573914 0.000000000000000
10.103387832641602 -8.313201904296875 1.486092805862427 0.000000000000000
10.107271194458008 -5.130151748657227 0.695245563983917 0.000000000000000
10.108758926391602 8.494591712951660 0.023045316338539 0.000000000000000
10.113119125366211 9.679853439331055 2.074697017669678 0.000000000000000
10.113408088684082 8.263295173645020 0.022793987765908 0.000000000000000
10.116490364074707 9.814525604248047 0.376475155353546 0.000000000000000
10.119147300720215 -5.872708797454834 0.920796036720276 0.000000000000000
10.122025489807129 5.842543601989746 0.626819133758545 0.000000000000000
10.122219085693359 7.407264709472656 1.858900427818298 0.000000000000000
10.122663497924805 -5.162651538848877 1.391193985939026 0.000000000000000
10.125179290771484 -9.074919700622559 0.860204219818115 0.000000000000000
10.130152702331543 -1.663959741592407 0.930657267570496 0.000000000000000
10.131567955017090 5.616941928863525 0.799903213977814 0.000000000000000
10.135441780090332 -7.070319652557373 0.591428577899933 0.000000000000000
10.136786460876465 -9.285724639892578 1.379399776458740 0.000000000000000
10.136986732482910 -8.376514434814453 1.192122459411621 0.000000000000000
10.137890815734863 8.431004524230957 1.614309906959534 0.000000000000000
10.139361381530762 8.534507751464844 0.277612715959549 0.000000000000000
10.141959190368652 6.984460830688477 0.660452306270599 0.000000000000000
10.145146369934082 5.082967281341553 0.128736227750778 0.000000000000000
10.146518707275391 3.519104003906250 0.886718273162842 0.000000000000000
10.147326469421387 8.810993194580078 0.178269684314728 0.000000000000000
10.148456573486328 -5.473294734954834 0.197236329317093 1.000000000000000
10.149544715881348 0.934219956398010 2.731058597564697 0.000000000000000
10.149923324584961 5.852509021759033 0.605826020240784 0.000000000000000
10.150199890136719 -9.225937843322754 0.867780923843384 0.000000000000000
10.151320457458496 5.044462680816650 0.957854568958282 0.000000000000000
10.152383804321289 -0.240674540400505 0.583768963813782 0.000000000000000
10.155062675476074 -4.838496208190918 1.496919155120850 0.000000000000000
10.158322334289551 -7.109762668609619 0.140670537948608 1.000000000000000
10.160759925842285 8.432031631469727 0.073744669556618 0.000000000000000
10.161439895629883 1.385442852973938 0.866582274436951 0.000000000000000
10.163668632507324 -5.464794158935547 0.086605921387672 1.000000000000000
10.163930892944336 -7.082020282745361 0.045404292643070 0.000000000000000
10.166115760803223 -8.424497604370117 1.499635696411133 0.000000000000000
10.169587135314941 5.008031368255615 0.063311837613583 1.000000000000000
10.172668457031250 9.772974014282227 0.702264666557312 0.000000000000000
10.172923088073730 -5.532415866851807 0.020210903137922 1.000000000000000
10.173420906066895 5.645723819732666 2.420078754425049 0.000000000000000
10.173944473266602 7.095327854156494 1.000160336494446 0.000000000000000
10.176224708557129 10.824829101562500 0.453924477100372 0.000000000000000
10.178984642028809 -4.132429122924805 0.758571624755859 0.000000000000000
10.179477691650391 1.279468774795532 0.708422720432281 0.000000000000000
10.180011749267578 4.631151199340820 0.040991414338350 0.000000000000000
10.180712699890137 -4.537856101989746 1.651899933815002 0.000000000000000
10.180727005004883 -8.354213714599609 1.612365603446960 0.000000000000000
10.181840896606445 5.807855606079102 0.380660682916641 0.000000000000000
10.187272071838379 -2.796862602233887 0.709083437919617 0.000000000000000
10.188411712646484 9.389088630676270 1.573669433593750 0.000000000000000
10.191729545593262 10.659070014953613 1.246154069900513 0.000000000000000
10.192254066467285 5.147582054138184 0.634389042854309 0.000000000000000
10.194167137145996 8.335513114929199 0.452941030263901 0.000000000000000
10.194310188293457 -5.898980140686035 0.995239257812500 0.000000000000000
10.194768905639648 0.139507606625557 0.704014003276825 0.000000000000000
10.195029258728027 6.588150024414062 0.955318033695221 0.000000000000000
10.197111129760742 9.628777503967285 1.049605369567871 0.000000000000000
10.197587013244629 8.727432250976562 1.108233213424683 0.000000000000000
10.205553054809570 3.349300146102905 2.878067970275879 0.000000000000000
10.205779075622559 1.462679147720337 0.731800079345703 0.000000000000000
10.206023216247559 8.239337921142578 0.905711948871613 0.000000000000000
10.207551002502441 -9.109947204589844 2.338632822036743 0.000000000000000
10.209431648254395 -5.985527038574219 1.124956488609314 0.000000000000000
10.216446876525879 5.843438625335693 0.789983749389648 0.000000000000000
10.217273712158203 9.114145278930664 0.102756351232529 0.000000000000000
10.218200683593750 6.235260009765625 2.046135187149048 0.000000000000000
10.220211029052734 9.750281333923340 1.604366421699524 0.000000000000000
10.226882934570312 9.519383430480957 1.710556030273438 0.000000000000000
10.229063987731934 8.671200752258301 0.900083243846893 0.000000000000000
10.229069709777832 -4.357582569122314 1.647795081138611 0.000000000000000
10.229945182800293 9.828001022338867 1.143867015838623 0.000000000000000
10.230772018432617 -8.711997032165527 1.788177251815796 0.000000000000000
10.231431007385254 9.926728248596191 0.106989078223705 0.000000000000000
10.232192039489746 7.964970588684082 0.870348334312439 0.000000000000000
10.233582496643066 7.457533836364746 1.438241720199585 0.000000000000000
10.233618736267090 9.790400505065918 2.420855522155762 0.000000000000000
10.234276771545410 9.928795814514160 0.161771103739738 0.000000000000000
10.235551834106445 -1.487914919853210 2.771434307098389 0.000000000000000
10.239379882812500 9.415269851684570 1.395773649215698 0.000000000000000
10.241263389587402 0.906624257564545 2.754869937896729 0.000000000000000
10.243154525756836 9.481614112854004 1.400566101074219 0.000000000000000
10.247467994689941 10.083531379699707 1.760137438774109 0.000000000000000
10.247715950012207 -4.957028865814209 1.687084078788757 0.000000000000000
10.248064041137695 -1.686266899108887 0.737180948257446 0.000000000000000
10.251943588256836 9.091875076293945 2.850170135498047 0.000000000000000
10.252453804016113 6.109746456146240 2.040069580078125 0.000000000000000
10.254762649536133 5.960750102996826 0.796145021915436 0.000000000000000
10.256996154785156 -7.049174308776855 0.595635354518890 0.000000000000000
10.258239746093750 8.159193038940430 1.082230687141418 0.000000000000000
10.260357856750488 -9.158362388610840 1.135552287101746 0.000000000000000
10.260581016540527 -4.451210498809814 1.369319796562195 0.000000000000000
10.260851860046387 -2.622325181961060 1.409330725669861 0.000000000000000
10.262382507324219 -2.556416511535645 1.201243281364441 0.000000000000000
10.262586593627930 -0.046212255954742 0.827519357204437 0.000000000000000
10.265491485595703 -5.603437423706055 0.132684066891670 1.000000000000000
10.268073081970215 -6.381868362426758 1.480148673057556 0.000000000000000
10.271575927734375 -3.850195407867432 1.245934486389160 0.000000000000000
10.272770881652832 1.692173838615417 0.718893408775330 0.000000000000000
10.272942543029785 -5.586810111999512 0.379751861095428 1.000000000000000
10.275914192199707 -6.923888206481934 0.164368897676468 1.000000000000000
10.277193069458008 9.823159217834473 2.106949329376221 0.000000000000000
10.277993202209473 10.793346405029297 0.484005093574524 0.000000000000000
10.279399871826172 -2.333724498748779 0.809233844280243 0.000000000000000
10.280296325683594 7.140209674835205 1.134701251983643 0.000000000000000
10.281964302062988 9.107596397399902 0.103086568415165 0.000000000000000
10.284859657287598 8.243855476379395 1.113792300224304 0.000000000000000
10.285549163818359 -1.946821570396423 1.789357423782349 0.000000000000000
10.291169166564941 -2.391422033309937 0.627698719501495 0.000000000000000
10.291856765747070 -2.365847587585449 0.403839290142059 0.000000000000000
10.297216415405273 7.164489746093750 0.769447505474091 0.000000000000000
10.299912452697754 9.502483367919922 0.535904824733734 0.000000000000000
10.301002502441406 -6.768809795379639 0.970068335533142 0.000000000000000
10.301072120666504 9.689943313598633 1.085714459419250 0.000000000000000
10.302380561828613 -7.985011577606201 1.181649327278137 0.000000000000000
10.304135322570801 2.197919607162476 0.504234492778778 0.000000000000000
10.304175376892090 9.074132919311523 1.305131196975708 0.000000000000000
10.305984497070312 5.439249038696289 1.550738573074341 0.000000000000000
10.306185722351074 10.120080947875977 1.768401026725769 0.000000000000000
10.307290077209473 2.898412942886353 1.586809039115906 0.000000000000000
10.307806015014648 -6.428781032562256 0.932624459266663 0.000000000000000
10.310173034667969 7.268177509307861 0.919711887836456 0.000000000000000
10.311070442199707 9.942693710327148 1.071994543075562 0.000000000000000
10.313376426696777 2.440646648406982 0.895546913146973 0.000000000000000
10.314270019531250 9.203253746032715 1.253155112266541 0.000000000000000
10.314450263977051 -4.683618068695068 0.673008799552917 0.000000000000000
10.319334030151367 8.935099601745605 1.671182632446289 0.000000000000000
10.322421073913574 -0.220189079642296 0.693010509014130 0.000000000000000
10.326538085937500 9.920799255371094 0.052485425025225 0.000000000000000
10.330261230468750 2.302277565002441 0.079431287944317 0.000000000000000
10.330490112304688 -5.638916969299316 2.011763334274292 0.000000000000000
10.334367752075195 -7.633361339569092 0.788059234619141 0.000000000000000
10.334466934204102 -10.417045593261719 1.666663050651550 0.000000000000000
10.335117340087891 10.702702522277832 0.941274583339691 0.000000000000000
10.335515022277832 -8.065697669982910 1.188511013984680 0.000000000000000
10.336066246032715 9.392577171325684 1.586309313774109 0.000000000000000
10.338272094726562 4.868347167968750 1.693534612655640 0.000000000000000
10.341363906860352 2.138210058212280 1.199437618255615 0.000000000000000
10.342763900756836 8.406538009643555 0.920315742492676 0.000000000000000
10.347180366516113 9.345467567443848 0.506386160850525 0.000000000000000
10.347949028015137 4.791513919830322 1.690016150474548 0.000000000000000
10.349641799926758 8.840681076049805 1.150166511535645 0.000000000000000
10.351613998413086 -3.998922586441040 0.573809981346130 0.000000000000000
10.352146148681641 9.118943214416504 1.202117323875427 0.000000000000000
10.353938102722168 -0.326470971107483 0.875339031219482 0.000000000000000
10.354770660400391 2.919566392898560 1.594432234764099 0.000000000000000
10.357026100158691 8.379777908325195 1.974421977996826 0.000000000000000
10.361511230468750 -4.675354003906250 0.960549056529999 0.000000000000000
10.363937377929688 9.830882072448730 0.299225330352783 0.000000000000000
10.367666244506836 8.631279945373535 1.009603381156921 0.000000000000000
10.369453430175781 -9.451368331909180 1.271934270858765 0.000000000000000
10.378513336181641 8.314165115356445 0.892582535743713 0.000000000000000
10.381974220275879 -5.761456489562988 0.499722629785538 1.000000000000000
10.383107185363770 -1.221939444541931 0.782427668571472 0.000000000000000
10.384882926940918 9.782123565673828 0.518145680427551 0.000000000000000
10.389275550842285 5.275570392608643 0.020336566492915 0.000000000000000
10.389592170715332 -5.744593143463135 0.020720539614558 1.000000000000000
10.392706871032715 6.784743309020996 1.519522070884705 0.000000000000000
10.396454811096191 -5.336401939392090 0.716795921325684 0.000000000000000
10.396720886230469 8.236792564392090 2.758938550949097 0.000000000000000
10.398386001586914 8.334852218627930 1.773403286933899 0.000000000000000
10.404050827026367 8.600255012512207 0.386477649211884 0.000000000000000
10.408219337463379 -6.839262485504150 0.213039860129356 1.000000000000000
10.410958290100098 -10.665152549743652 1.144194841384888 0.000000000000000
10.414921760559082 4.089535713195801 0.578560769557953 0.000000000000000
10.414981842041016 10.635799407958984 1.171551346778870 0.000000000000000
10.415843963623047 -4.397253513336182 0.562845945358276 0.000000000000000
10.418292045593262 9.801247596740723 1.624680519104004 0.000000000000000
10.420580863952637 1.752032518386841 0.729639589786530 0.000000000000000
10.423310279846191 -8.413855552673340 3.589302778244019 0.000000000000000
10.426567077636719 9.684895515441895 0.516839087009430 0.000000000000000
10.426711082458496 9.045298576354980 1.251349329948425 0.000000000000000
10.427581787109375 1.301041603088379 1.193569064140320 0.000000000000000
10.430349349975586 -5.757386684417725 0.226677373051643 1.000000000000000
10.431161880493164 -8.182310104370117 1.330278158187866 0.000000000000000
10.434771537780762 8.830880165100098 0.233837604522705 0.000000000000000
10.435423851013184 8.472168922424316 0.255744427442551 0.000000000000000
10.437954902648926 7.293538093566895 0.879259765148163 0.000000000000000
10.438013076782227 9.887668609619141 1.103779077529907 0.000000000000000
10.439286231994629 0.094928763806820 0.821623682975769 0.000000000000000
10.445342063903809 8.682981491088867 0.754654467105865 0.000000000000000
10.446676254272461 4.790364742279053 0.793565690517426 0.000000000000000
10.452173233032227 6.081844806671143 0.276536613702774 0.000000000000000
10.452174186706543 7.827481746673584 0.599822342395782 0.000000000000000
10.452689170837402 7.205983638763428 2.170143365859985 0.000000000000000
10.455040931701660 8.354520797729492 0.588996946811676 0.000000000000000
10.456170082092285 -4.194452285766602 0.821399867534637 1.000000000000000
10.461930274963379 2.282602548599243 1.310988783836365 0.000000000000000
10.461998939514160 4.330935001373291 0.150202825665474 0.000000000000000
10.463331222534180 -4.154983520507812 0.820818126201630 0.000000000000000
10.464198112487793 -1.874888300895691 0.529234290122986 0.000000000000000
10.464790344238281 7.693336963653564 0.846753358840942 0.000000000000000
10.465084075927734 -7.493368625640869 1.121559500694275 0.000000000000000
10.466142654418945 6.123767852783203 1.377299308776855 0.000000000000000
10.467944145202637 -10.007580757141113 3.012269020080566 0.000000000000000
10.473132133483887 5.356834888458252 0.540354073047638 0.000000000000000
10.473952293395996 -9.867047309875488 1.104697585105896 0.000000000000000
10.475099563598633 -5.791872024536133 0.388710111379623 1.000000000000000
10.475811004638672 -0.113729320466518 0.703190028667450 0.000000000000000
10.475911140441895 -8.657807350158691 1.663891196250916 0.000000000000000
10.476239204406738 -0.191642805933952 0.844879865646362 0.000000000000000
10.481034278869629 -2.409334659576416 0.742590129375458 0.000000000000000
10.483621597290039 -3.438325643539429 1.253157258033752 0.000000000000000
10.484338760375977 8.495804786682129 0.204920306801796 0.000000000000000
10.484953880310059 7.665959835052490 0.546650469303131 0.000000000000000
10.486974716186523 5.371312141418457 0.563893616199493 0.000000000000000
10.488032341003418 -6.702734947204590 0.165111690759659 1.000000000000000
10.488318443298340 -5.042276382446289 1.548627972602844 0.000000000000000
10.488928794860840 -1.432328820228577 0.894536495208740 0.000000000000000
10.489314079284668 8.422177314758301 0.566161692142487 0.000000000000000
10.490692138671875 9.966442108154297 2.473424196243286 0.000000000000000
10.491960525512695 8.372027397155762 0.178057461977005 0.000000000000000
10.501483917236328 -5.790436267852783 0.435538560152054 1.000000000000000
10.502204895019531 -5.797049522399902 0.043967537581921 0.000000000000000
10.503606796264648 -4.550541400909424 1.696466565132141 0.000000000000000
10.504016876220703 -9.211126327514648 1.126506567001343 0.000000000000000
10.506074905395508 -9.664891242980957 1.178670406341553 0.000000000000000
10.509860038757324 -4.786518573760986 0.797423303127289 0.000000000000000
10.510187149047852 2.487221479415894 0.579261481761932 0.000000000000000
10.511085510253906 -0.884857416152954 0.708011925220490 0.000000000000000
10.513956069946289 8.502500534057617 0.777287304401398 0.000000000000000
10.518265724182129 9.338232994079590 0.429737985134125 0.000000000000000
10.520404815673828 7.351150035858154 1.084490895271301 0.000000000000000
10.521916389465332 -0.212685763835907 0.767299115657806 0.000000000000000
10.524444580078125 7.502028465270996 0.842589855194092 0.000000000000000
10.531380653381348 8.321371078491211 0.513282537460327 0.000000000000000
10.536440849304199 -7.645061016082764 1.929268956184387 0.000000000000000
10.543861389160156 -4.757634639739990 0.442358404397964 0.000000000000000
10.544722557067871 0.047119803726673 1.562766551971436 0.000000000000000
10.546784400939941 10.025325775146484 1.781525373458862 0.000000000000000
10.548650741577148 -3.895367860794067 1.922127008438110 0.000000000000000
10.553908348083496 10.057732582092285 0.922332942485809 0.000000000000000
10.555306434631348 3.423313379287720 2.973313331604004 0.000000000000000
10.555584907531738 -1.959792137145996 0.973271727561951 0.000000000000000
10.558403015136719 2.663062572479248 1.613783597946167 0.000000000000000
10.562013626098633 -6.681931018829346 0.213792428374290 1.000000000000000
10.566201210021973 8.251656532287598 1.003334403038025 0.000000000000000
10.566290855407715 0.107702977955341 0.729639589786530 0.000000000000000
10.566431999206543 0.853498578071594 1.297864317893982 0.000000000000000
10.568232536315918 -3.944574594497681 1.928192496299744 0.000000000000000
10.580185890197754 7.685828685760498 1.938064932823181 0.000000000000000
10.581218719482422 -4.797849655151367 3.113075733184814 0.000000000000000
10.581740379333496 8.469087600708008 0.257874995470047 0.000000000000000
10.582963943481445 8.362129211425781 1.139725685119629 0.000000000000000
10.585521697998047 8.526501655578613 0.650514125823975 0.000000000000000
10.588014602661133 -6.646742343902588 0.405977457761765 1.000000000000000
10.589468002319336 8.452254295349121 0.544187128543854 0.000000000000000
10.589863777160645 1.744406580924988 0.575619578361511 0.000000000000000
10.590777397155762 -3.329913616180420 0.967388391494751 0.000000000000000
10.595090866088867 -6.607955455780029 0.573575556278229 1.000000000000000
10.596182823181152 9.946652412414551 1.115720152854919 0.000000000000000
10.598536491394043 -8.597236633300781 0.889689564704895 0.000000000000000
10.601513862609863 -2.023880958557129 0.870277702808380 0.000000000000000
10.607968330383301 1.639931678771973 0.803324282169342 0.000000000000000
10.614324569702148 -9.665745735168457 1.074382781982422 0.000000000000000
10.616546630859375 8.219026565551758 0.952982723712921 0.000000000000000
10.617581367492676 -8.184316635131836 1.783956050872803 0.000000000000000
10.618062973022461 -0.241142973303795 0.487860411405563 0.000000000000000
10.624215126037598 -7.999526977539062 2.273258924484253 0.000000000000000
10.630692481994629 9.609608650207520 0.713402271270752 0.000000000000000
10.631628990173340 10.561716079711914 0.948093593120575 0.000000000000000
10.636103630065918 0.301180511713028 0.964604437351227 0.000000000000000
10.639632225036621 8.781872749328613 0.341979712247849 0.000000000000000
10.639871597290039 2.102119684219360 1.607333183288574 0.000000000000000
10.641741752624512 10.094397544860840 0.081921145319939 0.000000000000000
10.644107818603516 7.493022918701172 0.898823320865631 0.000000000000000
10.652535438537598 -6.635520458221436 0.214681804180145 1.000000000000000
10.655503273010254 -2.062729120254517 0.917101979255676 0.000000000000000
10.656291007995605 -8.016102790832520 0.997960984706879 0.000000000000000
10.658072471618652 -1.254298925399780 1.020106911659241 0.000000000000000
10.659111022949219 -1.486280202865601 0.618661940097809 0.000000000000000
10.659588813781738 8.637816429138184 3.676265716552734 0.000000000000000
10.661829948425293 -8.159254074096680 1.786594271659851 0.000000000000000
10.663846969604492 -5.672931671142578 0.997311174869537 0.000000000000000
10.668827056884766 8.779393196105957 0.448691427707672 0.000000000000000
10.669759750366211 9.628029823303223 1.632354736328125 0.000000000000000
10.670836448669434 2.058353900909424 0.729442417621613 0.000000000000000
10.673689842224121 6.883472442626953 1.048657894134521 0.000000000000000
10.679457664489746 -8.232012748718262 1.139388918876648 0.000000000000000
10.680014610290527 8.400724411010742 0.807278394699097 0.000000000000000
10.681649208068848 4.410949230194092 0.597563862800598 1.000000000000000
10.682903289794922 9.639889717102051 1.160263180732727 0.000000000000000
10.683780670166016 -1.581644773483276 0.829135596752167 0.000000000000000
10.684863090515137 7.869505882263184 0.762825071811676 0.000000000000000
10.690776824951172 9.646993637084961 0.052778638899326 0.000000000000000
10.691687583923340 9.063367843627930 1.157275915145874 0.000000000000000
10.695162773132324 -4.385533809661865 0.619963943958282 0.000000000000000
10.695517539978027 -4.978086948394775 1.256599068641663 0.000000000000000
10.697999954223633 -1.235151886940002 1.433074474334717 0.000000000000000
10.698684692382812 -4.634611606597900 0.872581481933594 0.000000000000000
10.699296951293945 8.529527664184570 0.365474611520767 0.000000000000000
10.701928138732910 8.720819473266602 2.045963287353516 0.000000000000000
10.703413009643555 -6.477622032165527 0.165960595011711 1.000000000000000
10.703695297241211 0.068748898804188 0.718459308147430 0.000000000000000
10.704636573791504 -7.080140113830566 0.985287368297577 0.000000000000000
10.705359458923340 -0.568726003170013 0.823011994361877 0.000000000000000
10.706617355346680 -1.552194714546204 0.851438164710999 0.000000000000000
10.708836555480957 7.839977264404297 2.760567903518677 0.000000000000000
10.710297584533691 7.365941524505615 0.872491419315338 0.000000000000000
10.716515541076660 -5.051492691040039 1.074029803276062 0.000000000000000
10.717873573303223 6.893442153930664 0.855346918106079 0.000000000000000
10.720376014709473 1.695638060569763 0.812279939651489 0.000000000000000
10.723036766052246 9.284650802612305 0.952052295207977 0.000000000000000
10.725152015686035 -6.474676609039307 0.021865474060178 0.000000000000000
10.725192070007324 5.995090961456299 0.469872057437897 0.000000000000000
10.725805282592773 8.234362602233887 0.517103850841522 0.000000000000000
10.725956916809082 7.816343307495117 0.865228891372681 0.000000000000000
10.726737022399902 1.710654973983765 0.687203705310822 0.000000000000000
10.727210044860840 7.944674015045166 0.715936303138733 0.000000000000000
10.729459762573242 -8.891331672668457 0.693712592124939 0.000000000000000
10.729661941528320 -0.217635139822960 1.313905358314514 0.000000000000000
10.731412887573242 -0.638691425323486 0.742314577102661 0.000000000000000
10.732659339904785 -1.855974078178406 0.836177706718445 0.000000000000000
10.733182907104492 1.426773428916931 0.981577992439270 0.000000000000000
10.734435081481934 9.618616104125977 0.274234741926193 0.000000000000000
10.734740257263184 -3.185074329376221 1.490059733390808 0.000000000000000
10.741352081298828 4.391780376434326 0.600042521953583 0.000000000000000
10.743212699890137 1.018936514854431 1.321196794509888 0.000000000000000
10.745481491088867 9.369918823242188 0.737195074558258 0.000000000000000
10.746116638183594 -6.468665599822998 0.479654699563980 1.000000000000000
10.748099327087402 -4.911563396453857 1.258717417716980 0.000000000000000
10.748374938964844 1.752603411674500 0.857087254524231 0.000000000000000
10.749139785766602 -6.395574569702148 0.550480842590332 1.000000000000000
10.752560615539551 -4.806700229644775 0.995239257812500 0.000000000000000
10.755471229553223 2.507629871368408 0.422334611415863 0.000000000000000
10.756842613220215 -6.669005870819092 2.163403749465942 0.000000000000000
10.760350227355957 8.729433059692383 0.024183271452785 0.000000000000000
10.761437416076660 10.411094665527344 0.284887582063675 0.000000000000000
10.762364387512207 9.929131507873535 0.785344839096069 0.000000000000000
10.767420768737793 -4.563624382019043 0.559686839580536 0.000000000000000
10.768854141235352 -1.605765223503113 2.917408227920532 0.000000000000000
10.770911216735840 -1.509152293205261 1.447320699691772 0.000000000000000
10.779730796813965 -7.668119430541992 1.117833852767944 0.000000000000000
10.785717964172363 9.743598937988281 0.779560804367065 0.000000000000000
10.785824775695801 -6.420460224151611 0.311151981353760 1.000000000000000
10.788035392761230 8.647176742553711 0.528720676898956 0.000000000000000
10.789893150329590 -6.840607643127441 1.113225817680359 0.000000000000000
10.796034812927246 -8.511213302612305 1.055402636528015 0.000000000000000
10.799174308776855 4.283982276916504 0.779804289340973 0.000000000000000
10.799274444580078 -9.618761062622070 3.875039100646973 0.000000000000000
10.800990104675293 -9.170929908752441 2.099912405014038 0.000000000000000
10.810379028320312 -4.009179592132568 1.309585452079773 0.000000000000000
10.810714721679688 -9.073839187622070 0.920135200023651 0.000000000000000
10.813304901123047 2.177985668182373 0.910745859146118 0.000000000000000
10.813806533813477 -6.377193927764893 0.214750215411186 1.000000000000000
10.814915657043457 9.726178169250488 2.155620813369751 0.000000000000000
10.815929412841797 1.387857675552368 0.879279494285583 0.000000000000000
10.818470954895020 1.520051598548889 0.649048984050751 0.000000000000000
10.819900512695312 -0.681868195533752 0.916091561317444 0.000000000000000
10.823633193969727 0.268684744834900 1.850687384605408 0.000000000000000
10.823824882507324 -6.231267929077148 1.330317258834839 0.000000000000000
10.825370788574219 1.512930035591125 0.952457427978516 0.000000000000000
10.826463699340820 -1.211703896522522 0.752234101295471 0.000000000000000
10.827357292175293 0.399102628231049 1.154071450233459 0.000000000000000
10.830914497375488 -0.634748876094818 1.607919573783875 0.000000000000000
10.835211753845215 2.852269411087036 1.371750235557556 0.000000000000000
10.837115287780762 8.496777534484863 0.500143408775330 0.000000000000000
10.845530509948730 -5.822147846221924 2.104095458984375 0.000000000000000
10.846800804138184 -5.546288967132568 1.005868911743164 0.000000000000000
10.861548423767090 -7.063818931579590 0.844671607017517 0.000000000000000
10.864905357360840 9.813071250915527 0.757024347782135 0.000000000000000
10.866494178771973 9.294649124145508 0.601820111274719 0.000000000000000
10.869570732116699 -1.707571983337402 0.997468113899231 0.000000000000000
10.874354362487793 7.443593502044678 1.194650411605835 0.000000000000000
10.879840850830078 -4.388895034790039 0.923306703567505 0.000000000000000
10.881483078002930 9.830111503601074 0.335337191820145 0.000000000000000
10.884073257446289 -0.878005921840668 0.732924878597260 0.000000000000000
10.884319305419922 -0.574613749980927 0.731585502624512 0.000000000000000
10.885587692260742 8.787952423095703 1.182162404060364 0.000000000000000
10.887604713439941 7.584290027618408 0.635025680065155 0.000000000000000
10.890389442443848 -3.189938068389893 1.510110139846802 0.000000000000000
10.897112846374512 8.307991981506348 0.893332600593567 0.000000000000000
10.898980140686035 -6.209611415863037 0.070058554410934 1.000000000000000
10.899019241333008 5.559079647064209 0.844816803932190 0.000000000000000
10.899291992187500 -4.901536941528320 1.041348814964294 0.000000000000000
10.899623870849609 8.302690505981445 0.708483874797821 0.000000000000000
10.900033950805664 1.100266218185425 1.457873702049255 0.000000000000000
10.909012794494629 -0.496520191431046 0.585688173770905 0.000000000000000
10.910065650939941 1.297473549842834 0.996023535728455 0.000000000000000
10.911821365356445 -0.257532358169556 0.901200652122498 0.000000000000000
10.914990425109863 9.519748687744141 0.776775836944580 0.000000000000000
10.918492317199707 0.738413870334625 0.671246230602264 0.000000000000000
10.923151016235352 7.938473224639893 1.283555746078491 0.000000000000000
10.928604125976562 -0.838607907295227 0.714561998844147 0.000000000000000
10.929815292358398 8.304908752441406 1.377403020858765 0.000000000000000
10.930456161499023 -1.241696476936340 1.103839397430420 0.000000000000000
10.936859130859375 -4.860028266906738 0.757161557674408 0.000000000000000
10.940360069274902 -2.807175397872925 0.867101848125458 0.000000000000000
10.940439224243164 10.082117080688477 0.740649580955505 0.000000000000000
10.943533897399902 -3.152895927429199 1.082562446594238 0.000000000000000
10.945562362670898 8.573780059814453 0.478241920471191 0.000000000000000
10.945729255676270 2.869109630584717 1.385360836982727 0.000000000000000
10.948578834533691 -0.960186958312988 0.907454431056976 0.000000000000000
10.949704170227051 5.958082199096680 0.237178042531013 0.000000000000000
10.957638740539551 1.361156225204468 0.869013011455536 0.000000000000000
10.958275794982910 9.555472373962402 0.975893795490265 0.000000000000000
10.960204124450684 9.165457725524902 0.766278862953186 0.000000000000000
10.960679054260254 -0.613948345184326 0.758020579814911 0.000000000000000
10.963392257690430 -9.322002410888672 2.132750988006592 0.000000000000000
10.973826408386230 8.011643409729004 0.676409602165222 0.000000000000000
10.975193977355957 -6.174365043640137 1.263584494590759 0.000000000000000
10.975284576416016 -1.536225318908691 0.551708340644836 0.000000000000000
10.975413322448730 0.023178450763226 0.525268137454987 0.000000000000000
10.978714942932129 10.162488937377930 0.687189340591431 0.000000000000000
10.979168891906738 7.862631797790527 0.802296698093414 0.000000000000000
10.980576515197754 3.340761661529541 1.961890578269958 0.000000000000000
10.984691619873047 -1.292737126350403 0.657114684581757 0.000000000000000
10.988643646240234 -3.751971721649170 0.868999242782593 0.000000000000000
10.990448951721191 8.991742134094238 0.953123807907104 0.000000000000000
10.991640090942383 -2.688823938369751 0.606896340847015 0.000000000000000
10.995702743530273 -3.997544765472412 0.920796036720276 0.000000000000000
10.996003150939941 9.392804145812988 0.998570144176483 0.000000000000000
10.996665000915527 7.114605903625488 1.056099891662598 0.000000000000000
10.999865531921387 8.554532051086426 0.693712592124939 0.000000000000000
11.003426551818848 -4.238810062408447 1.068973779678345 0.000000000000000
11.004753112792969 0.993379414081573 1.352792739868164 0.000000000000000
11.006604194641113 6.288753509521484 0.436027944087982 0.000000000000000
11.007701873779297 8.568952560424805 0.855649173259735 0.000000000000000
11.012914657592773 -0.507412731647491 0.718725502490997 0.000000000000000
11.014262199401855 8.063580513000488 1.297560811042786 0.000000000000000
11.017904281616211 7.743227005004883 0.826017320156097 0.000000000000000
11.023123741149902 9.495454788208008 2.486903429031372 0.000000000000000
11.024627685546875 -6.236926078796387 1.438693165779114 0.000000000000000
11.025550842285156 -7.997014999389648 1.186839103698730 0.000000000000000
11.032186508178711 8.669635772705078 0.159184589982033 0.000000000000000
11.033455848693848 -1.717732787132263 0.191010698676109 0.000000000000000
11.035446166992188 6.254234313964844 0.436302930116653 0.000000000000000
11.040445327758789 -6.276433944702148 2.170817375183105 0.000000000000000
11.044010162353516 6.426218986511230 0.882290720939636 0.000000000000000
11.044454574584961 -5.050018787384033 0.534476459026337 0.000000000000000
11.044684410095215 7.503714561462402 0.973521709442139 0.000000000000000
11.053385734558105 -5.911630630493164 0.793024480342865 0.000000000000000
11.054057121276855 -4.369693756103516 0.568865180015564 0.000000000000000
11.056559562683105 8.248508453369141 1.835664987564087 0.000000000000000
11.057551383972168 -0.772443473339081 0.936636328697205 0.000000000000000
11.059015274047852 -6.064421176910400 1.343451023101807 0.000000000000000
11.060842514038086 7.913532257080078 1.232931256294250 0.000000000000000
11.061482429504395 -6.308846473693848 1.446367502212524 0.000000000000000
11.065323829650879 -3.452397584915161 0.755676627159119 0.000000000000000
11.066959381103516 -4.645076274871826 0.574410438537598 0.000000000000000
11.068997383117676 1.114199042320251 1.362028360366821 0.000000000000000
11.069331169128418 9.733542442321777 1.284411311149597 0.000000000000000
11.070725440979004 -0.471356332302094 1.258574366569519 0.000000000000000
11.070932388305664 9.369259834289551 0.694111168384552 0.000000000000000
11.078454971313477 8.561780929565430 0.723975539207458 0.000000000000000
11.078750610351562 -4.799254417419434 2.511310338973999 0.000000000000000
11.081090927124023 1.337233543395996 0.878428101539612 0.000000000000000
11.081837654113770 -2.801666498184204 1.298299908638000 0.000000000000000
11.082060813903809 0.071179114282131 0.915024757385254 0.000000000000000
