# This PCD file was generated using the MATLAB® pcwrite function
# from Computer Vision Toolbox®.
# .PCD v.7 - Point Cloud Data file format
VERSION .7
FIELDS x y z intensity
SIZE 8 8 8 8
TYPE F F F F
COUNT 1 1 1 1
WIDTH 643
HEIGHT 1
VIEWPOINT 0 0 0 1 0 0 0
POINTS 643
DATA ascii
15.419385910034180 15.217264175415039 0.079402536153793 0.000000000000000
15.419618606567383 -7.092884063720703 3.530333518981934 0.000000000000000
15.420991897583008 -0.556836962699890 1.125061869621277 0.000000000000000
15.421061515808105 -5.746686935424805 0.313117623329163 1.000000000000000
15.422372817993164 -4.477110862731934 2.745029211044312 0.000000000000000
15.423813819885254 -1.256686449050903 1.128261327743530 0.000000000000000
15.428479194641113 -2.747675180435181 1.779970884323120 0.000000000000000
15.428626060485840 -22.266815185546875 3.316602468490601 0.000000000000000
15.428696632385254 4.194198131561279 1.957490682601929 0.000000000000000
15.431518554687500 -5.131588459014893 1.417053937911987 0.000000000000000
15.431927680969238 15.420073509216309 0.121842905879021 0.000000000000000
15.434093475341797 -17.442611694335938 3.099366426467896 0.000000000000000
15.435056686401367 -3.711043119430542 1.249382734298706 0.000000000000000
15.435790061950684 15.688944816589355 0.545581519603729 0.000000000000000
15.435891151428223 -20.651609420776367 0.243004873394966 1.000000000000000
15.437172889709473 -9.552067756652832 1.183477044105530 0.000000000000000
15.437441825866699 7.567401409149170 2.287853956222534 0.000000000000000
15.438365936279297 -5.409766674041748 0.751429855823517 0.000000000000000
15.439218521118164 15.549551010131836 1.175232291221619 0.000000000000000
15.439935684204102 -19.412050247192383 0.138530954718590 1.000000000000000
15.444714546203613 15.418865203857422 0.079988963901997 0.000000000000000
15.448450088500977 -9.759313583374023 1.367531895637512 0.000000000000000
15.451759338378906 10.530994415283203 1.038897991180420 0.000000000000000
15.456001281738281 10.933739662170410 1.343804717063904 0.000000000000000
15.456090927124023 20.260406494140625 1.219570517539978 0.000000000000000
15.456386566162109 -15.566844940185547 1.911512255668640 0.000000000000000
15.456943511962891 -24.319639205932617 -0.005029341205955 1.000000000000000
15.458991050720215 14.201330184936523 0.076939530670643 0.000000000000000
15.460441589355469 21.195333480834961 2.115414619445801 0.000000000000000
15.463344573974609 3.671913146972656 1.945824384689331 0.000000000000000
15.464857101440430 14.236606597900391 -0.407275706529617 0.000000000000000
15.472094535827637 -4.697536945343018 0.773847937583923 0.000000000000000
15.481063842773438 -5.387441635131836 0.816027164459229 0.000000000000000
15.481827735900879 -20.870641708374023 3.181468963623047 0.000000000000000
15.484540939331055 -3.164721727371216 1.585870504379272 0.000000000000000
15.488232612609863 -5.700401306152344 0.631132662296295 0.000000000000000
15.488699913024902 1.218447923660278 1.162745475769043 0.000000000000000
15.493560791015625 20.232528686523438 2.220548868179321 0.000000000000000
15.495637893676758 13.572104454040527 1.422356247901917 0.000000000000000
15.498433113098145 3.028315305709839 2.340337991714478 0.000000000000000
15.498625755310059 -25.004520416259766 -1.022167205810547 1.000000000000000
15.501201629638672 6.071104526519775 3.462724685668945 0.000000000000000
15.503718376159668 16.617557525634766 1.613131999969482 0.000000000000000
15.504370689392090 14.286002159118652 2.581146001815796 0.000000000000000
15.509227752685547 15.775697708129883 0.973630070686340 0.000000000000000
15.509653091430664 12.976830482482910 2.029163360595703 0.000000000000000
15.510958671569824 -0.089879222214222 1.280705571174622 0.000000000000000
15.512265205383301 20.878143310546875 1.545287013053894 0.000000000000000
15.512657165527344 -24.034984588623047 -0.883997797966003 1.000000000000000
15.512974739074707 14.073222160339355 1.769875526428223 0.000000000000000
15.514504432678223 11.056590080261230 -0.698575675487518 0.000000000000000
15.514981269836426 7.655178070068359 1.965055346488953 0.000000000000000
15.517660140991211 6.836988925933838 3.527075529098511 0.000000000000000
15.520816802978516 12.584667205810547 1.418287515640259 0.000000000000000
15.521105766296387 -17.118595123291016 1.729341268539429 0.000000000000000
15.522946357727051 -3.541544675827026 1.314607501029968 0.000000000000000
15.523411750793457 -18.065477371215820 2.705393314361572 0.000000000000000
15.524816513061523 5.214429378509521 2.427125930786133 0.000000000000000
15.525619506835938 15.161928176879883 1.707897782325745 0.000000000000000
15.527819633483887 10.603481292724609 1.117094874382019 0.000000000000000
15.527894020080566 16.919614791870117 0.569272339344025 0.000000000000000
15.527992248535156 3.712473630905151 2.366139888763428 0.000000000000000
15.528974533081055 20.405357360839844 1.721141219139099 0.000000000000000
15.529705047607422 -15.272724151611328 2.666697978973389 0.000000000000000
15.530302047729492 12.194396972656250 0.299849301576614 0.000000000000000
15.531228065490723 11.984863281250000 1.089933156967163 0.000000000000000
15.531578063964844 -0.191932424902916 0.773266792297363 0.000000000000000
15.531590461730957 15.683587074279785 1.013898015022278 0.000000000000000
15.534463882446289 -0.662494719028473 0.923756182193756 0.000000000000000
15.534985542297363 -12.919392585754395 1.317229747772217 0.000000000000000
15.536634445190430 6.910214424133301 3.536849975585938 0.000000000000000
15.539443969726562 -10.021781921386719 1.455259442329407 0.000000000000000
15.540429115295410 -19.344984054565430 2.162213802337646 0.000000000000000
15.543777465820312 -2.240999937057495 1.368441462516785 0.000000000000000
15.544453620910645 3.708372831344604 1.956518292427063 0.000000000000000
15.545817375183105 -0.059962444007397 1.559911847114563 0.000000000000000
15.546398162841797 15.288615226745605 1.379458546638489 0.000000000000000
15.549421310424805 -1.259817838668823 1.167521834373474 0.000000000000000
15.551941871643066 -4.862358093261719 1.994919538497925 0.000000000000000
15.554883003234863 -4.889814376831055 1.000134825706482 0.000000000000000
15.556384086608887 6.155439853668213 3.479830503463745 0.000000000000000
15.556475639343262 7.419395446777344 -0.168459296226501 0.000000000000000
15.561695098876953 -23.970235824584961 -0.553727626800537 1.000000000000000
15.562123298645020 14.401103019714355 -0.614477992057800 0.000000000000000
15.564849853515625 -3.055958986282349 1.801639318466187 0.000000000000000
15.569539070129395 15.272384643554688 1.295725822448730 0.000000000000000
15.570237159729004 -22.409313201904297 -0.948133349418640 1.000000000000000
15.573512077331543 20.045455932617188 1.801746129989624 0.000000000000000
15.574800491333008 8.607683181762695 2.178662300109863 0.000000000000000
15.578919410705566 4.237955570220947 1.333039641380310 0.000000000000000
15.583388328552246 -6.899425506591797 1.710072278976440 0.000000000000000
15.585327148437500 10.602915763854980 -0.473853141069412 0.000000000000000
15.587364196777344 -1.534397006034851 1.293213009834290 0.000000000000000
15.588028907775879 -6.360087394714355 0.384993076324463 0.000000000000000
15.588289260864258 -2.543741703033447 1.029687523841858 0.000000000000000
15.589063644409180 6.977900028228760 0.128182753920555 0.000000000000000
15.589267730712891 -4.792609214782715 0.780540466308594 0.000000000000000
15.589853286743164 -21.005537033081055 0.698695182800293 1.000000000000000
15.598319053649902 16.631458282470703 1.986861586570740 0.000000000000000
15.601362228393555 12.652672767639160 0.999996304512024 0.000000000000000
15.601409912109375 -16.731636047363281 2.174587965011597 0.000000000000000
15.603531837463379 -2.646983861923218 2.705265760421753 0.000000000000000
15.603822708129883 -15.637626647949219 2.704613208770752 0.000000000000000
15.605588912963867 -21.083585739135742 2.165778160095215 0.000000000000000
15.607296943664551 21.451679229736328 1.116512537002563 0.000000000000000
15.608867645263672 -19.706203460693359 0.671460807323456 1.000000000000000
15.609264373779297 -19.661540985107422 0.622303962707520 1.000000000000000
15.610109329223633 21.277040481567383 1.822170138359070 0.000000000000000
15.613500595092773 -12.621470451354980 1.541310429573059 0.000000000000000
15.617058753967285 0.300409287214279 1.416029095649719 0.000000000000000
15.629541397094727 12.775328636169434 1.471771717071533 0.000000000000000
15.629652023315430 13.313175201416016 1.417672157287598 0.000000000000000
15.630316734313965 13.373633384704590 1.301418781280518 0.000000000000000
15.632014274597168 -19.283962249755859 -0.004332605283707 0.000000000000000
15.632596015930176 19.057882308959961 0.374310553073883 0.000000000000000
15.636178016662598 16.845382690429688 0.437299400568008 0.000000000000000
15.639192581176758 7.815826416015625 -0.137317612767220 0.000000000000000
15.640139579772949 20.089931488037109 1.561669945716858 0.000000000000000
15.641929626464844 20.605987548828125 1.536984086036682 0.000000000000000
15.644952774047852 -5.735148906707764 -0.546946704387665 1.000000000000000
15.648332595825195 -21.202404022216797 0.805117428302765 1.000000000000000
15.649959564208984 -24.341785430908203 -0.282850533723831 1.000000000000000
15.652102470397949 -22.031158447265625 2.449972391128540 0.000000000000000
15.655296325683594 21.653989791870117 1.021826505661011 0.000000000000000
15.656370162963867 14.514207839965820 0.898525178432465 0.000000000000000
15.656720161437988 16.276006698608398 0.733407914638519 0.000000000000000
15.657567024230957 -12.477362632751465 1.537023901939392 0.000000000000000
15.659978866577148 -16.409004211425781 1.828965544700623 0.000000000000000
15.661085128784180 5.314395904541016 2.200792789459229 0.000000000000000
15.661160469055176 -9.893690109252930 1.760867357254028 0.000000000000000
15.661165237426758 9.963444709777832 1.568470001220703 0.000000000000000
15.662154197692871 -3.285119771957397 1.352245569229126 0.000000000000000
15.664180755615234 10.736733436584473 0.981962859630585 0.000000000000000
15.667823791503906 15.875941276550293 0.810101747512817 0.000000000000000
15.671196937561035 17.812431335449219 2.380602836608887 0.000000000000000
15.672828674316406 13.808699607849121 0.397427290678024 0.000000000000000
15.672988891601562 -3.020411252975464 1.812924981117249 0.000000000000000
15.677522659301758 20.452047348022461 1.332486748695374 0.000000000000000
15.678226470947266 7.125488281250000 0.294588863849640 0.000000000000000
15.678635597229004 -6.099923133850098 -0.746295690536499 1.000000000000000
15.678692817687988 8.030796051025391 1.596960186958313 0.000000000000000
15.679154396057129 -6.410677909851074 1.923975586891174 0.000000000000000
15.679537773132324 -1.450682640075684 1.087295174598694 0.000000000000000
15.679641723632812 2.602494955062866 1.097490310668945 0.000000000000000
15.679921150207520 7.411193847656250 -0.169514864683151 0.000000000000000
15.688257217407227 20.628120422363281 1.439856648445129 0.000000000000000
15.689401626586914 -2.335839271545410 1.034111261367798 0.000000000000000
15.696304321289062 -8.625905036926270 1.098580956459045 0.000000000000000
15.699958801269531 11.126886367797852 1.676783442497253 0.000000000000000
15.702656745910645 20.117288589477539 0.632612943649292 0.000000000000000
15.705181121826172 7.625353813171387 -0.438872039318085 0.000000000000000
15.709484100341797 18.166255950927734 2.940367460250854 0.000000000000000
15.711547851562500 -4.310279846191406 1.250745415687561 0.000000000000000
15.714908599853516 17.049182891845703 2.633616447448730 0.000000000000000
15.715113639831543 -4.987543106079102 0.820800483226776 0.000000000000000
15.716758728027344 10.883610725402832 1.393820166587830 0.000000000000000
15.718808174133301 6.021930217742920 -0.326146006584167 0.000000000000000
15.719553947448730 -6.075759887695312 1.261257886886597 0.000000000000000
15.722197532653809 -19.536308288574219 2.185131072998047 0.000000000000000
15.722760200500488 -0.346366405487061 1.925408482551575 0.000000000000000
15.724080085754395 -4.973477363586426 1.361675262451172 0.000000000000000
15.724099159240723 -0.792146384716034 2.333301305770874 0.000000000000000
15.726194381713867 14.446794509887695 2.425509452819824 0.000000000000000
15.726322174072266 -22.755792617797852 1.217389345169067 1.000000000000000
15.728293418884277 -6.039415836334229 1.423646807670593 0.000000000000000
15.728733062744141 -1.548313379287720 1.502339243888855 0.000000000000000
15.729361534118652 18.227785110473633 2.947658777236938 0.000000000000000
15.731967926025391 1.158599019050598 1.791707992553711 0.000000000000000
15.732940673828125 -24.190538406372070 0.438203901052475 1.000000000000000
15.736948966979980 1.909677982330322 1.590662837028503 0.000000000000000
15.737152099609375 12.127123832702637 0.110963270068169 0.000000000000000
15.739075660705566 -11.783332824707031 1.972853183746338 0.000000000000000
15.743953704833984 0.405120521783829 2.095792293548584 0.000000000000000
15.749886512756348 -5.929092407226562 -0.487712204456329 1.000000000000000
15.750237464904785 -21.317888259887695 0.758874475955963 1.000000000000000
15.751344680786133 -13.138436317443848 1.949747800827026 0.000000000000000
15.754723548889160 -23.541233062744141 -0.548845887184143 1.000000000000000
15.755301475524902 -4.939827919006348 0.821993768215179 1.000000000000000
15.755352973937988 1.052547454833984 1.793513774871826 0.000000000000000
15.759907722473145 -20.028707504272461 0.338075727224350 1.000000000000000
15.760981559753418 16.131727218627930 0.559062480926514 0.000000000000000
15.761306762695312 12.873859405517578 1.013122677803040 0.000000000000000
15.767748832702637 -6.823966503143311 0.888393402099609 0.000000000000000
15.769694328308105 -7.024748325347900 1.058908700942993 0.000000000000000
15.770150184631348 12.707646369934082 1.836034655570984 0.000000000000000
15.773627281188965 8.777328491210938 0.412793099880219 0.000000000000000
15.774448394775391 10.812314987182617 -0.774798214435577 0.000000000000000
15.775123596191406 3.582286357879639 0.867606818675995 0.000000000000000
15.779528617858887 -7.392342090606689 1.035252213478088 0.000000000000000
15.780405998229980 11.750355720520020 -0.230080127716064 0.000000000000000
15.780718803405762 19.890333175659180 1.459537029266357 0.000000000000000
15.780832290649414 -13.030933380126953 1.650216341018677 0.000000000000000
15.784104347229004 -8.243312835693359 2.369638204574585 0.000000000000000
15.784300804138184 20.064037322998047 1.910544395446777 0.000000000000000
15.788716316223145 -8.868187904357910 2.217063426971436 0.000000000000000
15.792349815368652 11.223875045776367 -0.822197318077087 0.000000000000000
15.801344871520996 -18.388925552368164 1.954990386962891 0.000000000000000
15.804043769836426 25.897253036499023 0.752058029174805 1.000000000000000
15.804276466369629 -7.242770195007324 1.334638833999634 0.000000000000000
15.806538581848145 -19.676240921020508 0.237877875566483 1.000000000000000
15.808567047119141 17.112979888916016 0.353782087564468 0.000000000000000
15.809359550476074 -3.584254741668701 1.412539958953857 0.000000000000000
15.812687873840332 14.551728248596191 1.069805026054382 0.000000000000000
15.815422058105469 1.951977968215942 0.885348796844482 0.000000000000000
15.815629959106445 7.955822944641113 2.355919599533081 0.000000000000000
15.817122459411621 18.721006393432617 3.632185935974121 0.000000000000000
15.823760986328125 13.574119567871094 2.774339437484741 0.000000000000000
15.825469970703125 20.744600296020508 1.650703191757202 0.000000000000000
15.825824737548828 -7.481508731842041 1.039996623992920 0.000000000000000
15.827173233032227 7.932923316955566 0.030899293720722 0.000000000000000
15.827327728271484 15.839488983154297 -0.089887008070946 0.000000000000000
15.830069541931152 21.586332321166992 1.900017976760864 0.000000000000000
15.832583427429199 19.330570220947266 0.811435639858246 0.000000000000000
15.834081649780273 -19.485219955444336 0.140228807926178 1.000000000000000
15.843842506408691 -2.538055896759033 0.984216868877411 0.000000000000000
15.845305442810059 6.125643730163574 -0.361783593893051 0.000000000000000
15.846830368041992 -10.705327987670898 1.918939232826233 0.000000000000000
15.849815368652344 19.823505401611328 1.410123229026794 0.000000000000000
15.850440025329590 -3.903802871704102 2.172300338745117 0.000000000000000
15.851213455200195 -3.787403106689453 1.062475085258484 0.000000000000000
15.856798171997070 8.839564323425293 1.498929142951965 0.000000000000000
15.859853744506836 -7.295388221740723 1.659424424171448 0.000000000000000
15.864279747009277 16.539644241333008 0.524084448814392 0.000000000000000
15.864655494689941 -18.332756042480469 2.753695964813232 0.000000000000000
15.865490913391113 5.218143939971924 2.475210905075073 0.000000000000000
15.866509437561035 15.658524513244629 0.595418155193329 0.000000000000000
15.873604774475098 -8.411026954650879 1.309760451316833 0.000000000000000
15.874539375305176 4.068218708038330 2.180742740631104 0.000000000000000
15.875563621520996 19.661474227905273 0.820653498172760 0.000000000000000
15.876328468322754 9.274401664733887 -0.215018972754478 0.000000000000000
15.876837730407715 -5.082826614379883 0.990416526794434 0.000000000000000
15.877929687500000 14.018992424011230 1.920180320739746 0.000000000000000
15.881966590881348 -20.111499786376953 1.720069766044617 0.000000000000000
15.885806083679199 -12.686465263366699 2.039946317672729 0.000000000000000
15.888398170471191 -19.829126358032227 0.581056058406830 1.000000000000000
15.891547203063965 3.667107582092285 1.126146912574768 0.000000000000000
15.891807556152344 15.456266403198242 2.950043916702271 0.000000000000000
15.892304420471191 13.562750816345215 1.725051999092102 0.000000000000000
15.893316268920898 20.394552230834961 2.034915208816528 0.000000000000000
15.899322509765625 -0.622458457946777 1.190806508064270 0.000000000000000
15.901717185974121 -15.274793624877930 1.998908758163452 0.000000000000000
15.906004905700684 7.862624168395996 -0.411945223808289 0.000000000000000
15.906023979187012 -19.784515380859375 0.726820707321167 1.000000000000000
15.906984329223633 16.812929153442383 0.929612874984741 0.000000000000000
15.911945343017578 2.737604379653931 1.052586793899536 0.000000000000000
15.917939186096191 12.305447578430176 1.753174543380737 0.000000000000000
15.919581413269043 -7.334984779357910 1.589015007019043 0.000000000000000
15.920548439025879 -13.190291404724121 1.965267181396484 0.000000000000000
15.924433708190918 2.639698743820190 1.052326560020447 0.000000000000000
15.927065849304199 20.460681915283203 1.690384149551392 0.000000000000000
15.927297592163086 3.215552091598511 0.871462881565094 0.000000000000000
15.927403450012207 14.111707687377930 2.266623497009277 0.000000000000000
15.927967071533203 -0.186821326613426 1.950199127197266 0.000000000000000
15.934481620788574 -23.105247497558594 -0.975218892097473 1.000000000000000
15.935511589050293 -3.819306850433350 1.321330428123474 0.000000000000000
15.936802864074707 20.640657424926758 1.348391532897949 0.000000000000000
15.937839508056641 15.256628990173340 1.693787932395935 0.000000000000000
15.941157341003418 -14.211041450500488 1.804565787315369 0.000000000000000
15.941787719726562 -11.162144660949707 1.231208324432373 0.000000000000000
15.942926406860352 5.416861534118652 0.935496330261230 0.000000000000000
15.946775436401367 16.008686065673828 0.039437439292669 0.000000000000000
15.949632644653320 8.975789070129395 -0.284312486648560 0.000000000000000
15.952413558959961 -5.076036453247070 1.026827931404114 0.000000000000000
15.952807426452637 -3.882386445999146 1.864838838577271 0.000000000000000
15.953614234924316 7.955570697784424 -0.413894921541214 0.000000000000000
15.965703964233398 1.622298955917358 1.294003605842590 0.000000000000000
15.970909118652344 -24.600563049316406 2.138432025909424 1.000000000000000
15.973926544189453 14.186302185058594 1.433971881866455 0.000000000000000
15.974828720092773 13.924931526184082 -0.044384386390448 0.000000000000000
15.975461006164551 16.772373199462891 0.885786771774292 0.000000000000000
15.978328704833984 15.013051033020020 1.556208014488220 0.000000000000000
15.978386878967285 1.256970047950745 1.523536205291748 0.000000000000000
15.981018066406250 8.194798469543457 3.735604763031006 0.000000000000000
15.995001792907715 -11.309173583984375 1.466044425964355 0.000000000000000
15.997536659240723 -3.297209978103638 1.380199790000916 0.000000000000000
15.997698783874512 -12.086679458618164 2.454762220382690 0.000000000000000
15.998480796813965 14.643489837646484 -0.711896836757660 0.000000000000000
16.001066207885742 -11.177451133728027 1.649301767349243 0.000000000000000
16.002809524536133 -24.252952575683594 1.726290106773376 1.000000000000000
16.004453659057617 -14.389747619628906 2.292467117309570 0.000000000000000
16.005912780761719 -6.341067314147949 0.360628485679626 1.000000000000000
16.012136459350586 16.939458847045898 1.339936733245850 0.000000000000000
16.012563705444336 -20.584602355957031 2.002111434936523 0.000000000000000
16.018079757690430 -8.559326171875000 1.646436214447021 0.000000000000000
16.020706176757812 8.100016593933105 0.031332135200500 0.000000000000000
16.020717620849609 -22.065196990966797 1.147629618644714 1.000000000000000
16.021268844604492 1.461434125900269 1.297218561172485 0.000000000000000
16.021673202514648 14.131968498229980 2.842932939529419 0.000000000000000
16.022294998168945 16.908781051635742 2.645805120468140 0.000000000000000
16.026027679443359 -24.773416519165039 2.265120029449463 1.000000000000000
16.027339935302734 14.567407608032227 2.058761119842529 0.000000000000000
16.028871536254883 13.972041130065918 1.755662560462952 0.000000000000000
16.030006408691406 13.070042610168457 2.349218606948853 0.000000000000000
16.030513763427734 -11.476294517517090 1.551607251167297 0.000000000000000
16.030574798583984 -24.728355407714844 2.034889698028564 1.000000000000000
16.031356811523438 16.776449203491211 0.396935552358627 0.000000000000000
16.033863067626953 20.588239669799805 2.003335952758789 0.000000000000000
16.034723281860352 -0.466934204101562 0.922139108181000 0.000000000000000
16.035112380981445 12.900870323181152 1.064171791076660 0.000000000000000
16.036262512207031 -19.957925796508789 0.290461987257004 1.000000000000000
16.037082672119141 -20.763036727905273 2.979860067367554 0.000000000000000
16.037799835205078 15.378622055053711 0.124099254608154 0.000000000000000
16.041133880615234 -18.933805465698242 2.000963687896729 0.000000000000000
16.055418014526367 -7.506902217864990 0.848230659961700 0.000000000000000
16.056623458862305 -12.798574447631836 1.655681610107422 0.000000000000000
16.066553115844727 -6.153862953186035 0.724101662635803 0.000000000000000
16.069074630737305 13.590960502624512 1.453217148780823 0.000000000000000
16.070074081420898 19.992868423461914 1.523936748504639 0.000000000000000
16.075414657592773 16.005992889404297 0.562333583831787 0.000000000000000
16.077089309692383 20.582195281982422 2.275758743286133 0.000000000000000
16.077529907226562 -0.366534739732742 1.110440850257874 0.000000000000000
16.087429046630859 -23.286123275756836 1.736032247543335 1.000000000000000
16.089031219482422 -12.684479713439941 1.217204093933105 0.000000000000000
16.089324951171875 15.950654983520508 0.431059896945953 0.000000000000000
16.090488433837891 7.288135051727295 2.162621259689331 0.000000000000000
16.093128204345703 -14.777148246765137 2.327207803726196 0.000000000000000
16.094089508056641 10.886680603027344 1.693103432655334 0.000000000000000
16.095504760742188 19.933864593505859 1.620901584625244 0.000000000000000
16.096725463867188 3.310632467269897 2.809055089950562 0.000000000000000
16.097736358642578 -4.486088752746582 1.379778385162354 0.000000000000000
16.098405838012695 16.484554290771484 0.703973889350891 0.000000000000000
16.104076385498047 -4.388058185577393 1.378132581710815 0.000000000000000
16.104743957519531 -8.247598648071289 1.640296936035156 0.000000000000000
16.106967926025391 14.724184989929199 -0.758256614208221 0.000000000000000
16.108228683471680 3.371635675430298 2.813098907470703 0.000000000000000
16.108970642089844 0.752353668212891 1.362686157226562 0.000000000000000
16.110639572143555 -3.675626277923584 2.023112773895264 0.000000000000000
16.111404418945312 -16.033977508544922 2.782874107360840 0.000000000000000
16.112052917480469 1.380722165107727 1.537163019180298 0.000000000000000
16.112968444824219 14.645237922668457 0.288839340209961 0.000000000000000
16.115621566772461 6.696415901184082 0.130974575877190 0.000000000000000
16.116960525512695 -1.584249854087830 1.411150932312012 0.000000000000000
16.119644165039062 -2.519080638885498 1.095101237297058 0.000000000000000
16.121665954589844 -25.191303253173828 2.238322257995605 1.000000000000000
16.121686935424805 -5.161212444305420 1.609081506729126 0.000000000000000
16.122659683227539 14.627347946166992 1.545163035392761 0.000000000000000
16.122865676879883 0.233300566673279 1.237885951995850 0.000000000000000
16.123155593872070 15.926258087158203 2.774610280990601 0.000000000000000
16.126901626586914 15.464060783386230 0.468021214008331 0.000000000000000
16.126913070678711 15.882218360900879 1.825107693672180 0.000000000000000
16.127420425415039 -21.234775543212891 3.951776027679443 0.000000000000000
16.128843307495117 -5.370354175567627 1.436445116996765 0.000000000000000
16.129756927490234 -18.566938400268555 1.793176412582397 0.000000000000000
16.131727218627930 14.842207908630371 1.555924773216248 0.000000000000000
16.135370254516602 -3.573580026626587 1.332582592964172 0.000000000000000
16.135705947875977 -21.720409393310547 2.572032213211060 0.000000000000000
16.137496948242188 11.712105751037598 -1.499274611473083 1.000000000000000
16.138418197631836 7.702474594116211 0.959080398082733 0.000000000000000
16.138698577880859 20.040971755981445 1.826384902000427 0.000000000000000
16.139549255371094 -5.562334060668945 1.442507386207581 0.000000000000000
16.142038345336914 16.947259902954102 1.977680087089539 0.000000000000000
16.149307250976562 -25.021398544311523 2.286246538162231 1.000000000000000
16.150749206542969 19.379243850708008 0.673810422420502 0.000000000000000
16.151079177856445 -23.668607711791992 1.757582783699036 1.000000000000000
16.153417587280273 20.286542892456055 1.640600919723511 0.000000000000000
16.153848648071289 -6.794434547424316 0.906157076358795 0.000000000000000
16.154172897338867 0.208085685968399 0.959814369678497 0.000000000000000
16.154687881469727 8.097081184387207 -0.246016815304756 0.000000000000000
16.155010223388672 -0.127450764179230 0.959814369678497 0.000000000000000
16.160474777221680 21.031103134155273 1.677979230880737 0.000000000000000
16.161088943481445 -4.696453571319580 1.194555997848511 0.000000000000000
16.161991119384766 -3.788379430770874 2.032348632812500 0.000000000000000
16.164718627929688 14.105866432189941 0.655478715896606 0.000000000000000
16.171369552612305 13.886031150817871 -0.740616321563721 0.000000000000000
16.171871185302734 15.625716209411621 -0.133445695042610 0.000000000000000
16.174194335937500 -4.376551628112793 1.681318163871765 0.000000000000000
16.175086975097656 -22.950050354003906 1.127703428268433 1.000000000000000
16.176715850830078 16.564743041992188 0.351595640182495 0.000000000000000
16.176889419555664 1.710539102554321 1.154624104499817 0.000000000000000
16.177780151367188 0.290577739477158 1.242172479629517 0.000000000000000
16.180345535278320 -0.821359753608704 2.155943393707275 0.000000000000000
16.184793472290039 -6.199151992797852 0.996286690235138 0.000000000000000
16.185552597045898 -2.971189260482788 1.358713030815125 0.000000000000000
16.185985565185547 20.793302536010742 2.124737739562988 0.000000000000000
16.191463470458984 0.756206393241882 2.156998634338379 0.000000000000000
16.193603515625000 -3.525151252746582 1.016542553901672 0.000000000000000
16.194833755493164 -6.547082424163818 0.365905970335007 1.000000000000000
16.197574615478516 -10.311841011047363 1.825215339660645 0.000000000000000
16.199724197387695 14.590405464172363 0.791809141635895 0.000000000000000
16.200714111328125 -11.586174964904785 1.529063224792480 0.000000000000000
16.201940536499023 14.221739768981934 1.878525257110596 0.000000000000000
16.203001022338867 15.655795097351074 -0.479823172092438 0.000000000000000
16.204351425170898 -10.211931228637695 1.211761593818665 0.000000000000000
16.208089828491211 16.408468246459961 0.438821226358414 0.000000000000000
16.208627700805664 -0.946221292018890 1.246458888053894 0.000000000000000
16.208700180053711 -2.945035457611084 1.871158838272095 0.000000000000000
16.209012985229492 -6.817636966705322 1.180287718772888 0.000000000000000
16.213644027709961 -21.808618545532227 0.830281198024750 1.000000000000000
16.214338302612305 7.537460803985596 3.056397676467896 0.000000000000000
16.214601516723633 -1.557290077209473 1.124769210815430 0.000000000000000
16.215259552001953 -10.032740592956543 1.611243486404419 0.000000000000000
16.218328475952148 15.693621635437012 1.340798616409302 0.000000000000000
16.221342086791992 -4.005663871765137 1.024868845939636 0.000000000000000
16.222764968872070 -19.766792297363281 -0.151746407151222 1.000000000000000
16.222764968872070 21.642866134643555 1.919842362403870 0.000000000000000
16.223308563232422 -3.108262300491333 2.198154926300049 0.000000000000000
16.224222183227539 16.084388732910156 1.842146873474121 0.000000000000000
16.224773406982422 -1.645477652549744 -0.002846282906830 0.000000000000000
16.225664138793945 21.624711990356445 1.814632058143616 0.000000000000000
16.230730056762695 1.027413010597229 1.311364054679871 0.000000000000000
16.235517501831055 -7.349046230316162 2.641163349151611 0.000000000000000
16.237733840942383 18.051572799682617 1.817106962203979 0.000000000000000
16.241783142089844 13.163612365722656 -0.485384166240692 0.000000000000000
16.241991043090820 -5.849398136138916 0.925875663757324 0.000000000000000
16.242835998535156 -19.605632781982422 2.711898565292358 0.000000000000000
16.244056701660156 15.199862480163574 0.979082107543945 0.000000000000000
16.245883941650391 -15.700528144836426 1.690831780433655 0.000000000000000
16.250194549560547 -6.578044891357422 1.413598537445068 0.000000000000000
16.250602722167969 -12.166296005249023 1.558456420898438 0.000000000000000
16.252876281738281 -2.835996627807617 1.330332159996033 0.000000000000000
16.253122329711914 21.224414825439453 1.897469162940979 0.000000000000000
16.254631042480469 -0.713103294372559 0.841298878192902 0.000000000000000
16.258382797241211 -12.399924278259277 2.503371238708496 0.000000000000000
16.262838363647461 -21.859649658203125 1.199098587036133 1.000000000000000
16.264514923095703 0.397784501314163 0.778628230094910 0.000000000000000
16.264825820922852 20.636285781860352 1.459826946258545 0.000000000000000
16.266489028930664 22.137689590454102 3.120253324508667 0.000000000000000
16.270051956176758 26.100339889526367 2.479985952377319 0.000000000000000
16.270998001098633 -16.340438842773438 2.823219537734985 0.000000000000000
16.271842956542969 9.651528358459473 -0.439241141080856 0.000000000000000
16.272144317626953 19.125116348266602 2.386936664581299 0.000000000000000
16.272659301757812 21.240688323974609 1.435085892677307 0.000000000000000
16.274837493896484 14.023787498474121 1.028164148330688 0.000000000000000
16.275806427001953 9.730845451354980 -0.440262377262115 0.000000000000000
16.277383804321289 14.341348648071289 1.414291501045227 0.000000000000000
16.277509689331055 14.937027931213379 0.717438936233521 0.000000000000000
16.280864715576172 -2.560870409011841 1.297086000442505 0.000000000000000
16.284852981567383 -5.148346424102783 1.488236546516418 0.000000000000000
16.285030364990234 -4.784299373626709 2.078041076660156 0.000000000000000
16.285306930541992 -4.599681854248047 1.397223114967346 0.000000000000000
16.286108016967773 5.042012214660645 2.914192676544189 0.000000000000000
16.286563873291016 -9.241531372070312 1.256901979446411 0.000000000000000
16.292995452880859 -0.079045139253139 1.477061748504639 0.000000000000000
16.295211791992188 10.299805641174316 2.856960058212280 0.000000000000000
16.300683975219727 13.336267471313477 2.001983404159546 0.000000000000000
16.301851272583008 -0.743398845195770 0.749594390392303 0.000000000000000
16.302667617797852 -10.626764297485352 1.418834447860718 0.000000000000000
16.303464889526367 19.624364852905273 2.007925271987915 0.000000000000000
16.305734634399414 14.388595581054688 1.208201527595520 0.000000000000000
16.306629180908203 2.884694099426270 2.830621719360352 0.000000000000000
16.307043075561523 13.515306472778320 1.544196724891663 0.000000000000000
16.308444976806641 -20.408041000366211 0.798154652118683 1.000000000000000
16.318233489990234 -25.529848098754883 -0.179802760481834 1.000000000000000
16.320341110229492 13.167910575866699 0.278174996376038 0.000000000000000
16.324560165405273 19.598905563354492 1.515396595001221 0.000000000000000
16.324722290039062 -15.095172882080078 2.368303775787354 0.000000000000000
16.326251983642578 -9.666476249694824 1.493233680725098 0.000000000000000
16.329420089721680 13.794055938720703 1.311146378517151 0.000000000000000
16.332012176513672 12.494899749755859 0.430743694305420 0.000000000000000
16.332433700561523 20.300401687622070 1.899632573127747 0.000000000000000
16.333282470703125 16.223041534423828 0.570660054683685 0.000000000000000
16.333820343017578 19.801130294799805 2.020164966583252 0.000000000000000
16.337657928466797 15.429243087768555 -0.608068406581879 0.000000000000000
16.337894439697266 6.952201366424561 1.891253590583801 0.000000000000000
16.340702056884766 -9.741399765014648 1.460478901863098 0.000000000000000
16.346441268920898 0.706269264221191 1.382557272911072 0.000000000000000
16.349750518798828 -7.950299739837646 2.225812911987305 0.000000000000000
16.350345611572266 3.182333946228027 2.216622114181519 0.000000000000000
16.354316711425781 1.331351637840271 0.880031824111938 0.000000000000000
16.355253219604492 -24.767339706420898 1.820519685745239 1.000000000000000
16.359367370605469 -5.011552810668945 1.412692904472351 0.000000000000000
16.360546112060547 -10.208121299743652 2.360946655273438 0.000000000000000
16.361783981323242 10.810746192932129 -0.455302983522415 0.000000000000000
16.362056732177734 -8.472590446472168 2.451950311660767 0.000000000000000
16.364671707153320 20.174110412597656 1.693506717681885 0.000000000000000
16.367630004882812 -18.005460739135742 1.962063074111938 0.000000000000000
16.367740631103516 13.283691406250000 -0.084620326757431 0.000000000000000
16.372833251953125 -4.470194816589355 1.041031718254089 0.000000000000000
16.375091552734375 16.825954437255859 0.491811811923981 0.000000000000000
16.379650115966797 -8.882692337036133 1.430473208427429 0.000000000000000
16.381652832031250 -14.832629203796387 2.353899002075195 0.000000000000000
16.382282257080078 17.210327148437500 1.365876913070679 0.000000000000000
16.382617950439453 15.199175834655762 0.167718291282654 0.000000000000000
16.384098052978516 -21.915424346923828 1.572939276695251 1.000000000000000
16.384647369384766 -15.799826622009277 1.791378259658813 0.000000000000000
16.388141632080078 6.718589305877686 0.064917720854282 0.000000000000000
16.388284683227539 -5.020411014556885 2.098457098007202 0.000000000000000
16.389038085937500 -0.727311313152313 1.006257176399231 0.000000000000000
16.389974594116211 13.770384788513184 1.865330457687378 0.000000000000000
16.390897750854492 -9.782183647155762 2.033182382583618 0.000000000000000
16.392793655395508 -21.768194198608398 0.727851986885071 1.000000000000000
16.394893646240234 14.190690994262695 1.622768759727478 0.000000000000000
16.396646499633789 -3.857273101806641 1.098125219345093 0.000000000000000
16.396795272827148 26.110399246215820 2.486094474792480 0.000000000000000
16.401048660278320 -21.543487548828125 2.183249473571777 0.000000000000000
16.404211044311523 0.372842133045197 1.196323633193970 0.000000000000000
16.407751083374023 -6.545364856719971 1.287945628166199 0.000000000000000
16.407855987548828 -20.714927673339844 1.926683068275452 0.000000000000000
16.408378601074219 -20.332221984863281 0.196086615324020 1.000000000000000
16.411422729492188 -21.772367477416992 0.780625283718109 1.000000000000000
16.414031982421875 13.020798683166504 0.157241538167000 0.000000000000000
16.421228408813477 -11.783343315124512 1.512613892555237 0.000000000000000
16.424999237060547 -17.942337036132812 1.961420178413391 0.000000000000000
16.425594329833984 -8.073850631713867 2.435593366622925 0.000000000000000
16.426916122436523 16.285335540771484 2.627296686172485 0.000000000000000
16.426948547363281 -25.147048950195312 2.538112640380859 0.000000000000000
16.429552078247070 -20.003087997436523 0.741130411624908 1.000000000000000
16.429708480834961 14.404418945312500 1.593061923980713 0.000000000000000
16.429960250854492 -11.490712165832520 1.307081222534180 0.000000000000000
16.430650711059570 -16.567722320556641 3.988480806350708 0.000000000000000
16.433595657348633 -3.607748270034790 1.259168267250061 0.000000000000000
16.436042785644531 19.783948898315430 1.627215504646301 0.000000000000000
16.437719345092773 -24.674364089965820 2.333373785018921 1.000000000000000
16.437927246093750 -21.057762145996094 -0.568906426429749 1.000000000000000
16.437950134277344 -0.187056303024292 0.976657390594482 0.000000000000000
16.438158035278320 -19.243886947631836 3.367936134338379 0.000000000000000
16.439193725585938 0.250211805105209 1.071842908859253 0.000000000000000
16.443840026855469 14.917695045471191 0.507715344429016 0.000000000000000
16.446050643920898 16.796499252319336 0.176423922181129 0.000000000000000
16.447311401367188 9.508115768432617 2.157814025878906 0.000000000000000
16.450799942016602 -4.842981815338135 1.217212319374084 0.000000000000000
16.451480865478516 -20.204599380493164 0.195546269416809 1.000000000000000
16.458135604858398 13.323739051818848 1.707441806793213 0.000000000000000
16.458255767822266 -20.778554916381836 -0.513588964939117 1.000000000000000
16.460292816162109 -3.586215972900391 1.293304443359375 0.000000000000000
16.460630416870117 -24.971441268920898 2.180607080459595 1.000000000000000
16.460973739624023 -9.717938423156738 2.543759822845459 0.000000000000000
16.461614608764648 15.693713188171387 -0.440672963857651 0.000000000000000
16.464887619018555 -2.580687761306763 1.343834877014160 0.000000000000000
16.465240478515625 0.230200484395027 1.753985285758972 0.000000000000000
16.468080520629883 -3.966101884841919 1.699688911437988 0.000000000000000
16.470453262329102 14.644754409790039 1.266936898231506 0.000000000000000
16.473594665527344 -2.464346647262573 1.891924381256104 0.000000000000000
16.474554061889648 14.233497619628906 -0.129196897149086 0.000000000000000
16.475807189941406 -21.013885498046875 -0.260996580123901 1.000000000000000
16.476642608642578 -3.997079610824585 2.256195306777954 0.000000000000000
16.476984024047852 12.273523330688477 0.864716947078705 0.000000000000000
16.479095458984375 -4.676163673400879 1.414338707923889 0.000000000000000
16.480022430419922 14.264376640319824 -0.045649401843548 0.000000000000000
16.482675552368164 13.166432380676270 1.090817332267761 0.000000000000000
16.483221054077148 14.744954109191895 0.845739185810089 0.000000000000000
16.483959197998047 -0.360256791114807 1.361346125602722 0.000000000000000
16.485118865966797 -20.966913223266602 -0.158273905515671 1.000000000000000
16.490873336791992 -12.282071113586426 1.182000041007996 0.000000000000000
16.491107940673828 -4.136466979980469 1.305245518684387 0.000000000000000
16.491149902343750 15.503565788269043 -0.264692723751068 0.000000000000000
16.492921829223633 0.051528178155422 1.011644721031189 0.000000000000000
16.493402481079102 3.153444051742554 1.418931603431702 0.000000000000000
16.497859954833984 -24.899103164672852 2.004828214645386 1.000000000000000
16.507223129272461 19.706768035888672 2.579485654830933 0.000000000000000
16.510089874267578 -6.577507019042969 -1.130581021308899 0.000000000000000
16.510602951049805 18.504419326782227 2.488430976867676 0.000000000000000
16.512386322021484 -7.007731914520264 2.387050390243530 0.000000000000000
16.521490097045898 19.446355819702148 0.387490093708038 0.000000000000000
16.527544021606445 -4.874352931976318 2.109637260437012 0.000000000000000
16.530563354492188 14.345001220703125 1.047476768493652 0.000000000000000
16.530712127685547 13.042059898376465 1.535180091857910 0.000000000000000
16.531372070312500 -18.058534622192383 2.780781269073486 0.000000000000000
16.531604766845703 3.120392084121704 1.688107371330261 0.000000000000000
16.531747817993164 -3.044285297393799 1.193140029907227 0.000000000000000
16.532062530517578 -9.747459411621094 1.362213015556335 0.000000000000000
16.532918930053711 -9.157557487487793 1.560479283332825 0.000000000000000
16.533922195434570 0.958553969860077 1.239465832710266 0.000000000000000
16.539266586303711 19.998229980468750 1.942187905311584 0.000000000000000
16.540431976318359 -6.290388107299805 1.187788367271423 0.000000000000000
16.540601730346680 -24.515064239501953 2.213246345520020 0.000000000000000
16.546495437622070 -24.523801803588867 1.757603883743286 1.000000000000000
16.547088623046875 -7.431696891784668 1.532769441604614 0.000000000000000
16.555204391479492 20.650224685668945 1.674443364143372 0.000000000000000
16.558774948120117 7.832254886627197 0.982430875301361 0.000000000000000
16.559495925903320 13.002519607543945 2.112630367279053 0.000000000000000
16.561761856079102 -4.137908935546875 0.849837720394135 0.000000000000000
16.562568664550781 14.490255355834961 2.499543190002441 0.000000000000000
16.562858581542969 -22.295404434204102 2.078612804412842 0.000000000000000
16.563100814819336 14.843492507934570 3.296176433563232 0.000000000000000
16.563882827758789 -19.726776123046875 2.584677219390869 0.000000000000000
16.566650390625000 23.640333175659180 2.160408020019531 0.000000000000000
16.570629119873047 12.512275695800781 1.153616070747375 0.000000000000000
16.573795318603516 -21.039613723754883 0.818310081958771 1.000000000000000
16.574895858764648 -2.538683891296387 1.904564380645752 0.000000000000000
16.576406478881836 15.361748695373535 1.125095248222351 0.000000000000000
16.577281951904297 -5.119480133056641 1.649204373359680 0.000000000000000
16.577514648437500 -12.396601676940918 1.629124879837036 0.000000000000000
16.577840805053711 -25.731664657592773 -1.063559532165527 1.000000000000000
16.577993392944336 -11.983717918395996 1.944448590278625 0.000000000000000
16.579818725585938 16.078767776489258 0.750026166439056 0.000000000000000
16.580669403076172 16.215457916259766 0.441256165504456 0.000000000000000
16.583154678344727 15.699474334716797 -0.091669335961342 0.000000000000000
16.584285736083984 19.619291305541992 1.476753950119019 0.000000000000000
16.587478637695312 7.151936054229736 1.526370286941528 0.000000000000000
16.591659545898438 15.048628807067871 0.125104561448097 0.000000000000000
16.592441558837891 -0.898033618927002 1.083292603492737 0.000000000000000
16.595113754272461 -16.662443161010742 3.129441976547241 0.000000000000000
16.595399856567383 -15.769378662109375 2.600211143493652 0.000000000000000
16.597246170043945 -2.924152851104736 1.261257886886597 0.000000000000000
16.598743438720703 13.437568664550781 -0.577881336212158 0.000000000000000
16.599834442138672 17.275106430053711 2.721193313598633 0.000000000000000
16.600774765014648 -9.920018196105957 1.940504789352417 0.000000000000000
16.605005264282227 -6.351462841033936 1.330515146255493 0.000000000000000
16.605014801025391 20.511360168457031 1.975025296211243 0.000000000000000
16.614477157592773 -19.764608383178711 2.032090663909912 0.000000000000000
16.618516921997070 16.732620239257812 0.222270682454109 0.000000000000000
16.621496200561523 15.870535850524902 0.923031330108643 0.000000000000000
16.623638153076172 15.839336395263672 0.922228634357452 0.000000000000000
16.630760192871094 -22.089006423950195 1.110527038574219 1.000000000000000
16.633665084838867 2.541747093200684 1.389323592185974 0.000000000000000
16.635759353637695 20.647871017456055 1.728636264801025 0.000000000000000
16.638015747070312 14.911676406860352 0.983303010463715 0.000000000000000
16.641004562377930 18.894124984741211 1.884274482727051 0.000000000000000
16.642782211303711 -3.666461706161499 2.525641679763794 0.000000000000000
16.645978927612305 0.290842711925507 1.310266971588135 0.000000000000000
16.647264480590820 -20.570871353149414 -0.512736558914185 1.000000000000000
16.649789810180664 19.466165542602539 2.570300340652466 0.000000000000000
16.654779434204102 -3.564698696136475 1.044705033302307 0.000000000000000
16.660783767700195 -7.769759654998779 0.950566470623016 0.000000000000000
16.663114547729492 -7.311474800109863 1.825887560844421 0.000000000000000
16.664285659790039 15.502232551574707 0.739120483398438 0.000000000000000
16.665081024169922 15.965069770812988 -0.668822765350342 0.000000000000000
16.666042327880859 -7.666227817535400 1.372905373573303 0.000000000000000
16.667528152465820 10.440942764282227 1.054838538169861 0.000000000000000
16.670646667480469 -3.570225477218628 1.374697923660278 0.000000000000000
16.674499511718750 15.408896446228027 0.737302839756012 0.000000000000000
16.675468444824219 -2.011456727981567 1.095002532005310 0.000000000000000
16.675882339477539 8.534212112426758 0.932574093341827 0.000000000000000
16.676753997802734 21.423767089843750 3.083687782287598 0.000000000000000
16.677394866943359 -4.224366188049316 2.549684286117554 0.000000000000000
16.678489685058594 -21.172519683837891 2.069164752960205 0.000000000000000
16.682189941406250 -20.547939300537109 0.503575325012207 1.000000000000000
16.683820724487305 9.567290306091309 2.184448242187500 0.000000000000000
16.686826705932617 8.186351776123047 -0.217357665300369 0.000000000000000
16.689325332641602 20.005575180053711 0.996299922466278 0.000000000000000
16.697153091430664 3.481531858444214 0.357277721166611 0.000000000000000
16.697471618652344 -4.656363010406494 2.122275590896606 0.000000000000000
16.700975418090820 16.178159713745117 -0.004058239515871 0.000000000000000
16.702383041381836 21.302873611450195 3.074659347534180 0.000000000000000
16.702638626098633 15.663978576660156 -0.267779767513275 0.000000000000000
16.704750061035156 -26.996677398681641 3.886787652969360 0.000000000000000
16.705114364624023 -13.315480232238770 1.392693281173706 0.000000000000000
16.705316543579102 2.546720981597900 3.514856815338135 0.000000000000000
16.710927963256836 14.517374992370605 1.784921169281006 0.000000000000000
16.715225219726562 -21.045560836791992 -0.469120681285858 1.000000000000000
16.717205047607422 12.430688858032227 2.772228717803955 0.000000000000000
16.717544555664062 20.758298873901367 2.252170801162720 0.000000000000000
16.718019485473633 -15.249070167541504 2.410246849060059 0.000000000000000
16.720037460327148 22.459449768066406 1.501709580421448 0.000000000000000
16.720951080322266 13.557766914367676 1.195997476577759 0.000000000000000
16.722635269165039 19.231773376464844 1.072612285614014 0.000000000000000
16.724657058715820 -0.248713493347168 0.993737637996674 0.000000000000000
16.733974456787109 -10.923727989196777 2.659313678741455 0.000000000000000
16.737375259399414 11.203850746154785 -0.661112666130066 0.000000000000000
16.737680435180664 15.726530075073242 -0.489106237888336 0.000000000000000
16.738162994384766 12.355777740478516 2.768535137176514 0.000000000000000
16.741125106811523 13.019476890563965 -0.085134141147137 0.000000000000000
