# This PCD file was generated using the MATLAB® pcwrite function
# from Computer Vision Toolbox®.
# .PCD v.7 - Point Cloud Data file format
VERSION .7
FIELDS x y z intensity
SIZE 8 8 8 8
TYPE F F F F
COUNT 1 1 1 1
WIDTH 658
HEIGHT 1
VIEWPOINT 0 0 0 1 0 0 0
POINTS 658
DATA ascii
3.956116676330566 -4.711709022521973 1.279684901237488 0.000000000000000
3.956598758697510 -3.746543407440186 0.931409358978271 1.000000000000000
3.958138227462769 -13.287471771240234 1.697431564331055 0.000000000000000
3.960428476333618 4.724207401275635 0.913617312908173 0.000000000000000
3.962139844894409 6.394762992858887 0.446932852268219 0.000000000000000
3.967149496078491 -2.824728488922119 0.462927907705307 0.000000000000000
3.967548608779907 -7.507329940795898 1.258422851562500 0.000000000000000
3.970535993576050 -4.286587715148926 1.215334057807922 0.000000000000000
3.972067594528198 2.323506593704224 0.681987822055817 0.000000000000000
3.973233938217163 -0.211149007081985 0.827600121498108 0.000000000000000
3.973443508148193 -2.850163936614990 0.464820504188538 0.000000000000000
3.973840236663818 -3.473814249038696 0.562207341194153 0.000000000000000
3.976322889328003 4.655019283294678 0.151759684085846 1.000000000000000
3.977132558822632 3.849536895751953 0.482305288314819 0.000000000000000
3.978103637695312 -3.061229705810547 0.534668922424316 0.000000000000000
3.981058120727539 -4.628079891204834 0.693389594554901 1.000000000000000
3.986989021301270 2.297807216644287 0.681987822055817 0.000000000000000
3.989400148391724 -13.929207801818848 0.944595813751221 0.000000000000000
3.989546298980713 4.299430847167969 0.280703902244568 0.000000000000000
3.991172790527344 -2.163513660430908 1.216449618339539 0.000000000000000
3.991904020309448 -3.776539802551270 0.522355318069458 0.000000000000000
3.992685317993164 6.251837730407715 0.297938436269760 0.000000000000000
3.992852926254272 6.204254150390625 0.296333163976669 1.000000000000000
3.995297431945801 -2.147739171981812 1.215414285659790 0.000000000000000
4.001175403594971 4.643924713134766 0.352373301982880 0.000000000000000
4.001349449157715 5.392144680023193 1.147749662399292 0.000000000000000
4.003475189208984 -4.088499546051025 0.543930828571320 0.000000000000000
4.010238170623779 3.903056144714355 0.472864925861359 0.000000000000000
4.013319492340088 -13.412805557250977 1.155959248542786 0.000000000000000
4.016546726226807 7.148927211761475 0.014311693608761 0.000000000000000
4.022706985473633 -1.206028103828430 0.265688449144363 0.000000000000000
4.023527622222900 3.112878561019897 1.058122634887695 0.000000000000000
4.027008056640625 -4.461315631866455 0.640162229537964 0.000000000000000
4.027211666107178 -0.228117540478706 0.839004099369049 0.000000000000000
4.030374526977539 4.396532058715820 1.240585684776306 0.000000000000000
4.030430793762207 0.529328227043152 0.694850206375122 0.000000000000000
4.031817913055420 2.252940416336060 0.114488862454891 0.000000000000000
4.032675743103027 3.997776031494141 0.446903049945831 0.000000000000000
4.039993286132812 4.323428630828857 0.283189713954926 0.000000000000000
4.041416168212891 -3.068824768066406 0.509187817573547 0.000000000000000
4.046226024627686 -3.098500013351440 0.755288302898407 0.000000000000000
4.049397468566895 -3.722438335418701 0.551919698715210 0.000000000000000
4.051227092742920 0.523359477519989 0.435106962919235 0.000000000000000
4.056636810302734 7.684993743896484 1.485402345657349 0.000000000000000
4.057681083679199 5.101021766662598 1.746510982513428 0.000000000000000
4.059563159942627 -14.203212738037109 0.025781990960240 0.000000000000000
4.083549499511719 -13.358351707458496 0.937586724758148 0.000000000000000
4.084014892578125 -3.088043689727783 0.758806645870209 0.000000000000000
4.085568904876709 -4.212447166442871 0.780909478664398 0.000000000000000
4.087771892547607 0.665443420410156 0.293966144323349 0.000000000000000
4.091422080993652 4.589857578277588 0.535779058933258 0.000000000000000
4.094884872436523 4.198968410491943 1.571549415588379 0.000000000000000
4.097397327423096 4.563095569610596 1.275611996650696 0.000000000000000
4.102997303009033 -4.219499111175537 0.559450089931488 0.000000000000000
4.107445240020752 4.154742717742920 0.257125556468964 0.000000000000000
4.113956928253174 5.134876251220703 0.403580367565155 0.000000000000000
4.114164829254150 2.295373439788818 0.979924201965332 0.000000000000000
4.125146865844727 4.001596927642822 0.576680183410645 1.000000000000000
4.127974033355713 -4.936650753021240 0.518887400627136 0.000000000000000
4.136411666870117 4.890975475311279 0.429950445890427 0.000000000000000
4.137850284576416 -0.599812328815460 0.240348428487778 0.000000000000000
4.137918949127197 5.736528396606445 0.616336882114410 0.000000000000000
4.139391899108887 3.850466012954712 0.346765637397766 0.000000000000000
4.148276805877686 0.690908491611481 0.298497378826141 0.000000000000000
4.148795604705811 -13.419999122619629 1.078366041183472 1.000000000000000
4.149926662445068 3.159795761108398 0.289790868759155 0.000000000000000
4.153036594390869 -2.867234945297241 0.506392240524292 0.000000000000000
4.153674125671387 -7.687189579010010 0.334138035774231 1.000000000000000
4.154652595520020 2.631337165832520 0.467470109462738 0.000000000000000
4.161391735076904 5.078435897827148 0.288958489894867 0.000000000000000
4.163074493408203 4.914316177368164 0.308238893747330 0.000000000000000
4.173420906066895 -3.410799503326416 0.488622128963470 0.000000000000000
4.176736354827881 4.461484909057617 0.081070266664028 0.000000000000000
4.176868438720703 -3.438004970550537 0.490427821874619 0.000000000000000
4.179116249084473 -1.216202259063721 0.367783814668655 0.000000000000000
4.179407596588135 -4.675727367401123 0.457238167524338 0.000000000000000
4.179494857788086 3.160470724105835 0.291122198104858 0.000000000000000
4.182135105133057 2.672430038452148 0.498005688190460 0.000000000000000
4.189575195312500 -4.019342899322510 0.551879703998566 1.000000000000000
4.191607475280762 4.767513751983643 1.320413231849670 0.000000000000000
4.199627399444580 -3.932416677474976 0.463912367820740 0.000000000000000
4.209060192108154 -0.286649733781815 0.561410605907440 0.000000000000000
4.210619449615479 8.026185035705566 0.608359813690186 0.000000000000000
4.218828678131104 -0.208842933177948 0.368065953254700 0.000000000000000
4.222543239593506 4.669579982757568 0.598437488079071 0.000000000000000
4.225157260894775 4.267850875854492 0.171945914626122 0.000000000000000
4.229564666748047 4.732839107513428 0.242731556296349 0.000000000000000
4.233919620513916 -3.411220312118530 0.929387450218201 0.000000000000000
4.236261844635010 4.228576660156250 0.171373531222343 0.000000000000000
4.236864089965820 4.856636524200439 0.196912348270416 1.000000000000000
4.237505435943604 -3.480849504470825 0.420997589826584 0.000000000000000
4.242229461669922 2.214769840240479 0.995400905609131 0.000000000000000
4.243098735809326 3.995981693267822 0.424952268600464 0.000000000000000
4.244333744049072 -4.185773849487305 0.566641926765442 0.000000000000000
4.245591640472412 -0.184178471565247 0.629797816276550 0.000000000000000
4.248579502105713 4.563382625579834 0.250422388315201 0.000000000000000
4.249534606933594 4.108602046966553 0.499471992254257 0.000000000000000
4.249957561492920 7.410650253295898 0.474626839160919 1.000000000000000
4.251953601837158 -0.274663388729095 0.360037446022034 0.000000000000000
4.257325172424316 -4.774288654327393 0.441696465015411 0.000000000000000
4.258568286895752 -13.826380729675293 1.451684474945068 0.000000000000000
4.259703159332275 3.826847553253174 0.141946360468864 0.000000000000000
4.259813308715820 2.283997058868408 1.295130491256714 0.000000000000000
4.259951114654541 -0.283767104148865 1.143980145454407 0.000000000000000
4.264444828033447 -1.632186532020569 0.676710128784180 0.000000000000000
4.265336990356445 5.323822975158691 0.684508204460144 0.000000000000000
4.269003391265869 3.980769395828247 0.358030617237091 0.000000000000000
4.270169734954834 2.566893100738525 0.238445356488228 0.000000000000000
4.270557880401611 -8.174381256103516 1.227294325828552 0.000000000000000
4.273880004882812 4.321739673614502 0.466618388891220 0.000000000000000
4.276558876037598 -9.347708702087402 0.709800422191620 0.000000000000000
4.276736259460449 -1.218179345130920 0.473660737276077 0.000000000000000
4.279544830322266 4.122470855712891 0.596248924732208 0.000000000000000
4.281406879425049 2.276367902755737 1.299271702766418 0.000000000000000
4.288580894470215 -1.083107233047485 0.385427534580231 0.000000000000000
4.292849063873291 2.304797649383545 0.518993198871613 0.000000000000000
4.296395778656006 4.138703346252441 1.598466396331787 0.000000000000000
4.296437740325928 2.525950670242310 0.566087663173676 0.000000000000000
4.303733348846436 4.193393707275391 0.426505744457245 0.000000000000000
4.303908824920654 8.104366302490234 2.458781003952026 0.000000000000000
4.304078578948975 -7.899485588073730 0.760154008865356 1.000000000000000
4.306231975555420 5.088886260986328 0.537533938884735 0.000000000000000
4.314576625823975 4.743155956268311 0.393294930458069 0.000000000000000
4.315443038940430 4.744108676910400 0.294588387012482 0.000000000000000
4.317677021026611 -3.124787330627441 0.789886116981506 0.000000000000000
4.317940711975098 5.047093391418457 0.279548645019531 0.000000000000000
4.320403099060059 -10.647330284118652 1.702916979789734 0.000000000000000
4.322306156158447 3.509635686874390 0.052476387470961 0.000000000000000
4.325205802917480 2.563220500946045 0.571053326129913 0.000000000000000
4.326786518096924 -10.473694801330566 1.679460883140564 0.000000000000000
4.326945304870605 -3.248053312301636 0.384025126695633 0.000000000000000
4.328175067901611 12.407195091247559 3.520974636077881 0.000000000000000
4.333055973052979 -3.177592992782593 0.796336531639099 1.000000000000000
4.334717273712158 -6.762656211853027 2.152339220046997 0.000000000000000
4.337837219238281 -3.002317428588867 0.901755213737488 0.000000000000000
4.338546276092529 -12.530388832092285 1.260466098785400 0.000000000000000
4.338912963867188 -2.948611497879028 0.251065552234650 0.000000000000000
4.339532375335693 -4.167863845825195 0.427072167396545 0.000000000000000
4.343194007873535 2.631473779678345 0.243034511804581 0.000000000000000
4.343728542327881 -0.304581105709076 1.166756391525269 0.000000000000000
4.344941139221191 -12.548858642578125 2.762197017669678 0.000000000000000
4.345814228057861 4.908253192901611 1.363585233688354 0.000000000000000
4.346146583557129 4.157047748565674 0.149083331227303 0.000000000000000
4.348697662353516 7.082276344299316 2.226879119873047 0.000000000000000
4.351944446563721 -5.312495231628418 0.913875222206116 0.000000000000000
4.365671157836914 7.340373039245605 0.244524955749512 0.000000000000000
4.367072105407715 3.653513431549072 0.843835234642029 0.000000000000000
4.370682716369629 3.393797397613525 0.339418917894363 0.000000000000000
4.374309539794922 -3.570651769638062 0.492027789354324 0.000000000000000
4.377928733825684 -13.850444793701172 0.248478099703789 0.000000000000000
4.391034126281738 0.649821400642395 0.543450295925140 0.000000000000000
4.398681163787842 -2.774395227432251 1.393481850624084 0.000000000000000
4.400823593139648 -6.972455024719238 2.209279537200928 0.000000000000000
4.404640197753906 -0.889571428298950 0.407365679740906 0.000000000000000
4.406388759613037 -12.871471405029297 2.829806089401245 0.000000000000000
4.408646106719971 -2.533445835113525 0.443068057298660 0.000000000000000
4.409496784210205 4.531538963317871 0.120301090180874 0.000000000000000
4.412664890289307 -0.686113655567169 0.404837697744370 0.000000000000000
4.414967060089111 3.619921207427979 0.350194126367569 0.000000000000000
4.415890216827393 -2.780727386474609 0.555852293968201 0.000000000000000
4.419021129608154 -3.364442110061646 0.394220471382141 0.000000000000000
4.420004367828369 -8.377612113952637 0.825370550155640 1.000000000000000
4.421594142913818 2.328088045120239 1.039387583732605 0.000000000000000
4.422703266143799 4.228790760040283 0.245767101645470 0.000000000000000
4.423966884613037 -3.560012340545654 0.494805634021759 0.000000000000000
4.426771640777588 4.669085025787354 0.159491404891014 0.000000000000000
4.431864738464355 -4.165001392364502 1.265022635459900 0.000000000000000
4.432035923004150 4.156286716461182 0.010604615323246 0.000000000000000
4.432364463806152 -3.365688800811768 0.170038461685181 1.000000000000000
4.434392929077148 4.563811779022217 0.243342980742455 0.000000000000000
4.434661388397217 4.973159313201904 0.987504243850708 0.000000000000000
4.434901237487793 5.458703041076660 0.309535562992096 0.000000000000000
4.436382293701172 -2.815305233001709 0.559665322303772 0.000000000000000
4.441820144653320 3.790457487106323 0.234530210494995 1.000000000000000
4.443268299102783 3.872833728790283 0.146109595894814 0.000000000000000
4.445797920227051 4.182487010955811 0.022372279316187 0.000000000000000
4.450067996978760 7.028174400329590 2.228949785232544 0.000000000000000
4.452788352966309 4.608100414276123 0.023486495018005 0.000000000000000
4.456569194793701 4.258492946624756 1.282128572463989 0.000000000000000
4.457152366638184 3.508946180343628 0.195119395852089 0.000000000000000
4.457744598388672 4.051403522491455 0.056774020195007 0.000000000000000
4.460614681243896 -4.194366931915283 0.555071830749512 0.000000000000000
4.464540481567383 3.418096303939819 0.117780171334743 0.000000000000000
4.467112541198730 3.711042642593384 0.077037967741489 0.000000000000000
4.467815876007080 3.520626068115234 0.206590458750725 0.000000000000000
4.469939708709717 5.001816272735596 0.566831707954407 0.000000000000000
4.470920085906982 -4.002802848815918 1.025763392448425 0.000000000000000
4.471193313598633 4.933115005493164 0.434045672416687 0.000000000000000
4.479602813720703 5.123499870300293 1.008614778518677 0.000000000000000
4.483732700347900 -8.204655647277832 1.385672569274902 0.000000000000000
4.485173225402832 4.729526519775391 1.746510982513428 0.000000000000000
4.488524913787842 0.669054806232452 0.555602610111237 0.000000000000000
4.488892555236816 -2.556371450424194 1.384164214134216 0.000000000000000
4.489018917083740 3.427030801773071 0.566696107387543 0.000000000000000
4.493067264556885 2.128853559494019 0.849860489368439 0.000000000000000
4.495738029479980 4.125220775604248 0.280271947383881 0.000000000000000
4.499002456665039 -1.564781665802002 0.347291558980942 0.000000000000000
4.501151561737061 -3.749419450759888 0.145217463374138 1.000000000000000
4.502714157104492 -1.172701358795166 0.421811282634735 0.000000000000000
4.504589557647705 4.611512660980225 1.101920604705811 0.000000000000000
4.505994319915771 5.015319824218750 1.152467370033264 0.000000000000000
4.508792877197266 6.031861782073975 1.287258982658386 0.000000000000000
4.511803150177002 5.547025680541992 0.287183105945587 0.000000000000000
4.519282341003418 0.026660239323974 0.338226079940796 0.000000000000000
4.527269840240479 5.137350082397461 0.340889751911163 0.000000000000000
4.528288364410400 4.989105224609375 0.439250051975250 0.000000000000000
4.530436515808105 -13.507913589477539 1.517578601837158 0.000000000000000
4.530964374542236 3.357393264770508 1.172976613044739 0.000000000000000
4.532756805419922 3.662180662155151 0.234048619866371 0.000000000000000
4.534780025482178 -3.517662763595581 0.575881421566010 0.000000000000000
4.539147377014160 -3.515597105026245 0.462947875261307 0.000000000000000
4.546843051910400 -9.632841110229492 2.215622425079346 0.000000000000000
4.552461147308350 4.406407833099365 0.059714511036873 0.000000000000000
4.553538799285889 6.047583103179932 1.293998479843140 0.000000000000000
4.556368350982666 4.036670207977295 0.092438861727715 0.000000000000000
4.557574748992920 2.139970302581787 0.860643804073334 0.000000000000000
4.559130668640137 -1.728937983512878 0.280291736125946 0.000000000000000
4.559610366821289 -8.169171333312988 0.483751982450485 1.000000000000000
4.563051700592041 4.744859218597412 0.660546362400055 0.000000000000000
4.564739704132080 3.357798814773560 1.178678512573242 1.000000000000000
4.568569183349609 -1.657587647438049 1.010877728462219 0.000000000000000
4.571239471435547 -3.375383615493774 1.181936860084534 0.000000000000000
4.572433471679688 -8.123378753662109 1.240485310554504 0.000000000000000
4.573881626129150 6.338118076324463 0.660461604595184 0.000000000000000
4.576385498046875 3.617844343185425 0.554529368877411 0.000000000000000
4.578794956207275 -5.046520233154297 1.417346715927124 0.000000000000000
4.580701828002930 4.830259323120117 0.203386515378952 0.000000000000000
4.581893920898438 2.629599571228027 0.425976336002350 0.000000000000000
4.586393833160400 4.440181255340576 0.072422638535500 0.000000000000000
4.587089061737061 3.718398809432983 0.362193793058395 0.000000000000000
4.595025539398193 -9.525622367858887 1.201243281364441 0.000000000000000
4.604948043823242 5.435927867889404 0.231356516480446 0.000000000000000
4.605406761169434 4.680283546447754 0.276352852582932 0.000000000000000
4.608809471130371 5.711560726165771 0.736425399780273 0.000000000000000
4.615676879882812 5.421102523803711 0.039765376597643 0.000000000000000
4.616256237030029 -5.420630931854248 0.676790773868561 0.000000000000000
4.617002964019775 -5.383326053619385 0.674141168594360 0.000000000000000
4.617982864379883 -7.260240554809570 2.305560111999512 0.000000000000000
4.619468688964844 7.498285293579102 0.608124792575836 0.000000000000000
4.621570587158203 -3.392149448394775 0.979934334754944 0.000000000000000
4.621860027313232 -2.937762737274170 0.549523472785950 0.000000000000000
4.621878623962402 3.131836652755737 0.954323887825012 0.000000000000000
4.622383117675781 -3.417637109756470 0.982630133628845 0.000000000000000
4.623273849487305 0.972255051136017 0.700166285037994 0.000000000000000
4.630838394165039 3.675363540649414 0.214720502495766 0.000000000000000
4.631445407867432 -2.995986700057983 0.942866623401642 0.000000000000000
4.634140968322754 -4.528430461883545 0.690155029296875 0.000000000000000
4.635753154754639 4.888309955596924 0.309455484151840 0.000000000000000
4.638356208801270 3.693219661712646 1.233254551887512 0.000000000000000
4.638827800750732 3.537424325942993 0.554529368877411 0.000000000000000
4.639641761779785 4.311119079589844 0.181333109736443 0.000000000000000
4.639783859252930 -7.778369426727295 1.342278599739075 0.000000000000000
4.640461921691895 -2.536474704742432 0.405994743108749 0.000000000000000
4.640602111816406 -2.456449985504150 0.778158009052277 0.000000000000000
4.641910552978516 -2.419927597045898 0.775812387466431 0.000000000000000
4.643005371093750 -3.403395175933838 1.197413563728333 0.000000000000000
4.644451618194580 -2.660010337829590 0.410893589258194 0.000000000000000
4.645730972290039 3.449091911315918 0.455376625061035 0.000000000000000
4.648508071899414 4.089425086975098 0.094017975032330 0.000000000000000
4.649383068084717 -2.890834093093872 1.138764858245850 0.000000000000000
4.650831222534180 4.730739116668701 1.379876613616943 0.000000000000000
4.655630111694336 4.233624935150146 1.075636267662048 0.000000000000000
4.662459373474121 5.604410171508789 1.246147513389587 0.000000000000000
4.664686679840088 4.103658199310303 1.664724111557007 0.000000000000000
4.665276527404785 4.114297389984131 0.381540179252625 0.000000000000000
4.667771816253662 2.379272222518921 1.403834581375122 0.000000000000000
4.668310165405273 2.869268655776978 0.220082759857178 0.000000000000000
4.669188499450684 -3.564443826675415 0.667206943035126 0.000000000000000
4.673418998718262 3.085301160812378 0.636058568954468 0.000000000000000
4.674513339996338 4.493044376373291 0.061109356582165 0.000000000000000
4.678413391113281 7.425171375274658 1.300643920898438 0.000000000000000
4.686025142669678 3.017507314682007 0.341867834329605 0.000000000000000
4.686658859252930 1.870165705680847 0.426386743783951 0.000000000000000
4.688600540161133 2.992491960525513 0.330455124378204 0.000000000000000
4.690980434417725 4.415304183959961 0.357911646366119 0.000000000000000
4.692551136016846 5.343112468719482 0.107987053692341 0.000000000000000
4.695419788360596 1.692123889923096 0.412090301513672 0.000000000000000
4.696905136108398 -2.468859195709229 0.481038182973862 0.000000000000000
4.698186397552490 -4.810377120971680 0.568178832530975 0.000000000000000
4.699701786041260 -5.088738918304443 0.921789824962616 0.000000000000000
4.715084552764893 5.248044013977051 0.639578521251678 0.000000000000000
4.715210437774658 3.583972454071045 0.397536754608154 0.000000000000000
4.717004299163818 2.876900196075439 1.480445027351379 0.000000000000000
4.717072010040283 -1.796371102333069 0.573310434818268 0.000000000000000
4.721094608306885 -3.902715206146240 0.652448594570160 0.000000000000000
4.721833229064941 7.060856819152832 1.766795992851257 0.000000000000000
4.721848011016846 -2.779605388641357 0.477444052696228 0.000000000000000
4.722038745880127 -4.257416248321533 0.576379120349884 0.000000000000000
4.724998950958252 -4.230279445648193 0.574934542179108 0.000000000000000
4.725149631500244 4.327071189880371 1.095181107521057 0.000000000000000
4.725831508636475 4.386290073394775 0.060770068317652 0.000000000000000
4.725878238677979 4.386333942413330 0.457658231258392 0.000000000000000
4.728927612304688 -2.918592929840088 1.155870676040649 0.000000000000000
4.729603290557861 3.582942247390747 0.517028510570526 0.000000000000000
4.732246875762939 5.258274078369141 0.161770254373550 0.000000000000000
4.732408046722412 5.203769207000732 0.174360096454620 0.000000000000000
4.734661579132080 -1.664365887641907 0.365906864404678 0.000000000000000
4.736382007598877 3.495664596557617 0.451921731233597 0.000000000000000
4.743503093719482 -3.823971748352051 0.530917763710022 1.000000000000000
4.744389057159424 3.008442640304565 1.505291700363159 1.000000000000000
4.744769096374512 4.997846603393555 0.091416269540787 0.000000000000000
4.744814872741699 -4.552021503448486 1.367658138275146 0.000000000000000
4.747066020965576 -11.449692726135254 3.321166038513184 0.000000000000000
4.747738361358643 4.368525505065918 0.234319746494293 0.000000000000000
4.753875732421875 -3.862819433212280 0.422959506511688 0.000000000000000
4.753915786743164 4.500904560089111 0.351112961769104 0.000000000000000
4.756990909576416 4.456034183502197 1.746510982513428 0.000000000000000
4.758942604064941 -9.991688728332520 2.301966667175293 0.000000000000000
4.758993625640869 -1.831382274627686 0.579178988933563 0.000000000000000
4.759625911712646 4.396520137786865 0.650162935256958 1.000000000000000
4.759999275207520 3.505401372909546 1.583972692489624 1.000000000000000
4.765004158020020 2.317463636398315 0.376095384359360 0.000000000000000
4.766898632049561 1.724748015403748 0.164624050259590 0.000000000000000
4.768292427062988 1.050646185874939 0.723622500896454 0.000000000000000
4.780520915985107 -3.284086465835571 0.991391599178314 0.000000000000000
4.782143115997314 0.892535805702209 0.552544891834259 0.000000000000000
4.783103942871094 -2.550829172134399 1.452492594718933 0.000000000000000
4.783484935760498 -4.750536918640137 0.640831530094147 0.000000000000000
4.784457206726074 -3.912408590316772 0.438683539628983 1.000000000000000
4.784502983093262 4.268680095672607 0.393294930458069 0.000000000000000
4.789438724517822 2.204719305038452 0.191491767764091 0.000000000000000
4.789630413055420 2.879152297973633 0.595253467559814 0.000000000000000
4.790358543395996 4.325687408447266 1.103268504142761 0.000000000000000
4.790887355804443 1.752360701560974 0.165662690997124 0.000000000000000
4.794036388397217 4.764672279357910 0.258475482463837 0.000000000000000
4.798104763031006 -2.435481071472168 1.119215130805969 0.000000000000000
4.799220085144043 3.748350620269775 0.648635566234589 0.000000000000000
4.801348686218262 8.445715904235840 1.660631537437439 0.000000000000000
4.801542282104492 4.060347557067871 0.385703325271606 0.000000000000000
4.802251815795898 -5.302465915679932 1.060218334197998 0.000000000000000
4.803554058074951 3.706186771392822 0.395533233880997 0.000000000000000
4.808533191680908 0.880968928337097 0.555253386497498 0.000000000000000
4.809389591217041 3.237626075744629 0.165993064641953 0.000000000000000
4.809478759765625 4.624066829681396 0.050072330981493 0.000000000000000
4.810475349426270 3.611282587051392 0.241593405604362 0.000000000000000
4.812495231628418 -1.802382349967957 0.305309236049652 0.000000000000000
4.813427448272705 2.660004615783691 0.305545181035995 0.000000000000000
4.815857410430908 4.066981792449951 0.398785233497620 0.000000000000000
4.816409111022949 7.183275222778320 0.580500066280365 1.000000000000000
4.816679477691650 2.926516532897949 0.367429554462433 0.000000000000000
4.818095207214355 -2.783859252929688 0.592711448669434 0.000000000000000
4.818587779998779 -5.254145145416260 0.948699533939362 1.000000000000000
4.819379806518555 -1.808414578437805 0.295901745557785 0.000000000000000
4.819542884826660 4.182040214538574 0.194957882165909 0.000000000000000
4.819828510284424 4.624960899353027 0.037307966500521 0.000000000000000
4.823242187500000 3.735766172409058 1.634701251983643 0.000000000000000
4.828231811523438 -0.285073995590210 0.515180230140686 0.000000000000000
4.828639984130859 -4.477322101593018 0.596964061260223 0.000000000000000
4.829998970031738 -1.812399387359619 0.467676043510437 0.000000000000000
4.834509849548340 -6.315049171447754 1.178671836853027 0.000000000000000
4.837282657623291 6.124845027923584 2.091257810592651 0.000000000000000
4.842125892639160 5.141757011413574 1.892484903335571 0.000000000000000
4.847716808319092 -2.149427175521851 0.233382776379585 0.000000000000000
4.848540306091309 3.365934133529663 0.592255294322968 0.000000000000000
4.848687648773193 -2.186414241790771 0.234086275100708 1.000000000000000
4.852473735809326 -2.086693763732910 0.562631011009216 0.000000000000000
4.857184410095215 3.579849004745483 0.642704248428345 0.000000000000000
4.857462882995605 5.040959358215332 0.402417212724686 0.000000000000000
4.860152721405029 4.579655647277832 0.634775221347809 0.000000000000000
4.860168933868408 0.689280986785889 0.839077115058899 1.000000000000000
4.864430427551270 -5.399085044860840 0.690795958042145 0.000000000000000
4.865929126739502 -5.258037567138672 1.224580883979797 0.000000000000000
4.866254806518555 5.607468605041504 0.908991158008575 0.000000000000000
4.866776943206787 -2.834692478179932 0.599913775920868 0.000000000000000
4.867630958557129 4.673438549041748 0.570199668407440 0.000000000000000
4.867655277252197 4.447585105895996 0.544406831264496 0.000000000000000
4.870754241943359 0.749768495559692 0.524924576282501 0.000000000000000
4.875837326049805 -7.908229351043701 1.376876354217529 0.000000000000000
4.876306056976318 4.261221408843994 0.397213220596313 0.000000000000000
4.876509666442871 -1.595867395401001 1.374846816062927 0.000000000000000
4.878154277801514 3.211180925369263 0.865532219409943 0.000000000000000
4.878548145294189 4.011281490325928 0.035275019705296 0.000000000000000
4.880064010620117 -6.334147930145264 1.366785883903503 0.000000000000000
4.882226467132568 3.138186693191528 0.992065548896790 0.000000000000000
4.882238864898682 3.750068664550781 1.280499339103699 0.000000000000000
4.884692668914795 5.077014923095703 0.613906264305115 0.000000000000000
4.885463237762451 5.529983043670654 0.126223042607307 0.000000000000000
4.888878822326660 7.240971565246582 0.738262057304382 0.000000000000000
4.888906955718994 5.262751579284668 0.109080284833908 0.000000000000000
4.889660358428955 5.511617183685303 0.027005070820451 0.000000000000000
4.894447803497314 3.763655185699463 1.654371380805969 0.000000000000000
4.898180961608887 -3.648066997528076 1.043960213661194 0.000000000000000
4.898310661315918 -4.052379131317139 0.292018771171570 1.000000000000000
4.899919509887695 4.443289279937744 0.533354520797729 0.000000000000000
4.901678562164307 -5.479148864746094 1.089538455009460 0.000000000000000
4.901875495910645 -2.103073358535767 0.327174395322800 0.000000000000000
4.908599376678467 5.644313335418701 0.915796399116516 0.000000000000000
4.913424968719482 5.522658348083496 0.012901467271149 0.000000000000000
4.914218425750732 6.522813320159912 1.210337758064270 0.000000000000000
4.914431571960449 -2.052627801895142 0.567291378974915 0.000000000000000
4.918300151824951 -2.778222560882568 1.513573765754700 0.000000000000000
4.921495437622070 6.447772979736328 1.202128171920776 0.000000000000000
4.923148632049561 5.566371917724609 0.112845860421658 0.000000000000000
4.923214912414551 -6.973416805267334 1.459118127822876 0.000000000000000
4.924454689025879 4.398488998413086 0.417726904153824 0.000000000000000
4.925103664398193 -7.151622772216797 1.155534982681274 0.000000000000000
4.926266670227051 -4.199702739715576 0.586852192878723 0.000000000000000
4.927965164184570 0.716453850269318 0.851208388805389 0.000000000000000
4.933104515075684 4.041725635528564 0.182592362165451 0.000000000000000
4.936784267425537 -3.538823127746582 0.150570198893547 1.000000000000000
4.938128471374512 -2.193847656250000 0.470846623182297 0.000000000000000
4.938602447509766 8.053074836730957 0.743478477001190 0.000000000000000
4.942690849304199 5.266011238098145 0.610278666019440 0.000000000000000
4.943573951721191 -3.644983768463135 0.270316004753113 1.000000000000000
4.947488784790039 5.736987590789795 0.071401059627533 0.000000000000000
4.948500156402588 5.566190242767334 0.600546240806580 0.000000000000000
4.952297210693359 -3.713967084884644 1.058113336563110 0.000000000000000
4.952698230743408 7.462320804595947 1.862914919853210 0.000000000000000
4.955519199371338 7.936032772064209 0.772504746913910 0.000000000000000
4.955672264099121 2.978963851928711 0.455062776803970 0.000000000000000
4.955864906311035 -0.683099269866943 0.364743441343307 0.000000000000000
4.956621646881104 1.425783753395081 1.072784781455994 0.000000000000000
4.960292339324951 8.025444030761719 1.004940390586853 0.000000000000000
4.960629463195801 -2.107808113098145 0.330602824687958 1.000000000000000
4.963188171386719 3.419530391693115 0.242074981331825 0.000000000000000
4.969554901123047 4.647501945495605 0.616826772689819 0.000000000000000
4.972527503967285 3.012776851654053 0.457573473453522 0.000000000000000
4.973616123199463 5.989895820617676 0.192995518445969 0.000000000000000
4.976035594940186 -4.646401882171631 0.617187917232513 0.000000000000000
4.979665756225586 3.455292940139771 0.528139889240265 0.000000000000000
4.980108261108398 3.955969810485840 0.316625714302063 0.000000000000000
4.981648445129395 7.778813362121582 0.353244751691818 0.000000000000000
4.982066631317139 -2.731445550918579 0.403282999992371 0.000000000000000
4.982511997222900 3.281494855880737 0.598645150661469 0.000000000000000
4.982599258422852 3.319716215133667 0.796738803386688 0.000000000000000
4.986018180847168 1.384714365005493 0.551191985607147 0.000000000000000
4.986594676971436 5.633543491363525 0.655574083328247 1.000000000000000
4.986663818359375 -2.637071609497070 1.511503219604492 0.000000000000000
4.988624095916748 4.569309711456299 0.558560073375702 0.000000000000000
4.989320755004883 -2.686696767807007 1.178678512573242 0.000000000000000
4.990766048431396 -2.623322963714600 0.963759303092957 0.000000000000000
4.991956233978271 -10.280984878540039 3.062347173690796 0.000000000000000
4.992863655090332 5.064485073089600 0.587195754051208 0.000000000000000
4.994693756103516 -2.963509798049927 1.208002924919128 0.000000000000000
4.995404720306396 3.194816589355469 0.466674745082855 0.000000000000000
5.002077579498291 -2.858459472656250 0.766663193702698 0.000000000000000
5.002150058746338 6.360254287719727 1.199195981025696 0.000000000000000
5.002563476562500 0.967053592205048 0.542718589305878 0.000000000000000
5.005363464355469 -2.008998155593872 0.574493706226349 0.000000000000000
5.006172657012939 -6.111123085021973 0.667534410953522 0.000000000000000
5.007310390472412 4.125362873077393 0.048691440373659 0.000000000000000
5.010109901428223 -3.733605146408081 0.443498045206070 0.000000000000000
5.018142700195312 -3.379812479019165 0.464475125074387 0.000000000000000
5.019555091857910 -2.891737461090088 0.770884335041046 0.000000000000000
5.019866943359375 -4.820274353027344 0.630911231040955 0.000000000000000
5.019950389862061 -4.249400615692139 0.596241772174835 0.000000000000000
5.021112442016602 5.608314514160156 0.854999959468842 0.000000000000000
5.022691726684570 -2.268254280090332 0.480221867561340 0.000000000000000
5.023377418518066 4.402905464172363 0.050132371485233 1.000000000000000
5.024139404296875 -2.250774621963501 0.454550057649612 0.000000000000000
5.027725219726562 3.432510375976562 1.040590405464172 0.000000000000000
5.029715061187744 -3.204034805297852 0.540626287460327 0.000000000000000
5.033916950225830 5.456923484802246 0.341025054454803 0.000000000000000
5.035047054290771 4.337864398956299 0.164745002985001 0.000000000000000
5.035280704498291 5.188030719757080 0.179217189550400 0.000000000000000
5.037662982940674 7.914257049560547 0.756469726562500 0.000000000000000
5.038561820983887 1.003328680992126 0.878166735172272 0.000000000000000
5.039134025573730 1.154023528099060 0.157945200800896 0.000000000000000
5.040168285369873 1.287627458572388 0.248962178826332 0.000000000000000
5.040561199188232 -2.973147630691528 0.867291450500488 0.000000000000000
5.041848659515381 3.430168628692627 0.468149274587631 0.000000000000000
5.042895793914795 -6.316674232482910 1.381613016128540 0.000000000000000
5.044291973114014 -9.258034706115723 1.402998924255371 0.000000000000000
5.046205043792725 3.692045450210571 0.666005969047546 0.000000000000000
5.046513080596924 5.771897792816162 0.668074429035187 0.000000000000000
5.048776149749756 -6.604480266571045 1.232034683227539 0.000000000000000
5.052245140075684 4.649687290191650 0.157014995813370 0.000000000000000
5.053527832031250 5.145920276641846 0.331297218799591 0.000000000000000
5.057120323181152 5.911095142364502 1.329718232154846 0.000000000000000
5.057370185852051 5.943231582641602 0.058567818254232 0.000000000000000
5.057795047760010 -2.752562522888184 0.397609472274780 0.000000000000000
5.057925224304199 -2.883117914199829 0.507305979728699 0.000000000000000
5.058043479919434 5.321875095367432 0.294888436794281 1.000000000000000
5.058988571166992 3.331862211227417 0.278252959251404 0.000000000000000
5.063237667083740 -3.487418413162231 0.495740026235580 0.000000000000000
5.064147949218750 4.404991149902344 0.037486687302589 0.000000000000000
5.070833206176758 4.934270381927490 0.256967753171921 0.000000000000000
5.072833538055420 -2.754553318023682 1.200671911239624 1.000000000000000
5.073513031005859 8.294815063476562 1.190438151359558 1.000000000000000
5.076223373413086 3.910914182662964 0.319012343883514 0.000000000000000
5.076872348785400 -7.427369594573975 1.197218656539917 0.000000000000000
5.082915782928467 3.107745647430420 0.676686882972717 0.000000000000000
5.088746070861816 3.884877443313599 1.715452671051025 0.000000000000000
5.089286327362061 1.020726561546326 0.552886664867401 0.000000000000000
5.090219974517822 4.835340023040771 0.704476296901703 0.000000000000000
5.094138622283936 4.400093555450439 0.412886232137680 0.000000000000000
5.097189426422119 -6.178110122680664 1.065835833549500 0.000000000000000
5.097494602203369 6.060124397277832 0.378988534212112 0.000000000000000
5.097579956054688 -6.431083679199219 0.743947982788086 0.000000000000000
5.098506450653076 5.565802574157715 0.346714913845062 1.000000000000000
5.100506782531738 3.385944366455078 0.269436657428741 0.000000000000000
5.105149269104004 4.443160057067871 0.571883678436279 0.000000000000000
5.105836391448975 -3.273360252380371 0.528487145900726 0.000000000000000
5.111451625823975 4.969286441802979 0.464751541614532 0.000000000000000
5.111823558807373 5.157712459564209 0.515431940555573 0.000000000000000
5.114659309387207 5.589695453643799 0.596289157867432 0.000000000000000
5.115888595581055 -5.152088642120361 1.510207295417786 0.000000000000000
5.116093158721924 -3.395007133483887 0.495097041130066 0.000000000000000
5.116365432739258 -2.552263498306274 1.189267873764038 0.000000000000000
5.117862224578857 0.642996966838837 0.246858805418015 0.000000000000000
5.118734359741211 4.717813014984131 0.386757612228394 0.000000000000000
5.121288776397705 3.971191167831421 0.210453927516937 0.000000000000000
5.123644351959229 -3.917605161666870 0.283858180046082 1.000000000000000
5.123908042907715 -6.850266933441162 1.267805337905884 0.000000000000000
5.127843379974365 -3.638514280319214 0.714155197143555 0.000000000000000
5.131632804870605 4.954177856445312 0.575148403644562 0.000000000000000
5.132602691650391 5.814019680023193 0.266759425401688 0.000000000000000
5.133026123046875 5.756730556488037 0.220828026533127 0.000000000000000
5.133637428283691 -10.667388916015625 3.172086238861084 0.000000000000000
5.134511470794678 -3.670259237289429 0.716863751411438 0.000000000000000
5.137375354766846 4.421339511871338 1.004509925842285 0.000000000000000
5.139696598052979 4.934305191040039 0.464491337537766 0.000000000000000
5.141651153564453 5.309295177459717 0.741617083549500 0.000000000000000
5.145099163055420 3.557855367660522 0.239215925335884 0.000000000000000
5.147135734558105 5.133859634399414 0.180208444595337 0.000000000000000
5.148780345916748 -5.120819091796875 0.515431940555573 0.000000000000000
5.153176307678223 1.027460932731628 0.778744399547577 0.000000000000000
5.155581474304199 -12.313339233398438 3.576879262924194 0.000000000000000
5.157061576843262 0.901815533638000 1.402799248695374 0.000000000000000
5.158521175384521 4.347880840301514 0.587863802909851 0.000000000000000
5.158553123474121 5.457692146301270 0.999353110790253 0.000000000000000
5.159498691558838 4.343470573425293 0.611409664154053 0.000000000000000
5.159623622894287 5.265524387359619 0.594437956809998 0.000000000000000
5.160018444061279 4.758529186248779 0.636328339576721 0.000000000000000
5.160090923309326 4.799921512603760 1.888343811035156 0.000000000000000
5.162825107574463 4.210997581481934 0.537212431430817 0.000000000000000
5.165141105651855 -3.801256179809570 0.492337495088577 0.000000000000000
5.168449401855469 3.606366872787476 0.350145459175110 0.000000000000000
5.169096946716309 0.922525823116302 1.406940460205078 0.000000000000000
5.172098636627197 4.647017478942871 0.697687149047852 0.000000000000000
5.172619342803955 6.116207599639893 0.167790666222572 0.000000000000000
5.172753810882568 -3.320594072341919 1.050699830055237 1.000000000000000
5.174543857574463 -3.223877429962158 0.432736277580261 0.000000000000000
5.178065299987793 5.440166473388672 0.287211954593658 0.000000000000000
5.181359291076660 -7.093966484069824 0.742303609848022 1.000000000000000
5.182467460632324 4.781905174255371 0.418940246105194 0.000000000000000
5.183530807495117 0.632877051830292 0.249918252229691 0.000000000000000
5.184571743011475 -5.198343753814697 0.620382666587830 0.000000000000000
5.187039852142334 3.996291637420654 0.023999620229006 0.000000000000000
5.187161922454834 5.031804561614990 0.554798245429993 0.000000000000000
5.188140869140625 -5.523262977600098 1.576187252998352 0.000000000000000
5.190272331237793 7.807857990264893 0.088365413248539 1.000000000000000
5.190289020538330 4.964977264404297 1.924578547477722 0.000000000000000
5.193841934204102 4.797610282897949 1.894555449485779 0.000000000000000
5.194688320159912 3.994529247283936 0.200210511684418 0.000000000000000
5.196408748626709 -3.507793903350830 0.481315016746521 0.000000000000000
5.197517871856689 5.856574058532715 0.389815568923950 0.000000000000000
5.200039386749268 6.589352130889893 0.660625636577606 0.000000000000000
5.200500011444092 0.760154783725739 0.211093232035637 0.000000000000000
5.205179691314697 4.036242485046387 0.701594114303589 0.000000000000000
5.205361366271973 -3.770269155502319 0.855306982994080 0.000000000000000
5.206184864044189 -6.056809902191162 0.850725233554840 0.000000000000000
5.209461212158203 8.732712745666504 1.738136649131775 1.000000000000000
5.211103439331055 5.071825504302979 0.054575238376856 0.000000000000000
5.212026596069336 -4.320658206939697 0.493596136569977 0.000000000000000
5.212447166442871 -6.814638614654541 1.466531634330750 0.000000000000000
5.213381767272949 8.471577644348145 0.901766121387482 0.000000000000000
5.213892936706543 4.544523715972900 1.025034070014954 0.000000000000000
5.215478420257568 1.058827042579651 0.788713276386261 0.000000000000000
5.215814113616943 1.227393627166748 0.915908336639404 0.000000000000000
5.216340541839600 1.018868446350098 0.908494770526886 0.000000000000000
5.217329502105713 3.512246608734131 1.308194756507874 0.000000000000000
5.218268394470215 -5.226289272308350 0.524211287498474 0.000000000000000
5.218380928039551 1.437971115112305 0.802200555801392 0.000000000000000
5.219810485839844 5.769182205200195 0.705305993556976 0.000000000000000
5.222283363342285 6.028557300567627 0.800323486328125 0.000000000000000
5.224589824676514 0.879079282283783 0.564325630664825 0.000000000000000
5.224608898162842 6.262320518493652 0.926325201988220 0.000000000000000
5.226079463958740 -2.204250812530518 0.604150474071503 0.000000000000000
5.226567268371582 4.023689746856689 0.011512185446918 0.000000000000000
5.230707645416260 6.670729160308838 2.271395921707153 0.000000000000000
5.230901718139648 5.914333820343018 0.362683266401291 0.000000000000000
5.231596469879150 -3.611867427825928 0.488050997257233 0.000000000000000
5.232645988464355 -2.652491331100464 0.588661074638367 0.000000000000000
5.239236354827881 -6.138478279113770 0.859622180461884 0.000000000000000
5.242945671081543 -2.732562065124512 0.431060433387756 0.000000000000000
5.243188858032227 3.693046092987061 0.294588387012482 0.000000000000000
5.243871688842773 -6.776460647583008 1.140233397483826 0.000000000000000
5.243918418884277 3.697944164276123 0.307091593742371 0.000000000000000
5.245941638946533 0.952970564365387 0.464596450328827 0.000000000000000
5.248181819915771 -2.733427524566650 1.230810761451721 0.000000000000000
5.250039100646973 4.211493492126465 0.586474895477295 0.000000000000000
5.251174926757812 0.864713072776794 0.566867709159851 0.000000000000000
5.251268863677979 -4.413840293884277 0.621882736682892 0.000000000000000
5.255846500396729 6.001173496246338 0.412490487098694 0.000000000000000
5.256672382354736 5.483138561248779 0.042423848062754 0.000000000000000
5.257421493530273 5.656870365142822 0.672935664653778 0.000000000000000
5.257652759552002 4.657966136932373 1.882132172584534 0.000000000000000
5.259103775024414 5.112291812896729 0.563065111637115 0.000000000000000
5.264764785766602 0.938369512557983 0.465985357761383 0.000000000000000
5.265826225280762 5.942317485809326 0.059588477015495 0.000000000000000
5.267019748687744 4.859922409057617 1.490657687187195 0.000000000000000
5.267855167388916 5.972690105438232 0.044479135423899 0.000000000000000
5.272150993347168 5.310569286346436 0.502278566360474 0.000000000000000
5.273078918457031 -2.776416540145874 0.388507306575775 0.000000000000000
5.274525165557861 6.295301437377930 1.403853654861450 0.000000000000000
5.275592803955078 5.903334140777588 0.546678602695465 0.000000000000000
5.282177448272705 5.286606311798096 0.400812923908234 0.000000000000000
5.287859916687012 5.880192279815674 0.561311066150665 0.000000000000000
5.289675235748291 6.133778095245361 0.574904859066010 0.000000000000000
5.291448116302490 -4.872217178344727 0.524427771568298 0.000000000000000
5.291703224182129 0.451983928680420 0.907820880413055 0.000000000000000
5.291785240173340 -3.699981927871704 0.495705485343933 0.000000000000000
5.292425632476807 3.973088502883911 0.367674916982651 0.000000000000000
5.293719291687012 2.881199121475220 1.253618717193604 0.000000000000000
5.294667243957520 -1.393080234527588 1.466986417770386 0.000000000000000
5.298792839050293 4.923597335815430 1.504505395889282 0.000000000000000
5.301581382751465 4.926188468933105 0.318505078554153 0.000000000000000
5.307309150695801 4.264289379119873 0.325830698013306 0.000000000000000
5.310755252838135 5.942679882049561 0.182254448533058 0.000000000000000
5.312498092651367 3.940951108932495 1.772392988204956 1.000000000000000
5.316090106964111 4.854087352752686 0.552654981613159 0.000000000000000
5.317544460296631 -4.337038516998291 1.838650584220886 0.000000000000000
5.319033145904541 4.259216785430908 0.593766748905182 0.000000000000000
5.319888114929199 4.707967281341553 1.477624654769897 0.000000000000000
5.319957256317139 -2.270471096038818 1.203115582466125 0.000000000000000
5.320106983184814 5.268177509307861 0.113696150481701 0.000000000000000
5.321043491363525 6.356228351593018 1.228516221046448 0.000000000000000
5.323540210723877 1.535454154014587 1.484586000442505 0.000000000000000
5.325873374938965 5.595456123352051 0.414309024810791 0.000000000000000
5.328903198242188 2.115135192871094 0.175168916583061 0.000000000000000
5.334327697753906 -1.291298151016235 0.938148915767670 0.000000000000000
5.337220668792725 0.474645167589188 0.915908336639404 0.000000000000000
5.342290878295898 6.802518844604492 1.281878948211670 0.000000000000000
5.342821598052979 5.390784263610840 0.304841101169586 0.000000000000000
5.344672679901123 4.735060214996338 0.327993422746658 0.000000000000000
5.347077846527100 6.151973724365234 0.688752710819244 0.000000000000000
5.347267150878906 3.531096696853638 0.393050044775009 0.000000000000000
5.350062370300293 4.587020397186279 0.541020154953003 0.000000000000000
5.351205348968506 7.749490737915039 0.215358361601830 0.000000000000000
5.352835655212402 3.767342329025269 0.288079142570496 0.000000000000000
5.353931903839111 6.113168239593506 0.170219987630844 0.000000000000000
5.356294155120850 6.519473552703857 1.122821211814880 0.000000000000000
5.357363700866699 3.633757829666138 1.346479415893555 0.000000000000000
5.359602928161621 4.712834358215332 0.621892571449280 0.000000000000000
5.360013484954834 4.739138126373291 0.648607075214386 0.000000000000000
5.361166477203369 -4.141189575195312 0.590294420719147 0.000000000000000
5.361894607543945 4.778619289398193 1.493916034698486 0.000000000000000
5.363500118255615 -4.571479797363281 0.862812459468842 0.000000000000000
5.366592407226562 2.108441591262817 0.264854222536087 0.000000000000000
5.367367267608643 -3.845633983612061 0.662543177604675 0.000000000000000
5.367538452148438 4.023328781127930 0.463188886642456 0.000000000000000
5.368400096893311 -3.695395708084106 0.437451183795929 0.000000000000000
5.371544361114502 -4.470479965209961 0.744384527206421 0.000000000000000
5.371740341186523 5.373242378234863 0.392867743968964 0.000000000000000
5.372898578643799 -4.790611267089844 0.441538482904434 1.000000000000000
5.376147747039795 3.330627202987671 0.634587824344635 0.000000000000000
5.380959033966064 3.307673215866089 0.633789122104645 0.000000000000000
5.382195472717285 -2.853094100952148 1.041264414787292 0.000000000000000
5.383533000946045 -4.700990676879883 0.355806142091751 0.000000000000000
5.384050369262695 -1.655218720436096 0.356355875730515 0.000000000000000
5.384761333465576 5.102092742919922 0.297938436269760 0.000000000000000
5.386347293853760 -3.511047601699829 0.582879602909088 0.000000000000000
5.386398315429688 -3.619236707687378 0.588296711444855 0.000000000000000
5.389718055725098 -8.546151161193848 2.101583003997803 0.000000000000000
5.389731884002686 -6.626390457153320 0.721758961677551 0.000000000000000
5.389762401580811 5.477391242980957 0.696638703346252 0.000000000000000
5.392760276794434 5.435091495513916 1.018875837326050 0.000000000000000
