# This PCD file was generated using the MATLAB® pcwrite function
# from Computer Vision Toolbox®.
# .PCD v.7 - Point Cloud Data file format
VERSION .7
FIELDS x y z intensity
SIZE 8 8 8 8
TYPE F F F F
COUNT 1 1 1 1
WIDTH 659
HEIGHT 1
VIEWPOINT 0 0 0 1 0 0 0
POINTS 659
DATA ascii
5.904096603393555 7.065730094909668 0.547042012214661 0.000000000000000
5.905245780944824 6.885143280029297 0.155161991715431 0.000000000000000
5.911065101623535 8.165218353271484 2.096695661544800 0.000000000000000
5.914340496063232 5.005269050598145 0.609784126281738 0.000000000000000
5.918109893798828 5.885564327239990 0.158803522586823 0.000000000000000
5.918507575988770 7.622128486633301 0.759484112262726 0.000000000000000
5.920729160308838 -0.082879990339279 0.562856793403625 0.000000000000000
5.922147274017334 3.758019447326660 1.458889603614807 0.000000000000000
5.925626277923584 5.020323753356934 0.386633396148682 0.000000000000000
5.925699234008789 -0.454292356967926 0.880778729915619 0.000000000000000
5.927546977996826 2.867022514343262 1.125509142875671 0.000000000000000
5.933196067810059 -0.855198025703430 0.402358651161194 0.000000000000000
5.937089920043945 6.322581768035889 0.682594239711761 0.000000000000000
5.938394546508789 9.609837532043457 1.674183130264282 0.000000000000000
5.939668655395508 4.766407489776611 0.071778044104576 0.000000000000000
5.939919471740723 6.752707958221436 0.343920648097992 0.000000000000000
5.940310955047607 -0.103893607854843 0.564749360084534 1.000000000000000
5.941844940185547 -5.568455696105957 0.774069964885712 0.000000000000000
5.946121692657471 2.155869483947754 1.694747209548950 0.000000000000000
5.948504447937012 -2.388148307800293 0.949974417686462 0.000000000000000
5.948926925659180 -6.069332122802734 0.603225290775299 0.000000000000000
5.950973033905029 5.722353935241699 0.046109966933727 0.000000000000000
5.951673984527588 5.946691513061523 0.208558067679405 0.000000000000000
5.957006454467773 -1.040092587471008 0.242877632379532 0.000000000000000
5.958248138427734 -2.228408813476562 0.537530243396759 0.000000000000000
5.958893775939941 0.016225155442953 0.883124291896820 0.000000000000000
5.959444522857666 -2.434916496276855 0.954079210758209 0.000000000000000
5.959677696228027 8.643567085266113 0.724955320358276 0.000000000000000
5.961468696594238 6.625999927520752 0.581069529056549 0.000000000000000
5.964295864105225 9.718379020690918 1.949085354804993 0.000000000000000
5.965173244476318 6.865045547485352 0.312823563814163 0.000000000000000
5.966636657714844 5.372194766998291 2.151304006576538 0.000000000000000
5.966687202453613 -0.710850656032562 0.426505744457245 0.000000000000000
5.970258712768555 5.714880466461182 0.236625984311104 0.000000000000000
5.970509529113770 5.827596664428711 0.463532209396362 0.000000000000000
5.971040725708008 5.725621700286865 0.236854925751686 0.000000000000000
5.971934795379639 -4.353372573852539 0.567351639270782 0.000000000000000
5.978664398193359 0.020452691242099 0.886056303977966 0.000000000000000
5.978709220886230 7.541097164154053 0.627388536930084 0.000000000000000
5.979538440704346 1.262485384941101 1.044634222984314 0.000000000000000
5.979863166809082 -5.308051109313965 0.567541539669037 0.000000000000000
5.980046272277832 -0.753122866153717 0.546404540538788 0.000000000000000
5.981191635131836 4.768232822418213 0.321935057640076 0.000000000000000
5.982173442840576 8.901748657226562 0.637187719345093 0.000000000000000
5.982264995574951 -1.619964838027954 0.758788883686066 0.000000000000000
5.987263202667236 6.908474922180176 0.507910609245300 0.000000000000000
5.990179061889648 6.246723175048828 0.547540485858917 0.000000000000000
5.992194175720215 8.690727233886719 0.403686434030533 0.000000000000000
5.992563247680664 -5.250897884368896 0.673259973526001 0.000000000000000
5.993369102478027 7.371159553527832 1.407955765724182 0.000000000000000
5.995868682861328 3.689836502075195 0.669220447540283 0.000000000000000
5.996571540832520 4.577102184295654 0.056616555899382 0.000000000000000
6.001715183258057 -2.742606401443481 0.702865064144135 0.000000000000000
6.005655288696289 4.934684753417969 0.779955923557281 0.000000000000000
6.005923748016357 -2.545529127120972 0.694815397262573 0.000000000000000
6.006808280944824 4.087742328643799 0.180109307169914 0.000000000000000
6.008208274841309 6.258524417877197 0.532148122787476 0.000000000000000
6.010250568389893 4.973708152770996 0.478517025709152 0.000000000000000
6.011025428771973 -5.469803810119629 0.815499246120453 0.000000000000000
6.014528751373291 6.702363491058350 0.639192283153534 0.000000000000000
6.016920566558838 6.677313804626465 0.257346481084824 0.000000000000000
6.017578601837158 5.241890430450439 0.612666308879852 0.000000000000000
6.018976688385010 0.435248404741287 0.335278689861298 0.000000000000000
6.021293163299561 0.455279827117920 0.510249555110931 0.000000000000000
6.022656440734863 -6.471857070922852 0.695775270462036 0.000000000000000
6.024612426757812 -2.778532028198242 0.706678092479706 0.000000000000000
6.024694919586182 3.990380048751831 0.373658150434494 0.000000000000000
6.025564670562744 7.109635353088379 0.553684353828430 0.000000000000000
6.028224945068359 7.894290924072266 0.379841268062592 0.000000000000000
6.031437397003174 5.392539501190186 2.167868375778198 0.000000000000000
6.031907558441162 7.272176265716553 0.823287129402161 0.000000000000000
6.033467292785645 4.707424163818359 0.693749547004700 0.000000000000000
6.034958839416504 4.899060249328613 0.596744894981384 0.000000000000000
6.036131381988525 -5.531289100646973 2.193750381469727 0.000000000000000
6.037036418914795 5.336987972259521 0.540853559970856 0.000000000000000
6.037658691406250 6.961223125457764 1.226238965988159 0.000000000000000
6.038244247436523 3.567595243453979 0.611128389835358 0.000000000000000
6.042149543762207 -5.103843212127686 1.351958870887756 0.000000000000000
6.042941093444824 -2.299360513687134 1.344850182533264 0.000000000000000
6.044084072113037 0.519648492336273 0.512607157230377 0.000000000000000
6.046454429626465 -0.888334214687347 1.044634222984314 0.000000000000000
6.049411773681641 4.993139266967773 0.435795724391937 0.000000000000000
6.051010131835938 7.657514095306396 0.073247291147709 0.000000000000000
6.051177501678467 6.547963142395020 0.049796082079411 0.000000000000000
6.051299095153809 -0.519949615001678 0.278987139463425 0.000000000000000
6.051686286926270 9.282559394836426 0.829295694828033 0.000000000000000
6.052204608917236 6.061085700988770 0.426410496234894 0.000000000000000
6.053532600402832 2.049950838088989 1.329373478889465 0.000000000000000
6.058110237121582 7.367657661437988 0.750696718692780 0.000000000000000
6.059786319732666 5.272892951965332 0.229986250400543 0.000000000000000
6.060138702392578 -5.263913631439209 0.727696657180786 0.000000000000000
6.060589790344238 3.335419893264771 0.602794826030731 0.000000000000000
6.065676689147949 0.715987145900726 0.445312738418579 0.000000000000000
6.065807342529297 5.871613502502441 0.176837801933289 0.000000000000000
6.066744327545166 2.072616338729858 1.095854997634888 0.000000000000000
6.066837310791016 7.347114562988281 0.474341928958893 0.000000000000000
6.070452213287354 7.735261440277100 0.546297907829285 0.000000000000000
6.070793628692627 -4.035258769989014 0.892464041709900 0.000000000000000
6.071385860443115 5.240497589111328 0.245041042566299 0.000000000000000
6.072688102722168 4.549728393554688 0.013243551366031 0.000000000000000
6.074462413787842 -1.076448917388916 0.657108962535858 0.000000000000000
6.078756332397461 -1.483864426612854 1.069570660591125 1.000000000000000
6.081469058990479 5.453526496887207 0.564037859439850 0.000000000000000
6.084588050842285 -5.740244865417480 1.739915251731873 0.000000000000000
6.084821224212646 6.371410846710205 1.078637123107910 0.000000000000000
6.088541507720947 -6.657063484191895 1.337001085281372 1.000000000000000
6.091285705566406 -1.152281761169434 1.289459705352783 0.000000000000000
6.092822074890137 -3.533447742462158 0.540713965892792 0.000000000000000
6.093938827514648 -3.404670476913452 0.663542628288269 0.000000000000000
6.100120067596436 4.057363510131836 0.449374973773956 0.000000000000000
6.100352764129639 4.968598365783691 0.713251113891602 0.000000000000000
6.101344108581543 1.385184764862061 0.666429638862610 0.000000000000000
6.103574275970459 6.422391414642334 0.594697833061218 0.000000000000000
6.104020118713379 -1.559753298759460 0.447179704904556 0.000000000000000
6.105539798736572 1.249845504760742 1.669900536537170 0.000000000000000
6.107911109924316 -0.861781179904938 0.378356605768204 0.000000000000000
6.110998630523682 -1.139668583869934 0.441232383251190 0.000000000000000
6.116741180419922 -0.081249095499516 0.613820910453796 0.000000000000000
6.117425918579102 3.621583461761475 0.619461953639984 0.000000000000000
6.120255947113037 -2.384219408035278 0.973430514335632 0.000000000000000
6.121143817901611 5.396325588226318 0.249316439032555 0.000000000000000
6.122748374938965 -0.842087328433990 0.379091262817383 0.000000000000000
6.126683235168457 -3.394957780838013 0.665813744068146 0.000000000000000
6.131075382232666 7.258236408233643 0.766114473342896 0.000000000000000
6.131546020507812 7.748306274414062 1.314882755279541 0.000000000000000
6.131736755371094 6.712987899780273 0.715547025203705 0.000000000000000
6.137870788574219 -4.876688957214355 0.511070549488068 1.000000000000000
6.138241291046143 6.832064151763916 0.598764419555664 0.000000000000000
6.141275405883789 6.116456508636475 0.464865863323212 0.000000000000000
6.143670082092285 6.045383453369141 0.114336669445038 0.000000000000000
6.143806457519531 1.636120438575745 0.576379120349884 0.000000000000000
6.148263454437256 7.219334125518799 0.162208572030067 0.000000000000000
6.149152278900146 5.689395904541016 0.207665935158730 0.000000000000000
6.149480819702148 6.361083984375000 0.887783944606781 0.000000000000000
6.153424739837646 -2.600067853927612 0.564474105834961 0.000000000000000
6.155130863189697 -5.429533481597900 1.092218041419983 0.000000000000000
6.157435417175293 7.878889083862305 0.806300878524780 1.000000000000000
6.160248279571533 1.377091050148010 0.672361016273499 0.000000000000000
6.161966800689697 3.437882900238037 0.473615229129791 0.000000000000000
6.162934780120850 -1.603142142295837 0.390601128339767 0.000000000000000
6.164455413818359 5.430494308471680 0.108977958559990 0.000000000000000
6.164661884307861 1.759309172630310 1.333446264266968 0.000000000000000
6.170724868774414 6.042401790618896 0.247272416949272 0.000000000000000
6.171343326568604 -4.477821350097656 1.130000352859497 0.000000000000000
6.172298431396484 6.066773414611816 0.480839788913727 0.000000000000000
6.173835277557373 1.623822331428528 0.556265711784363 0.000000000000000
6.174852848052979 6.628440380096436 0.555657684803009 0.000000000000000
6.176142215728760 4.525057792663574 0.233925029635429 0.000000000000000
6.177943706512451 7.453541278839111 0.239980533719063 0.000000000000000
6.178087711334229 -1.290444731712341 0.716863751411438 0.000000000000000
6.178224086761475 3.325380086898804 0.747350215911865 0.000000000000000
6.180351734161377 3.689931392669678 1.928719520568848 0.000000000000000
6.180397510528564 -2.772266626358032 0.721506476402283 0.000000000000000
6.181029319763184 -2.034729719161987 0.652958512306213 0.000000000000000
6.181899070739746 7.384043216705322 0.516493797302246 0.000000000000000
6.185837745666504 6.039040565490723 0.230904772877693 0.000000000000000
6.186207771301270 -3.596268415451050 1.917331576347351 0.000000000000000
6.187892913818359 0.081654876470566 0.439249962568283 0.000000000000000
6.188715934753418 -5.422773361206055 0.568170964717865 0.000000000000000
6.190419197082520 -5.320653438568115 0.642423152923584 0.000000000000000
6.190861701965332 6.911713123321533 0.140905484557152 0.000000000000000
6.196673393249512 6.831822872161865 0.725903630256653 0.000000000000000
6.197070121765137 0.766614556312561 0.214782595634460 0.000000000000000
6.199896812438965 7.412896633148193 1.651870012283325 0.000000000000000
6.202558517456055 -0.882865250110626 0.191415414214134 0.000000000000000
6.204319000244141 2.096668481826782 1.119443535804749 0.000000000000000
6.209198474884033 -6.638080596923828 1.890610098838806 0.000000000000000
6.209950447082520 7.049262523651123 0.323136448860168 0.000000000000000
6.215003013610840 5.192498683929443 0.294133692979813 1.000000000000000
6.219416618347168 9.295372009277344 0.945056319236755 0.000000000000000
6.220324516296387 6.532220363616943 0.709897935390472 0.000000000000000
6.220327377319336 6.143077373504639 0.166336610913277 0.000000000000000
6.222706794738770 -2.520708322525024 0.821980774402618 0.000000000000000
6.230377674102783 3.808862924575806 1.956672072410583 0.000000000000000
6.231153488159180 5.873174667358398 0.475736260414124 1.000000000000000
6.231284141540527 -5.155698776245117 0.574055254459381 0.000000000000000
6.236132144927979 4.272530555725098 0.658699154853821 0.000000000000000
6.238227844238281 -1.154047727584839 0.389131814241409 0.000000000000000
6.238968849182129 6.262102127075195 0.083313800394535 0.000000000000000
6.239881515502930 -8.061532974243164 1.085860967636108 0.000000000000000
6.240602016448975 -2.189341306686401 0.546052515506744 0.000000000000000
6.242584228515625 -6.280616283416748 1.312372088432312 0.000000000000000
6.243598461151123 6.517368316650391 0.692885398864746 0.000000000000000
6.244182109832764 3.178550958633423 0.362297594547272 0.000000000000000
6.245712280273438 1.739018321037292 1.737193465232849 0.000000000000000
6.248143196105957 5.328692436218262 0.630424678325653 0.000000000000000
6.249072551727295 -4.983571052551270 1.662531375885010 0.000000000000000
6.250382423400879 4.613065719604492 0.237345337867737 0.000000000000000
6.253770828247070 5.583275318145752 0.692193210124969 0.000000000000000
6.255645751953125 5.070788383483887 0.230558648705482 0.000000000000000
6.259098529815674 -2.781364679336548 0.729556202888489 0.000000000000000
6.263456821441650 3.799112558364868 1.962883830070496 0.000000000000000
6.264898777008057 4.252192974090576 0.071363367140293 0.000000000000000
6.265582561492920 7.793366432189941 1.135786652565002 0.000000000000000
6.266170978546143 5.435979366302490 0.094113126397133 0.000000000000000
6.266600608825684 -1.445376396179199 0.518565893173218 0.000000000000000
6.267039775848389 -11.546298027038574 2.245626688003540 0.000000000000000
6.267717838287354 6.552839279174805 0.068053945899010 0.000000000000000
6.272967338562012 8.051018714904785 0.724436759948730 0.000000000000000
6.273152351379395 5.426699638366699 0.942125141620636 0.000000000000000
6.273169517517090 1.600413322448730 1.106638312339783 0.000000000000000
6.273476123809814 7.053329467773438 0.288405746221542 0.000000000000000
6.275297641754150 5.410194873809814 1.227929830551147 0.000000000000000
6.278874874114990 5.358493804931641 0.299795687198639 0.000000000000000
6.279356479644775 4.738881587982178 0.134569495916367 0.000000000000000
6.281963825225830 -1.090617060661316 0.679139673709869 0.000000000000000
6.283688068389893 8.288661956787109 0.237854391336441 0.000000000000000
6.288388729095459 -4.807487964630127 0.717584788799286 0.000000000000000
6.288406848907471 4.214336395263672 0.759588420391083 0.000000000000000
6.295442104339600 0.837307155132294 0.255077689886093 0.000000000000000
6.297241210937500 -6.291528224945068 0.631828963756561 0.000000000000000
6.298075675964355 5.816177368164062 0.777172863483429 0.000000000000000
6.300127983093262 0.667952537536621 0.510850131511688 0.000000000000000
6.301085948944092 -5.437799453735352 0.590764343738556 0.000000000000000
6.302742004394531 5.825788497924805 0.708650469779968 0.000000000000000
6.303281307220459 -0.719394087791443 1.699923515319824 0.000000000000000
6.305036067962646 -4.408440589904785 0.590621292591095 0.000000000000000
6.305119991302490 3.584427595138550 1.508578181266785 1.000000000000000
6.305514812469482 3.463047742843628 0.510617434978485 0.000000000000000
6.306313514709473 6.425877571105957 0.855829954147339 0.000000000000000
6.310060024261475 -5.147092342376709 1.206819295883179 1.000000000000000
6.310712814331055 -0.827347695827484 0.304605811834335 0.000000000000000
6.311280250549316 8.025394439697266 0.213864013552666 0.000000000000000
6.315153598785400 5.316729068756104 1.098549723625183 0.000000000000000
6.316453456878662 5.199853420257568 0.659700691699982 0.000000000000000
6.317128658294678 -5.074021339416504 1.685339212417603 0.000000000000000
6.318081855773926 5.979105949401855 0.148799523711205 0.000000000000000
6.328906536102295 7.552673339843750 0.661400437355042 0.000000000000000
6.330070018768311 7.236383914947510 0.330699205398560 0.000000000000000
6.332650184631348 -1.938623428344727 0.664539992809296 1.000000000000000
6.333516120910645 7.324260234832764 0.147039726376534 0.000000000000000
6.338751792907715 3.905579328536987 1.994977235794067 0.000000000000000
6.342022895812988 6.293284893035889 0.410404741764069 0.000000000000000
6.342097282409668 -1.779578089714050 0.573974549770355 0.000000000000000
6.351751327514648 -7.574017047882080 1.315410375595093 0.000000000000000
6.352314472198486 4.757156372070312 0.796329796314240 0.000000000000000
6.352621078491211 4.641932010650635 0.437127083539963 0.000000000000000
6.352698326110840 7.642084121704102 0.532989084720612 0.000000000000000
6.355195999145508 -5.520204544067383 1.438899278640747 0.000000000000000
6.356575012207031 5.035990715026855 0.481805026531219 0.000000000000000
6.362954139709473 -1.421239137649536 0.399907022714615 0.000000000000000
6.364686012268066 6.065460205078125 0.015344928018749 0.000000000000000
6.365756034851074 -0.824281930923462 1.097202897071838 0.000000000000000
6.371715545654297 -8.175699234008789 1.104078650474548 0.000000000000000
6.373277664184570 0.416163921356201 0.256522417068481 0.000000000000000
6.373666286468506 -1.926872611045837 0.668134331703186 0.000000000000000
6.376192092895508 6.680705070495605 1.368666768074036 0.000000000000000
6.378006935119629 -1.091816782951355 0.259893506765366 0.000000000000000
6.379060268402100 0.459942579269409 0.851085841655731 0.000000000000000
6.379300594329834 4.243054866790771 0.768773794174194 1.000000000000000
6.379850864410400 -0.885390877723694 0.196790188550949 0.000000000000000
6.380309581756592 1.527540564537048 0.554370105266571 0.000000000000000
6.380428791046143 7.118102073669434 0.567917883396149 0.000000000000000
6.380908966064453 3.657046556472778 1.529757022857666 0.000000000000000
6.381620407104492 -1.632824301719666 0.340609312057495 0.000000000000000
6.382075309753418 6.004084110260010 0.166717082262039 0.000000000000000
6.382188320159912 8.225499153137207 0.518295586109161 0.000000000000000
6.384108543395996 -2.859896183013916 0.537039816379547 0.000000000000000
6.385025501251221 5.289853572845459 0.269266784191132 0.000000000000000
6.388102531433105 4.126483917236328 0.810053050518036 0.000000000000000
6.388111114501953 5.529265403747559 0.436863958835602 0.000000000000000
6.388358592987061 -1.777894139289856 0.342881441116333 0.000000000000000
6.389879703521729 2.037060976028442 1.146401762962341 0.000000000000000
6.390411853790283 3.773866653442383 0.627118587493896 0.000000000000000
6.392208099365234 4.844220638275146 1.188640832901001 0.000000000000000
6.393095016479492 4.992317199707031 1.202128171920776 0.000000000000000
6.395779609680176 -3.690224170684814 0.643420934677124 0.000000000000000
6.396000385284424 4.496519565582275 0.524780690670013 0.000000000000000
6.396907329559326 -2.397815465927124 0.340094178915024 0.000000000000000
6.397823333740234 -2.333929538726807 1.416532158851624 0.000000000000000
6.398857116699219 -1.172332167625427 0.436647534370422 0.000000000000000
6.401252746582031 5.683103084564209 0.261531829833984 0.000000000000000
6.401275634765625 -2.321273803710938 0.833646953105927 0.000000000000000
6.401337146759033 7.748347759246826 0.519692540168762 0.000000000000000
6.403648376464844 5.506839752197266 0.322979718446732 0.000000000000000
6.405145168304443 -2.265413522720337 0.495341330766678 0.000000000000000
6.405346870422363 5.427906513214111 0.046891871839762 0.000000000000000
6.409688472747803 6.539875507354736 0.226995244622231 0.000000000000000
6.409823417663574 4.815082073211670 0.553567171096802 0.000000000000000
6.415210247039795 0.669513225555420 0.532557547092438 0.000000000000000
6.416102409362793 -5.343418598175049 0.756949007511139 0.000000000000000
6.418437480926514 8.010950088500977 0.847549915313721 0.000000000000000
6.420974731445312 1.136699557304382 0.500604391098022 0.000000000000000
6.422991275787354 -12.484921455383301 1.868378758430481 0.000000000000000
6.432251453399658 8.058120727539062 0.831377267837524 0.000000000000000
6.436694145202637 4.822446346282959 0.137579694390297 0.000000000000000
6.441023826599121 -9.306182861328125 2.354098796844482 0.000000000000000
6.444123268127441 -6.183146476745605 0.616666674613953 0.000000000000000
6.444633960723877 7.937477588653564 1.515267729759216 0.000000000000000
6.445165157318115 -4.968464374542236 0.405129760503769 0.000000000000000
6.445207595825195 0.660589873790741 0.522423863410950 0.000000000000000
6.448895931243896 3.314565658569336 1.239408016204834 0.000000000000000
6.452099323272705 -1.965464949607849 0.452720433473587 0.000000000000000
6.452757358551025 -4.933148384094238 0.592199027538300 0.000000000000000
6.452955722808838 3.313236236572266 0.888089239597321 0.000000000000000
6.453197956085205 7.493005752563477 1.315938115119934 0.000000000000000
6.454878330230713 -2.709271907806396 0.745655536651611 0.000000000000000
6.455149650573730 -3.937765836715698 1.120617985725403 0.000000000000000
6.458706378936768 7.714679241180420 0.230081379413605 0.000000000000000
6.462971210479736 -3.669091701507568 0.647587776184082 0.000000000000000
6.465159893035889 5.265725612640381 0.479319483041763 0.000000000000000
6.465350627899170 2.388783693313599 0.843854844570160 0.000000000000000
6.465430259704590 7.062709331512451 0.127017155289650 0.000000000000000
6.466713428497314 9.509057044982910 0.749691545963287 0.000000000000000
6.466809749603271 -4.603540420532227 1.056338429450989 0.000000000000000
6.472596645355225 7.789643764495850 0.406775861978531 0.000000000000000
6.473196029663086 -4.515931606292725 0.605930328369141 0.000000000000000
6.473965167999268 9.012136459350586 0.659249663352966 1.000000000000000
6.474155902862549 -1.625474810600281 0.989263415336609 0.000000000000000
6.477820396423340 4.956078052520752 2.185467958450317 0.000000000000000
6.480210781097412 -1.775703072547913 0.476916164159775 0.000000000000000
6.482788085937500 -5.653105258941650 0.676945149898529 0.000000000000000
6.483620643615723 -1.041293501853943 0.263746172189713 0.000000000000000
6.483737945556641 7.814698219299316 0.965221762657166 0.000000000000000
6.484252929687500 7.069875240325928 0.662406921386719 0.000000000000000
6.485646247863770 0.693573534488678 0.349827647209167 0.000000000000000
6.486392974853516 5.377844810485840 0.957022190093994 0.000000000000000
6.488845348358154 5.236589908599854 0.704582214355469 0.000000000000000
6.489380836486816 -0.370539069175720 0.323586702346802 0.000000000000000
6.489439487457275 6.605086326599121 0.087272152304649 0.000000000000000
6.490775108337402 -4.228377819061279 0.519958794116974 0.000000000000000
6.490796089172363 11.757581710815430 3.598619937896729 0.000000000000000
6.491854667663574 3.948974132537842 0.378280192613602 0.000000000000000
6.493410110473633 7.503605365753174 0.131633073091507 0.000000000000000
6.497139453887939 8.195006370544434 0.843272447586060 0.000000000000000
6.497916698455811 -3.780966997146606 1.114167451858521 0.000000000000000
6.498618602752686 5.333851337432861 0.111524663865566 0.000000000000000
6.498652935028076 -1.066757678985596 0.289837867021561 0.000000000000000
6.498793125152588 -5.528560161590576 1.458444118499756 0.000000000000000
6.506400108337402 1.783122777938843 0.999818682670593 0.000000000000000
6.507748603820801 4.067759513854980 0.455947428941727 0.000000000000000
6.513567447662354 -0.163053259253502 0.462472736835480 0.000000000000000
6.514264106750488 -4.087657451629639 0.873508393764496 0.000000000000000
6.515014171600342 3.296397686004639 0.893922328948975 0.000000000000000
6.516751766204834 -4.120993614196777 0.875765562057495 0.000000000000000
6.517870426177979 -1.168522596359253 0.367896825075150 1.000000000000000
6.518217563629150 5.868823051452637 0.133192121982574 0.000000000000000
6.518547058105469 6.163851261138916 0.394833713769913 0.000000000000000
6.522579669952393 -1.954634308815002 0.833646953105927 0.000000000000000
6.522665977478027 5.551024913787842 0.859429240226746 0.000000000000000
6.524233341217041 -4.775716304779053 0.704533755779266 1.000000000000000
6.525238037109375 -5.728325366973877 0.924867093563080 0.000000000000000
6.528767108917236 1.632406711578369 0.823925137519836 0.000000000000000
6.531594276428223 4.628733634948730 1.065308332443237 0.000000000000000
6.536397457122803 -1.981424212455750 0.595155715942383 0.000000000000000
6.537693977355957 -1.636212348937988 0.413376003503799 1.000000000000000
6.538452148437500 -0.263640105724335 0.515005528926849 0.000000000000000
6.539148807525635 3.417715311050415 0.509480178356171 0.000000000000000
6.539491176605225 8.200096130371094 0.703993618488312 0.000000000000000
6.540882110595703 5.398795127868652 0.340638697147369 0.000000000000000
6.540894508361816 -0.931023657321930 0.662942588329315 0.000000000000000
6.541742324829102 4.569358825683594 0.674270391464233 0.000000000000000
6.541820526123047 -5.968897819519043 0.802813708782196 0.000000000000000
6.541832447052002 5.429976940155029 0.194416940212250 0.000000000000000
6.542932033538818 -5.279291629791260 0.531882047653198 0.000000000000000
6.543983936309814 -2.885013103485107 1.916296243667603 0.000000000000000
6.544462680816650 0.818174660205841 0.468136817216873 0.000000000000000
6.544701576232910 0.496234416961670 0.465871185064316 0.000000000000000
6.544966220855713 5.753134250640869 0.618518292903900 0.000000000000000
6.546222209930420 1.159222483634949 0.228670597076416 0.000000000000000
6.551844596862793 -4.792065143585205 0.607493460178375 0.000000000000000
6.552225112915039 -2.424521684646606 0.929704427719116 0.000000000000000
6.555197715759277 7.774631977081299 0.232550472021103 0.000000000000000
6.557787418365479 -3.345397233963013 0.667386293411255 0.000000000000000
6.561952114105225 5.687350273132324 0.081843554973602 0.000000000000000
6.562049388885498 0.541112899780273 0.454647004604340 0.000000000000000
6.563468456268311 -0.228280678391457 1.366028904914856 0.000000000000000
6.564085960388184 5.542763710021973 0.113965258002281 0.000000000000000
6.564747333526611 -11.994731903076172 2.337284803390503 0.000000000000000
6.569704055786133 -2.606702327728271 0.583575129508972 0.000000000000000
6.570271492004395 -1.281773209571838 0.713033139705658 1.000000000000000
6.572578907012939 5.777406692504883 0.762521564960480 0.000000000000000
6.572885513305664 -5.520390033721924 0.592694342136383 0.000000000000000
6.572995185852051 5.045823574066162 0.540215134620667 0.000000000000000
6.578237533569336 -1.973315715789795 0.622605025768280 0.000000000000000
6.578276157379150 -2.536235332489014 0.500422120094299 1.000000000000000
6.578659057617188 7.168788909912109 0.203811630606651 0.000000000000000
6.580430030822754 -5.758296966552734 0.792701840400696 0.000000000000000
6.584598541259766 1.759287476539612 1.826227188110352 0.000000000000000
6.586723327636719 5.778839111328125 0.166717082262039 0.000000000000000
6.588794231414795 0.499577641487122 0.062278009951115 1.000000000000000
6.590685367584229 0.594929337501526 0.546381711959839 0.000000000000000
6.594036102294922 4.523147583007812 0.351920843124390 0.000000000000000
6.597681522369385 4.892013549804688 0.203601837158203 0.000000000000000
6.598011970520020 4.824064254760742 1.397114038467407 0.000000000000000
6.598743915557861 3.653531789779663 0.375495821237564 0.000000000000000
6.601611614227295 3.107327222824097 0.635781824588776 1.000000000000000
6.601641654968262 3.775289297103882 0.642611324787140 0.000000000000000
6.601699829101562 5.751329898834229 0.705995500087738 0.000000000000000
6.602318286895752 -0.069372534751892 1.373360157012939 0.000000000000000
6.602398395538330 -1.082840681076050 0.268722474575043 0.000000000000000
6.602503776550293 4.531164169311523 0.260048866271973 0.000000000000000
6.602648735046387 -5.493705272674561 0.816464006900787 0.000000000000000
6.604436397552490 -4.414777278900146 0.797128558158875 0.000000000000000
6.607498645782471 5.767337799072266 0.487274646759033 0.000000000000000
6.609201431274414 -0.289604127407074 0.520654618740082 0.000000000000000
6.611511230468750 -0.952026605606079 0.062956586480141 1.000000000000000
6.611677646636963 3.109528303146362 0.153047218918800 1.000000000000000
6.612218379974365 3.834820270538330 0.498319834470749 0.000000000000000
6.619200706481934 6.026390075683594 0.084369368851185 0.000000000000000
6.620004177093506 4.638645648956299 0.811106264591217 0.000000000000000
6.624581336975098 5.498661994934082 0.727484524250031 0.000000000000000
6.624898433685303 -1.158851265907288 0.295993387699127 0.000000000000000
6.626020431518555 7.826694011688232 0.155724853277206 0.000000000000000
6.627251625061035 7.828148365020752 0.629124939441681 0.000000000000000
6.627512931823730 3.682618856430054 0.760786533355713 0.000000000000000
6.630295276641846 6.038184642791748 0.067303456366062 1.000000000000000
6.630650520324707 4.809675216674805 0.455100327730179 0.000000000000000
6.630731105804443 4.612940788269043 0.324425429105759 0.000000000000000
6.633800506591797 5.889561653137207 0.134710505604744 0.000000000000000
6.635027408599854 -2.088706254959106 1.030898094177246 1.000000000000000
6.640180110931396 -5.490891933441162 0.362639516592026 0.000000000000000
6.640789508819580 -3.514039754867554 0.634864985942841 0.000000000000000
6.642698764801025 -3.737013101577759 0.764780163764954 1.000000000000000
6.646039485931396 4.691565990447998 0.816298007965088 0.000000000000000
6.648990154266357 4.432989597320557 0.274872213602066 1.000000000000000
6.650463104248047 4.616341114044189 0.574621617794037 0.000000000000000
6.652257442474365 5.635337829589844 0.669309556484222 0.000000000000000
6.655450344085693 -1.193667411804199 0.440811395645142 0.000000000000000
6.659931659698486 -2.560776948928833 1.484141230583191 0.000000000000000
6.664945602416992 5.200115680694580 0.616340816020966 0.000000000000000
6.665614604949951 -5.753198146820068 0.438343614339828 0.000000000000000
6.666162967681885 -1.876787185668945 0.384760588407516 0.000000000000000
6.666391372680664 4.787117004394531 0.282297521829605 0.000000000000000
6.669023036956787 7.766884803771973 0.470240145921707 0.000000000000000
6.669233322143555 -3.152817010879517 0.903158009052277 0.000000000000000
6.680572509765625 0.394325464963913 0.397589981555939 0.000000000000000
6.680871963500977 4.740133762359619 0.077206641435623 0.000000000000000
6.681373119354248 -2.709492921829224 0.511750280857086 1.000000000000000
6.682097434997559 -1.933995604515076 0.466918170452118 1.000000000000000
6.684076786041260 -5.275167942047119 0.653694331645966 0.000000000000000
6.684466361999512 -5.432124614715576 0.677886664867401 0.000000000000000
6.686107635498047 5.625840663909912 0.183036759495735 0.000000000000000
6.688324451446533 5.317844867706299 0.573535144329071 0.000000000000000
6.689866542816162 7.807687282562256 0.789332151412964 0.000000000000000
6.691835403442383 5.544039249420166 0.415893077850342 0.000000000000000
6.694798469543457 -5.785323143005371 0.457519501447678 0.000000000000000
6.698882579803467 -5.254294395446777 0.670040726661682 0.000000000000000
6.699556827545166 -5.500729084014893 0.785840213298798 0.000000000000000
6.699805259704590 -6.189768314361572 0.794814109802246 1.000000000000000
6.700586795806885 5.452419757843018 0.479952216148376 0.000000000000000
6.703452587127686 5.139841556549072 0.648489296436310 0.000000000000000
6.703652381896973 4.418230056762695 0.662899255752563 0.000000000000000
6.705161571502686 -6.060917854309082 0.415176898241043 0.000000000000000
6.708464145660400 0.597299754619598 0.348251879215240 0.000000000000000
6.709072589874268 -5.330522537231445 0.973273515701294 0.000000000000000
6.709635257720947 -3.900555849075317 0.778757810592651 0.000000000000000
6.710206508636475 0.158603519201279 0.567168474197388 0.000000000000000
6.710809707641602 8.292780876159668 0.654348790645599 0.000000000000000
6.711598873138428 5.853668689727783 0.203653112053871 1.000000000000000
6.712907314300537 7.631467342376709 0.858835935592651 0.000000000000000
6.713884353637695 5.303067684173584 0.590765535831451 0.000000000000000
6.715322494506836 10.290287971496582 0.328200906515121 0.000000000000000
6.721705913543701 -1.990804672241211 1.198296546936035 0.000000000000000
6.724644660949707 0.166579648852348 1.802415847778320 0.000000000000000
6.724663257598877 4.800908088684082 0.698183059692383 0.000000000000000
6.729366779327393 -5.798802852630615 0.664809763431549 0.000000000000000
6.729511737823486 -5.970121383666992 0.378618538379669 0.000000000000000
6.733797073364258 3.624412536621094 0.365985870361328 0.000000000000000
6.736050605773926 -2.043230056762695 1.043212532997131 0.000000000000000
6.736883640289307 -2.966966867446899 0.465712457895279 0.000000000000000
6.740561962127686 -5.154294013977051 0.210342317819595 0.000000000000000
6.742139339447021 3.490018367767334 0.042401511222124 0.000000000000000
6.744788646697998 7.613956928253174 0.859509468078613 0.000000000000000
6.745534896850586 4.733459472656250 0.235939115285873 0.000000000000000
6.745575904846191 6.921623706817627 0.723320186138153 0.000000000000000
6.748366355895996 -5.580353260040283 0.638446450233459 0.000000000000000
6.751220226287842 0.679574012756348 0.830730438232422 0.000000000000000
6.751777172088623 8.114670753479004 0.708547711372375 0.000000000000000
6.752048969268799 6.970503330230713 0.259207129478455 0.000000000000000
6.752572059631348 3.498112440109253 0.539787530899048 1.000000000000000
6.754272460937500 5.805078983306885 0.323459982872009 0.000000000000000
6.755896568298340 4.757995605468750 0.586516201496124 0.000000000000000
6.756337165832520 5.186942100524902 0.194782733917236 0.000000000000000
6.756838321685791 5.345043182373047 0.750715672969818 0.000000000000000
6.759515762329102 4.361060142517090 0.245773971080780 0.000000000000000
6.760137081146240 4.511520862579346 0.995029389858246 0.000000000000000
6.764367103576660 4.397699832916260 0.246506899595261 0.000000000000000
6.769017219543457 0.386625945568085 0.520506083965302 0.000000000000000
6.769367694854736 -1.260494947433472 0.502031207084656 0.000000000000000
6.769731998443604 -0.352654010057449 1.410015583038330 0.000000000000000
6.773747444152832 2.168164730072021 0.713661670684814 0.000000000000000
6.776715755462646 5.808142662048340 2.391488075256348 0.000000000000000
6.777444362640381 5.298738956451416 0.395170599222183 0.000000000000000
6.777515888214111 8.370141029357910 0.204915136098862 0.000000000000000
6.779192924499512 4.862562656402588 0.142710715532303 0.000000000000000
6.779637813568115 -4.619902133941650 0.677381634712219 0.000000000000000
6.781644344329834 -5.152399539947510 1.133373975753784 0.000000000000000
6.782747268676758 -0.301122069358826 0.298807352781296 0.000000000000000
6.786179065704346 6.541442871093750 0.705408871173859 0.000000000000000
6.788325786590576 -8.122201919555664 2.201774835586548 0.000000000000000
6.790276527404785 4.467851161956787 0.435945630073547 0.000000000000000
6.792783737182617 -4.259783267974854 0.538174748420715 0.000000000000000
6.793875694274902 5.311584949493408 2.310736656188965 0.000000000000000
6.796175956726074 7.713905811309814 0.630594313144684 0.000000000000000
6.796305656433105 5.601249694824219 0.608124792575836 1.000000000000000
6.798251152038574 10.315578460693359 0.662594556808472 0.000000000000000
6.798983097076416 -8.077485084533691 2.196072816848755 0.000000000000000
6.801185607910156 2.294933795928955 0.509484648704529 1.000000000000000
6.802647113800049 5.556220054626465 0.285235822200775 0.000000000000000
6.810452938079834 5.675461769104004 0.219759136438370 0.000000000000000
6.813573360443115 6.761210918426514 0.145764291286469 0.000000000000000
6.814341545104980 0.623871624469757 0.538543283939362 0.000000000000000
6.815125465393066 -4.948207855224609 0.800566256046295 0.000000000000000
6.817411899566650 6.988993644714355 0.410912930965424 0.000000000000000
6.818360328674316 -2.715009450912476 0.605957031250000 0.000000000000000
6.820590019226074 -1.918208837509155 0.516574442386627 0.000000000000000
6.823891639709473 -4.685022830963135 0.555587112903595 0.000000000000000
6.824831485748291 -5.612366199493408 0.593090534210205 0.000000000000000
6.826452255249023 4.564047336578369 0.077395133674145 0.000000000000000
6.826972484588623 5.075525283813477 0.653082072734833 0.000000000000000
6.830734252929688 -4.789330005645752 1.110157847404480 0.000000000000000
6.831738948822021 -7.719432830810547 2.762117147445679 0.000000000000000
6.832526683807373 6.301345348358154 0.498499035835266 0.000000000000000
6.834050178527832 6.015707492828369 1.349315404891968 0.000000000000000
6.839669704437256 -1.444835662841797 1.194926738739014 0.000000000000000
6.841588020324707 3.954135179519653 0.688561081886292 0.000000000000000
6.841937065124512 4.531669616699219 0.298053562641144 0.000000000000000
6.842265605926514 -4.992942810058594 0.405376225709915 0.000000000000000
6.843509674072266 5.593772888183594 0.304023265838623 0.000000000000000
6.844086170196533 7.537131786346436 2.727952957153320 0.000000000000000
6.850708961486816 -3.953983545303345 0.591970264911652 0.000000000000000
6.853005886077881 -1.394758105278015 0.609392225742340 0.000000000000000
6.853245258331299 5.797189235687256 0.257003068923950 0.000000000000000
6.854711055755615 3.053063392639160 0.041910026222467 0.000000000000000
6.855486392974854 4.799552440643311 1.240244269371033 0.000000000000000
6.856373786926270 1.528689503669739 0.704875707626343 0.000000000000000
6.856454372406006 1.620292782783508 0.613906264305115 1.000000000000000
6.856608867645264 -5.351574897766113 1.809153556823730 0.000000000000000
6.858731269836426 3.996048212051392 0.691686213016510 0.000000000000000
6.859681129455566 5.304443836212158 0.598756313323975 0.000000000000000
6.860087394714355 6.997713088989258 0.299399614334106 0.000000000000000
6.860130786895752 -3.784808635711670 1.042619705200195 0.000000000000000
6.861805915832520 1.680216550827026 0.708869338035583 0.000000000000000
6.864115715026855 -7.287079334259033 0.951595127582550 1.000000000000000
6.866255283355713 8.154520988464355 0.966410100460052 0.000000000000000
6.867516994476318 5.292326927185059 2.323159933090210 0.000000000000000
6.868500709533691 6.721207618713379 0.589452624320984 0.000000000000000
6.869247913360596 -2.874313831329346 0.990910887718201 0.000000000000000
6.869785785675049 1.675690889358521 0.865729033946991 0.000000000000000
6.872289180755615 -4.331732749938965 0.576604068279266 0.000000000000000
6.872931480407715 5.343115329742432 0.567538082599640 0.000000000000000
6.874992370605469 6.339177131652832 0.483545422554016 0.000000000000000
6.876061916351318 -3.578841209411621 1.031539201736450 0.000000000000000
6.877504348754883 -7.311514377593994 0.828788638114929 0.000000000000000
6.880624771118164 0.000960750796366 0.842396557331085 0.000000000000000
6.884000301361084 -2.192199945449829 0.629531681537628 0.000000000000000
6.884437561035156 8.881127357482910 0.581039428710938 0.000000000000000
6.885921001434326 5.002547740936279 0.112904131412506 0.000000000000000
6.888891220092773 5.598845958709717 0.578727602958679 0.000000000000000
6.889460086822510 -7.340635299682617 1.339681863784790 0.000000000000000
6.890681266784668 1.933769226074219 0.623628735542297 1.000000000000000
6.892769813537598 1.511565685272217 0.708070635795593 0.000000000000000
6.894417285919189 5.012582302093506 0.260432481765747 0.000000000000000
6.895284175872803 5.225467681884766 0.081541970372200 0.000000000000000
6.895641803741455 -4.353518962860107 0.689089477062225 0.000000000000000
6.896412372589111 5.342084884643555 0.098968520760536 0.000000000000000
6.897100448608398 -0.370032519102097 0.423661440610886 0.000000000000000
6.897704601287842 -7.325811386108398 1.491225242614746 0.000000000000000
6.897794246673584 1.676908254623413 0.599837958812714 0.000000000000000
6.898410320281982 -2.178502082824707 0.611289083957672 0.000000000000000
6.898488521575928 -3.597095966339111 0.828694462776184 0.000000000000000
6.900343418121338 5.256274223327637 0.315039545297623 1.000000000000000
6.902407169342041 5.557813644409180 0.424115329980850 0.000000000000000
6.903193950653076 -0.530931830406189 1.183469414710999 0.000000000000000
6.908753871917725 -1.322789788246155 0.553607404232025 0.000000000000000
6.908935546875000 6.177086353302002 0.283153116703033 0.000000000000000
6.912790298461914 -1.561414718627930 0.642467677593231 0.000000000000000
6.914972305297852 -7.322099208831787 1.143912315368652 1.000000000000000
6.917585849761963 -7.332810401916504 0.793378472328186 0.000000000000000
6.917616367340088 5.784848690032959 0.206213638186455 0.000000000000000
6.919317245483398 -0.412052363157272 0.628383278846741 0.000000000000000
6.921195507049561 3.958033084869385 0.550536215305328 0.000000000000000
6.922594547271729 -0.973153710365295 0.361471384763718 0.000000000000000
6.922699451446533 6.251633167266846 0.070005200803280 0.000000000000000
6.922890663146973 -1.271962046623230 0.431742846965790 0.000000000000000
6.922893047332764 5.074405670166016 0.278744339942932 0.000000000000000
6.923009872436523 -7.311158657073975 1.232728004455566 1.000000000000000
6.923614025115967 0.079878695309162 0.331375926733017 0.000000000000000
6.924857616424561 0.171539232134819 0.424885898828506 0.000000000000000
6.929715633392334 0.296621263027191 0.331949591636658 0.000000000000000
6.933224201202393 -2.654198169708252 0.598617315292358 0.000000000000000
6.935148239135742 -7.395005702972412 0.192892640829086 1.000000000000000
6.935372829437256 -0.685885727405548 0.454342752695084 0.000000000000000
6.935416221618652 4.049644947052002 0.632066547870636 0.000000000000000
6.935440063476562 -2.376695871353149 0.975609242916107 0.000000000000000
6.936146736145020 -0.461667835712433 0.630188941955566 1.000000000000000
6.936266422271729 5.616078853607178 0.358457177877426 0.000000000000000
6.938950061798096 8.492553710937500 0.335068583488464 0.000000000000000
6.939697265625000 8.799483299255371 0.170179814100266 0.000000000000000
6.940873622894287 1.725278735160828 0.717655301094055 0.000000000000000
6.940975666046143 4.469041347503662 0.458650618791580 0.000000000000000
6.941535472869873 6.615190029144287 0.606638491153717 0.000000000000000
6.941733837127686 0.642502188682556 0.253193080425262 0.000000000000000
6.945294857025146 -5.595745086669922 0.719176650047302 0.000000000000000
6.945547103881836 -3.194007158279419 0.645979285240173 1.000000000000000
6.946269035339355 4.028555870056152 0.647484064102173 0.000000000000000
6.947426319122314 7.314410209655762 0.696574330329895 0.000000000000000
6.948728561401367 8.855038642883301 1.378069400787354 0.000000000000000
6.949226856231689 -1.590819358825684 0.621198058128357 0.000000000000000
6.949893951416016 -3.921499252319336 0.566408693790436 0.000000000000000
6.952235221862793 -1.719731688499451 1.061391115188599 0.000000000000000
6.953131675720215 -13.174408912658691 1.982349395751953 0.000000000000000
6.953974246978760 -2.817780256271362 1.282541275024414 0.000000000000000
6.954030990600586 3.949156522750854 0.213602915406227 0.000000000000000
6.955702781677246 -7.225772380828857 1.006394743919373 1.000000000000000
6.956066608428955 -3.085555315017700 0.466762244701385 0.000000000000000
6.961790561676025 8.256861686706543 0.413010507822037 0.000000000000000
6.961854457855225 -5.684427261352539 0.603270053863525 0.000000000000000
6.963802337646484 5.464640617370605 0.032444201409817 0.000000000000000
6.965454101562500 -6.802525043487549 0.925477325916290 0.000000000000000
6.970464706420898 -1.617076992988586 1.917331576347351 1.000000000000000
6.971159934997559 6.719289779663086 1.434930324554443 0.000000000000000
6.971297264099121 -7.250325679779053 1.490638732910156 0.000000000000000
6.974417686462402 -2.322919845581055 0.737623453140259 0.000000000000000
6.977275848388672 2.206492185592651 1.960813164710999 0.000000000000000
6.977490425109863 -7.294386863708496 0.444253861904144 1.000000000000000
6.978229522705078 -7.261085510253906 0.912961363792419 1.000000000000000
6.978650093078613 -5.737633228302002 0.623830854892731 0.000000000000000
6.979469776153564 -7.284738063812256 0.385802567005157 1.000000000000000
6.982276916503906 4.911602497100830 1.136012315750122 0.000000000000000
6.982312202453613 2.310261249542236 1.529757022857666 0.000000000000000
6.988006114959717 5.258577823638916 0.502734541893005 0.000000000000000
6.988447666168213 4.141026973724365 0.815099895000458 0.000000000000000
6.988509654998779 -7.246425151824951 1.143460988998413 0.000000000000000
6.989156723022461 6.707278728485107 0.314577341079712 0.000000000000000
6.989710330963135 -3.976195812225342 0.700714230537415 0.000000000000000
6.990351676940918 1.603829503059387 1.225928783416748 0.000000000000000
6.991396427154541 -5.843434333801270 0.717116177082062 0.000000000000000
6.991967678070068 6.403365612030029 0.362568825483322 1.000000000000000
6.992402076721191 -0.266663998365402 0.609739422798157 0.000000000000000
6.992932319641113 -1.081563472747803 0.474954634904861 0.000000000000000
6.993704319000244 4.869987964630127 0.407862007617950 0.000000000000000
6.995213985443115 -4.766803741455078 0.568177521228790 0.000000000000000
6.997006416320801 -0.773836433887482 1.886273384094238 1.000000000000000
6.997876644134521 -7.285092353820801 0.834054946899414 0.000000000000000
6.998066425323486 6.686097145080566 1.287973046302795 0.000000000000000
6.999739646911621 -1.362006068229675 0.547449946403503 0.000000000000000
7.001176834106445 -5.554637432098389 0.582630872726440 0.000000000000000
7.001211643218994 5.044237613677979 0.629138767719269 0.000000000000000
7.001847267150879 -5.407350063323975 0.304298251867294 0.000000000000000
7.002409934997559 7.405098438262939 0.644774377346039 0.000000000000000
7.002981185913086 -2.864709615707397 1.293324589729309 0.000000000000000
7.004697799682617 0.052447319030762 1.876955747604370 0.000000000000000
7.007237434387207 -0.517530620098114 0.498722851276398 0.000000000000000
7.007839202880859 7.601774215698242 0.137150928378105 0.000000000000000
7.007945060729980 -8.848802566528320 1.381958246231079 0.000000000000000
7.008205413818359 5.311042785644531 0.217974901199341 0.000000000000000
7.008625030517578 8.560433387756348 1.891124963760376 0.000000000000000
7.010276317596436 -3.061403274536133 0.767575681209564 0.000000000000000
7.011713027954102 5.237040042877197 0.082484439015388 0.000000000000000
7.016556262969971 6.733572959899902 0.465417772531509 0.000000000000000
7.018357276916504 -3.069746732711792 1.135277986526489 0.000000000000000
7.018959522247314 4.495549201965332 0.382873147726059 0.000000000000000
7.020106792449951 7.668629169464111 0.858411669731140 0.000000000000000
7.024067878723145 -2.809568643569946 2.027070760726929 0.000000000000000
7.024403095245361 -0.268866628408432 1.462147831916809 0.000000000000000
7.024605751037598 -8.748723030090332 1.274374365806580 0.000000000000000
7.027264595031738 -3.050292968750000 0.543752372264862 0.000000000000000
