# This PCD file was generated using the MATLAB® pcwrite function
# from Computer Vision Toolbox®.
# .PCD v.7 - Point Cloud Data file format
VERSION .7
FIELDS x y z intensity
SIZE 8 8 8 8
TYPE F F F F
COUNT 1 1 1 1
WIDTH 649
HEIGHT 1
VIEWPOINT 0 0 0 1 0 0 0
POINTS 649
DATA ascii
10.175043106079102 -5.081517696380615 1.031054019927979 0.000000000000000
10.176014900207520 -0.513358175754547 0.742866575717926 0.000000000000000
10.176093101501465 5.985570430755615 0.997596800327301 0.000000000000000
10.179427146911621 6.170228958129883 1.352019548416138 0.000000000000000
10.179859161376953 6.218449592590332 0.915784537792206 0.000000000000000
10.180831909179688 7.227391719818115 1.329893589019775 0.000000000000000
10.182648658752441 -6.502563476562500 1.479176521301270 0.000000000000000
10.184154510498047 -1.334983348846436 0.511334598064423 0.000000000000000
10.185285568237305 -3.418231010437012 1.021242499351501 0.000000000000000
10.185853004455566 -1.654127001762390 1.529341459274292 0.000000000000000
10.186130523681641 -4.950953006744385 2.355727910995483 0.000000000000000
10.186926841735840 -5.039560794830322 0.938394069671631 0.000000000000000
10.187359809875488 7.465305328369141 0.677375972270966 0.000000000000000
10.191266059875488 7.105293273925781 0.093240208923817 0.000000000000000
10.191913604736328 -5.580371856689453 1.104516506195068 0.000000000000000
10.192006111145020 10.544553756713867 1.012622952461243 0.000000000000000
10.192029953002930 -4.270108222961426 0.912391602993011 0.000000000000000
10.192112922668457 -7.290918350219727 1.423344731330872 0.000000000000000
10.194034576416016 -8.162288665771484 0.926927924156189 0.000000000000000
10.195999145507812 7.062150955200195 0.355110675096512 0.000000000000000
10.197752952575684 -1.901273965835571 0.796374261379242 0.000000000000000
10.199151992797852 -7.284658432006836 1.667875051498413 0.000000000000000
10.199926376342773 6.022373199462891 0.909354686737061 0.000000000000000
10.206736564636230 7.069588661193848 0.546435773372650 0.000000000000000
10.208070755004883 10.421236991882324 0.053467694669962 0.000000000000000
10.210581779479980 -5.296732425689697 0.927503228187561 0.000000000000000
10.212290763854980 9.995025634765625 0.546451747417450 0.000000000000000
10.212394714355469 -1.246507048606873 0.809697926044464 0.000000000000000
10.213657379150391 -4.673158645629883 0.949097812175751 0.000000000000000
10.213973045349121 6.320355415344238 0.551733732223511 0.000000000000000
10.214419364929199 -6.791326999664307 0.965360820293427 0.000000000000000
10.218017578125000 -3.199782848358154 0.121475808322430 1.000000000000000
10.219296455383301 -6.270737171173096 0.851029098033905 0.000000000000000
10.219412803649902 9.197727203369141 0.288000166416168 0.000000000000000
10.220028877258301 2.054783105850220 0.699707567691803 0.000000000000000
10.221272468566895 -3.405316591262817 0.910365998744965 0.000000000000000
10.221488952636719 9.326309204101562 0.928746640682220 0.000000000000000
10.221913337707520 -6.744975566864014 1.304473638534546 0.000000000000000
10.222561836242676 8.526792526245117 0.048790920525789 0.000000000000000
10.224353790283203 0.878153145313263 2.749693632125854 0.000000000000000
10.226396560668945 8.472645759582520 0.558929085731506 0.000000000000000
10.226879119873047 10.870737075805664 1.232321143150330 0.000000000000000
10.229008674621582 -4.414198875427246 1.363972902297974 0.000000000000000
10.230292320251465 1.224232792854309 0.870623826980591 0.000000000000000
10.233695983886719 5.692262649536133 0.989513695240021 0.000000000000000
10.233909606933594 -5.956516742706299 0.909048557281494 0.000000000000000
10.234873771667480 -7.860876083374023 0.891108155250549 0.000000000000000
10.236248970031738 8.221922874450684 1.058671832084656 0.000000000000000
10.237236976623535 7.129918575286865 0.117581792175770 0.000000000000000
10.237565994262695 8.661217689514160 0.770859658718109 0.000000000000000
10.237683296203613 9.064237594604492 1.076145052909851 0.000000000000000
10.239627838134766 -1.589204311370850 2.155344486236572 0.000000000000000
10.240151405334473 -0.642282009124756 0.807501077651978 0.000000000000000
10.242596626281738 9.156645774841309 0.763308167457581 0.000000000000000
10.244441986083984 3.725834369659424 1.615542888641357 0.000000000000000
10.245706558227539 6.767092227935791 0.847847759723663 0.000000000000000
10.246219635009766 -1.059205293655396 0.691403210163116 0.000000000000000
10.247451782226562 -6.649942398071289 0.937829494476318 0.000000000000000
10.249508857727051 9.662364006042480 0.240952596068382 1.000000000000000
10.249640464782715 3.287249803543091 1.839904069900513 0.000000000000000
10.255237579345703 -2.819756984710693 1.576253771781921 0.000000000000000
10.260879516601562 -1.288791537284851 1.101536631584167 0.000000000000000
10.265173912048340 9.773346900939941 0.542019009590149 0.000000000000000
10.265216827392578 -0.114842429757118 2.750728845596313 0.000000000000000
10.268356323242188 0.473107844591141 1.258491039276123 0.000000000000000
10.268829345703125 9.369503021240234 0.291183412075043 0.000000000000000
10.269712448120117 0.037462189793587 0.788413584232330 0.000000000000000
10.270026206970215 -0.685915172100067 2.757975816726685 0.000000000000000
10.273052215576172 -1.297970294952393 2.774540185928345 0.000000000000000
10.273189544677734 -6.724891662597656 1.307862877845764 0.000000000000000
10.273870468139648 9.128632545471191 1.002026438713074 0.000000000000000
10.276590347290039 9.402251243591309 0.559437215328217 0.000000000000000
10.278324127197266 7.587253570556641 1.700061082839966 0.000000000000000
10.282185554504395 -3.141225099563599 0.121974967420101 1.000000000000000
10.288828849792480 -1.752418637275696 0.559767067432404 0.000000000000000
10.290407180786133 -1.032198429107666 0.674228012561798 0.000000000000000
10.290930747985840 -1.581903100013733 0.819426834583282 0.000000000000000
10.291447639465332 -3.921279907226562 1.250900149345398 0.000000000000000
10.291777610778809 -2.844879388809204 0.552121698856354 0.000000000000000
10.291792869567871 -6.772278785705566 1.041043758392334 0.000000000000000
10.291820526123047 -8.145796775817871 1.007638573646545 0.000000000000000
10.295839309692383 -1.688037991523743 0.800967037677765 0.000000000000000
10.296665191650391 2.414305448532104 0.921553790569305 0.000000000000000
10.298454284667969 10.418506622314453 0.278724133968353 0.000000000000000
10.301750183105469 2.683785438537598 1.819685339927673 0.000000000000000
10.305134773254395 7.358454704284668 0.581651449203491 0.000000000000000
10.306670188903809 -2.841639041900635 1.584463477134705 0.000000000000000
10.307962417602539 -6.902923583984375 1.321420311927795 0.000000000000000
10.308172225952148 -7.085669040679932 1.089961409568787 0.000000000000000
10.309407234191895 -6.896596431732178 0.952219963073730 0.000000000000000
10.309535980224609 8.232347488403320 0.276356190443039 0.000000000000000
10.311087608337402 9.819795608520508 0.380320012569427 0.000000000000000
10.312669754028320 6.523433208465576 1.808469653129578 0.000000000000000
10.314666748046875 -3.989201784133911 1.638998985290527 0.000000000000000
10.320158004760742 1.553222537040710 0.640145063400269 0.000000000000000
10.322411537170410 -10.360675811767578 1.009867429733276 0.000000000000000
10.322669029235840 10.761379241943359 0.054655212908983 0.000000000000000
10.322671890258789 -8.122850418090820 1.033777117729187 0.000000000000000
10.323785781860352 -3.468721866607666 0.899225771427155 0.000000000000000
10.324536323547363 -3.944828271865845 1.109031081199646 0.000000000000000
10.325907707214355 6.025272846221924 0.457185208797455 0.000000000000000
10.327112197875977 -3.203886985778809 1.438878536224365 0.000000000000000
10.327679634094238 2.379397153854370 0.895546913146973 0.000000000000000
10.330017089843750 -3.877037286758423 1.350848317146301 0.000000000000000
10.332293510437012 5.343862533569336 0.960446894168854 0.000000000000000
10.333126068115234 4.584189414978027 1.504306077957153 0.000000000000000
10.335556030273438 -0.931697547435760 0.796680510044098 0.000000000000000
10.335807800292969 -1.768217206001282 0.845522880554199 0.000000000000000
10.341406822204590 -4.211409091949463 1.908647775650024 0.000000000000000
10.345073699951172 -6.195813655853271 1.093170166015625 0.000000000000000
10.345493316650391 -5.615742206573486 1.025723457336426 0.000000000000000
10.346334457397461 0.840443611145020 0.396960884332657 0.000000000000000
10.347237586975098 -9.832212448120117 1.150939822196960 0.000000000000000
10.350323677062988 4.009222984313965 0.083303786814213 0.000000000000000
10.354482650756836 9.727589607238770 0.161181211471558 0.000000000000000
10.359393119812012 -3.777064323425293 0.910416662693024 0.000000000000000
10.359970092773438 -0.632916927337646 0.716688990592957 0.000000000000000
10.360833168029785 -1.542521715164185 0.521477758884430 0.000000000000000
10.367298126220703 -1.047404885292053 0.498689204454422 0.000000000000000
10.367653846740723 -4.485624790191650 1.503250837326050 0.000000000000000
10.369110107421875 9.442115783691406 0.024476485326886 0.000000000000000
10.369224548339844 7.467801570892334 0.808430373668671 0.000000000000000
10.370498657226562 7.112529754638672 1.062598943710327 0.000000000000000
10.371132850646973 -6.901267051696777 1.250006198883057 0.000000000000000
10.374743461608887 7.949893474578857 2.234169244766235 0.000000000000000
10.376013755798340 -5.518883228302002 1.334865331649780 0.000000000000000
10.377743721008301 9.092074394226074 0.793126881122589 0.000000000000000
10.378930091857910 6.993033409118652 0.791761696338654 0.000000000000000
10.380660057067871 7.421141147613525 1.004276514053345 0.000000000000000
10.380830764770508 -4.281213283538818 0.580626308917999 0.000000000000000
10.382953643798828 -3.823475360870361 0.934952259063721 0.000000000000000
10.383722305297852 7.209089279174805 0.994861423969269 0.000000000000000
10.385323524475098 8.621763229370117 0.620012223720551 0.000000000000000
10.386010169982910 -7.374952793121338 1.446818828582764 0.000000000000000
10.386237144470215 1.169410943984985 1.390863180160522 0.000000000000000
10.389319419860840 -0.501033961772919 0.798517525196075 0.000000000000000
10.390435218811035 -7.421828269958496 0.832441329956055 0.000000000000000
10.393057823181152 6.260597229003906 1.614583134651184 0.000000000000000
10.393543243408203 -2.798750638961792 0.660226106643677 0.000000000000000
10.394281387329102 0.719734013080597 0.659170031547546 0.000000000000000
10.395210266113281 0.453501582145691 0.989068388938904 0.000000000000000
10.395470619201660 9.599723815917969 0.242047220468521 0.000000000000000
10.398838043212891 2.033764362335205 0.923289954662323 0.000000000000000
10.398940086364746 7.035851001739502 0.335356593132019 0.000000000000000
10.401651382446289 1.713030695915222 0.362600326538086 0.000000000000000
10.406468391418457 -2.978503704071045 2.251463413238525 0.000000000000000
10.409526824951172 6.010181903839111 1.280324459075928 0.000000000000000
10.410243034362793 -1.623499870300293 0.918081462383270 0.000000000000000
10.410510063171387 -4.281977653503418 1.924148797988892 0.000000000000000
10.411374092102051 -1.057732343673706 0.480702191591263 1.000000000000000
10.414505004882812 -2.877629995346069 1.437823295593262 0.000000000000000
10.414564132690430 -1.284652352333069 0.623428642749786 0.000000000000000
10.416100502014160 6.060124397277832 0.948413610458374 0.000000000000000
10.416343688964844 -1.485803842544556 0.361912816762924 0.000000000000000
10.416369438171387 -0.062176216393709 0.860057473182678 0.000000000000000
10.416986465454102 -2.862275362014771 0.941346049308777 0.000000000000000
10.418850898742676 -1.625214815139771 0.565551102161407 0.000000000000000
10.420262336730957 5.889258384704590 1.011405587196350 0.000000000000000
10.420946121215820 9.921655654907227 1.215842127799988 0.000000000000000
10.421879768371582 1.656634330749512 0.956659317016602 0.000000000000000
10.427251815795898 7.464903831481934 0.786589860916138 0.000000000000000
10.428482055664062 6.198386669158936 1.797914505004883 0.000000000000000
10.437037467956543 -6.045758247375488 1.146531939506531 0.000000000000000
10.437913894653320 -7.141104221343994 1.019771337509155 0.000000000000000
10.438463211059570 9.061873435974121 1.114611387252808 0.000000000000000
10.438466072082520 10.439196586608887 0.394311010837555 0.000000000000000
10.442663192749023 -1.819155812263489 0.875198125839233 0.000000000000000
10.445437431335449 -10.515312194824219 1.487227797508240 0.000000000000000
10.446648597717285 -0.686723768711090 0.803722679615021 0.000000000000000
10.446802139282227 -1.965635895729065 0.898241281509399 0.000000000000000
10.448840141296387 7.084775447845459 0.774345338344574 0.000000000000000
10.450204849243164 6.342336177825928 1.626718997955322 0.000000000000000
10.451390266418457 -2.718877553939819 0.891655385494232 0.000000000000000
10.452185630798340 -5.881334304809570 1.013426303863525 0.000000000000000
10.456360816955566 -1.044052124023438 0.705333054065704 0.000000000000000
10.458276748657227 -6.254687786102295 0.911986470222473 0.000000000000000
10.458499908447266 -0.111168153584003 0.661695599555969 0.000000000000000
10.459062576293945 -3.469943284988403 1.633134961128235 0.000000000000000
10.459985733032227 -7.569541931152344 1.580769538879395 0.000000000000000
10.461217880249023 9.638475418090820 0.571316242218018 0.000000000000000
10.461373329162598 8.475692749023438 0.929684221744537 0.000000000000000
10.463611602783203 6.023653507232666 2.511310338973999 0.000000000000000
10.466051101684570 -3.446325778961182 1.466315865516663 0.000000000000000
10.468448638916016 7.309951782226562 0.316504687070847 0.000000000000000
10.472333908081055 -5.413972854614258 2.015133142471313 0.000000000000000
10.472641944885254 10.546745300292969 0.168623134493828 0.000000000000000
10.477169036865234 6.483219623565674 0.755733609199524 0.000000000000000
10.479849815368652 4.605570793151855 0.967284977436066 0.000000000000000
10.479955673217773 8.798093795776367 0.944839119911194 0.000000000000000
10.480520248413086 7.222201347351074 0.022214539349079 0.000000000000000
10.480965614318848 -3.655191659927368 0.595328211784363 0.000000000000000
10.482423782348633 -3.833740711212158 0.878428101539612 0.000000000000000
10.486481666564941 5.737378120422363 1.010058283805847 0.000000000000000
10.486742973327637 0.785926043987274 0.916345357894897 0.000000000000000
10.487106323242188 9.380511283874512 1.275545716285706 0.000000000000000
10.488300323486328 9.381579399108887 2.405354499816895 0.000000000000000
10.490392684936523 5.701514244079590 0.089607857167721 0.000000000000000
10.491583824157715 0.268135309219360 0.724679768085480 0.000000000000000
10.492274284362793 -1.288475155830383 2.832515716552734 0.000000000000000
10.494789123535156 4.612135887145996 0.614822566509247 0.000000000000000
10.497426033020020 8.469142913818359 0.334347128868103 0.000000000000000
10.497710227966309 8.217068672180176 0.356076061725616 0.000000000000000
10.498051643371582 9.966115951538086 1.139226198196411 0.000000000000000
10.499069213867188 -0.676732540130615 0.953770160675049 0.000000000000000
10.499721527099609 -8.954306602478027 1.250988245010376 0.000000000000000
10.499769210815430 5.921627044677734 1.369173765182495 0.000000000000000
10.500205039978027 9.852767944335938 1.188873887062073 0.000000000000000
10.500499725341797 -3.058230400085449 0.713000714778900 0.000000000000000
10.500680923461914 9.307221412658691 0.482642084360123 0.000000000000000
10.502608299255371 9.012003898620605 0.157006472349167 0.000000000000000
10.503174781799316 -3.612022638320923 1.898538470268250 0.000000000000000
10.505270957946777 4.536897182464600 2.380165100097656 0.000000000000000
10.511608123779297 9.989793777465820 0.275908768177032 0.000000000000000
10.512280464172363 6.382018566131592 0.801735401153564 0.000000000000000
10.513571739196777 10.296374320983887 1.334050416946411 0.000000000000000
10.515832901000977 9.332454681396484 0.078525446355343 0.000000000000000
10.518284797668457 2.862885951995850 1.615542888641357 0.000000000000000
10.518741607666016 2.423415899276733 0.745345592498779 0.000000000000000
10.521199226379395 5.994861125946045 1.611417293548584 0.000000000000000
10.522744178771973 -0.166771143674850 0.767299115657806 0.000000000000000
10.524257659912109 2.463407516479492 1.438350915908813 0.000000000000000
10.525446891784668 -1.947356224060059 1.310502767562866 0.000000000000000
10.527629852294922 -6.960690498352051 0.944525420665741 0.000000000000000
10.528909683227539 6.757366657257080 0.912149429321289 0.000000000000000
10.530696868896484 9.477890014648438 0.079128630459309 0.000000000000000
10.533857345581055 6.760542392730713 1.134701251983643 0.000000000000000
10.536146163940430 7.523410320281982 0.196599602699280 0.000000000000000
10.536830902099609 -1.014210224151611 0.690101385116577 0.000000000000000
10.537576675415039 -3.678235530853271 0.577114880084991 0.000000000000000
10.539124488830566 8.182057380676270 1.775513887405396 0.000000000000000
10.544834136962891 4.499491691589355 0.592813074588776 0.000000000000000
10.545167922973633 -3.250363111495972 2.956748962402344 0.000000000000000
10.545461654663086 4.512817859649658 2.385866880416870 0.000000000000000
10.546648979187012 6.993657588958740 0.971509277820587 0.000000000000000
10.546994209289551 6.498198986053467 0.831505417823792 0.000000000000000
10.548635482788086 0.712105810642242 0.958464980125427 0.000000000000000
10.548955917358398 5.483953475952148 0.798020184040070 0.000000000000000
10.549688339233398 -9.954740524291992 1.169586420059204 0.000000000000000
10.549980163574219 -7.135356903076172 0.953182578086853 0.000000000000000
10.551871299743652 -3.597493886947632 0.942025125026703 0.000000000000000
10.552310943603516 -0.093558631837368 0.956659317016602 0.000000000000000
10.554574012756348 7.022532939910889 1.552090167999268 0.000000000000000
10.555485725402832 7.683656215667725 0.047852635383606 0.000000000000000
10.555557250976562 -0.405319064855576 0.831352651119232 0.000000000000000
10.557202339172363 -3.705769300460815 0.837355792522430 0.000000000000000
10.558112144470215 -0.316308528184891 0.729364037513733 0.000000000000000
10.560877799987793 7.803804874420166 0.350735992193222 0.000000000000000
10.561071395874023 2.945923328399658 1.624925255775452 0.000000000000000
10.563189506530762 7.631315708160400 0.122821889817715 0.000000000000000
10.563323974609375 1.889605998992920 1.218848943710327 0.000000000000000
10.565405845642090 2.097372293472290 1.318766236305237 0.000000000000000
10.565524101257324 -6.378059387207031 1.118811011314392 0.000000000000000
10.566272735595703 -9.101591110229492 0.855404257774353 0.000000000000000
10.569306373596191 8.444621086120605 0.725576341152191 0.000000000000000
10.569583892822266 -1.303774237632751 0.468700170516968 0.000000000000000
10.571769714355469 9.303561210632324 1.081121683120728 0.000000000000000
10.572262763977051 -5.298349380493164 0.953544020652771 0.000000000000000
10.572273254394531 0.277954012155533 0.921553790569305 0.000000000000000
10.572736740112305 -0.682966947555542 0.731568396091461 0.000000000000000
10.575058937072754 -1.880277514457703 0.390097349882126 0.000000000000000
10.576292037963867 1.094635605812073 0.488411009311676 0.000000000000000
10.581198692321777 6.738889217376709 0.527980268001556 0.000000000000000
10.581602096557617 -1.310131788253784 0.612922906875610 0.000000000000000
10.582892417907715 4.975194454193115 0.717285752296448 0.000000000000000
10.582973480224609 8.579717636108398 0.049934457987547 0.000000000000000
10.583575248718262 5.596149444580078 0.619045555591583 0.000000000000000
10.583586692810059 7.367849826812744 0.096782490611076 0.000000000000000
10.583627700805664 -7.295159816741943 1.036488890647888 0.000000000000000
10.584264755249023 9.437192916870117 0.460505932569504 0.000000000000000
10.585291862487793 -0.859482467174530 1.009508371353149 0.000000000000000
10.587577819824219 5.557185649871826 1.010395169258118 0.000000000000000
10.589268684387207 -3.536543846130371 1.268054246902466 0.000000000000000
10.590418815612793 -6.777804851531982 0.601754188537598 1.000000000000000
10.594745635986328 -9.268140792846680 1.107842564582825 0.000000000000000
10.600092887878418 -3.226820230484009 1.111826658248901 0.000000000000000
10.600277900695801 6.848708629608154 0.895775377750397 0.000000000000000
10.601902008056641 -0.596636295318604 1.065500497817993 0.000000000000000
10.602626800537109 -5.592022418975830 1.361499428749084 0.000000000000000
10.603870391845703 6.411564826965332 0.951301395893097 0.000000000000000
10.605870246887207 7.703354835510254 0.450878441333771 0.000000000000000
10.605998992919922 6.036805152893066 0.631025731563568 0.000000000000000
10.606343269348145 6.952237606048584 0.875677704811096 0.000000000000000
10.609654426574707 0.710645377635956 0.693224012851715 0.000000000000000
10.611413002014160 -4.990185260772705 0.990860879421234 0.000000000000000
10.612864494323730 0.255849331617355 1.130769729614258 0.000000000000000
10.613666534423828 -6.947769641876221 0.607108235359192 1.000000000000000
10.614494323730469 8.483145713806152 0.049802511930466 0.000000000000000
10.614546775817871 10.117289543151855 2.173213005065918 0.000000000000000
10.614714622497559 -6.845698833465576 0.799085795879364 0.000000000000000
10.616918563842773 9.724863052368164 1.105309963226318 0.000000000000000
10.617517471313477 9.732911109924316 0.689330816268921 0.000000000000000
10.617742538452148 0.752152323722839 0.964965522289276 0.000000000000000
10.621382713317871 8.547748565673828 0.967709243297577 0.000000000000000
10.623144149780273 0.291351199150085 0.836374044418335 0.000000000000000
10.623183250427246 7.674657821655273 0.526368618011475 0.000000000000000
10.623501777648926 -5.825358390808105 0.883353888988495 0.000000000000000
10.623622894287109 -1.610844612121582 0.638373851776123 0.000000000000000
10.623813629150391 -4.309348106384277 0.902279734611511 0.000000000000000
10.624773025512695 -3.627524375915527 0.861896812915802 0.000000000000000
10.625123977661133 4.503101348876953 1.096946120262146 0.000000000000000
10.625897407531738 3.938229322433472 1.679460883140564 0.000000000000000
10.627722740173340 7.568376064300537 0.926078259944916 0.000000000000000
10.628503799438477 -6.969413280487061 0.510476410388947 0.000000000000000
10.629144668579102 -6.957901954650879 0.022172652184963 1.000000000000000
10.630634307861328 7.615839004516602 0.273926854133606 0.000000000000000
10.632874488830566 -7.228536605834961 0.615330517292023 0.000000000000000
10.638368606567383 -6.973227024078369 0.315315216779709 1.000000000000000
10.640044212341309 -1.840532302856445 1.600296258926392 0.000000000000000
10.641165733337402 9.403257369995117 0.570353090763092 0.000000000000000
10.641449928283691 8.608674049377441 1.103680610656738 0.000000000000000
10.642334938049316 -0.641964495182037 0.469227790832520 0.000000000000000
10.642856597900391 -6.952822685241699 0.290710926055908 1.000000000000000
10.644203186035156 0.715197741985321 0.407966345548630 0.000000000000000
10.644595146179199 8.133111000061035 0.460778802633286 0.000000000000000
10.646039009094238 -0.679492712020874 0.880793631076813 0.000000000000000
10.647003173828125 6.833158016204834 0.727243423461914 0.000000000000000
10.655098915100098 -5.386480331420898 1.356082320213318 0.000000000000000
10.656013488769531 6.620922565460205 1.669457793235779 0.000000000000000
10.656292915344238 -1.382497906684875 0.472921103239059 0.000000000000000
10.658618927001953 -4.018630504608154 0.918501436710358 0.000000000000000
10.659467697143555 0.201323300600052 1.822381258010864 0.000000000000000
10.663510322570801 5.686137199401855 0.811146438121796 0.000000000000000
10.663679122924805 0.502511501312256 2.220509767532349 0.000000000000000
10.664257049560547 6.890044212341309 0.705394387245178 0.000000000000000
10.667447090148926 9.606361389160156 0.769920706748962 0.000000000000000
10.668429374694824 6.550186634063721 0.575043857097626 0.000000000000000
10.668977737426758 7.875626087188721 0.711223363876343 0.000000000000000
10.668989181518555 6.923492431640625 0.804642021656036 0.000000000000000
10.674442291259766 1.164139866828918 0.907334864139557 0.000000000000000
10.678176879882812 6.157349586486816 0.376600980758667 0.000000000000000
10.679935455322266 2.272428989410400 0.796094715595245 0.000000000000000
10.681198120117188 1.016065835952759 1.427798032760620 0.000000000000000
10.681536674499512 -3.221284866333008 1.365917205810547 0.000000000000000
10.686327934265137 1.024461507797241 0.935443103313446 0.000000000000000
10.689248085021973 7.775890350341797 0.505486965179443 0.000000000000000
10.695631980895996 -1.406587362289429 0.724084794521332 0.000000000000000
10.697111129760742 7.316521167755127 1.019968390464783 0.000000000000000
10.699698448181152 7.729936122894287 1.956243515014648 0.000000000000000
10.700807571411133 8.811036109924316 1.317622303962708 0.000000000000000
10.700912475585938 -1.518392324447632 0.413316220045090 0.000000000000000
10.701876640319824 -9.883017539978027 1.783469796180725 0.000000000000000
10.703379631042480 -3.710771322250366 3.035429954528809 0.000000000000000
10.703811645507812 -4.720050811767578 0.988503277301788 0.000000000000000
10.703831672668457 6.664624691009521 1.041087508201599 0.000000000000000
10.707772254943848 8.368243217468262 0.702700376510620 0.000000000000000
10.708780288696289 1.307096362113953 0.828217029571533 0.000000000000000
10.709177017211914 8.733571052551270 0.501885592937469 0.000000000000000
10.710283279418945 -4.282940387725830 0.974694490432739 0.000000000000000
10.710753440856934 -1.870866656303406 0.708837211132050 0.000000000000000
10.711713790893555 -6.999407291412354 0.071465976536274 1.000000000000000
10.713241577148438 -4.520823955535889 0.915146946907043 0.000000000000000
10.713819503784180 -0.621882498264313 0.720334470272064 0.000000000000000
10.717258453369141 7.906645298004150 0.688654601573944 0.000000000000000
10.721739768981934 -7.557192325592041 1.057707309722900 0.000000000000000
10.723367691040039 0.592205941677094 0.513986468315125 0.000000000000000
10.723571777343750 10.089846611022949 0.591382145881653 0.000000000000000
10.724011421203613 -1.618216753005981 2.906020402908325 0.000000000000000
10.724608421325684 -0.388004630804062 1.020106911659241 0.000000000000000
10.727488517761230 9.458221435546875 0.932365477085114 0.000000000000000
10.728218078613281 0.235218837857246 1.590327501296997 0.000000000000000
10.729484558105469 0.720927953720093 0.908682048320770 0.000000000000000
10.729839324951172 0.794729888439178 0.937526464462280 0.000000000000000
10.736061096191406 -1.939074158668518 1.864840626716614 0.000000000000000
10.737359046936035 5.769151210784912 0.747652232646942 0.000000000000000
10.741006851196289 -3.854722738265991 2.373648405075073 0.000000000000000
10.745877265930176 -1.099861741065979 1.600882649421692 0.000000000000000
10.749519348144531 6.405709266662598 0.406366944313049 0.000000000000000
10.752300262451172 2.299009323120117 0.674429833889008 0.000000000000000
10.753432273864746 8.464550018310547 0.918567061424255 0.000000000000000
10.754151344299316 0.274845778942108 0.909018814563751 0.000000000000000
10.756669998168945 -7.751678466796875 1.505955576896667 0.000000000000000
10.757827758789062 -7.339042186737061 1.594380259513855 0.000000000000000
10.758678436279297 1.771250009536743 0.668797314167023 0.000000000000000
10.761307716369629 0.486597418785095 0.826992332935333 0.000000000000000
10.762679100036621 6.225866317749023 1.026605129241943 0.000000000000000
10.763766288757324 9.980626106262207 1.098563075065613 0.000000000000000
10.763942718505859 6.226597309112549 1.522438645362854 0.000000000000000
10.767837524414062 -3.504085540771484 0.956844210624695 0.000000000000000
10.768894195556641 -1.823742151260376 2.271827459335327 0.000000000000000
10.770074844360352 1.982900142669678 0.992773294448853 0.000000000000000
10.771933555603027 -3.096127986907959 0.947077035903931 0.000000000000000
10.773685455322266 7.333890438079834 0.899925589561462 0.000000000000000
10.774309158325195 1.175031065940857 0.748376548290253 0.000000000000000
10.774892807006836 10.157651901245117 0.025844821706414 0.000000000000000
10.776355743408203 0.245677277445793 0.939262628555298 0.000000000000000
10.777151107788086 -6.005385398864746 1.118449926376343 0.000000000000000
10.780077934265137 6.889115810394287 0.612271070480347 0.000000000000000
10.780232429504395 -3.826375961303711 2.379350423812866 0.000000000000000
10.781942367553711 -4.387301921844482 0.961105108261108 0.000000000000000
10.782249450683594 -1.519568324089050 0.646914005279541 0.000000000000000
10.783958435058594 8.123933792114258 0.256885826587677 0.000000000000000
10.785273551940918 6.589046955108643 1.435533165931702 0.000000000000000
10.787328720092773 7.847238540649414 0.100114651024342 0.000000000000000
10.788111686706543 6.888154029846191 0.563319563865662 0.000000000000000
10.790584564208984 1.864245772361755 0.545145153999329 0.000000000000000
10.790962219238281 -3.667659521102905 0.941027283668518 0.000000000000000
10.791356086730957 9.985214233398438 0.533970296382904 0.000000000000000
10.791906356811523 1.891645908355713 0.883458852767944 0.000000000000000
10.795104980468750 -3.778065443038940 0.723571717739105 0.000000000000000
10.795925140380859 7.726843833923340 0.456653654575348 0.000000000000000
10.800647735595703 -0.323574602603912 0.913060426712036 0.000000000000000
10.801175117492676 9.930108070373535 0.335520118474960 0.000000000000000
10.807585716247559 6.767506599426270 1.696895241737366 0.000000000000000
10.809350013732910 -3.683592319488525 0.744487166404724 0.000000000000000
10.814166069030762 6.788453578948975 0.955570757389069 0.000000000000000
10.814501762390137 6.428337097167969 0.941540181636810 0.000000000000000
10.816617012023926 6.429594516754150 1.196117877960205 0.000000000000000
10.819345474243164 9.302490234375000 3.823275089263916 0.000000000000000
10.819409370422363 7.907305240631104 0.435189157724380 0.000000000000000
10.823019027709961 8.243731498718262 0.546434521675110 0.000000000000000
10.823460578918457 4.333241939544678 0.177042886614799 0.000000000000000
10.823924064636230 -4.537070751190186 1.436886548995972 0.000000000000000
10.824084281921387 9.810555458068848 0.755371928215027 0.000000000000000
10.827182769775391 -3.077667713165283 0.733818233013153 0.000000000000000
10.828476905822754 7.872549533843994 0.074772313237190 0.000000000000000
10.831940650939941 1.605703711509705 0.460868418216705 0.000000000000000
10.832922935485840 10.242036819458008 0.340915501117706 0.000000000000000
10.837525367736816 6.273209095001221 0.864655971527100 0.000000000000000
10.841898918151855 4.908522605895996 2.475469112396240 0.000000000000000
10.845618247985840 5.983151435852051 0.855287432670593 0.000000000000000
10.846242904663086 -4.162613391876221 1.545989751815796 0.000000000000000
10.847304344177246 -1.611077427864075 0.461541205644608 0.000000000000000
10.848410606384277 1.306657552719116 0.902188122272491 0.000000000000000
10.849142074584961 6.852186203002930 1.901708006858826 0.000000000000000
10.851973533630371 -0.159296587109566 2.908090829849243 0.000000000000000
10.853027343750000 -5.652616977691650 1.163186907768250 0.000000000000000
10.853886604309082 -4.024021625518799 1.100352764129639 0.000000000000000
10.857532501220703 6.746133327484131 0.488825917243958 0.000000000000000
10.860404014587402 8.825698852539062 3.749770641326904 0.000000000000000
10.862319946289062 -4.015722751617432 0.732663631439209 0.000000000000000
10.865980148315430 -1.427832603454590 1.458401322364807 0.000000000000000
10.866706848144531 -0.516642689704895 0.898238301277161 0.000000000000000
10.868772506713867 0.134311765432358 0.813473999500275 0.000000000000000
10.871608734130859 -0.567663908004761 1.159579157829285 0.000000000000000
10.876927375793457 0.210367843508720 1.034112095832825 0.000000000000000
10.877960205078125 -0.363900184631348 0.416220426559448 0.000000000000000
10.878748893737793 1.668765425682068 0.696295678615570 0.000000000000000
10.879886627197266 -4.033661365509033 0.868402183055878 0.000000000000000
10.880891799926758 7.806049346923828 0.744003593921661 0.000000000000000
10.881035804748535 -3.327497243881226 0.632170081138611 0.000000000000000
10.883108139038086 6.605070114135742 1.075734019279480 0.000000000000000
10.883758544921875 -1.854139328002930 0.719766378402710 0.000000000000000
10.885166168212891 -3.242526769638062 0.828089714050293 0.000000000000000
10.888145446777344 6.992215156555176 1.068406581878662 0.000000000000000
10.888237953186035 -0.632006645202637 1.335293412208557 0.000000000000000
10.889175415039062 -8.131924629211426 1.663891196250916 0.000000000000000
10.893746376037598 2.074944972991943 0.765735745429993 0.000000000000000
10.895623207092285 0.161271393299103 0.395759344100952 0.000000000000000
10.897047996520996 -3.323660612106323 1.082940936088562 0.000000000000000
10.899820327758789 7.871039390563965 0.721077680587769 0.000000000000000
10.900438308715820 -10.066387176513672 1.225079894065857 0.000000000000000
10.902029037475586 -6.809963226318359 0.986818253993988 0.000000000000000
10.904890060424805 -4.031460762023926 1.238381385803223 0.000000000000000
10.907543182373047 -1.300838828086853 1.102241873741150 0.000000000000000
10.908118247985840 -4.308261871337891 0.968346357345581 0.000000000000000
10.908426284790039 0.156509637832642 0.375250786542892 0.000000000000000
10.916400909423828 -9.753190994262695 0.926121234893799 0.000000000000000
10.922348022460938 -9.758504867553711 1.152721166610718 0.000000000000000
10.924759864807129 -1.920629024505615 0.509518563747406 0.000000000000000
10.927380561828613 8.807211875915527 0.186175093054771 0.000000000000000
10.927449226379395 -9.989328384399414 1.407331109046936 0.000000000000000
10.929669380187988 3.794568777084351 1.714645028114319 0.000000000000000
10.931791305541992 8.019038200378418 0.779353320598602 0.000000000000000
10.933247566223145 -8.160675048828125 0.889429330825806 0.000000000000000
10.934241294860840 6.544529914855957 2.178230762481689 0.000000000000000
10.936265945434570 0.066620253026485 0.502360403537750 0.000000000000000
10.936713218688965 8.924216270446777 0.757067263126373 0.000000000000000
10.937386512756348 7.043533802032471 0.422465831041336 0.000000000000000
10.938489913940430 -0.976619005203247 1.344529032707214 0.000000000000000
10.939772605895996 7.062108039855957 1.732774853706360 0.000000000000000
10.946314811706543 -4.170799732208252 0.944542288780212 0.000000000000000
10.948957443237305 -6.071104049682617 1.421990394592285 0.000000000000000
10.951496124267578 7.813359260559082 1.172255277633667 0.000000000000000
10.952143669128418 7.323796749114990 1.036915540695190 0.000000000000000
10.952547073364258 0.993291854858398 0.378275901079178 0.000000000000000
10.954157829284668 9.861782073974609 0.138919174671173 0.000000000000000
10.954386711120605 8.861832618713379 0.918573915958405 0.000000000000000
10.957675933837891 -10.233224868774414 1.237916588783264 0.000000000000000
10.960276603698730 8.570508003234863 1.851494193077087 0.000000000000000
10.961704254150391 7.082221508026123 1.137184858322144 0.000000000000000
10.963265419006348 -6.113107204437256 0.890960931777954 0.000000000000000
10.964273452758789 -4.340176582336426 1.569205999374390 0.000000000000000
10.964366912841797 0.157312259078026 1.245483040809631 0.000000000000000
10.964547157287598 9.011514663696289 0.570032000541687 0.000000000000000
10.964973449707031 8.276510238647461 2.035994529724121 0.000000000000000
10.967685699462891 10.046157836914062 1.492419600486755 0.000000000000000
10.968468666076660 -5.486855506896973 1.036328673362732 0.000000000000000
10.968833923339844 7.862763404846191 0.931888639926910 0.000000000000000
10.968897819519043 -4.642922401428223 1.458274602890015 0.000000000000000
10.971677780151367 -4.817143917083740 1.044126749038696 0.000000000000000
10.972540855407715 -4.312910079956055 0.950650632381439 0.000000000000000
10.975268363952637 0.695890307426453 0.568646132946014 0.000000000000000
10.976883888244629 -0.623696923255920 0.907783567905426 0.000000000000000
10.978783607482910 1.818318247795105 0.940341055393219 0.000000000000000
10.984219551086426 6.485446453094482 1.279958367347717 0.000000000000000
10.986262321472168 -10.113716125488281 1.419443726539612 0.000000000000000
10.987929344177246 -3.710233926773071 1.317259788513184 0.000000000000000
10.990313529968262 -3.704201698303223 1.543351531028748 0.000000000000000
10.992076873779297 -8.480941772460938 0.824833154678345 0.000000000000000
10.992481231689453 8.389500617980957 0.661795794963837 0.000000000000000
10.998040199279785 -0.588317155838013 1.348417878150940 0.000000000000000
10.998698234558105 -6.092161178588867 1.038125157356262 0.000000000000000
11.002117156982422 -3.241855382919312 0.571000218391418 0.000000000000000
11.003590583801270 8.666440010070801 0.967158198356628 0.000000000000000
11.007244110107422 -6.083345413208008 1.140118241310120 0.000000000000000
11.010462760925293 -5.643556594848633 2.114878892898560 0.000000000000000
11.012295722961426 0.818742454051971 0.805111467838287 0.000000000000000
11.017793655395508 -6.715263366699219 0.866062164306641 0.000000000000000
11.023089408874512 2.223848104476929 1.666560053825378 0.000000000000000
11.025201797485352 -0.167808398604393 0.910416662693024 0.000000000000000
11.030329704284668 7.786240577697754 0.906244516372681 0.000000000000000
11.032749176025391 4.856371879577637 0.902135193347931 0.000000000000000
11.034820556640625 2.165146589279175 0.885018706321716 0.000000000000000
11.036756515502930 6.568532466888428 1.288744449615479 0.000000000000000
11.036783218383789 4.719889640808105 0.090088173747063 0.000000000000000
11.037232398986816 -1.547646164894104 0.490508347749710 0.000000000000000
11.041117668151855 -0.446155548095703 0.962874472141266 0.000000000000000
11.044738769531250 8.762112617492676 0.783278465270996 0.000000000000000
11.046156883239746 5.651149749755859 1.048453330993652 0.000000000000000
11.047215461730957 8.821397781372070 0.730998456478119 0.000000000000000
11.047975540161133 8.564132690429688 1.127149581909180 0.000000000000000
11.053522109985352 -3.471592187881470 1.541768670082092 0.000000000000000
11.053700447082520 7.589051723480225 0.564311504364014 0.000000000000000
11.059860229492188 -2.884588956832886 0.569011390209198 0.000000000000000
11.061601638793945 8.493693351745605 0.211783379316330 0.000000000000000
11.061883926391602 2.558310508728027 0.827798902988434 0.000000000000000
11.065070152282715 -4.712578296661377 0.946530580520630 0.000000000000000
11.065306663513184 6.247196674346924 0.657051742076874 0.000000000000000
11.065391540527344 6.549008846282959 0.987124502658844 0.000000000000000
11.066569328308105 7.164216995239258 0.986617088317871 0.000000000000000
11.068508148193359 -5.540763378143311 1.021997094154358 0.000000000000000
11.068722724914551 6.677606582641602 1.171898603439331 0.000000000000000
11.071197509765625 -4.457776546478271 0.709067046642303 0.000000000000000
11.072502136230469 -7.744699478149414 1.037338018417358 0.000000000000000
11.074480056762695 8.663548469543457 0.998012185096741 0.000000000000000
11.075360298156738 -6.119476318359375 1.549173593521118 0.000000000000000
11.076730728149414 -9.316905975341797 2.474098205566406 0.000000000000000
11.079175949096680 -4.385660648345947 0.822773277759552 0.000000000000000
11.079922676086426 8.119376182556152 0.314121454954147 0.000000000000000
11.083068847656250 2.165575504302979 1.673596858978271 0.000000000000000
11.083624839782715 0.311916798353195 0.894068121910095 0.000000000000000
11.085793495178223 -6.130799293518066 0.899173855781555 0.000000000000000
11.086559295654297 4.108528137207031 0.452141046524048 0.000000000000000
11.086785316467285 -4.207932472229004 1.757452607154846 0.000000000000000
11.086833000183105 9.479431152343750 1.148013591766357 0.000000000000000
11.088052749633789 7.405722618103027 0.407383799552917 0.000000000000000
11.091119766235352 8.870418548583984 2.427595138549805 0.000000000000000
11.092279434204102 -9.396290779113770 2.484881639480591 1.000000000000000
11.092917442321777 7.449072837829590 0.768104910850525 0.000000000000000
11.094068527221680 8.129742622375488 0.525969326496124 0.000000000000000
11.094475746154785 4.827237606048584 0.462687939405441 0.000000000000000
11.097075462341309 -0.833614230155945 0.940341055393219 0.000000000000000
11.097802162170410 0.089875578880310 1.476868629455566 0.000000000000000
11.099200248718262 7.147739887237549 0.835201263427734 0.000000000000000
11.099564552307129 6.335702419281006 1.055240750312805 0.000000000000000
11.102581024169922 -1.082552909851074 0.533872842788696 0.000000000000000
11.106003761291504 1.383128762245178 1.123008728027344 0.000000000000000
11.106277465820312 -6.097148418426514 0.874851107597351 0.000000000000000
11.112625122070312 8.024711608886719 1.824056863784790 0.000000000000000
11.114167213439941 -4.277682781219482 0.914253592491150 0.000000000000000
11.114760398864746 0.167619273066521 0.596185147762299 0.000000000000000
11.117536544799805 -7.191705703735352 0.965377569198608 0.000000000000000
11.118480682373047 4.305431842803955 1.459732890129089 0.000000000000000
11.118616104125977 6.661738872528076 1.232077121734619 0.000000000000000
11.118714332580566 -4.702218532562256 1.789118409156799 0.000000000000000
11.119799613952637 -6.659808158874512 0.945017039775848 0.000000000000000
11.122182846069336 0.554473400115967 0.597256243228912 0.000000000000000
11.122879981994629 -6.794497966766357 0.824593901634216 0.000000000000000
11.127197265625000 0.969979465007782 0.384188592433929 0.000000000000000
11.131052970886230 9.883304595947266 0.741047322750092 0.000000000000000
11.131571769714355 0.206740364432335 0.768766760826111 0.000000000000000
11.131711959838867 -4.358884334564209 1.041696071624756 0.000000000000000
11.135429382324219 -7.709961891174316 0.987483203411102 0.000000000000000
11.136463165283203 -3.200903177261353 0.621463537216187 0.000000000000000
11.138463973999023 10.001343727111816 1.178141832351685 0.000000000000000
11.139637947082520 6.814084529876709 0.499372810125351 0.000000000000000
11.139780998229980 9.782752037048340 1.487627148628235 0.000000000000000
11.140468597412109 -9.942549705505371 1.696005821228027 0.000000000000000
11.142408370971680 -3.434452295303345 0.535581886768341 0.000000000000000
11.143224716186523 8.713565826416016 1.195297479629517 0.000000000000000
11.143719673156738 0.745635092258453 0.405631572008133 0.000000000000000
11.150305747985840 4.778799057006836 0.557240128517151 0.000000000000000
11.153444290161133 0.785402297973633 0.578147649765015 0.000000000000000
11.155138969421387 9.602046012878418 0.931172370910645 0.000000000000000
11.161705970764160 6.515058517456055 0.643394589424133 0.000000000000000
11.163725852966309 -0.917040884494781 0.773451030254364 0.000000000000000
11.163861274719238 0.165241718292236 0.577321410179138 0.000000000000000
11.166672706604004 6.736698627471924 0.950834274291992 0.000000000000000
11.169614791870117 2.286298751831055 0.941356420516968 0.000000000000000
11.170232772827148 7.327988147735596 0.742228507995605 0.000000000000000
11.170920372009277 8.454322814941406 0.428027838468552 0.000000000000000
11.172291755676270 2.736737251281738 1.530688047409058 0.000000000000000
11.172929763793945 -4.224349975585938 0.917009234428406 0.000000000000000
11.176482200622559 8.865995407104492 0.985068559646606 0.000000000000000
11.177433013916016 6.979282379150391 1.403611898422241 0.000000000000000
11.180861473083496 -1.885280728340149 0.172184064984322 0.000000000000000
11.183866500854492 -0.688345134258270 0.579387009143829 0.000000000000000
11.185944557189941 0.634008765220642 0.600898027420044 0.000000000000000
11.186017990112305 -6.182147979736328 0.537904083728790 1.000000000000000
11.186310768127441 -3.201707601547241 0.691275119781494 0.000000000000000
11.189975738525391 -7.161517620086670 0.840504884719849 0.000000000000000
11.191020965576172 -0.683687984943390 0.601326525211334 0.000000000000000
11.200701713562012 -7.296631336212158 1.270686030387878 0.000000000000000
11.204629898071289 5.109554767608643 0.850327670574188 0.000000000000000
11.206707954406738 -8.169674873352051 1.697917699813843 0.000000000000000
11.208560943603516 7.495265007019043 1.436234235763550 0.000000000000000
11.210132598876953 -1.834122419357300 1.390707850456238 0.000000000000000
11.211106300354004 0.037373244762421 0.536549866199493 0.000000000000000
11.211338996887207 2.167490959167480 0.920751869678497 0.000000000000000
11.211876869201660 4.328103065490723 1.471399068832397 0.000000000000000
11.212521553039551 8.158938407897949 0.690331578254700 0.000000000000000
11.213856697082520 1.680128574371338 0.542668700218201 0.000000000000000
11.214455604553223 -1.423079013824463 0.846012949943542 0.000000000000000
11.216664314270020 7.437955856323242 0.825527548789978 0.000000000000000
11.216732978820801 -1.625949263572693 0.477015614509583 0.000000000000000
11.216835021972656 -3.380581855773926 1.113600969314575 0.000000000000000
11.217716217041016 -6.818334102630615 1.083876490592957 0.000000000000000
11.222244262695312 -3.557319164276123 0.676740407943726 0.000000000000000
11.222302436828613 7.447899341583252 0.437396258115768 0.000000000000000
11.223602294921875 8.473571777343750 0.159547612071037 0.000000000000000
11.224320411682129 -5.030757904052734 1.505911469459534 0.000000000000000
11.228488922119141 -1.118377089500427 0.735639750957489 0.000000000000000
11.230350494384766 -7.320414543151855 2.291455745697021 0.000000000000000
11.230688095092773 8.535678863525391 0.783722221851349 0.000000000000000
11.230932235717773 -1.853428959846497 1.142178177833557 0.000000000000000
11.231943130493164 0.815168082714081 0.712459206581116 0.000000000000000
11.233335494995117 9.034416198730469 0.967589497566223 0.000000000000000
11.235875129699707 2.720738410949707 1.048027634620667 0.000000000000000
11.237485885620117 8.539616584777832 0.920135200023651 0.000000000000000
11.237984657287598 -3.961046457290649 0.822773277759552 0.000000000000000
11.239558219909668 8.544285774230957 0.702861309051514 0.000000000000000
11.240120887756348 6.653215408325195 1.053206443786621 0.000000000000000
11.242317199707031 7.987140655517578 0.899057447910309 0.000000000000000
11.242517471313477 7.481964588165283 0.724290966987610 0.000000000000000
11.248733520507812 2.522222518920898 1.095810651779175 0.000000000000000
11.251159667968750 0.571534216403961 0.930165469646454 0.000000000000000
11.254976272583008 -3.178897619247437 0.875268220901489 0.000000000000000
11.257149696350098 -1.956184744834900 0.568812489509583 0.000000000000000
11.261987686157227 7.973339080810547 0.183044761419296 0.000000000000000
11.262310028076172 -3.829178094863892 2.033329963684082 0.000000000000000
11.262658119201660 6.300172328948975 1.465778827667236 0.000000000000000
11.264993667602539 7.792108058929443 2.341328620910645 0.000000000000000
11.266533851623535 -0.842779040336609 0.823726713657379 0.000000000000000
11.269911766052246 -8.573565483093262 1.059755206108093 0.000000000000000
11.275781631469727 8.748916625976562 0.957945704460144 0.000000000000000
11.276976585388184 -5.780161857604980 1.148785710334778 0.000000000000000
11.277920722961426 -5.681578159332275 1.144813060760498 0.000000000000000
11.286291122436523 -3.286662101745605 0.630460917949677 0.000000000000000
11.286364555358887 9.091345787048340 1.313826560974121 0.000000000000000
