# This PCD file was generated using the MATLAB® pcwrite function
# from Computer Vision Toolbox®.
# .PCD v.7 - Point Cloud Data file format
VERSION .7
FIELDS x y z intensity
SIZE 8 8 8 8
TYPE F F F F
COUNT 1 1 1 1
WIDTH 647
HEIGHT 1
VIEWPOINT 0 0 0 1 0 0 0
POINTS 647
DATA ascii
12.808297157287598 4.049747943878174 1.990841388702393 0.000000000000000
12.810760498046875 -3.886833906173706 0.666465282440186 0.000000000000000
12.811966896057129 -5.428067684173584 0.211297497153282 0.000000000000000
12.812015533447266 -7.212720394134521 0.392708986997604 0.000000000000000
12.812712669372559 -3.610662460327148 0.867831170558929 0.000000000000000
12.812853813171387 -5.212923049926758 0.449210762977600 0.000000000000000
12.813094139099121 -7.656030654907227 0.944305241107941 0.000000000000000
12.813607215881348 0.223214969038963 0.465445518493652 0.000000000000000
12.814020156860352 -5.448733329772949 0.318419456481934 0.000000000000000
12.814794540405273 -4.252732276916504 0.230964228510857 0.000000000000000
12.816278457641602 -5.023159980773926 1.030201435089111 0.000000000000000
12.822103500366211 -6.008768081665039 1.114433050155640 0.000000000000000
12.822665214538574 0.194275543093681 0.959750056266785 0.000000000000000
12.822672843933105 -4.633138656616211 0.521383762359619 0.000000000000000
12.824744224548340 -7.772449970245361 0.977643668651581 0.000000000000000
12.826134681701660 -2.932394504547119 0.959269344806671 0.000000000000000
12.827492713928223 -0.951446413993835 0.368275642395020 0.000000000000000
12.830885887145996 1.211066842079163 0.047236882150173 0.000000000000000
12.834610939025879 -5.390429973602295 1.149376392364502 0.000000000000000
12.840954780578613 -3.196610927581787 0.633304774761200 0.000000000000000
12.842164993286133 -4.610555171966553 0.863234937191010 0.000000000000000
12.843619346618652 -6.720762729644775 1.774720191955566 0.000000000000000
12.845316886901855 -0.095956437289715 0.244406759738922 0.000000000000000
12.846446037292480 1.694004654884338 0.246537342667580 0.000000000000000
12.849290847778320 -7.192412853240967 1.672531604766846 0.000000000000000
12.853887557983398 -3.087369441986084 1.759156942367554 0.000000000000000
12.860877990722656 -0.087991423904896 0.269403308629990 0.000000000000000
12.861384391784668 -5.678982734680176 0.132510408759117 0.000000000000000
12.862483024597168 -3.624687910079956 0.665271997451782 0.000000000000000
12.862902641296387 -5.274935245513916 0.906343579292297 0.000000000000000
12.864431381225586 2.221610784530640 0.173176273703575 0.000000000000000
12.865898132324219 -5.742263317108154 0.728519737720490 0.000000000000000
12.866590499877930 -4.692721843719482 0.998535990715027 0.000000000000000
12.867814064025879 -4.008370876312256 0.904637217521667 0.000000000000000
12.872193336486816 -5.269300460815430 0.291350960731506 0.000000000000000
12.876970291137695 2.403348684310913 0.349881589412689 0.000000000000000
12.880659103393555 -3.716836929321289 0.512671053409576 0.000000000000000
12.881207466125488 -6.835224151611328 1.204014658927917 0.000000000000000
12.882605552673340 -4.245054721832275 0.988937497138977 0.000000000000000
12.883133888244629 -6.267109870910645 3.838804244995117 0.000000000000000
12.884738922119141 -3.673231363296509 0.692785739898682 0.000000000000000
12.886467933654785 2.657173871994019 1.401493430137634 0.000000000000000
12.888766288757324 -5.662870883941650 0.240815788507462 1.000000000000000
12.889189720153809 -1.232910513877869 0.320965319871902 0.000000000000000
12.894270896911621 -0.039608422666788 1.715890288352966 0.000000000000000
12.895939826965332 -4.457051277160645 0.312018156051636 0.000000000000000
12.896998405456543 1.488128304481506 0.746296823024750 0.000000000000000
12.897634506225586 -7.025595188140869 0.618135511875153 0.000000000000000
12.900384902954102 -0.487463086843491 0.518502771854401 0.000000000000000
12.902323722839355 6.754920959472656 1.938027381896973 0.000000000000000
12.907835960388184 -1.615992903709412 0.297478049993515 0.000000000000000
12.909117698669434 -1.143251657485962 0.794916152954102 0.000000000000000
12.909253120422363 2.594056367874146 0.351697236299515 0.000000000000000
12.910231590270996 6.590584754943848 0.777418553829193 0.000000000000000
12.910393714904785 1.748311042785645 1.479772925376892 0.000000000000000
12.918624877929688 -2.783194303512573 1.500989913940430 0.000000000000000
12.918817520141602 -2.231235027313232 0.224259689450264 0.000000000000000
12.919349670410156 1.401671171188354 0.147431790828705 0.000000000000000
12.926025390625000 -0.058431252837181 0.817774891853333 0.000000000000000
12.930157661437988 -5.380187511444092 1.048112750053406 0.000000000000000
12.931564331054688 -5.396665573120117 0.940533399581909 0.000000000000000
12.933320045471191 -5.885331153869629 0.270354062318802 0.000000000000000
12.934312820434570 2.432516098022461 0.427399337291718 0.000000000000000
12.936632156372070 0.901439845561981 0.720483064651489 0.000000000000000
12.936860084533691 0.418762266635895 0.097142718732357 0.000000000000000
12.937104225158691 -0.911230862140656 0.620684504508972 0.000000000000000
12.940137863159180 -4.856404781341553 0.634879291057587 0.000000000000000
12.940963745117188 0.988482892513275 0.671097457408905 0.000000000000000
12.942193984985352 -7.088873863220215 0.677828609943390 0.000000000000000
12.945695877075195 -5.730795860290527 0.269364863634109 0.000000000000000
12.947587013244629 -0.126094669103622 2.213276624679565 0.000000000000000
12.949275970458984 -6.680470943450928 1.146758317947388 0.000000000000000
12.950987815856934 -6.269678115844727 0.744011402130127 0.000000000000000
12.952803611755371 -4.932211875915527 0.743356943130493 0.000000000000000
12.955054283142090 0.775572061538696 1.923404932022095 0.000000000000000
12.959692001342773 -5.293502330780029 0.158821567893028 0.000000000000000
12.959744453430176 -2.861717462539673 2.760567903518677 0.000000000000000
12.961415290832520 -3.328166961669922 0.614689409732819 0.000000000000000
12.964354515075684 -5.419917106628418 0.483329594135284 0.000000000000000
12.965260505676270 2.737883329391479 1.763378143310547 0.000000000000000
12.966800689697266 2.366760492324829 1.113792300224304 0.000000000000000
12.967296600341797 2.031088352203369 1.058350205421448 0.000000000000000
12.968269348144531 -5.292780399322510 0.185803696513176 1.000000000000000
12.969264984130859 -7.189571380615234 0.310617983341217 0.000000000000000
12.970658302307129 -5.131257057189941 0.560239851474762 0.000000000000000
12.971364974975586 -5.725922107696533 0.378717988729477 0.000000000000000
12.973114967346191 0.015399635769427 0.770745694637299 0.000000000000000
12.974017143249512 0.203583434224129 0.795895755290985 0.000000000000000
12.974802970886230 -3.347298860549927 0.100564934313297 0.000000000000000
12.975265502929688 -6.188606739044189 1.131380319595337 0.000000000000000
12.981597900390625 -7.367981910705566 1.353190779685974 0.000000000000000
12.984580993652344 -6.927005767822266 1.567571401596069 0.000000000000000
12.987161636352539 -0.615181446075439 2.704362630844116 0.000000000000000
12.987584114074707 -3.611053943634033 1.086963057518005 0.000000000000000
12.988293647766113 -1.737392306327820 0.022870784625411 0.000000000000000
12.991284370422363 -6.065667152404785 0.934707462787628 0.000000000000000
12.992616653442383 -2.821448326110840 2.765455245971680 0.000000000000000
12.993516921997070 -5.006486892700195 0.934639990329742 0.000000000000000
12.994352340698242 -7.204072952270508 2.201946735382080 0.000000000000000
12.996727943420410 -6.082858085632324 1.101635813713074 0.000000000000000
12.997084617614746 -4.191932201385498 0.732431530952454 0.000000000000000
12.998858451843262 0.240060418844223 0.772406220436096 0.000000000000000
12.998918533325195 -6.124587535858154 0.936789214611053 0.000000000000000
13.000079154968262 -5.425258159637451 0.511612594127655 0.000000000000000
13.000533103942871 -6.289742469787598 0.718971073627472 0.000000000000000
13.004502296447754 1.861935853958130 0.275183409452438 0.000000000000000
13.004567146301270 -4.747675418853760 0.742500007152557 0.000000000000000
13.005594253540039 -4.406704902648926 0.472329229116440 0.000000000000000
13.007555007934570 -7.340750694274902 1.696457147598267 0.000000000000000
13.014183044433594 5.789122581481934 0.681682169437408 0.000000000000000
13.022488594055176 -2.481581449508667 0.634451985359192 0.000000000000000
13.024800300598145 0.355170607566833 0.247906982898712 0.000000000000000
13.027234077453613 -2.711566209793091 1.511372685432434 0.000000000000000
13.027871131896973 3.603648662567139 1.535298347473145 0.000000000000000
13.029800415039062 -5.690412998199463 0.407083690166473 0.000000000000000
13.029994010925293 2.718788623809814 1.972662806510925 0.000000000000000
13.030734062194824 -6.811723709106445 0.845236778259277 0.000000000000000
13.030871391296387 7.084314346313477 1.579857707023621 0.000000000000000
13.033167839050293 -1.761226892471313 0.098703734576702 0.000000000000000
13.035332679748535 -1.941631197929382 0.986318588256836 0.000000000000000
13.037738800048828 0.115829840302467 0.598904609680176 0.000000000000000
13.038917541503906 1.272958636283875 1.941583395004272 0.000000000000000
13.044570922851562 -7.170719623565674 0.741047322750092 0.000000000000000
13.045272827148438 -4.478863239288330 0.447912424802780 0.000000000000000
13.045880317687988 -0.337289303541183 0.599455296993256 0.000000000000000
13.046007156372070 -1.283540010452271 0.627377033233643 0.000000000000000
13.046684265136719 0.369440376758575 0.047837976366282 0.000000000000000
13.048005104064941 0.877170681953430 0.525244891643524 0.000000000000000
13.052834510803223 -3.082672834396362 0.049157440662384 0.000000000000000
13.054416656494141 -0.948578119277954 0.903783142566681 0.000000000000000
13.061118125915527 -7.260471343994141 1.591720461845398 0.000000000000000
13.064164161682129 0.639404296875000 0.651151120662689 0.000000000000000
13.068655014038086 -3.525214433670044 1.143767356872559 0.000000000000000
13.068894386291504 2.000291824340820 1.066066145896912 0.000000000000000
13.079501152038574 -5.669765949249268 0.764565110206604 0.000000000000000
13.080816268920898 0.090866275131702 0.274010628461838 0.000000000000000
13.081270217895508 -3.693983316421509 0.441420972347260 0.000000000000000
13.083229064941406 -5.820652008056641 2.122195959091187 0.000000000000000
13.086479187011719 -5.428359031677246 0.896319687366486 0.000000000000000
13.088515281677246 -6.506309986114502 0.755785048007965 0.000000000000000
13.091179847717285 2.623484611511230 0.664675354957581 0.000000000000000
13.092942237854004 2.589629173278809 1.101979374885559 0.000000000000000
13.093549728393555 -0.314511716365814 1.106719493865967 0.000000000000000
13.098253250122070 2.401141643524170 0.791147112846375 0.000000000000000
13.098320007324219 -5.251156330108643 0.756853044033051 0.000000000000000
13.104256629943848 -3.388502836227417 0.882403433322906 0.000000000000000
13.104978561401367 0.271764367818832 0.073208503425121 0.000000000000000
13.105614662170410 0.869095325469971 0.502277016639709 0.000000000000000
13.106293678283691 -5.254352569580078 0.322900384664536 0.000000000000000
13.107887268066406 -3.484799385070801 0.675216257572174 0.000000000000000
13.108380317687988 -4.990929126739502 0.779284417629242 0.000000000000000
13.109136581420898 -0.087856650352478 0.526529133319855 0.000000000000000
13.109513282775879 -4.588830947875977 0.718192040920258 0.000000000000000
13.113970756530762 -4.422513484954834 0.103867068886757 0.000000000000000
13.114133834838867 -4.256991863250732 0.341781467199326 0.000000000000000
13.114512443542480 -1.323336362838745 0.276104897260666 0.000000000000000
13.116590499877930 2.041815996170044 0.380066871643066 0.000000000000000
13.120066642761230 2.405140399932861 0.998259484767914 0.000000000000000
13.121663093566895 -3.736813545227051 1.152860879898071 0.000000000000000
13.123965263366699 -5.460829734802246 0.188562646508217 0.000000000000000
13.124681472778320 2.095424413681030 1.046016812324524 0.000000000000000
13.124780654907227 1.893183350563049 0.787825942039490 0.000000000000000
13.128081321716309 2.916195631027222 1.136357665061951 0.000000000000000
13.134526252746582 -1.209436297416687 0.605879306793213 0.000000000000000
13.135068893432617 -6.231933116912842 1.381970405578613 0.000000000000000
13.135434150695801 -6.044124126434326 1.137970805168152 0.000000000000000
13.137063980102539 0.234356179833412 0.149065390229225 0.000000000000000
13.140814781188965 -6.810387611389160 1.021991372108459 0.000000000000000
13.141691207885742 1.615466713905334 2.754051208496094 0.000000000000000
13.142128944396973 -1.210136294364929 1.324287772178650 0.000000000000000
13.142408370971680 -4.563557624816895 0.880156099796295 0.000000000000000
13.143265724182129 -0.130299627780914 0.048175171017647 0.000000000000000
13.146548271179199 2.447015285491943 1.129958629608154 0.000000000000000
13.147332191467285 0.870020031929016 1.952725052833557 0.000000000000000
13.150000572204590 -0.112688131630421 0.199697092175484 0.000000000000000
13.152368545532227 -5.318708896636963 0.160954311490059 0.000000000000000
13.156267166137695 -4.273206710815430 0.555584549903870 0.000000000000000
13.158039093017578 0.095077149569988 0.503194153308868 0.000000000000000
13.160264015197754 -3.652631998062134 0.706211805343628 0.000000000000000
13.161741256713867 -3.454391241073608 1.149829745292664 0.000000000000000
13.163381576538086 2.959735155105591 0.464078933000565 0.000000000000000
13.167806625366211 -0.052399650216103 0.048263132572174 0.000000000000000
13.169290542602539 1.712263584136963 1.262358665466309 0.000000000000000
13.170683860778809 -3.402246952056885 0.755763888359070 0.000000000000000
13.174375534057617 2.878262996673584 1.794509053230286 0.000000000000000
13.174937248229980 -4.402136802673340 0.959167420864105 0.000000000000000
13.175735473632812 -2.924850702285767 0.308634608983994 0.000000000000000
13.177244186401367 -6.856423854827881 0.939759254455566 0.000000000000000
13.186778068542480 0.639865756034851 0.886153340339661 0.000000000000000
13.190505981445312 -4.203540325164795 0.742500007152557 0.000000000000000
13.196022033691406 0.187954053282738 0.530060708522797 0.000000000000000
13.196119308471680 -1.585456371307373 0.815242171287537 0.000000000000000
13.200371742248535 0.689030051231384 0.683490753173828 0.000000000000000
13.200960159301758 -4.814673423767090 0.591391742229462 0.000000000000000
13.202803611755371 -2.266758680343628 1.640072703361511 0.000000000000000
13.203199386596680 -3.870392799377441 0.896975696086884 0.000000000000000
13.205252647399902 -4.816238880157471 2.402658700942993 0.000000000000000
13.205853462219238 2.435883998870850 0.642674267292023 0.000000000000000
13.206789970397949 -6.265961170196533 0.643341541290283 0.000000000000000
13.211092948913574 -4.100131034851074 1.693542838096619 0.000000000000000
13.212924003601074 -5.087318420410156 0.704850196838379 0.000000000000000
13.215091705322266 -3.614248275756836 0.313298404216766 0.000000000000000
13.217210769653320 2.218447208404541 0.692992329597473 0.000000000000000
13.221320152282715 -6.241504192352295 0.896790862083435 0.000000000000000
13.221867561340332 -5.239712715148926 1.036930084228516 0.000000000000000
13.226346015930176 0.919773042201996 0.685556352138519 0.000000000000000
13.226903915405273 1.846681237220764 0.485044747591019 0.000000000000000
13.228229522705078 0.641877114772797 0.073968067765236 0.000000000000000
13.232619285583496 6.979132175445557 1.831592798233032 0.000000000000000
13.233412742614746 1.673643827438354 0.176943287253380 0.000000000000000
13.235013008117676 -4.803812980651855 0.890763461589813 0.000000000000000
13.235863685607910 2.745357990264893 0.907316029071808 0.000000000000000
13.237823486328125 -7.024455547332764 1.121549367904663 0.000000000000000
13.242052078247070 -1.776512384414673 3.579985141754150 0.000000000000000
13.242504119873047 -2.989670276641846 0.075822293758392 0.000000000000000
13.242569923400879 -5.517230987548828 1.045946836471558 0.000000000000000
13.245565414428711 -5.577174186706543 1.020102143287659 0.000000000000000
13.247006416320801 -3.597146272659302 0.604121983051300 0.000000000000000
13.247423171997070 0.325151234865189 0.124895311892033 0.000000000000000
13.253388404846191 -2.281635522842407 1.084391117095947 0.000000000000000
13.254435539245605 0.613006293773651 0.788300395011902 0.000000000000000
13.255578041076660 -2.986787557601929 0.049802511930466 0.000000000000000
13.259013175964355 -0.082844689488411 0.354153662919998 0.000000000000000
13.260192871093750 -1.927835583686829 1.273714184761047 0.000000000000000
13.272230148315430 2.323057413101196 0.696710288524628 0.000000000000000
13.273744583129883 2.433312416076660 0.593921363353729 0.000000000000000
13.276648521423340 -3.183520078659058 0.548360824584961 0.000000000000000
13.278740882873535 -0.044497545808554 1.096383929252625 0.000000000000000
13.282337188720703 0.146517693996429 0.150698974728584 0.000000000000000
13.282833099365234 -6.168221473693848 1.559945344924927 0.000000000000000
13.284292221069336 -0.759221494197845 0.611202061176300 0.000000000000000
13.285371780395508 -1.246012568473816 0.869912862777710 0.000000000000000
13.285938262939453 1.286782741546631 0.459128767251968 0.000000000000000
13.288398742675781 2.674105644226074 1.659516453742981 0.000000000000000
13.290033340454102 -3.618793725967407 1.309294939041138 0.000000000000000
13.290609359741211 6.902152538299561 1.992902159690857 0.000000000000000
13.294027328491211 2.904403686523438 0.939603805541992 0.000000000000000
13.294374465942383 -3.576645374298096 0.367717415094376 0.000000000000000
13.294744491577148 0.738171041011810 0.483592957258224 0.000000000000000
13.299841880798340 -4.817363739013672 0.867648839950562 0.000000000000000
13.299879074096680 -5.231454372406006 0.079821176826954 0.000000000000000
13.300467491149902 -1.564328670501709 0.563638687133789 0.000000000000000
13.301181793212891 0.423118799924850 0.048776261508465 0.000000000000000
13.302409172058105 1.912644267082214 0.358959704637527 0.000000000000000
13.302445411682129 -0.087297908961773 1.770237445831299 0.000000000000000
13.304044723510742 -3.244652271270752 0.523676514625549 0.000000000000000
13.310182571411133 -3.590365648269653 0.527192175388336 0.000000000000000
13.311467170715332 -6.669955730438232 0.827213048934937 0.000000000000000
13.319247245788574 -2.575009584426880 0.701461017131805 0.000000000000000
13.319870948791504 -4.235037326812744 0.803457021713257 0.000000000000000
13.323048591613770 -3.388079166412354 0.367183446884155 0.000000000000000
13.325544357299805 -4.473927974700928 1.106273293495178 0.000000000000000
13.329389572143555 0.790510833263397 0.716150522232056 0.000000000000000
13.334244728088379 -4.235507488250732 0.185591474175453 0.000000000000000
13.340063095092773 0.789281964302063 0.742450356483459 0.000000000000000
13.342208862304688 -3.599004507064819 0.954207599163055 0.000000000000000
13.347208023071289 0.377950340509415 0.973521709442139 0.000000000000000
13.353170394897461 1.377800107002258 1.429879307746887 0.000000000000000
13.356266975402832 3.250717401504517 0.843159675598145 0.000000000000000
13.361082077026367 -2.819519281387329 1.153871297836304 0.000000000000000
13.363175392150879 -3.309031486511230 0.897496104240417 0.000000000000000
13.363734245300293 0.757914662361145 0.537605524063110 0.000000000000000
13.376752853393555 -2.378427028656006 1.663405179977417 0.000000000000000
13.377698898315430 -5.208216667175293 0.080178618431091 0.000000000000000
13.378349304199219 -4.106518268585205 0.777509272098541 0.000000000000000
13.380084991455078 -4.324486255645752 0.862506091594696 0.000000000000000
13.380704879760742 3.324278831481934 1.249904870986938 0.000000000000000
13.382473945617676 -4.337644100189209 0.673268675804138 0.000000000000000
13.384081840515137 -0.006540731992573 0.460366278886795 0.000000000000000
13.385002136230469 -0.412225455045700 0.744003593921661 0.000000000000000
13.386443138122559 -0.508639752864838 0.925000011920929 0.000000000000000
13.386968612670898 -0.589637577533722 1.640558958053589 0.000000000000000
13.387040138244629 -1.324642419815063 1.032745242118835 0.000000000000000
13.389299392700195 0.237447142601013 0.126214757561684 0.000000000000000
13.392712593078613 -3.200970411300659 1.308916449546814 0.000000000000000
13.396883010864258 -1.264255285263062 1.033051490783691 0.000000000000000
13.398581504821777 -3.317302942276001 0.953105449676514 0.000000000000000
13.403847694396973 2.627788066864014 0.890470206737518 0.000000000000000
13.405797958374023 -5.640235424041748 0.836054444313049 0.000000000000000
13.407463073730469 0.936130225658417 1.135684132575989 0.000000000000000
13.409283638000488 1.648360967636108 1.011096000671387 0.000000000000000
13.411190032958984 -3.419965505599976 0.316499084234238 0.000000000000000
13.412947654724121 -0.147020757198334 1.523561239242554 0.000000000000000
13.421094894409180 1.310269713401794 1.175033211708069 0.000000000000000
13.424823760986328 -0.401251167058945 0.178163588047028 0.000000000000000
13.428612709045410 -2.301666975021362 0.311560899019241 0.000000000000000
13.436100959777832 -3.031898975372314 0.526733577251434 0.000000000000000
13.438378334045410 3.388458251953125 2.368960857391357 0.000000000000000
13.439665794372559 1.339325428009033 1.062963843345642 0.000000000000000
13.445066452026367 -3.123323202133179 0.368678659200668 0.000000000000000
13.446060180664062 6.570289134979248 0.745025098323822 0.000000000000000
13.448474884033203 -1.258941888809204 0.672431826591492 0.000000000000000
13.449903488159180 -4.220616817474365 1.054978728294373 0.000000000000000
13.456894874572754 0.134348422288895 0.256048798561096 0.000000000000000
13.461312294006348 0.907322347164154 0.334446251392365 0.000000000000000
13.461846351623535 -4.229526042938232 1.727569222450256 0.000000000000000
13.464115142822266 2.415785312652588 0.365367799997330 0.000000000000000
13.465638160705566 2.810178995132446 0.817241907119751 0.000000000000000
13.465926170349121 -3.402151823043823 1.093092203140259 0.000000000000000
13.468204498291016 2.532923698425293 0.655868113040924 0.000000000000000
13.469244003295898 -6.140843868255615 0.708452284336090 0.000000000000000
13.473154067993164 1.414186000823975 0.361843377351761 0.000000000000000
13.475707054138184 -2.908381700515747 0.235821589827538 0.000000000000000
13.483954429626465 -0.314470380544662 0.101225361227989 0.000000000000000
13.484803199768066 2.863332509994507 1.031694054603577 0.000000000000000
13.491624832153320 -4.610272407531738 0.545228898525238 0.000000000000000
13.493524551391602 2.789959907531738 0.685956060886383 0.000000000000000
13.494843482971191 -1.913872718811035 1.020051598548889 0.000000000000000
13.496842384338379 -2.035904884338379 0.259701192378998 0.000000000000000
13.502743721008301 -4.568325519561768 0.517710149288177 0.000000000000000
13.504195213317871 -5.203254222869873 1.771803617477417 0.000000000000000
13.504775047302246 0.773480176925659 0.595328390598297 0.000000000000000
13.505660057067871 1.987599849700928 0.364620208740234 0.000000000000000
13.506212234497070 2.108020305633545 1.075831174850464 0.000000000000000
13.508024215698242 -3.187685489654541 0.370707869529724 0.000000000000000
13.508205413818359 1.212469100952148 0.831894695758820 0.000000000000000
13.511081695556641 -0.031127233058214 1.654169440269470 0.000000000000000
13.513874053955078 2.835754871368408 0.660839676856995 0.000000000000000
13.516082763671875 0.530579924583435 2.813514709472656 0.000000000000000
13.518971443176270 -1.150426268577576 0.336329609155655 0.000000000000000
13.525127410888672 -2.126685619354248 1.821946263313293 0.000000000000000
13.525394439697266 -4.040321826934814 1.165504574775696 0.000000000000000
13.526726722717285 1.654644370079041 0.940981566905975 0.000000000000000
13.528981208801270 -4.429271697998047 0.489654809236526 0.000000000000000
13.532155036926270 1.366910576820374 0.284900695085526 0.000000000000000
13.533151626586914 -4.290628433227539 0.652132451534271 0.000000000000000
13.536505699157715 -4.150928974151611 2.420181512832642 0.000000000000000
13.539588928222656 -1.553653597831726 0.311652362346649 0.000000000000000
13.539713859558105 -6.074766159057617 0.596037387847900 0.000000000000000
13.542273521423340 -5.914221763610840 1.404681563377380 0.000000000000000
13.544947624206543 -2.511385917663574 1.200381159782410 0.000000000000000
13.547210693359375 -0.879377603530884 2.011951923370361 0.000000000000000
13.547898292541504 2.995807886123657 1.065200328826904 0.000000000000000
13.549093246459961 -4.926378726959229 0.884301364421844 0.000000000000000
13.552337646484375 -5.055152416229248 1.222241401672363 0.000000000000000
13.552789688110352 -4.450951099395752 0.655252695083618 0.000000000000000
13.555940628051758 -3.333170652389526 0.346043825149536 0.000000000000000
13.559370040893555 -1.669445872306824 1.075203537940979 0.000000000000000
13.560450553894043 1.558926463127136 0.705798685550690 0.000000000000000
13.562177658081055 1.862130641937256 1.130285978317261 0.000000000000000
13.563750267028809 -0.938003242015839 1.809282898902893 0.000000000000000
13.564063072204590 -0.938024878501892 0.729218125343323 0.000000000000000
13.564880371093750 -4.618917942047119 1.248646378517151 0.000000000000000
13.576310157775879 2.858257770538330 0.850996196269989 0.000000000000000
13.582628250122070 -5.197298049926758 1.144561409950256 0.000000000000000
13.588419914245605 1.766758561134338 0.181771412491798 0.000000000000000
13.592491149902344 -4.925243377685547 0.942514061927795 0.000000000000000
13.594944000244141 6.297299861907959 1.266025066375732 0.000000000000000
13.595668792724609 -4.490019798278809 0.988650560379028 0.000000000000000
13.595972061157227 -2.552031755447388 0.635429918766022 0.000000000000000
13.596123695373535 0.802519798278809 0.076068036258221 0.000000000000000
13.596949577331543 -1.026178359985352 0.102336078882217 0.000000000000000
13.597089767456055 -0.854979991912842 0.468616604804993 0.000000000000000
13.599266052246094 1.955326795578003 0.155872032046318 0.000000000000000
13.607761383056641 3.151856422424316 0.668488323688507 0.000000000000000
13.607969284057617 -5.860798835754395 1.137458801269531 0.000000000000000
13.614782333374023 -4.555970668792725 0.300733149051666 0.000000000000000
13.619561195373535 1.844345688819885 0.472741752862930 0.000000000000000
13.619619369506836 1.714278101921082 1.159933686256409 0.000000000000000
13.620298385620117 -2.801048755645752 0.638733744621277 0.000000000000000
13.626076698303223 -3.165372371673584 0.804145693778992 0.000000000000000
13.628808021545410 -2.731221199035645 0.077631846070290 0.000000000000000
13.630764007568359 -6.248134613037109 1.267035484313965 0.000000000000000
13.632274627685547 2.689874887466431 1.013079285621643 0.000000000000000
13.632663726806641 -4.651029109954834 0.828019857406616 0.000000000000000
13.635819435119629 -3.394483804702759 0.024525355547667 0.000000000000000
13.644410133361816 -1.119856715202332 1.301346063613892 0.000000000000000
13.648553848266602 -5.765655517578125 1.137458801269531 0.000000000000000
13.651033401489258 2.919550895690918 0.480167001485825 0.000000000000000
13.651259422302246 5.480579376220703 1.957550287246704 0.000000000000000
13.653775215148926 -3.370370388031006 0.105548158288002 0.000000000000000
13.655266761779785 -0.745757699012756 0.102636270225048 0.000000000000000
13.658045768737793 1.712819814682007 0.923924684524536 0.000000000000000
13.670779228210449 -3.352553129196167 0.890510916709900 0.000000000000000
13.674753189086914 3.498870849609375 2.412768125534058 0.000000000000000
13.680822372436523 -0.867676496505737 0.656059324741364 0.000000000000000
13.682733535766602 -5.210156917572021 1.010969638824463 0.000000000000000
13.691285133361816 -1.298788428306580 0.446614146232605 0.000000000000000
13.692470550537109 -2.740002393722534 0.748926758766174 0.000000000000000
13.695366859436035 -1.306893706321716 0.420332133769989 0.000000000000000
13.702314376831055 0.908665299415588 0.314029991626740 0.000000000000000
13.702507019042969 4.388319492340088 2.992719411849976 0.000000000000000
13.703516006469727 -1.992288112640381 0.822698056697845 0.000000000000000
13.703678131103516 -1.150248169898987 0.473016738891602 0.000000000000000
13.705668449401855 5.958254814147949 2.214847564697266 0.000000000000000
13.707080841064453 0.538077652454376 1.026619076728821 0.000000000000000
13.708970069885254 -3.083919048309326 0.591391742229462 0.000000000000000
13.711103439331055 2.252160549163818 0.504643976688385 0.000000000000000
13.713457107543945 0.959424734115601 0.684364974498749 0.000000000000000
13.721199989318848 5.561569213867188 1.970213651657104 0.000000000000000
13.733757019042969 0.955058872699738 0.499998271465302 0.000000000000000
13.735739707946777 2.643101692199707 0.481129527091980 0.000000000000000
13.737231254577637 -2.628220558166504 0.212390735745430 0.000000000000000
13.743803024291992 -3.564115762710571 0.706839025020599 0.000000000000000
13.747029304504395 -2.103099822998047 1.260738968849182 0.000000000000000
13.749884605407715 -5.841578483581543 2.553625345230103 0.000000000000000
13.750953674316406 -2.262156248092651 0.077832907438278 0.000000000000000
13.754713058471680 -1.852865934371948 2.886825561523438 0.000000000000000
13.757188796997070 -0.334296464920044 1.684793114662170 0.000000000000000
13.757967948913574 -3.563688755035400 0.953927457332611 0.000000000000000
13.758932113647461 0.621901929378510 0.288502782583237 0.000000000000000
13.759306907653809 -0.085970610380173 1.247376918792725 0.000000000000000
13.762187957763672 1.258761644363403 1.204200625419617 0.000000000000000
13.762729644775391 2.588314056396484 0.885964930057526 0.000000000000000
13.768790245056152 -3.433200359344482 0.215488210320473 0.000000000000000
13.769461631774902 2.075550556182861 0.800472795963287 0.000000000000000
13.771623611450195 -2.682171106338501 0.213058814406395 0.000000000000000
13.773398399353027 -0.054809525609016 0.262060075998306 0.000000000000000
13.773633003234863 -0.704008519649506 0.103506833314896 0.000000000000000
13.777881622314453 3.150243282318115 0.866914153099060 0.000000000000000
13.785129547119141 2.124692201614380 0.051121979951859 0.000000000000000
13.786048889160156 0.962563693523407 0.103716969490051 0.000000000000000
13.786983489990234 -3.978365421295166 1.909534811973572 0.000000000000000
13.787063598632812 2.519462108612061 0.132095739245415 0.000000000000000
13.787568092346191 -2.777306556701660 1.106901049613953 0.000000000000000
13.790966987609863 -0.569327056407928 0.766858458518982 0.000000000000000
13.794413566589355 -0.252583265304565 0.448042273521423 0.000000000000000
13.795402526855469 -1.221742391586304 0.636164069175720 0.000000000000000
13.799144744873047 0.342548549175262 1.251349329948425 0.000000000000000
13.802059173583984 -0.005054311361164 0.846588194370270 0.000000000000000
13.807673454284668 -2.400389194488525 0.185909822583199 0.000000000000000
13.812220573425293 -3.598071098327637 0.875485360622406 0.000000000000000
13.812695503234863 0.841916382312775 0.396208286285400 0.000000000000000
13.813683509826660 -4.078166007995605 2.461966991424561 0.000000000000000
13.813812255859375 -2.891139984130859 0.648277997970581 0.000000000000000
13.814770698547363 -3.681506395339966 0.739260613918304 0.000000000000000
13.815116882324219 -4.082784175872803 0.800364136695862 0.000000000000000
13.821907043457031 -4.223407268524170 0.663879215717316 0.000000000000000
13.823807716369629 -2.953978538513184 1.167150259017944 0.000000000000000
13.826019287109375 -0.373638063669205 0.369426250457764 0.000000000000000
13.827310562133789 -4.507177829742432 0.137071937322617 0.000000000000000
13.832183837890625 -0.430344164371490 0.502611458301544 0.000000000000000
13.834176063537598 1.064973235130310 0.157414868474007 0.000000000000000
13.834838867187500 -1.597808957099915 1.122970104217529 0.000000000000000
13.836061477661133 -5.201184272766113 1.405060052871704 0.000000000000000
13.838791847229004 0.089851371943951 1.115897297859192 0.000000000000000
13.840521812438965 -2.810352087020874 0.377222746610641 0.000000000000000
13.840889930725098 -0.274458616971970 0.103897087275982 0.000000000000000
13.843310356140137 -0.957336246967316 0.317322105169296 0.000000000000000
13.849434852600098 -3.428927898406982 0.107079140841961 0.000000000000000
13.853269577026367 -1.776610970497131 1.266156196594238 0.000000000000000
13.856697082519531 3.967065334320068 1.255938172340393 0.000000000000000
13.857667922973633 2.727307558059692 1.879459261894226 0.000000000000000
13.861055374145508 -1.826811790466309 0.803686559200287 0.000000000000000
13.866064071655273 -4.194863319396973 1.196115016937256 0.000000000000000
13.866356849670410 -4.681097984313965 1.038793563842773 0.000000000000000
13.869886398315430 0.679321169853210 1.173405647277832 0.000000000000000
13.873838424682617 -2.867578506469727 0.160727426409721 0.000000000000000
13.878432273864746 0.918400347232819 0.558634579181671 0.000000000000000
13.879383087158203 -3.173194885253906 2.433660745620728 0.000000000000000
13.879477500915527 -1.109889745712280 0.077765889465809 0.000000000000000
13.882644653320312 -2.862830400466919 0.188032075762749 0.000000000000000
13.883047103881836 3.032574892044067 0.707435727119446 0.000000000000000
13.887166023254395 -2.847847700119019 1.115688443183899 0.000000000000000
13.887458801269531 -0.813878536224365 1.212187051773071 0.000000000000000
13.897189140319824 -3.126260042190552 0.818837463855743 0.000000000000000
13.897999763488770 -0.709392249584198 1.703750729560852 0.000000000000000
13.898091316223145 -3.408297777175903 0.244783759117126 0.000000000000000
13.898259162902832 -3.126501083374023 1.291435956954956 0.000000000000000
13.907661437988281 -0.139819875359535 0.318053662776947 0.000000000000000
13.913655281066895 1.242007851600647 1.487921714782715 0.000000000000000
13.920784950256348 1.357098460197449 0.507983088493347 0.000000000000000
13.924606323242188 0.018956456333399 1.149705648422241 0.000000000000000
13.928157806396484 -1.241094827651978 0.830763757228851 0.000000000000000
13.936131477355957 -0.014350665733218 0.881671488285065 0.000000000000000
13.940529823303223 0.498508006334305 2.901488065719604 0.000000000000000
13.945934295654297 -5.088036537170410 0.824772298336029 0.000000000000000
13.950914382934570 -1.305484890937805 0.751497447490692 0.000000000000000
13.950916290283203 -0.038465186953545 1.017151355743408 0.000000000000000
13.953776359558105 -4.300208091735840 0.277811050415039 0.000000000000000
13.956125259399414 -3.577871799468994 1.133890986442566 0.000000000000000
13.960785865783691 -0.440686583518982 0.480442017316818 0.000000000000000
13.961414337158203 -4.588658809661865 0.590258419513702 0.000000000000000
13.963448524475098 0.090660735964775 0.480304509401321 0.000000000000000
13.966977119445801 -3.899913072586060 0.443052768707275 0.000000000000000
13.968482971191406 -1.219873070716858 0.860057175159454 0.000000000000000
13.968843460083008 -5.172222137451172 1.201092481613159 0.000000000000000
13.974294662475586 -1.792131781578064 0.809884667396545 0.000000000000000
13.978294372558594 -1.966760396957397 0.024637056514621 0.000000000000000
13.981272697448730 0.075402289628983 0.427172750234604 0.000000000000000
13.982162475585938 0.635904371738434 1.862574696540833 0.000000000000000
13.983506202697754 0.527904391288757 0.266245096921921 0.000000000000000
13.994477272033691 2.399160623550415 0.515677690505981 0.000000000000000
13.994668006896973 2.051083087921143 0.949373483657837 0.000000000000000
13.995481491088867 0.298539787530899 0.696894764900208 0.000000000000000
13.997551918029785 -1.401582837104797 0.592064499855042 0.000000000000000
13.999596595764160 -3.159053564071655 0.107709541916847 0.000000000000000
13.999819755554199 -3.776392221450806 0.331587880849838 0.000000000000000
14.012343406677246 -1.675583720207214 1.503173828125000 0.000000000000000
14.014976501464844 3.801482915878296 2.152102470397949 0.000000000000000
14.016568183898926 -1.054402947425842 1.160567402839661 0.000000000000000
14.019068717956543 -1.668694734573364 0.920395433902740 0.000000000000000
14.025436401367188 -4.535769939422607 1.131641387939453 0.000000000000000
14.025788307189941 -0.550829529762268 0.455832064151764 0.000000000000000
14.026688575744629 -3.872023105621338 1.089010357856750 0.000000000000000
14.029882431030273 1.176149487495422 0.159729123115540 0.000000000000000
14.032956123352051 -0.858784079551697 0.835271000862122 0.000000000000000
14.038507461547852 0.881265044212341 0.917012572288513 0.000000000000000
14.042451858520508 -4.299105167388916 1.395975589752197 0.000000000000000
14.049523353576660 -2.193063020706177 2.957693099975586 0.000000000000000
14.052000045776367 -4.500513553619385 0.706157684326172 0.000000000000000
14.053223609924316 -3.992030858993530 1.065143823623657 0.000000000000000
14.059041023254395 -5.084307193756104 0.542971432209015 0.000000000000000
14.063461303710938 -2.151509523391724 0.161408096551895 0.000000000000000
14.064327239990234 3.051356077194214 0.688757121562958 0.000000000000000
14.067070960998535 3.182024240493774 2.137442350387573 0.000000000000000
14.072633743286133 -3.597795724868774 1.115107774734497 0.000000000000000
14.076333045959473 -2.253655672073364 0.106989078223705 0.000000000000000
14.083963394165039 2.016489028930664 1.174720644950867 0.000000000000000
14.086209297180176 -4.787656307220459 0.654773294925690 0.000000000000000
14.086431503295898 0.384119987487793 0.484704643487930 0.000000000000000
14.086875915527344 -4.151870727539062 0.420477598905563 0.000000000000000
14.094900131225586 -2.974886178970337 0.939131200313568 0.000000000000000
14.097198486328125 -3.651558637619019 1.202368855476379 0.000000000000000
14.098915100097656 -0.437164843082428 0.539420485496521 0.000000000000000
14.103017807006836 -0.141783878207207 0.756424605846405 0.000000000000000
14.106492996215820 -2.345687150955200 1.434911251068115 0.000000000000000
14.106914520263672 0.151180148124695 0.756638824939728 0.000000000000000
14.108619689941406 3.662405014038086 1.321410536766052 0.000000000000000
14.111458778381348 3.722611427307129 1.387269735336304 0.000000000000000
14.113483428955078 -0.883493721485138 0.731204986572266 0.000000000000000
14.114436149597168 -1.313829183578491 0.596605896949768 0.000000000000000
14.116410255432129 -3.566496133804321 0.025411980226636 0.000000000000000
14.118041992187500 -4.127334594726562 1.015653848648071 0.000000000000000
14.119827270507812 -2.169717311859131 0.546298861503601 0.000000000000000
14.121565818786621 3.167160749435425 0.469983488321304 0.000000000000000
14.121973037719727 3.055598497390747 0.663695693016052 0.000000000000000
14.122454643249512 -2.812205791473389 1.077666521072388 0.000000000000000
14.124772071838379 -0.570267677307129 1.343740105628967 0.000000000000000
14.124887466430664 -4.679018497467041 1.199806571006775 0.000000000000000
14.125398635864258 0.151873067021370 0.784831702709198 0.000000000000000
14.125962257385254 -4.639189720153809 1.141439199447632 0.000000000000000
14.128325462341309 -2.476460933685303 0.962767601013184 0.000000000000000
14.128903388977051 0.397617429494858 0.703656852245331 0.000000000000000
14.140172958374023 2.604906320571899 0.411662787199020 0.000000000000000
14.145207405090332 -1.270887732505798 1.237534999847412 0.000000000000000
14.145339965820312 -0.170603260397911 0.214820131659508 0.000000000000000
14.145569801330566 2.039916515350342 2.118091106414795 0.000000000000000
14.151666641235352 -1.692243933677673 0.462842851877213 0.000000000000000
14.151970863342285 -0.343889564275742 0.950177133083344 0.000000000000000
14.154431343078613 2.602680921554565 1.444096565246582 0.000000000000000
14.154570579528809 -1.792907118797302 0.682829439640045 0.000000000000000
14.160068511962891 -0.064009666442871 1.114433050155640 0.000000000000000
14.160419464111328 1.851434230804443 0.655986845493317 0.000000000000000
14.163422584533691 -3.406089067459106 0.977768957614899 0.000000000000000
14.164557456970215 -4.077143669128418 0.847302854061127 0.000000000000000
14.164755821228027 -3.616343498229980 0.981251418590546 0.000000000000000
14.169294357299805 -2.044098615646362 0.024986121803522 0.000000000000000
14.169475555419922 -4.512248992919922 1.055502653121948 0.000000000000000
14.169968605041504 -3.550837755203247 1.324299573898315 0.000000000000000
14.171941757202148 -1.412549376487732 0.407770574092865 0.000000000000000
14.172673225402832 -1.808521866798401 1.358123779296875 0.000000000000000
14.173414230346680 0.879794120788574 1.612943530082703 0.000000000000000
14.174340248107910 -1.901585221290588 0.436945080757141 0.000000000000000
14.174943923950195 -1.253111004829407 0.626281917095184 0.000000000000000
14.176681518554688 -3.969404697418213 1.215534687042236 0.000000000000000
14.181114196777344 -0.187619611620903 1.034021377563477 0.000000000000000
14.182044029235840 -0.340157955884933 0.788160145282745 0.000000000000000
14.183243751525879 1.029610157012939 1.615200519561768 0.000000000000000
14.189046859741211 -4.657438755035400 0.427575230598450 0.000000000000000
14.191140174865723 -0.879901230335236 0.707833468914032 0.000000000000000
14.197659492492676 -3.058750152587891 0.499555170536041 0.000000000000000
14.212928771972656 -3.342511415481567 1.272258162498474 0.000000000000000
14.214469909667969 -2.013907194137573 0.576613605022430 0.000000000000000
14.218898773193359 -4.614787578582764 0.456734031438828 0.000000000000000
14.222694396972656 -1.474288821220398 0.381922036409378 0.000000000000000
14.223679542541504 1.290451526641846 1.900564908981323 0.000000000000000
14.224417686462402 1.388696312904358 1.014438033103943 0.000000000000000
14.233713150024414 3.183964967727661 3.908167600631714 0.000000000000000
14.235893249511719 -4.380075931549072 0.999735295772552 0.000000000000000
14.239686012268066 -2.408206939697266 0.247041404247284 0.000000000000000
14.240653038024902 -3.257359743118286 2.165003299713135 0.000000000000000
14.245842933654785 -1.985898375511169 0.107949703931808 0.000000000000000
14.245944976806641 -3.352375507354736 1.095279335975647 0.000000000000000
14.252451896667480 -2.790537118911743 0.164766043424606 0.000000000000000
14.252471923828125 -2.200796127319336 0.274386912584305 0.000000000000000
14.256333351135254 0.239387273788452 0.709822356700897 0.000000000000000
14.256367683410645 -3.820248603820801 3.954755067825317 0.000000000000000
14.260296821594238 1.421105146408081 1.526475548744202 0.000000000000000
14.265933036804199 -2.699702262878418 0.778703868389130 0.000000000000000
14.266195297241211 -0.947059392929077 1.152868866920471 0.000000000000000
14.266829490661621 -2.603527069091797 0.526711285114288 0.000000000000000
14.270554542541504 -2.934775590896606 0.445129424333572 0.000000000000000
14.271236419677734 2.639610767364502 1.114189147949219 0.000000000000000
14.282275199890137 3.622196197509766 1.159625530242920 0.000000000000000
14.283241271972656 2.988872051239014 0.670303285121918 0.000000000000000
14.290588378906250 -2.098018884658813 0.080670095980167 0.000000000000000
14.291341781616211 0.134946137666702 0.024944232776761 0.000000000000000
14.292646408081055 1.376473665237427 1.529441237449646 0.000000000000000
14.295492172241211 3.153794527053833 0.700612485408783 0.000000000000000
14.297552108764648 -4.460857391357422 0.284963667392731 0.000000000000000
14.298598289489746 -0.204151988029480 1.624229192733765 0.000000000000000
14.299817085266113 -3.379806280136108 0.731500864028931 0.000000000000000
14.301701545715332 1.146668076515198 0.107679523527622 0.000000000000000
14.302510261535645 -2.455564737319946 0.081049881875515 0.000000000000000
14.305944442749023 -1.852432489395142 0.940432250499725 0.000000000000000
14.307944297790527 -0.593676865100861 0.327472746372223 0.000000000000000
14.308388710021973 -1.936604619026184 0.385660082101822 0.000000000000000
14.310325622558594 -2.615594625473022 0.500380218029022 0.000000000000000
14.316751480102539 -2.283434152603149 3.015527248382568 0.000000000000000
14.317317008972168 -0.139434278011322 1.043910861015320 0.000000000000000
14.321002960205078 -2.149487972259521 0.553788721561432 0.000000000000000
14.324975013732910 -2.752851486206055 0.613930523395538 0.000000000000000
14.328571319580078 4.205177783966064 2.213088512420654 0.000000000000000
14.348683357238770 -4.189868450164795 0.054787162691355 0.000000000000000
14.351411819458008 -1.953651547431946 0.080893501639366 0.000000000000000
14.355783462524414 -1.513666987419128 1.136087775230408 0.000000000000000
14.358398437500000 -1.335021138191223 1.765484452247620 0.000000000000000
14.360208511352539 1.701681137084961 0.747729361057281 0.000000000000000
14.361887931823730 -1.306528806686401 1.162835001945496 0.000000000000000
14.371068954467773 -1.145161747932434 1.218199729919434 0.000000000000000
14.374335289001465 -0.438670426607132 1.303714632987976 0.000000000000000
14.374554634094238 -2.739232778549194 1.558674335479736 0.000000000000000
14.374634742736816 -4.105031490325928 0.284431040287018 0.000000000000000
14.375835418701172 2.525022506713867 0.053497016429901 0.000000000000000
14.378726005554199 -1.895037889480591 0.164539143443108 0.000000000000000
14.378913879394531 -1.885871648788452 0.415211617946625 0.000000000000000
14.385585784912109 -2.812432765960693 1.393326044082642 0.000000000000000
14.390337944030762 -4.098109245300293 0.802482783794403 0.000000000000000
14.391469001770020 -1.611209869384766 0.275528311729431 0.000000000000000
14.392795562744141 -1.861890554428101 0.890178799629211 0.000000000000000
14.395707130432129 1.093038916587830 1.164121031761169 0.000000000000000
14.397424697875977 1.234553575515747 1.539185523986816 0.000000000000000
14.406127929687500 2.020034074783325 0.165038302540779 0.000000000000000
14.408864021301270 -2.160618066787720 0.725335359573364 0.000000000000000
14.412612915039062 -1.602880716323853 1.001325607299805 0.000000000000000
14.416000366210938 -2.493185281753540 0.418874919414520 0.000000000000000
14.417285919189453 -2.564475774765015 0.109900966286659 0.000000000000000
14.421312332153320 -1.432821154594421 0.582071542739868 0.000000000000000
14.422102928161621 -2.579876422882080 0.983394503593445 0.000000000000000
14.425815582275391 -2.507849931716919 0.869905948638916 0.000000000000000
14.429296493530273 -2.022256135940552 1.654926061630249 0.000000000000000
14.432364463806152 2.526117563247681 0.081831783056259 0.000000000000000
14.432809829711914 0.010576393455267 1.308409452438354 0.000000000000000
14.436956405639648 -2.493435859680176 1.153035044670105 0.000000000000000
14.450809478759766 -0.256781190633774 1.165407061576843 0.000000000000000
14.467021942138672 -2.103290557861328 1.094085216522217 0.000000000000000
14.475275993347168 -1.593482494354248 0.193178564310074 0.000000000000000
14.479058265686035 -0.402413308620453 0.748968720436096 0.000000000000000
14.490224838256836 1.861892580986023 0.277963221073151 0.000000000000000
14.501250267028809 3.420470952987671 0.512480676174164 0.000000000000000
14.502604484558105 2.854236602783203 1.020613670349121 0.000000000000000
14.502934455871582 -2.828017234802246 0.593468964099884 0.000000000000000
14.506667137145996 -2.196257829666138 0.025607459247112 0.000000000000000
14.511605262756348 -0.959280550479889 0.976161718368530 0.000000000000000
14.512367248535156 -2.889849185943604 1.406574130058289 0.000000000000000
14.518512725830078 -1.772875666618347 0.531211853027344 0.000000000000000
