# This PCD file was generated using the MATLAB® pcwrite function
# from Computer Vision Toolbox®.
# .PCD v.7 - Point Cloud Data file format
VERSION .7
FIELDS x y z intensity
SIZE 8 8 8 8
TYPE F F F F
COUNT 1 1 1 1
WIDTH 644
HEIGHT 1
VIEWPOINT 0 0 0 1 0 0 0
POINTS 644
DATA ascii
5.987740516662598 -18.737218856811523 3.362374305725098 0.000000000000000
5.992283344268799 -22.053739547729492 1.798596501350403 0.000000000000000
5.996366024017334 9.928137779235840 -0.358417540788651 0.000000000000000
5.998972415924072 5.780813694000244 -0.129419341683388 0.000000000000000
6.011241912841797 -20.252067565917969 1.915124416351318 0.000000000000000
6.016051292419434 -20.382980346679688 1.795809030532837 0.000000000000000
6.029069900512695 -24.141786575317383 2.006428956985474 0.000000000000000
6.036256790161133 -19.210002899169922 1.390393137931824 0.000000000000000
6.046728610992432 -24.503370285034180 1.645366191864014 0.000000000000000
6.053969383239746 -20.396018981933594 1.551177501678467 0.000000000000000
6.057831287384033 -27.550285339355469 3.004652976989746 0.000000000000000
6.057995796203613 8.304243087768555 -0.317646175622940 1.000000000000000
6.059477329254150 -20.135978698730469 -0.044040907174349 0.000000000000000
6.061000347137451 -0.298338741064072 -0.210850641131401 1.000000000000000
6.068660736083984 5.595295906066895 -0.302677035331726 0.000000000000000
6.085386276245117 2.840767621994019 -0.052746802568436 0.000000000000000
6.094890117645264 -20.697994232177734 -0.376622945070267 0.000000000000000
6.102634429931641 -28.814481735229492 2.204290628433228 0.000000000000000
6.111985683441162 -17.431625366210938 3.157491207122803 0.000000000000000
6.113538265228271 -24.848669052124023 1.668265461921692 0.000000000000000
6.116618156433105 5.096358776092529 -0.598630130290985 0.000000000000000
6.126346111297607 -5.841997623443604 -0.767422020435333 1.000000000000000
6.133180141448975 -17.970848083496094 2.526875257492065 0.000000000000000
6.137701988220215 -25.246780395507812 1.794064640998840 0.000000000000000
6.142640590667725 -22.299184799194336 1.463306903839111 0.000000000000000
6.144930362701416 -21.258968353271484 2.006131649017334 0.000000000000000
6.147481441497803 -19.935644149780273 1.983057618141174 0.000000000000000
6.161125659942627 8.111397743225098 -0.451854586601257 0.000000000000000
6.162987232208252 -20.452779769897461 1.639900326728821 0.000000000000000
6.166430473327637 -24.809658050537109 1.913231253623962 0.000000000000000
6.176647186279297 -20.498111724853516 2.148173570632935 0.000000000000000
6.193876266479492 -27.707530975341797 3.024141788482666 0.000000000000000
6.194037914276123 -20.086622238159180 -0.044024150818586 0.000000000000000
6.203555583953857 -19.181390762329102 3.445945024490356 0.000000000000000
6.205760002136230 -21.299299240112305 1.874619841575623 0.000000000000000
6.220892906188965 3.898123025894165 -0.198650106787682 0.000000000000000
6.228629112243652 8.212461471557617 -0.120535977184772 0.000000000000000
6.235248565673828 -24.358795166015625 -0.438893109560013 0.000000000000000
6.241208553314209 -18.398666381835938 1.846790909767151 0.000000000000000
6.247837066650391 -19.090459823608398 1.154682517051697 0.000000000000000
6.250746250152588 -21.178150177001953 2.938435792922974 0.000000000000000
6.256561756134033 -20.060367584228516 0.884396374225616 0.000000000000000
6.258548259735107 -20.047042846679688 1.571721434593201 0.000000000000000
6.267659664154053 -17.677747726440430 3.206016302108765 0.000000000000000
6.277476787567139 3.195226669311523 -0.041799690574408 0.000000000000000
6.280151367187500 6.164169311523438 -0.052219942212105 0.000000000000000
6.290152549743652 -20.784160614013672 1.457545518875122 0.000000000000000
6.296716213226318 -19.126819610595703 -0.544881224632263 0.000000000000000
6.304186344146729 -21.527944564819336 2.033578157424927 0.000000000000000
6.312971591949463 -24.624858856201172 1.951591491699219 0.000000000000000
6.333532333374023 -20.248714447021484 1.301350712776184 0.000000000000000
6.348840713500977 -19.119855880737305 -0.622566699981689 0.000000000000000
6.354582309722900 -6.507009506225586 -0.123825199902058 1.000000000000000
6.356711387634277 -18.231443405151367 2.193025350570679 0.000000000000000
6.361954212188721 -29.529985427856445 2.260711431503296 0.000000000000000
6.363027572631836 -29.333477020263672 2.304311037063599 0.000000000000000
6.367993831634521 -26.817216873168945 2.062791109085083 0.000000000000000
6.374798774719238 5.106447219848633 -0.048469603061676 0.000000000000000
6.377646446228027 -25.505361557006836 2.018338918685913 0.000000000000000
6.378762722015381 -25.167968750000000 2.093553066253662 0.000000000000000
6.382474899291992 -20.697702407836914 1.620977640151978 0.000000000000000
6.406421661376953 2.956658840179443 -0.055417127907276 0.000000000000000
6.412150382995605 -19.390819549560547 2.500454664230347 0.000000000000000
6.415673732757568 2.825371026992798 -0.284011721611023 0.000000000000000
6.417767524719238 4.775301456451416 -0.093547515571117 0.000000000000000
6.426910400390625 -19.131408691406250 1.237923979759216 0.000000000000000
6.430444240570068 -19.746295928955078 -0.841348230838776 0.000000000000000
6.432682514190674 6.311239242553711 -0.070779353380203 0.000000000000000
6.433453559875488 -21.969375610351562 3.912997484207153 0.000000000000000
6.433781623840332 -27.428415298461914 2.217254400253296 0.000000000000000
6.434294700622559 8.658730506896973 -0.084727883338928 0.000000000000000
6.439195156097412 -25.008327484130859 1.982515811920166 0.000000000000000
6.441941261291504 -30.205829620361328 2.371058225631714 0.000000000000000
6.455032348632812 5.298266410827637 -0.129730001091957 0.000000000000000
6.455180644989014 6.033473014831543 -0.052433572709560 0.000000000000000
6.466193199157715 2.742604970932007 -0.055165801197290 0.000000000000000
6.467443943023682 4.715107917785645 -0.062862627208233 0.000000000000000
6.470893859863281 3.180708169937134 -0.153553634881973 0.000000000000000
6.476728439331055 8.729192733764648 -0.231480196118355 0.000000000000000
6.481137275695801 -7.729944705963135 -1.211787939071655 1.000000000000000
6.484511375427246 -7.936080455780029 -0.988616585731506 1.000000000000000
6.484747886657715 -25.966424942016602 3.039899587631226 0.000000000000000
6.487924575805664 7.205820560455322 -0.879014194011688 0.000000000000000
6.488417148590088 -23.469636917114258 1.681367278099060 0.000000000000000
6.497883319854736 -19.155324935913086 1.513807892799377 0.000000000000000
6.503625869750977 -0.006127237807959 -0.238477259874344 1.000000000000000
6.513345241546631 -18.663913726806641 -0.800867676734924 0.000000000000000
6.523536682128906 -20.856170654296875 -1.011431217193604 0.000000000000000
6.529503345489502 -20.582351684570312 1.699424266815186 0.000000000000000
6.529789924621582 -25.587528228759766 3.913659811019897 0.000000000000000
6.530732631683350 -18.713737487792969 1.636511921882629 0.000000000000000
6.532634735107422 -20.789695739746094 2.899918079376221 0.000000000000000
6.538020133972168 -19.215194702148438 0.347198903560638 0.000000000000000
6.555713176727295 -20.175207138061523 1.342080235481262 0.000000000000000
6.576234340667725 -18.651365280151367 -0.535143435001373 0.000000000000000
6.579938888549805 8.281310081481934 -0.632102549076080 0.000000000000000
6.583545684814453 5.371519565582275 -0.507781863212585 0.000000000000000
6.588103294372559 -20.130153656005859 3.620500087738037 0.000000000000000
6.595258712768555 -19.588363647460938 -0.360776156187057 1.000000000000000
6.596217632293701 6.021274566650391 -0.121592633426189 0.000000000000000
6.597495079040527 -21.055198669433594 -0.385139703750610 0.000000000000000
6.602479934692383 -20.422168731689453 -1.117312431335449 0.000000000000000
6.604679107666016 -23.620285034179688 2.785747051239014 0.000000000000000
6.610289096832275 2.938670635223389 -0.293079346418381 0.000000000000000
6.612854957580566 -19.157316207885742 -0.470529288053513 0.000000000000000
6.613398551940918 9.698886871337891 -0.701540708541870 0.000000000000000
6.629242897033691 5.602343082427979 -0.385024785995483 0.000000000000000
6.639850616455078 -20.903606414794922 1.768525242805481 0.000000000000000
6.639986038208008 -7.483004093170166 -1.166377782821655 1.000000000000000
6.644470214843750 -20.072221755981445 1.174695849418640 0.000000000000000
6.645381927490234 -26.189241409301758 1.813560605049133 0.000000000000000
6.647625923156738 -21.055383682250977 -0.427809983491898 0.000000000000000
6.648552894592285 -19.540050506591797 1.624417185783386 0.000000000000000
6.650327205657959 -19.622732162475586 1.878288030624390 0.000000000000000
6.656619071960449 7.588021755218506 -0.603229582309723 0.000000000000000
6.665618896484375 -24.285446166992188 1.496181249618530 0.000000000000000
6.666798591613770 6.604034423828125 -0.001637817011215 0.000000000000000
6.668627738952637 -21.230266571044922 -0.559395968914032 0.000000000000000
6.669526576995850 3.249488830566406 -0.272042870521545 0.000000000000000
6.670602798461914 -7.610115528106689 -0.060052938759327 1.000000000000000
6.677391052246094 -18.561389923095703 0.488981425762177 1.000000000000000
6.678861618041992 -19.223358154296875 0.934790492057800 0.000000000000000
6.682363033294678 -6.025702476501465 -0.503063380718231 0.000000000000000
6.685129642486572 3.706236124038696 -0.060035225003958 1.000000000000000
6.685359954833984 -19.174030303955078 1.637356638908386 0.000000000000000
6.689626216888428 -7.598043441772461 -0.118384391069412 1.000000000000000
6.702207565307617 5.259361743927002 -0.099628105759621 0.000000000000000
6.705578804016113 -18.634639739990234 1.252928137779236 0.000000000000000
6.706413745880127 -0.029730064794421 -0.142822757363319 1.000000000000000
6.708379745483398 -19.670845031738281 -0.602311253547668 0.000000000000000
6.710383415222168 -21.618965148925781 3.012305498123169 0.000000000000000
6.724153995513916 -18.647439956665039 1.215883851051331 1.000000000000000
6.726624488830566 -17.928190231323242 0.769085705280304 0.000000000000000
6.733806610107422 -19.165437698364258 2.038348674774170 0.000000000000000
6.745863914489746 -36.907646179199219 2.807903289794922 1.000000000000000
6.746417999267578 -20.810293197631836 -1.096733450889587 1.000000000000000
6.765682697296143 -19.256160736083984 -0.944668233394623 0.000000000000000
6.786045074462891 -19.754011154174805 2.095856904983521 0.000000000000000
6.791202068328857 -21.641626358032227 2.576285600662231 0.000000000000000
6.808394908905029 -20.992717742919922 2.214467763900757 0.000000000000000
6.818535327911377 -20.216501235961914 1.761587262153625 0.000000000000000
6.826425075531006 -20.054788589477539 -0.369781613349915 1.000000000000000
6.832601547241211 -18.938854217529297 2.464970111846924 0.000000000000000
6.849968433380127 -18.906332015991211 1.117225885391235 0.000000000000000
6.852726459503174 -21.089265823364258 -0.642635345458984 1.000000000000000
6.854909896850586 -20.945388793945312 0.250030517578125 1.000000000000000
6.859544754028320 3.519879341125488 -0.179001659154892 0.000000000000000
6.862976551055908 6.066299915313721 -0.071941740810871 0.000000000000000
6.866826057434082 7.786415100097656 -0.460540682077408 0.000000000000000
6.868319034576416 -22.812259674072266 3.530738115310669 1.000000000000000
6.868818283081055 3.632406473159790 -0.464353144168854 0.000000000000000
6.869242668151855 -23.921222686767578 2.826826572418213 0.000000000000000
6.876435756683350 -21.389368057250977 2.551908731460571 0.000000000000000
6.876903533935547 6.947840690612793 -0.076779738068581 0.000000000000000
6.881680488586426 -20.968980789184570 -0.342840105295181 0.000000000000000
6.888823032379150 -14.556317329406738 2.386663913726807 0.000000000000000
6.893419265747070 -19.598937988281250 0.914361059665680 1.000000000000000
6.907401561737061 -19.845392227172852 2.238237857818604 1.000000000000000
6.913448810577393 7.955259799957275 -0.589251816272736 0.000000000000000
6.913787364959717 -5.871828556060791 -1.331690430641174 1.000000000000000
6.914919853210449 -19.951078414916992 1.173142552375793 1.000000000000000
6.920027732849121 -20.283338546752930 0.448921740055084 0.000000000000000
6.921063899993896 -18.976299285888672 -0.197428509593010 0.000000000000000
6.931733131408691 -19.693593978881836 2.223832845687866 1.000000000000000
6.935724735260010 -19.274208068847656 2.181889772415161 1.000000000000000
6.939188957214355 -18.231113433837891 -0.190665125846863 0.000000000000000
6.950550079345703 -18.922628402709961 2.022773504257202 0.000000000000000
6.951577663421631 -17.427797317504883 2.780727386474609 0.000000000000000
6.955607891082764 -30.125635147094727 1.956042766571045 0.000000000000000
6.956332683563232 -19.488279342651367 -0.798546314239502 1.000000000000000
6.956819057464600 -19.706634521484375 0.477903544902802 0.000000000000000
6.959968566894531 0.466063648462296 -0.416867911815643 1.000000000000000
6.963081359863281 -13.651675224304199 2.039334774017334 0.000000000000000
6.968732357025146 -18.112581253051758 0.443793684244156 0.000000000000000
6.979974746704102 -19.453645706176758 -0.043286923319101 0.000000000000000
6.983382225036621 -18.935392379760742 2.685695409774780 0.000000000000000
6.991266250610352 -24.415216445922852 2.548335313796997 0.000000000000000
6.996639728546143 6.759405136108398 -0.263243854045868 0.000000000000000
7.000141620635986 7.109485149383545 -0.231643751263618 0.000000000000000
7.003952503204346 6.058029651641846 -0.375173985958099 0.000000000000000
7.004631042480469 -19.232532501220703 2.324841499328613 0.000000000000000
7.005087852478027 -20.676620483398438 0.205758705735207 0.000000000000000
7.009575366973877 6.774037361145020 -0.282499969005585 0.000000000000000
7.009643554687500 -21.202651977539062 -0.175393328070641 0.000000000000000
7.010512351989746 6.363663196563721 -0.274388819932938 0.000000000000000
7.022424697875977 -21.056179046630859 2.953737258911133 0.000000000000000
7.024918556213379 -18.258617401123047 -0.153653725981712 0.000000000000000
7.046495914459229 -18.909057617187500 1.666135072708130 0.000000000000000
7.047018051147461 -24.822580337524414 1.582730531692505 0.000000000000000
7.051465988159180 -8.004510879516602 -0.104265712201595 1.000000000000000
7.062759876251221 -21.242576599121094 -0.304771155118942 1.000000000000000
7.063712596893311 -17.744916915893555 -0.700334548950195 1.000000000000000
7.072706699371338 5.764044284820557 -0.001592438435182 0.000000000000000
7.074327945709229 -19.519191741943359 0.873799741268158 1.000000000000000
7.074914932250977 -18.985319137573242 2.480525016784668 0.000000000000000
7.077475547790527 -19.062324523925781 1.247229933738708 0.000000000000000
7.079910755157471 -18.327060699462891 3.358330488204956 0.000000000000000
7.083169460296631 -27.990354537963867 3.075405359268188 0.000000000000000
7.084668636322021 -19.037891387939453 2.307235956192017 0.000000000000000
7.089777946472168 -18.509077072143555 1.988827705383301 1.000000000000000
7.089792728424072 -17.631076812744141 0.179105833172798 0.000000000000000
7.092328071594238 -18.183374404907227 1.611496925354004 1.000000000000000
7.093885898590088 -18.571216583251953 0.798462212085724 1.000000000000000
7.099627017974854 -18.534790039062500 -0.003464129753411 0.000000000000000
7.109843730926514 -20.277555465698242 1.947987914085388 1.000000000000000
7.114990234375000 -18.228321075439453 1.124839782714844 0.000000000000000
7.117755413055420 3.570371627807617 -0.123703263700008 0.000000000000000
7.123389244079590 -19.013917922973633 1.930065035820007 1.000000000000000
7.123584270477295 -15.189280509948730 2.486352682113647 0.000000000000000
7.125692367553711 -19.621351242065430 2.094659090042114 1.000000000000000
7.129331588745117 -19.266885757446289 3.044609308242798 0.000000000000000
7.131090164184570 -17.982648849487305 -0.858151435852051 0.000000000000000
7.141922473907471 -19.882078170776367 2.119818687438965 1.000000000000000
7.142179965972900 -7.671926021575928 -1.314873695373535 0.000000000000000
7.152097225189209 -21.083904266357422 -0.046629577875137 0.000000000000000
7.161469936370850 -27.977199554443359 2.161303520202637 0.000000000000000
7.165349006652832 -19.347621917724609 -0.082821942865849 0.000000000000000
7.166679859161377 6.868037700653076 -0.593207538127899 0.000000000000000
7.168467521667480 -18.192630767822266 0.484719097614288 0.000000000000000
7.178015708923340 4.053028583526611 -0.112226791679859 1.000000000000000
7.178071975708008 3.231075286865234 -0.061825908720493 0.000000000000000
7.180637836456299 -19.148414611816406 1.781994819641113 1.000000000000000
7.180773735046387 -28.798353195190430 3.161410093307495 0.000000000000000
7.184990882873535 -19.515619277954102 0.395677208900452 0.000000000000000
7.188148021697998 -26.785387039184570 1.808003187179565 0.000000000000000
7.189339160919189 5.708631515502930 -0.266045898199081 0.000000000000000
7.201219081878662 -20.198829650878906 0.408004075288773 1.000000000000000
7.204352855682373 -17.915967941284180 1.072847366333008 0.000000000000000
7.204470157623291 3.842142343521118 -0.613925814628601 0.000000000000000
7.207387447357178 -18.992551803588867 -0.276564747095108 1.000000000000000
7.212568759918213 6.550979614257812 -0.095234826207161 0.000000000000000
7.214059352874756 -17.863498687744141 0.329548209905624 0.000000000000000
7.217720031738281 -27.776815414428711 2.500765085220337 0.000000000000000
7.218840122222900 -18.378749847412109 1.668499231338501 0.000000000000000
7.221471309661865 6.290374755859375 -0.240746349096298 1.000000000000000
7.223304271697998 -17.853179931640625 -0.188241243362427 1.000000000000000
7.229791164398193 -18.348262786865234 1.718451380729675 0.000000000000000
7.230463504791260 -28.230337142944336 2.539307832717896 0.000000000000000
7.231006622314453 -17.886587142944336 -0.522051632404327 0.000000000000000
7.254260540008545 -17.831153869628906 0.255360722541809 0.000000000000000
7.256232261657715 -18.865724563598633 2.474691867828369 0.000000000000000
7.256901264190674 7.042012214660645 -0.001764877000824 0.000000000000000
7.268513202667236 -20.199018478393555 -0.622125685214996 0.000000000000000
7.272373676300049 -19.428100585937500 0.554085969924927 1.000000000000000
7.272649288177490 -25.876737594604492 3.290839672088623 0.000000000000000
7.275413513183594 -19.661668777465820 1.826787710189819 1.000000000000000
7.281190872192383 4.095041751861572 -0.193949401378632 0.000000000000000
7.283338546752930 -18.837997436523438 1.919844865798950 0.000000000000000
7.284561157226562 -19.786067962646484 2.394812583923340 1.000000000000000
7.286389350891113 7.211488723754883 -0.080518200993538 0.000000000000000
7.291556835174561 5.433769226074219 -0.211125418543816 0.000000000000000
7.298579216003418 -18.612304687500000 0.687661886215210 0.000000000000000
7.300282478332520 -18.921087265014648 2.482955455780029 0.000000000000000
7.302225112915039 -17.868587493896484 -0.188671290874481 1.000000000000000
7.313649177551270 -19.241178512573242 0.391644358634949 0.000000000000000
7.321778297424316 -19.647769927978516 0.117106795310974 1.000000000000000
7.328517913818359 -20.537754058837891 -0.883448064327240 0.000000000000000
7.331512451171875 -18.726093292236328 -0.273787647485733 0.000000000000000
7.335936546325684 -17.876194000244141 0.813247680664062 0.000000000000000
7.336324691772461 -19.274494171142578 0.432000249624252 1.000000000000000
7.339796543121338 5.756380081176758 -0.055353138595819 0.000000000000000
7.340084075927734 -18.880846023559570 2.695720672607422 0.000000000000000
7.351208686828613 -18.915325164794922 -0.510141015052795 0.000000000000000
7.352108001708984 -19.722848892211914 0.804927229881287 0.000000000000000
7.352564334869385 -0.983131349086761 -0.172224119305611 1.000000000000000
7.356241703033447 -19.151672363281250 0.705675005912781 1.000000000000000
7.357452392578125 -19.770915985107422 0.725613236427307 1.000000000000000
7.360080718994141 6.421059608459473 -0.114221520721912 0.000000000000000
7.362151622772217 -19.057670593261719 1.174424648284912 1.000000000000000
7.373705387115479 6.723454952239990 -0.155017405748367 0.000000000000000
7.375916957855225 -24.243532180786133 1.847567915916443 0.000000000000000
7.379291057586670 6.031495571136475 -0.422782748937607 1.000000000000000
7.380462169647217 -10.884112358093262 -0.381108462810516 0.000000000000000
7.381119728088379 -20.459257125854492 1.795818448066711 0.000000000000000
7.383452415466309 -18.916110992431641 0.854624927043915 0.000000000000000
7.383669376373291 3.881612777709961 -0.756226718425751 1.000000000000000
7.388126373291016 -20.250303268432617 -0.831864058971405 1.000000000000000
7.388630390167236 -19.470153808593750 0.356229484081268 0.000000000000000
7.401772499084473 4.603968620300293 -0.235869944095612 0.000000000000000
7.422908306121826 -6.419047832489014 -1.178869247436523 1.000000000000000
7.432800292968750 -18.370971679687500 -1.413593649864197 1.000000000000000
7.448649883270264 -18.681552886962891 1.505150794982910 1.000000000000000
7.452538490295410 -18.811445236206055 2.298207283020020 0.000000000000000
7.455585479736328 2.948564291000366 -0.201543390750885 0.000000000000000
7.461084365844727 -17.292861938476562 0.828887045383453 0.000000000000000
7.474708080291748 -19.311925888061523 2.077885627746582 0.000000000000000
7.476060867309570 7.007977962493896 -0.316657781600952 0.000000000000000
7.477624893188477 4.546648979187012 -0.388215601444244 0.000000000000000
7.482972145080566 -17.817821502685547 1.222621440887451 1.000000000000000
7.488293647766113 -20.456085205078125 -0.129268094897270 0.000000000000000
7.496084690093994 6.929068088531494 -0.001781632076018 0.000000000000000
7.500675201416016 -19.810213088989258 1.258481383323669 0.000000000000000
7.501096725463867 4.767873764038086 -0.531166553497314 0.000000000000000
7.501406192779541 -18.986068725585938 -0.630844593048096 0.000000000000000
7.504457950592041 -32.048248291015625 2.526903867721558 0.000000000000000
7.506974697113037 -19.000162124633789 2.049930334091187 0.000000000000000
7.507121086120605 -19.310514450073242 -0.481020539999008 0.000000000000000
7.507760524749756 12.002801895141602 -0.546349406242371 0.000000000000000
7.514304161071777 5.482739448547363 -0.198095262050629 0.000000000000000
7.520498752593994 3.559906244277954 -0.241133078932762 1.000000000000000
7.540084362030029 -18.823921203613281 1.243801474571228 1.000000000000000
7.544877529144287 -19.610052108764648 0.157691821455956 0.000000000000000
7.551680088043213 -18.401916503906250 1.143434166908264 0.000000000000000
7.555533409118652 -26.041933059692383 2.720860004425049 0.000000000000000
7.558081626892090 -20.191366195678711 1.954488515853882 1.000000000000000
7.559334278106689 6.686052799224854 -0.040511775761843 0.000000000000000
7.562023162841797 -18.894927978515625 0.700037240982056 0.000000000000000
7.564434051513672 -17.554300308227539 3.267346143722534 0.000000000000000
7.565219879150391 -20.210437774658203 -0.418124020099640 0.000000000000000
7.568397521972656 -18.534690856933594 0.380915373563766 0.000000000000000
7.569754123687744 -20.222549438476562 0.908785402774811 0.000000000000000
7.580320835113525 -19.942752838134766 2.423252105712891 0.000000000000000
7.580399990081787 -18.428850173950195 0.915334820747375 1.000000000000000
7.582101345062256 -18.996021270751953 2.052326440811157 0.000000000000000
7.583251953125000 -20.493597030639648 -0.129671618342400 0.000000000000000
7.584607601165771 -18.920721054077148 2.712605237960815 1.000000000000000
7.586658000946045 -21.028976440429688 0.124858811497688 0.000000000000000
7.587652206420898 -19.786115646362305 -0.614130377769470 0.000000000000000
7.592559814453125 6.194775104522705 -0.133408844470978 0.000000000000000
7.608645915985107 -17.580856323242188 0.658923327922821 1.000000000000000
7.613179206848145 -18.551778793334961 3.427748203277588 0.000000000000000
7.618854045867920 -17.437206268310547 -1.394063830375671 0.000000000000000
7.622488975524902 7.370731353759766 -0.429579854011536 0.000000000000000
7.645179271697998 -19.790315628051758 1.546814680099487 1.000000000000000
7.649273395538330 -19.039682388305664 2.512120962142944 1.000000000000000
7.655430793762207 10.266434669494629 -0.198944181203842 0.000000000000000
7.662630558013916 -18.954250335693359 2.322132825851440 1.000000000000000
7.686316967010498 -17.299491882324219 0.469255656003952 0.000000000000000
7.688358306884766 5.476364612579346 -0.110386073589325 0.000000000000000
7.693083286285400 7.781947612762451 -0.169991031289101 0.000000000000000
7.694163799285889 -20.514551162719727 2.198493242263794 0.000000000000000
7.705656528472900 -19.156829833984375 3.529515981674194 0.000000000000000
7.723475933074951 -14.831601142883301 3.478201150894165 0.000000000000000
7.731939315795898 8.770475387573242 -1.059945344924927 0.000000000000000
7.732645034790039 -20.400299072265625 -1.009766697883606 1.000000000000000
7.734766483306885 7.479300498962402 -0.105164892971516 1.000000000000000
7.735144615173340 -25.945369720458984 1.712831854820251 0.000000000000000
7.736821651458740 -5.277305603027344 -0.976067721843719 0.000000000000000
7.747101783752441 -18.957202911376953 2.507260084152222 1.000000000000000
7.751060009002686 -20.006200790405273 0.944259405136108 1.000000000000000
7.752534866333008 -23.539310455322266 1.902602791786194 0.000000000000000
7.761173725128174 -19.997074127197266 1.729624629020691 1.000000000000000
7.767066001892090 -20.187547683715820 -0.502188801765442 1.000000000000000
7.771242141723633 -19.785133361816406 2.828686237335205 0.000000000000000
7.779061317443848 -19.121126174926758 1.962238907814026 1.000000000000000
7.779232978820801 -18.383789062500000 2.958407640457153 0.000000000000000
7.793375492095947 -21.061450958251953 0.556683480739594 1.000000000000000
7.800379276275635 5.767344474792480 -0.243862465023994 0.000000000000000
7.800789356231689 3.405489921569824 -0.066852405667305 0.000000000000000
7.802231311798096 -18.825101852416992 1.485733151435852 0.000000000000000
7.803704261779785 5.943540096282959 -0.227744325995445 0.000000000000000
7.805840492248535 -18.998592376708984 3.044023036956787 0.000000000000000
7.809114456176758 -17.511581420898438 -1.330680251121521 1.000000000000000
7.810917854309082 -20.606798171997070 -0.681005716323853 0.000000000000000
7.814676761627197 -20.423961639404297 -0.045800197869539 1.000000000000000
7.820845603942871 -18.339260101318359 1.107684493064880 1.000000000000000
7.823008537292480 -20.755565643310547 1.446038246154785 0.000000000000000
7.824970245361328 -18.451484680175781 -0.272861927747726 0.000000000000000
7.827719211578369 4.455989837646484 -0.122627235949039 0.000000000000000
7.831137657165527 4.759724617004395 -0.265582412481308 0.000000000000000
7.831436157226562 -19.944522857666016 -0.209430605173111 0.000000000000000
7.836007118225098 -17.451381683349609 0.621235132217407 1.000000000000000
7.838556289672852 -17.905950546264648 1.274293541908264 0.000000000000000
7.849581718444824 7.533001899719238 -0.315292209386826 0.000000000000000
7.857296943664551 -19.169504165649414 2.536425590515137 1.000000000000000
7.858700275421143 3.963522195816040 -0.204347863793373 0.000000000000000
7.862196922302246 5.089008808135986 -0.217438727617264 0.000000000000000
7.890043258666992 -20.441148757934570 -0.466622471809387 0.000000000000000
7.893939971923828 -19.755252838134766 -0.289633333683014 1.000000000000000
7.894192218780518 3.747089624404907 -0.169310778379440 0.000000000000000
7.897512912750244 -20.875913619995117 -0.089597992599010 1.000000000000000
7.905924797058105 -20.679740905761719 1.272675871849060 0.000000000000000
7.911861896514893 -18.258741378784180 1.335659146308899 0.000000000000000
7.920503616333008 -20.198291778564453 -1.254768133163452 1.000000000000000
7.923835277557373 3.758449316024780 -0.186768233776093 0.000000000000000
7.926218032836914 6.252565860748291 -0.098675161600113 0.000000000000000
7.926933288574219 -20.269826889038086 -1.007362484931946 0.000000000000000
7.927961826324463 -20.294389724731445 -0.045632641762495 1.000000000000000
7.933614730834961 -17.794942855834961 1.195068001747131 1.000000000000000
7.936900615692139 -20.088304519653320 1.324860334396362 1.000000000000000
7.938578605651855 -18.719375610351562 1.600251913070679 1.000000000000000
7.942327976226807 -17.507144927978516 -1.408384323120117 0.000000000000000
7.942883014678955 -20.437757492065430 -0.214317455887794 1.000000000000000
7.945895671844482 -18.775819778442383 -0.042700491845608 0.000000000000000
7.960237979888916 -18.239349365234375 0.875844955444336 1.000000000000000
7.963645458221436 -20.177635192871094 -0.712028026580811 1.000000000000000
7.974453926086426 5.953510284423828 -0.078162029385567 0.000000000000000
7.974481105804443 -20.096132278442383 -1.167140960693359 1.000000000000000
7.978649139404297 -19.809539794921875 -0.044727865606546 1.000000000000000
7.987551689147949 -18.960861206054688 2.737931966781616 0.000000000000000
7.987798213958740 -19.040351867675781 -0.003603755962104 0.000000000000000
7.990197181701660 -20.839086532592773 0.982247769832611 1.000000000000000
7.996616840362549 -5.580799102783203 -1.431625485420227 1.000000000000000
8.002701759338379 6.392592906951904 -0.336199015378952 0.000000000000000
8.003073692321777 -16.615797042846680 -1.173244595527649 0.000000000000000
8.003426551818848 4.656983375549316 -0.072727128863335 0.000000000000000
8.014508247375488 -19.039709091186523 2.529134035110474 1.000000000000000
8.017482757568359 7.183075904846191 -0.270600885152817 0.000000000000000
8.025611877441406 7.231874942779541 -0.126335933804512 0.000000000000000
8.025961875915527 -19.190439224243164 1.812551259994507 0.000000000000000
8.026447296142578 -20.055366516113281 1.741841435432434 0.000000000000000
8.027868270874023 5.181743621826172 -0.571015954017639 0.000000000000000
8.028430938720703 -18.911960601806641 -0.871888697147369 1.000000000000000
8.031946182250977 -15.293415069580078 3.593055486679077 0.000000000000000
8.034524917602539 -18.902463912963867 -0.832118749618530 0.000000000000000
8.035694122314453 -18.544515609741211 0.734027624130249 1.000000000000000
8.044602394104004 -19.385011672973633 -0.043957129120827 1.000000000000000
8.052215576171875 -16.785213470458984 -1.327929973602295 1.000000000000000
8.052750587463379 -19.741531372070312 0.692381739616394 1.000000000000000
8.054077148437500 4.634665489196777 -0.376469343900681 0.000000000000000
8.057482719421387 -20.659978866577148 -0.131594255566597 1.000000000000000
8.058364868164062 -20.166738510131836 2.313226699829102 1.000000000000000
8.066266059875488 -20.247001647949219 1.975795745849609 1.000000000000000
8.080589294433594 -19.888141632080078 -0.745894551277161 0.000000000000000
8.111090660095215 -20.650369644165039 0.507349550724030 0.000000000000000
8.114775657653809 4.759771347045898 -0.073889501392841 0.000000000000000
8.117637634277344 -19.269659042358398 -1.451147675514221 1.000000000000000
8.125355720520020 -19.695045471191406 1.635613918304443 0.000000000000000
8.127897262573242 -20.941957473754883 0.427407473325729 1.000000000000000
8.133015632629395 -24.461572647094727 2.745791912078857 0.000000000000000
8.137809753417969 -18.780176162719727 0.428733229637146 1.000000000000000
8.146197319030762 8.182962417602539 -0.356811434030533 0.000000000000000
8.149894714355469 -21.079301834106445 -0.047333292663097 1.000000000000000
8.150753021240234 -18.450567245483398 0.461260139942169 0.000000000000000
8.151347160339355 -17.068181991577148 1.797961950302124 0.000000000000000
8.159442901611328 -5.954549789428711 -1.091984748840332 1.000000000000000
8.163468360900879 -20.066009521484375 0.953404784202576 1.000000000000000
8.166048049926758 -19.575286865234375 -0.492440283298492 1.000000000000000
8.168873786926270 -18.446275711059570 -1.361185431480408 1.000000000000000
8.179099082946777 -21.045562744140625 0.472963631153107 1.000000000000000
8.180684089660645 -27.212419509887695 2.576010227203369 0.000000000000000
8.180958747863770 -18.804145812988281 0.232650920748711 1.000000000000000
8.185273170471191 -19.961719512939453 1.198660135269165 0.000000000000000
8.188067436218262 -18.977821350097656 -0.678434371948242 1.000000000000000
8.189906120300293 3.583868741989136 -0.070213876664639 0.000000000000000
8.194664001464844 -18.395147323608398 -0.854589998722076 0.000000000000000
8.198760986328125 -19.026342391967773 0.871949493885040 1.000000000000000
8.205322265625000 -18.405239105224609 1.663830995559692 1.000000000000000
8.209315299987793 -6.157457351684570 -0.731983661651611 1.000000000000000
8.211294174194336 -17.933364868164062 0.072292074561119 0.000000000000000
8.211624145507812 -18.695960998535156 -0.081970915198326 1.000000000000000
8.212340354919434 5.835987091064453 -0.156508550047874 0.000000000000000
8.215362548828125 3.635230779647827 -0.277616113424301 0.000000000000000
8.215612411499023 -17.942794799804688 -0.837460875511169 0.000000000000000
8.218633651733398 -18.475839614868164 0.656678557395935 1.000000000000000
8.226908683776855 -20.317377090454102 1.513561129570007 1.000000000000000
8.227450370788574 -30.325965881347656 3.152971029281616 0.000000000000000
8.228199958801270 -19.070837020874023 0.275522172451019 1.000000000000000
8.230838775634766 -30.769453048706055 2.775425672531128 0.000000000000000
8.231069564819336 8.258130073547363 -0.091576494276524 0.000000000000000
8.232341766357422 -6.016562461853027 -1.102302670478821 1.000000000000000
8.233529090881348 -18.463312149047852 1.708241343498230 1.000000000000000
8.234427452087402 -20.607349395751953 1.403956413269043 1.000000000000000
8.236618995666504 -28.722606658935547 1.890378355979919 0.000000000000000
8.242080688476562 -19.312076568603516 1.207022070884705 1.000000000000000
8.243502616882324 -18.021158218383789 0.338989257812500 1.000000000000000
8.249140739440918 6.063146591186523 -0.218024015426636 0.000000000000000
8.251502990722656 -19.478057861328125 2.122614383697510 1.000000000000000
8.256336212158203 -15.386393547058105 2.137830495834351 0.000000000000000
8.256401062011719 6.468725681304932 -0.263664990663528 0.000000000000000
8.258953094482422 -18.241443634033203 -0.003494847333059 0.000000000000000
8.263862609863281 -18.386209487915039 -1.476772427558899 1.000000000000000
8.265729904174805 -19.006246566772461 -1.118842482566833 0.000000000000000
8.269545555114746 -19.499803543090820 0.687837719917297 1.000000000000000
8.292599678039551 -19.200750350952148 2.098652601242065 1.000000000000000
8.306564331054688 -18.481216430664062 -1.171856045722961 1.000000000000000
8.306856155395508 -20.066408157348633 2.658920526504517 1.000000000000000
8.309669494628906 -19.219995498657227 -0.928881168365479 0.000000000000000
8.314249038696289 -19.496252059936523 0.199764639139175 1.000000000000000
8.315606117248535 6.617373466491699 -0.124277874827385 0.000000000000000
8.339458465576172 7.685729980468750 -0.263303279876709 0.000000000000000
8.340799331665039 -5.525052070617676 -1.468810439109802 1.000000000000000
8.342553138732910 -19.112625122070312 2.221290826797485 1.000000000000000
8.343689918518066 3.960450172424316 -0.037075582891703 0.000000000000000
8.352288246154785 -21.398229598999023 0.260603517293930 1.000000000000000
8.354043960571289 -19.343019485473633 -0.651106715202332 0.000000000000000
8.354429244995117 -21.060054779052734 -1.266701698303223 1.000000000000000
8.354812622070312 7.966755867004395 -0.290202379226685 0.000000000000000
8.362809181213379 -30.404512405395508 3.164153099060059 0.000000000000000
8.366326332092285 -22.369609832763672 0.225098058581352 0.000000000000000
8.382072448730469 -18.309720993041992 -0.660981416702271 1.000000000000000
8.384491920471191 -19.536115646362305 0.445319652557373 1.000000000000000
8.391430854797363 4.872955799102783 -0.076214261353016 0.000000000000000
8.393678665161133 -5.071586608886719 -1.439759731292725 1.000000000000000
8.400796890258789 -17.071166992187500 1.534157872200012 1.000000000000000
8.401944160461426 -19.853443145751953 0.285974293947220 1.000000000000000
8.403532028198242 3.865371227264404 -0.695502638816833 0.000000000000000
8.404045104980469 -18.850990295410156 0.432335346937180 1.000000000000000
8.407545089721680 -6.026761054992676 -0.857743799686432 1.000000000000000
8.411222457885742 -19.439048767089844 -0.369711786508560 1.000000000000000
8.413346290588379 -21.294189453125000 -0.003996105864644 0.000000000000000
8.418121337890625 -19.285751342773438 1.656114816665649 1.000000000000000
8.419642448425293 -17.319559097290039 2.854027986526489 0.000000000000000
8.421639442443848 -19.647264480590820 0.406710505485535 1.000000000000000
8.422146797180176 -5.939410686492920 -1.134127974510193 1.000000000000000
8.423250198364258 -19.463115692138672 2.408806800842285 1.000000000000000
8.426959037780762 8.234727859497070 -0.364100843667984 0.000000000000000
8.427280426025391 -20.150011062622070 0.541418313980103 1.000000000000000
8.428882598876953 -18.552099227905273 0.779247760772705 1.000000000000000
8.431192398071289 -19.580772399902344 0.856251955032349 1.000000000000000
8.438212394714355 -17.383991241455078 3.303065776824951 0.000000000000000
8.438664436340332 -16.981712341308594 1.309383392333984 1.000000000000000
8.446774482727051 -18.973550796508789 -0.681715011596680 0.000000000000000
8.449292182922363 -20.058898925781250 1.418975353240967 1.000000000000000
8.452548027038574 3.172223329544067 -0.261642724275589 0.000000000000000
8.454412460327148 -6.734826087951660 -1.168509602546692 1.000000000000000
8.455964088439941 -19.146892547607422 -0.204582855105400 1.000000000000000
8.465368270874023 -19.554813385009766 -0.699430465698242 0.000000000000000
8.475275039672852 8.339979171752930 -0.184716120362282 0.000000000000000
8.478568077087402 -19.510541915893555 2.604478359222412 1.000000000000000
8.481923103332520 -18.563783645629883 0.505931735038757 1.000000000000000
8.493269920349121 5.328024387359619 -0.444763898849487 0.000000000000000
8.494987487792969 -18.419441223144531 -0.003540225792676 1.000000000000000
8.495478630065918 6.547364711761475 -0.806471168994904 0.000000000000000
8.497127532958984 -17.792215347290039 -0.950529694557190 1.000000000000000
8.497159004211426 -17.510099411010742 -0.713672876358032 1.000000000000000
8.497477531433105 -17.255472183227539 0.994562685489655 0.000000000000000
8.502378463745117 -4.685436248779297 -0.038970306515694 1.000000000000000
8.503714561462402 -19.375675201416016 -0.125565230846405 1.000000000000000
8.506031990051270 -17.369108200073242 1.111755013465881 0.000000000000000
8.510496139526367 -19.448289871215820 2.824992895126343 1.000000000000000
8.510589599609375 7.803436279296875 -0.556642472743988 0.000000000000000
8.517538070678711 -19.575914382934570 -1.481610655784607 1.000000000000000
8.525182723999023 -19.718471527099609 2.288230419158936 1.000000000000000
8.525235176086426 -19.610441207885742 -1.442775726318359 1.000000000000000
8.536299705505371 -19.142259597778320 -0.164617776870728 1.000000000000000
8.545032501220703 6.426059722900391 -0.083973914384842 0.000000000000000
8.546547889709473 6.035853862762451 -0.142447993159294 0.000000000000000
8.549798011779785 -19.543674468994141 1.431828856468201 0.000000000000000
8.554488182067871 -19.302478790283203 1.213679194450378 0.000000000000000
8.560572624206543 -4.735636711120605 -1.436273574829102 1.000000000000000
8.566188812255859 -19.343460083007812 -1.101300477981567 1.000000000000000
8.566693305969238 -31.211801528930664 3.076596975326538 0.000000000000000
8.568870544433594 -20.674837112426758 2.028883218765259 1.000000000000000
8.569796562194824 -28.744972229003906 2.360677480697632 0.000000000000000
8.570383071899414 -19.314676284790039 1.255397439002991 0.000000000000000
8.573798179626465 -26.702653884887695 2.987282514572144 0.000000000000000
8.576828002929688 -17.412000656127930 1.340244293212891 1.000000000000000
8.578125953674316 -20.362768173217773 0.844974875450134 1.000000000000000
8.585023880004883 -20.265348434448242 1.010961294174194 1.000000000000000
8.590070724487305 -20.860706329345703 0.732628941535950 1.000000000000000
8.591159820556641 -17.822441101074219 1.724007010459900 1.000000000000000
8.601044654846191 -18.770725250244141 0.432502865791321 1.000000000000000
8.604890823364258 4.003573417663574 -0.421010047197342 0.000000000000000
8.607083320617676 -18.849893569946289 -1.038852572441101 1.000000000000000
8.610694885253906 6.600296497344971 -0.481280982494354 0.000000000000000
8.612021446228027 -20.939956665039062 0.909386515617371 1.000000000000000
8.626574516296387 -19.231790542602539 -0.651353836059570 1.000000000000000
8.634392738342285 -17.778669357299805 -1.371666789054871 1.000000000000000
8.634659767150879 -4.959936618804932 -0.825681746006012 1.000000000000000
8.635073661804199 -19.927747726440430 -0.879885792732239 0.000000000000000
8.644866943359375 -18.981714248657227 0.517033636569977 1.000000000000000
8.645019531250000 -21.277330398559570 0.260558128356934 1.000000000000000
8.647296905517578 -21.113672256469727 0.083624824881554 1.000000000000000
8.662981986999512 -24.412029266357422 1.938605666160583 0.000000000000000
8.663612365722656 5.261765480041504 -0.274279952049255 0.000000000000000
8.664242744445801 -19.633327484130859 0.408308446407318 1.000000000000000
8.664643287658691 7.600833415985107 -0.644403457641602 0.000000000000000
8.666609764099121 -20.025432586669922 -0.925989508628845 0.000000000000000
8.674236297607422 -19.641128540039062 0.449759453535080 1.000000000000000
8.682815551757812 -19.654979705810547 1.815680146217346 1.000000000000000
8.686113357543945 -18.033908843994141 -0.964975357055664 1.000000000000000
8.700796127319336 -18.988420486450195 -1.489865660667419 1.000000000000000
8.702169418334961 -18.991416931152344 0.758708178997040 1.000000000000000
8.708311080932617 -4.683845996856689 -1.126598477363586 1.000000000000000
8.712428092956543 -20.218376159667969 1.265559673309326 0.000000000000000
8.715238571166992 7.664075374603271 -0.380946815013885 0.000000000000000
8.720184326171875 -18.036960601806641 -1.467712402343750 0.000000000000000
8.720489501953125 -16.976978302001953 -0.626469194889069 0.000000000000000
8.720757484436035 -18.871717453002930 -1.202341794967651 1.000000000000000
8.720837593078613 -20.563962936401367 0.382089793682098 1.000000000000000
8.724919319152832 -19.067422866821289 -0.366011857986450 1.000000000000000
8.726996421813965 -6.612394332885742 -1.013796091079712 0.000000000000000
8.729469299316406 -18.149848937988281 2.984796047210693 0.000000000000000
8.730037689208984 -19.576709747314453 2.852430105209351 1.000000000000000
8.743438720703125 7.885899543762207 -0.477023094892502 0.000000000000000
8.746006011962891 3.343450546264648 -0.559562206268311 0.000000000000000
8.751391410827637 -17.783605575561523 0.681749105453491 0.000000000000000
8.759259223937988 -19.459341049194336 2.839766979217529 1.000000000000000
8.762411117553711 -17.036642074584961 -0.481593221426010 0.000000000000000
8.764249801635742 -26.754152297973633 2.676124572753906 0.000000000000000
8.765481948852539 5.208292961120605 -0.570049226284027 0.000000000000000
8.770923614501953 -20.225778579711914 2.933687210083008 1.000000000000000
8.771717071533203 -6.987592697143555 -0.864893019199371 0.000000000000000
8.772421836853027 8.785907745361328 -0.097514040768147 0.000000000000000
8.773725509643555 -20.166637420654297 0.925605416297913 1.000000000000000
8.779488563537598 -20.373998641967773 1.617494583129883 0.000000000000000
8.780967712402344 -31.139120101928711 2.421316623687744 0.000000000000000
8.787498474121094 -18.270498275756836 -1.367917299270630 1.000000000000000
8.789774894714355 -18.275230407714844 1.767063856124878 0.000000000000000
8.794081687927246 -6.942157745361328 -0.994016826152802 1.000000000000000
8.797089576721191 -19.184423446655273 -1.464717507362366 1.000000000000000
8.799612045288086 -19.415744781494141 0.692251920700073 1.000000000000000
8.807403564453125 5.677944183349609 -0.323823660612106 0.000000000000000
8.807450294494629 -19.937110900878906 2.900445699691772 1.000000000000000
8.809149742126465 -19.940958023071289 0.833663761615753 1.000000000000000
8.817338943481445 -17.155208587646484 0.366990625858307 0.000000000000000
8.817580223083496 -4.600121498107910 -1.460095167160034 1.000000000000000
8.817770957946777 9.011023521423340 -0.559278666973114 0.000000000000000
8.821074485778809 -19.250913619995117 0.118268482387066 0.000000000000000
8.830913543701172 -26.627361297607422 2.666661739349365 0.000000000000000
8.838263511657715 -19.392005920410156 -0.740477442741394 0.000000000000000
8.839744567871094 -24.636945724487305 1.958905100822449 0.000000000000000
8.842277526855469 -20.147089004516602 1.222402572631836 1.000000000000000
8.844302177429199 -20.654209136962891 0.729642927646637 1.000000000000000
8.847739219665527 -19.361732482910156 -1.313189625740051 1.000000000000000
8.847921371459961 7.193589687347412 -0.133351981639862 0.000000000000000
8.849315643310547 -17.911521911621094 0.840832471847534 1.000000000000000
8.852868080139160 -21.572649002075195 0.264551371335983 1.000000000000000
8.852948188781738 7.345690727233887 -0.090351283550262 0.000000000000000
8.854418754577637 6.725981235504150 -0.322244644165039 0.000000000000000
8.857599258422852 -20.664339065551758 0.773327350616455 1.000000000000000
8.858345031738281 -17.223165512084961 0.108170755207539 0.000000000000000
8.858437538146973 6.601429939270020 -0.086769901216030 0.000000000000000
8.863201141357422 -20.196678161621094 -1.190643429756165 1.000000000000000
8.868638038635254 -17.304018020629883 0.780964732170105 0.000000000000000
8.868817329406738 -19.887916564941406 -0.840347766876221 1.000000000000000
8.870103836059570 -19.720304489135742 1.451384186744690 0.000000000000000
8.881770133972168 -4.476391792297363 -1.247661232948303 1.000000000000000
8.885899543762207 5.367511272430420 -0.241020917892456 0.000000000000000
8.886798858642578 5.541455745697021 -0.384026050567627 0.000000000000000
8.889672279357910 -20.276235580444336 0.166157290339470 0.000000000000000
8.890254020690918 -18.597858428955078 -0.320224344730377 1.000000000000000
8.891163825988770 -19.706415176391602 -0.169801339507103 0.000000000000000
8.893341064453125 13.752810478210449 -1.231450676918030 0.000000000000000
8.897937774658203 3.494950294494629 -0.075083300471306 0.000000000000000
8.903911590576172 -19.514379501342773 3.178895950317383 0.000000000000000
8.907619476318359 -32.783218383789062 3.618547677993774 0.000000000000000
8.908399581909180 -16.474365234375000 -1.083169937133789 0.000000000000000
8.914793968200684 -19.927400588989258 0.247670888900757 1.000000000000000
8.928777694702148 -17.011142730712891 -1.037123322486877 0.000000000000000
8.932074546813965 -17.018869400024414 -0.667832553386688 0.000000000000000
8.933967590332031 -17.725435256958008 -0.308357268571854 0.000000000000000
8.939122200012207 -19.522933959960938 -0.581019103527069 1.000000000000000
8.941449165344238 -4.364513874053955 -1.114290356636047 1.000000000000000
8.944778442382812 -20.108245849609375 0.038411188870668 1.000000000000000
8.945865631103516 -18.521083831787109 1.618768334388733 0.000000000000000
8.947174072265625 -22.391057968139648 0.412465423345566 1.000000000000000
8.947259902954102 -20.164028167724609 -0.046202320605516 1.000000000000000
8.949096679687500 -17.051303863525391 1.745749711990356 1.000000000000000
8.951691627502441 -17.890930175781250 0.649667799472809 1.000000000000000
8.960904121398926 5.186304569244385 -0.618739843368530 0.000000000000000
8.962859153747559 -16.480768203735352 -1.446819543838501 0.000000000000000
8.964435577392578 -19.915153503417969 -0.842815756797791 1.000000000000000
