# This PCD file was generated using the MATLAB® pcwrite function
# from Computer Vision Toolbox®.
# .PCD v.7 - Point Cloud Data file format
VERSION .7
FIELDS x y z intensity
SIZE 8 8 8 8
TYPE F F F F
COUNT 1 1 1 1
WIDTH 653
HEIGHT 1
VIEWPOINT 0 0 0 1 0 0 0
POINTS 653
DATA ascii
1.144933104515076 -8.717798233032227 0.641064167022705 0.000000000000000
1.145923733711243 -4.234930515289307 0.277558565139771 0.000000000000000
1.150714874267578 -4.091329574584961 1.138803839683533 0.000000000000000
1.151798129081726 -4.275279045104980 0.194866701960564 0.000000000000000
1.158846855163574 -11.260046958923340 0.803450763225555 0.000000000000000
1.160726785659790 -11.990978240966797 3.227991104125977 0.000000000000000
1.179562449455261 -13.649821281433105 3.671089649200439 0.000000000000000
1.180128931999207 -7.308960914611816 0.254659026861191 0.000000000000000
1.188068866729736 -6.056755065917969 0.586703419685364 0.000000000000000
1.192360043525696 -4.519608020782471 0.358842998743057 0.000000000000000
1.193850159645081 -5.042870998382568 0.317868530750275 0.000000000000000
1.195319890975952 -11.509890556335449 3.100652217864990 0.000000000000000
1.199464082717896 -13.068702697753906 0.098493598401546 0.000000000000000
1.200689196586609 -3.467579603195190 0.368212699890137 1.000000000000000
1.203433990478516 -3.517144918441772 0.373005032539368 1.000000000000000
1.205762743949890 -14.365049362182617 0.967589497566223 0.000000000000000
1.207273244857788 -12.303876876831055 0.472776293754578 0.000000000000000
1.213272571563721 -6.496226787567139 0.507340312004089 0.000000000000000
1.222787976264954 -5.905657768249512 1.254433274269104 0.000000000000000
1.227203488349915 -11.428479194641113 0.882410883903503 0.000000000000000
1.230682849884033 -5.645368099212646 0.549230098724365 0.000000000000000
1.230800867080688 -4.709612369537354 0.045879136770964 0.000000000000000
1.239986658096313 -12.359761238098145 3.328413009643555 0.000000000000000
1.245434999465942 -11.841573715209961 0.638601481914520 0.000000000000000
1.245771765708923 -6.867298126220703 0.632716894149780 0.000000000000000
1.247442841529846 -13.712393760681152 0.924192547798157 0.000000000000000
1.254698157310486 -9.732441902160645 0.243251666426659 0.000000000000000
1.254821538925171 -6.504577159881592 0.508565068244934 0.000000000000000
1.256409883499146 -13.281532287597656 0.715507805347443 0.000000000000000
1.257648348808289 -14.488548278808594 1.144561409950256 0.000000000000000
1.259245872497559 -8.443960189819336 0.622448921203613 0.000000000000000
1.267517447471619 -4.069780826568604 0.427717804908752 0.000000000000000
1.268781065940857 5.869334697723389 1.026437401771545 1.000000000000000
1.269086837768555 -8.809026718139648 0.597376644611359 0.000000000000000
1.273450374603271 -6.679458618164062 0.574578046798706 0.000000000000000
1.276423215866089 -6.824453830718994 0.923900365829468 0.000000000000000
1.278328061103821 -8.925038337707520 0.709584116935730 0.000000000000000
1.282412290573120 -7.516639232635498 0.320925891399384 0.000000000000000
1.285982012748718 -12.382887840270996 1.249207496643066 0.000000000000000
1.286349892616272 -9.385704040527344 0.654140591621399 0.000000000000000
1.292308568954468 -14.369556427001953 1.447690844535828 0.000000000000000
1.292686939239502 -8.346389770507812 0.713675796985626 0.000000000000000
1.302415013313293 -7.537040710449219 0.646316111087799 0.000000000000000
1.306879758834839 -10.637543678283691 1.426215052604675 0.000000000000000
1.317569851875305 -8.707914352416992 0.608124792575836 0.000000000000000
1.321283221244812 -6.050309181213379 0.621408820152283 0.000000000000000
1.326846003532410 3.540897369384766 0.224652558565140 0.000000000000000
1.330949664115906 -7.309959888458252 0.570413410663605 0.000000000000000
1.333399415016174 -7.300278663635254 0.584049522876740 0.000000000000000
1.339810848236084 -8.703878402709961 0.557137548923492 0.000000000000000
1.339910387992859 -10.235593795776367 1.263837933540344 0.000000000000000
1.339921474456787 -7.242266654968262 1.258952736854553 0.000000000000000
1.343141674995422 -4.956573009490967 0.414081186056137 0.000000000000000
1.344004154205322 -10.632917404174805 1.426215052604675 0.000000000000000
1.344383716583252 -9.631641387939453 0.241070926189423 0.000000000000000
1.351410269737244 -9.610916137695312 0.221942573785782 0.000000000000000
1.356565117835999 -8.965637207031250 0.766216337680817 0.000000000000000
1.358125090599060 -5.726965904235840 0.463222533464432 0.000000000000000
1.368471860885620 -9.101233482360840 0.724334418773651 0.000000000000000
1.369141697883606 -8.549746513366699 1.801007866859436 0.000000000000000
1.373022913932800 -8.991630554199219 0.663169920444489 0.000000000000000
1.375063538551331 -5.093030452728271 0.080109626054764 1.000000000000000
1.376816987991333 -4.458241939544678 0.529973566532135 0.000000000000000
1.377405285835266 -7.525601387023926 0.145563557744026 0.000000000000000
1.382060408592224 -13.807441711425781 2.056518554687500 0.000000000000000
1.386123895645142 -8.908555030822754 0.067663691937923 1.000000000000000
1.402864098548889 -7.640595912933350 0.656420052051544 0.000000000000000
1.412503004074097 -5.156875133514404 0.235317379236221 1.000000000000000
1.413080453872681 -7.700783252716064 0.646441936492920 0.000000000000000
1.415650129318237 -8.366274833679199 1.129152894020081 0.000000000000000
1.419901847839355 -12.694707870483398 1.450881719589233 0.000000000000000
1.425820946693420 -6.886239528656006 0.668463349342346 0.000000000000000
1.427362442016602 -13.373843193054199 0.773155212402344 0.000000000000000
1.428685188293457 -5.269700527191162 0.419160485267639 0.000000000000000
1.429633736610413 -13.198618888854980 0.865489184856415 0.000000000000000
1.431464791297913 -12.982653617858887 0.952288627624512 0.000000000000000
1.434418559074402 -14.618819236755371 1.014276146888733 0.000000000000000
1.437790513038635 -6.334596157073975 0.235916718840599 0.000000000000000
1.438786029815674 -6.828708171844482 1.451558470726013 0.000000000000000
1.441790461540222 -10.153402328491211 1.752963542938232 0.000000000000000
1.442375659942627 -9.763029098510742 1.313299775123596 0.000000000000000
1.448514938354492 -4.585448741912842 0.512214541435242 0.000000000000000
1.450300931930542 -8.515030860900879 1.280119776725769 0.000000000000000
1.451596856117249 -6.256659984588623 1.097876906394958 0.000000000000000
1.452442765235901 -9.244484901428223 2.507439136505127 0.000000000000000
1.454993128776550 -5.173180580139160 0.329623281955719 0.000000000000000
1.455533146858215 -5.446568489074707 0.454589098691940 0.000000000000000
1.457813858985901 -6.077837467193604 1.300049066543579 1.000000000000000
1.459580779075623 -14.492557525634766 0.249162241816521 0.000000000000000
1.460621953010559 -9.513006210327148 2.578873157501221 0.000000000000000
1.463305592536926 -4.689196586608887 0.523229897022247 0.000000000000000
1.469867825508118 3.307900190353394 0.041066721081734 0.000000000000000
1.471606135368347 -6.042272090911865 1.293532490730286 0.000000000000000
1.471727728843689 -8.401449203491211 0.211432680487633 0.000000000000000
1.477776288986206 -9.909330368041992 0.908266544342041 0.000000000000000
1.479767322540283 -9.038383483886719 0.870592176914215 0.000000000000000
1.481910824775696 -7.353431701660156 0.633854568004608 1.000000000000000
1.482201218605042 -10.280687332153320 0.877696633338928 0.000000000000000
1.482409477233887 -7.315022945404053 0.650365591049194 1.000000000000000
1.484671711921692 -6.864559173583984 0.484956830739975 0.000000000000000
1.491077661514282 -13.813162803649902 1.479872107505798 0.000000000000000
1.493362665176392 -14.691671371459961 1.247838020324707 0.000000000000000
1.493406295776367 -5.021693229675293 0.099680215120316 0.000000000000000
1.498038291931152 -5.231516838073730 0.333786427974701 0.000000000000000
1.499360442161560 -14.085707664489746 2.099326133728027 0.000000000000000
1.512539148330688 -10.257755279541016 0.695957183837891 0.000000000000000
1.515454411506653 -7.754418849945068 0.652366578578949 0.000000000000000
1.522362709045410 -9.768443107604980 0.816281020641327 0.000000000000000
1.522753477096558 -8.298461914062500 0.566302359104156 0.000000000000000
1.526634454727173 -7.122322082519531 1.515094757080078 0.000000000000000
1.532792329788208 -8.348240852355957 0.586081326007843 1.000000000000000
1.535300374031067 -8.268438339233398 0.843854069709778 0.000000000000000
1.538661956787109 -11.226669311523438 0.957517802715302 0.000000000000000
1.540768742561340 -9.621489524841309 0.926234304904938 0.000000000000000
1.545483231544495 -7.026920795440674 0.496805191040039 0.000000000000000
1.546409606933594 -9.347180366516113 0.800569772720337 0.000000000000000
1.547295689582825 -8.382746696472168 1.043638467788696 0.000000000000000
1.554896950721741 -8.495346069335938 0.980947732925415 0.000000000000000
1.560802221298218 -8.679784774780273 0.608951449394226 0.000000000000000
1.561115622520447 -11.909247398376465 0.991715729236603 0.000000000000000
1.562465310096741 4.175893783569336 0.110523872077465 0.000000000000000
1.565152764320374 -7.288993358612061 0.113210268318653 0.000000000000000
1.569696664810181 -11.194486618041992 0.736940801143646 0.000000000000000
1.573705792427063 -14.116632461547852 1.117885351181030 0.000000000000000
1.573756217956543 -5.225054740905762 0.619807243347168 0.000000000000000
1.581345200538635 -8.454732894897461 0.726810872554779 0.000000000000000
1.582656383514404 -7.333081722259521 0.575924634933472 0.000000000000000
1.586471319198608 -8.745399475097656 0.374077141284943 0.000000000000000
1.586591124534607 -5.114069938659668 0.380060225725174 0.000000000000000
1.590444922447205 -8.735182762145996 2.379064798355103 0.000000000000000
1.595751285552979 -11.953239440917969 0.832692861557007 0.000000000000000
1.597293496131897 3.261780977249146 0.973159670829773 0.000000000000000
1.598422288894653 -8.485381126403809 0.712929368019104 0.000000000000000
1.598850965499878 -7.739602088928223 0.576201498508453 0.000000000000000
1.602594733238220 -8.908634185791016 0.607556164264679 0.000000000000000
1.607600688934326 -7.560572147369385 0.533728003501892 0.000000000000000
1.611625194549561 -12.001859664916992 1.482579112052917 0.000000000000000
1.618139743804932 -9.671690940856934 2.039675951004028 0.000000000000000
1.623213410377502 -5.706649780273438 1.234069108963013 1.000000000000000
1.626770496368408 -5.333576202392578 0.633350074291229 0.000000000000000
1.627976775169373 -7.589956283569336 0.676407992839813 1.000000000000000
1.638562679290771 -7.630867004394531 0.783150851726532 0.000000000000000
1.639604449272156 -9.023953437805176 1.907716035842896 0.000000000000000
1.646628737449646 -8.822524070739746 0.723677575588226 0.000000000000000
1.646656274795532 -7.444801807403564 0.691221535205841 0.000000000000000
1.647223234176636 -7.616135597229004 0.658440828323364 1.000000000000000
1.649630904197693 -5.723526477813721 1.238956451416016 0.000000000000000
1.661519646644592 -9.551574707031250 0.800482094287872 0.000000000000000
1.664046406745911 3.777542114257812 0.038904909044504 1.000000000000000
1.664663195610046 -5.930969238281250 1.281314015388489 0.000000000000000
1.668395876884460 -10.943887710571289 0.914037346839905 0.000000000000000
1.671679735183716 -10.104367256164551 1.362898230552673 0.000000000000000
1.676884651184082 -10.222229957580566 1.535205483436584 0.000000000000000
1.685955762863159 2.994287967681885 0.283723503351212 0.000000000000000
1.686491608619690 -10.889036178588867 1.466315865516663 0.000000000000000
1.693991661071777 -9.057002067565918 0.636230230331421 0.000000000000000
1.719915390014648 -11.641615867614746 0.812578201293945 0.000000000000000
1.723117589950562 -11.316093444824219 1.401401877403259 0.000000000000000
1.725189328193665 -7.476187705993652 0.648336887359619 0.000000000000000
1.727957248687744 -11.420193672180176 1.537019848823547 0.000000000000000
1.734953522682190 -3.308947563171387 1.001112103462219 0.000000000000000
1.746105670928955 -7.775916576385498 0.197555243968964 1.000000000000000
1.752198338508606 -11.860130310058594 0.274158984422684 0.000000000000000
1.757853865623474 -12.825978279113770 1.722749710083008 0.000000000000000
1.762748241424561 -3.333611726760864 1.010429620742798 0.000000000000000
1.762867569923401 -10.435989379882812 0.059111904352903 0.000000000000000
1.767646789550781 -12.571092605590820 1.072702884674072 0.000000000000000
1.772700667381287 -7.149239063262939 0.182587429881096 1.000000000000000
1.775719761848450 -8.853630065917969 0.571280658245087 0.000000000000000
1.792689442634583 5.306031703948975 0.192644312977791 0.000000000000000
1.798164606094360 -9.896626472473145 0.956137239933014 0.000000000000000
1.798260331153870 -5.723550796508789 0.543876528739929 1.000000000000000
1.802649378776550 -10.438397407531738 1.296892166137695 0.000000000000000
1.809891819953918 -10.876111984252930 1.349876165390015 0.000000000000000
1.810474038124084 -5.959343910217285 1.668865323066711 0.000000000000000
1.811354160308838 -5.767335414886475 0.526750981807709 0.000000000000000
1.816393971443176 4.215394020080566 1.229908227920532 0.000000000000000
1.820526957511902 -11.776190757751465 0.616153776645660 0.000000000000000
1.821025609970093 -6.931968688964844 1.920437455177307 0.000000000000000
1.830445528030396 -5.539295196533203 0.508347690105438 0.000000000000000
1.834941625595093 -5.072011947631836 1.445245623588562 0.000000000000000
1.840274095535278 -9.311969757080078 0.728708505630493 0.000000000000000
1.840388417243958 -7.623548984527588 0.632373929023743 0.000000000000000
1.849102258682251 -9.111417770385742 1.589191913604736 0.000000000000000
1.849357962608337 -7.766397476196289 0.674607157707214 1.000000000000000
1.854276061058044 -6.594143867492676 0.169800356030464 0.000000000000000
1.871647357940674 -9.907308578491211 0.958408415317535 0.000000000000000
1.874187707901001 -10.852645874023438 0.569472372531891 0.000000000000000
1.881959319114685 -9.234451293945312 0.723503470420837 0.000000000000000
1.882389783859253 -3.650344610214233 1.100498676300049 0.000000000000000
1.896527051925659 -3.486579656600952 0.528169214725494 0.000000000000000
1.896975159645081 -13.490846633911133 0.940706014633179 0.000000000000000
1.897514462471008 -13.035653114318848 0.960432827472687 0.000000000000000
1.898192167282104 -7.646771430969238 0.134774744510651 1.000000000000000
1.902188062667847 -10.783439636230469 0.756091773509979 0.000000000000000
1.903386592864990 -10.796840667724609 0.735871613025665 0.000000000000000
1.924294710159302 -9.994597434997559 2.117059946060181 0.000000000000000
1.963339567184448 -12.138134002685547 0.446572214365005 0.000000000000000
1.969608902931213 -7.327141761779785 0.661129772663116 0.000000000000000
1.971159577369690 6.395038127899170 1.793098449707031 0.000000000000000
1.977205157279968 -12.322071075439453 1.849517941474915 0.000000000000000
1.977733492851257 -2.462267398834229 0.539840042591095 0.000000000000000
1.978200078010559 -10.025531768798828 0.823982954025269 0.000000000000000
1.989245295524597 6.867609977722168 1.059631824493408 0.000000000000000
2.000862836837769 -14.610449790954590 0.989823639392853 0.000000000000000
2.003600358963013 6.329953193664551 0.983985781669617 0.000000000000000
2.005489587783813 -11.152738571166992 0.957517802715302 0.000000000000000
2.015599727630615 -7.958562374114990 0.408709675073624 0.000000000000000
2.023425340652466 -12.413371086120605 1.038454413414001 0.000000000000000
2.023513317108154 -2.501328945159912 0.549949347972870 0.000000000000000
2.025898218154907 -10.924385070800781 1.646622180938721 0.000000000000000
2.032778501510620 -8.299749374389648 0.970564901828766 0.000000000000000
2.037688493728638 3.045243978500366 0.295450747013092 0.000000000000000
2.038559436798096 -4.282002925872803 0.986440718173981 0.000000000000000
2.041821002960205 -7.897411346435547 0.710784018039703 0.000000000000000
2.064117908477783 -10.646737098693848 0.707015693187714 0.000000000000000
2.068984985351562 -10.968679428100586 1.907973766326904 0.000000000000000
2.075602293014526 -7.363956451416016 0.130875170230865 0.000000000000000
2.079813480377197 -9.403175354003906 0.702145636081696 0.000000000000000
2.082325220108032 -6.769122600555420 1.897661328315735 0.000000000000000
2.082840919494629 -8.299493789672852 1.779829144477844 0.000000000000000
2.083853006362915 -13.895269393920898 1.078672289848328 0.000000000000000
2.085442543029785 -11.468617439270020 1.727545976638794 0.000000000000000
2.091583728790283 -11.304996490478516 1.042249441146851 0.000000000000000
2.099236488342285 -13.132387161254883 2.273258924484253 0.000000000000000
2.102973699569702 -10.770679473876953 1.343557000160217 0.000000000000000
2.103402376174927 -4.850915908813477 0.903777122497559 0.000000000000000
2.103883981704712 5.318147659301758 0.317749232053757 0.000000000000000
2.103968858718872 -12.597132682800293 1.157814145088196 0.000000000000000
2.105204343795776 -14.601896286010742 1.018684864044189 0.000000000000000
2.108815670013428 -12.903181076049805 2.234843254089355 0.000000000000000
2.109151363372803 -8.496609687805176 0.932493150234222 0.000000000000000
2.110648632049561 -3.651628017425537 0.877288699150085 0.000000000000000
2.111418247222900 -5.900532722473145 1.679218053817749 0.000000000000000
2.112394571304321 -13.570026397705078 1.681390523910522 0.000000000000000
2.115476608276367 -8.396626472473145 0.922325074672699 0.000000000000000
2.115496397018433 -3.630703926086426 0.874030470848083 0.000000000000000
2.122540235519409 -12.072012901306152 1.392196416854858 0.000000000000000
2.130052089691162 -12.140834808349609 1.312946915626526 0.000000000000000
2.133935451507568 -8.346802711486816 0.917664766311646 0.000000000000000
2.142652273178101 -5.738109111785889 0.907753288745880 0.000000000000000
2.144912481307983 -14.355366706848145 0.192541882395744 0.000000000000000
2.149817466735840 -7.410336971282959 0.043094053864479 1.000000000000000
2.166564941406250 -7.832549571990967 0.736725211143494 0.000000000000000
2.170332670211792 -6.988751411437988 0.663413822650909 0.000000000000000
2.175176382064819 -13.359012603759766 1.657086014747620 0.000000000000000
2.176120042800903 -10.004074096679688 0.928129255771637 0.000000000000000
2.186827421188354 -14.802010536193848 1.264341115951538 0.000000000000000
2.187815904617310 -5.797229766845703 0.918308556079865 0.000000000000000
2.192224740982056 -6.414653778076172 1.410015583038330 0.000000000000000
2.198318719863892 -3.545248508453369 0.713047146797180 0.000000000000000
2.202067375183105 -12.364832878112793 1.193846821784973 0.000000000000000
2.202490568161011 2.601505041122437 0.324011713266373 0.000000000000000
2.204919099807739 -6.526151180267334 1.432823419570923 0.000000000000000
2.206676006317139 -14.283938407897949 0.274995654821396 0.000000000000000
2.209929227828979 -10.589407920837402 0.559351146221161 0.000000000000000
2.209934473037720 -4.250858306884766 1.283742427825928 0.000000000000000
2.216628789901733 -12.380235671997070 0.989840030670166 0.000000000000000
2.224514245986938 2.075772047042847 0.092959240078926 0.000000000000000
2.227006435394287 -7.569645404815674 1.050006747245789 0.000000000000000
2.230549812316895 -8.570570945739746 0.594429969787598 0.000000000000000
2.233167409896851 -8.576940536499023 0.611982464790344 0.000000000000000
2.234203338623047 -12.452093124389648 1.020092725753784 0.000000000000000
2.235790252685547 2.583981990814209 0.143811121582985 0.000000000000000
2.243874311447144 -11.700657844543457 1.765662312507629 0.000000000000000
2.245810985565186 -4.217007160186768 0.993771791458130 0.000000000000000
2.249783992767334 -2.058803558349609 0.251796394586563 0.000000000000000
2.256329774856567 -7.448882579803467 1.330392241477966 0.000000000000000
2.257781505584717 -8.680799484252930 0.688598930835724 0.000000000000000
2.260848760604858 -7.692608833312988 0.538174748420715 0.000000000000000
2.264223337173462 -4.216042041778564 0.995400905609131 0.000000000000000
2.274778366088867 -11.077927589416504 0.780890703201294 0.000000000000000
2.276878118515015 -14.101522445678711 1.622423410415649 0.000000000000000
2.278450250625610 6.958176612854004 1.961848497390747 0.000000000000000
2.280754089355469 -14.429447174072266 1.177945256233215 0.000000000000000
2.288015604019165 -14.313349723815918 0.164448395371437 0.000000000000000
2.289240598678589 7.214850425720215 1.121790766716003 0.000000000000000
2.295050382614136 -8.288042068481445 1.788789272308350 0.000000000000000
2.296018123626709 -13.782518386840820 1.153655290603638 0.000000000000000
2.296606302261353 -14.198520660400391 1.187557339668274 0.000000000000000
2.301824808120728 7.174508571624756 1.287932872772217 0.000000000000000
2.303840637207031 2.002416133880615 0.265979737043381 0.000000000000000
2.306369066238403 6.961184024810791 1.964954257011414 0.000000000000000
2.308101892471313 -13.249402046203613 2.298869371414185 0.000000000000000
2.319975376129150 -4.244730472564697 1.296165823936462 0.000000000000000
2.320063114166260 2.219891071319580 0.079597018659115 0.000000000000000
2.327763080596924 -2.115280866622925 0.259695887565613 0.000000000000000
2.333890676498413 -9.461966514587402 1.444312810897827 0.000000000000000
2.340918540954590 -7.667328357696533 0.661911785602570 0.000000000000000
2.347831964492798 -4.260293006896973 1.303412795066833 0.000000000000000
2.355066061019897 -7.095295429229736 0.849131405353546 0.000000000000000
2.356025695800781 7.260594367980957 1.304781794548035 0.000000000000000
2.356247186660767 2.990922927856445 0.057819835841656 0.000000000000000
2.358716011047363 2.805831193923950 0.762434780597687 0.000000000000000
2.362887382507324 2.854110956192017 0.992829918861389 0.000000000000000
2.374175786972046 2.758093118667603 0.076230406761169 0.000000000000000
2.386168479919434 -7.110054969787598 0.851840019226074 0.000000000000000
2.395761966705322 -8.559888839721680 0.357012450695038 1.000000000000000
2.397239685058594 -7.707072257995605 0.107067927718163 1.000000000000000
2.402561187744141 -10.662738800048828 2.273456573486328 0.000000000000000
2.404039859771729 -2.388314723968506 0.322119086980820 0.000000000000000
2.405965328216553 1.993149995803833 0.313499957323074 0.000000000000000
2.410449743270874 -3.865927457809448 0.606260120868683 0.000000000000000
2.417596101760864 -7.581723690032959 0.693422377109528 1.000000000000000
2.419753789901733 -8.670084953308105 0.344226360321045 1.000000000000000
2.424427986145020 -7.995786190032959 0.110834926366806 0.000000000000000
2.425009965896606 -2.393222093582153 0.708673357963562 0.000000000000000
2.425673007965088 -13.023060798645020 1.042564630508423 0.000000000000000
2.427853345870972 -7.975489616394043 0.888007998466492 0.000000000000000
2.428646564483643 -5.547862529754639 1.035198807716370 0.000000000000000
2.432818889617920 -10.377263069152832 0.735977113246918 0.000000000000000
2.433111906051636 -7.677577018737793 0.184174850583076 0.000000000000000
2.433964252471924 -14.465682983398438 1.562487363815308 0.000000000000000
2.437325477600098 -3.282819032669067 0.698894023895264 1.000000000000000
2.437547922134399 -3.307176113128662 0.702263772487640 0.000000000000000
2.440759181976318 -7.701707363128662 0.682690382003784 0.000000000000000
2.441182136535645 -9.253887176513672 0.642380774021149 0.000000000000000
2.442764759063721 1.894256711006165 0.528382718563080 0.000000000000000
2.445636749267578 2.023782253265381 0.188594281673431 0.000000000000000
2.450005292892456 2.572579622268677 0.156350642442703 0.000000000000000
2.450744867324829 -10.480061531066895 1.222460389137268 0.000000000000000
2.454912424087524 -10.102631568908691 0.858411669731140 0.000000000000000
2.456494092941284 -9.098488807678223 0.723503470420837 0.000000000000000
2.456964731216431 -9.914031028747559 0.784127116203308 0.000000000000000
2.460128784179688 -2.427880525588989 0.328553915023804 0.000000000000000
2.460458993911743 -3.838746070861816 0.200670495629311 1.000000000000000
2.460917472839355 -7.027669906616211 0.571638166904449 1.000000000000000
2.462098121643066 -10.507104873657227 0.724352717399597 0.000000000000000
2.471784830093384 -1.777858614921570 0.210239797830582 0.000000000000000
2.471987485885620 -3.797669649124146 0.077512577176094 1.000000000000000
2.472286224365234 -3.807568073272705 0.042787861078978 1.000000000000000
2.473721027374268 -13.028216361999512 1.412508845329285 0.000000000000000
2.476398229598999 3.022121667861938 0.081842981278896 0.000000000000000
2.477355718612671 -10.818433761596680 2.308483123779297 0.000000000000000
2.485776901245117 -1.810799598693848 0.230160906910896 0.000000000000000
2.494124412536621 -7.683423042297363 0.308917194604874 1.000000000000000
2.499553680419922 -11.960513114929199 0.843714594841003 0.000000000000000
2.499904394149780 -7.232353687286377 1.591664075851440 0.000000000000000
2.503895998001099 -11.681613922119141 0.158479630947113 0.000000000000000
2.507261514663696 2.794782161712646 0.317264080047607 0.000000000000000
2.508218050003052 2.060861349105835 0.192864343523979 0.000000000000000
2.510618925094604 -1.961439728736877 0.339358031749725 0.000000000000000
2.511106252670288 -3.378988742828369 0.875659584999084 0.000000000000000
2.511549472808838 -10.547278404235840 0.748652100563049 0.000000000000000
2.518728733062744 -8.048100471496582 0.566034495830536 0.000000000000000
2.522511482238770 -1.984949588775635 0.341900020837784 0.000000000000000
2.528317689895630 -8.202629089355469 0.914275348186493 0.000000000000000
2.538652658462524 -13.573020935058594 0.315767496824265 0.000000000000000
2.539416074752808 -9.932823181152344 0.806873381137848 0.000000000000000
2.542063951492310 -10.240575790405273 0.830411136150360 0.000000000000000
2.545437097549438 -8.298805236816406 0.786923646926880 0.000000000000000
2.548789739608765 -8.095550537109375 1.257836461067200 0.000000000000000
2.551805257797241 3.148856878280640 1.086004734039307 0.000000000000000
2.552477836608887 -14.628041267395020 1.411494851112366 0.000000000000000
2.563832044601440 -10.614626884460449 0.838320970535278 0.000000000000000
2.566285133361816 -10.457489013671875 0.722745418548584 0.000000000000000
2.567849159240723 6.384186267852783 1.843827009201050 0.000000000000000
2.571660280227661 -10.516661643981934 0.852065861225128 0.000000000000000
2.576875209808350 -8.044352531433105 0.290547788143158 0.000000000000000
2.584288120269775 -8.898653984069824 1.233098387718201 0.000000000000000
2.585991859436035 2.358191967010498 0.039705391973257 0.000000000000000
2.589053869247437 -8.770843505859375 0.649104356765747 0.000000000000000
2.589291334152222 -10.340472221374512 0.880135297775269 0.000000000000000
2.590269565582275 -2.390734195709229 0.469073355197906 0.000000000000000
2.590889692306519 -11.780119895935059 1.605085611343384 0.000000000000000
2.597264051437378 -1.809990048408508 0.300922065973282 0.000000000000000
2.598429679870605 -7.122876167297363 1.296020388603210 0.000000000000000
2.601944446563721 -9.590636253356934 0.609533667564392 0.000000000000000
2.604999065399170 3.032013416290283 0.291445702314377 0.000000000000000
2.608151912689209 -7.757129669189453 1.089052200317383 0.000000000000000
2.608489274978638 -10.471419334411621 1.321196794509888 0.000000000000000
2.608566522598267 -8.011210441589355 0.338391274213791 1.000000000000000
2.610291481018066 -2.392394304275513 0.471183925867081 0.000000000000000
2.612212657928467 -9.713641166687012 0.911877989768982 0.000000000000000
2.626684904098511 -10.539759635925293 0.750029802322388 0.000000000000000
2.630365848541260 -1.905886769294739 0.224292516708374 0.000000000000000
2.633915662765503 3.059834718704224 0.146631300449371 0.000000000000000
2.637286186218262 -8.663475990295410 0.712722480297089 0.000000000000000
2.639540433883667 -6.927505016326904 1.541975498199463 0.000000000000000
2.643727540969849 6.310132980346680 1.423048734664917 0.000000000000000
2.648602247238159 2.236818313598633 0.092596866190434 0.000000000000000
2.655010461807251 -2.313503265380859 0.319247573614120 0.000000000000000
2.658076524734497 -7.471345424652100 1.055283069610596 0.000000000000000
2.658343791961670 -11.168931961059570 0.947939336299896 0.000000000000000
2.665164232254028 -9.068304061889648 0.780404210090637 0.000000000000000
2.676669597625732 -10.004829406738281 0.695153534412384 0.000000000000000
2.678132534027100 -2.317254543304443 0.321053266525269 0.000000000000000
2.684636831283569 -8.743918418884277 0.869456648826599 0.000000000000000
2.684883594512939 -12.906939506530762 1.037543177604675 0.000000000000000
2.686586618423462 2.660826921463013 0.144599527120590 0.000000000000000
2.686651229858398 -9.362068176269531 0.484882861375809 0.000000000000000
2.687991619110107 -4.368925571441650 0.876818835735321 0.000000000000000
2.690885782241821 -10.227222442626953 0.832294166088104 0.000000000000000
2.691039323806763 -11.133625984191895 0.768821060657501 0.000000000000000
2.691405773162842 -1.752765297889709 0.279869019985199 0.000000000000000
2.695369482040405 -2.082316398620605 0.308774501085281 0.000000000000000
2.697206020355225 3.448418617248535 0.133758693933487 0.000000000000000
2.697388648986816 -14.300148010253906 1.319243669509888 0.000000000000000
2.699007034301758 -1.655120134353638 0.541187942028046 0.000000000000000
2.699020385742188 -13.400131225585938 0.917495548725128 0.000000000000000
2.704872369766235 3.969362497329712 0.211398720741272 1.000000000000000
2.705538272857666 -12.099911689758301 1.649935126304626 0.000000000000000
2.706598997116089 3.977856636047363 0.211750477552414 0.000000000000000
2.707380294799805 -7.502777099609375 1.363416075706482 0.000000000000000
2.708126068115234 3.157284021377563 0.191069468855858 0.000000000000000
2.710381984710693 1.391214489936829 0.239771023392677 0.000000000000000
2.711091756820679 -8.378198623657227 0.421438276767731 0.000000000000000
2.712870597839355 -13.641006469726562 1.702778577804565 0.000000000000000
2.714128017425537 -2.092500448226929 0.918290019035339 0.000000000000000
2.718471765518188 -2.335614681243896 0.612627446651459 0.000000000000000
2.720165014266968 -1.967045545578003 0.319090962409973 0.000000000000000
2.722407102584839 -11.277186393737793 0.399039119482040 0.000000000000000
2.725326776504517 -5.294726371765137 0.882537961006165 0.000000000000000
2.725393295288086 2.718173980712891 0.147198051214218 0.000000000000000
2.725976467132568 -8.809469223022461 0.210877448320389 0.000000000000000
2.727646112442017 -13.345992088317871 1.072065114974976 0.000000000000000
2.733222961425781 2.280388355255127 0.054054260253906 0.000000000000000
2.733548641204834 -11.134051322937012 0.791636884212494 0.000000000000000
2.734067678451538 -12.135962486267090 1.843653917312622 0.000000000000000
2.734525203704834 1.560947656631470 0.144632801413536 1.000000000000000
2.738566875457764 -8.436454772949219 1.180334091186523 0.000000000000000
2.738570213317871 -9.164143562316895 1.170994520187378 0.000000000000000
2.739450693130493 -9.279145240783691 0.798836350440979 0.000000000000000
2.743135690689087 2.189190387725830 0.318164169788361 0.000000000000000
2.743147373199463 3.038671970367432 0.290567666292191 0.000000000000000
2.748556137084961 -1.672331094741821 0.549949347972870 0.000000000000000
2.751154184341431 -6.655667781829834 1.497988820075989 0.000000000000000
2.751881837844849 -11.380125999450684 0.808445096015930 0.000000000000000
2.755594730377197 1.517156481742859 0.466191112995148 0.000000000000000
2.756509065628052 1.585640311241150 0.319091022014618 0.000000000000000
2.756984949111938 -12.041492462158203 1.830753087997437 0.000000000000000
2.760820150375366 1.563204884529114 0.145734071731567 0.000000000000000
2.760991334915161 -9.605938911437988 0.709426939487457 0.000000000000000
2.761670589447021 5.015368938446045 0.274011373519897 0.000000000000000
2.764369010925293 -2.115890741348267 0.932783842086792 0.000000000000000
2.764524936676025 -10.138762474060059 0.952686727046967 0.000000000000000
2.772357463836670 2.845111370086670 0.167190939188004 0.000000000000000
2.776038169860840 -3.087867975234985 0.361815780401230 0.000000000000000
2.776066064834595 -7.857666969299316 1.733398675918579 0.000000000000000
2.776628971099854 -8.761529922485352 1.223073124885559 0.000000000000000
2.777201890945435 4.019628524780273 0.149272263050079 0.000000000000000
2.778880119323730 -2.404426097869873 0.628128468990326 0.000000000000000
2.779618263244629 2.917765378952026 1.079793214797974 0.000000000000000
2.784264326095581 -3.124550342559814 0.353638321161270 0.000000000000000
2.789277791976929 2.908532381057739 1.079793214797974 0.000000000000000
2.789952516555786 -8.175781250000000 1.476641058921814 0.000000000000000
2.790076255798340 3.452597618103027 0.092984348535538 0.000000000000000
2.795011758804321 -10.544406890869141 0.774280726909637 0.000000000000000
2.796567201614380 3.278065681457520 0.247694313526154 0.000000000000000
2.799943923950195 -8.062086105346680 0.162379831075668 1.000000000000000
2.801738023757935 2.370922565460205 0.112137429416180 0.000000000000000
2.803011178970337 -14.733014106750488 0.285344153642654 0.000000000000000
2.803331375122070 1.520565986633301 0.472641587257385 0.000000000000000
2.804664611816406 -1.758135080337524 0.196659952402115 0.000000000000000
2.805996417999268 -9.789543151855469 0.703187346458435 0.000000000000000
2.813053846359253 5.779389381408691 0.560085237026215 1.000000000000000
2.814591884613037 -14.264370918273926 0.500105202198029 0.000000000000000
2.815257787704468 -4.999133586883545 0.850285708904266 0.000000000000000
2.815407276153564 7.741994857788086 1.220892906188965 0.000000000000000
2.817507028579712 2.184852838516235 0.323220103979111 0.000000000000000
2.821650981903076 -1.880668997764587 0.502548158168793 0.000000000000000
2.823274374008179 2.988765478134155 0.070329152047634 0.000000000000000
2.823846340179443 -9.276325225830078 0.613457441329956 0.000000000000000
2.826004743576050 4.093164920806885 0.142410606145859 0.000000000000000
2.829380512237549 -13.475311279296875 1.136868953704834 0.000000000000000
2.829575777053833 -1.425109028816223 0.658984720706940 1.000000000000000
2.832917690277100 2.913968563079834 0.178862318396568 0.000000000000000
2.833387136459351 6.393606185913086 1.873849987983704 0.000000000000000
2.835890531539917 2.677271127700806 0.353555858135223 0.000000000000000
2.838543415069580 -9.262478828430176 1.186063289642334 0.000000000000000
2.839200973510742 2.984689950942993 0.070465981960297 0.000000000000000
2.840503215789795 2.874618291854858 0.294645190238953 0.000000000000000
2.841490030288696 6.351934432983398 1.864532470703125 0.000000000000000
2.845597267150879 -7.320466995239258 1.342523455619812 0.000000000000000
2.854258060455322 -8.689453125000000 0.631546020507812 0.000000000000000
2.858394622802734 -13.715847015380859 1.129721403121948 0.000000000000000
2.858407735824585 -1.402299642562866 0.662243008613586 0.000000000000000
2.859027624130249 -13.698526382446289 0.858342945575714 0.000000000000000
2.861379146575928 -2.240545034408569 0.755918204784393 0.000000000000000
2.864476919174194 -10.464302062988281 2.907055616378784 0.000000000000000
2.864727497100830 3.064743995666504 0.717090845108032 0.000000000000000
2.867306709289551 2.686372995376587 0.150255113840103 0.000000000000000
2.877250194549561 2.979376077651978 1.109816074371338 0.000000000000000
2.878841161727905 -9.054412841796875 1.163216948509216 0.000000000000000
2.881685972213745 -12.634782791137695 1.586602687835693 0.000000000000000
2.885939836502075 2.708941459655762 0.376247197389603 0.000000000000000
2.887281417846680 -8.206195831298828 1.157645583152771 0.000000000000000
2.894911527633667 1.509502410888672 0.874808371067047 0.000000000000000
2.895545005798340 1.319088459014893 0.543883740901947 0.000000000000000
2.896731376647949 1.497612833976746 0.873773157596588 1.000000000000000
2.898118972778320 -9.203979492187500 2.007093429565430 0.000000000000000
2.901134252548218 7.824323177337646 1.236725926399231 0.000000000000000
2.901530265808105 -8.938481330871582 0.648905277252197 0.000000000000000
2.902827024459839 -12.632864952087402 0.820047914981842 0.000000000000000
2.902918100357056 -1.321651220321655 0.201791897416115 0.000000000000000
2.908417701721191 -1.313873171806335 0.855138182640076 1.000000000000000
2.909170866012573 1.527218461036682 0.683421790599823 0.000000000000000
2.909988164901733 -1.885871887207031 0.293014615774155 0.000000000000000
2.910129308700562 -3.640371322631836 0.467654049396515 0.000000000000000
2.910384178161621 -8.800704956054688 0.930116355419159 0.000000000000000
2.911283254623413 -10.024618148803711 0.882075011730194 0.000000000000000
2.914733886718750 -1.441437244415283 0.283341348171234 0.000000000000000
2.915342569351196 -1.742102384567261 0.910007834434509 0.000000000000000
2.916765689849854 -1.956366539001465 0.941066086292267 0.000000000000000
2.919689893722534 -3.627600193023682 0.467254728078842 0.000000000000000
2.921853542327881 -3.903165340423584 1.014135956764221 0.000000000000000
2.924821615219116 -9.782428741455078 0.724719941616058 0.000000000000000
2.926663398742676 -11.106801986694336 0.218535572290421 0.000000000000000
2.928603649139404 2.597577333450317 0.104558631777763 0.000000000000000
2.929854154586792 1.410547375679016 0.398108959197998 1.000000000000000
2.931153774261475 -13.502342224121094 1.691598534584045 0.000000000000000
2.931653499603271 2.411432266235352 0.174366965889931 0.000000000000000
2.934145927429199 -1.313182950019836 0.861349821090698 0.000000000000000
2.935001373291016 -2.330593585968018 0.779540657997131 0.000000000000000
2.936307907104492 -14.331238746643066 1.123068451881409 0.000000000000000
2.936339378356934 -9.583988189697266 0.075228571891785 0.000000000000000
2.937835454940796 -9.383826255798340 0.830881595611572 0.000000000000000
2.943002939224243 -10.066890716552734 0.913914740085602 0.000000000000000
2.943026781082153 -1.984423995018005 0.272500246763229 0.000000000000000
2.948215723037720 2.654401063919067 0.825156390666962 0.000000000000000
2.948491811752319 -14.379217147827148 1.797080397605896 0.000000000000000
2.951996326446533 -8.117594718933105 0.330316692590714 1.000000000000000
2.955879211425781 -13.939804077148438 1.149010896682739 0.000000000000000
2.956247329711914 1.684710025787354 0.416580438613892 0.000000000000000
2.956330060958862 -11.475888252258301 1.756279826164246 0.000000000000000
2.956389188766479 -12.663266181945801 1.023420572280884 0.000000000000000
2.959647893905640 -14.181864738464355 0.972411334514618 0.000000000000000
2.960964918136597 7.287970066070557 2.107822418212891 0.000000000000000
2.961480617523193 7.145762920379639 2.072623014450073 0.000000000000000
2.969241619110107 1.596232771873474 0.576233685016632 0.000000000000000
2.969873189926147 -8.323818206787109 0.627297699451447 1.000000000000000
2.971445083618164 7.912114620208740 1.252558827400208 0.000000000000000
2.973286390304565 3.712066173553467 0.337579578161240 0.000000000000000
2.975019693374634 7.855748176574707 1.747246503829956 0.000000000000000
2.978945970535278 7.117562294006348 2.067446708679199 0.000000000000000
2.979270935058594 2.068950891494751 0.075979106128216 0.000000000000000
2.984784603118896 1.725627422332764 0.291330605745316 0.000000000000000
2.987391233444214 -0.878783822059631 0.296001344919205 0.000000000000000
2.993536710739136 3.251572370529175 0.655013203620911 0.000000000000000
2.994246482849121 1.717182993888855 0.291667401790619 0.000000000000000
2.996752738952637 -9.658260345458984 1.238075137138367 0.000000000000000
2.999971151351929 8.368933677673340 2.382170677185059 0.000000000000000
3.000207901000977 3.188424348831177 0.396892637014389 0.000000000000000
3.000599861145020 -12.957805633544922 1.628406524658203 0.000000000000000
3.007273674011230 6.230831146240234 0.491076350212097 1.000000000000000
3.009818553924561 -9.546505928039551 1.004397988319397 0.000000000000000
3.010937929153442 -10.167362213134766 0.923984408378601 0.000000000000000
3.012447834014893 -14.187064170837402 0.973482847213745 0.000000000000000
3.013390302658081 -0.078486070036888 0.286538362503052 0.000000000000000
3.016273498535156 -8.669351577758789 1.221490144729614 0.000000000000000
3.017318725585938 1.601705074310303 0.163488984107971 0.000000000000000
3.018069028854370 -13.347684860229492 0.865760505199432 0.000000000000000
3.019838571548462 -13.505548477172852 0.955585360527039 0.000000000000000
3.022411823272705 2.856953382492065 0.865070223808289 0.000000000000000
3.025163173675537 -2.044418334960938 0.978336036205292 0.000000000000000
3.025295495986938 1.394616484642029 0.334266811609268 0.000000000000000
3.026099681854248 -12.855412483215332 0.937406420707703 0.000000000000000
3.028814554214478 0.688463866710663 0.460327088832855 0.000000000000000
3.029453277587891 3.399467229843140 0.244215264916420 0.000000000000000
3.029863357543945 2.078166961669922 0.320147931575775 0.000000000000000
3.030685663223267 0.545415759086609 0.279161065816879 0.000000000000000
3.031796932220459 8.365676879882812 2.384241342544556 0.000000000000000
3.032016515731812 0.333023488521576 0.289945036172867 0.000000000000000
3.032022237777710 -6.405030727386475 0.804891765117645 1.000000000000000
3.034221887588501 -12.794760704040527 1.400646209716797 0.000000000000000
3.035064697265625 -11.063216209411621 0.020022407174110 0.000000000000000
3.035974979400635 1.474583864212036 0.500202536582947 0.000000000000000
3.037406444549561 -14.601609230041504 0.943547546863556 0.000000000000000
3.038297653198242 -1.832239508628845 0.337259829044342 0.000000000000000
3.039210319519043 2.717177391052246 0.847964286804199 0.000000000000000
3.040209531784058 3.412496805191040 0.227525010704994 0.000000000000000
3.042217493057251 2.799323797225952 1.107745528221130 0.000000000000000
3.046180248260498 7.948840141296387 1.455074429512024 0.000000000000000
3.048912525177002 3.335010766983032 0.669673323631287 0.000000000000000
3.048956394195557 -2.108994007110596 0.352400571107864 0.000000000000000
3.053534746170044 -1.290554404258728 0.888266980648041 0.000000000000000
3.056766271591187 1.354701399803162 0.571516036987305 0.000000000000000
3.058255434036255 1.060927987098694 0.553319156169891 0.000000000000000
3.059136867523193 2.197243452072144 0.107838250696659 0.000000000000000
3.059453725814819 -0.586832344532013 0.282411336898804 0.000000000000000
3.060702562332153 7.996757030487061 1.268978118896484 0.000000000000000
3.060831546783447 2.752311229705811 0.703611671924591 0.000000000000000
3.061030626296997 -4.602688789367676 0.819206297397614 0.000000000000000
3.064869403839111 -9.853487014770508 2.146384239196777 0.000000000000000
3.067735910415649 -2.985535383224487 0.406907200813293 0.000000000000000
3.069398641586304 1.052806854248047 0.554667055606842 0.000000000000000
3.071836471557617 1.644414186477661 0.371133118867874 0.000000000000000
3.072079420089722 -0.915359616279602 0.304707258939743 0.000000000000000
3.073078155517578 1.658904910087585 0.371980428695679 0.000000000000000
3.081247806549072 6.760868549346924 1.990836143493652 0.000000000000000
3.083483219146729 -6.455375671386719 0.812565982341766 1.000000000000000
3.084669589996338 -1.554666280746460 0.198568671941757 1.000000000000000
3.087133169174194 -10.111442565917969 0.709619224071503 0.000000000000000
3.088928699493408 2.149902582168579 0.782798945903778 0.000000000000000
3.088964223861694 -13.532701492309570 1.146084904670715 0.000000000000000
3.089128017425537 -2.120876550674438 0.356185764074326 0.000000000000000
3.090476512908936 1.801734209060669 0.324303537607193 0.000000000000000
3.091510295867920 -1.312013506889343 0.446912407875061 0.000000000000000
3.094340801239014 0.277142882347107 0.088949382305145 0.000000000000000
3.095424890518188 2.381560564041138 0.519726932048798 0.000000000000000
3.096406698226929 2.765786170959473 0.709677338600159 0.000000000000000
3.098661899566650 -12.651706695556641 0.247830897569656 0.000000000000000
3.099263906478882 0.546596229076385 0.285300433635712 0.000000000000000
3.105277776718140 -1.618710160255432 0.428732722997665 0.000000000000000
3.107093334197998 -11.933433532714844 1.640965223312378 0.000000000000000
3.110263586044312 2.180906534194946 0.790130019187927 0.000000000000000
3.110924720764160 8.033755302429199 1.472597360610962 0.000000000000000
3.111778974533081 -0.309938669204712 0.283494740724564 0.000000000000000
3.113711118698120 1.702024579048157 0.606561779975891 0.000000000000000
3.114218235015869 1.757351875305176 0.033702507615089 1.000000000000000
3.115794658660889 1.687797188758850 0.244682759046555 0.000000000000000
3.119450569152832 2.123639583587646 0.328828722238541 0.000000000000000
3.120570898056030 1.805441379547119 0.326831519603729 0.000000000000000
3.122019052505493 0.757546544075012 0.147569507360458 0.000000000000000
3.124193191528320 -9.789979934692383 1.031155228614807 0.000000000000000
3.125631332397461 2.856996059417725 1.134662747383118 0.000000000000000
3.126442909240723 0.277268260717392 0.089865207672119 0.000000000000000
3.127644777297974 3.106860160827637 1.181250095367432 0.000000000000000
3.130216836929321 3.087786197662354 1.178144335746765 0.000000000000000
3.131821393966675 1.457000970840454 0.925536930561066 0.000000000000000
3.133452892303467 -1.177662611007690 0.572189986705780 0.000000000000000
3.134298324584961 -1.337602734565735 0.913113594055176 0.000000000000000
3.134605646133423 2.948846101760864 0.458408683538437 0.000000000000000
3.135245323181152 -0.079416207969189 0.314698040485382 1.000000000000000
3.135670185089111 3.496726751327515 0.260944873094559 0.000000000000000
3.138281822204590 0.622991740703583 0.665501296520233 0.000000000000000
3.144565105438232 -0.302122533321381 0.286383867263794 0.000000000000000
3.149848699569702 -13.188995361328125 0.049699887633324 0.000000000000000
3.149889230728149 2.859052896499634 1.139839172363281 0.000000000000000
3.151620864868164 -1.259792804718018 0.307691097259521 0.000000000000000
3.157574892044067 2.131576538085938 0.218999430537224 0.000000000000000
3.160685539245605 1.313661813735962 0.343452155590057 0.000000000000000
3.161484718322754 3.072048664093018 0.261896967887878 0.000000000000000
3.169917821884155 -10.006177902221680 0.866640329360962 0.000000000000000
3.172871828079224 -0.919462919235229 0.331471294164658 0.000000000000000
3.173071384429932 -2.490331888198853 0.340839982032776 0.000000000000000
3.179651975631714 7.867548465728760 0.194051161408424 1.000000000000000
3.180018186569214 3.129581689834595 0.404476553201675 0.000000000000000
3.182207822799683 -9.749805450439453 1.519958972930908 0.000000000000000
3.183565855026245 -1.338640093803406 0.459575802087784 0.000000000000000
3.183596134185791 2.473814010620117 0.404554694890976 0.000000000000000
3.183827161788940 -1.715317726135254 0.535973191261292 1.000000000000000
3.183991432189941 2.885650873184204 0.636834681034088 0.000000000000000
3.184741735458374 -0.975740194320679 0.185057863593102 0.000000000000000
3.186272144317627 -2.255839586257935 0.353916972875595 0.000000000000000
3.187124013900757 -1.327846765518188 0.225089639425278 0.000000000000000
3.189831018447876 -1.463180780410767 0.215259194374084 0.000000000000000
3.190368890762329 2.001935005187988 0.107838250696659 0.000000000000000
3.191414356231689 -2.484806060791016 0.352440536022186 0.000000000000000
3.192534923553467 1.756419301033020 0.244576185941696 0.000000000000000
3.201443672180176 -1.112605690956116 0.136127054691315 0.000000000000000
3.202662944793701 -1.560244321823120 0.310425430536270 0.000000000000000
3.203055620193481 0.351809650659561 0.191440984606743 0.000000000000000
