# This PCD file was generated using the MATLAB® pcwrite function
# from Computer Vision Toolbox®.
# .PCD v.7 - Point Cloud Data file format
VERSION .7
FIELDS x y z intensity
SIZE 8 8 8 8
TYPE F F F F
COUNT 1 1 1 1
WIDTH 647
HEIGHT 1
VIEWPOINT 0 0 0 1 0 0 0
POINTS 647
DATA ascii
11.937747955322266 -6.511104583740234 1.070182085037231 0.000000000000000
11.938920021057129 2.967633008956909 1.234431028366089 0.000000000000000
11.940113067626953 -0.019172228872776 0.433651238679886 0.000000000000000
11.942461967468262 0.082540266215801 1.040654420852661 0.000000000000000
11.943189620971680 -1.300396442413330 0.852728307247162 0.000000000000000
11.944168090820312 -1.114124774932861 0.758929431438446 0.000000000000000
11.944535255432129 -2.611100435256958 1.226843118667603 0.000000000000000
11.944587707519531 -3.114004373550415 1.511258602142334 0.000000000000000
11.946387290954590 -2.336859941482544 0.418702304363251 0.000000000000000
11.948847770690918 2.793560981750488 0.563664138317108 0.000000000000000
11.950312614440918 -1.946659803390503 0.626068413257599 0.000000000000000
11.953616142272949 0.610147058963776 0.595860898494720 0.000000000000000
11.956018447875977 -0.143155753612518 0.273427397012711 0.000000000000000
11.956960678100586 -1.259259104728699 0.992703080177307 0.000000000000000
11.962035179138184 -2.631337642669678 1.629884839057922 0.000000000000000
11.968477249145508 -2.986739397048950 0.637842059135437 0.000000000000000
11.968540191650391 0.986518204212189 0.597849786281586 0.000000000000000
11.969197273254395 -0.380747526884079 0.988753378391266 0.000000000000000
11.971335411071777 3.014991521835327 1.829580307006836 0.000000000000000
11.978542327880859 -8.122590065002441 0.887729883193970 0.000000000000000
11.980667114257812 3.853955745697021 0.820471227169037 0.000000000000000
11.981075286865234 -4.794028282165527 0.841288745403290 0.000000000000000
11.981254577636719 -1.328881263732910 0.948727488517761 0.000000000000000
11.982072830200195 0.427008807659149 0.389359235763550 0.000000000000000
11.982436180114746 -5.862875461578369 1.268036365509033 0.000000000000000
11.982629776000977 3.413797140121460 0.716224551200867 0.000000000000000
11.983752250671387 -6.666783332824707 0.788306117057800 0.000000000000000
11.984583854675293 -8.261128425598145 0.025405000895262 0.000000000000000
11.985748291015625 -2.502643346786499 0.303519368171692 0.000000000000000
11.987777709960938 -3.574167251586914 0.262031584978104 0.000000000000000
11.987888336181641 -2.752419948577881 0.944259226322174 0.000000000000000
11.989365577697754 -8.721659660339355 2.197255611419678 0.000000000000000
11.990533828735352 -4.207954883575439 0.339415043592453 0.000000000000000
11.991051673889160 -1.445131182670593 1.478690385818481 0.000000000000000
11.992302894592285 -2.188236713409424 0.372447758913040 0.000000000000000
11.994764328002930 -1.530607104301453 0.439168035984039 0.000000000000000
11.995495796203613 -4.203583240509033 1.208230495452881 0.000000000000000
11.995508193969727 -3.213289022445679 0.857491850852966 0.000000000000000
11.995556831359863 -3.348317146301270 0.667950093746185 0.000000000000000
11.996649742126465 2.145139932632446 0.161663025617599 0.000000000000000
12.001392364501953 2.444329500198364 0.704057931900024 0.000000000000000
12.001582145690918 0.650822758674622 0.459630876779556 0.000000000000000
12.005784034729004 -5.678184986114502 1.625976204872131 0.000000000000000
12.007287979125977 -1.809929847717285 0.161079406738281 0.000000000000000
12.013775825500488 -2.144089937210083 0.772062361240387 0.000000000000000
12.014410972595215 7.863810062408447 2.128059864044189 0.000000000000000
12.015931129455566 0.589571475982666 0.367561578750610 0.000000000000000
12.016976356506348 3.457620382308960 0.622511565685272 0.000000000000000
12.018632888793945 -5.049205780029297 1.480675816535950 0.000000000000000
12.019302368164062 -0.381498068571091 0.506114244461060 0.000000000000000
12.021212577819824 -2.307958126068115 0.421039879322052 0.000000000000000
12.024348258972168 2.422571659088135 0.587030649185181 0.000000000000000
12.024385452270508 -2.531524419784546 0.021446594968438 0.000000000000000
12.025172233581543 -0.828017711639404 0.391436517238617 0.000000000000000
12.026450157165527 2.381518840789795 0.021397724747658 0.000000000000000
12.027799606323242 -3.494854450225830 0.262366652488708 0.000000000000000
12.030081748962402 -2.484303712844849 0.045023113489151 0.000000000000000
12.030111312866211 -2.998551607131958 0.664950966835022 0.000000000000000
12.036311149597168 -2.647676467895508 1.041380643844604 0.000000000000000
12.037309646606445 -8.618185997009277 0.680031120777130 0.000000000000000
12.037730216979980 2.233671665191650 0.138900801539421 0.000000000000000
12.038657188415527 0.988488554954529 0.461923658847809 0.000000000000000
12.039356231689453 -1.070671439170837 0.997969448566437 0.000000000000000
12.041093826293945 1.073367953300476 0.276445180177689 0.000000000000000
12.044131278991699 -6.923444747924805 1.700834155082703 0.000000000000000
12.056844711303711 4.792150974273682 1.922818422317505 0.000000000000000
12.069766044616699 -8.811431884765625 0.916627049446106 0.000000000000000
12.070904731750488 1.086220383644104 0.323715239763260 0.000000000000000
12.071895599365234 -4.574595451354980 0.518502771854401 0.000000000000000
12.073987007141113 -2.565083503723145 0.116337738931179 0.000000000000000
12.076156616210938 -4.823273658752441 1.073672890663147 0.000000000000000
12.078980445861816 -1.335238933563232 0.979906320571899 0.000000000000000
12.080613136291504 -0.320139884948730 0.415677219629288 0.000000000000000
12.082406997680664 -3.376196622848511 0.262785494327545 0.000000000000000
12.085544586181641 -3.150752305984497 1.031213164329529 0.000000000000000
12.085970878601074 5.096865653991699 1.943928956985474 0.000000000000000
12.086825370788574 -2.522427797317505 0.900223970413208 0.000000000000000
12.088953971862793 -0.272647678852081 0.439168035984039 0.000000000000000
12.088972091674805 7.137444019317627 0.509870469570160 0.000000000000000
12.093690872192383 -0.420624524354935 2.517012357711792 0.000000000000000
12.095420837402344 3.089379310607910 1.186655044555664 0.000000000000000
12.097975730895996 -1.656786203384399 2.087246656417847 0.000000000000000
12.099884986877441 -8.617388725280762 0.625199973583221 0.000000000000000
12.103732109069824 -7.378873348236084 0.487592279911041 0.000000000000000
12.104039192199707 -4.037977695465088 1.359126687049866 0.000000000000000
12.108789443969727 -7.720687866210938 1.758193016052246 0.000000000000000
12.110853195190430 -1.502476453781128 0.631025731563568 0.000000000000000
12.111671447753906 -2.228589296340942 0.470942020416260 0.000000000000000
12.118330955505371 -6.079257965087891 0.622765362262726 0.000000000000000
12.123061180114746 -3.970390796661377 1.890566349029541 0.000000000000000
12.130387306213379 -3.938125848770142 0.880637466907501 0.000000000000000
12.132634162902832 -6.499464511871338 0.473429232835770 0.000000000000000
12.133219718933105 6.442664623260498 0.710342884063721 0.000000000000000
12.134691238403320 -5.736560344696045 1.108233213424683 0.000000000000000
12.135791778564453 -5.228507041931152 0.759611248970032 0.000000000000000
12.136198997497559 -3.549102544784546 1.268776178359985 0.000000000000000
12.136246681213379 4.278131484985352 1.062481999397278 0.000000000000000
12.137893676757812 -4.587011814117432 0.971093952655792 0.000000000000000
12.138478279113770 -0.878402113914490 0.208182513713837 0.000000000000000
12.141155242919922 2.578690052032471 0.021663015708327 0.000000000000000
12.143843650817871 -0.189074680209160 1.486953973770142 0.000000000000000
12.148046493530273 2.263792514801025 1.076766490936279 0.000000000000000
12.149143218994141 3.700228214263916 0.778998315334320 0.000000000000000
12.153413772583008 -1.845842480659485 0.281108975410461 0.000000000000000
12.154664039611816 -0.175660923123360 0.698778033256531 0.000000000000000
12.155237197875977 -1.205969333648682 0.843439102172852 0.000000000000000
12.161852836608887 -2.809126138687134 0.669449687004089 0.000000000000000
12.162631034851074 -3.678601264953613 1.024593591690063 0.000000000000000
12.165616989135742 -3.623490810394287 0.876504361629486 0.000000000000000
12.166604042053223 1.091407537460327 0.115131385624409 0.000000000000000
12.168942451477051 -3.763658046722412 0.879535317420959 0.000000000000000
12.172225952148438 5.294912815093994 0.609733760356903 0.000000000000000
12.172963142395020 -1.840552687644958 0.897606253623962 0.000000000000000
12.177074432373047 3.064999341964722 0.939749121665955 0.000000000000000
12.177571296691895 -0.271244198083878 1.029255867004395 0.000000000000000
12.177577018737793 -5.461583614349365 0.510378301143646 0.000000000000000
12.178600311279297 1.094195961952209 0.091769255697727 0.000000000000000
12.179023742675781 -4.033015251159668 2.668521881103516 0.000000000000000
12.181114196777344 2.837321519851685 0.141895726323128 0.000000000000000
12.183695793151855 3.382962703704834 0.946316540241241 0.000000000000000
12.185706138610840 -8.499601364135742 0.568156957626343 0.000000000000000
12.187652587890625 1.314969897270203 0.728282332420349 0.000000000000000
12.190079689025879 -4.133703708648682 1.575908660888672 0.000000000000000
12.190640449523926 -7.973989486694336 1.146444439888000 0.000000000000000
12.192078590393066 -3.357342004776001 0.873197793960571 0.000000000000000
12.195798873901367 -4.130897045135498 2.678296566009521 0.000000000000000
12.196078300476074 -0.429732501506805 0.325958043336868 0.000000000000000
12.196966171264648 -2.176784038543701 0.975089728832245 0.000000000000000
12.201164245605469 -4.023104667663574 1.368447422981262 0.000000000000000
12.212228775024414 0.435210943222046 0.021327912807465 0.000000000000000
12.215628623962402 2.860879898071289 0.214613378047943 0.000000000000000
12.216772079467773 -7.481755256652832 1.248299241065979 0.000000000000000
12.216809272766113 -2.529757261276245 0.021774716675282 0.000000000000000
12.218564033508301 -2.310709476470947 0.786710619926453 0.000000000000000
12.219311714172363 -2.781093835830688 0.841149210929871 0.000000000000000
12.219909667968750 -6.676904678344727 1.042142271995544 0.000000000000000
12.221198081970215 -3.593649864196777 1.076407670974731 0.000000000000000
12.221666336059570 -5.791776657104492 0.725362122058868 0.000000000000000
12.224524497985840 -2.506666421890259 0.909822523593903 0.000000000000000
12.227812767028809 -0.506297349929810 0.373913586139679 0.000000000000000
12.229169845581055 -0.318523347377777 0.256251484155655 0.000000000000000
12.229672431945801 -7.857942581176758 0.751653909683228 0.000000000000000
12.231437683105469 3.072775125503540 0.336851805448532 0.000000000000000
12.231636047363281 -4.395462512969971 1.729609012603760 0.000000000000000
12.234485626220703 2.905422449111938 0.577613472938538 0.000000000000000
12.238022804260254 -1.400621533393860 0.969440698623657 0.000000000000000
12.240056991577148 2.651318311691284 0.045902755111456 0.000000000000000
12.242215156555176 -3.463274717330933 1.075060486793518 0.000000000000000
12.244599342346191 -2.677366971969604 0.503413200378418 0.000000000000000
12.245801925659180 -7.571430206298828 0.938610732555389 0.000000000000000
12.246180534362793 4.919955730438232 2.745090961456299 0.000000000000000
12.247404098510742 -1.519416928291321 0.258513242006302 0.000000000000000
12.247620582580566 7.193687915802002 2.954434633255005 0.000000000000000
12.248580932617188 2.660320520401001 0.865482568740845 0.000000000000000
12.250877380371094 -2.643810033798218 0.527475655078888 0.000000000000000
12.251214981079102 -3.606193065643311 0.660356581211090 0.000000000000000
12.251536369323730 0.327665120363235 0.044920485466719 0.000000000000000
12.251646041870117 0.278884500265121 0.846194505691528 0.000000000000000
12.252145767211914 5.200229644775391 0.893386185169220 0.000000000000000
12.252424240112305 4.338332653045654 2.703548192977905 0.000000000000000
12.253990173339844 -2.601983785629272 0.142122626304626 0.000000000000000
12.256772041320801 0.024386888369918 0.280285924673080 0.000000000000000
12.259398460388184 -7.415199756622314 0.492817431688309 0.000000000000000
12.261833190917969 0.058210995048285 0.799393415451050 0.000000000000000
12.265207290649414 -2.425907373428345 0.911567687988281 0.000000000000000
12.270928382873535 -0.931055963039398 0.210508570075035 0.000000000000000
12.271238327026367 -0.074747495353222 0.776355803012848 0.000000000000000
12.273708343505859 -0.361273556947708 0.469566345214844 0.000000000000000
12.275525093078613 -0.318444341421127 0.092159509658813 0.000000000000000
12.277404785156250 -0.339501351118088 0.493300020694733 0.000000000000000
12.277531623840332 -1.517497897148132 0.473081976175308 0.000000000000000
12.278079986572266 -7.839484214782715 0.501067757606506 0.000000000000000
12.281706809997559 -4.885994911193848 1.151768684387207 0.000000000000000
12.285470008850098 8.164305686950684 2.186113834381104 0.000000000000000
12.289096832275391 -1.942444443702698 1.027263402938843 0.000000000000000
12.290808677673340 5.516492843627930 0.463391393423080 0.000000000000000
12.297686576843262 -4.702917575836182 0.756856501102448 0.000000000000000
12.299766540527344 -3.849326372146606 0.641604602336884 0.000000000000000
12.300911903381348 5.864331245422363 3.651419162750244 0.000000000000000
12.302134513854980 -4.713973045349121 0.503805577754974 0.000000000000000
12.305748939514160 -3.863701343536377 0.990186274051666 0.000000000000000
12.311471939086914 -4.881665229797363 0.023115128278732 0.000000000000000
12.315929412841797 -5.320904254913330 1.133663415908813 0.000000000000000
12.317027091979980 -2.291943788528442 0.768467962741852 1.000000000000000
12.317434310913086 -2.021251678466797 0.213518753647804 0.000000000000000
12.317570686340332 2.581804990768433 0.263623178005219 0.000000000000000
12.319283485412598 5.185130596160889 1.980872511863708 0.000000000000000
12.321348190307617 -3.409834384918213 1.006159543991089 0.000000000000000
12.321900367736816 -1.959534525871277 0.285315543413162 0.000000000000000
12.324007987976074 4.509460449218750 2.729614257812500 0.000000000000000
12.324406623840332 -7.209305763244629 1.900037169456482 0.000000000000000
12.326524734497070 2.561225652694702 0.747972011566162 0.000000000000000
12.330845832824707 -3.706938982009888 0.963630855083466 0.000000000000000
12.331388473510742 1.546446681022644 1.181355714797974 0.000000000000000
12.333873748779297 -8.279897689819336 0.140012428164482 0.000000000000000
12.334007263183594 -7.361590862274170 1.441301107406616 0.000000000000000
12.336071014404297 -2.756082296371460 0.897191405296326 0.000000000000000
12.338079452514648 5.254498958587646 1.107245802879333 0.000000000000000
12.338693618774414 -0.835975289344788 1.645714044570923 0.000000000000000
12.338892936706543 -3.943063974380493 1.231320142745972 0.000000000000000
12.340300559997559 -3.732337474822998 0.443453192710876 0.000000000000000
12.342286109924316 -3.959347963333130 1.095268368721008 0.000000000000000
12.342480659484863 -3.293770074844360 1.214286804199219 0.000000000000000
12.342883110046387 -7.466579437255859 1.107453227043152 0.000000000000000
12.343634605407715 0.594634890556335 1.020351290702820 0.000000000000000
12.350527763366699 -1.938237309455872 0.598312377929688 0.000000000000000
12.353347778320312 -2.539373159408569 0.094651117920876 0.000000000000000
12.368049621582031 -3.872118949890137 0.720039248466492 0.000000000000000
12.369889259338379 7.249831676483154 0.990028321743011 0.000000000000000
12.371871948242188 -2.688005685806274 0.435477912425995 0.000000000000000
12.372762680053711 -2.531212568283081 1.042733311653137 0.000000000000000
12.375182151794434 0.140614017844200 0.021600183099508 0.000000000000000
12.378709793090820 2.705335378646851 1.204445362091064 0.000000000000000
12.378910064697266 -6.292680263519287 1.173405647277832 0.000000000000000
12.379989624023438 -2.768616437911987 0.875953257083893 0.000000000000000
12.381788253784180 2.532384634017944 0.386128991842270 0.000000000000000
12.382899284362793 -8.012696266174316 0.564029872417450 0.000000000000000
12.384784698486328 3.438797712326050 0.763628900051117 0.000000000000000
12.384976387023926 -0.279323995113373 0.831505417823792 0.000000000000000
12.386480331420898 -0.284981817007065 0.235732302069664 0.000000000000000
12.388778686523438 -3.318635940551758 0.687872946262360 0.000000000000000
12.389174461364746 2.122623443603516 2.148576736450195 0.000000000000000
12.390287399291992 -5.924735069274902 0.525205075740814 0.000000000000000
12.391110420227051 1.108495354652405 0.619329392910004 0.000000000000000
12.392677307128906 -3.912628173828125 0.972586572170258 0.000000000000000
12.401306152343750 -3.822722673416138 0.770982921123505 0.000000000000000
12.401564598083496 -3.934484243392944 0.873295068740845 0.000000000000000
12.402022361755371 -0.105200245976448 0.856389641761780 0.000000000000000
12.403960227966309 -4.130576610565186 0.248743981122971 0.000000000000000
12.405616760253906 2.281779050827026 0.239993438124657 0.000000000000000
12.411418914794922 -6.081366539001465 0.981019914150238 0.000000000000000
12.412856101989746 -3.371567726135254 0.491882979869843 0.000000000000000
12.424362182617188 4.398725032806396 1.953311443328857 0.000000000000000
12.426726341247559 -3.083131074905396 1.115656495094299 0.000000000000000
12.429498672485352 -0.530512392520905 0.691193342208862 0.000000000000000
12.434345245361328 2.655252695083618 1.074386835098267 0.000000000000000
12.435746192932129 3.355889320373535 0.542109072208405 0.000000000000000
12.437196731567383 2.759992599487305 1.154925107955933 0.000000000000000
12.437590599060059 1.152486681938171 0.477667599916458 0.000000000000000
12.439379692077637 -1.193612694740295 0.766508817672729 0.000000000000000
12.440925598144531 -2.691187143325806 0.291076719760895 0.000000000000000
12.448655128479004 2.968443870544434 0.243493661284447 0.000000000000000
12.449283599853516 -5.523522377014160 0.102216005325317 0.000000000000000
12.451445579528809 3.226658582687378 0.368275642395020 0.000000000000000
12.456417083740234 6.895618438720703 1.743124246597290 0.000000000000000
12.458960533142090 -0.955163240432739 1.851863622665405 0.000000000000000
12.460581779479980 2.543748617172241 0.755563259124756 0.000000000000000
12.461297988891602 -2.656005382537842 0.266890197992325 0.000000000000000
12.467276573181152 -2.657279729843140 0.855614840984344 0.000000000000000
12.469400405883789 -0.032427228987217 0.981366455554962 0.000000000000000
12.471617698669434 -2.440279245376587 0.779488027095795 0.000000000000000
12.471698760986328 -0.324840307235718 0.837398886680603 0.000000000000000
12.472871780395508 2.875232934951782 0.022340202704072 0.000000000000000
12.473821640014648 -0.539820194244385 0.813965797424316 0.000000000000000
12.475554466247559 -7.590028285980225 0.783202588558197 0.000000000000000
12.475845336914062 -7.052171230316162 0.162587910890579 0.000000000000000
12.476943969726562 8.311967849731445 0.486861377954483 0.000000000000000
12.479236602783203 7.831851482391357 1.673434495925903 0.000000000000000
12.480601310729980 2.351918220520020 0.632256984710693 0.000000000000000
12.480922698974609 3.243597507476807 0.567540526390076 0.000000000000000
12.484910011291504 -7.232009887695312 1.766456484794617 0.000000000000000
12.485676765441895 -0.087600819766521 0.741804182529449 0.000000000000000
12.485996246337891 -2.782257556915283 0.957361936569214 0.000000000000000
12.491941452026367 -6.894214630126953 1.012738823890686 0.000000000000000
12.492786407470703 -7.708474159240723 0.110171131789684 0.000000000000000
12.498555183410645 0.284504890441895 1.663653850555420 0.000000000000000
12.501822471618652 -2.400230646133423 1.445915937423706 0.000000000000000
12.502240180969238 3.140806198120117 0.741016924381256 0.000000000000000
12.503025054931641 -0.067864909768105 0.959874451160431 0.000000000000000
12.503093719482422 3.976302862167358 0.855340600013733 0.000000000000000
12.504724502563477 2.371382474899292 2.647343158721924 0.000000000000000
12.506756782531738 3.240992069244385 0.966914594173431 0.000000000000000
12.510291099548340 2.306900978088379 0.266471356153488 0.000000000000000
12.514311790466309 -2.663651466369629 0.489284485578537 0.000000000000000
12.514424324035645 3.203620433807373 0.394679784774780 0.000000000000000
12.517408370971680 2.306186437606812 0.780712544918060 0.000000000000000
12.522301673889160 -1.627696156501770 0.094771191477776 0.000000000000000
12.523233413696289 -1.422857046127319 0.070393659174442 0.000000000000000
12.526676177978516 -8.105731010437012 1.030257701873779 0.000000000000000
12.527392387390137 -5.003499507904053 0.905440866947174 0.000000000000000
12.527523040771484 -4.317974567413330 1.505052685737610 0.000000000000000
12.528449058532715 -5.671559333801270 0.314487218856812 0.000000000000000
12.530675888061523 -3.702003717422485 1.391749143600464 0.000000000000000
12.530802726745605 6.276051998138428 0.967709243297577 0.000000000000000
12.531383514404297 -1.066828012466431 0.287601739168167 0.000000000000000
12.532313346862793 3.681571960449219 0.826361775398254 0.000000000000000
12.535844802856445 -1.932586669921875 1.105239510536194 0.000000000000000
12.536198616027832 1.110448718070984 0.820471227169037 0.000000000000000
12.538187026977539 -2.938035011291504 0.938908934593201 0.000000000000000
12.543290138244629 -2.417500257492065 0.218512967228889 0.000000000000000
12.546206474304199 -4.252514839172363 1.963280320167542 0.000000000000000
12.546368598937988 -1.331075787544250 1.678955435752869 0.000000000000000
12.547171592712402 -2.628555059432983 0.465590715408325 0.000000000000000
12.547290802001953 -4.265581607818604 0.303056329488754 0.000000000000000
12.554905891418457 -3.226354598999023 0.870080471038818 0.000000000000000
12.556304931640625 -1.332129836082458 0.482864618301392 0.000000000000000
12.556309700012207 0.047994695603848 0.770182192325592 0.000000000000000
12.558302879333496 -0.201227858662605 0.046034701168537 0.000000000000000
12.561790466308594 0.045165572315454 0.504536926746368 0.000000000000000
12.562022209167480 -5.068246364593506 0.700428307056427 0.000000000000000
12.562554359436035 3.440973758697510 1.238133430480957 0.000000000000000
12.570472717285156 -6.612524986267090 0.106598831713200 0.000000000000000
12.570857048034668 -2.847262144088745 0.765763938426971 0.000000000000000
12.571074485778809 2.352841138839722 0.612079858779907 0.000000000000000
12.573257446289062 -3.462307691574097 0.699441015720367 0.000000000000000
12.580457687377930 3.178908586502075 1.021223664283752 0.000000000000000
12.580857276916504 -7.958205699920654 0.798412501811981 0.000000000000000
12.581844329833984 -3.360000371932983 1.594380259513855 0.000000000000000
12.582322120666504 -2.538869142532349 0.047046292573214 0.000000000000000
12.583839416503906 -1.914810061454773 1.050961852073669 0.000000000000000
12.583910942077637 -2.418951511383057 0.983756482601166 0.000000000000000
12.584676742553711 2.588305234909058 0.639615714550018 0.000000000000000
12.586799621582031 -5.238863945007324 0.259396851062775 0.000000000000000
12.587797164916992 2.697676897048950 0.517058074474335 0.000000000000000
12.589674949645996 -7.828457832336426 0.823662817478180 0.000000000000000
12.594464302062988 -3.561024904251099 0.853258848190308 0.000000000000000
12.594471931457520 -3.564351081848145 0.274178177118301 0.000000000000000
12.594876289367676 -7.832302093505859 0.111311875283718 0.000000000000000
12.595619201660156 2.384982109069824 0.342405468225479 0.000000000000000
12.597106933593750 3.024767637252808 0.146978020668030 0.000000000000000
12.601313591003418 3.193070650100708 0.797365069389343 0.000000000000000
12.601839065551758 5.059778690338135 2.012538194656372 0.000000000000000
12.607156753540039 -5.240625381469727 0.285989701747894 0.000000000000000
12.609098434448242 -3.796827793121338 0.554219484329224 0.000000000000000
12.609807968139648 2.844521760940552 0.743083000183105 0.000000000000000
12.611391067504883 -4.772492408752441 0.983120203018188 0.000000000000000
12.613739967346191 -2.583723068237305 0.096632391214371 0.000000000000000
12.614055633544922 2.524662494659424 1.062152862548828 0.000000000000000
12.616095542907715 1.286166906356812 0.606917083263397 0.000000000000000
12.617402076721191 3.188244104385376 0.823331177234650 0.000000000000000
12.618951797485352 -3.238587379455566 0.723811447620392 0.000000000000000
12.621067047119141 -4.146178245544434 1.122549057006836 0.000000000000000
12.624993324279785 -6.177271842956543 0.835033833980560 0.000000000000000
12.625923156738281 0.714965164661407 0.216323718428612 0.000000000000000
12.627339363098145 3.498544931411743 0.930043101310730 0.000000000000000
12.628316879272461 -2.174933910369873 1.218072056770325 0.000000000000000
12.630964279174805 -2.635985374450684 1.169731736183167 0.000000000000000
12.632563591003418 -1.301437377929688 0.852400243282318 0.000000000000000
12.636171340942383 -2.997312307357788 1.131629109382629 0.000000000000000
12.637064933776855 -4.395252227783203 0.872254848480225 0.000000000000000
12.638327598571777 0.678272426128387 0.435340404510498 0.000000000000000
12.639438629150391 -2.311106920242310 2.672594547271729 0.000000000000000
12.644065856933594 2.646547555923462 1.041632771492004 0.000000000000000
12.644286155700684 2.299223423004150 1.904639959335327 0.000000000000000
12.648880004882812 -6.391903400421143 1.115374565124512 0.000000000000000
12.654123306274414 -6.089474678039551 0.159320726990700 0.000000000000000
12.655572891235352 -1.627727389335632 1.359126687049866 0.000000000000000
12.660868644714355 2.076026201248169 0.935418546199799 0.000000000000000
12.661476135253906 -3.614362478256226 0.579499840736389 0.000000000000000
12.666898727416992 -5.681042194366455 1.173068761825562 0.000000000000000
12.667586326599121 -3.768669128417969 0.556237876415253 0.000000000000000
12.668271064758301 0.906739413738251 0.290436595678329 0.000000000000000
12.668891906738281 -2.478190660476685 1.466230154037476 0.000000000000000
12.669447898864746 -5.768993377685547 1.041843771934509 0.000000000000000
12.674324989318848 -3.858487606048584 0.787114262580872 0.000000000000000
12.674861907958984 0.154417812824249 0.070795774459839 0.000000000000000
12.675050735473633 -4.960154056549072 0.494336277246475 0.000000000000000
12.677343368530273 -3.119015693664551 0.474156320095062 0.000000000000000
12.677795410156250 2.442739009857178 1.913436055183411 0.000000000000000
12.678133010864258 -4.919559955596924 0.677006185054779 0.000000000000000
12.678771018981934 -4.954465866088867 1.186144590377808 0.000000000000000
12.681719779968262 3.233001232147217 0.349561184644699 0.000000000000000
12.683529853820801 -3.073624610900879 0.875973880290985 0.000000000000000
12.685507774353027 -6.548600196838379 2.115745544433594 0.000000000000000
12.685688018798828 4.024623394012451 1.073138833045959 0.000000000000000
12.686307907104492 3.681157588958740 0.835706353187561 0.000000000000000
12.687467575073242 -7.493785858154297 0.506842911243439 0.000000000000000
12.687856674194336 -3.256271362304688 0.929759919643402 0.000000000000000
12.690384864807129 -2.338738679885864 1.065444350242615 0.000000000000000
12.690774917602539 2.457410335540771 0.196295917034149 0.000000000000000
12.691316604614258 -0.770898222923279 0.486227422952652 0.000000000000000
12.692712783813477 2.816695451736450 0.947925686836243 0.000000000000000
12.692943572998047 -2.982245683670044 0.674195766448975 0.000000000000000
12.693071365356445 0.608359694480896 0.095371581614017 0.000000000000000
12.695579528808594 -4.747187137603760 1.014379739761353 0.000000000000000
12.696336746215820 0.499060362577438 0.217349916696548 0.000000000000000
12.696340560913086 -2.379724979400635 0.692800104618073 0.000000000000000
12.696455001831055 -3.761102199554443 0.404574275016785 0.000000000000000
12.696953773498535 -3.554848909378052 1.012231230735779 0.000000000000000
12.698064804077148 1.765623569488525 0.712273061275482 0.000000000000000
12.703276634216309 -4.511944770812988 1.997878193855286 0.000000000000000
12.703733444213867 -2.558753252029419 1.174787759780884 0.000000000000000
12.704024314880371 -4.353028297424316 1.170171976089478 0.000000000000000
12.707394599914551 -6.765462875366211 3.857439041137695 0.000000000000000
12.714313507080078 -6.381848335266113 1.239618301391602 0.000000000000000
12.715538978576660 -2.750590562820435 1.099309921264648 0.000000000000000
12.717254638671875 2.740042209625244 3.485774993896484 0.000000000000000
12.720960617065430 -2.178775787353516 0.816512107849121 0.000000000000000
12.722286224365234 -2.572658061981201 0.072493620216846 0.000000000000000
12.722392082214355 -5.460447788238525 0.449600219726562 0.000000000000000
12.722933769226074 -3.261487007141113 0.755020081996918 0.000000000000000
12.724335670471191 2.881327390670776 1.309111952781677 0.000000000000000
12.724916458129883 -3.016017198562622 0.525244891643524 0.000000000000000
12.725188255310059 1.983156442642212 0.665933609008789 0.000000000000000
12.727690696716309 2.671477794647217 0.897996723651886 0.000000000000000
12.729176521301270 -5.708973407745361 0.963300526142120 0.000000000000000
12.729695320129395 0.032439377158880 0.511279046535492 0.000000000000000
12.731369018554688 -1.395661115646362 0.096122063696384 0.000000000000000
12.733396530151367 -5.871792316436768 1.184856653213501 0.000000000000000
12.737464904785156 -3.916365623474121 0.612119793891907 0.000000000000000
12.740491867065430 -3.948227167129517 1.514984130859375 0.000000000000000
12.744349479675293 2.513973236083984 0.396878540515900 0.000000000000000
12.745934486389160 3.739011049270630 0.814752340316772 0.000000000000000
12.747004508972168 -2.801211357116699 0.926361441612244 0.000000000000000
12.748686790466309 -4.002039909362793 1.517692685127258 0.000000000000000
12.752875328063965 2.354861974716187 0.845452249050140 0.000000000000000
12.758162498474121 -5.310188293457031 1.569606661796570 0.000000000000000
12.758461952209473 -4.486957550048828 0.309274733066559 0.000000000000000
12.758514404296875 1.732732534408569 0.096632391214371 0.000000000000000
12.761665344238281 5.106372833251953 1.682848811149597 0.000000000000000
12.761934280395508 -2.709839582443237 0.749969780445099 0.000000000000000
12.761936187744141 -6.548048496246338 0.080111600458622 0.000000000000000
12.762262344360352 1.412578225135803 0.713382542133331 0.000000000000000
12.765790939331055 -4.159930229187012 1.056687235832214 0.000000000000000
12.773946762084961 -2.625832080841064 1.735413193702698 0.000000000000000
12.775601387023926 -4.029112339019775 0.332067251205444 0.000000000000000
12.777364730834961 -3.903018712997437 0.922520101070404 0.000000000000000
12.777483940124512 5.130820274353027 1.136868953704834 0.000000000000000
12.778588294982910 -4.221413612365723 0.618176758289337 0.000000000000000
12.782401084899902 -0.033241204917431 0.808682918548584 0.000000000000000
12.784460067749023 -2.463981628417969 1.024675846099854 0.000000000000000
12.784623146057129 -3.366387605667114 1.256680846214294 0.000000000000000
12.789977073669434 4.853864192962646 1.553806662559509 0.000000000000000
12.790228843688965 7.330378055572510 1.804857730865479 0.000000000000000
12.793779373168945 2.681619882583618 0.073007442057133 0.000000000000000
12.799190521240234 -2.262831687927246 1.098299503326416 0.000000000000000
12.799849510192871 -3.811908960342407 0.742006540298462 0.000000000000000
12.809437751770020 3.504744529724121 0.558929085731506 0.000000000000000
12.810667037963867 3.123380184173584 1.195372700691223 0.000000000000000
12.811862945556641 0.302373290061951 0.342298686504364 0.000000000000000
12.812199592590332 0.032649621367455 0.711829304695129 0.000000000000000
12.814143180847168 2.984771490097046 2.248996257781982 0.000000000000000
12.815069198608398 -2.494710922241211 0.097983270883560 0.000000000000000
12.815802574157715 -4.211638450622559 1.113828659057617 0.000000000000000
12.817605972290039 -0.575543284416199 0.194838285446167 0.000000000000000
12.823528289794922 6.168515205383301 3.812922239303589 0.000000000000000
12.829688072204590 -4.906366825103760 0.578103899955750 0.000000000000000
12.829735755920410 -4.559886455535889 1.811921119689941 0.000000000000000
12.832929611206055 -3.000958204269409 0.986318588256836 0.000000000000000
12.833205223083496 -1.934883475303650 1.923404932022095 0.000000000000000
12.834295272827148 -3.407506704330444 1.045075297355652 0.000000000000000
12.834362983703613 -3.712214708328247 0.793756604194641 0.000000000000000
12.834526062011719 -0.524238288402557 0.417142808437347 0.000000000000000
12.836444854736328 -4.544110774993896 0.546916067600250 0.000000000000000
12.837502479553223 1.682797074317932 1.585144400596619 0.000000000000000
12.841799736022949 4.656017303466797 1.048666715621948 0.000000000000000
12.842244148254395 0.167217344045639 1.119128823280334 0.000000000000000
12.843571662902832 -0.289666920900345 0.664281129837036 0.000000000000000
12.843911170959473 1.285615324974060 0.717154681682587 0.000000000000000
12.845215797424316 0.526696205139160 1.573964357376099 0.000000000000000
12.850967407226562 4.479709625244141 0.913477301597595 0.000000000000000
12.851946830749512 -7.696606636047363 1.034390807151794 0.000000000000000
12.855582237243652 -3.461241245269775 0.842272818088531 0.000000000000000
12.860154151916504 3.135445594787598 0.965086638927460 0.000000000000000
12.862074851989746 -1.302399635314941 0.967511653900146 0.000000000000000
12.863065719604492 6.260404586791992 0.932625710964203 0.000000000000000
12.863332748413086 1.918765187263489 1.098973155021667 0.000000000000000
12.867210388183594 -6.287158966064453 0.878423988819122 0.000000000000000
12.867584228515625 -2.768908262252808 1.146907448768616 0.000000000000000
12.867751121520996 3.020950317382812 0.251483291387558 0.000000000000000
12.868939399719238 -5.320229530334473 0.639651417732239 0.000000000000000
12.869736671447754 -2.176290988922119 0.549341678619385 0.000000000000000
12.872970581054688 -6.633995532989502 2.146238327026367 0.000000000000000
12.874958038330078 -3.400749206542969 0.304519474506378 0.000000000000000
12.878092765808105 -3.499383449554443 0.279539436101913 0.000000000000000
12.880993843078613 -3.938606262207031 0.904101490974426 0.000000000000000
12.881927490234375 0.604792356491089 1.064785957336426 0.000000000000000
12.883546829223633 -5.619580745697021 0.753853857517242 0.000000000000000
12.887162208557129 -2.713166952133179 0.833180844783783 0.000000000000000
12.888303756713867 2.484698772430420 2.243604660034180 0.000000000000000
12.895348548889160 -5.306128978729248 0.318876713514328 0.000000000000000
12.896019935607910 -1.861561417579651 1.931028246879578 0.000000000000000
12.899464607238770 -1.262985110282898 0.770034015178680 0.000000000000000
12.901027679443359 -0.199512466788292 0.493411511182785 0.000000000000000
12.905704498291016 -5.938143730163574 1.035766601562500 0.000000000000000
12.907233238220215 2.374041795730591 0.653338849544525 0.000000000000000
12.908576965332031 5.911100864410400 0.542936086654663 0.000000000000000
12.908825874328613 0.654836356639862 0.693228542804718 0.000000000000000
12.910945892333984 1.963889837265015 0.801038444042206 0.000000000000000
12.913223266601562 2.138007640838623 0.626420974731445 0.000000000000000
12.914156913757324 0.470832347869873 0.668205678462982 0.000000000000000
12.924940109252930 -3.538530349731445 1.028764963150024 0.000000000000000
12.926231384277344 6.138936519622803 0.988099515438080 0.000000000000000
12.927109718322754 0.478985965251923 0.643991231918335 0.000000000000000
12.930997848510742 -1.407950878143311 0.122595697641373 0.000000000000000
12.934765815734863 -2.530198812484741 0.048307117074728 0.000000000000000
12.935968399047852 -0.017610561102629 0.643991231918335 0.000000000000000
12.938356399536133 -3.308047533035278 1.102637767791748 0.000000000000000
12.941893577575684 -2.188493013381958 2.243604660034180 0.000000000000000
12.944271087646484 2.716936826705933 0.505792677402496 0.000000000000000
12.944383621215820 -3.670456647872925 0.825282633304596 0.000000000000000
12.952013015747070 -2.514801263809204 1.196094989776611 0.000000000000000
12.952701568603516 1.789964914321899 0.073029786348343 0.000000000000000
12.954296112060547 1.130845665931702 0.797609984874725 0.000000000000000
12.956213951110840 3.960865259170532 1.040093541145325 0.000000000000000
12.959557533264160 -0.541354417800903 0.172062084078789 0.000000000000000
12.961781501770020 -2.145344257354736 1.191038966178894 0.000000000000000
12.962301254272461 -4.035073757171631 1.362227201461792 0.000000000000000
12.967322349548340 -3.880270242691040 1.441741943359375 0.000000000000000
12.967411994934082 1.956279754638672 1.315901041030884 0.000000000000000
12.969032287597656 -5.361609458923340 0.860791862010956 0.000000000000000
12.969887733459473 -2.191828966140747 1.610421180725098 0.000000000000000
12.969916343688965 -1.137457609176636 1.074989557266235 0.000000000000000
12.970026969909668 -3.873435258865356 1.091463923454285 0.000000000000000
12.971659660339355 -1.022714018821716 0.047691367566586 0.000000000000000
12.975746154785156 -1.422450542449951 1.103014707565308 0.000000000000000
12.977512359619141 -1.245477437973022 0.273089170455933 0.000000000000000
12.977767944335938 2.886139392852783 0.994975745677948 0.000000000000000
12.978402137756348 0.351639628410339 0.147295653820038 0.000000000000000
12.978749275207520 2.550565004348755 1.092105031013489 0.000000000000000
12.981327056884766 -6.446528434753418 0.247930780053139 0.000000000000000
12.981467247009277 2.570634603500366 0.837221682071686 0.000000000000000
12.981542587280273 -4.018954753875732 0.912137925624847 0.000000000000000
12.982038497924805 2.481621503829956 1.065744519233704 0.000000000000000
12.983968734741211 -2.208196878433228 0.681012094020844 0.000000000000000
12.987515449523926 2.430783748626709 0.429087132215500 0.000000000000000
12.988138198852539 -3.829515695571899 1.538006782531738 0.000000000000000
12.990113258361816 0.102252945303917 1.383699536323547 0.000000000000000
12.996194839477539 -3.558038234710693 0.204616636037827 0.000000000000000
13.000324249267578 4.881841659545898 1.577280879020691 0.000000000000000
13.000761985778809 1.286650538444519 0.449365913867950 0.000000000000000
13.007707595825195 2.692824840545654 0.738012552261353 0.000000000000000
13.008317947387695 -6.259921550750732 0.829856336116791 0.000000000000000
13.008729934692383 2.507915496826172 0.557583451271057 0.000000000000000
13.009463310241699 1.709033370018005 1.108740210533142 0.000000000000000
13.011526107788086 -0.022937456145883 0.798099756240845 0.000000000000000
13.013119697570801 -5.531517028808594 0.024678943678737 0.000000000000000
13.014911651611328 -4.033268451690674 0.259244650602341 0.000000000000000
13.018953323364258 -1.587225914001465 0.804466903209686 0.000000000000000
13.027835845947266 -5.851662158966064 0.931064367294312 0.000000000000000
13.029329299926758 -0.189213931560516 1.595352292060852 0.000000000000000
13.030071258544922 -3.529449462890625 0.101315423846245 0.000000000000000
13.030930519104004 2.510780572891235 0.941937744617462 0.000000000000000
13.034122467041016 -1.982396364212036 0.859504103660583 0.000000000000000
13.035566329956055 -5.192226409912109 0.590550720691681 0.000000000000000
13.038255691528320 -4.280205249786377 0.762420654296875 0.000000000000000
13.038380622863770 0.524587333202362 0.901027739048004 0.000000000000000
13.039057731628418 -2.264425039291382 0.888296425342560 0.000000000000000
13.044725418090820 -4.267200946807861 0.551250338554382 0.000000000000000
13.046593666076660 -1.002048134803772 1.243811249732971 0.000000000000000
13.049155235290527 -3.738334894180298 0.519090950489044 0.000000000000000
13.050248146057129 -3.062349319458008 0.718935430049896 0.000000000000000
13.054495811462402 -6.443996906280518 0.864924192428589 0.000000000000000
13.054760932922363 2.443369626998901 0.840252339839935 0.000000000000000
13.054938316345215 -4.574843883514404 1.035276293754578 0.000000000000000
13.057420730590820 -5.618551731109619 0.844522833824158 0.000000000000000
13.059709548950195 -4.375294208526611 1.137198090553284 0.000000000000000
13.061283111572266 6.303385734558105 1.647251844406128 0.000000000000000
13.064376831054688 1.716247320175171 0.909845054149628 0.000000000000000
13.067161560058594 1.902568578720093 1.115813016891479 0.000000000000000
13.069146156311035 -1.035220146179199 0.224259689450264 0.000000000000000
13.070007324218750 -1.444789290428162 0.250189721584320 0.000000000000000
13.070059776306152 -3.028996229171753 1.081819176673889 0.000000000000000
13.070261955261230 -1.432811856269836 0.300678700208664 0.000000000000000
13.071992874145508 -3.648782730102539 0.937123954296112 0.000000000000000
13.072591781616211 -4.573089599609375 0.636164069175720 0.000000000000000
13.077442169189453 -2.099114894866943 0.633878350257874 0.000000000000000
13.079419136047363 2.616378784179688 2.279998302459717 0.000000000000000
13.088942527770996 -3.534363746643066 3.632784128189087 0.000000000000000
13.090020179748535 -4.561244964599609 0.850261569023132 0.000000000000000
13.092107772827148 -0.111053898930550 0.299398422241211 0.000000000000000
13.096575736999512 6.332266330718994 0.780203461647034 0.000000000000000
13.098998069763184 -6.044820785522461 0.523952901363373 0.000000000000000
13.099441528320312 -4.303330421447754 0.739500880241394 0.000000000000000
13.099854469299316 0.604259669780731 0.829644978046417 0.000000000000000
13.100389480590820 -2.562596797943115 1.076353788375854 0.000000000000000
13.104536056518555 -4.153480052947998 1.161617636680603 0.000000000000000
13.106115341186523 1.597151756286621 1.090130209922791 0.000000000000000
13.107226371765137 -1.732348680496216 1.408272147178650 0.000000000000000
13.107809066772461 2.405974149703979 1.048841357231140 0.000000000000000
13.114270210266113 -0.326920300722122 0.754101812839508 0.000000000000000
13.114464759826660 -6.056400299072266 0.274843484163284 0.000000000000000
13.115555763244629 -4.764859676361084 1.179131150245667 0.000000000000000
13.116538047790527 -2.495471000671387 1.269171953201294 0.000000000000000
13.120228767395020 -1.996429324150085 0.481995999813080 0.000000000000000
13.120435714721680 3.007880210876465 1.220291376113892 0.000000000000000
13.120609283447266 2.731245040893555 0.615607142448425 0.000000000000000
13.121079444885254 -2.043445587158203 0.482286363840103 0.000000000000000
13.122021675109863 -1.139028310775757 3.529256582260132 0.000000000000000
13.129994392395020 -0.865418374538422 0.199818566441536 0.000000000000000
13.130707740783691 -5.782026767730713 0.769492268562317 0.000000000000000
13.136732101440430 -2.557805299758911 0.666266381740570 0.000000000000000
13.145571708679199 -2.888798475265503 0.747775793075562 0.000000000000000
13.146303176879883 -1.087522149085999 1.038170814514160 0.000000000000000
13.146720886230469 -3.025976896286011 0.386248677968979 0.000000000000000
13.147688865661621 -0.118868947029114 0.452253520488739 0.000000000000000
13.152869224548340 -2.439877271652222 0.846313655376434 0.000000000000000
13.152883529663086 -5.671603679656982 0.107499413192272 0.000000000000000
13.154902458190918 -4.129558086395264 0.474254280328751 0.000000000000000
13.158935546875000 3.257000923156738 0.988355815410614 0.000000000000000
13.159196853637695 -7.146049976348877 1.062865972518921 0.000000000000000
13.160852432250977 1.544646859169006 1.763378143310547 0.000000000000000
13.162816047668457 -5.784649372100830 0.798810899257660 0.000000000000000
13.163525581359863 -1.188940882682800 1.014680624008179 0.000000000000000
13.163727760314941 1.232291579246521 1.618684768676758 0.000000000000000
13.165551185607910 -0.665095031261444 0.884813964366913 0.000000000000000
13.171823501586914 2.619566202163696 0.901422679424286 0.000000000000000
13.176197052001953 -3.451549291610718 0.861719608306885 0.000000000000000
13.181017875671387 2.722939729690552 0.670045256614685 0.000000000000000
13.183030128479004 2.445237398147583 1.641530990600586 0.000000000000000
13.183285713195801 -1.352128624916077 0.915080428123474 0.000000000000000
13.189414024353027 -6.601311683654785 1.675240159034729 0.000000000000000
13.189666748046875 -2.998071670532227 0.517256677150726 0.000000000000000
13.189846038818359 -2.558112859725952 0.100835107266903 0.000000000000000
13.192640304565430 -3.905833959579468 0.605528950691223 0.000000000000000
13.193090438842773 3.174205303192139 2.822474956512451 0.000000000000000
13.193727493286133 -2.243870973587036 0.486061006784439 0.000000000000000
13.195000648498535 2.776289939880371 0.049421332776546 0.000000000000000
13.196512222290039 -1.468799233436584 0.609917283058167 0.000000000000000
13.197736740112305 -3.563740968704224 0.207592651247978 0.000000000000000
13.201100349426270 0.608929872512817 1.040053844451904 0.000000000000000
13.203975677490234 -1.017843008041382 0.150245204567909 0.000000000000000
13.209571838378906 0.563116133213043 0.836464047431946 0.000000000000000
13.209643363952637 -3.478302001953125 0.811548531055450 0.000000000000000
13.210468292236328 -2.104624271392822 0.280209600925446 0.000000000000000
13.210985183715820 -3.146326303482056 0.728361248970032 0.000000000000000
13.220103263854980 1.301142573356628 0.023184942081571 0.000000000000000
13.220547676086426 -3.588970184326172 0.681978344917297 0.000000000000000
13.221218109130859 -0.240934133529663 0.124631419777870 0.000000000000000
13.222299575805664 -4.023292064666748 0.555103003978729 0.000000000000000
13.225001335144043 0.648895442485809 3.547891378402710 0.000000000000000
13.225074768066406 -2.524731636047363 0.049348030239344 0.000000000000000
13.232050895690918 1.364596724510193 0.687828421592712 0.000000000000000
13.238070487976074 -3.348271608352661 0.758648455142975 0.000000000000000
13.238210678100586 -0.621056377887726 1.119854569435120 0.000000000000000
13.239789962768555 -2.030465841293335 1.054176568984985 0.000000000000000
13.241168975830078 -1.559931635856628 0.638085126876831 0.000000000000000
13.241965293884277 0.395788222551346 0.863667666912079 0.000000000000000
13.242513656616211 1.039417862892151 0.482431530952454 0.000000000000000
13.244624137878418 -0.758113980293274 0.507321238517761 0.000000000000000
13.244872093200684 -5.699211597442627 1.370614886283875 0.000000000000000
13.245188713073730 -0.530129313468933 0.074035085737705 0.000000000000000
13.246122360229492 0.681218326091766 0.099544279277325 0.000000000000000
13.246134757995605 2.446421861648560 0.515116751194000 0.000000000000000
13.247026443481445 2.730791330337524 0.907851815223694 0.000000000000000
13.253959655761719 -2.867060422897339 0.727290153503418 0.000000000000000
13.254426002502441 0.544398069381714 1.202595472335815 0.000000000000000
13.257071495056152 2.713089227676392 0.335437476634979 0.000000000000000
13.259903907775879 3.738679409027100 0.553337216377258 0.000000000000000
13.260285377502441 -0.287948876619339 0.125008404254913 0.000000000000000
13.261233329772949 4.642978668212891 2.082320451736450 0.000000000000000
13.263423919677734 -4.179651260375977 0.211176037788391 0.000000000000000
13.264068603515625 -0.344088554382324 0.303422093391418 0.000000000000000
13.271032333374023 -4.053816318511963 0.317322105169296 0.000000000000000
13.272800445556641 -5.097076416015625 1.146438956260681 0.000000000000000
13.273900032043457 1.995166301727295 0.590755701065063 0.000000000000000
13.275106430053711 2.463274240493774 0.776139438152313 0.000000000000000
