# This PCD file was generated using the MATLAB® pcwrite function
# from Computer Vision Toolbox®.
# .PCD v.7 - Point Cloud Data file format
VERSION .7
FIELDS x y z intensity
SIZE 8 8 8 8
TYPE F F F F
COUNT 1 1 1 1
WIDTH 655
HEIGHT 1
VIEWPOINT 0 0 0 1 0 0 0
POINTS 655
DATA ascii
9.445266723632812 6.723320960998535 1.542823910713196 0.000000000000000
9.445855140686035 0.510249972343445 0.398129731416702 0.000000000000000
9.448303222656250 -0.038587179034948 0.379486232995987 0.000000000000000
9.450383186340332 6.514760494232178 0.196346953511238 0.000000000000000
9.451043128967285 3.215925216674805 1.706460475921631 0.000000000000000
9.451270103454590 6.919562339782715 0.899250745773315 0.000000000000000
9.451448440551758 -0.736212968826294 0.826065003871918 0.000000000000000
9.451823234558105 8.452689170837402 0.900023460388184 0.000000000000000
9.452317237854004 8.757243156433105 0.691086292266846 0.000000000000000
9.452866554260254 -5.086014270782471 2.232728481292725 0.000000000000000
9.454836845397949 7.935802936553955 0.448314338922501 0.000000000000000
9.455128669738770 -2.935533285140991 1.124501109123230 0.000000000000000
9.456066131591797 6.497033119201660 1.040082573890686 0.000000000000000
9.456269264221191 10.312837600708008 0.669635593891144 0.000000000000000
9.456806182861328 -3.037340402603149 0.839301586151123 0.000000000000000
9.457578659057617 10.707152366638184 0.793707370758057 0.000000000000000
9.460398674011230 -1.906519889831543 1.430239200592041 0.000000000000000
9.461297035217285 -4.687575340270996 0.729088485240936 0.000000000000000
9.462299346923828 4.909191608428955 0.018605200573802 0.000000000000000
9.462453842163086 8.287842750549316 0.481030374765396 0.000000000000000
9.463777542114258 -2.331883907318115 0.804760992527008 0.000000000000000
9.467449188232422 -5.509965896606445 0.693012475967407 0.000000000000000
9.467465400695801 -5.399708747863770 0.794640362262726 0.000000000000000
9.468249320983887 1.484212040901184 0.961666166782379 0.000000000000000
9.470622062683105 8.872072219848633 0.621066927909851 0.000000000000000
9.471137046813965 11.524608612060547 2.210742950439453 0.000000000000000
9.471406936645508 11.088812828063965 0.978840529918671 0.000000000000000
9.471953392028809 -0.729490756988525 0.827801167964935 0.000000000000000
9.472269058227539 -0.835046947002411 0.862040698528290 0.000000000000000
9.473043441772461 8.546953201293945 0.169250085949898 0.000000000000000
9.476540565490723 9.988992691040039 0.288419008255005 0.000000000000000
9.476607322692871 6.137262344360352 2.348396778106689 0.000000000000000
9.477373123168945 6.991920948028564 0.246701717376709 0.000000000000000
9.480746269226074 7.566216945648193 0.230786338448524 0.000000000000000
9.484983444213867 10.738178253173828 0.135036230087280 0.000000000000000
9.487006187438965 11.532424926757812 1.232979416847229 0.000000000000000
9.487735748291016 9.057496070861816 0.627759516239166 0.000000000000000
9.488531112670898 8.836446762084961 1.045490622520447 0.000000000000000
9.490404129028320 -4.569870948791504 1.289600849151611 0.000000000000000
9.491569519042969 -1.963536500930786 0.781546056270599 0.000000000000000
9.491889953613281 8.777902603149414 0.842850089073181 0.000000000000000
9.492136001586914 9.770872116088867 0.206863835453987 0.000000000000000
9.493315696716309 9.505926132202148 0.384645998477936 0.000000000000000
9.493945121765137 5.824281215667725 0.919632792472839 0.000000000000000
9.495377540588379 -4.482565879821777 0.644063353538513 0.000000000000000
9.496182441711426 -1.990083813667297 1.291138887405396 0.000000000000000
9.496776580810547 -3.388748645782471 0.813052177429199 0.000000000000000
9.498641967773438 6.548027992248535 0.729885578155518 0.000000000000000
9.502035140991211 10.207896232604980 0.238558143377304 0.000000000000000
9.502272605895996 10.669625282287598 0.491442382335663 0.000000000000000
9.503945350646973 9.174013137817383 1.617226481437683 0.000000000000000
9.510416984558105 0.174142345786095 0.730239450931549 0.000000000000000
9.510708808898926 1.040919303894043 1.417924761772156 0.000000000000000
9.511902809143066 -3.794479131698608 0.746647834777832 0.000000000000000
9.513957023620605 -3.756857633590698 0.745775222778320 0.000000000000000
9.514025688171387 4.755549430847168 2.212364196777344 0.000000000000000
9.514130592346191 -5.210560798645020 0.983383595943451 0.000000000000000
9.514809608459473 6.499326229095459 0.462799847126007 0.000000000000000
9.515160560607910 8.976358413696289 0.626038551330566 0.000000000000000
9.515612602233887 8.043592453002930 0.452524542808533 0.000000000000000
9.517066955566406 -3.274016380310059 0.559167683124542 0.000000000000000
9.517361640930176 11.131979942321777 0.250530511140823 0.000000000000000
9.517828941345215 9.561786651611328 0.879540979862213 0.000000000000000
9.517911911010742 10.285254478454590 0.428149998188019 0.000000000000000
9.517956733703613 -2.413362979888916 0.640139281749725 0.000000000000000
9.523095130920410 1.345841765403748 0.812694489955902 0.000000000000000
9.523399353027344 -5.262404441833496 0.772298336029053 0.000000000000000
9.523548126220703 4.599356651306152 0.873223245143890 0.000000000000000
9.523951530456543 5.787008285522461 0.941688299179077 0.000000000000000
9.526258468627930 0.609023571014404 0.346688657999039 0.000000000000000
9.526615142822266 6.090414524078369 0.541139006614685 0.000000000000000
9.526820182800293 1.771020889282227 0.762622475624084 0.000000000000000
9.528879165649414 7.740599632263184 1.166972041130066 0.000000000000000
9.529834747314453 8.223607063293457 0.336211025714874 0.000000000000000
9.530372619628906 -1.816981554031372 1.437862515449524 0.000000000000000
9.531568527221680 -1.163406610488892 0.755718111991882 0.000000000000000
9.532639503479004 10.405975341796875 0.947230458259583 0.000000000000000
9.532753944396973 -5.086169242858887 2.247390508651733 0.000000000000000
9.533724784851074 0.610503315925598 0.659651458263397 0.000000000000000
9.534146308898926 7.689788341522217 1.164322376251221 0.000000000000000
9.536458969116211 10.473823547363281 1.608880639076233 0.000000000000000
9.537227630615234 7.637483596801758 1.008831262588501 0.000000000000000
9.537776947021484 4.634589672088623 1.571562528610229 0.000000000000000
9.540339469909668 7.250442028045654 0.642671704292297 0.000000000000000
9.542376518249512 8.271408081054688 0.774590194225311 0.000000000000000
9.542725563049316 7.797296047210693 0.139808356761932 0.000000000000000
9.543102264404297 9.211810111999512 0.074079774320126 0.000000000000000
9.544127464294434 -10.780847549438477 0.522936642169952 0.000000000000000
9.547376632690430 -3.487987518310547 0.799968957901001 0.000000000000000
9.549291610717773 10.424153327941895 0.296125829219818 0.000000000000000
9.550443649291992 9.841882705688477 0.234590142965317 0.000000000000000
9.552129745483398 11.425840377807617 1.981821775436401 0.000000000000000
9.552606582641602 7.207295894622803 1.592422246932983 0.000000000000000
9.557690620422363 11.406981468200684 0.254566907882690 0.000000000000000
9.560422897338867 9.216922760009766 0.865749359130859 0.000000000000000
9.560844421386719 -1.301003932952881 0.461784720420837 0.000000000000000
9.563147544860840 8.264017105102539 0.726554691791534 0.000000000000000
9.567929267883301 0.158325150609016 0.716155648231506 0.000000000000000
9.569636344909668 7.073931217193604 0.684086263179779 0.000000000000000
9.570282936096191 -2.153421640396118 0.601697146892548 0.000000000000000
9.570890426635742 6.802184581756592 0.223405435681343 0.000000000000000
9.571393966674805 -8.886818885803223 0.901854395866394 0.000000000000000
9.572799682617188 3.121291875839233 2.697929859161377 0.000000000000000
9.572888374328613 6.279606819152832 0.790534734725952 0.000000000000000
9.573085784912109 10.395348548889160 0.078927569091320 0.000000000000000
9.575462341308594 -4.656618595123291 1.578013062477112 0.000000000000000
9.576761245727539 11.475649833679199 1.262993931770325 0.000000000000000
9.577752113342285 8.749368667602539 0.845712542533875 0.000000000000000
9.578438758850098 7.064158916473389 0.730020105838776 0.000000000000000
9.578990936279297 7.636134624481201 0.209550783038139 0.000000000000000
9.579903602600098 8.961261749267578 0.400787472724915 0.000000000000000
9.580906867980957 -10.772665023803711 0.662227392196655 0.000000000000000
9.581355094909668 8.679318428039551 0.643593430519104 0.000000000000000
9.581947326660156 -3.202169656753540 1.076116561889648 0.000000000000000
9.582201957702637 -5.283986568450928 0.953499138355255 0.000000000000000
9.583316802978516 4.730548381805420 1.213883280754089 0.000000000000000
9.583574295043945 11.027754783630371 1.388783693313599 0.000000000000000
9.587438583374023 8.528305053710938 0.096302181482315 0.000000000000000
9.588092803955078 11.103211402893066 0.871566534042358 0.000000000000000
9.589797973632812 -3.173564672470093 1.013583302497864 0.000000000000000
9.590578079223633 1.192529797554016 0.918663978576660 0.000000000000000
9.592263221740723 6.452538490295410 2.404602050781250 0.000000000000000
9.592554092407227 -2.193112134933472 0.793441236019135 0.000000000000000
9.593171119689941 8.986876487731934 0.426880031824112 0.000000000000000
9.595265388488770 6.418864250183105 0.908556461334229 0.000000000000000
9.597675323486328 -3.778883457183838 0.156635895371437 1.000000000000000
9.600354194641113 6.291396141052246 0.770428359508514 0.000000000000000
9.600880622863770 -1.321644544601440 0.407885372638702 0.000000000000000
9.601568222045898 1.916146516799927 0.853149056434631 0.000000000000000
9.601840019226074 -3.791560649871826 0.117119565606117 1.000000000000000
9.602546691894531 -3.697422027587891 1.096028923988342 0.000000000000000
9.603208541870117 9.447598457336426 0.878239929676056 0.000000000000000
9.603874206542969 -10.848336219787598 0.749175250530243 0.000000000000000
9.604338645935059 6.345889091491699 0.617393314838409 0.000000000000000
9.605102539062500 7.403340339660645 0.463757902383804 0.000000000000000
9.605410575866699 9.236721038818359 0.612119793891907 0.000000000000000
9.607302665710449 5.445733547210693 1.636653423309326 0.000000000000000
9.607600212097168 1.466396093368530 0.577406883239746 0.000000000000000
9.607859611511230 11.317582130432129 0.253951191902161 0.000000000000000
9.608081817626953 10.827168464660645 0.108640149235725 0.000000000000000
9.608516693115234 11.196210861206055 1.963354229927063 0.000000000000000
9.609612464904785 3.151679277420044 0.678812801837921 0.000000000000000
9.612785339355469 -1.241488814353943 0.613204956054688 0.000000000000000
9.613121986389160 10.512233734130859 0.736575424671173 0.000000000000000
9.615897178649902 8.374897003173828 0.095701798796654 0.000000000000000
9.616530418395996 -2.894613265991211 0.954623222351074 0.000000000000000
9.620159149169922 8.022042274475098 0.671806156635284 0.000000000000000
9.621759414672852 11.106883049011230 0.986341178417206 0.000000000000000
9.622543334960938 -3.496234416961670 0.928129255771637 0.000000000000000
9.623393058776855 8.504483222961426 0.367703258991241 0.000000000000000
9.623413085937500 7.113683700561523 0.135769754648209 0.000000000000000
9.623443603515625 10.085153579711914 0.051092654466629 0.000000000000000
9.625230789184570 10.196568489074707 0.239858001470566 0.000000000000000
9.625388145446777 10.531539916992188 0.765207767486572 0.000000000000000
9.625515937805176 -5.921425342559814 0.889412403106689 0.000000000000000
9.625558853149414 8.982895851135254 1.193567037582397 0.000000000000000
9.627137184143066 -7.390365600585938 0.814628899097443 0.000000000000000
9.627372741699219 8.852208137512207 0.676261305809021 0.000000000000000
9.628412246704102 9.310727119445801 0.615240037441254 0.000000000000000
9.628591537475586 9.299517631530762 0.511906802654266 0.000000000000000
9.629750251770020 8.809826850891113 0.097953252494335 0.000000000000000
9.631387710571289 9.304816246032715 0.049084134399891 0.000000000000000
9.632288932800293 9.255766868591309 0.382470905780792 0.000000000000000
9.633133888244629 4.976718425750732 1.853383302688599 0.000000000000000
9.636616706848145 4.804220676422119 0.722745418548584 0.000000000000000
9.638030052185059 7.202566146850586 0.020999791100621 0.000000000000000
9.638237953186035 -0.375656992197037 2.006278753280640 0.000000000000000
9.639933586120605 -2.194385766983032 0.861482679843903 0.000000000000000
9.641236305236816 9.374391555786133 0.126742541790009 0.000000000000000
9.642127990722656 11.167369842529297 2.521949052810669 0.000000000000000
9.643000602722168 -2.200041055679321 0.511430382728577 0.000000000000000
9.643062591552734 -10.842552185058594 0.220347031950951 1.000000000000000
9.643205642700195 6.971802234649658 0.112153194844723 0.000000000000000
9.643555641174316 -10.876317024230957 0.053277105093002 0.000000000000000
9.644246101379395 -5.123187541961670 0.880565404891968 0.000000000000000
9.644273757934570 2.137907505035400 0.991218984127045 0.000000000000000
9.645145416259766 -10.832704544067383 0.471022158861160 0.000000000000000
9.645404815673828 7.494154453277588 1.810228943824768 0.000000000000000
9.646115303039551 7.320742607116699 0.859525203704834 0.000000000000000
9.646248817443848 10.988613128662109 0.727920889854431 0.000000000000000
9.647510528564453 -3.896280050277710 0.698368132114410 0.000000000000000
9.647651672363281 7.321908473968506 0.114151217043400 0.000000000000000
9.651052474975586 -5.245329380035400 0.779661595821381 0.000000000000000
9.653116226196289 10.255104064941406 0.484429657459259 0.000000000000000
9.653485298156738 -4.011243343353271 0.741995394229889 0.000000000000000
9.654870033264160 9.756855964660645 1.462078094482422 0.000000000000000
9.656291961669922 4.610782623291016 0.573905825614929 0.000000000000000
9.656911849975586 7.443273544311523 1.030266284942627 0.000000000000000
9.658106803894043 8.626857757568359 1.044204711914062 0.000000000000000
9.659048080444336 8.525189399719238 1.167926073074341 0.000000000000000
9.660321235656738 6.449464321136475 2.416005849838257 0.000000000000000
9.661367416381836 -2.221801042556763 0.455373078584671 1.000000000000000
9.671505928039551 6.672425270080566 0.947435677051544 0.000000000000000
9.672005653381348 0.209692806005478 0.332761764526367 0.000000000000000
9.672470092773438 8.836515426635742 0.702654421329498 0.000000000000000
9.673781394958496 6.784734249114990 0.815884768962860 0.000000000000000
9.675393104553223 9.659199714660645 1.102394580841064 0.000000000000000
9.676811218261719 7.099484443664551 0.851878702640533 0.000000000000000
9.679050445556641 -10.870783805847168 0.696596980094910 0.000000000000000
9.680640220642090 8.586417198181152 0.047427471727133 0.000000000000000
9.682280540466309 8.600568771362305 0.495245784521103 0.000000000000000
9.683062553405762 11.380779266357422 0.198218911886215 0.000000000000000
9.684130668640137 10.774594306945801 0.916524112224579 0.000000000000000
9.684409141540527 -4.066178321838379 1.397722482681274 0.000000000000000
9.686792373657227 8.849598884582520 0.300038546323776 0.000000000000000
9.689930915832520 6.608039379119873 0.674215197563171 0.000000000000000
9.691400527954102 -1.683751821517944 0.679215073585510 0.000000000000000
9.693038940429688 4.023710727691650 0.724679768085480 0.000000000000000
9.693634986877441 9.245332717895508 0.100534915924072 0.000000000000000
9.695343971252441 6.365261077880859 0.644374132156372 0.000000000000000
9.695784568786621 3.412901878356934 1.757007360458374 0.000000000000000
9.697181701660156 -2.746585130691528 0.715374171733856 1.000000000000000
9.698844909667969 -0.923301279544830 1.665349125862122 0.000000000000000
9.699834823608398 -3.708662986755371 0.904886662960052 0.000000000000000
9.700510025024414 6.863775730133057 0.134816825389862 0.000000000000000
9.702404975891113 8.389385223388672 0.589176774024963 0.000000000000000
9.703410148620605 -0.957925498485565 1.666697025299072 0.000000000000000
9.703483581542969 10.708219528198242 0.191692978143692 0.000000000000000
9.706239700317383 9.237318992614746 0.357891678810120 0.000000000000000
9.709367752075195 8.097579956054688 0.167711466550827 0.000000000000000
9.710944175720215 0.793608903884888 0.635195136070251 0.000000000000000
9.712563514709473 9.638940811157227 0.997663378715515 0.000000000000000
9.713724136352539 9.054388999938965 0.482286363840103 0.000000000000000
9.714414596557617 1.742474317550659 0.605370581150055 0.000000000000000
9.714735984802246 -5.298625946044922 0.870896041393280 0.000000000000000
9.716057777404785 3.562881708145142 0.694617807865143 0.000000000000000
9.718237876892090 7.561635971069336 1.824889063835144 0.000000000000000
9.718863487243652 4.557620048522949 0.741212368011475 0.000000000000000
9.720017433166504 8.694975852966309 1.102004289627075 0.000000000000000
9.720368385314941 -2.780294895172119 0.600654959678650 0.000000000000000
9.722489356994629 9.657553672790527 0.814157962799072 0.000000000000000
9.722875595092773 -2.683968782424927 0.521551549434662 0.000000000000000
9.724005699157715 2.165020942687988 0.342662125825882 0.000000000000000
9.728260040283203 10.563852310180664 0.300816923379898 0.000000000000000
9.729427337646484 7.394144058227539 1.626191377639771 0.000000000000000
9.729650497436523 -2.952198982238770 0.643259048461914 0.000000000000000
9.730558395385742 -8.535872459411621 0.047442130744457 0.000000000000000
9.734962463378906 10.649200439453125 1.766456484794617 0.000000000000000
9.735267639160156 10.558142662048340 0.273245543241501 0.000000000000000
9.736723899841309 7.192182540893555 0.602623045444489 0.000000000000000
9.737210273742676 7.215418815612793 0.556689500808716 0.000000000000000
9.737949371337891 6.937299251556396 0.296382427215576 0.000000000000000
9.738313674926758 8.833885192871094 0.857162117958069 0.000000000000000
9.739321708679199 6.382465839385986 0.422907918691635 0.000000000000000
9.739867210388184 11.104624748229980 1.048422574996948 0.000000000000000
9.740447998046875 9.909186363220215 1.120398163795471 0.000000000000000
9.741581916809082 1.274548768997192 0.678388476371765 0.000000000000000
9.747741699218750 9.077842712402344 0.458166241645813 0.000000000000000
9.747769355773926 8.900313377380371 0.073722325265408 0.000000000000000
9.748252868652344 7.143527030944824 1.608251452445984 0.000000000000000
9.750405311584473 3.874445915222168 0.018311984837055 0.000000000000000
9.751356124877930 1.033170700073242 0.658185839653015 0.000000000000000
9.751596450805664 -3.427958726882935 0.753628551959991 0.000000000000000
9.753583908081055 5.385161399841309 0.769317805767059 0.000000000000000
9.753613471984863 0.895888328552246 0.808710694313049 0.000000000000000
9.755039215087891 -1.292763471603394 0.622549474239349 0.000000000000000
9.755299568176270 10.398520469665527 0.408228456974030 0.000000000000000
9.755967140197754 6.599323272705078 0.836019277572632 0.000000000000000
9.756125450134277 -7.507532596588135 1.311252236366272 0.000000000000000
9.758060455322266 10.401463508605957 0.627688884735107 0.000000000000000
9.759412765502930 8.674561500549316 0.951997816562653 0.000000000000000
9.760781288146973 -8.999422073364258 0.916733682155609 0.000000000000000
9.762720108032227 11.080651283264160 3.071732282638550 0.000000000000000
9.764074325561523 -2.874464035034180 0.722454309463501 0.000000000000000
9.765276908874512 11.018642425537109 0.704627990722656 0.000000000000000
9.765586853027344 8.687382698059082 1.138921022415161 0.000000000000000
9.766934394836426 7.730358600616455 0.021739810705185 0.000000000000000
9.767530441284180 8.925861358642578 0.658708810806274 0.000000000000000
9.770412445068359 6.903516292572021 0.457490891218185 0.000000000000000
9.772677421569824 -3.554259538650513 0.878706991672516 0.000000000000000
9.772875785827637 -6.004791736602783 1.302814126014709 0.000000000000000
9.773707389831543 -3.402799844741821 0.555054128170013 0.000000000000000
9.774287223815918 -2.960527181625366 0.626431167125702 0.000000000000000
9.775466918945312 10.574674606323242 0.661493182182312 0.000000000000000
9.775467872619629 9.806913375854492 0.689337134361267 0.000000000000000
9.776798248291016 9.876957893371582 0.264418900012970 0.000000000000000
9.779544830322266 11.326524734497070 1.091030716896057 0.000000000000000
9.780032157897949 9.391170501708984 0.596735358238220 0.000000000000000
9.781811714172363 1.651311278343201 1.126758098602295 0.000000000000000
9.781985282897949 8.983036994934082 1.070888400077820 0.000000000000000
9.783361434936523 9.989751815795898 0.615377783775330 0.000000000000000
9.788205146789551 9.252363204956055 0.282136291265488 0.000000000000000
9.788502693176270 8.812989234924316 0.478366494178772 0.000000000000000
9.789748191833496 2.451389789581299 2.099139451980591 0.000000000000000
9.789915084838867 9.403955459594727 0.597438812255859 0.000000000000000
9.791578292846680 -2.884788990020752 0.704840600490570 0.000000000000000
9.795542716979980 9.389660835266113 0.284230530261993 0.000000000000000
9.796137809753418 1.489225029945374 0.837280750274658 0.000000000000000
9.797190666198730 10.494443893432617 0.742358922958374 0.000000000000000
9.797801017761230 8.581562042236328 0.297843843698502 0.000000000000000
9.798787117004395 -3.414599657058716 0.856765985488892 0.000000000000000
9.798974990844727 4.678492069244385 0.540570795536041 0.000000000000000
9.808756828308105 3.230269432067871 2.148013353347778 0.000000000000000
9.809401512145996 2.193019866943359 0.500395894050598 0.000000000000000
9.810485839843750 -1.800914883613586 0.592589318752289 0.000000000000000
9.811728477478027 -1.157474517822266 0.491843819618225 0.000000000000000
9.813838005065918 -5.104842662811279 1.051523923873901 0.000000000000000
9.814135551452637 10.937269210815430 0.986341178417206 0.000000000000000
9.814952850341797 -1.904989361763000 0.871205151081085 0.000000000000000
9.816020011901855 -5.254924774169922 0.919303655624390 0.000000000000000
9.816669464111328 2.348801612854004 1.495916485786438 0.000000000000000
9.818636894226074 1.568822145462036 0.945160329341888 0.000000000000000
9.820811271667480 3.411131858825684 1.383476257324219 0.000000000000000
9.821432113647461 -6.735455513000488 2.477098464965820 0.000000000000000
9.823913574218750 6.756337165832520 0.708355367183685 0.000000000000000
9.825928688049316 11.298663139343262 0.889595687389374 0.000000000000000
9.828849792480469 1.623983025550842 0.342662125825882 0.000000000000000
9.830837249755859 5.469080448150635 0.928848862648010 0.000000000000000
9.835841178894043 -4.803424358367920 1.165934085845947 0.000000000000000
9.836460113525391 -9.774167060852051 2.370308637619019 0.000000000000000
9.836642265319824 9.651598930358887 0.553497731685638 0.000000000000000
9.836779594421387 -9.413048744201660 1.450215339660645 0.000000000000000
9.836869239807129 9.698451042175293 0.528262138366699 0.000000000000000
9.837032318115234 7.465635299682617 1.076072096824646 0.000000000000000
9.838544845581055 8.204149246215820 1.082470059394836 0.000000000000000
9.838624954223633 11.155022621154785 0.425858080387115 0.000000000000000
9.838740348815918 -6.083172798156738 0.754115343093872 0.000000000000000
9.838879585266113 10.730482101440430 1.653571724891663 0.000000000000000
9.840887069702148 -3.349344491958618 0.717791140079498 0.000000000000000
9.844886779785156 10.812190055847168 0.925110995769501 0.000000000000000
9.845121383666992 -6.092821598052979 0.777125418186188 0.000000000000000
9.846894264221191 2.222883939743042 0.327819973230362 0.000000000000000
9.847059249877930 8.580465316772461 0.775964677333832 0.000000000000000
9.848871231079102 10.945572853088379 0.903158009052277 0.000000000000000
9.850651741027832 -9.728994369506836 0.982719182968140 0.000000000000000
9.852603912353516 8.862619400024414 0.455828607082367 0.000000000000000
9.855179786682129 6.716701030731201 0.479013115167618 0.000000000000000
9.862300872802734 9.525239944458008 1.824584484100342 0.000000000000000
9.862529754638672 -0.172323271632195 2.643060207366943 0.000000000000000
9.864239692687988 3.947014808654785 2.209920406341553 0.000000000000000
9.864398002624512 -4.347016334533691 0.723549067974091 0.000000000000000
9.864827156066895 7.432599544525146 0.116413131356239 0.000000000000000
9.865205764770508 1.710046052932739 0.846037507057190 0.000000000000000
9.866280555725098 6.716199398040771 0.456420928239822 0.000000000000000
9.868382453918457 3.211768627166748 2.158602714538574 0.000000000000000
9.869010925292969 7.968698024749756 3.398811817169189 0.000000000000000
9.870253562927246 11.206643104553223 0.657235503196716 0.000000000000000
9.871279716491699 9.533911705017090 0.102996505796909 0.000000000000000
9.873401641845703 6.834635257720947 0.690284371376038 0.000000000000000
9.874903678894043 0.656064689159393 0.473640054464340 0.000000000000000
9.875303268432617 11.208432197570801 1.117967009544373 0.000000000000000
9.876571655273438 9.465344429016113 0.575749099254608 0.000000000000000
9.877754211425781 6.927791118621826 1.019488692283630 0.000000000000000
9.877937316894531 5.016134738922119 0.807729303836823 0.000000000000000
9.878232955932617 4.833312511444092 1.249094486236572 0.000000000000000
9.878423690795898 6.722951889038086 0.802038490772247 0.000000000000000
9.878539085388184 8.729963302612305 0.580203354358673 0.000000000000000
9.878557205200195 -0.913971483707428 0.379382699728012 0.000000000000000
9.878704071044922 7.089689731597900 0.114603608846664 0.000000000000000
9.879404067993164 10.865704536437988 1.668017387390137 0.000000000000000
9.880316734313965 3.597706079483032 2.187112569808960 0.000000000000000
9.880808830261230 8.474263191223145 0.773355185985565 0.000000000000000
9.881607055664062 8.310488700866699 0.096902571618557 0.000000000000000
9.881672859191895 6.153679370880127 0.848741114139557 0.000000000000000
9.882267951965332 6.727082252502441 1.590839266777039 0.000000000000000
9.883406639099121 8.890327453613281 0.252929031848907 0.000000000000000
9.883541107177734 -7.642175197601318 1.031542301177979 0.000000000000000
9.888523101806641 10.157232284545898 1.170441746711731 0.000000000000000
9.889758110046387 1.937784671783447 0.878149807453156 0.000000000000000
9.890075683593750 10.120236396789551 1.086326718330383 0.000000000000000
9.890559196472168 -2.725799322128296 0.510737955570221 0.000000000000000
9.893693923950195 7.846705436706543 0.847578346729279 0.000000000000000
9.896384239196777 -2.210653066635132 1.241477727890015 0.000000000000000
9.896764755249023 8.729473114013672 0.911222815513611 0.000000000000000
9.898815155029297 -1.667507052421570 0.441791683435440 0.000000000000000
9.899351119995117 7.036666870117188 0.862074077129364 0.000000000000000
9.900362968444824 -7.308248519897461 1.823716282844543 0.000000000000000
9.902141571044922 -1.523908495903015 0.325353205204010 0.000000000000000
9.904612541198730 -3.340584754943848 1.187249183654785 0.000000000000000
9.905674934387207 -7.864661216735840 1.146618843078613 0.000000000000000
9.909109115600586 6.450803279876709 0.816435813903809 0.000000000000000
9.913794517517090 3.107176303863525 1.775878190994263 0.000000000000000
9.913996696472168 7.256478309631348 0.800954759120941 0.000000000000000
9.915097236633301 7.103487014770508 0.748142004013062 0.000000000000000
9.915758132934570 10.778029441833496 0.813677668571472 0.000000000000000
9.918008804321289 3.928419351577759 2.218880653381348 0.000000000000000
9.922577857971191 -0.804975569248199 0.902488350868225 1.000000000000000
9.923630714416504 10.841901779174805 0.731699705123901 0.000000000000000
9.924598693847656 6.876732826232910 0.903627872467041 0.000000000000000
9.925193786621094 6.721885204315186 0.989740848541260 0.000000000000000
9.925697326660156 7.480099678039551 0.427502632141113 0.000000000000000
9.926100730895996 5.845521926879883 0.617821693420410 0.000000000000000
9.929853439331055 -0.780798852443695 0.841659128665924 0.000000000000000
9.930894851684570 7.876209735870361 0.655399262905121 0.000000000000000
9.939612388610840 -3.154175758361816 1.387697339057922 0.000000000000000
9.941735267639160 10.870807647705078 0.138843774795532 0.000000000000000
9.942164421081543 0.698540568351746 0.765143930912018 0.000000000000000
9.945273399353027 -7.531924724578857 1.005947232246399 0.000000000000000
9.945681571960449 -3.775229215621948 0.898914873600006 0.000000000000000
9.946125030517578 8.340470314025879 0.446478307247162 0.000000000000000
9.946475028991699 8.750805854797363 0.023122111335397 0.000000000000000
9.952896118164062 8.746606826782227 0.608632445335388 0.000000000000000
9.952971458435059 1.539379596710205 0.812087714672089 0.000000000000000
9.954208374023438 7.727957248687744 0.675876438617706 0.000000000000000
9.955416679382324 -1.354695916175842 1.070185184478760 0.000000000000000
9.956270217895508 5.962949752807617 1.420845508575439 0.000000000000000
9.956433296203613 1.444320917129517 0.384732604026794 1.000000000000000
9.956822395324707 10.118352890014648 0.679387629032135 1.000000000000000
9.957503318786621 10.783668518066406 0.251077800989151 0.000000000000000
9.957933425903320 -5.233353137969971 0.980236053466797 0.000000000000000
9.958049774169922 8.666177749633789 0.962468922138214 0.000000000000000
9.958648681640625 8.477876663208008 0.877849042415619 0.000000000000000
9.960689544677734 -8.191123962402344 1.064785957336426 0.000000000000000
9.961086273193359 1.681575536727905 0.347474813461304 0.000000000000000
9.961853027343750 -1.769453883171082 0.211937308311462 0.000000000000000
9.962912559509277 0.807194888591766 0.805979430675507 0.000000000000000
9.964797973632812 6.102610111236572 1.554959654808044 0.000000000000000
9.965984344482422 10.393155097961426 0.606025099754333 0.000000000000000
9.966484069824219 -0.983896315097809 0.907905459403992 0.000000000000000
9.969679832458496 4.964623928070068 0.383088529109955 0.000000000000000
9.972316741943359 0.695762157440186 0.478420406579971 0.000000000000000
9.973066329956055 7.257565021514893 0.661523401737213 0.000000000000000
9.973590850830078 -7.501457214355469 1.417476177215576 0.000000000000000
9.974234580993652 4.704366683959961 0.019247481599450 0.000000000000000
9.975708961486816 10.966239929199219 0.310534209012985 0.000000000000000
9.976014137268066 1.660820484161377 1.728701114654541 0.000000000000000
9.976991653442383 5.324536800384521 0.584757387638092 0.000000000000000
9.977430343627930 6.674518108367920 1.278629779815674 0.000000000000000
9.978598594665527 2.373189449310303 0.688456535339355 0.000000000000000
9.979534149169922 6.908102512359619 0.510823845863342 0.000000000000000
9.981749534606934 -2.348183393478394 0.668503165245056 0.000000000000000
9.984074592590332 -6.205839157104492 1.742206096649170 0.000000000000000
9.984162330627441 8.330902099609375 0.347318351268768 0.000000000000000
9.988599777221680 -0.833323955535889 1.067643165588379 0.000000000000000
9.989906311035156 -5.255053520202637 0.953813016414642 0.000000000000000
9.990159034729004 -2.620682954788208 0.494291275739670 0.000000000000000
9.991941452026367 10.335401535034180 0.964910686016083 0.000000000000000
9.994423866271973 -3.281747579574585 1.798118829727173 0.000000000000000
9.994913101196289 6.718335151672363 0.994348824024200 0.000000000000000
9.996337890625000 8.277923583984375 0.172168195247650 0.000000000000000
9.996873855590820 5.340528488159180 0.564238131046295 0.000000000000000
10.000821113586426 7.217600822448730 0.258345693349838 0.000000000000000
10.002291679382324 -0.789305269718170 0.364400595426559 0.000000000000000
10.005290031433105 6.042253971099854 0.965054869651794 0.000000000000000
10.008652687072754 -3.173777580261230 0.583353877067566 0.000000000000000
10.010118484497070 10.330004692077637 0.467127263545990 0.000000000000000
10.010261535644531 -3.281916379928589 2.191185474395752 0.000000000000000
10.014586448669434 8.715380668640137 0.048658974468708 0.000000000000000
10.016826629638672 7.394221305847168 0.859696149826050 0.000000000000000
10.017338752746582 7.772486686706543 0.655605852603912 0.000000000000000
10.020018577575684 -3.904829025268555 1.079078793525696 0.000000000000000
10.024477958679199 -6.801891326904297 0.789765357971191 0.000000000000000
10.024671554565430 4.409708976745605 0.082193069159985 0.000000000000000
10.026677131652832 -3.947793960571289 2.887385368347168 0.000000000000000
10.027078628540039 -4.281462669372559 0.900213181972504 0.000000000000000
10.028838157653809 7.237821102142334 0.449185431003571 0.000000000000000
10.029405593872070 -7.455013751983643 1.088919639587402 0.000000000000000
10.029491424560547 7.349618911743164 0.666878998279572 0.000000000000000
10.029767036437988 10.447257041931152 0.525985360145569 0.000000000000000
10.033364295959473 8.378494262695312 0.098103344440460 0.000000000000000
10.033759117126465 6.712200164794922 0.763728022575378 0.000000000000000
10.035276412963867 -1.210137128829956 0.854120671749115 0.000000000000000
10.035300254821777 -3.567095518112183 0.612234234809875 0.000000000000000
10.036043167114258 10.834909439086914 1.076778411865234 0.000000000000000
10.036428451538086 3.527297496795654 1.415662288665771 0.000000000000000
10.036770820617676 9.676156044006348 0.265255898237228 0.000000000000000
10.037101745605469 11.100877761840820 1.177828073501587 0.000000000000000
10.038686752319336 -6.135098457336426 3.152415990829468 0.000000000000000
10.040706634521484 -9.968068122863770 1.058859586715698 0.000000000000000
10.040742874145508 1.517089128494263 1.153392195701599 0.000000000000000
10.042342185974121 3.098638772964478 1.286684274673462 0.000000000000000
10.043705940246582 10.097138404846191 1.148368000984192 0.000000000000000
10.045300483703613 7.352584838867188 0.428190141916275 0.000000000000000
10.046370506286621 0.800902783870697 0.443550407886505 0.000000000000000
10.049040794372559 10.039225578308105 0.816541910171509 0.000000000000000
10.050576210021973 1.020727038383484 0.775554060935974 0.000000000000000
10.052700042724609 -6.470580101013184 1.357887983322144 0.000000000000000
10.054450035095215 6.376073360443115 0.386632829904556 0.000000000000000
10.054922103881836 -2.802088260650635 1.277934670448303 0.000000000000000
10.055653572082520 -1.532624721527100 0.702360749244690 0.000000000000000
10.056116104125977 0.919077098369598 0.347337275743484 0.000000000000000
10.057643890380859 8.506590843200684 0.909569561481476 0.000000000000000
10.060034751892090 10.731978416442871 0.251625120639801 0.000000000000000
10.061417579650879 -3.384868144989014 0.100051961839199 1.000000000000000
10.062917709350586 8.668017387390137 0.840252339839935 0.000000000000000
10.062938690185547 10.984857559204102 1.230017066001892 0.000000000000000
10.064449310302734 9.783149719238281 0.078391402959824 0.000000000000000
10.064569473266602 -1.733207106590271 1.024765491485596 0.000000000000000
10.064941406250000 10.632960319519043 1.067470788955688 0.000000000000000
10.065250396728516 -0.654771506786346 0.521551549434662 0.000000000000000
10.067359924316406 6.834326267242432 0.021237155422568 0.000000000000000
10.067377090454102 8.634272575378418 0.175935208797455 0.000000000000000
10.067625999450684 -8.655245780944824 1.121875405311584 0.000000000000000
10.068410873413086 -0.816806435585022 1.726679205894470 1.000000000000000
10.069334983825684 11.021924018859863 0.829432010650635 0.000000000000000
10.069512367248535 -2.220559120178223 0.712004780769348 0.000000000000000
10.071065902709961 7.321894168853760 0.643832147121429 0.000000000000000
10.072801589965820 11.026492118835449 0.198112800717354 0.000000000000000
10.073190689086914 10.356324195861816 0.774847865104675 0.000000000000000
10.073214530944824 -2.705140352249146 1.276962399482727 0.000000000000000
10.073863029479980 2.625173091888428 1.542828679084778 0.000000000000000
10.075163841247559 9.532270431518555 0.530402123928070 0.000000000000000
10.075246810913086 8.126214981079102 1.068735718727112 0.000000000000000
10.077062606811523 -1.607951402664185 0.390235334634781 0.000000000000000
10.077207565307617 -4.098486900329590 1.331890821456909 0.000000000000000
10.077898025512695 -4.775856971740723 0.942361891269684 0.000000000000000
10.078513145446777 -1.951945900917053 0.788107454776764 0.000000000000000
10.078619956970215 10.827312469482422 0.480369895696640 0.000000000000000
10.079078674316406 5.654726982116699 0.264282673597336 0.000000000000000
10.079856872558594 -6.152528762817383 1.257870078086853 0.000000000000000
10.079983711242676 -2.392282962799072 1.039541959762573 0.000000000000000
10.084347724914551 1.108337998390198 0.739667117595673 0.000000000000000
10.084376335144043 -3.277780294418335 0.079581379890442 1.000000000000000
10.086466789245605 7.232923507690430 1.048790097236633 0.000000000000000
10.087566375732422 1.938545465469360 2.136609554290771 0.000000000000000
10.088743209838867 -3.645901441574097 1.142632365226746 0.000000000000000
10.090373992919922 -2.326207876205444 0.774964630603790 0.000000000000000
10.091002464294434 2.300400733947754 1.769138693809509 0.000000000000000
10.094451904296875 9.952409744262695 0.760280668735504 0.000000000000000
10.101450920104980 -8.606740951538086 1.095725655555725 0.000000000000000
10.101773262023926 6.808864116668701 0.208387747406960 0.000000000000000
10.102138519287109 7.297696113586426 0.860522806644440 0.000000000000000
10.107129096984863 1.972317576408386 0.933546304702759 0.000000000000000
10.108200073242188 -2.375324487686157 0.097865447402000 1.000000000000000
10.108484268188477 8.267217636108398 0.373885065317154 0.000000000000000
10.115139961242676 0.705726861953735 0.641491174697876 0.000000000000000
10.131624221801758 -2.864668846130371 0.954492449760437 0.000000000000000
10.132076263427734 1.037759065628052 0.683634638786316 0.000000000000000
10.135843276977539 1.357456088066101 0.528780996799469 0.000000000000000
10.136762619018555 -3.489576339721680 0.574976921081543 1.000000000000000
10.138054847717285 4.659126758575439 0.383776098489761 0.000000000000000
10.141386032104492 3.842637300491333 0.707015693187714 0.000000000000000
10.141545295715332 -0.879957973957062 0.644016683101654 0.000000000000000
10.142458915710449 -2.006789207458496 0.773770511150360 0.000000000000000
10.144458770751953 -8.363041877746582 1.085522174835205 0.000000000000000
10.145137786865234 2.275514841079712 1.777226090431213 0.000000000000000
10.148705482482910 3.923794984817505 0.395178645849228 0.000000000000000
10.149078369140625 3.143215894699097 1.300780892372131 0.000000000000000
10.150003433227539 -8.709444046020508 1.104283452033997 0.000000000000000
10.153181076049805 -6.251409530639648 3.194862604141235 0.000000000000000
10.154957771301270 8.467999458312988 0.505639791488647 0.000000000000000
10.155806541442871 4.308372974395752 2.294635534286499 0.000000000000000
10.157599449157715 -5.740342617034912 1.109058737754822 0.000000000000000
10.161802291870117 10.018102645874023 0.930283784866333 0.000000000000000
10.162830352783203 9.744442939758301 0.349017560482025 0.000000000000000
10.164905548095703 7.425700187683105 0.772141337394714 0.000000000000000
10.167297363281250 -6.190566539764404 0.821946680545807 0.000000000000000
10.168019294738770 1.228301882743835 0.608483433723450 0.000000000000000
10.168741226196289 0.716778635978699 0.350637435913086 1.000000000000000
10.168958663940430 -3.381974220275879 0.574762701988220 0.000000000000000
10.171038627624512 2.870067119598389 0.709351360797882 0.000000000000000
10.171378135681152 -6.148365974426270 0.797752320766449 0.000000000000000
10.174487113952637 2.101108789443970 0.987554371356964 0.000000000000000
10.175035476684570 5.661959171295166 0.804036378860474 0.000000000000000
10.175440788269043 7.863901138305664 0.962436795234680 0.000000000000000
10.178804397583008 0.970782876014709 0.686313450336456 0.000000000000000
10.180582046508789 8.370160102844238 0.732243359088898 0.000000000000000
10.180743217468262 9.921449661254883 0.899350345134735 0.000000000000000
10.180862426757812 10.244318962097168 1.192494511604309 0.000000000000000
10.185377120971680 7.471505641937256 0.046298597007990 0.000000000000000
10.187821388244629 1.330039620399475 0.531259655952454 0.000000000000000
10.189476966857910 5.217365741729736 0.613965690135956 0.000000000000000
10.192394256591797 7.467354297637939 0.653333723545074 0.000000000000000
10.193376541137695 -8.768304824829102 0.902494192123413 0.000000000000000
10.195747375488281 -3.475285053253174 0.723013281822205 0.000000000000000
10.197516441345215 -8.766914367675781 0.928582072257996 0.000000000000000
10.197933197021484 -1.193651318550110 0.708973824977875 0.000000000000000
10.201246261596680 -1.357694029808044 0.314424544572830 0.000000000000000
10.207735061645508 0.656886696815491 0.745775222778320 0.000000000000000
10.208583831787109 2.247119188308716 0.560623943805695 0.000000000000000
10.210428237915039 -0.947552144527435 0.530226886272430 0.000000000000000
10.210695266723633 6.994548320770264 0.616147220134735 0.000000000000000
10.211154937744141 10.785929679870605 0.311120599508286 0.000000000000000
10.211266517639160 8.520401000976562 0.150880485773087 0.000000000000000
10.211775779724121 4.389649391174316 0.531960666179657 0.000000000000000
10.211983680725098 -5.871677398681641 1.067890405654907 0.000000000000000
10.212004661560059 -9.737682342529297 1.028785824775696 0.000000000000000
10.213423728942871 7.467167377471924 0.022081894800067 0.000000000000000
10.218762397766113 1.737916827201843 0.939685761928558 0.000000000000000
10.218764305114746 4.819699764251709 0.193268343806267 0.000000000000000
10.219022750854492 -2.318329095840454 0.784218788146973 0.000000000000000
10.219176292419434 1.953847885131836 1.384531378746033 0.000000000000000
10.219486236572266 6.545185565948486 0.627514302730560 0.000000000000000
10.221795082092285 -4.498548984527588 0.792688965797424 0.000000000000000
10.222046852111816 -10.228470802307129 1.310937404632568 0.000000000000000
10.222394943237305 -3.199194192886353 0.121521197259426 1.000000000000000
10.224781990051270 8.582047462463379 0.279623180627823 0.000000000000000
10.228993415832520 -2.333734750747681 0.058598082512617 1.000000000000000
10.230181694030762 5.601790904998779 0.446026891469955 0.000000000000000
10.230636596679688 8.467731475830078 0.917009234428406 0.000000000000000
10.232647895812988 6.372244358062744 1.092809081077576 0.000000000000000
10.234065055847168 7.861105918884277 3.457822561264038 0.000000000000000
10.235623359680176 9.291522979736328 0.050667494535446 0.000000000000000
10.241407394409180 1.702070116996765 0.736897766590118 0.000000000000000
10.241712570190430 -4.796260833740234 0.985444486141205 0.000000000000000
10.247357368469238 4.355866909027100 0.169086590409279 0.000000000000000
10.247601509094238 -1.120122909545898 0.751592516899109 0.000000000000000
10.249626159667969 7.478540420532227 1.105586767196655 0.000000000000000
10.250108718872070 8.862968444824219 0.831160008907318 0.000000000000000
10.250272750854492 -3.583369970321655 1.156613349914551 0.000000000000000
10.250289916992188 8.770367622375488 1.061708569526672 0.000000000000000
10.250853538513184 -1.014859437942505 0.897594749927521 0.000000000000000
10.251314163208008 8.538645744323730 0.253842145204544 0.000000000000000
10.252201080322266 -4.659022331237793 0.886274039745331 0.000000000000000
10.257324218750000 10.255895614624023 1.263924598693848 0.000000000000000
10.259606361389160 -6.686622142791748 1.814920067787170 0.000000000000000
10.260903358459473 5.299224376678467 0.797423303127289 0.000000000000000
10.260934829711914 -4.812689304351807 1.027442693710327 0.000000000000000
10.262453079223633 -2.948914766311646 0.552121698856354 0.000000000000000
10.262598037719727 -2.030560016632080 0.621530830860138 0.000000000000000
10.264935493469238 -5.974095344543457 1.265072345733643 0.000000000000000
10.265184402465820 -4.223460674285889 0.787874519824982 0.000000000000000
10.265587806701660 -4.184293270111084 0.765460252761841 0.000000000000000
10.269257545471191 -1.768456220626831 0.639165520668030 0.000000000000000
10.270112991333008 0.477859199047089 0.551412343978882 0.000000000000000
10.272059440612793 -2.318488121032715 0.180132940411568 1.000000000000000
10.272445678710938 7.881760597229004 0.969004273414612 0.000000000000000
10.273008346557617 -1.202438712120056 0.873991787433624 0.000000000000000
10.273510932922363 -9.751924514770508 1.608880639076233 0.000000000000000
10.279606819152832 -1.825894236564636 0.700779080390930 0.000000000000000
10.280178070068359 1.602848410606384 0.758573234081268 0.000000000000000
10.280838966369629 -1.157178163528442 0.614651322364807 0.000000000000000
10.283558845520020 5.916178703308105 2.027938127517700 0.000000000000000
10.284849166870117 -1.441963434219360 0.797292828559875 0.000000000000000
10.285951614379883 -2.736687660217285 1.133735418319702 0.000000000000000
10.286203384399414 -2.389511108398438 1.199437618255615 0.000000000000000
10.289076805114746 10.097293853759766 0.025160653516650 0.000000000000000
10.289710998535156 -2.309075593948364 0.687499225139618 0.000000000000000
10.292524337768555 6.527049064636230 0.771052122116089 0.000000000000000
10.299781799316406 9.716550827026367 0.895814597606659 0.000000000000000
10.300423622131348 9.971703529357910 0.465569287538528 1.000000000000000
10.301036834716797 -0.989336848258972 0.395738065242767 0.000000000000000
10.301967620849609 8.175789833068848 0.326020687818527 0.000000000000000
10.302453994750977 -4.365919589996338 1.489004373550415 0.000000000000000
10.302643775939941 -4.283514022827148 1.484783291816711 0.000000000000000
10.302937507629395 7.541160583496094 0.046797063201666 0.000000000000000
10.304563522338867 8.522255897521973 0.459953784942627 0.000000000000000
10.307213783264160 7.616363525390625 0.046972990036011 0.000000000000000
10.307411193847656 -2.197677850723267 1.402471303939819 0.000000000000000
10.308732032775879 -1.304489254951477 0.777651250362396 0.000000000000000
10.310569763183594 2.365414142608643 0.343529373407364 0.000000000000000
10.315814018249512 7.709078788757324 0.220291718840599 0.000000000000000
10.317019462585449 -4.318242073059082 0.664468646049500 0.000000000000000
10.317204475402832 4.926362037658691 0.261447817087173 0.000000000000000
10.317218780517578 8.765442848205566 0.231579944491386 0.000000000000000
10.318902015686035 -7.998105525970459 1.027500391006470 0.000000000000000
10.319891929626465 -3.113400936126709 0.122292615473270 1.000000000000000
10.321840286254883 8.831586837768555 0.650131642818451 0.000000000000000
10.324594497680664 -3.350281238555908 1.855405092239380 0.000000000000000
10.325187683105469 -1.778087973594666 0.804334938526154 0.000000000000000
10.325334548950195 8.605194091796875 0.281549900770187 0.000000000000000
10.325337409973145 4.033575057983398 1.357167482376099 0.000000000000000
10.325718879699707 -6.099561691284180 0.920683443546295 0.000000000000000
10.328429222106934 -8.743041038513184 0.986610591411591 0.000000000000000
10.329694747924805 8.851125717163086 0.154329195618629 0.000000000000000
10.332752227783203 10.418950080871582 0.645803749561310 0.000000000000000
10.334845542907715 10.863662719726562 0.227695971727371 0.000000000000000
10.337229728698730 -1.883998274803162 0.826958954334259 0.000000000000000
10.340025901794434 5.816322326660156 0.979537248611450 0.000000000000000
10.340349197387695 -3.831988811492920 1.634307742118835 0.000000000000000
10.341822624206543 10.149056434631348 0.247862368822098 0.000000000000000
10.342092514038086 0.637626707553864 0.615600168704987 0.000000000000000
10.344675064086914 10.180603027343750 0.722550988197327 0.000000000000000
10.349225997924805 -4.260572433471680 0.600255370140076 0.000000000000000
10.352448463439941 10.392639160156250 1.562487363815308 0.000000000000000
