# This PCD file was generated using the MATLAB® pcwrite function
# from Computer Vision Toolbox®.
# .PCD v.7 - Point Cloud Data file format
VERSION .7
FIELDS x y z intensity
SIZE 8 8 8 8
TYPE F F F F
COUNT 1 1 1 1
WIDTH 644
HEIGHT 1
VIEWPOINT 0 0 0 1 0 0 0
POINTS 644
DATA ascii
19.122657775878906 1.991656661033630 0.476590842008591 0.000000000000000
19.127054214477539 17.010465621948242 3.133832216262817 0.000000000000000
19.129241943359375 -2.638069152832031 1.594381332397461 0.000000000000000
19.135202407836914 -3.764929771423340 1.956878662109375 0.000000000000000
19.136175155639648 16.630134582519531 1.262127280235291 0.000000000000000
19.136207580566406 15.851128578186035 3.682616710662842 0.000000000000000
19.143531799316406 11.918581962585449 1.964986085891724 0.000000000000000
19.144226074218750 -4.816511631011963 1.629928946495056 0.000000000000000
19.145326614379883 16.607030868530273 1.554568171501160 0.000000000000000
19.145730972290039 14.643840789794922 0.042069397866726 0.000000000000000
19.146421432495117 -21.642610549926758 0.827332317829132 1.000000000000000
19.152647018432617 13.345184326171875 1.566841363906860 0.000000000000000
19.160490036010742 22.210174560546875 2.555974960327148 0.000000000000000
19.162572860717773 -1.340649604797363 1.825972437858582 0.000000000000000
19.163534164428711 0.226779356598854 1.286368846893311 0.000000000000000
19.166610717773438 17.732332229614258 -0.205081075429916 0.000000000000000
19.178874969482422 0.512937307357788 3.279477357864380 0.000000000000000
19.178874969482422 19.771036148071289 1.742633342742920 0.000000000000000
19.180122375488281 0.147630438208580 1.509553194046021 0.000000000000000
19.196956634521484 17.877676010131836 1.710160851478577 0.000000000000000
19.197557449340820 12.066905021667480 2.055607795715332 0.000000000000000
19.199384689331055 19.457107543945312 1.571332335472107 0.000000000000000
19.201223373413086 -14.890774726867676 3.601106643676758 0.000000000000000
19.201986312866211 19.189929962158203 1.560543060302734 0.000000000000000
19.208763122558594 13.137249946594238 1.786560654640198 0.000000000000000
19.214256286621094 -6.548177242279053 1.284245014190674 0.000000000000000
19.214683532714844 18.094976425170898 1.263167619705200 0.000000000000000
19.218086242675781 -2.550927162170410 1.945297241210938 0.000000000000000
19.218271255493164 -5.795751094818115 1.037939190864563 0.000000000000000
19.218427658081055 1.569231033325195 1.592077255249023 0.000000000000000
19.221496582031250 10.128346443176270 3.219944000244141 0.000000000000000
19.224464416503906 15.413276672363281 0.421496033668518 0.000000000000000
19.229745864868164 12.225249290466309 -0.485273778438568 0.000000000000000
19.230728149414062 1.382528901100159 3.295652627944946 0.000000000000000
19.232646942138672 12.846477508544922 1.820251107215881 0.000000000000000
19.234346389770508 -10.675818443298340 1.646352052688599 0.000000000000000
19.242328643798828 16.371881484985352 1.257751822471619 0.000000000000000
19.244546890258789 3.186613082885742 1.271691322326660 0.000000000000000
19.245841979980469 -21.825515747070312 0.721329391002655 1.000000000000000
19.246500015258789 14.137449264526367 0.729626178741455 0.000000000000000
19.248430252075195 1.527735710144043 1.835435509681702 0.000000000000000
19.249931335449219 -1.531568050384521 2.056907653808594 0.000000000000000
19.256347656250000 -9.921072006225586 3.702723026275635 0.000000000000000
19.272869110107422 2.745001554489136 2.885107278823853 0.000000000000000
19.274850845336914 -3.822816371917725 1.281059265136719 0.000000000000000
19.275493621826172 0.582856297492981 3.296326398849487 0.000000000000000
19.275915145874023 0.699404478073120 1.294673323631287 0.000000000000000
19.279870986938477 22.309190750122070 2.092880249023438 0.000000000000000
19.284301757812500 24.495424270629883 2.963420152664185 0.000000000000000
19.289129257202148 25.931203842163086 2.293955326080322 0.000000000000000
19.289360046386719 8.795540809631348 -0.410762667655945 0.000000000000000
19.294292449951172 12.077961921691895 -0.484762787818909 0.000000000000000
19.297746658325195 15.872803688049316 2.063084602355957 0.000000000000000
19.299350738525391 -23.201648712158203 0.226496249437332 1.000000000000000
19.300958633422852 13.885493278503418 1.366795182228088 0.000000000000000
19.304096221923828 16.032848358154297 1.587564229965210 0.000000000000000
19.304542541503906 13.152873992919922 1.567912817001343 0.000000000000000
19.306951522827148 -7.856231212615967 1.077804446220398 0.000000000000000
19.307962417602539 19.474473953247070 0.679796218872070 0.000000000000000
19.308031082153320 3.783887386322021 1.870259165763855 0.000000000000000
19.308561325073242 14.299060821533203 1.011219263076782 0.000000000000000
19.311542510986328 -9.383846282958984 2.857179164886475 0.000000000000000
19.312793731689453 -21.869102478027344 0.835345804691315 1.000000000000000
19.313529968261719 18.682811737060547 -0.830377280712128 0.000000000000000
19.313596725463867 -13.378854751586914 1.803706645965576 0.000000000000000
19.313730239868164 -3.165859699249268 1.540309190750122 0.000000000000000
19.315719604492188 -7.235687255859375 1.742931604385376 0.000000000000000
19.317134857177734 -6.405740737915039 1.405272603034973 0.000000000000000
19.317214965820312 -21.201078414916992 0.600796163082123 1.000000000000000
19.322628021240234 16.472768783569336 0.922180294990540 0.000000000000000
19.324352264404297 -1.056041002273560 1.560520052909851 0.000000000000000
19.325366973876953 -5.130887031555176 2.129778861999512 0.000000000000000
19.325542449951172 0.290769606828690 2.195282459259033 0.000000000000000
19.327230453491211 28.630111694335938 2.052237749099731 0.000000000000000
19.329639434814453 -8.421620368957520 1.415220260620117 0.000000000000000
19.342632293701172 19.757562637329102 0.366779267787933 0.000000000000000
19.354747772216797 15.588345527648926 0.138799041509628 0.000000000000000
19.356899261474609 -8.511593818664551 1.134101271629333 0.000000000000000
19.356956481933594 19.981113433837891 1.706400513648987 0.000000000000000
19.357688903808594 1.858477592468262 1.643239259719849 0.000000000000000
19.358675003051758 25.469024658203125 2.332438230514526 0.000000000000000
19.359596252441406 18.467493057250977 -0.826794326305389 0.000000000000000
19.362268447875977 14.549232482910156 0.646896421909332 0.000000000000000
19.364070892333984 -9.630105972290039 2.055732965469360 0.000000000000000
19.365562438964844 24.422763824462891 2.332655429840088 0.000000000000000
19.368761062622070 -7.942918300628662 1.897789597511292 0.000000000000000
19.370576858520508 -4.556883811950684 0.990648686885834 0.000000000000000
19.372100830078125 -3.896953105926514 2.928501367568970 0.000000000000000
19.376895904541016 3.278047084808350 1.584632039070129 0.000000000000000
19.385681152343750 -5.327331542968750 1.698811054229736 0.000000000000000
19.391376495361328 -5.301606655120850 2.017182350158691 0.000000000000000
19.396066665649414 17.487617492675781 0.145858511328697 0.000000000000000
19.400207519531250 3.655889272689819 3.374505519866943 0.000000000000000
19.402114868164062 -3.987622737884521 2.935538053512573 0.000000000000000
19.404821395874023 19.914056777954102 1.812687158584595 0.000000000000000
19.405447006225586 -10.668675422668457 2.222055673599243 0.000000000000000
19.408279418945312 12.401611328125000 2.189350128173828 0.000000000000000
19.412309646606445 16.654838562011719 0.339296042919159 0.000000000000000
19.412721633911133 17.155609130859375 1.140181303024292 0.000000000000000
19.413320541381836 2.549608230590820 1.427560448646545 0.000000000000000
19.425668716430664 -6.760172367095947 1.340909719467163 0.000000000000000
19.426195144653320 0.370967030525208 1.341622114181519 0.000000000000000
19.435161590576172 -4.598217010498047 2.004003524780273 0.000000000000000
19.436971664428711 13.377655029296875 1.948212742805481 0.000000000000000
19.443307876586914 -21.856458663940430 2.549030303955078 0.000000000000000
19.444942474365234 17.293174743652344 0.545089364051819 0.000000000000000
19.447788238525391 1.956917047500610 0.484520792961121 0.000000000000000
19.455169677734375 16.972421646118164 2.750028371810913 0.000000000000000
19.455406188964844 19.233249664306641 -0.372455716133118 0.000000000000000
19.458080291748047 20.098831176757812 1.446505188941956 0.000000000000000
19.460987091064453 11.653611183166504 1.216577529907227 0.000000000000000
19.462993621826172 19.647996902465820 0.473079860210419 0.000000000000000
19.471889495849609 17.520879745483398 0.850644171237946 0.000000000000000
19.479440689086914 15.263960838317871 1.613359212875366 0.000000000000000
19.483268737792969 28.610734939575195 1.923137307167053 1.000000000000000
19.487520217895508 15.675104141235352 2.267235517501831 0.000000000000000
19.488143920898438 11.798730850219727 2.587571144104004 0.000000000000000
19.494218826293945 -8.876631736755371 2.622463941574097 0.000000000000000
19.495281219482422 -16.415388107299805 1.661499738693237 0.000000000000000
19.495429992675781 10.651781082153320 1.405471682548523 0.000000000000000
19.495592117309570 -6.751717090606689 1.225744247436523 0.000000000000000
19.495780944824219 19.318290710449219 0.574911355972290 0.000000000000000
19.500308990478516 13.523324012756348 1.867640495300293 0.000000000000000
19.502025604248047 17.815290451049805 2.129881858825684 0.000000000000000
19.508319854736328 2.610598087310791 1.283141016960144 0.000000000000000
19.508869171142578 -20.542257308959961 3.217761278152466 0.000000000000000
19.510728836059570 -9.774930953979492 2.189707279205322 0.000000000000000
19.521467208862305 27.856811523437500 2.020924091339111 0.000000000000000
19.521923065185547 0.580079197883606 1.273252606391907 0.000000000000000
19.530073165893555 17.828409194946289 0.096922114491463 0.000000000000000
19.530311584472656 18.781963348388672 0.463501960039139 0.000000000000000
19.531026840209961 16.194252014160156 1.360750198364258 0.000000000000000
19.533626556396484 10.532732963562012 2.953209638595581 0.000000000000000
19.538263320922852 -10.046044349670410 2.204483747482300 0.000000000000000
19.547649383544922 -1.212366342544556 2.086140871047974 0.000000000000000
19.550476074218750 18.436969757080078 -0.778786838054657 0.000000000000000
19.551727294921875 22.261535644531250 1.076070547103882 0.000000000000000
19.554334640502930 15.645818710327148 3.332584142684937 0.000000000000000
19.557538986206055 20.138875961303711 -0.436099082231522 0.000000000000000
19.558443069458008 -22.377653121948242 0.679636240005493 1.000000000000000
19.564733505249023 4.053796291351318 1.741021513938904 0.000000000000000
19.566389083862305 -18.027544021606445 2.248129129409790 0.000000000000000
19.566741943359375 -4.428219795227051 1.906975269317627 0.000000000000000
19.569042205810547 18.180854797363281 0.200469449162483 0.000000000000000
19.574235916137695 1.618937134742737 1.469925165176392 0.000000000000000
19.574851989746094 17.519165039062500 1.560706734657288 0.000000000000000
19.575286865234375 -0.277437210083008 1.465148925781250 0.000000000000000
19.575977325439453 18.653688430786133 1.606491208076477 0.000000000000000
19.576910018920898 -3.825936079025269 1.608422398567200 0.000000000000000
19.586263656616211 18.574338912963867 1.291849851608276 0.000000000000000
19.587911605834961 15.525758743286133 1.967126607894897 0.000000000000000
19.590635299682617 4.817008972167969 2.684640169143677 0.000000000000000
19.598529815673828 1.600267171859741 1.319854140281677 0.000000000000000
19.603363037109375 -21.711465835571289 -0.005105437245220 1.000000000000000
19.604354858398438 15.534876823425293 -0.580734133720398 0.000000000000000
19.606723785400391 1.814037919044495 1.397613525390625 0.000000000000000
19.607807159423828 20.099176406860352 1.722318410873413 0.000000000000000
19.610338211059570 -4.016151428222656 2.966617345809937 0.000000000000000
19.612367630004883 18.469488143920898 0.460833847522736 0.000000000000000
19.615522384643555 11.121446609497070 3.854363441467285 0.000000000000000
19.617362976074219 6.666073799133301 -0.202510833740234 0.000000000000000
19.617942810058594 -3.762908220291138 2.268864631652832 0.000000000000000
19.625307083129883 20.413686752319336 1.028451681137085 0.000000000000000
19.627035140991211 17.770521163940430 1.369047045707703 0.000000000000000
19.642324447631836 -7.436323165893555 2.794917345046997 0.000000000000000
19.645647048950195 18.500827789306641 0.876350462436676 0.000000000000000
19.649095535278320 -9.612387657165527 1.983018517494202 0.000000000000000
19.653642654418945 22.109987258911133 1.643553495407104 0.000000000000000
19.661624908447266 -3.111281156539917 1.892213106155396 0.000000000000000
19.663082122802734 10.214589118957520 -0.301667362451553 0.000000000000000
19.670999526977539 -3.844324111938477 2.276539087295532 0.000000000000000
19.672960281372070 17.082168579101562 0.545759499073029 0.000000000000000
19.674032211303711 13.729397773742676 1.471549987792969 0.000000000000000
19.675109863281250 -15.147500991821289 1.858303070068359 0.000000000000000
19.675703048706055 -7.988673210144043 1.548269033432007 0.000000000000000
19.681577682495117 -2.517078876495361 1.293549776077271 0.000000000000000
19.682439804077148 17.205219268798828 0.547602415084839 0.000000000000000
19.683721542358398 0.672927320003510 1.872151613235474 0.000000000000000
19.685598373413086 -23.848295211791992 0.172711312770844 1.000000000000000
19.686882019042969 -8.153767585754395 1.931736826896667 0.000000000000000
19.690582275390625 7.180804729461670 3.106181621551514 0.000000000000000
19.699054718017578 15.210892677307129 1.334829211235046 0.000000000000000
19.700315475463867 1.738102316856384 2.246293544769287 0.000000000000000
19.706699371337891 17.071086883544922 2.777143239974976 0.000000000000000
19.707021713256836 1.316195845603943 1.554431676864624 0.000000000000000
19.708898544311523 17.595817565917969 1.366155266761780 0.000000000000000
19.712678909301758 -2.008597850799561 1.796309351921082 0.000000000000000
19.714866638183594 16.253986358642578 0.191763833165169 0.000000000000000
19.715457916259766 -11.383183479309082 2.284356355667114 0.000000000000000
19.715917587280273 14.128747940063477 -0.889416098594666 1.000000000000000
19.718772888183594 -17.759847640991211 1.934827208518982 0.000000000000000
19.726495742797852 -15.188156127929688 3.689653635025024 0.000000000000000
19.733657836914062 -21.368690490722656 0.553415417671204 1.000000000000000
19.734188079833984 18.303510665893555 0.667207419872284 0.000000000000000
19.738040924072266 -8.433650970458984 0.820824027061462 0.000000000000000
19.746408462524414 -1.274174213409424 1.328158497810364 0.000000000000000
19.762077331542969 17.284555435180664 2.218491077423096 0.000000000000000
19.762811660766602 -5.981426715850830 1.625044941902161 0.000000000000000
19.763961791992188 16.146684646606445 2.107190132141113 0.000000000000000
19.764629364013672 13.016539573669434 1.771134376525879 0.000000000000000
19.770837783813477 -0.245699599385262 2.420735597610474 0.000000000000000
19.773633956909180 25.758323669433594 0.680209875106812 0.000000000000000
19.777576446533203 16.013288497924805 -0.151010587811470 0.000000000000000
19.777788162231445 -20.536373138427734 2.298986434936523 0.000000000000000
19.785646438598633 3.866015195846558 2.987728118896484 0.000000000000000
19.788276672363281 -4.563391208648682 1.402241587638855 0.000000000000000
19.797454833984375 11.847599029541016 2.824677944183350 0.000000000000000
19.797950744628906 0.795859992504120 1.291728258132935 0.000000000000000
19.799039840698242 -2.846736431121826 2.448929071426392 0.000000000000000
19.810688018798828 -3.401251077651978 0.884638607501984 0.000000000000000
19.810958862304688 -5.061534404754639 2.503371238708496 0.000000000000000
19.814188003540039 15.185286521911621 1.002652764320374 0.000000000000000
19.814590454101562 -9.695062637329102 2.700724363327026 0.000000000000000
19.815563201904297 17.509147644042969 3.518841505050659 0.000000000000000
19.819019317626953 -9.770218849182129 2.100398302078247 0.000000000000000
19.829372406005859 -21.618743896484375 0.163842290639877 1.000000000000000
19.831436157226562 -20.630237579345703 2.871420145034790 0.000000000000000
19.832269668579102 -16.974906921386719 2.619421958923340 0.000000000000000
19.833187103271484 27.286033630371094 2.004081010818481 0.000000000000000
19.833454132080078 -17.721946716308594 1.990548491477966 0.000000000000000
19.834350585937500 0.517302274703979 2.640318393707275 0.000000000000000
19.835414886474609 2.958050966262817 1.462173223495483 0.000000000000000
19.837949752807617 -7.192203998565674 1.912957549095154 0.000000000000000
19.841695785522461 15.498697280883789 0.575752139091492 0.000000000000000
19.843061447143555 -5.354440689086914 2.062310457229614 0.000000000000000
19.847818374633789 -5.195502281188965 1.614688396453857 0.000000000000000
19.848981857299805 16.427511215209961 1.084386348724365 0.000000000000000
19.849519729614258 15.872915267944336 0.141948983073235 0.000000000000000
19.849699020385742 -7.996433734893799 1.436382889747620 0.000000000000000
19.852184295654297 -11.105925559997559 3.371236085891724 0.000000000000000
19.854782104492188 13.003005981445312 2.528026580810547 0.000000000000000
19.861604690551758 1.406980633735657 1.605529069900513 0.000000000000000
19.861618041992188 -10.078988075256348 1.882029414176941 0.000000000000000
19.862377166748047 11.799991607666016 0.883493959903717 0.000000000000000
19.864482879638672 3.895817279815674 3.000042438507080 0.000000000000000
19.865301132202148 18.380023956298828 1.920975208282471 0.000000000000000
19.870306015014648 2.916123151779175 2.015185594558716 0.000000000000000
19.872009277343750 20.462694168090820 -0.004978377372026 0.000000000000000
19.873991012573242 11.078087806701660 0.564018726348877 0.000000000000000
19.874765396118164 0.990113973617554 1.604564428329468 0.000000000000000
19.879623413085938 1.838577628135681 1.378544807434082 0.000000000000000
19.879911422729492 -9.643734931945801 3.776858091354370 0.000000000000000
19.881055831909180 -3.217179775238037 1.507240533828735 0.000000000000000
19.884260177612305 -2.377390384674072 1.815449833869934 0.000000000000000
19.885879516601562 16.780490875244141 0.794978678226471 0.000000000000000
19.891544342041016 0.815618932247162 1.643753170967102 0.000000000000000
19.893970489501953 15.768346786499023 1.606000781059265 0.000000000000000
19.901742935180664 16.825435638427734 1.498103022575378 0.000000000000000
19.903264999389648 3.035678148269653 1.825200557708740 0.000000000000000
19.907207489013672 0.358249813318253 1.566985130310059 0.000000000000000
19.914642333984375 16.863777160644531 0.145746812224388 0.000000000000000
19.918083190917969 -1.323655843734741 1.897512316703796 0.000000000000000
19.922025680541992 -5.790899276733398 2.356441259384155 0.000000000000000
19.922716140747070 19.053224563598633 0.524500548839569 0.000000000000000
19.925722122192383 3.134181022644043 2.023971796035767 0.000000000000000
19.930009841918945 -8.952303886413574 1.382236480712891 0.000000000000000
19.932771682739258 -8.988266944885254 1.805363535881042 0.000000000000000
19.938419342041016 15.702392578125000 -0.491737395524979 0.000000000000000
19.943593978881836 -21.135524749755859 0.162300825119019 1.000000000000000
19.944528579711914 1.719666123390198 2.450873374938965 0.000000000000000
19.944606781005859 -3.352613925933838 0.890090644359589 0.000000000000000
19.945425033569336 19.181171417236328 0.048296727240086 0.000000000000000
19.946203231811523 20.552705764770508 0.820005714893341 0.000000000000000
19.949604034423828 16.393798828125000 1.484329462051392 0.000000000000000
19.950201034545898 -21.619068145751953 3.133448123931885 0.000000000000000
19.951421737670898 -5.940952301025391 1.397271990776062 0.000000000000000
19.955139160156250 -16.659065246582031 3.459218025207520 0.000000000000000
19.965814590454102 18.892612457275391 1.633060455322266 0.000000000000000
19.967390060424805 -20.150840759277344 1.904104590415955 0.000000000000000
19.970088958740234 -2.105284452438354 3.432466030120850 0.000000000000000
19.970371246337891 -0.710641205310822 1.148713946342468 0.000000000000000
19.970380783081055 -7.089146137237549 1.177358508110046 0.000000000000000
19.973423004150391 12.961971282958984 1.919947743415833 0.000000000000000
19.974115371704102 17.114444732666016 1.664088606834412 0.000000000000000
19.974872589111328 18.741920471191406 0.258159697055817 0.000000000000000
19.977096557617188 17.960960388183594 1.389082908630371 0.000000000000000
19.978225708007812 1.873028159141541 0.497407019138336 0.000000000000000
19.978624343872070 2.939865827560425 2.150962114334106 0.000000000000000
19.983930587768555 27.874197006225586 1.443493723869324 0.000000000000000
19.993637084960938 15.083813667297363 2.270485877990723 0.000000000000000
19.993864059448242 -21.200653076171875 2.349781990051270 0.000000000000000
19.996671676635742 -4.838442802429199 1.380931258201599 0.000000000000000
19.998693466186523 15.854193687438965 1.417889356613159 0.000000000000000
20.001907348632812 17.625389099121094 -0.158202692866325 0.000000000000000
20.004022598266602 -2.587774038314819 2.023971796035767 0.000000000000000
20.009870529174805 -16.731441497802734 2.002417564392090 0.000000000000000
20.011350631713867 -4.749663352966309 1.955047249794006 0.000000000000000
20.013570785522461 -21.069272994995117 0.162300825119019 1.000000000000000
20.013753890991211 -22.453470230102539 2.425332546234131 0.000000000000000
20.018049240112305 16.238090515136719 1.929052948951721 0.000000000000000
20.019845962524414 15.969630241394043 0.388887017965317 0.000000000000000
20.022012710571289 19.389816284179688 0.048645794391632 0.000000000000000
20.031927108764648 -4.763411998748779 2.740042686462402 0.000000000000000
20.034894943237305 -2.324495315551758 1.828450798988342 0.000000000000000
20.035020828247070 13.221199035644531 2.556835889816284 0.000000000000000
20.051410675048828 0.452929168939590 1.694769382476807 0.000000000000000
20.053836822509766 -23.005161285400391 3.062315464019775 0.000000000000000
20.053909301757812 16.059894561767578 0.784961998462677 0.000000000000000
20.059335708618164 13.911507606506348 1.779796719551086 0.000000000000000
20.061744689941406 19.557638168334961 -0.381440401077271 0.000000000000000
20.063043594360352 0.800203442573547 2.671976804733276 0.000000000000000
20.064138412475586 -21.574964523315430 0.560568094253540 1.000000000000000
20.066144943237305 -8.659289360046387 1.466921329498291 0.000000000000000
20.071657180786133 3.345887899398804 2.707856655120850 0.000000000000000
20.075241088867188 -22.641511917114258 1.972721934318542 0.000000000000000
20.082685470581055 -12.269108772277832 2.237043380737305 0.000000000000000
20.083566665649414 13.216551780700684 1.985077023506165 0.000000000000000
20.088315963745117 -6.048191070556641 2.791751623153687 0.000000000000000
20.090204238891602 -6.658984184265137 3.617804050445557 0.000000000000000
20.092069625854492 16.182188034057617 0.540398240089417 0.000000000000000
20.092311859130859 2.541453361511230 1.554782271385193 0.000000000000000
20.096666336059570 11.770845413208008 2.851412773132324 0.000000000000000
20.102363586425781 -14.203788757324219 1.747087717056274 0.000000000000000
20.103263854980469 15.852706909179688 0.339614391326904 0.000000000000000
20.104547500610352 17.318307876586914 0.504868865013123 0.000000000000000
20.105018615722656 14.146825790405273 1.413166046142578 0.000000000000000
20.120983123779297 -4.627542495727539 1.545152783393860 0.000000000000000
20.121929168701172 17.148134231567383 0.350703150033951 0.000000000000000
20.131317138671875 15.526731491088867 0.483715385198593 0.000000000000000
20.131633758544922 19.840017318725586 2.060771226882935 0.000000000000000
20.132963180541992 2.942826271057129 1.772966861724854 0.000000000000000
20.150947570800781 12.777332305908203 2.268081665039062 0.000000000000000
20.151315689086914 3.089347839355469 1.776439070701599 0.000000000000000
20.156301498413086 18.780290603637695 1.530610442161560 0.000000000000000
20.157312393188477 21.302347183227539 1.685882449150085 0.000000000000000
20.163747787475586 19.794795989990234 3.009737014770508 0.000000000000000
20.164489746093750 21.072208404541016 2.295399427413940 0.000000000000000
20.165679931640625 3.483943223953247 2.324390172958374 0.000000000000000
20.166589736938477 16.053310394287109 0.044987585395575 0.000000000000000
20.169637680053711 -8.953118324279785 1.523756384849548 0.000000000000000
20.175689697265625 -5.468759059906006 2.781726360321045 0.000000000000000
20.179796218872070 13.345572471618652 1.623900175094604 0.000000000000000
20.182863235473633 12.451563835144043 2.149865150451660 0.000000000000000
20.189788818359375 26.380407333374023 3.011544942855835 0.000000000000000
20.192064285278320 -7.011077404022217 1.393473863601685 0.000000000000000
20.196460723876953 -19.441596984863281 2.986011505126953 0.000000000000000
20.196935653686523 19.484899520874023 0.102859705686569 0.000000000000000
20.198253631591797 -0.109989017248154 1.355750441551208 0.000000000000000
20.198995590209961 -10.063804626464844 1.601803779602051 0.000000000000000
20.206346511840820 19.410404205322266 0.856055676937103 0.000000000000000
20.208284378051758 -1.227495193481445 2.694137811660767 0.000000000000000
20.212331771850586 15.553803443908691 0.779220759868622 0.000000000000000
20.212388992309570 17.202707290649414 2.088895082473755 0.000000000000000
20.215921401977539 -0.479591935873032 2.153927803039551 0.000000000000000
20.216793060302734 15.807603836059570 -0.497239023447037 0.000000000000000
20.219045639038086 -9.721209526062012 3.834818363189697 0.000000000000000
20.220344543457031 -21.182313919067383 -0.005111022386700 1.000000000000000
20.233505249023438 19.666606903076172 1.567666411399841 0.000000000000000
20.234893798828125 -14.982873916625977 2.859781026840210 0.000000000000000
20.237438201904297 20.527738571166992 2.740094184875488 0.000000000000000
20.237657546997070 -17.350671768188477 1.943553090095520 0.000000000000000
20.240350723266602 -23.288785934448242 0.231569513678551 1.000000000000000
20.246664047241211 -23.342086791992188 0.172577261924744 1.000000000000000
20.247982025146484 -21.470111846923828 0.108166888356209 1.000000000000000
20.248231887817383 -1.639093756675720 1.167767405509949 0.000000000000000
20.249692916870117 19.444553375244141 0.588063180446625 0.000000000000000
20.256219863891602 0.821359038352966 1.837840437889099 0.000000000000000
20.257049560546875 -8.201246261596680 2.192902088165283 0.000000000000000
20.262405395507812 25.723054885864258 2.387411355972290 0.000000000000000
20.263864517211914 16.175279617309570 -0.452575802803040 0.000000000000000
20.268218994140625 -11.431742668151855 3.448641300201416 0.000000000000000
20.270406723022461 -7.513538837432861 1.409347414970398 0.000000000000000
20.271835327148438 -3.345802783966064 1.696416378021240 0.000000000000000
20.272338867187500 12.162560462951660 1.358990073204041 0.000000000000000
20.278270721435547 15.124878883361816 0.724302113056183 0.000000000000000
20.280006408691406 15.493461608886719 1.172296524047852 0.000000000000000
20.281847000122070 17.749784469604492 0.047040089964867 0.000000000000000
20.283535003662109 -25.841606140136719 2.522005081176758 0.000000000000000
20.283563613891602 18.292907714843750 1.097042679786682 0.000000000000000
20.293771743774414 -19.055788040161133 2.029648780822754 0.000000000000000
20.295314788818359 -1.380748867988586 1.365394115447998 0.000000000000000
20.306072235107422 3.531559705734253 3.054578065872192 0.000000000000000
20.308778762817383 -19.686763763427734 2.226041793823242 0.000000000000000
20.311086654663086 3.061245203018188 1.616571307182312 0.000000000000000
20.312833786010742 3.398480176925659 1.957696914672852 0.000000000000000
20.317781448364258 -12.412735939025879 1.781881213188171 0.000000000000000
20.323354721069336 -5.290806770324707 1.409594535827637 0.000000000000000
20.326057434082031 17.777830123901367 1.864603757858276 0.000000000000000
20.328142166137695 1.880059242248535 -1.416807532310486 0.000000000000000
20.328363418579102 0.325027316808701 1.771577835083008 0.000000000000000
20.328626632690430 -0.280671894550323 0.933872759342194 0.000000000000000
20.338106155395508 16.355762481689453 0.245983049273491 0.000000000000000
20.339324951171875 3.906435489654541 1.877565860748291 0.000000000000000
20.341733932495117 5.228166103363037 2.794917345046997 0.000000000000000
20.343811035156250 1.866469979286194 -1.496645808219910 0.000000000000000
20.353860855102539 -4.176566600799561 1.755730032920837 0.000000000000000
20.354585647583008 8.790509223937988 0.123831167817116 0.000000000000000
20.358182907104492 17.590068817138672 2.013534784317017 0.000000000000000
20.360191345214844 15.826021194458008 0.144026622176170 0.000000000000000
20.361501693725586 16.291648864746094 -0.605430424213409 0.000000000000000
20.369585037231445 16.885950088500977 0.960943222045898 0.000000000000000
20.371389389038086 18.810695648193359 1.700767993927002 0.000000000000000
20.384576797485352 -18.666593551635742 1.695380449295044 0.000000000000000
20.385166168212891 19.680234909057617 -0.984525203704834 0.000000000000000
20.385395050048828 -10.312591552734375 1.990681290626526 0.000000000000000
20.387317657470703 2.035643339157104 0.547250688076019 0.000000000000000
20.392459869384766 -12.860713005065918 2.185618162155151 0.000000000000000
20.398281097412109 -4.577502250671387 2.374498367309570 0.000000000000000
20.398891448974609 19.838441848754883 0.541392922401428 0.000000000000000
20.399999618530273 18.369546890258789 -0.110199101269245 0.000000000000000
20.403930664062500 5.320153713226318 2.805997848510742 0.000000000000000
20.405467987060547 -1.194081544876099 2.177229642868042 0.000000000000000
20.405769348144531 23.542119979858398 2.512135267257690 0.000000000000000
20.411102294921875 17.661338806152344 0.824662089347839 0.000000000000000
20.418058395385742 -8.552784919738770 1.443175911903381 0.000000000000000
20.419713973999023 -22.168970108032227 2.865005254745483 0.000000000000000
20.427112579345703 18.328865051269531 2.923308610916138 0.000000000000000
20.430198669433594 15.525363922119141 1.870837092399597 0.000000000000000
20.437219619750977 13.470248222351074 2.456082344055176 0.000000000000000
20.439327239990234 3.333884716033936 2.755871772766113 0.000000000000000
20.439495086669922 -4.573263168334961 1.405844211578369 0.000000000000000
20.440727233886719 15.558138847351074 0.636776149272919 0.000000000000000
20.441753387451172 15.994987487792969 0.095133498311043 0.000000000000000
20.445007324218750 2.808609724044800 1.664040446281433 0.000000000000000
20.450773239135742 14.686726570129395 3.350523948669434 0.000000000000000
20.453908920288086 3.824891805648804 1.677864551544189 0.000000000000000
20.460386276245117 22.866029739379883 2.533433675765991 0.000000000000000
20.463603973388672 0.758243381977081 1.493004798889160 0.000000000000000
20.464269638061523 -3.403251647949219 1.392450213432312 0.000000000000000
20.471231460571289 -3.158870458602905 1.710240483283997 0.000000000000000
20.472646713256836 18.813047409057617 0.048527110368013 0.000000000000000
20.473110198974609 -15.535429954528809 2.442957401275635 0.000000000000000
20.483161926269531 1.946685791015625 1.579582929611206 0.000000000000000
20.486156463623047 0.654904484748840 1.613119125366211 0.000000000000000
20.487251281738281 -11.733634948730469 2.369021177291870 0.000000000000000
20.490270614624023 2.922032356262207 1.803523182868958 0.000000000000000
20.490367889404297 -24.369327545166016 2.382807254791260 0.000000000000000
20.491794586181641 14.269762039184570 1.435433387756348 0.000000000000000
20.495964050292969 -5.880219936370850 1.719336986541748 0.000000000000000
20.498489379882812 -2.805027723312378 2.533022880554199 0.000000000000000
20.501674652099609 -0.303450465202332 1.858786582946777 0.000000000000000
20.503982543945312 16.177968978881836 1.803433060646057 0.000000000000000
20.507144927978516 -18.713783264160156 2.077717065811157 0.000000000000000
20.510786056518555 9.689282417297363 3.361853837966919 0.000000000000000
20.513353347778320 17.915121078491211 0.518184959888458 0.000000000000000
20.520509719848633 18.202314376831055 3.650224208831787 0.000000000000000
20.527021408081055 0.135433435440063 1.951261997222900 0.000000000000000
20.527139663696289 20.011339187622070 2.256169795989990 0.000000000000000
20.528131484985352 3.128784656524658 3.077447891235352 0.000000000000000
20.531412124633789 18.095148086547852 2.153859376907349 0.000000000000000
20.532381057739258 16.752965927124023 0.097127363085747 0.000000000000000
20.534593582153320 -1.662274718284607 0.867071747779846 0.000000000000000
20.541378021240234 -21.114315032958984 2.147739648818970 0.000000000000000
20.548711776733398 21.336866378784180 3.626728773117065 0.000000000000000
20.549480438232422 -22.553518295288086 2.047957181930542 0.000000000000000
20.564729690551758 -0.230437695980072 1.698062181472778 0.000000000000000
20.566396713256836 -3.247094392776489 1.719127416610718 0.000000000000000
20.569414138793945 27.061920166015625 1.954007387161255 0.000000000000000
20.576515197753906 21.745363235473633 1.259987235069275 0.000000000000000
20.577373504638672 1.685983061790466 1.107323288917542 0.000000000000000
20.581558227539062 21.092172622680664 -0.344629079103470 0.000000000000000
20.582498550415039 -7.798832893371582 1.477368712425232 0.000000000000000
20.583581924438477 -10.237488746643066 3.407006978988647 0.000000000000000
20.585418701171875 0.204083040356636 1.540675044059753 0.000000000000000
20.587049484252930 19.907093048095703 0.599874675273895 0.000000000000000
20.603302001953125 18.785726547241211 0.584042191505432 0.000000000000000
20.605955123901367 4.107012271881104 3.591520071029663 0.000000000000000
20.618007659912109 3.196260213851929 1.682365417480469 0.000000000000000
20.624568939208984 -6.756291866302490 1.967489600181580 0.000000000000000
20.632833480834961 18.309667587280273 -1.011512994766235 0.000000000000000
20.633834838867188 1.100151658058167 2.346961498260498 0.000000000000000
20.634336471557617 20.169996261596680 -0.725355148315430 0.000000000000000
20.634439468383789 2.819590568542480 2.218325138092041 0.000000000000000
20.647842407226562 16.608427047729492 0.707773268222809 0.000000000000000
20.655815124511719 -4.116568088531494 1.616936802864075 0.000000000000000
20.656929016113281 21.942066192626953 1.558251500129700 0.000000000000000
20.660318374633789 -16.248725891113281 2.290342330932617 0.000000000000000
20.664710998535156 1.942108154296875 2.082678079605103 0.000000000000000
20.668912887573242 -23.750061035156250 2.295498371124268 0.000000000000000
20.677064895629883 -14.850318908691406 2.151131153106689 0.000000000000000
20.683525085449219 -3.449360609054565 2.381721019744873 0.000000000000000
20.688335418701172 3.020316839218140 3.098558425903320 0.000000000000000
20.691419601440430 -15.701088905334473 1.543151974678040 0.000000000000000
20.695920944213867 -1.748070716857910 0.874136090278625 0.000000000000000
20.696907043457031 0.195785805583000 1.189805030822754 0.000000000000000
20.698318481445312 -14.930295944213867 3.782305479049683 0.000000000000000
20.700620651245117 -9.006900787353516 1.602370381355286 0.000000000000000
20.704835891723633 -11.925530433654785 1.834324598312378 0.000000000000000
20.707067489624023 12.122553825378418 -0.510993778705597 0.000000000000000
20.713169097900391 14.325922012329102 1.544772386550903 0.000000000000000
20.719390869140625 -15.229928970336914 2.920723199844360 0.000000000000000
20.722560882568359 5.480563640594482 2.852430105209351 0.000000000000000
20.724731445312500 2.599401235580444 2.095856904983521 0.000000000000000
20.728216171264648 -0.861883819103241 0.952961325645447 0.000000000000000
20.730035781860352 15.276806831359863 0.935246467590332 0.000000000000000
20.733505249023438 2.091053247451782 1.599790811538696 0.000000000000000
20.735824584960938 3.618232488632202 1.575303673744202 0.000000000000000
20.736202239990234 -0.511120319366455 1.971701979637146 0.000000000000000
20.737297058105469 -13.960644721984863 1.967440485954285 0.000000000000000
20.748189926147461 14.319099426269531 1.594888448715210 0.000000000000000
20.752759933471680 15.013669967651367 3.408564567565918 0.000000000000000
20.757162094116211 16.438966751098633 -1.072735309600830 1.000000000000000
20.769573211669922 -15.977982521057129 2.629405975341797 0.000000000000000
20.771196365356445 -3.506473064422607 1.576497673988342 0.000000000000000
20.794624328613281 18.186370849609375 1.800977349281311 0.000000000000000
20.796760559082031 18.582704544067383 1.388419628143311 0.000000000000000
20.798128128051758 -13.015300750732422 1.788813352584839 0.000000000000000
20.798345565795898 2.978188514709473 2.108237266540527 0.000000000000000
20.812616348266602 1.794514060020447 1.985707163810730 0.000000000000000
20.813198089599609 27.408481597900391 2.044646739959717 0.000000000000000
20.816209793090820 -8.970905303955078 1.608883976936340 0.000000000000000
20.816568374633789 1.919369339942932 1.726039528846741 0.000000000000000
20.816841125488281 -1.768530130386353 2.780143260955811 0.000000000000000
20.819910049438477 -3.157636165618896 3.120841503143311 0.000000000000000
20.829273223876953 -19.598333358764648 3.805878639221191 0.000000000000000
20.831661224365234 15.382024765014648 1.887997984886169 0.000000000000000
20.835155487060547 23.227670669555664 3.820193052291870 0.000000000000000
20.844278335571289 -24.098964691162109 2.384598255157471 0.000000000000000
20.845455169677734 -4.903845310211182 1.726731300354004 0.000000000000000
20.845899581909180 23.842287063598633 0.785066485404968 0.000000000000000
20.847036361694336 15.363588333129883 1.189549803733826 0.000000000000000
20.851093292236328 2.775102138519287 1.655487060546875 0.000000000000000
20.855772018432617 4.378281116485596 1.512594461441040 0.000000000000000
20.855833053588867 23.007234573364258 2.323998212814331 0.000000000000000
20.863800048828125 -16.166717529296875 2.026299476623535 0.000000000000000
20.871200561523438 17.995199203491211 1.000867605209351 0.000000000000000
20.884855270385742 -0.166952863335609 1.200594305992126 0.000000000000000
20.885860443115234 10.621683120727539 -0.139047473669052 0.000000000000000
20.888839721679688 2.991146802902222 1.619998693466187 0.000000000000000
20.890001296997070 -0.722559154033661 1.604689598083496 0.000000000000000
20.891084671020508 18.915006637573242 0.590324938297272 0.000000000000000
20.893863677978516 -13.202429771423340 1.611277461051941 0.000000000000000
20.897167205810547 -2.722969293594360 3.123187303543091 0.000000000000000
20.898761749267578 4.089570999145508 3.640044689178467 0.000000000000000
20.898942947387695 -23.845783233642578 2.311786890029907 0.000000000000000
20.899305343627930 16.609781265258789 0.661755502223969 0.000000000000000
20.905006408691406 -1.632778406143188 0.801870167255402 0.000000000000000
20.905633926391602 -11.944196701049805 1.848408937454224 0.000000000000000
20.912338256835938 21.091230392456055 2.050871372222900 0.000000000000000
20.914266586303711 -8.045409202575684 1.029315710067749 0.000000000000000
20.914331436157227 1.701836585998535 1.367972493171692 0.000000000000000
20.915920257568359 0.253358125686646 1.767517924308777 0.000000000000000
20.921916961669922 -19.823642730712891 3.835426568984985 0.000000000000000
20.922054290771484 18.317157745361328 1.170336604118347 0.000000000000000
20.949462890625000 7.553836345672607 2.726487398147583 0.000000000000000
20.950155258178711 -9.714962005615234 3.947369575500488 0.000000000000000
20.954488754272461 -19.615036010742188 1.815874576568604 0.000000000000000
20.956747055053711 3.023268461227417 1.625509738922119 0.000000000000000
20.960407257080078 -10.636580467224121 3.127859354019165 0.000000000000000
20.965509414672852 -1.509446978569031 1.694903612136841 0.000000000000000
20.969179153442383 3.573783397674561 1.550886750221252 0.000000000000000
20.972713470458984 3.116432905197144 1.382284522056580 0.000000000000000
20.978097915649414 22.862335205078125 1.484977245330811 0.000000000000000
20.978956222534180 -17.331260681152344 2.089066505432129 0.000000000000000
20.983541488647461 14.561153411865234 2.427816629409790 0.000000000000000
20.985155105590820 -16.681581497192383 1.799362897872925 0.000000000000000
20.989511489868164 20.871875762939453 0.449500650167465 0.000000000000000
20.992309570312500 -0.737469136714935 1.572019934654236 0.000000000000000
20.992393493652344 -7.284864902496338 1.106201171875000 0.000000000000000
20.993053436279297 20.041784286499023 0.106378287076950 0.000000000000000
20.996665954589844 -3.619960784912109 1.265835404396057 0.000000000000000
21.000926971435547 -6.985264778137207 1.784599781036377 0.000000000000000
21.004020690917969 2.180934429168701 1.580378532409668 0.000000000000000
21.004289627075195 15.815816879272461 0.399272710084915 0.000000000000000
21.011888504028320 -8.715441703796387 1.482989430427551 0.000000000000000
21.017271041870117 19.058641433715820 -0.113892212510109 0.000000000000000
21.020370483398438 15.408268928527832 1.900214433670044 0.000000000000000
21.021995544433594 22.674692153930664 1.717887282371521 0.000000000000000
21.023033142089844 -4.228296279907227 1.604857444763184 0.000000000000000
21.029073715209961 4.038910388946533 3.660263538360596 0.000000000000000
21.033372879028320 1.241878151893616 1.617549300193787 0.000000000000000
21.034345626831055 20.456438064575195 -0.793951213359833 0.000000000000000
21.037418365478516 -15.505587577819824 2.484215736389160 0.000000000000000
21.037536621093750 -6.414158344268799 1.858453392982483 0.000000000000000
21.042793273925781 15.344106674194336 1.597424030303955 0.000000000000000
21.048019409179688 15.833192825317383 -0.712695121765137 0.000000000000000
21.048599243164062 -0.425836861133575 2.242474317550659 0.000000000000000
21.048940658569336 15.316536903381348 -0.104498870670795 0.000000000000000
21.050109863281250 -2.902971506118774 2.601561784744263 0.000000000000000
21.054447174072266 1.196300268173218 2.395263910293579 0.000000000000000
21.056089401245117 20.226675033569336 1.341157197952271 0.000000000000000
21.068876266479492 -0.205562680959702 1.332988262176514 0.000000000000000
21.070056915283203 20.760501861572266 -0.175530225038528 0.000000000000000
21.095544815063477 -23.694597244262695 3.183322429656982 0.000000000000000
21.097024917602539 -16.711704254150391 3.988719701766968 0.000000000000000
21.097625732421875 20.479328155517578 -0.287385553121567 0.000000000000000
21.103576660156250 -10.408964157104492 3.487344264984131 0.000000000000000
21.105104446411133 15.979618072509766 0.452829450368881 0.000000000000000
21.110326766967773 20.387439727783203 0.107565805315971 0.000000000000000
21.114179611206055 -0.386244565248489 3.609716892242432 0.000000000000000
21.114528656005859 -15.448970794677734 1.958009600639343 0.000000000000000
21.115556716918945 29.452623367309570 2.642208337783813 0.000000000000000
21.116603851318359 23.982473373413086 0.792104303836823 0.000000000000000
21.117643356323242 18.073814392089844 -0.004851317498833 0.000000000000000
21.119565963745117 16.487964630126953 2.688511848449707 0.000000000000000
21.121095657348633 19.287561416625977 -0.554192543029785 0.000000000000000
21.121801376342773 2.886186122894287 1.677769422531128 0.000000000000000
21.123319625854492 -11.187051773071289 2.019779920578003 0.000000000000000
21.127182006835938 17.651922225952148 -0.850762963294983 1.000000000000000
21.131694793701172 14.585405349731445 2.169655323028564 0.000000000000000
21.133701324462891 -3.106055736541748 2.143381118774414 0.000000000000000
21.148685455322266 21.329599380493164 2.538112640380859 0.000000000000000
21.155736923217773 26.336910247802734 0.837404191493988 0.000000000000000
21.158329010009766 23.083810806274414 2.041419744491577 0.000000000000000
21.162319183349609 2.113026142120361 1.550595879554749 0.000000000000000
21.162445068359375 -4.813427925109863 3.216425418853760 0.000000000000000
21.164445877075195 20.032417297363281 2.539307832717896 0.000000000000000
21.167634963989258 0.858315467834473 1.217811346054077 0.000000000000000
21.169649124145508 21.520599365234375 0.516385674476624 0.000000000000000
21.174875259399414 2.869736194610596 2.616144657135010 0.000000000000000
21.178014755249023 2.210572481155396 2.136592149734497 0.000000000000000
21.186273574829102 18.405265808105469 1.829601287841797 0.000000000000000
21.189565658569336 -22.735754013061523 0.233250617980957 1.000000000000000
21.192066192626953 15.420684814453125 1.103056550025940 0.000000000000000
21.195365905761719 -15.353034019470215 2.972637414932251 0.000000000000000
21.196437835693359 19.636367797851562 2.329849481582642 0.000000000000000
21.198686599731445 18.802555084228516 1.847296357154846 0.000000000000000
21.200241088867188 -6.302342891693115 1.868894219398499 0.000000000000000
21.210823059082031 20.968620300292969 1.427421450614929 0.000000000000000
21.214282989501953 30.880830764770508 1.865148186683655 0.000000000000000
21.217443466186523 -6.023534774780273 1.395369410514832 0.000000000000000
21.220304489135742 1.322434186935425 0.527045249938965 0.000000000000000
21.225347518920898 -13.429001808166504 1.540609240531921 0.000000000000000
21.225761413574219 -13.321088790893555 1.682030558586121 0.000000000000000
21.231418609619141 18.805143356323242 -0.331672728061676 1.000000000000000
21.232929229736328 22.407711029052734 1.536788225173950 0.000000000000000
21.237033843994141 -9.822333335876465 2.347855091094971 0.000000000000000
21.241304397583008 -0.207245022058487 1.671806573867798 0.000000000000000
21.244672775268555 -9.941785812377930 2.126391172409058 0.000000000000000
21.251182556152344 0.043028526008129 1.180686831474304 0.000000000000000
21.252124786376953 -14.199680328369141 2.722490072250366 0.000000000000000
21.256544113159180 20.064823150634766 -0.734804093837738 0.000000000000000
21.260187149047852 16.341827392578125 2.548942327499390 0.000000000000000
21.265155792236328 31.067472457885742 1.729353189468384 1.000000000000000
21.279930114746094 -0.959244847297668 0.978473961353302 0.000000000000000
21.280416488647461 -8.417350769042969 1.756861090660095 0.000000000000000
21.281436920166016 17.857885360717773 0.902186572551727 0.000000000000000
21.282855987548828 -12.713320732116699 3.035155534744263 0.000000000000000
21.286827087402344 2.426082849502563 1.231584787368774 0.000000000000000
21.287981033325195 -5.887278079986572 2.352627992630005 0.000000000000000
21.289579391479492 -5.166619777679443 1.681846857070923 0.000000000000000
21.298950195312500 2.958507061004639 2.632671594619751 0.000000000000000
21.300420761108398 19.304567337036133 0.270939499139786 0.000000000000000
21.309524536132812 1.702925443649292 0.981961309909821 0.000000000000000
21.315773010253906 -7.651463985443115 1.214649438858032 0.000000000000000
21.317960739135742 -10.521182060241699 1.733258366584778 0.000000000000000
21.324899673461914 29.964942932128906 2.681475162506104 0.000000000000000
21.330938339233398 -12.118151664733887 2.461673736572266 0.000000000000000
21.331373214721680 -0.988793730735779 1.515709757804871 0.000000000000000
21.333269119262695 20.543107986450195 1.816601395606995 0.000000000000000
21.335453033447266 21.471450805664062 0.808487057685852 0.000000000000000
21.355352401733398 23.437168121337891 1.029679298400879 0.000000000000000
21.355428695678711 21.141811370849609 2.423082113265991 0.000000000000000
21.355506896972656 17.760555267333984 1.703706622123718 0.000000000000000
