# This PCD file was generated using the MATLAB® pcwrite function
# from Computer Vision Toolbox®.
# .PCD v.7 - Point Cloud Data file format
VERSION .7
FIELDS x y z intensity
SIZE 8 8 8 8
TYPE F F F F
COUNT 1 1 1 1
WIDTH 643
HEIGHT 1
VIEWPOINT 0 0 0 1 0 0 0
POINTS 643
DATA ascii
19.962114334106445 -20.641071319580078 2.315382242202759 0.000000000000000
19.965290069580078 9.696352005004883 -0.174325197935104 0.000000000000000
19.967618942260742 -12.485877990722656 1.535293459892273 0.000000000000000
19.967784881591797 14.158388137817383 1.501426815986633 0.000000000000000
19.969703674316406 2.123220205307007 1.231801748275757 0.000000000000000
19.971035003662109 -16.446462631225586 2.459233522415161 0.000000000000000
19.975418090820312 4.999327182769775 2.193328857421875 0.000000000000000
19.975812911987305 -9.832783699035645 2.018410205841064 0.000000000000000
19.977390289306641 15.879931449890137 0.044540777802467 0.000000000000000
19.977844238281250 22.455783843994141 2.191369295120239 0.000000000000000
19.983013153076172 -14.572931289672852 1.469374775886536 0.000000000000000
19.988302230834961 23.338069915771484 0.997871041297913 0.000000000000000
19.989902496337891 15.740676879882812 1.119780063629150 0.000000000000000
19.998201370239258 20.004487991333008 1.299309134483337 0.000000000000000
19.998273849487305 -1.763339638710022 1.270101904869080 0.000000000000000
19.999969482421875 7.562145233154297 3.654871940612793 0.000000000000000
20.001403808593750 -2.997795581817627 1.123660683631897 0.000000000000000
20.004179000854492 15.166389465332031 1.684977293014526 0.000000000000000
20.004186630249023 -5.740264892578125 2.088268995285034 0.000000000000000
20.009399414062500 -2.790060997009277 1.005763888359070 0.000000000000000
20.009714126586914 13.952734947204590 0.698430120944977 0.000000000000000
20.011344909667969 16.227439880371094 -0.004496666602790 0.000000000000000
20.012960433959961 19.410173416137695 1.066154122352600 0.000000000000000
20.014898300170898 4.230209350585938 0.782304823398590 0.000000000000000
20.016334533691406 -3.203230381011963 1.673705339431763 0.000000000000000
20.016952514648438 9.923882484436035 -0.304172188043594 0.000000000000000
20.027069091796875 -2.633768796920776 1.511718273162842 0.000000000000000
20.027633666992188 19.873046875000000 1.676235556602478 0.000000000000000
20.029645919799805 13.755194664001465 2.438111305236816 0.000000000000000
20.044181823730469 -13.177585601806641 2.280194282531738 1.000000000000000
20.044332504272461 2.319917678833008 0.849242508411407 0.000000000000000
20.047103881835938 -14.845993041992188 3.054113149642944 0.000000000000000
20.048553466796875 -1.475088238716125 2.283310413360596 0.000000000000000
20.050121307373047 -20.877414703369141 2.334028959274292 0.000000000000000
20.053688049316406 -4.168251991271973 1.691149950027466 0.000000000000000
20.057470321655273 -3.456595659255981 2.311750173568726 0.000000000000000
20.061874389648438 15.797348976135254 1.517057180404663 0.000000000000000
20.074098587036133 13.926946640014648 1.592801928520203 0.000000000000000
20.075538635253906 -7.647640705108643 1.193556666374207 0.000000000000000
20.075590133666992 22.131753921508789 1.372543215751648 0.000000000000000
20.076404571533203 -10.639332771301270 1.393674731254578 0.000000000000000
20.076694488525391 15.051559448242188 0.766638934612274 0.000000000000000
20.079067230224609 -11.219972610473633 1.588233590126038 0.000000000000000
20.081754684448242 17.669601440429688 2.260253906250000 0.000000000000000
20.084827423095703 -6.331950664520264 1.372916579246521 0.000000000000000
20.092689514160156 14.814694404602051 -0.100211657583714 0.000000000000000
20.118844985961914 -12.041357040405273 1.800032496452332 0.000000000000000
20.122581481933594 -15.774716377258301 3.789342164993286 0.000000000000000
20.125427246093750 -1.376248598098755 1.198463201522827 0.000000000000000
20.130008697509766 -8.215723991394043 1.795160174369812 0.000000000000000
20.136463165283203 -15.808306694030762 3.794033527374268 0.000000000000000
20.142183303833008 2.622450113296509 1.206766247749329 0.000000000000000
20.144609451293945 18.629316329956055 0.311290264129639 0.000000000000000
20.146825790405273 -1.393963456153870 1.005366206169128 0.000000000000000
20.148307800292969 -6.956504821777344 1.554086208343506 0.000000000000000
20.149900436401367 -7.183775901794434 1.600976586341858 0.000000000000000
20.152463912963867 -12.933180809020996 1.838304996490479 0.000000000000000
20.154647827148438 -10.345633506774902 2.773638248443604 0.000000000000000
20.156898498535156 -7.921325206756592 1.537233352661133 0.000000000000000
20.159664154052734 14.593707084655762 1.191079378128052 0.000000000000000
20.166723251342773 -15.653628349304199 2.009180784225464 0.000000000000000
20.167129516601562 21.899349212646484 2.458059310913086 0.000000000000000
20.167522430419922 -11.522953033447266 2.207897424697876 0.000000000000000
20.172309875488281 11.657762527465820 3.100421905517578 0.000000000000000
20.175731658935547 -8.221653938293457 2.186113119125366 0.000000000000000
20.178997039794922 15.192732810974121 0.238066375255585 0.000000000000000
20.183761596679688 -7.521515369415283 1.952682733535767 0.000000000000000
20.189369201660156 -12.164113044738770 2.510656118392944 0.000000000000000
20.190267562866211 15.019775390625000 0.623790800571442 0.000000000000000
20.209077835083008 18.529888153076172 1.840348720550537 0.000000000000000
20.214183807373047 9.282104492187500 -0.858394861221313 0.000000000000000
20.215257644653320 -9.646080970764160 1.762819051742554 0.000000000000000
20.218912124633789 2.704241991043091 1.526644468307495 0.000000000000000
20.222169876098633 -11.431368827819824 1.469620823860168 0.000000000000000
20.225578308105469 -17.135553359985352 2.519796609878540 0.000000000000000
20.231920242309570 -1.911767005920410 1.638642549514771 0.000000000000000
20.232770919799805 18.586738586425781 0.733832836151123 0.000000000000000
20.235925674438477 -6.936593055725098 1.312126040458679 0.000000000000000
20.236215591430664 -5.758328437805176 1.168926596641541 0.000000000000000
20.240936279296875 -7.016175270080566 1.727374196052551 0.000000000000000
20.243621826171875 16.751745223999023 -0.055032283067703 0.000000000000000
20.244619369506836 13.863866806030273 1.315977334976196 0.000000000000000
20.251825332641602 13.968714714050293 1.366854190826416 0.000000000000000
20.252510070800781 17.228918075561523 3.255354881286621 0.000000000000000
20.259389877319336 7.407472133636475 1.822752833366394 0.000000000000000
20.261226654052734 22.148464202880859 2.478466272354126 0.000000000000000
20.261720657348633 11.709432601928711 0.535149514675140 0.000000000000000
20.264232635498047 24.185958862304688 3.583867549896240 0.000000000000000
20.266323089599609 -12.850487709045410 1.564437985420227 0.000000000000000
20.284049987792969 16.803712844848633 1.209923148155212 0.000000000000000
20.286375045776367 15.162905693054199 0.238707244396210 0.000000000000000
20.288171768188477 9.122977256774902 2.526628732681274 0.000000000000000
20.299579620361328 -8.613314628601074 2.699752330780029 0.000000000000000
20.301900863647461 -8.095119476318359 1.382741689682007 0.000000000000000
20.311714172363281 -7.569196701049805 1.246047139167786 0.000000000000000
20.312601089477539 -12.031028747558594 2.681467533111572 0.000000000000000
20.321981430053711 -16.976150512695312 2.307356834411621 0.000000000000000
20.324556350708008 15.874725341796875 1.482492923736572 0.000000000000000
20.336929321289062 -10.849331855773926 1.458255767822266 0.000000000000000
20.339902877807617 19.382301330566406 -0.004903676919639 0.000000000000000
20.341869354248047 -12.271482467651367 2.383797883987427 0.000000000000000
20.345262527465820 -15.272320747375488 2.216729164123535 0.000000000000000
20.348955154418945 -18.638542175292969 2.501615524291992 0.000000000000000
20.354370117187500 -17.033388137817383 1.883875489234924 0.000000000000000
20.356044769287109 0.151348829269409 1.130983114242554 0.000000000000000
20.356678009033203 1.203704833984375 2.713660478591919 0.000000000000000
20.357240676879883 -12.357452392578125 1.874230980873108 0.000000000000000
20.358718872070312 -7.321963787078857 2.170937299728394 0.000000000000000
20.359624862670898 -19.305711746215820 2.045646429061890 0.000000000000000
20.360717773437500 13.128646850585938 3.223889827728271 0.000000000000000
20.363819122314453 -1.426834225654602 1.646036982536316 0.000000000000000
20.371774673461914 14.706637382507324 3.723664999008179 0.000000000000000
20.373125076293945 -13.572805404663086 1.077394843101501 1.000000000000000
20.374858856201172 -18.967973709106445 1.868476390838623 0.000000000000000
20.383256912231445 9.896704673767090 2.774124383926392 0.000000000000000
20.388252258300781 -0.138068839907646 1.329199790954590 0.000000000000000
20.393966674804688 16.996448516845703 -0.055601954460144 0.000000000000000
20.399543762207031 -6.963646888732910 3.684526205062866 0.000000000000000
20.401638031005859 -13.434018135070801 2.128532171249390 0.000000000000000
20.403297424316406 -3.177196502685547 1.266576290130615 0.000000000000000
20.410982131958008 15.259375572204590 1.268690586090088 0.000000000000000
20.416479110717773 15.212982177734375 1.610799312591553 0.000000000000000
20.419126510620117 -7.532203674316406 1.251097321510315 0.000000000000000
20.429283142089844 3.086727380752563 1.506384611129761 0.000000000000000
20.433147430419922 -8.243498802185059 2.210873603820801 0.000000000000000
20.441804885864258 -4.035722732543945 1.680114984512329 0.000000000000000
20.454143524169922 17.673625946044922 -0.004717973992229 0.000000000000000
20.457019805908203 2.088046550750732 1.954668641090393 0.000000000000000
20.469705581665039 14.783871650695801 2.400184631347656 0.000000000000000
20.481353759765625 1.161585330963135 1.787550449371338 0.000000000000000
20.482709884643555 -10.541147232055664 2.820302963256836 0.000000000000000
20.484134674072266 14.937835693359375 0.433673650026321 0.000000000000000
20.487373352050781 1.287526965141296 3.042263507843018 0.000000000000000
20.489013671875000 17.197204589843750 0.354841560125351 0.000000000000000
20.489395141601562 24.025642395019531 1.328949332237244 0.000000000000000
20.492725372314453 -3.628542900085449 2.088268995285034 0.000000000000000
20.492998123168945 -13.173448562622070 3.610488891601562 0.000000000000000
20.494956970214844 19.086475372314453 0.748037457466125 0.000000000000000
20.497177124023438 -5.419797897338867 1.627653121948242 0.000000000000000
20.505023956298828 -24.964111328125000 3.241629600524902 0.000000000000000
20.509437561035156 -13.821293830871582 2.089833974838257 0.000000000000000
20.522306442260742 14.729955673217773 1.160366296768188 0.000000000000000
20.523983001708984 -16.414011001586914 1.207170009613037 1.000000000000000
20.525133132934570 20.895282745361328 1.909488677978516 0.000000000000000
20.533384323120117 15.808278083801270 2.349214315414429 0.000000000000000
20.534488677978516 14.847573280334473 -0.004422664642334 0.000000000000000
20.536659240722656 -12.260773658752441 2.716678857803345 0.000000000000000
20.536746978759766 0.522713184356689 1.952776074409485 0.000000000000000
20.538501739501953 4.124883174896240 1.825398802757263 0.000000000000000
20.543716430664062 -1.367393493652344 1.660182476043701 0.000000000000000
20.544485092163086 2.446868181228638 0.870772123336792 0.000000000000000
20.546260833740234 -18.994098663330078 2.310272932052612 0.000000000000000
20.553630828857422 13.371152877807617 3.633945226669312 0.000000000000000
20.560253143310547 5.711915016174316 3.162476301193237 0.000000000000000
20.565868377685547 21.178638458251953 3.144463300704956 0.000000000000000
20.570270538330078 16.560211181640625 0.654618561267853 0.000000000000000
20.574798583984375 2.256585359573364 0.950758814811707 0.000000000000000
20.574811935424805 -10.022562026977539 1.889624834060669 0.000000000000000
20.579395294189453 -18.606658935546875 0.101686850190163 1.000000000000000
20.579523086547852 -1.426789164543152 0.788877606391907 0.000000000000000
20.584377288818359 -3.275346040725708 2.091464042663574 0.000000000000000
20.587947845458984 -23.900236129760742 -1.096062183380127 1.000000000000000
20.590301513671875 -12.294260025024414 1.841060638427734 0.000000000000000
20.595918655395508 -9.871445655822754 1.665196299552917 0.000000000000000
20.597520828247070 17.923465728759766 -0.004765447229147 0.000000000000000
20.597812652587891 15.936464309692383 1.597424030303955 0.000000000000000
20.599191665649414 8.878236770629883 3.324323892593384 0.000000000000000
20.607578277587891 -5.363647937774658 1.675886392593384 0.000000000000000
20.607624053955078 -1.325773119926453 0.948556244373322 0.000000000000000
20.608800888061523 -7.115497112274170 1.976518034934998 0.000000000000000
20.611061096191406 16.205335617065430 1.053058266639709 0.000000000000000
20.615488052368164 -3.171553850173950 1.118677139282227 0.000000000000000
20.623853683471680 17.458158493041992 0.773642182350159 0.000000000000000
20.624504089355469 -5.791073322296143 1.520524263381958 0.000000000000000
20.625282287597656 18.779415130615234 0.584293544292450 0.000000000000000
20.630777359008789 0.381005227565765 1.544257283210754 0.000000000000000
20.633955001831055 21.523647308349609 0.452780365943909 0.000000000000000
20.636667251586914 2.179200887680054 1.232860922813416 0.000000000000000
20.648597717285156 -16.833383560180664 3.025905609130859 0.000000000000000
20.651514053344727 -2.725424051284790 1.888399958610535 0.000000000000000
20.652837753295898 -8.151612281799316 1.747441172599792 0.000000000000000
20.658155441284180 -2.796029567718506 1.889844536781311 0.000000000000000
20.659639358520508 2.460583209991455 1.196003079414368 0.000000000000000
20.660646438598633 -9.770215034484863 1.445880651473999 0.000000000000000
20.667470932006836 3.682175159454346 -1.214120507240295 0.000000000000000
20.670349121093750 -4.009672641754150 1.697797060012817 0.000000000000000
20.672107696533203 -19.504947662353516 3.782134532928467 0.000000000000000
20.676771163940430 -3.186892747879028 1.404236912727356 0.000000000000000
20.683261871337891 -11.802787780761719 1.828201055526733 0.000000000000000
20.684251785278320 23.838176727294922 2.057553529739380 0.000000000000000
20.686820983886719 -10.948022842407227 1.480733275413513 0.000000000000000
20.697849273681641 -15.187962532043457 1.970880985260010 0.000000000000000
20.698680877685547 -12.470974922180176 1.901848673820496 0.000000000000000
20.703250885009766 0.212475597858429 1.070574879646301 0.000000000000000
20.706203460693359 -7.017122745513916 1.341023087501526 0.000000000000000
20.708732604980469 16.520921707153320 2.401579618453979 0.000000000000000
20.710287094116211 22.992218017578125 0.469907671213150 0.000000000000000
20.711530685424805 -8.494839668273926 1.373103857040405 0.000000000000000
20.712764739990234 10.013842582702637 -0.269042670726776 0.000000000000000
20.712965011596680 15.016841888427734 0.093770049512386 0.000000000000000
20.715974807739258 -19.104104995727539 2.326730251312256 0.000000000000000
20.718557357788086 1.466222286224365 1.974351525306702 0.000000000000000
20.726768493652344 16.357860565185547 0.451666414737701 0.000000000000000
20.727605819702148 4.031293869018555 1.839982509613037 0.000000000000000
20.730745315551758 5.648362159729004 2.288654327392578 0.000000000000000
20.739091873168945 -19.442636489868164 0.158771082758904 1.000000000000000
20.741950988769531 0.073851220309734 1.752698898315430 0.000000000000000
20.747934341430664 25.140645980834961 1.685489535331726 0.000000000000000
20.748937606811523 1.177487850189209 1.975487232208252 0.000000000000000
20.756015777587891 -6.517273902893066 1.628142237663269 0.000000000000000
20.756729125976562 -1.419419288635254 1.717810869216919 0.000000000000000
20.766382217407227 -7.485365867614746 1.652024030685425 0.000000000000000
20.766422271728516 2.339608192443848 1.986464142799377 0.000000000000000
20.769407272338867 -3.335643768310547 1.168704748153687 0.000000000000000
20.770738601684570 -17.499261856079102 1.927772045135498 0.000000000000000
20.779922485351562 22.486686706542969 2.350544214248657 0.000000000000000
20.791431427001953 19.753786087036133 3.816431283950806 0.000000000000000
20.791711807250977 14.132156372070312 1.348325252532959 0.000000000000000
20.794164657592773 -13.463677406311035 1.471747159957886 0.000000000000000
20.799558639526367 -3.280186414718628 1.413344860076904 0.000000000000000
20.799787521362305 14.516063690185547 0.433878898620605 0.000000000000000
20.804557800292969 -19.465835571289062 0.213828057050705 1.000000000000000
20.804676055908203 18.707643508911133 -0.542104423046112 0.000000000000000
20.812683105468750 25.528863906860352 3.508394002914429 0.000000000000000
20.819002151489258 20.680650711059570 1.799948811531067 0.000000000000000
20.821794509887695 -20.084913253784180 2.332742929458618 0.000000000000000
20.825811386108398 18.015092849731445 1.317855119705200 0.000000000000000
20.844099044799805 16.143886566162109 1.363263487815857 0.000000000000000
20.849342346191406 13.466375350952148 2.359304666519165 0.000000000000000
20.853446960449219 -7.677533626556396 1.663069248199463 0.000000000000000
20.862602233886719 2.267139434814453 0.883219003677368 0.000000000000000
20.864854812622070 13.769330024719238 1.437040209770203 0.000000000000000
20.869083404541016 -4.632678985595703 1.476087331771851 0.000000000000000
20.871072769165039 19.003208160400391 1.459518194198608 0.000000000000000
20.885892868041992 21.441478729248047 2.182352304458618 0.000000000000000
20.889236450195312 10.232640266418457 1.920564651489258 0.000000000000000
20.899148941040039 18.335170745849609 2.188067436218262 0.000000000000000
20.904148101806641 10.287019729614258 2.646256685256958 0.000000000000000
20.905488967895508 -21.191301345825195 3.170730590820312 0.000000000000000
20.906084060668945 2.345736742019653 1.209317564964294 0.000000000000000
20.911310195922852 -16.275493621826172 3.927147150039673 0.000000000000000
20.912164688110352 12.520140647888184 2.445698976516724 0.000000000000000
20.921806335449219 -4.980032444000244 2.290772438049316 0.000000000000000
20.922063827514648 -2.159132480621338 1.574109554290771 0.000000000000000
20.922824859619141 14.687905311584473 2.565108537673950 0.000000000000000
20.926225662231445 -8.905077934265137 2.784332275390625 0.000000000000000
20.926311492919922 15.113647460937500 0.739069819450378 0.000000000000000
20.931568145751953 3.614757776260376 2.600589752197266 0.000000000000000
20.933523178100586 -20.091363906860352 0.719247817993164 1.000000000000000
20.935194015502930 -20.142164230346680 -0.172397032380104 1.000000000000000
20.954046249389648 21.418512344360352 0.857897937297821 0.000000000000000
20.955352783203125 18.794923782348633 2.161018848419189 0.000000000000000
20.957714080810547 -12.822280883789062 2.616997003555298 0.000000000000000
20.959514617919922 0.082685001194477 1.164488792419434 0.000000000000000
20.961507797241211 -16.726165771484375 2.162352323532104 0.000000000000000
20.965888977050781 -0.823385477066040 1.327432036399841 0.000000000000000
20.969776153564453 12.440052986145020 2.317667722702026 0.000000000000000
20.970430374145508 18.600097656250000 -0.543111801147461 0.000000000000000
20.972946166992188 15.388690948486328 0.395021229982376 0.000000000000000
20.973295211791992 -1.052185654640198 0.924209892749786 0.000000000000000
20.984426498413086 16.895441055297852 2.703288316726685 0.000000000000000
20.984716415405273 18.840414047241211 1.024241447448730 0.000000000000000
20.985492706298828 -4.484344482421875 2.039835453033447 0.000000000000000
20.989173889160156 2.658255338668823 1.583363771438599 0.000000000000000
20.991292953491211 -3.106837987899780 2.260268211364746 0.000000000000000
20.992622375488281 -19.767232894897461 -0.558686852455139 1.000000000000000
20.992807388305664 -0.979719042778015 0.924913406372070 0.000000000000000
20.993890762329102 -5.560154438018799 1.892414569854736 0.000000000000000
20.994443893432617 -20.329408645629883 2.649321556091309 0.000000000000000
20.996410369873047 12.253582954406738 2.976338386535645 0.000000000000000
20.998250961303711 18.476013183593750 3.721983671188354 0.000000000000000
21.004146575927734 2.218006372451782 1.580677032470703 0.000000000000000
21.009695053100586 -9.987822532653809 3.095672845840454 0.000000000000000
21.013948440551758 18.332925796508789 0.530587911605835 0.000000000000000
21.015569686889648 18.250555038452148 -0.325498580932617 0.000000000000000
21.019210815429688 -4.271822452545166 3.666328907012939 0.000000000000000
21.020185470581055 16.708845138549805 0.459328740835190 0.000000000000000
21.022615432739258 11.745306968688965 2.735187530517578 0.000000000000000
21.028070449829102 -8.457920074462891 1.740021109580994 0.000000000000000
21.031646728515625 2.205313205718994 0.849349319934845 0.000000000000000
21.036127090454102 19.019620895385742 0.158391296863556 0.000000000000000
21.041435241699219 -15.793761253356934 2.500870704650879 0.000000000000000
21.043479919433594 -5.086677074432373 2.306024551391602 0.000000000000000
21.047195434570312 -0.072734139859676 1.372135996818542 0.000000000000000
21.047592163085938 13.490543365478516 1.485268950462341 0.000000000000000
21.051790237426758 23.536056518554688 0.964772760868073 0.000000000000000
21.057401657104492 1.416361927986145 1.579483032226562 0.000000000000000
21.061691284179688 11.596001625061035 1.335789442062378 1.000000000000000
21.065549850463867 -1.387355685234070 1.376299500465393 0.000000000000000
21.069990158081055 -11.681208610534668 1.709987878799438 0.000000000000000
21.072984695434570 -4.248676300048828 1.360011696815491 0.000000000000000
21.080699920654297 19.127563476562500 2.856244325637817 0.000000000000000
21.085533142089844 21.562698364257812 2.373544692993164 0.000000000000000
21.085969924926758 -4.880098342895508 1.327554106712341 0.000000000000000
21.089607238769531 -10.305232048034668 2.873773097991943 0.000000000000000
21.098966598510742 -2.984420061111450 2.138189554214478 0.000000000000000
21.100728988647461 12.935104370117188 1.136872529983521 0.000000000000000
21.103225708007812 18.384233474731445 1.339462399482727 0.000000000000000
21.109060287475586 14.787315368652344 1.084722757339478 0.000000000000000
21.110498428344727 3.622896909713745 1.768499255180359 0.000000000000000
21.113491058349609 -20.120866775512695 2.926532030105591 0.000000000000000
21.113992691040039 -3.156260728836060 2.613714218139648 0.000000000000000
21.115884780883789 18.137533187866211 1.332196354866028 0.000000000000000
21.117906570434570 25.824956893920898 2.367871522903442 0.000000000000000
21.120563507080078 15.312350273132324 0.496346622705460 0.000000000000000
21.122348785400391 13.925506591796875 3.749466896057129 0.000000000000000
21.124916076660156 -20.417201995849609 0.728268086910248 1.000000000000000
21.128118515014648 -11.617200851440430 1.711403965950012 0.000000000000000
21.138134002685547 -2.653876781463623 1.800187349319458 0.000000000000000
21.159616470336914 -19.825769424438477 3.858642578125000 0.000000000000000
21.161956787109375 4.168690681457520 1.489313364028931 0.000000000000000
21.163808822631836 18.138313293457031 1.226710557937622 0.000000000000000
21.163934707641602 -0.192814201116562 1.583960771560669 0.000000000000000
21.167362213134766 -1.952831506729126 2.132997751235962 0.000000000000000
21.177629470825195 -2.198955774307251 1.552341103553772 0.000000000000000
21.187183380126953 20.272396087646484 -0.174011096358299 0.000000000000000
21.194700241088867 -2.613271951675415 2.274673223495483 0.000000000000000
21.197601318359375 -3.010071039199829 1.272003293037415 0.000000000000000
21.199562072753906 -11.561257362365723 3.213336944580078 0.000000000000000
21.203166961669922 13.776861190795898 2.136648893356323 0.000000000000000
21.214296340942383 19.062606811523438 1.419843554496765 0.000000000000000
21.217750549316406 4.250505924224854 1.452455759048462 0.000000000000000
21.223918914794922 -19.229831695556641 3.252972364425659 0.000000000000000
21.225492477416992 3.583169937133789 -1.410876393318176 0.000000000000000
21.238716125488281 12.866674423217773 1.666761159896851 0.000000000000000
21.238981246948242 -20.344692230224609 3.340549230575562 0.000000000000000
21.243976593017578 -1.637618541717529 2.420092344284058 0.000000000000000
21.246389389038086 -1.473023414611816 1.142241835594177 0.000000000000000
21.246818542480469 -0.908708631992340 1.673689603805542 0.000000000000000
21.251735687255859 15.544818878173828 2.224890232086182 0.000000000000000
21.256338119506836 0.946295917034149 1.633470416069031 0.000000000000000
21.261758804321289 20.850870132446289 3.172001838684082 0.000000000000000
21.263425827026367 -0.099831111729145 1.017647266387939 0.000000000000000
21.275690078735352 12.889074325561523 2.053868532180786 0.000000000000000
21.275772094726562 17.882890701293945 1.223193168640137 0.000000000000000
21.297780990600586 -1.248162746429443 1.514293670654297 0.000000000000000
21.305246353149414 24.244453430175781 2.104132652282715 0.000000000000000
21.306192398071289 15.991911888122559 0.455702811479568 0.000000000000000
21.312934875488281 15.119451522827148 2.107055902481079 0.000000000000000
21.319686889648438 -2.188509464263916 1.314574837684631 0.000000000000000
21.320812225341797 19.287820816040039 -1.109511971473694 0.000000000000000
21.321928024291992 15.321923255920410 0.449135124683380 0.000000000000000
21.324081420898438 -3.080065727233887 1.695658206939697 0.000000000000000
21.328643798828125 -0.174591556191444 1.349404454231262 0.000000000000000
21.340652465820312 -2.154910802841187 1.150382399559021 0.000000000000000
21.341604232788086 19.321552276611328 -1.055631875991821 0.000000000000000
21.359077453613281 17.320333480834961 0.840175628662109 0.000000000000000
21.359107971191406 -9.756875038146973 2.356241703033447 0.000000000000000
21.362009048461914 -5.413751125335693 2.211272954940796 0.000000000000000
21.371685028076172 -3.044685840606689 1.957016468048096 0.000000000000000
21.372203826904297 2.332341194152832 2.043620347976685 0.000000000000000
21.372432708740234 -19.717771530151367 0.274068504571915 1.000000000000000
21.377187728881836 26.930740356445312 2.573264837265015 0.000000000000000
21.389545440673828 -8.629345893859863 1.414735317230225 0.000000000000000
21.393787384033203 18.567205429077148 1.519275903701782 0.000000000000000
21.401348114013672 -6.841566562652588 1.464774012565613 0.000000000000000
21.405221939086914 24.495807647705078 2.623049736022949 0.000000000000000
21.407812118530273 18.453956604003906 0.103592745959759 0.000000000000000
21.410409927368164 -0.738688468933105 2.850847482681274 0.000000000000000
21.413471221923828 18.859930038452148 -0.991470277309418 0.000000000000000
21.417184829711914 -13.973406791687012 1.913828253746033 0.000000000000000
21.417697906494141 -2.974999427795410 1.960266828536987 0.000000000000000
21.418937683105469 21.328674316406250 1.854069828987122 0.000000000000000
21.421699523925781 -4.089895248413086 2.322971343994141 0.000000000000000
21.424486160278320 -2.224587917327881 1.952682733535767 0.000000000000000
21.425722122192383 -1.269920349121094 1.109820365905762 0.000000000000000
21.429962158203125 15.138469696044922 0.348050355911255 0.000000000000000
21.431188583374023 -2.900657892227173 1.576773643493652 0.000000000000000
21.433910369873047 17.222238540649414 -0.110375732183456 0.000000000000000
21.434669494628906 -0.310898840427399 1.645717859268188 0.000000000000000
21.455739974975586 15.269231796264648 1.970846056938171 0.000000000000000
21.460613250732422 18.283138275146484 0.428121894598007 0.000000000000000
21.463476181030273 -4.718658924102783 1.729552388191223 0.000000000000000
21.464841842651367 4.306249618530273 1.174161195755005 0.000000000000000
21.469860076904297 14.075190544128418 2.440307855606079 0.000000000000000
21.470800399780273 -6.428480148315430 1.634073734283447 0.000000000000000
21.473577499389648 20.016021728515625 2.790436983108521 0.000000000000000
21.480541229248047 -8.418995857238770 1.726654648780823 0.000000000000000
21.484697341918945 4.719003200531006 2.090935230255127 0.000000000000000
21.486257553100586 0.075751453638077 1.400760173797607 0.000000000000000
21.490280151367188 -23.748743057250977 2.903563737869263 0.000000000000000
21.493700027465820 -6.073596477508545 1.413048386573792 0.000000000000000
21.504749298095703 -6.438644409179688 2.035022735595703 0.000000000000000
21.507160186767578 -2.171724319458008 1.492619872093201 0.000000000000000
21.507427215576172 -17.408912658691406 2.231151580810547 0.000000000000000
21.524061203002930 12.271135330200195 2.355140924453735 0.000000000000000
21.529018402099609 25.051006317138672 0.247900068759918 0.000000000000000
21.529121398925781 -1.629362225532532 1.574155807495117 0.000000000000000
21.534242630004883 -2.262580394744873 2.459366559982300 0.000000000000000
21.540201187133789 -3.501098394393921 0.960439682006836 0.000000000000000
21.541261672973633 14.215711593627930 1.086236476898193 0.000000000000000
21.543909072875977 -11.087279319763184 1.626311063766479 0.000000000000000
21.557525634765625 4.251303195953369 1.559606432914734 0.000000000000000
21.559412002563477 -1.570361852645874 1.492619872093201 0.000000000000000
21.562665939331055 3.292238950729370 1.716685175895691 0.000000000000000
21.564470291137695 -6.292820930480957 2.036467313766479 0.000000000000000
21.576198577880859 18.851310729980469 3.812737941741943 0.000000000000000
21.584955215454102 13.335820198059082 1.556282401084900 0.000000000000000
21.590711593627930 -4.068680286407471 0.966946899890900 0.000000000000000
21.593685150146484 18.218400955200195 -0.655937135219574 0.000000000000000
21.594203948974609 -19.547491073608398 0.162680611014366 1.000000000000000
21.601589202880859 14.986684799194336 0.500227272510529 0.000000000000000
21.601631164550781 -8.383926391601562 2.202598094940186 0.000000000000000
21.602695465087891 -7.532155513763428 1.888966560363770 0.000000000000000
21.610483169555664 4.340176105499268 1.224621415138245 0.000000000000000
21.611213684082031 -2.227206707000732 1.893108963966370 0.000000000000000
21.613922119140625 12.191741943359375 -0.909936547279358 0.000000000000000
21.620908737182617 -19.527769088745117 0.330530375242233 1.000000000000000
21.626262664794922 -4.215863704681396 2.210873603820801 0.000000000000000
21.633243560791016 19.614442825317383 0.387365162372589 0.000000000000000
21.633697509765625 0.061167977750301 1.744413256645203 0.000000000000000
21.636037826538086 -3.073100090026855 1.904220461845398 0.000000000000000
21.642890930175781 -4.703878402709961 2.105319023132324 0.000000000000000
21.644866943359375 -3.652406692504883 2.493223190307617 0.000000000000000
21.654266357421875 -3.843176126480103 1.916373491287231 0.000000000000000
21.655158996582031 -11.267678260803223 1.544377207756042 0.000000000000000
21.658708572387695 -0.159141808748245 1.328533649444580 0.000000000000000
21.666376113891602 12.988130569458008 2.690715074539185 0.000000000000000
21.668647766113281 21.987131118774414 1.358614921569824 0.000000000000000
21.670349121093750 2.043116569519043 0.874230980873108 0.000000000000000
21.671604156494141 1.333474159240723 1.373649716377258 0.000000000000000
21.677644729614258 17.309986114501953 3.396321535110474 0.000000000000000
21.694696426391602 -6.965823650360107 2.286353111267090 0.000000000000000
21.703989028930664 -5.031512737274170 2.117810010910034 0.000000000000000
21.704339981079102 16.846553802490234 2.056223630905151 0.000000000000000
21.706668853759766 0.943559706211090 1.332696795463562 0.000000000000000
21.708009719848633 -10.227048873901367 3.193286895751953 0.000000000000000
21.720788955688477 -5.811535835266113 2.394994735717773 0.000000000000000
21.724069595336914 17.229396820068359 2.635623216629028 0.000000000000000
21.735450744628906 -4.158448219299316 0.676122725009918 0.000000000000000
21.739336013793945 -3.637137413024902 1.607023358345032 0.000000000000000
21.741085052490234 15.183148384094238 2.035791158676147 0.000000000000000
21.742816925048828 -3.112272977828979 1.178017139434814 0.000000000000000
21.743591308593750 -5.032296657562256 1.713383555412292 0.000000000000000
21.751733779907227 16.445331573486328 1.305043697357178 0.000000000000000
21.757217407226562 -2.694966793060303 1.683071732521057 0.000000000000000
21.757356643676758 -10.619294166564941 3.221779346466064 0.000000000000000
21.757476806640625 -1.103708744049072 1.898317575454712 0.000000000000000
21.769235610961914 15.378136634826660 0.763110160827637 0.000000000000000
21.771776199340820 21.244703292846680 0.169896453619003 0.000000000000000
21.773117065429688 17.246021270751953 -0.111499719321728 0.000000000000000
21.780227661132812 0.305650085210800 1.840603113174438 0.000000000000000
21.787225723266602 18.140853881835938 1.193211793899536 0.000000000000000
21.790960311889648 -6.912919521331787 2.293941020965576 0.000000000000000
21.791481018066406 19.860729217529297 -1.081135988235474 0.000000000000000
21.793922424316406 -2.915286064147949 1.391076087951660 0.000000000000000
21.795528411865234 12.827282905578613 2.403970003128052 0.000000000000000
21.798110961914062 16.302314758300781 1.145611166954041 0.000000000000000
21.801494598388672 7.885142803192139 3.085120201110840 0.000000000000000
21.816543579101562 1.980088233947754 1.217077136039734 0.000000000000000
21.827875137329102 5.152654647827148 2.547394275665283 0.000000000000000
21.831953048706055 -1.126587510108948 1.551676630973816 0.000000000000000
21.837280273437500 21.457946777343750 0.170991122722626 0.000000000000000
21.841726303100586 -11.807807922363281 3.304091453552246 0.000000000000000
21.852546691894531 -16.402584075927734 2.044879674911499 0.000000000000000
21.854494094848633 17.576490402221680 0.372031867504120 0.000000000000000
21.854841232299805 15.083402633666992 0.709268510341644 0.000000000000000
21.864772796630859 -1.076251268386841 2.486451864242554 0.000000000000000
21.866588592529297 -2.375857830047607 1.688583016395569 0.000000000000000
21.867359161376953 12.615975379943848 2.867455005645752 0.000000000000000
21.868875503540039 -3.158756256103516 1.397895097732544 0.000000000000000
21.876993179321289 -3.048916578292847 1.567819356918335 0.000000000000000
21.880065917968750 -10.848033905029297 2.989948987960815 0.000000000000000
21.886093139648438 18.369825363159180 1.697585701942444 0.000000000000000
21.889444351196289 0.061891086399555 1.427042245864868 0.000000000000000
21.899330139160156 27.830091476440430 2.240420341491699 0.000000000000000
21.901578903198242 -2.378499031066895 2.502251863479614 0.000000000000000
21.903856277465820 13.787197113037109 1.737214207649231 0.000000000000000
21.905029296875000 -0.123103365302086 1.301419138908386 0.000000000000000
21.906990051269531 -1.421268820762634 2.086771726608276 0.000000000000000
21.908626556396484 -3.423748493194580 0.975916385650635 0.000000000000000
21.909677505493164 16.786989212036133 2.769582509994507 0.000000000000000
21.911035537719727 13.031047821044922 2.006356000900269 0.000000000000000
21.915081024169922 20.397581100463867 0.742145538330078 1.000000000000000
21.922588348388672 -8.666934013366699 2.365427017211914 0.000000000000000
21.934846878051758 21.006851196289062 2.753329753875732 0.000000000000000
21.935029983520508 13.458133697509766 1.231617093086243 0.000000000000000
21.936744689941406 0.062024824321270 1.092080235481262 0.000000000000000
21.940851211547852 -12.940658569335938 1.906365156173706 0.000000000000000
21.945688247680664 -22.952014923095703 -0.188442796468735 1.000000000000000
21.951732635498047 18.882801055908203 0.106129050254822 0.000000000000000
21.959552764892578 -5.107723712921143 3.341329813003540 0.000000000000000
21.961591720581055 -2.242008209228516 1.737398386001587 0.000000000000000
21.962516784667969 4.268288612365723 1.674413084983826 0.000000000000000
21.962968826293945 -3.838681697845459 1.582545995712280 0.000000000000000
21.984489440917969 13.366262435913086 1.181840896606445 0.000000000000000
21.987440109252930 -2.797545194625854 2.224052429199219 0.000000000000000
22.006835937500000 18.717357635498047 0.327762365341187 0.000000000000000
22.010866165161133 -4.094574451446533 1.459569692611694 0.000000000000000
22.017721176147461 -4.133233547210693 0.985941171646118 0.000000000000000
22.032945632934570 -14.376251220703125 2.292425870895386 0.000000000000000
22.035879135131836 -2.660390853881836 1.934082388877869 0.000000000000000
22.047960281372070 18.965574264526367 0.553339362144470 0.000000000000000
22.049329757690430 -9.979290962219238 2.428526401519775 0.000000000000000
22.060031890869141 -16.356954574584961 1.896291375160217 0.000000000000000
22.060691833496094 10.224322319030762 1.725847363471985 0.000000000000000
22.061380386352539 21.960718154907227 2.389735221862793 0.000000000000000
22.063888549804688 16.387281417846680 -0.110327556729317 0.000000000000000
22.065874099731445 -1.301679253578186 1.185515046119690 0.000000000000000
22.081418991088867 -10.211466789245605 2.205480813980103 0.000000000000000
22.081928253173828 24.715524673461914 0.566943287849426 0.000000000000000
22.082614898681641 -4.384892940521240 1.728386402130127 0.000000000000000
22.104446411132812 17.033790588378906 2.652656555175781 0.000000000000000
22.111913681030273 17.910995483398438 -0.059598058462143 0.000000000000000
22.113645553588867 16.284536361694336 -0.268424570560455 0.000000000000000
22.115989685058594 -0.138184666633606 0.930819630622864 0.000000000000000
22.124992370605469 23.586290359497070 0.553192138671875 0.000000000000000
22.127086639404297 -6.705008983612061 3.952087163925171 0.000000000000000
22.131086349487305 -1.939332485198975 1.791351079940796 0.000000000000000
22.134466171264648 -10.919353485107422 2.803352832794189 0.000000000000000
22.141498565673828 3.392875909805298 0.426190018653870 0.000000000000000
22.145008087158203 -2.780289173126221 1.541115641593933 0.000000000000000
22.149240493774414 14.984334945678711 2.683320045471191 0.000000000000000
22.150812149047852 -12.281428337097168 1.748875498771667 0.000000000000000
22.150964736938477 3.404614686965942 0.469445288181305 0.000000000000000
22.151298522949219 15.881002426147461 1.619301319122314 0.000000000000000
22.151649475097656 -5.423752784729004 1.838931918144226 0.000000000000000
22.152681350708008 -17.762882232666016 0.267622023820877 1.000000000000000
22.152717590332031 -4.191406250000000 3.341329813003540 0.000000000000000
22.156585693359375 3.145861864089966 1.761250019073486 0.000000000000000
22.158824920654297 -4.186152458190918 1.296320557594299 0.000000000000000
22.160583496093750 -19.134574890136719 3.118619680404663 0.000000000000000
22.161743164062500 3.032621860504150 2.027799844741821 0.000000000000000
22.162931442260742 -5.056451797485352 1.701280236244202 0.000000000000000
22.164497375488281 17.436733245849609 2.056117296218872 0.000000000000000
22.170186996459961 -19.321216583251953 -0.061591923236847 1.000000000000000
22.180274963378906 14.256442070007324 2.808494567871094 0.000000000000000
22.185394287109375 12.750980377197266 2.432358741760254 0.000000000000000
22.189231872558594 2.652981996536255 2.124244928359985 0.000000000000000
22.196258544921875 -2.228781938552856 1.583395481109619 1.000000000000000
22.200288772583008 -17.339149475097656 2.162549495697021 0.000000000000000
22.202781677246094 -0.522456049919128 2.013354301452637 0.000000000000000
22.206567764282227 -5.627786636352539 1.758698225021362 0.000000000000000
22.211811065673828 16.854801177978516 -0.540244698524475 0.000000000000000
22.213274002075195 -2.228143692016602 1.627674818038940 0.000000000000000
22.213981628417969 27.968854904174805 2.604104995727539 0.000000000000000
22.217676162719727 -6.027665615081787 1.811777591705322 0.000000000000000
22.220403671264648 1.675052046775818 1.409765124320984 0.000000000000000
22.221485137939453 -27.858301162719727 3.387360572814941 0.000000000000000
22.222547531127930 -0.026762111112475 1.063538908958435 0.000000000000000
22.228061676025391 -14.627778053283691 1.940062761306763 0.000000000000000
22.229713439941406 -12.582599639892578 2.563111782073975 0.000000000000000
22.229911804199219 26.641458511352539 0.993439853191376 0.000000000000000
22.234588623046875 -1.283585906028748 1.940679788589478 0.000000000000000
22.235250473022461 -3.991939544677734 2.565902948379517 0.000000000000000
22.236259460449219 -19.433492660522461 0.164936959743500 1.000000000000000
22.237337112426758 -10.878561973571777 1.996141195297241 0.000000000000000
22.246126174926758 13.756128311157227 1.654744148254395 0.000000000000000
22.254457473754883 -5.185325622558594 1.930865168571472 0.000000000000000
22.257595062255859 -18.092126846313477 0.215268999338150 1.000000000000000
22.262563705444336 -1.606728792190552 2.023466110229492 0.000000000000000
22.264513015747070 -2.233283281326294 2.028522253036499 0.000000000000000
22.277421951293945 -1.236140966415405 0.853228986263275 0.000000000000000
22.284202575683594 23.564079284667969 0.492501109838486 0.000000000000000
22.295696258544922 24.725400924682617 1.977986335754395 0.000000000000000
22.299385070800781 5.143298625946045 2.175344944000244 0.000000000000000
22.306392669677734 24.618650436401367 2.614571094512939 0.000000000000000
22.310100555419922 -17.715124130249023 -0.004972094204277 1.000000000000000
22.317777633666992 15.393707275390625 1.924373745918274 0.000000000000000
22.319892883300781 -8.584792137145996 2.167922258377075 0.000000000000000
22.320455551147461 -19.208112716674805 -0.174746930599213 1.000000000000000
22.323694229125977 19.310817718505859 3.144039630889893 0.000000000000000
22.353511810302734 -2.831436395645142 0.731720149517059 0.000000000000000
22.353700637817383 -3.933917284011841 1.742470741271973 0.000000000000000
22.360759735107422 -4.014472484588623 1.831859111785889 0.000000000000000
22.365993499755859 14.648167610168457 1.536898493766785 0.000000000000000
22.369033813476562 -12.403439521789551 1.667484879493713 0.000000000000000
22.373701095581055 -2.729706048965454 1.208865404129028 0.000000000000000
22.378364562988281 -3.985388278961182 1.306650757789612 0.000000000000000
22.379072189331055 -11.545257568359375 1.593120455741882 0.000000000000000
22.380615234375000 -3.289716720581055 1.518354654312134 0.000000000000000
22.389867782592773 2.680130481719971 3.341916084289551 0.000000000000000
22.391410827636719 -1.537484169006348 0.944611966609955 0.000000000000000
22.400312423706055 -3.244697093963623 0.996141731739044 0.000000000000000
22.411243438720703 18.056482315063477 0.824012458324432 0.000000000000000
22.418506622314453 -2.526128768920898 2.403044462203979 0.000000000000000
22.419620513916016 4.842386722564697 2.180265665054321 0.000000000000000
22.422098159790039 16.952157974243164 0.912832558155060 0.000000000000000
22.448635101318359 1.545745491981506 1.727467775344849 0.000000000000000
22.458898544311523 -1.836187481880188 0.905052244663239 0.000000000000000
22.460674285888672 26.918016433715820 3.332475662231445 1.000000000000000
22.461254119873047 -5.722796916961670 3.435154199600220 0.000000000000000
22.461736679077148 -20.638710021972656 3.464690923690796 0.000000000000000
22.476905822753906 -3.674289464950562 3.375340938568115 0.000000000000000
22.481670379638672 -7.850070953369141 1.736167073249817 0.000000000000000
22.487014770507812 18.712875366210938 0.275727212429047 0.000000000000000
22.488199234008789 -17.818174362182617 2.202659130096436 0.000000000000000
22.498546600341797 -4.588014125823975 3.055572271347046 0.000000000000000
22.498577117919922 -2.980371475219727 1.917729973793030 0.000000000000000
22.505832672119141 13.438547134399414 1.506826162338257 0.000000000000000
22.517492294311523 -2.378207445144653 1.432495236396790 0.000000000000000
22.521099090576172 17.893575668334961 0.823554515838623 0.000000000000000
22.524188995361328 3.519542455673218 1.794202804565430 0.000000000000000
22.524335861206055 14.193124771118164 2.319857120513916 0.000000000000000
22.526601791381836 -5.722702026367188 3.444536685943604 0.000000000000000
22.527776718139648 2.368563413619995 0.953358411788940 0.000000000000000
22.532873153686523 2.124436616897583 3.354230403900146 0.000000000000000
22.537118911743164 -4.416705131530762 2.081970930099487 0.000000000000000
22.538541793823242 -3.441635131835938 1.354557633399963 0.000000000000000
22.542837142944336 -17.267118453979492 -0.004956037271768 1.000000000000000
22.552715301513672 14.129760742187500 2.197376012802124 0.000000000000000
22.558944702148438 -0.452058821916580 2.045495748519897 0.000000000000000
22.563943862915039 -2.977811574935913 1.659379005432129 0.000000000000000
22.565322875976562 -3.390933513641357 1.928170800209045 0.000000000000000
22.568286895751953 17.690065383911133 1.372351527214050 0.000000000000000
22.568548202514648 -1.010619878768921 1.603503108024597 0.000000000000000
22.574922561645508 -6.716579437255859 1.490077733993530 0.000000000000000
22.577787399291992 -4.117735862731934 1.939285159111023 0.000000000000000
22.581388473510742 -16.544635772705078 2.981774806976318 0.000000000000000
22.584600448608398 -4.243321895599365 1.055562496185303 0.000000000000000
22.584905624389648 -3.940884828567505 1.317899107933044 0.000000000000000
22.586269378662109 -12.932137489318848 1.847342014312744 0.000000000000000
22.586999893188477 28.295293807983398 1.175737738609314 0.000000000000000
22.589351654052734 -2.676024675369263 1.220005154609680 0.000000000000000
22.593046188354492 -3.159966945648193 0.828539490699768 0.000000000000000
22.595094680786133 16.236818313598633 0.048562016338110 0.000000000000000
22.595151901245117 18.651197433471680 -0.286369085311890 0.000000000000000
22.597476959228516 -4.069592475891113 1.807070136070251 0.000000000000000
22.602382659912109 26.527681350708008 3.312792539596558 0.000000000000000
22.610958099365234 16.368213653564453 2.196854829788208 0.000000000000000
22.618116378784180 18.040290832519531 -0.171684935688972 0.000000000000000
22.621858596801758 12.946237564086914 2.960448503494263 0.000000000000000
22.647865295410156 22.567384719848633 2.146002054214478 0.000000000000000
22.649835586547852 -19.611602783203125 2.184388399124146 0.000000000000000
22.652654647827148 3.099798440933228 0.962273001670837 0.000000000000000
22.654317855834961 18.219749450683594 -0.060888204723597 0.000000000000000
22.660190582275391 -2.910073518753052 1.313307881355286 0.000000000000000
22.662731170654297 -2.794277906417847 1.444617867469788 0.000000000000000
22.668745040893555 -4.705199718475342 3.080899000167847 0.000000000000000
22.669908523559570 1.696205139160156 1.394409298896790 0.000000000000000
22.673034667968750 17.065513610839844 0.594429671764374 0.000000000000000
22.678640365600586 -13.375804901123047 2.502763271331787 0.000000000000000
22.679067611694336 2.718774080276489 1.990334033966064 0.000000000000000
22.680759429931641 3.184343099594116 1.669849991798401 0.000000000000000
22.682779312133789 -3.519182205200195 2.444987773895264 0.000000000000000
22.689672470092773 5.272535800933838 2.645805120468140 0.000000000000000
22.691186904907227 -16.198614120483398 3.413334608078003 0.000000000000000
22.694284439086914 18.646614074707031 1.745030879974365 0.000000000000000
22.694339752197266 -7.038963794708252 2.258619070053101 0.000000000000000
22.699436187744141 19.052495956420898 -0.517289340496063 0.000000000000000
22.699457168579102 5.369275093078613 2.855787754058838 0.000000000000000
22.700620651245117 3.447742938995361 0.569173157215118 0.000000000000000
22.703289031982422 -1.934782981872559 2.286353111267090 0.000000000000000
