# This PCD file was generated using the MATLAB® pcwrite function
# from Computer Vision Toolbox®.
# .PCD v.7 - Point Cloud Data file format
VERSION .7
FIELDS x y z intensity
SIZE 8 8 8 8
TYPE F F F F
COUNT 1 1 1 1
WIDTH 645
HEIGHT 1
VIEWPOINT 0 0 0 1 0 0 0
POINTS 645
DATA ascii
12.520981788635254 -5.042035102844238 0.958080351352692 0.000000000000000
12.523946762084961 -2.257024526596069 0.878708660602570 0.000000000000000
12.525237083435059 -4.881371498107910 0.178322732448578 1.000000000000000
12.526372909545898 5.977996349334717 0.584159076213837 0.000000000000000
12.536173820495605 -4.453578472137451 0.867310702800751 0.000000000000000
12.546501159667969 -1.450348258018494 1.871801376342773 0.000000000000000
12.547218322753906 -0.212221860885620 1.336672306060791 0.000000000000000
12.548353195190430 -1.321542263031006 0.749632596969604 0.000000000000000
12.548802375793457 -4.606618881225586 0.871474206447601 0.000000000000000
12.549699783325195 -7.356682777404785 1.144875288009644 0.000000000000000
12.554412841796875 -7.916343688964844 2.199601173400879 0.000000000000000
12.554940223693848 -6.281016826629639 1.131971836090088 0.000000000000000
12.555061340332031 -4.227196693420410 0.659504294395447 0.000000000000000
12.560289382934570 -2.096914052963257 1.446367502212524 0.000000000000000
12.563123703002930 0.078497812151909 1.194225311279297 0.000000000000000
12.565951347351074 2.090193986892700 1.076407670974731 0.000000000000000
12.566270828247070 7.601720809936523 0.929151892662048 0.000000000000000
12.566568374633789 7.997163772583008 0.856255650520325 0.000000000000000
12.571590423583984 -3.674046754837036 1.005495309829712 0.000000000000000
12.572114944458008 -1.631493926048279 1.878838300704956 0.000000000000000
12.575817108154297 -4.552878379821777 1.000946164131165 0.000000000000000
12.578623771667480 -4.849651813507080 0.541458189487457 0.000000000000000
12.580235481262207 5.679135799407959 0.766858458518982 0.000000000000000
12.582399368286133 -3.591789007186890 1.243811249732971 0.000000000000000
12.591404914855957 3.989873886108398 2.257757902145386 0.000000000000000
12.595475196838379 -4.805714607238770 0.541458189487457 0.000000000000000
12.597573280334473 7.073483467102051 0.108430013060570 0.000000000000000
12.603230476379395 -1.473403811454773 0.827236950397491 0.000000000000000
12.603934288024902 -2.178889989852905 0.735277950763702 0.000000000000000
12.605592727661133 -4.513951778411865 2.785004854202271 0.000000000000000
12.607316017150879 -5.533700466156006 2.353459835052490 0.000000000000000
12.613930702209473 -2.711331605911255 0.990492463111877 0.000000000000000
12.614316940307617 -1.564936280250549 0.657258272171021 0.000000000000000
12.616809844970703 6.892628669738770 0.743391752243042 0.000000000000000
12.618897438049316 5.887241363525391 0.452196836471558 0.000000000000000
12.619366645812988 2.338636398315430 0.985287368297577 0.000000000000000
12.624483108520508 1.215157508850098 1.205580949783325 0.000000000000000
12.627158164978027 -4.831441402435303 0.049553278833628 0.000000000000000
12.627452850341797 -2.139854431152344 1.161064386367798 0.000000000000000
12.632239341735840 0.754703700542450 0.971509277820587 0.000000000000000
12.641559600830078 -3.373583555221558 2.721468448638916 0.000000000000000
12.651265144348145 -4.762607097625732 0.231237873435020 1.000000000000000
12.651804924011230 -0.125648245215416 1.347687721252441 0.000000000000000
12.656828880310059 1.346370816230774 0.633649170398712 0.000000000000000
12.664546012878418 6.435657024383545 1.739235401153564 0.000000000000000
12.665743827819824 -7.804822444915771 1.228371381759644 0.000000000000000
12.673477172851562 -2.387348175048828 0.443590700626373 0.000000000000000
12.676565170288086 -4.738060474395752 0.543545007705688 0.000000000000000
12.679453849792480 0.183911710977554 0.997999787330627 0.000000000000000
12.679839134216309 -5.932655811309814 2.074697017669678 0.000000000000000
12.683122634887695 -3.716494798660278 1.256302356719971 0.000000000000000
12.688788414001465 7.605822086334229 1.484432339668274 0.000000000000000
12.690675735473633 -2.001151561737061 1.289143800735474 0.000000000000000
12.691576004028320 -1.601968526840210 1.895843863487244 0.000000000000000
12.697153091430664 -0.510414123535156 0.852936029434204 0.000000000000000
12.702079772949219 0.134796053171158 0.363696515560150 0.000000000000000
12.703948974609375 -6.599736690521240 1.071397542953491 0.000000000000000
12.707002639770508 -2.607910633087158 2.217320442199707 0.000000000000000
12.708086013793945 -3.008982419967651 0.801038444042206 0.000000000000000
12.710982322692871 2.380634307861328 1.067748308181763 0.000000000000000
12.711473464965820 -1.576088666915894 0.835043489933014 0.000000000000000
12.715898513793945 2.517354249954224 0.670271217823029 0.000000000000000
12.718748092651367 7.944161415100098 1.151237010955811 0.000000000000000
12.730587005615234 6.850131988525391 1.923781156539917 0.000000000000000
12.735242843627930 -3.067336797714233 1.081572413444519 0.000000000000000
12.736844062805176 -0.368674635887146 0.929019570350647 0.000000000000000
12.740386009216309 -7.506458282470703 1.249522089958191 0.000000000000000
12.740721702575684 -5.869779109954834 0.752354323863983 0.000000000000000
12.742428779602051 -2.940884828567505 1.105035543441772 0.000000000000000
12.743186950683594 -1.686497449874878 0.813228964805603 0.000000000000000
12.744392395019531 -2.988700866699219 2.237539052963257 0.000000000000000
12.750337600708008 1.041997671127319 0.834002614021301 0.000000000000000
12.751745223999023 2.480538606643677 0.871955633163452 0.000000000000000
12.761981010437012 2.039109706878662 0.967213153839111 0.000000000000000
12.764731407165527 -1.501318335533142 0.837905943393707 0.000000000000000
12.768302917480469 -7.682287216186523 2.208397388458252 0.000000000000000
12.769202232360840 -2.293400764465332 1.233212709426880 0.000000000000000
12.774609565734863 -2.745868921279907 1.311108708381653 0.000000000000000
12.782094955444336 0.086787857115269 0.981307029724121 0.000000000000000
12.782316207885742 -7.484652042388916 1.137152671813965 0.000000000000000
12.785753250122070 1.525065302848816 0.442903190851212 0.000000000000000
12.788899421691895 -2.957722425460815 0.678740024566650 0.000000000000000
12.794599533081055 -4.747596263885498 0.889689564704895 0.000000000000000
12.797101974487305 0.248398840427399 1.160342097282410 0.000000000000000
12.803562164306641 7.511501312255859 1.139602065086365 0.000000000000000
12.806017875671387 7.756209850311279 1.700520038604736 0.000000000000000
12.807876586914062 -0.379233986139297 0.884770631790161 0.000000000000000
12.808156967163086 2.683233022689819 2.236865282058716 0.000000000000000
12.812081336975098 0.867599070072174 0.886699438095093 0.000000000000000
12.815208435058594 -2.482669353485107 0.524281799793243 0.000000000000000
12.825325965881348 -1.930719494819641 0.995697498321533 0.000000000000000
12.830327987670898 7.075133800506592 1.238070845603943 0.000000000000000
12.831957817077637 -2.998368978500366 1.613337755203247 0.000000000000000
12.837808609008789 1.450878858566284 1.581741809844971 0.000000000000000
12.842896461486816 -5.891057491302490 3.786005020141602 0.000000000000000
12.846653938293457 -7.591135978698730 1.174375772476196 0.000000000000000
12.849729537963867 -1.548616886138916 0.669238448143005 0.000000000000000
12.849731445312500 -2.154687881469727 0.423114955425262 0.000000000000000
12.854063987731934 -3.644119262695312 1.077318310737610 0.000000000000000
12.855610847473145 5.051266193389893 0.873842298984528 0.000000000000000
12.857589721679688 -1.233062863349915 0.842069387435913 0.000000000000000
12.857905387878418 -5.952354907989502 1.421732306480408 0.000000000000000
12.861805915832520 -2.457243204116821 0.500748515129089 0.000000000000000
12.865524291992188 -2.673924684524536 3.520974636077881 0.000000000000000
12.865607261657715 -1.867258429527283 0.847534060478210 0.000000000000000
12.867201805114746 -1.580349564552307 1.070381402969360 0.000000000000000
12.880214691162109 1.416073083877563 1.094931602478027 0.000000000000000
12.884100914001465 2.189363479614258 1.739106655120850 0.000000000000000
12.884632110595703 0.020688937976956 0.839987695217133 0.000000000000000
12.898312568664551 1.463644385337830 0.896343529224396 0.000000000000000
12.905956268310547 -2.132401943206787 0.777150809764862 0.000000000000000
12.906061172485352 -1.323695421218872 1.096278786659241 0.000000000000000
12.909738540649414 -2.231755495071411 0.955197274684906 0.000000000000000
12.912784576416016 -3.612117052078247 1.081176161766052 0.000000000000000
12.916934967041016 -6.901635646820068 1.011245131492615 0.000000000000000
12.927931785583496 -2.734005928039551 3.540644645690918 0.000000000000000
12.930984497070312 -3.750925302505493 1.137704968452454 0.000000000000000
12.932618141174316 -2.308075189590454 0.628715574741364 0.000000000000000
12.932949066162109 -2.748511314392090 1.198622941970825 0.000000000000000
12.942404747009277 -5.121909141540527 1.068568348884583 0.000000000000000
12.943839073181152 5.975136280059814 1.430518269538879 0.000000000000000
12.946473121643066 -3.621540784835815 0.876418411731720 0.000000000000000
12.953431129455566 1.104129910469055 0.847534060478210 0.000000000000000
12.957961082458496 -6.923556804656982 1.241438865661621 0.000000000000000
12.961894035339355 -1.491031050682068 0.574223637580872 0.000000000000000
12.962449073791504 -1.149114847183228 1.731719493865967 0.000000000000000
12.967961311340332 -2.018672466278076 0.855600833892822 0.000000000000000
12.975243568420410 2.342565059661865 1.114129066467285 0.000000000000000
12.980035781860352 0.746607661247253 0.947925686836243 0.000000000000000
12.990743637084961 0.383740842342377 0.847273766994476 0.000000000000000
12.991799354553223 -5.715445518493652 1.199339032173157 0.000000000000000
13.004193305969238 5.653850555419922 0.951784431934357 0.000000000000000
13.009299278259277 -2.161607742309570 0.732687115669250 0.000000000000000
13.010355949401855 6.749411106109619 1.125211715698242 0.000000000000000
13.013350486755371 -1.768494725227356 0.628524363040924 0.000000000000000
13.027009010314941 6.200177669525146 1.638674736022949 0.000000000000000
13.028136253356934 -2.536188840866089 1.121538639068604 0.000000000000000
13.029639244079590 6.551514148712158 1.232345342636108 0.000000000000000
13.032500267028809 0.607302486896515 0.875705957412720 0.000000000000000
13.033031463623047 2.537143945693970 1.156977176666260 0.000000000000000
13.033131599426270 4.033435821533203 2.021920680999756 0.000000000000000
13.039120674133301 0.973093152046204 0.474882185459137 0.000000000000000
13.045178413391113 -2.724804401397705 2.277976512908936 1.000000000000000
13.050070762634277 2.729633331298828 1.126590609550476 0.000000000000000
13.065065383911133 -3.371315240859985 0.853637814521790 0.000000000000000
13.071214675903320 -1.569292426109314 0.706081986427307 0.000000000000000
13.078886032104492 1.487377882003784 0.985124528408051 0.000000000000000
13.081846237182617 0.840003907680511 0.905160844326019 0.000000000000000
13.082881927490234 -1.377836585044861 1.086180448532104 0.000000000000000
13.090138435363770 -1.487267255783081 0.884278178215027 0.000000000000000
13.092524528503418 0.844823062419891 0.653139948844910 0.000000000000000
13.101580619812012 -1.207555770874023 1.111771464347839 0.000000000000000
13.103184700012207 0.828742682933807 1.007944703102112 0.000000000000000
13.111642837524414 -4.671681880950928 1.068568348884583 0.000000000000000
13.112725257873535 5.613082885742188 0.107049122452736 0.000000000000000
13.125028610229492 -0.927459955215454 1.610907316207886 0.000000000000000
13.129260063171387 1.073423743247986 0.706510424613953 0.000000000000000
13.137121200561523 -2.304846286773682 0.407505959272385 0.000000000000000
13.141907691955566 0.709904789924622 0.959560275077820 0.000000000000000
13.143589019775391 -1.348057270050049 0.912324965000153 0.000000000000000
13.163290977478027 -2.238694429397583 1.634725809097290 0.000000000000000
13.166795730590820 0.236949443817139 0.630245327949524 0.000000000000000
13.175107002258301 2.107484102249146 1.101650357246399 0.000000000000000
13.176956176757812 6.449052333831787 1.796108126640320 0.000000000000000
13.183180809020996 -2.586198091506958 1.057314872741699 0.000000000000000
13.183985710144043 -1.125166893005371 0.862626731395721 0.000000000000000
13.188567161560059 -6.327678680419922 3.919555902481079 0.000000000000000
13.189050674438477 1.224903702735901 1.154199242591858 0.000000000000000
13.198667526245117 -1.862939238548279 1.161491155624390 0.000000000000000
13.201409339904785 -4.675383090972900 1.331248998641968 0.000000000000000
13.204885482788086 -2.419261693954468 2.792335987091064 0.000000000000000
13.206634521484375 0.210236772894859 0.555901467800140 0.000000000000000
13.211152076721191 2.522079229354858 0.902762055397034 0.000000000000000
13.217979431152344 -1.315135836601257 0.482431530952454 0.000000000000000
13.219688415527344 -3.527865648269653 1.300588965415955 0.000000000000000
13.225464820861816 -2.004413604736328 0.975266933441162 0.000000000000000
13.225858688354492 -2.662477016448975 1.282420158386230 0.000000000000000
13.229575157165527 -5.861989021301270 2.473424196243286 0.000000000000000
13.230975151062012 -2.510065078735352 0.592690289020538 0.000000000000000
13.230978012084961 -1.499994635581970 0.868091344833374 0.000000000000000
13.231817245483398 -6.720434665679932 1.024746775627136 0.000000000000000
13.239481925964355 -2.196055412292480 0.978466391563416 0.000000000000000
13.242362976074219 -1.639566540718079 0.664277553558350 0.000000000000000
13.247643470764160 -1.858062386512756 1.165657877922058 0.000000000000000
13.261603355407715 -2.629716634750366 1.142420172691345 0.000000000000000
13.265758514404297 -2.113432884216309 0.281382381916046 0.000000000000000
13.269808769226074 -0.935363173484802 1.098358869552612 0.000000000000000
13.275244712829590 -2.432152271270752 0.801822245121002 0.000000000000000
13.287229537963867 -1.490871191024780 1.000647664070129 0.000000000000000
13.287600517272949 2.491989374160767 0.673028469085693 0.000000000000000
13.289802551269531 2.319201469421387 0.827486693859100 0.000000000000000
13.292003631591797 -2.395441293716431 0.516492426395416 0.000000000000000
13.292093276977539 -1.271922588348389 0.716150522232056 0.000000000000000
13.294711112976074 -5.994972229003906 3.033447742462158 0.000000000000000
13.298401832580566 0.138803184032440 0.585303604602814 0.000000000000000
13.301426887512207 1.745977759361267 1.275228261947632 0.000000000000000
13.308517456054688 1.510192632675171 1.782373189926147 0.000000000000000
13.313111305236816 2.059076786041260 0.878239929676056 0.000000000000000
13.317119598388672 0.938702881336212 1.516338467597961 0.000000000000000
13.323276519775391 1.837857961654663 1.789760231971741 0.000000000000000
13.339954376220703 -4.584462165832520 1.191929578781128 0.000000000000000
13.339967727661133 0.345591574907303 1.127600908279419 0.000000000000000
13.355080604553223 -2.169270992279053 0.517409563064575 0.000000000000000
13.355532646179199 1.185840845108032 0.925826609134674 0.000000000000000
13.362496376037598 -0.864582180976868 1.105600118637085 0.000000000000000
13.363490104675293 -6.120822429656982 1.156800985336304 0.000000000000000
13.365226745605469 6.038009166717529 0.730108678340912 0.000000000000000
13.373500823974609 -2.542424201965332 0.546755552291870 0.000000000000000
13.376960754394531 6.319840431213379 0.993038296699524 0.000000000000000
13.386793136596680 -3.894543886184692 0.855159342288971 0.000000000000000
13.391051292419434 -1.048254847526550 0.927479922771454 0.000000000000000
13.393033981323242 -2.269590139389038 0.571712315082550 0.000000000000000
13.402945518493652 5.645370006561279 0.696023285388947 0.000000000000000
13.407990455627441 4.130478858947754 1.593532204627991 0.000000000000000
13.408863067626953 -2.232327938079834 0.912405788898468 0.000000000000000
13.409195899963379 -3.944506406784058 0.722736179828644 0.000000000000000
13.411454200744629 -1.334385752677917 0.904637217521667 0.000000000000000
13.411666870117188 -1.133752942085266 1.647850275039673 0.000000000000000
13.416132926940918 6.583533287048340 1.829648494720459 0.000000000000000
13.417395591735840 -2.288175106048584 0.887347579002380 0.000000000000000
13.431932449340820 0.815414309501648 0.721720337867737 0.000000000000000
13.439202308654785 2.766494750976562 2.345372438430786 0.000000000000000
13.441758155822754 -1.258549571037292 0.646116137504578 0.000000000000000
13.443346023559570 -0.775609314441681 0.903833568096161 0.000000000000000
13.445718765258789 -1.657597184181213 2.315718173980713 0.000000000000000
13.448094367980957 1.006919622421265 0.775221228599548 0.000000000000000
13.452397346496582 -2.187005758285522 0.547397673130035 0.000000000000000
13.452451705932617 -2.103711128234863 0.468341588973999 0.000000000000000
13.452826499938965 -1.535372257232666 1.039481282234192 0.000000000000000
13.455191612243652 -2.892158269882202 3.687654018402100 0.000000000000000
13.464536666870117 -1.495775938034058 1.443012952804565 0.000000000000000
13.476455688476562 -1.783541917800903 1.069868326187134 0.000000000000000
13.480505943298340 -2.099421739578247 0.495497673749924 0.000000000000000
13.480888366699219 0.308753609657288 2.304934740066528 0.000000000000000
13.499059677124023 -0.596699416637421 1.037338018417358 0.000000000000000
13.501194000244141 0.745147109031677 0.621113419532776 0.000000000000000
13.506563186645508 -1.094304800033569 1.659030318260193 0.000000000000000
13.507624626159668 -3.613798379898071 0.696099221706390 0.000000000000000
13.514307022094727 1.816163659095764 1.814559340476990 0.000000000000000
13.518212318420410 2.545992374420166 1.198644995689392 0.000000000000000
13.528870582580566 -0.634692370891571 0.935195088386536 0.000000000000000
13.534298896789551 -3.603981018066406 3.752876281738281 0.000000000000000
13.536149978637695 1.392617225646973 0.939603805541992 0.000000000000000
13.542711257934570 -3.575104713439941 0.697292566299438 0.000000000000000
13.543691635131836 -1.912120223045349 0.523065149784088 0.000000000000000
13.546892166137695 -2.341902732849121 0.578608453273773 0.000000000000000
13.551176071166992 1.541088342666626 1.296425342559814 0.000000000000000
13.566617012023926 -2.331414937973022 0.632309675216675 0.000000000000000
13.573727607727051 1.318720817565918 0.416667520999908 0.000000000000000
13.588580131530762 -2.686175346374512 2.881123781204224 0.000000000000000
13.599799156188965 -0.715591430664062 1.294532656669617 0.000000000000000
13.601323127746582 -2.304398775100708 0.952554404735565 0.000000000000000
13.606436729431152 1.102393150329590 0.889949738979340 0.000000000000000
13.610983848571777 -1.206607222557068 0.732859969139099 0.000000000000000
13.612285614013672 -2.034612417221069 1.056627392768860 0.000000000000000
13.615032196044922 -1.928494215011597 0.499417513608932 0.000000000000000
13.620141029357910 -1.187056779861450 1.049585223197937 0.000000000000000
13.627064704895020 0.819628655910492 1.100787162780762 0.000000000000000
13.628924369812012 1.640596389770508 0.947870075702667 0.000000000000000
13.629516601562500 -2.896545886993408 2.381766080856323 0.000000000000000
13.645038604736328 -2.026605844497681 0.899317622184753 0.000000000000000
13.651797294616699 -1.120462775230408 0.708277344703674 0.000000000000000
13.651810646057129 -1.998641014099121 1.085873961448669 0.000000000000000
13.654070854187012 -2.194116830825806 1.088384628295898 0.000000000000000
13.660802841186523 -0.658326208591461 0.865255355834961 0.000000000000000
13.669827461242676 -0.671435952186584 1.300967574119568 0.000000000000000
13.678627967834473 1.166419506072998 0.736287593841553 0.000000000000000
13.689688682556152 1.696413636207581 1.835664987564087 0.000000000000000
13.703603744506836 1.168072938919067 0.790601730346680 0.000000000000000
13.704384803771973 1.319102525711060 0.817953586578369 0.000000000000000
13.714100837707520 -2.007760286331177 0.876872897148132 0.000000000000000
13.714756011962891 -0.615347862243652 0.868538558483124 0.000000000000000
13.717175483703613 -4.879611492156982 0.977233231067657 0.000000000000000
13.725805282592773 0.683787226676941 0.895934760570526 0.000000000000000
13.736963272094727 3.040130138397217 1.411748170852661 0.000000000000000
13.737625122070312 1.245636582374573 0.235958412289619 0.000000000000000
13.747591972351074 -0.396491914987564 1.683821082115173 0.000000000000000
13.750720024108887 -1.128581881523132 0.926067769527435 0.000000000000000
13.760730743408203 -0.407928228378296 0.897496104240417 0.000000000000000
13.763731002807617 0.772166311740875 1.084932446479797 0.000000000000000
13.771442413330078 -2.212977647781372 0.882429122924805 0.000000000000000
13.777871131896973 -0.425525248050690 0.872074306011200 0.000000000000000
13.778046607971191 -0.440695255994797 1.138185501098633 0.000000000000000
13.782100677490234 -1.127283096313477 0.741643130779266 0.000000000000000
13.817470550537109 -0.515840291976929 1.570509433746338 0.000000000000000
13.819088935852051 -2.300622701644897 0.724388659000397 0.000000000000000
13.821005821228027 -5.663335800170898 3.106758832931519 0.000000000000000
13.830754280090332 1.149005055427551 0.210750892758369 0.000000000000000
13.831660270690918 -2.294281005859375 2.396593093872070 0.000000000000000
13.840262413024902 1.472745299339294 1.176099896430969 0.000000000000000
13.849055290222168 1.667094945907593 1.856243014335632 0.000000000000000
13.852693557739258 4.759595870971680 2.503752231597900 0.000000000000000
13.854004859924316 3.566904783248901 2.975613355636597 0.000000000000000
13.862183570861816 -0.525020301342010 0.663899183273315 0.000000000000000
13.864262580871582 1.566884636878967 1.152009606361389 0.000000000000000
13.870656013488770 -0.939769327640533 1.174752712249756 0.000000000000000
13.903226852416992 5.150683403015137 0.995181322097778 0.000000000000000
13.908793449401855 1.283914089202881 0.749140977859497 0.000000000000000
13.911071777343750 1.284124493598938 1.180478334426880 0.000000000000000
13.926134109497070 -4.600505352020264 1.471652626991272 0.000000000000000
13.941144943237305 -0.576751112937927 1.486227035522461 0.000000000000000
13.951526641845703 1.430927157402039 0.995463311672211 0.000000000000000
13.993386268615723 -0.182694911956787 1.128435492515564 0.000000000000000
13.994325637817383 -1.562543034553528 1.412946224212646 0.000000000000000
14.002091407775879 -0.116813339293003 1.269406318664551 0.000000000000000
14.010375976562500 -0.688163042068481 0.833373248577118 0.000000000000000
14.033546447753906 -0.170480713248253 0.969087004661560 0.000000000000000
14.040432929992676 1.923802375793457 0.487454742193222 0.000000000000000
14.042768478393555 -1.674995779991150 0.622412741184235 0.000000000000000
14.043036460876465 -0.635480105876923 1.410550117492676 0.000000000000000
14.057477951049805 -2.285376071929932 0.791266620159149 0.000000000000000
14.059360504150391 -1.633686542510986 1.283129692077637 0.000000000000000
14.065687179565430 -0.434414356946945 1.498937129974365 0.000000000000000
14.073141098022461 -0.207317218184471 1.226423501968384 0.000000000000000
14.137248039245605 -0.310448288917542 0.812868952751160 0.000000000000000
14.138955116271973 -0.660342454910278 1.233368158340454 0.000000000000000
14.143307685852051 -3.091756582260132 3.879179954528809 0.000000000000000
14.148085594177246 1.907362461090088 1.068412303924561 0.000000000000000
14.148658752441406 -0.220778882503510 1.233020901679993 0.000000000000000
14.176376342773438 -0.324677467346191 0.951784431934357 0.000000000000000
14.181648254394531 -1.221032381057739 1.092756628990173 0.000000000000000
14.203677177429199 -3.821544408798218 1.566724061965942 0.000000000000000
14.223090171813965 2.441674947738647 0.912988364696503 0.000000000000000
14.239813804626465 3.446022987365723 1.949635505676270 0.000000000000000
14.255277633666992 -2.766297817230225 3.020414590835571 0.000000000000000
14.277363777160645 -0.329234361648560 0.875975072383881 0.000000000000000
14.281738281250000 -0.333575040102005 1.151904344558716 0.000000000000000
14.308535575866699 -3.798917770385742 1.576892018318176 0.000000000000000
14.309154510498047 -0.423685967922211 0.767778456211090 0.000000000000000
14.312426567077637 -0.782899916172028 1.100411057472229 0.000000000000000
14.327966690063477 -1.206174969673157 0.854249060153961 0.000000000000000
14.328533172607422 -3.363893032073975 1.801941275596619 0.000000000000000
14.368474006652832 -1.128804564476013 0.745250761508942 0.000000000000000
14.380120277404785 2.400736331939697 1.784928083419800 0.000000000000000
14.434872627258301 -0.488438427448273 1.640480399131775 0.000000000000000
14.436318397521973 -0.778810620307922 0.942514061927795 0.000000000000000
14.436616897583008 -0.677278339862823 1.221230983734131 0.000000000000000
14.439392089843750 -1.978464007377625 1.385377049446106 0.000000000000000
14.448038101196289 -0.810806155204773 1.375535607337952 0.000000000000000
14.479134559631348 0.290148705244064 3.012269020080566 0.000000000000000
14.488738059997559 0.382439255714417 2.477468013763428 0.000000000000000
14.499200820922852 -0.684272050857544 0.974286496639252 0.000000000000000
14.503929138183594 -1.705873250961304 0.053526338189840 0.000000000000000
14.510355949401855 -0.512283802032471 1.086622118949890 0.000000000000000
14.524798393249512 -0.793754041194916 1.652217507362366 0.000000000000000
14.543445587158203 -1.827465772628784 0.645100295543671 0.000000000000000
14.556344985961914 -1.191122651100159 0.952142179012299 0.000000000000000
14.556738853454590 1.942799925804138 0.731103062629700 0.000000000000000
14.565401077270508 -3.119626760482788 1.586636424064636 0.000000000000000
14.570993423461914 -1.038327097892761 1.234366059303284 0.000000000000000
14.588445663452148 -1.090765714645386 1.010143041610718 0.000000000000000
14.590679168701172 0.318879276514053 1.657634615898132 0.000000000000000
14.591645240783691 0.688632309436798 0.839727401733398 0.000000000000000
14.595869064331055 -2.266342163085938 0.792199969291687 0.000000000000000
14.657973289489746 0.228730604052544 1.238744497299194 0.000000000000000
14.711224555969238 0.213381946086884 1.567147612571716 0.000000000000000
14.714096069335938 0.773965775966644 1.159625530242920 0.000000000000000
14.746457099914551 -0.989274919033051 0.849598407745361 0.000000000000000
14.754995346069336 0.283825576305389 0.734683036804199 0.000000000000000
14.804471969604492 0.231530845165253 2.194323539733887 0.000000000000000
14.804802894592285 -2.402628183364868 1.359691262245178 0.000000000000000
14.816382408142090 1.001766562461853 0.539341926574707 0.000000000000000
14.840385437011719 0.923015296459198 0.454290956258774 0.000000000000000
14.870022773742676 0.256697595119476 1.141745328903198 0.000000000000000
14.873038291931152 0.730271220207214 0.712659060955048 0.000000000000000
14.892491340637207 -0.968535542488098 0.915402531623840 0.000000000000000
14.948842048645020 0.629419505596161 0.946578264236450 0.000000000000000
14.982609748840332 0.331630855798721 1.005896568298340 0.000000000000000
-2.300286531448364 -1.384994626045227 0.458965122699738 1.000000000000000
-2.180514812469482 -2.005647659301758 0.281617641448975 0.000000000000000
-2.148972749710083 -1.786140203475952 0.096115909516811 0.000000000000000
-2.053458452224731 -1.685650229454041 0.132258847355843 0.000000000000000
-2.042426586151123 -1.229738116264343 0.137046799063683 1.000000000000000
-2.015468597412109 -1.485714197158813 0.023599294945598 1.000000000000000
-2.010565757751465 -1.939276933670044 0.243409648537636 0.000000000000000
-2.008919715881348 -2.199122905731201 0.283131718635559 0.000000000000000
-2.006582021713257 -2.212021112442017 0.283888757228851 0.000000000000000
-2.002829551696777 -1.675932765007019 0.049687929451466 0.000000000000000
-1.953866243362427 -0.944199204444885 0.246478334069252 0.000000000000000
-1.953503727912903 -1.459494352340698 0.324499547481537 0.000000000000000
-1.929388523101807 -1.451999068260193 0.321333706378937 0.000000000000000
-1.811627388000488 -0.863636255264282 0.190773233771324 1.000000000000000
-1.798826098442078 -1.348045587539673 0.467561483383179 0.000000000000000
-1.781526207923889 -1.325395822525024 0.461859524250031 0.000000000000000
-1.773293137550354 -1.022243976593018 0.232484161853790 0.000000000000000
-1.759405136108398 -1.022436976432800 0.231129884719849 0.000000000000000
-1.733986735343933 -1.497160196304321 0.280474811792374 0.000000000000000
-1.731951951980591 -1.512049555778503 0.149886280298233 0.000000000000000
-1.706855416297913 -1.492241144180298 0.147804513573647 0.000000000000000
-1.688038945198059 -1.736212730407715 0.358879208564758 0.000000000000000
-1.672709465026855 -2.475977659225464 0.621514678001404 1.000000000000000
-1.669929265975952 -1.715188503265381 0.354774385690689 1.000000000000000
-1.626779198646545 -2.463022232055664 0.437457352876663 0.000000000000000
-1.624132037162781 -2.455285549163818 0.436284512281418 0.000000000000000
-1.584257602691650 -2.395005226135254 0.159540295600891 0.000000000000000
-1.572673082351685 -2.359550952911377 0.157543271780014 1.000000000000000
-1.565672397613525 -0.736816406250000 0.139527350664139 0.000000000000000
-1.465855836868286 -0.834279179573059 0.067742466926575 0.000000000000000
-1.461515307426453 -2.576815843582153 0.181709125638008 0.000000000000000
-1.411102414131165 -1.429546236991882 0.115468248724937 0.000000000000000
-1.321582436561584 -1.021840333938599 0.177940532565117 0.000000000000000
-1.290169835090637 -2.483576059341431 0.085507847368717 0.000000000000000
-1.206776738166809 -2.395658254623413 0.226665318012238 1.000000000000000
-1.197076439857483 -2.355897188186646 0.223297327756882 0.000000000000000
-1.188876152038574 -1.445097804069519 0.132822841405869 0.000000000000000
-1.182937383651733 -2.357028722763062 0.121139146387577 0.000000000000000
-1.177889704704285 -1.716534614562988 0.355849564075470 0.000000000000000
-1.163310766220093 -1.707397818565369 0.353153765201569 1.000000000000000
-1.151451945304871 -2.274456024169922 0.117101177573204 0.000000000000000
-1.016233682632446 -2.240482807159424 0.279432415962219 1.000000000000000
-0.998632133007050 -2.222265243530273 0.276723861694336 1.000000000000000
-0.954602956771851 -1.588789105415344 0.197429254651070 0.000000000000000
-0.851015329360962 -0.970943927764893 0.112503170967102 0.000000000000000
-0.813432037830353 -0.929699659347534 0.107641927897930 0.000000000000000
-0.803573906421661 -1.398135542869568 0.275648623704910 0.000000000000000
-0.792636275291443 -1.368029594421387 0.270256996154785 0.000000000000000
-0.732152283191681 1.977566838264465 0.117158927023411 0.000000000000000
-0.695201635360718 1.876554727554321 0.165231093764305 0.000000000000000
-0.694758653640747 1.855449795722961 0.163585349917412 0.000000000000000
-0.664683461189270 2.678641557693481 0.026012003421783 1.000000000000000
-0.650580942630768 2.661518096923828 0.025823511183262 1.000000000000000
-0.423568606376648 -0.919044554233551 0.009537734091282 0.000000000000000
-0.415776729583740 -0.922517001628876 0.015365987084806 0.000000000000000
-0.157821923494339 2.821087837219238 0.118917495012283 1.000000000000000
-0.149439156055450 2.849558353424072 0.120094902813435 1.000000000000000
-0.139171347022057 2.210834264755249 0.059168010950089 0.000000000000000
-0.131690993905067 2.215297937393188 0.059274811297655 0.000000000000000
-0.035986129194498 -1.822794198989868 0.055702254176140 0.000000000000000
0.000082837861555 -2.369631052017212 0.405048489570618 0.000000000000000
0.064513623714447 -1.186606764793396 0.134976238012314 0.000000000000000
0.077292047441006 -2.394248723983765 0.641871213912964 1.000000000000000
0.087720997631550 -2.451883077621460 0.657400429248810 0.000000000000000
0.139146760106087 -1.469828844070435 0.307091772556305 0.000000000000000
0.145042151212692 -1.477128982543945 0.308720916509628 0.000000000000000
0.159112229943275 2.257307529449463 0.151889041066170 1.000000000000000
0.214232608675957 -2.676685094833374 0.190596535801888 0.000000000000000
0.309804618358612 -2.838419675827026 0.765069127082825 0.000000000000000
0.329661458730698 -2.925627231597900 0.788880467414856 0.000000000000000
0.485535264015198 2.679974317550659 0.046589646488428 0.000000000000000
0.497901409864426 2.535011053085327 0.153484910726547 0.000000000000000
0.531955540180206 2.936197042465210 0.005208060145378 0.000000000000000
0.637143909931183 1.352711915969849 0.400651901960373 0.000000000000000
0.640202403068542 1.346990466117859 0.399616599082947 0.000000000000000
0.727371573448181 -2.440074920654297 0.682247042655945 1.000000000000000
0.737427413463593 -2.441091299057007 0.683282315731049 0.000000000000000
0.868226230144501 -2.136899471282959 0.394265174865723 0.000000000000000
0.881361067295074 -2.191128730773926 0.403700590133667 1.000000000000000
0.883475720882416 -2.719219446182251 0.766104400157928 0.000000000000000
0.886928439140320 -2.697767019271851 0.760927975177765 0.000000000000000
0.902998387813568 -1.497744560241699 0.259190559387207 1.000000000000000
0.943422734737396 -2.836197376251221 0.299921631813049 0.000000000000000
0.997471630573273 -0.164432868361473 0.046436674892902 0.000000000000000
1.008712410926819 -0.169904753565788 0.046987306326628 0.000000000000000
1.062566637992859 -2.061862230300903 0.308670312166214 1.000000000000000
1.076576471328735 -2.054581880569458 0.308670312166214 0.000000000000000
1.396119475364685 -1.258219242095947 0.250102102756500 0.000000000000000
1.405072569847107 -2.571315765380859 0.389927119016647 1.000000000000000
1.424140214920044 -1.274491667747498 0.254323244094849 0.000000000000000
1.487359642982483 -2.263513803482056 0.725728631019592 0.000000000000000
1.497384786605835 -2.261529684066772 0.726763904094696 0.000000000000000
1.518981695175171 2.383221626281738 0.102641917765141 0.000000000000000
1.522868990898132 2.307623147964478 0.575084328651428 0.000000000000000
1.564438462257385 1.056895852088928 0.006919866427779 0.000000000000000
1.589349031448364 1.070053696632385 0.003344049211591 0.000000000000000
1.602107524871826 -1.844703555107117 0.206457406282425 0.000000000000000
1.616409063339233 -1.848100662231445 0.207467809319496 0.000000000000000
1.636050343513489 -1.018193244934082 0.256433814764023 0.000000000000000
1.649715423583984 -1.018725872039795 0.258016735315323 1.000000000000000
1.740714073181152 1.202902078628540 0.019942535087466 0.000000000000000
1.743387103080750 -0.101377904415131 0.140813320875168 0.000000000000000
1.757444024085999 0.096041753888130 0.167305111885071 0.000000000000000
1.775895476341248 1.236396312713623 0.020394917577505 0.000000000000000
1.777652740478516 0.090923100709915 0.169197693467140 0.000000000000000
1.803059220314026 1.921808481216431 0.390545010566711 0.000000000000000
1.809825539588928 1.942566394805908 0.393477022647858 0.000000000000000
1.812365770339966 2.266901969909668 0.355332881212234 0.000000000000000
1.822757601737976 2.263654947280884 0.355818986892700 0.000000000000000
1.892806887626648 0.039285097271204 0.507285356521606 0.000000000000000
1.946313619613647 1.512766361236572 0.365329653024673 1.000000000000000
1.948798775672913 -0.846714735031128 0.314898908138275 0.000000000000000
1.950800299644470 -0.003268602536991 0.259599655866623 0.000000000000000
1.951835274696350 -0.849654436111450 0.315485328435898 0.000000000000000
1.978555679321289 0.003246028674766 0.263293147087097 0.000000000000000
1.981469273567200 -0.306464374065399 0.245476201176643 0.000000000000000
1.983253121376038 -0.294700741767883 0.245476201176643 0.000000000000000
2.004312992095947 1.908813476562500 0.031401295214891 0.000000000000000
2.024308443069458 -0.679996550083160 0.139217287302017 0.000000000000000
2.065421581268311 -0.963516891002655 0.242761716246605 1.000000000000000
2.072841882705688 -0.975803017616272 0.244032725691795 0.000000000000000
2.122655153274536 -0.596691429615021 0.221247106790543 1.000000000000000
2.141101837158203 -0.720893263816833 0.147284090518951 1.000000000000000
2.146480560302734 2.014693260192871 0.027746137231588 0.000000000000000
2.246541976928711 -0.410331845283508 0.140077650547028 1.000000000000000
2.254898071289062 -0.409012049436569 0.140567421913147 1.000000000000000
2.332055807113647 1.701127052307129 0.177056193351746 0.000000000000000
2.399695158004761 1.156855821609497 0.253228753805161 0.000000000000000
2.404291152954102 0.118051506578922 0.152291014790535 0.000000000000000
2.413789987564087 -0.876353681087494 0.380576163530350 0.000000000000000
2.421643495559692 0.713004589080811 0.374125689268112 0.000000000000000
2.433530092239380 0.714658677577972 0.375884920358658 0.000000000000000
2.440908908843994 -0.961204290390015 0.388785809278488 1.000000000000000
2.464896440505981 -0.318428188562393 0.114164471626282 0.000000000000000
2.479621887207031 -1.067996501922607 0.330542206764221 0.000000000000000
2.508898735046387 -1.070239543914795 0.333944886922836 0.000000000000000
2.512290716171265 -0.606023609638214 0.245658397674561 0.000000000000000
2.620555639266968 -0.329705685377121 0.121322691440582 0.000000000000000
2.670061111450195 0.081017732620239 0.158703863620758 1.000000000000000
2.684000730514526 0.694179296493530 0.295296549797058 0.000000000000000
2.686407566070557 0.684806704521179 0.295296549797058 1.000000000000000
2.702988624572754 -0.837645292282104 0.321414977312088 0.000000000000000
2.769528388977051 0.093714058399200 0.164634495973587 0.000000000000000
2.779273986816406 -0.349674880504608 0.750575244426727 0.000000000000000
2.808438777923584 0.015783326700330 0.254603564739227 0.000000000000000
2.821044683456421 -0.518165767192841 0.260020643472672 0.000000000000000
2.846347332000732 -0.772162020206451 0.504120230674744 0.000000000000000
2.908904075622559 -0.047626461833715 0.330443501472473 0.000000000000000
2.918871641159058 -0.411987096071243 0.436870962381363 1.000000000000000
2.928588390350342 -0.058174811303616 0.332700639963150 0.000000000000000
2.951772451400757 0.026893820613623 0.267604589462280 0.000000000000000
-28.609252929687500 -23.999217987060547 2.146607637405396 0.000000000000000
-28.481887817382812 -26.109821319580078 3.115574836730957 0.000000000000000
-27.393680572509766 -25.466476440429688 3.015912532806396 0.000000000000000
-26.530405044555664 -27.847997665405273 3.656108617782593 0.000000000000000
-25.363185882568359 -24.431432723999023 0.737675845623016 0.000000000000000
-25.040727615356445 -20.972970962524414 0.182429254055023 0.000000000000000
-25.001258850097656 -22.599889755249023 0.641225337982178 0.000000000000000
-24.561920166015625 -21.017925262451172 0.242616668343544 0.000000000000000
-24.463546752929688 -22.188417434692383 3.139431238174438 0.000000000000000
-24.373630523681641 -21.004636764526367 0.735784888267517 0.000000000000000
-24.198354721069336 -21.766895294189453 0.119294382631779 0.000000000000000
-24.139055252075195 -22.800052642822266 2.356826782226562 0.000000000000000
-23.993387222290039 -22.204120635986328 1.375877141952515 1.000000000000000
-23.953653335571289 -22.467243194580078 1.824617266654968 0.000000000000000
-23.914762496948242 -22.294643402099609 1.376045465469360 1.000000000000000
-23.902715682983398 -21.944278717041016 1.240865707397461 0.000000000000000
-23.698528289794922 -22.871025085449219 1.386137366294861 0.000000000000000
-23.695049285888672 -22.537694931030273 2.321142911911011 0.000000000000000
-23.691104888916016 -22.691987991333008 1.822620272636414 0.000000000000000
-23.595973968505859 -21.103174209594727 1.880723834037781 0.000000000000000
-23.447414398193359 -20.990932464599609 1.263990998268127 0.000000000000000
-23.421422958374023 -20.800359725952148 2.344297647476196 0.000000000000000
-23.222101211547852 -22.898500442504883 3.100065231323242 0.000000000000000
-23.022178649902344 -22.868404388427734 3.084545850753784 0.000000000000000
-22.887584686279297 -16.587337493896484 3.210538625717163 0.000000000000000
-22.803388595581055 -16.405218124389648 3.190675735473633 0.000000000000000
-22.771020889282227 -20.630130767822266 0.761673092842102 0.000000000000000
-22.305862426757812 -17.510162353515625 3.220921277999878 0.000000000000000
-22.238620758056641 -18.758525848388672 0.609424471855164 0.000000000000000
-22.155286788940430 -24.576591491699219 2.348613739013672 0.000000000000000
-22.107429504394531 -21.206192016601562 1.819994211196899 0.000000000000000
-22.014957427978516 -18.569864273071289 1.046018481254578 0.000000000000000
-21.844812393188477 -17.325170516967773 2.302044391632080 0.000000000000000
-21.837234497070312 -17.025547027587891 3.145081758499146 0.000000000000000
-21.834835052490234 -21.783058166503906 2.010714054107666 0.000000000000000
-21.802261352539062 -20.636123657226562 1.205719590187073 0.000000000000000
-21.668540954589844 -20.930915832519531 1.789866566658020 0.000000000000000
-21.556503295898438 -21.777343750000000 1.525451779365540 0.000000000000000
-21.514490127563477 -15.938491821289062 0.509434401988983 0.000000000000000
-21.495111465454102 -15.959024429321289 0.098124288022518 0.000000000000000
-21.488292694091797 -18.367015838623047 2.279375314712524 0.000000000000000
-21.476333618164062 -22.373413085937500 0.828352153301239 0.000000000000000
-21.395412445068359 -18.810884475708008 3.235818147659302 0.000000000000000
-21.317987442016602 -17.484638214111328 1.425643205642700 0.000000000000000
-21.282575607299805 -24.116573333740234 0.859111011028290 0.000000000000000
-21.202865600585938 -24.195976257324219 1.354011178016663 0.000000000000000
-21.168195724487305 -17.744606018066406 1.375094294548035 0.000000000000000
-21.109704971313477 -16.222646713256836 0.506542921066284 0.000000000000000
-21.085216522216797 -17.895484924316406 0.951258659362793 0.000000000000000
-21.081062316894531 -18.044422149658203 1.809044003486633 0.000000000000000
-21.030630111694336 -17.723237991333008 2.217648983001709 0.000000000000000
-20.997688293457031 -16.020288467407227 0.502510011196136 0.000000000000000
-20.873197555541992 -21.438915252685547 1.662414312362671 0.000000000000000
-20.818197250366211 -23.757003784179688 1.815812826156616 0.000000000000000
-20.816078186035156 -17.443244934082031 1.770531654357910 0.000000000000000
-20.804536819458008 -19.679378509521484 1.701381444931030 0.000000000000000
-20.740434646606445 -18.363792419433594 3.146435976028442 0.000000000000000
-20.697223663330078 -20.386022567749023 0.720139920711517 0.000000000000000
-20.663780212402344 -16.948068618774414 2.206592082977295 0.000000000000000
-20.663017272949219 -20.933094024658203 0.785631597042084 0.000000000000000
-20.648607254028320 -15.784771919250488 0.244965195655823 0.000000000000000
-20.625593185424805 -17.156562805175781 2.266989946365356 0.000000000000000
-20.443346023559570 -20.135961532592773 0.270449429750443 0.000000000000000
-20.430698394775391 -19.968135833740234 3.801657438278198 0.000000000000000
-20.359102249145508 -19.913446426391602 0.268413692712784 0.000000000000000
-20.249345779418945 -19.288585662841797 2.092941761016846 0.000000000000000
-20.231687545776367 -20.349262237548828 0.711317777633667 0.000000000000000
-20.189674377441406 -17.276542663574219 1.016170978546143 0.000000000000000
-20.171733856201172 -14.740782737731934 1.676940798759460 0.000000000000000
-20.113885879516602 -18.233043670654297 1.142583608627319 0.000000000000000
-20.103960037231445 -20.648828506469727 0.714390635490417 0.000000000000000
-20.056825637817383 -20.177610397338867 0.322770804166794 0.000000000000000
-20.031307220458984 -15.202387809753418 0.237010806798935 0.000000000000000
-19.975048065185547 -14.704286575317383 2.047943830490112 0.000000000000000
-19.953975677490234 -19.366491317749023 3.700350284576416 0.000000000000000
-19.925788879394531 -20.776975631713867 2.154437541961670 0.000000000000000
-19.909135818481445 -17.032871246337891 1.354794740676880 0.000000000000000
-19.902645111083984 -27.171621322631836 0.446788400411606 0.000000000000000
-19.896476745605469 -26.167100906372070 0.878014862537384 0.000000000000000
-19.886690139770508 -15.307079315185547 -0.148921787738800 0.000000000000000
-19.868494033813477 -17.884653091430664 1.125090718269348 0.000000000000000
-19.846454620361328 -20.648029327392578 3.811155080795288 0.000000000000000
-19.801563262939453 -18.440717697143555 1.347051382064819 0.000000000000000
-19.794931411743164 -16.815856933593750 1.343021154403687 0.000000000000000
-19.787233352661133 -20.186315536499023 1.189679622650146 0.000000000000000
-19.778787612915039 -17.405469894409180 -0.257517158985138 0.000000000000000
-19.725227355957031 -20.282484054565430 2.689372777938843 0.000000000000000
-19.666315078735352 -14.664696693420410 0.042816396802664 0.000000000000000
-19.625556945800781 -22.391273498535156 0.280628025531769 0.000000000000000
-19.621524810791016 -18.533111572265625 1.499545574188232 0.000000000000000
-19.610616683959961 -22.374227523803711 1.194964289665222 0.000000000000000
-19.496448516845703 -14.689495086669922 0.230074271559715 0.000000000000000
-19.444738388061523 -25.572992324829102 0.364472836256027 0.000000000000000
-19.444108963012695 -14.393665313720703 0.042222984135151 0.000000000000000
-19.401084899902344 -18.877281188964844 2.358747243881226 0.000000000000000
-19.378517150878906 -22.415410995483398 0.279270887374878 0.000000000000000
-19.352560043334961 -20.038757324218750 2.084881544113159 0.000000000000000
-19.342063903808594 -19.983175277709961 3.700877904891968 0.000000000000000
-19.339403152465820 -15.960324287414551 2.848043918609619 0.000000000000000
-19.337499618530273 -18.431592941284180 1.072963714599609 0.000000000000000
-19.328865051269531 -19.599281311035156 2.060104370117188 0.000000000000000
-19.310310363769531 -18.104434967041016 1.419661760330200 0.000000000000000
-19.258766174316406 -22.027023315429688 0.725294351577759 0.000000000000000
-19.250392913818359 -19.366321563720703 0.729347229003906 0.000000000000000
-19.232475280761719 -13.184530258178711 3.985785245895386 0.000000000000000
-19.224205017089844 -19.611932754516602 1.578678250312805 0.000000000000000
-19.195886611938477 -19.123659133911133 2.184856891632080 0.000000000000000
-19.177785873413086 -17.413166046142578 1.988639354705811 0.000000000000000
-19.158737182617188 -17.395868301391602 2.596658229827881 0.000000000000000
-19.130886077880859 -18.452560424804688 0.658880949020386 0.000000000000000
-19.122608184814453 -19.336067199707031 1.825347304344177 0.000000000000000
-19.109073638916016 -19.925371170043945 2.624267578125000 0.000000000000000
-18.990015029907227 -15.590810775756836 1.743972539901733 0.000000000000000
-18.924268722534180 -14.349735260009766 1.548304438591003 0.000000000000000
-18.893646240234375 -18.717718124389648 1.733840703964233 0.000000000000000
-18.870161056518555 -16.498643875122070 0.958545148372650 0.000000000000000
-18.865058898925781 -19.354717254638672 2.283829689025879 0.000000000000000
-18.839523315429688 -16.484634399414062 1.390818476676941 0.000000000000000
-18.809053421020508 -16.445217132568359 1.725178718566895 0.000000000000000
-18.803911209106445 -17.530031204223633 1.874327421188354 0.000000000000000
-18.801433563232422 -19.137826919555664 1.387223958969116 0.000000000000000
-18.745241165161133 -14.301773071289062 0.811003684997559 0.000000000000000
-18.632356643676758 -16.396602630615234 0.138620316982269 0.000000000000000
-18.613531112670898 -18.988943099975586 0.301670223474503 0.000000000000000
-18.569940567016602 -17.311910629272461 2.301543951034546 0.000000000000000
-18.508302688598633 -18.750215530395508 0.298902213573456 0.000000000000000
