# This PCD file was generated using the MATLAB® pcwrite function
# from Computer Vision Toolbox®.
# .PCD v.7 - Point Cloud Data file format
VERSION .7
FIELDS x y z intensity
SIZE 8 8 8 8
TYPE F F F F
COUNT 1 1 1 1
WIDTH 643
HEIGHT 1
VIEWPOINT 0 0 0 1 0 0 0
POINTS 643
DATA ascii
14.434853553771973 14.461081504821777 -0.552887797355652 0.000000000000000
14.438694000244141 11.180441856384277 0.909105598926544 0.000000000000000
14.440843582153320 -4.547085285186768 1.103828787803650 0.000000000000000
14.441570281982422 16.199750900268555 0.496284425258636 0.000000000000000
14.442352294921875 -23.538257598876953 -0.110857442021370 1.000000000000000
14.442689895629883 -20.219524383544922 -0.052041489630938 1.000000000000000
14.446266174316406 -21.172668457031250 -0.152102455496788 1.000000000000000
14.448253631591797 7.878747463226318 1.136341929435730 0.000000000000000
14.448662757873535 12.937202453613281 -0.264040648937225 0.000000000000000
14.449067115783691 7.927696228027344 0.313574194908142 0.000000000000000
14.452267646789551 19.121805191040039 1.793822169303894 0.000000000000000
14.454236030578613 -5.790647506713867 1.285642623901367 0.000000000000000
14.454743385314941 8.994137763977051 0.814767956733704 0.000000000000000
14.461728096008301 -6.903468608856201 1.820147752761841 0.000000000000000
14.462096214294434 12.316484451293945 -0.003315427340567 0.000000000000000
14.463515281677246 13.167263031005859 -0.153622314333916 0.000000000000000
14.463695526123047 5.668845653533936 -0.181669294834137 0.000000000000000
14.465410232543945 8.888056755065918 1.139569640159607 0.000000000000000
14.466963768005371 4.281466484069824 2.235958099365234 0.000000000000000
14.467181205749512 13.853198051452637 0.265706747770309 0.000000000000000
14.469674110412598 4.023134708404541 3.123864889144897 0.000000000000000
14.470309257507324 -20.345155715942383 -1.443918704986572 1.000000000000000
14.472482681274414 -7.067458152770996 1.460088133811951 0.000000000000000
14.478113174438477 -19.102579116821289 0.363985627889633 1.000000000000000
14.478738784790039 -4.503526687622070 0.871636092662811 0.000000000000000
14.482157707214355 -6.353001594543457 1.091979503631592 0.000000000000000
14.483201026916504 -11.473483085632324 2.458809614181519 0.000000000000000
14.485161781311035 8.045122146606445 3.446433544158936 0.000000000000000
14.491105079650879 18.078807830810547 1.644567728042603 0.000000000000000
14.491485595703125 14.452088356018066 1.176490664482117 0.000000000000000
14.492497444152832 16.684652328491211 0.420483142137527 0.000000000000000
14.493755340576172 18.951572418212891 1.923805594444275 0.000000000000000
14.494064331054688 13.102834701538086 -0.453631818294525 0.000000000000000
14.494565963745117 -20.127553939819336 2.488830327987671 0.000000000000000
14.497092247009277 8.964430809020996 -0.493969380855560 0.000000000000000
14.500561714172363 6.954984188079834 2.140114068984985 0.000000000000000
14.503678321838379 14.000652313232422 0.925980269908905 0.000000000000000
14.504155158996582 18.521789550781250 0.944862961769104 0.000000000000000
14.506328582763672 -24.472288131713867 -1.152562975883484 1.000000000000000
14.506391525268555 -15.979253768920898 2.871953010559082 0.000000000000000
14.507524490356445 -19.740936279296875 0.277937769889832 1.000000000000000
14.507592201232910 9.227766036987305 1.725248098373413 0.000000000000000
14.508587837219238 14.005391120910645 -0.313265651464462 0.000000000000000
14.511749267578125 -20.962314605712891 0.191343545913696 1.000000000000000
14.512293815612793 -19.461227416992188 2.200785875320435 0.000000000000000
14.513616561889648 13.305802345275879 1.663783907890320 0.000000000000000
14.517134666442871 -20.193805694580078 0.282157868146896 1.000000000000000
14.517171859741211 -4.530491352081299 0.786355197429657 0.000000000000000
14.520110130310059 -21.010419845581055 0.142641529440880 1.000000000000000
14.520473480224609 -9.622193336486816 1.068459510803223 0.000000000000000
14.525175094604492 -10.454319953918457 1.559419035911560 0.000000000000000
14.525650024414062 -7.098445892333984 1.147544026374817 0.000000000000000
14.526811599731445 -10.832290649414062 0.832372844219208 0.000000000000000
14.530562400817871 16.673147201538086 2.102290868759155 0.000000000000000
14.531887054443359 13.404011726379395 -0.496972829103470 0.000000000000000
14.532299995422363 9.623094558715820 -0.471631705760956 0.000000000000000
14.533458709716797 11.461782455444336 0.316618025302887 0.000000000000000
14.534264564514160 8.676548004150391 2.508636236190796 0.000000000000000
14.535365104675293 -5.041562080383301 -0.682479441165924 1.000000000000000
14.536738395690918 -20.351190567016602 0.716059684753418 1.000000000000000
14.538027763366699 -10.642564773559570 2.397603273391724 0.000000000000000
14.541552543640137 -11.277956962585449 1.554998159408569 0.000000000000000
14.544131278991699 2.807599782943726 -0.315453499555588 0.000000000000000
14.546076774597168 3.757535696029663 1.999233961105347 0.000000000000000
14.546718597412109 11.836996078491211 0.464894145727158 0.000000000000000
14.546765327453613 8.969898223876953 0.785018444061279 0.000000000000000
14.549313545227051 -20.203578948974609 0.378076165914536 1.000000000000000
14.550425529479980 9.635097503662109 1.407168745994568 0.000000000000000
14.552907943725586 -4.374942302703857 1.254703044891357 0.000000000000000
14.559267044067383 13.826864242553711 1.463918447494507 0.000000000000000
14.560183525085449 15.940400123596191 1.699110269546509 0.000000000000000
14.561752319335938 11.365440368652344 3.157491207122803 0.000000000000000
14.562349319458008 -24.316501617431641 -0.168195694684982 1.000000000000000
14.565139770507812 9.718151092529297 -0.473795652389526 0.000000000000000
14.572973251342773 -16.315599441528320 2.330173730850220 0.000000000000000
14.574178695678711 -4.488058090209961 2.029309511184692 0.000000000000000
14.576733589172363 -19.946516036987305 0.375160872936249 0.000000000000000
14.578257560729980 12.503464698791504 0.291650056838989 0.000000000000000
14.579519271850586 -23.761812210083008 0.744619786739349 1.000000000000000
14.581719398498535 -23.202051162719727 1.628078699111938 1.000000000000000
14.582299232482910 -23.953516006469727 -0.974385499954224 0.000000000000000
14.585395812988281 -4.056404113769531 1.853466987609863 0.000000000000000
14.587225914001465 16.442695617675781 1.772383213043213 0.000000000000000
14.591729164123535 10.172135353088379 1.894642949104309 0.000000000000000
14.592480659484863 17.054225921630859 0.815182983875275 0.000000000000000
14.593134880065918 -5.091007709503174 -0.507316708564758 1.000000000000000
14.598268508911133 11.730598449707031 -0.147087857127190 0.000000000000000
14.604905128479004 -14.534213066101074 2.067502260208130 0.000000000000000
14.613083839416504 -10.742625236511230 0.833106935024261 0.000000000000000
14.619415283203125 -24.351005554199219 -0.877696812152863 1.000000000000000
14.620364189147949 11.530320167541504 0.032498013228178 0.000000000000000
14.621588706970215 -6.124740600585938 1.278250455856323 0.000000000000000
14.623946189880371 11.819442749023438 0.177220895886421 0.000000000000000
14.624836921691895 -10.550091743469238 2.399713993072510 0.000000000000000
14.627017021179199 7.201831340789795 -0.629181027412415 0.000000000000000
14.628870964050293 5.973213195800781 -0.457932680845261 0.000000000000000
14.629085540771484 14.875226020812988 0.437026470899582 0.000000000000000
14.632794380187988 17.079607009887695 0.773602426052094 0.000000000000000
14.647093772888184 -4.386538028717041 1.871938347816467 0.000000000000000
14.652896881103516 -5.873203754425049 1.932699799537659 0.000000000000000
14.653760910034180 13.679677009582520 2.135286331176758 0.000000000000000
14.655241966247559 -13.454485893249512 2.948439121246338 0.000000000000000
14.655975341796875 -5.518162727355957 0.930398464202881 0.000000000000000
14.657290458679199 9.725016593933105 1.214596271514893 0.000000000000000
14.662982940673828 9.209485054016113 1.128831028938293 0.000000000000000
14.667046546936035 8.678214073181152 1.544956088066101 0.000000000000000
14.667821884155273 7.938141345977783 2.850840330123901 0.000000000000000
14.669655799865723 10.945576667785645 -0.178897604346275 0.000000000000000
14.674550056457520 3.268857240676880 3.127123117446899 0.000000000000000
14.682520866394043 -19.457504272460938 0.136140570044518 1.000000000000000
14.685156822204590 9.382159233093262 2.318984508514404 0.000000000000000
14.686084747314453 -6.792767524719238 1.336001873016357 0.000000000000000
14.687771797180176 11.115537643432617 0.102876156568527 0.000000000000000
14.691891670227051 17.673854827880859 1.232644319534302 0.000000000000000
14.693900108337402 10.674962043762207 1.499587297439575 0.000000000000000
14.697302818298340 11.508008003234863 1.180949807167053 0.000000000000000
14.698624610900879 -20.443250656127930 0.237312391400337 1.000000000000000
14.709753990173340 -5.180410861968994 -0.721816778182983 0.000000000000000
14.710603713989258 -11.894569396972656 1.379276990890503 0.000000000000000
14.713300704956055 13.394661903381348 -0.767850816249847 0.000000000000000
14.717967033386230 9.862495422363281 1.543793559074402 0.000000000000000
14.718184471130371 15.801017761230469 1.741198420524597 0.000000000000000
14.721216201782227 13.801922798156738 -0.158491730690002 0.000000000000000
14.724416732788086 13.311077117919922 1.677255868911743 0.000000000000000
14.724921226501465 -11.881935119628906 1.898571729660034 0.000000000000000
14.728208541870117 -9.724747657775879 1.491343140602112 0.000000000000000
14.728477478027344 -5.526977539062500 1.238084673881531 0.000000000000000
14.737620353698730 -4.751033782958984 1.403750300407410 0.000000000000000
14.740426063537598 -8.109648704528809 2.875777006149292 0.000000000000000
14.740478515625000 -24.389347076416016 1.693078517913818 1.000000000000000
14.756234169006348 -7.095987319946289 2.004641294479370 0.000000000000000
14.760602951049805 19.230844497680664 1.020302057266235 0.000000000000000
14.762103080749512 -3.917960882186890 2.263519048690796 0.000000000000000
14.767184257507324 -22.137432098388672 0.250808477401733 1.000000000000000
14.769137382507324 7.788203239440918 2.221898555755615 0.000000000000000
14.769956588745117 -11.526274681091309 1.698440432548523 0.000000000000000
14.770790100097656 -9.534455299377441 2.152413129806519 0.000000000000000
14.773713111877441 -24.216531753540039 0.703189611434937 1.000000000000000
14.773996353149414 -24.133541107177734 1.953880071640015 1.000000000000000
14.778701782226562 12.379725456237793 -0.225449517369270 0.000000000000000
14.783633232116699 -3.740559577941895 0.964762270450592 0.000000000000000
14.784086227416992 -24.573751449584961 -1.217014789581299 1.000000000000000
14.788196563720703 -7.396017074584961 0.759505748748779 0.000000000000000
14.790305137634277 7.880043029785156 0.222306534647942 0.000000000000000
14.792297363281250 -24.108600616455078 2.062225580215454 1.000000000000000
14.794548988342285 14.041460990905762 0.780012071132660 0.000000000000000
14.804095268249512 -3.227273225784302 1.104701399803162 0.000000000000000
14.807348251342773 -3.061603069305420 1.248449206352234 0.000000000000000
14.809942245483398 -24.282587051391602 1.744603514671326 1.000000000000000
14.811415672302246 -4.663769721984863 1.407722949981689 0.000000000000000
14.812591552734375 -5.577130794525146 1.184537529945374 0.000000000000000
14.813117027282715 12.913669586181641 -0.569519042968750 0.000000000000000
14.814158439636230 -24.389940261840820 3.797436475753784 0.000000000000000
14.817958831787109 11.113929748535156 1.457770228385925 0.000000000000000
14.818130493164062 7.484522819519043 0.602930545806885 0.000000000000000
14.818820953369141 5.452852249145508 -0.427270829677582 0.000000000000000
14.820571899414062 -16.225477218627930 1.687052011489868 0.000000000000000
14.820683479309082 -7.138448238372803 1.868450403213501 0.000000000000000
14.821977615356445 9.000919342041016 1.740024685859680 0.000000000000000
14.822597503662109 5.731166839599609 -0.002773677464575 0.000000000000000
14.824502944946289 -22.680988311767578 -0.004729144275188 1.000000000000000
14.825728416442871 16.693349838256836 1.068510532379150 0.000000000000000
14.827947616577148 12.502236366271973 1.376656293869019 0.000000000000000
14.828688621520996 -15.015163421630859 1.375779032707214 0.000000000000000
14.828862190246582 11.657436370849609 3.224213123321533 0.000000000000000
14.829648017883301 7.967592239379883 0.223314613103867 0.000000000000000
14.829865455627441 -10.246491432189941 2.206855535507202 0.000000000000000
14.831532478332520 -3.283183336257935 1.859786152839661 0.000000000000000
14.834583282470703 -5.448952198028564 0.513216793537140 0.000000000000000
14.836038589477539 -6.407525539398193 1.721362829208374 0.000000000000000
14.838445663452148 -22.575632095336914 -0.160315230488777 1.000000000000000
14.839380264282227 -24.360492706298828 1.255377769470215 1.000000000000000
14.840149879455566 12.162098884582520 0.180839970707893 0.000000000000000
14.843357086181641 18.897813796997070 1.196296215057373 0.000000000000000
14.843942642211914 -21.567415237426758 2.488758087158203 0.000000000000000
14.844079017639160 -19.465894699096680 -0.051270753145218 1.000000000000000
14.844387054443359 13.822280883789062 1.517987251281738 0.000000000000000
14.847524642944336 15.424564361572266 1.065827369689941 0.000000000000000
14.849789619445801 -24.879146575927734 -1.229564905166626 1.000000000000000
14.854866981506348 -19.993347167968750 2.829083919525146 0.000000000000000
14.856355667114258 -3.108796358108521 1.616716861724854 0.000000000000000
14.860995292663574 17.553894042968750 1.056480169296265 0.000000000000000
14.861154556274414 -25.312000274658203 -0.963455557823181 1.000000000000000
14.864917755126953 -5.336464881896973 -0.670240044593811 1.000000000000000
14.869043350219727 16.860269546508789 0.730032384395599 0.000000000000000
14.874677658081055 13.816599845886230 -0.510342001914978 0.000000000000000
14.875611305236816 12.099433898925781 0.438489735126495 0.000000000000000
14.877059936523438 -11.644574165344238 1.450374841690063 0.000000000000000
14.878183364868164 18.120731353759766 0.806466042995453 0.000000000000000
14.878458976745605 9.486655235290527 -0.477474331855774 0.000000000000000
14.878806114196777 -3.059322357177734 1.617987871170044 0.000000000000000
14.879619598388672 19.112348556518555 1.999888658523560 0.000000000000000
14.881046295166016 -18.520862579345703 1.869837284088135 0.000000000000000
14.883314132690430 -11.017495155334473 1.421593904495239 0.000000000000000
14.884361267089844 14.549415588378906 0.276105791330338 0.000000000000000
14.887664794921875 16.345283508300781 1.441354274749756 0.000000000000000
14.888545036315918 -7.658900737762451 2.049847841262817 0.000000000000000
14.893804550170898 -6.361350059509277 1.305898785591125 0.000000000000000
14.897900581359863 -14.980291366577148 1.377340316772461 0.000000000000000
14.900131225585938 6.720154762268066 2.422434568405151 0.000000000000000
14.903854370117188 8.827461242675781 1.646554827690125 0.000000000000000
14.905510902404785 -15.177493095397949 1.928486466407776 0.000000000000000
14.905543327331543 -6.398379802703857 1.339293479919434 0.000000000000000
14.907470703125000 -22.635000228881836 -0.837543129920959 1.000000000000000
14.908044815063477 -10.708176612854004 1.444589018821716 0.000000000000000
14.910963058471680 7.101310729980469 2.447649955749512 0.000000000000000
14.911152839660645 -6.233189582824707 2.150666952133179 0.000000000000000
14.913325309753418 9.381243705749512 1.148607611656189 0.000000000000000
14.913830757141113 14.836977005004883 -0.892748951911926 0.000000000000000
14.918528556823730 19.252260208129883 0.884578824043274 0.000000000000000
14.919403076171875 18.150903701782227 0.763009130954742 0.000000000000000
14.919494628906250 7.092591285705566 2.448236465454102 0.000000000000000
14.919662475585938 -7.355620861053467 0.924179792404175 0.000000000000000
14.925369262695312 -4.078079700469971 1.894298553466797 0.000000000000000
14.925930023193359 9.978466033935547 0.962936460971832 0.000000000000000
14.927337646484375 6.904986381530762 2.188657283782959 0.000000000000000
14.927968978881836 -24.505920410156250 -1.383323907852173 1.000000000000000
14.930646896362305 9.835240364074707 0.683714270591736 0.000000000000000
14.933295249938965 16.463935852050781 1.406229376792908 0.000000000000000
14.933594703674316 -4.448775768280029 0.745739221572876 0.000000000000000
14.933703422546387 -23.786069869995117 2.047682523727417 1.000000000000000
14.934298515319824 -17.980785369873047 1.704172015190125 0.000000000000000
14.938337326049805 -6.294229507446289 0.432973146438599 1.000000000000000
14.940155982971191 -18.358963012695312 1.771432995796204 0.000000000000000
14.940512657165527 -22.277469635009766 0.149812713265419 1.000000000000000
14.943336486816406 -7.184033870697021 1.144883871078491 0.000000000000000
14.946070671081543 13.606570243835449 1.707904577255249 0.000000000000000
14.948928833007812 -8.464241981506348 1.352007269859314 0.000000000000000
14.952659606933594 -21.984004974365234 0.505858063697815 1.000000000000000
14.956153869628906 17.097515106201172 0.432201266288757 0.000000000000000
14.960181236267090 -5.809281349182129 3.338095664978027 0.000000000000000
14.963621139526367 13.855994224548340 2.046335935592651 0.000000000000000
14.964713096618652 11.074126243591309 0.354207187891006 0.000000000000000
14.964713096618652 18.726547241210938 0.778458833694458 0.000000000000000
14.967807769775391 17.792490005493164 1.740088105201721 0.000000000000000
14.968013763427734 -2.823365449905396 -0.031901799142361 0.000000000000000
14.969595909118652 -11.728803634643555 1.496685743331909 0.000000000000000
14.974802017211914 -13.632710456848145 3.001215219497681 0.000000000000000
14.979118347167969 11.826401710510254 -0.516425371170044 0.000000000000000
14.981903076171875 14.563671112060547 0.959752440452576 0.000000000000000
14.983466148376465 15.538614273071289 1.740555405616760 0.000000000000000
14.984552383422852 -24.246908187866211 -0.169145151972771 1.000000000000000
14.984828948974609 0.839884698390961 1.426635622978210 0.000000000000000
14.985673904418945 9.079943656921387 2.995067358016968 0.000000000000000
14.985784530639648 -4.258069992065430 1.286301016807556 0.000000000000000
14.986989021301270 -9.248205184936523 2.000266551971436 0.000000000000000
14.987114906311035 -11.434492111206055 1.791905760765076 0.000000000000000
14.990590095520020 -24.117149353027344 1.960768461227417 1.000000000000000
14.990716934204102 19.239786148071289 1.355093955993652 0.000000000000000
14.993244171142578 6.267509937286377 2.408360958099365 0.000000000000000
14.996598243713379 -2.134865760803223 3.150745391845703 0.000000000000000
14.997982978820801 -2.051534652709961 -0.438697665929794 0.000000000000000
14.998133659362793 0.707561194896698 0.718586683273315 0.000000000000000
15.000934600830078 -24.213844299316406 -0.004971395712346 1.000000000000000
15.002444267272949 -5.033727169036865 0.787785470485687 0.000000000000000
15.004510879516602 14.769625663757324 0.279289186000824 0.000000000000000
15.008224487304688 -0.230265915393829 0.949608922004700 0.000000000000000
15.009336471557617 12.476928710937500 1.700742483139038 0.000000000000000
15.009922027587891 -5.270521163940430 1.282751441001892 0.000000000000000
15.014279365539551 -2.248721599578857 1.376303672790527 0.000000000000000
15.014877319335938 7.537261962890625 2.489871263504028 0.000000000000000
15.015965461730957 -6.821658611297607 2.019224166870117 0.000000000000000
15.021281242370605 -22.295976638793945 -0.004692143294960 1.000000000000000
15.021409034729004 -2.844841957092285 0.849402248859406 0.000000000000000
15.025793075561523 -4.017155170440674 1.254138708114624 0.000000000000000
15.029798507690430 -8.904891967773438 1.476187348365784 0.000000000000000
15.031800270080566 -22.413587570190430 -0.678412139415741 1.000000000000000
15.032150268554688 16.643430709838867 1.289204120635986 0.000000000000000
15.032250404357910 -23.948600769042969 -0.167792171239853 1.000000000000000
15.034801483154297 -4.885393142700195 1.586269855499268 0.000000000000000
15.037275314331055 7.338720321655273 2.226647377014160 0.000000000000000
15.037598609924316 -6.399814605712891 0.907981693744659 0.000000000000000
15.037682533264160 13.751036643981934 0.348567157983780 0.000000000000000
15.038209915161133 -22.874338150024414 -0.530403792858124 1.000000000000000
15.039077758789062 1.097539663314819 2.006620883941650 0.000000000000000
15.040474891662598 -5.114044189453125 1.692129731178284 0.000000000000000
15.040956497192383 9.888332366943359 2.044506311416626 0.000000000000000
15.041101455688477 12.046761512756348 -0.225355982780457 0.000000000000000
15.042233467102051 11.050433158874512 0.642010211944580 0.000000000000000
15.042273521423340 -21.492172241210938 0.751089990139008 1.000000000000000
15.042561531066895 0.615216553211212 1.213952302932739 0.000000000000000
15.042704582214355 -24.420991897583008 -1.217184543609619 1.000000000000000
15.043218612670898 -24.093828201293945 2.180614233016968 1.000000000000000
15.049735069274902 9.055669784545898 2.603047132492065 0.000000000000000
15.050132751464844 4.127985954284668 3.246049642562866 0.000000000000000
15.050950050354004 15.499955177307129 2.453949213027954 0.000000000000000
15.055370330810547 -4.962185382843018 0.941785335540771 0.000000000000000
15.055782318115234 -6.858776569366455 2.025543451309204 0.000000000000000
15.057471275329590 2.896338939666748 1.029202342033386 0.000000000000000
15.058221817016602 7.605791568756104 2.065402746200562 0.000000000000000
15.058755874633789 14.319231033325195 -0.043521493673325 0.000000000000000
15.059873580932617 -5.974183082580566 1.468755602836609 0.000000000000000
15.068917274475098 3.349536418914795 1.399416685104370 0.000000000000000
15.071126937866211 -23.253671646118164 2.073836326599121 1.000000000000000
15.072979927062988 -23.209463119506836 2.178024768829346 1.000000000000000
15.079210281372070 -24.394365310668945 -0.996470630168915 1.000000000000000
15.082221984863281 -3.540002346038818 1.219254493713379 0.000000000000000
15.082602500915527 -3.026943683624268 1.002884864807129 0.000000000000000
15.082949638366699 -5.600010871887207 1.713736772537231 0.000000000000000
15.084375381469727 11.552913665771484 0.543999373912811 0.000000000000000
15.085584640502930 -4.608959197998047 0.754917621612549 0.000000000000000
15.086847305297852 -2.714008331298828 0.763123631477356 0.000000000000000
15.095724105834961 4.251177310943604 1.920061588287354 0.000000000000000
15.097280502319336 6.510986328125000 1.649768471717834 0.000000000000000
15.100019454956055 9.119340896606445 1.354234337806702 0.000000000000000
15.101490974426270 -6.887876987457275 1.338369488716125 0.000000000000000
15.103250503540039 -24.712047576904297 -1.229056119918823 1.000000000000000
15.107740402221680 1.141791582107544 1.221668004989624 0.000000000000000
15.108195304870605 9.327730178833008 0.849760353565216 0.000000000000000
15.113001823425293 -19.940258026123047 0.764440119266510 1.000000000000000
15.115056991577148 17.714986801147461 2.213575124740601 0.000000000000000
15.123154640197754 7.704967498779297 0.616432249546051 0.000000000000000
15.124092102050781 7.662274837493896 1.399856209754944 0.000000000000000
15.125693321228027 -10.423611640930176 1.516702890396118 0.000000000000000
15.128141403198242 0.891888201236725 2.016646146774292 0.000000000000000
15.129638671875000 7.359944343566895 1.792115211486816 0.000000000000000
15.130290031433105 24.686534881591797 2.522987842559814 0.000000000000000
15.132457733154297 -21.945581436157227 0.763224661350250 1.000000000000000
15.132955551147461 -6.192287921905518 1.160571455955505 0.000000000000000
15.133084297180176 1.747211098670959 2.257655143737793 0.000000000000000
15.136214256286621 9.036610603332520 1.675700545310974 0.000000000000000
15.136548995971680 11.352881431579590 2.015388488769531 0.000000000000000
15.137232780456543 15.201834678649902 0.902898311614990 0.000000000000000
15.142121315002441 -0.414493948221207 1.104410529136658 0.000000000000000
15.142424583435059 -5.682314395904541 0.774039149284363 0.000000000000000
15.148690223693848 -3.357828855514526 1.406639456748962 0.000000000000000
15.150334358215332 -21.712644577026367 0.656303703784943 1.000000000000000
15.152614593505859 -0.126680746674538 1.192578315734863 0.000000000000000
15.152668952941895 18.580339431762695 0.456170171499252 0.000000000000000
15.153081893920898 -1.584096908569336 0.993256807327271 0.000000000000000
15.156517028808594 11.697810173034668 1.211256384849548 0.000000000000000
15.160771369934082 -25.173999786376953 -0.738724350929260 1.000000000000000
15.163551330566406 16.671543121337891 0.948480606079102 0.000000000000000
15.166381835937500 -5.775711536407471 1.183234691619873 0.000000000000000
15.166861534118652 2.786107540130615 -0.476531028747559 0.000000000000000
15.166988372802734 -18.374185562133789 1.783075332641602 0.000000000000000
15.167725563049316 13.773049354553223 0.035758286714554 0.000000000000000
15.168694496154785 9.500183105468750 1.795935392379761 0.000000000000000
15.170127868652344 -3.317608833312988 1.312166452407837 0.000000000000000
15.170295715332031 -5.217332839965820 1.262563943862915 0.000000000000000
15.173209190368652 14.179982185363770 0.714337766170502 0.000000000000000
15.173362731933594 -12.098866462707520 3.317219257354736 0.000000000000000
15.174432754516602 9.349249839782715 1.471609950065613 0.000000000000000
15.177035331726074 0.724226295948029 1.725799918174744 0.000000000000000
15.178398132324219 12.579449653625488 0.640190243721008 0.000000000000000
15.179707527160645 -8.843314170837402 1.246948838233948 0.000000000000000
15.181078910827637 10.661925315856934 1.975987076759338 0.000000000000000
15.182332038879395 -16.726757049560547 1.385593295097351 0.000000000000000
15.182513236999512 18.387769699096680 1.278916716575623 0.000000000000000
15.186575889587402 5.851488590240479 -0.190322428941727 0.000000000000000
15.186777114868164 -4.954417228698730 1.448170542716980 0.000000000000000
15.189775466918945 19.370847702026367 2.032474040985107 0.000000000000000
15.196743965148926 -24.339721679687500 -0.886715948581696 1.000000000000000
15.201079368591309 13.515623092651367 0.973476529121399 0.000000000000000
15.201393127441406 -12.034657478332520 1.413598895072937 0.000000000000000
15.203752517700195 9.367313385009766 3.714426040649414 0.000000000000000
15.209068298339844 -6.482824802398682 1.397039771080017 0.000000000000000
15.210191726684570 1.507724404335022 1.202934980392456 0.000000000000000
15.216256141662598 -19.953952789306641 0.718463778495789 1.000000000000000
15.217933654785156 -21.013479232788086 1.491445779800415 0.000000000000000
15.219978332519531 7.692837238311768 2.269386291503906 0.000000000000000
15.222126960754395 -12.413980484008789 1.280538797378540 0.000000000000000
15.224156379699707 -2.058927774429321 1.460323810577393 0.000000000000000
15.226372718811035 -19.696359634399414 -0.147734969854355 1.000000000000000
15.228014945983887 -5.743255615234375 1.155190587043762 0.000000000000000
15.231282234191895 0.558771908283234 0.964257121086121 0.000000000000000
15.232832908630371 16.865623474121094 3.884691476821899 0.000000000000000
15.238183975219727 5.985285282135010 -0.128584086894989 0.000000000000000
15.239162445068359 -5.728328227996826 -0.503094196319580 1.000000000000000
15.241436004638672 -17.071186065673828 2.296337366104126 0.000000000000000
15.241441726684570 14.268685340881348 1.039375662803650 0.000000000000000
15.247953414916992 -15.634980201721191 3.733050823211670 0.000000000000000
15.248944282531738 14.172190666198730 1.759097933769226 0.000000000000000
15.250582695007324 20.560420989990234 1.767612457275391 0.000000000000000
15.252882957458496 -2.097250461578369 1.211722373962402 0.000000000000000
15.254794120788574 -6.429449558258057 1.175014853477478 0.000000000000000
15.255899429321289 -9.097229003906250 3.036178827285767 0.000000000000000
15.257830619812012 0.688584387302399 2.032475233078003 0.000000000000000
15.258259773254395 -23.677995681762695 0.806497335433960 1.000000000000000
15.260293006896973 -23.909637451171875 1.248342871665955 1.000000000000000
15.260642051696777 11.922070503234863 -0.933579921722412 0.000000000000000
15.261698722839355 -7.585271358489990 1.242570877075195 0.000000000000000
15.262452125549316 -23.529975891113281 1.288296580314636 1.000000000000000
15.269477844238281 20.773197174072266 1.482033848762512 0.000000000000000
15.270049095153809 13.570745468139648 -0.356587588787079 0.000000000000000
15.272406578063965 20.030494689941406 1.787869095802307 0.000000000000000
15.272688865661621 8.107644081115723 1.127269744873047 0.000000000000000
15.274203300476074 14.143587112426758 1.276861667633057 0.000000000000000
15.279069900512695 -6.204807758331299 1.106888055801392 0.000000000000000
15.282744407653809 6.537878990173340 -0.226304978132248 0.000000000000000
15.283621788024902 -21.358959197998047 0.651050090789795 1.000000000000000
15.284373283386230 -8.478544235229492 2.987653732299805 0.000000000000000
15.285137176513672 -8.409328460693359 1.271948099136353 0.000000000000000
15.286547660827637 -20.425027847290039 2.897700548171997 0.000000000000000
15.290062904357910 -5.879105091094971 3.407333850860596 0.000000000000000
15.293669700622559 4.937364101409912 -0.187936961650848 0.000000000000000
15.296003341674805 8.341032028198242 2.318456888198853 0.000000000000000
15.297694206237793 8.475460052490234 1.173858642578125 0.000000000000000
15.298160552978516 -6.784962177276611 0.833131313323975 0.000000000000000
15.298840522766113 -24.805772781372070 2.462669849395752 0.000000000000000
15.307574272155762 13.514925956726074 0.035639602690935 0.000000000000000
15.308271408081055 15.365033149719238 0.537651598453522 0.000000000000000
15.309384346008301 14.355369567871094 1.246857285499573 0.000000000000000
15.311499595642090 -5.651139259338379 1.479589700698853 0.000000000000000
15.314032554626465 -5.888321399688721 0.974759638309479 0.000000000000000
15.318354606628418 -19.673042297363281 2.172630786895752 0.000000000000000
15.318557739257812 9.440270423889160 -0.971359729766846 0.000000000000000
15.322071075439453 -5.440279960632324 1.311042666435242 0.000000000000000
15.326089859008789 26.038255691528320 0.923118233680725 1.000000000000000
15.330184936523438 0.584638893604279 1.296337008476257 0.000000000000000
15.331268310546875 -17.044437408447266 1.804245471954346 0.000000000000000
15.331371307373047 -2.854789018630981 1.016676545143127 0.000000000000000
15.331830978393555 16.598667144775391 1.473101019859314 0.000000000000000
15.333363533020020 6.017728328704834 1.360029578208923 0.000000000000000
15.333942413330078 26.048503875732422 0.749282538890839 1.000000000000000
15.336125373840332 11.031490325927734 0.686118423938751 0.000000000000000
15.338262557983398 -21.667818069458008 0.199238643050194 1.000000000000000
15.340479850769043 11.826140403747559 0.294140219688416 0.000000000000000
15.343194007873535 -24.319370269775391 -0.722842156887054 1.000000000000000
15.344021797180176 -21.658311843872070 0.250167608261108 1.000000000000000
15.347186088562012 -7.360386371612549 2.083874225616455 0.000000000000000
15.348967552185059 14.365312576293945 2.797555446624756 0.000000000000000
15.350091934204102 -6.639715194702148 1.025848388671875 0.000000000000000
15.353562355041504 0.778055787086487 0.972591459751129 0.000000000000000
15.355968475341797 15.524135589599609 0.080032944679260 0.000000000000000
15.359590530395508 -7.622562408447266 1.494139313697815 0.000000000000000
15.360886573791504 19.092134475708008 0.419169962406158 0.000000000000000
15.361779212951660 1.552807092666626 2.639217853546143 0.000000000000000
15.363430023193359 5.972664833068848 -0.382699608802795 0.000000000000000
15.367855072021484 19.877944946289062 1.057474255561829 0.000000000000000
15.377171516418457 26.015867233276367 1.620818018913269 1.000000000000000
15.379959106445312 12.173403739929199 -0.229378521442413 0.000000000000000
15.380557060241699 7.394890308380127 1.409072279930115 0.000000000000000
15.382377624511719 -6.990060806274414 0.971264839172363 0.000000000000000
15.382808685302734 4.334922790527344 3.324248313903809 0.000000000000000
15.383347511291504 6.599036216735840 2.049361705780029 0.000000000000000
15.384001731872559 -0.325472295284271 0.795650184154510 0.000000000000000
15.385116577148438 9.269547462463379 1.802325129508972 0.000000000000000
15.386310577392578 13.584441184997559 0.351098477840424 0.000000000000000
15.386483192443848 16.913085937500000 1.270331263542175 0.000000000000000
15.387718200683594 14.305155754089355 1.045938849449158 0.000000000000000
15.388796806335449 -4.171815872192383 1.285644769668579 0.000000000000000
15.389091491699219 0.010206598788500 1.884090662002563 0.000000000000000
15.393864631652832 -0.323528677225113 1.092885613441467 0.000000000000000
15.395548820495605 15.423521995544434 -0.924802362918854 0.000000000000000
15.396125793457031 -4.266251564025879 2.730875968933105 0.000000000000000
15.397273063659668 20.464056015014648 1.669566631317139 0.000000000000000
15.398474693298340 14.303136825561523 1.735255599021912 0.000000000000000
15.400244712829590 -5.869696617126465 -0.604328036308289 1.000000000000000
15.402026176452637 -11.099304199218750 3.245105504989624 0.000000000000000
15.403846740722656 9.564941406250000 3.771445512771606 0.000000000000000
15.407429695129395 7.948624610900879 1.739625334739685 0.000000000000000
15.407625198364258 -8.970332145690918 1.299871087074280 0.000000000000000
15.407896041870117 -8.668089866638184 1.084377288818359 0.000000000000000
15.407999992370605 25.969661712646484 0.458550184965134 1.000000000000000
15.411448478698730 -5.599867343902588 1.290495276451111 0.000000000000000
15.413285255432129 12.623728752136230 -0.194730982184410 0.000000000000000
15.413601875305176 -5.008480072021484 0.744455158710480 0.000000000000000
15.415418624877930 -3.314912319183350 1.332374334335327 0.000000000000000
15.416917800903320 -19.517002105712891 -0.147592559456825 1.000000000000000
15.417043685913086 1.402519345283508 1.158566117286682 0.000000000000000
15.417768478393555 -4.330255508422852 1.451781868934631 0.000000000000000
15.421185493469238 16.627742767333984 1.976097583770752 0.000000000000000
15.427314758300781 -0.682202517986298 1.467894077301025 0.000000000000000
15.428427696228027 -22.346416473388672 0.516663134098053 1.000000000000000
15.429577827453613 11.239483833312988 0.326537996530533 0.000000000000000
15.429769515991211 -15.211569786071777 1.454330921173096 0.000000000000000
15.430135726928711 -5.761111736297607 1.169067621231079 0.000000000000000
15.430269241333008 -19.496801376342773 -0.004339586477727 1.000000000000000
15.432336807250977 -23.610954284667969 1.730154991149902 1.000000000000000
15.432952880859375 18.434074401855469 1.289413571357727 0.000000000000000
15.435439109802246 3.141499519348145 0.360210865736008 0.000000000000000
15.438608169555664 -1.435998678207397 1.351079821586609 0.000000000000000
15.439242362976074 -10.817905426025391 1.229015350341797 0.000000000000000
15.439803123474121 10.792608261108398 2.506825208663940 0.000000000000000
15.443827629089355 11.800010681152344 -0.078020900487900 0.000000000000000
15.445419311523438 -1.626377105712891 0.952625989913940 0.000000000000000
15.448220252990723 5.456553459167480 2.180214881896973 0.000000000000000
15.448801994323730 -3.008259534835815 1.676454067230225 0.000000000000000
15.454484939575195 -6.413468837738037 1.900501489639282 0.000000000000000
15.454890251159668 15.718232154846191 1.522103071212769 0.000000000000000
15.455422401428223 12.360445022583008 -0.269431442022324 0.000000000000000
15.455597877502441 -5.001556396484375 1.341268301010132 0.000000000000000
15.456515312194824 -6.408935546875000 1.026338100433350 0.000000000000000
15.457571029663086 -13.038630485534668 1.474389433860779 0.000000000000000
15.458566665649414 -0.268750786781311 1.306440949440002 0.000000000000000
15.461719512939453 -6.540191650390625 1.906821370124817 0.000000000000000
15.462367057800293 14.098312377929688 1.727685213088989 0.000000000000000
15.463442802429199 -10.269219398498535 1.353390097618103 0.000000000000000
15.464476585388184 14.575025558471680 0.485950887203217 0.000000000000000
15.465456008911133 -3.723205566406250 1.344162344932556 0.000000000000000
15.466863632202148 -18.871263504028320 1.826062560081482 0.000000000000000
15.470566749572754 7.737628459930420 -0.468061208724976 0.000000000000000
15.475950241088867 -4.003505229949951 2.369071722030640 0.000000000000000
15.477242469787598 -21.922517776489258 3.048025369644165 0.000000000000000
15.478299140930176 25.973335266113281 1.563415408134460 1.000000000000000
15.478541374206543 -17.478088378906250 1.747252583503723 0.000000000000000
15.480515480041504 -12.199913024902344 1.513141870498657 0.000000000000000
15.481050491333008 14.617210388183594 3.155439376831055 0.000000000000000
15.481176376342773 -17.807800292968750 2.680113554000854 0.000000000000000
15.481704711914062 -11.090351104736328 1.609222769737244 0.000000000000000
15.481736183166504 -24.163488388061523 0.601131200790405 1.000000000000000
15.482429504394531 -24.281967163085938 2.610679626464844 0.000000000000000
15.483338356018066 -3.784739255905151 1.346856713294983 0.000000000000000
15.485956192016602 -22.977897644042969 1.219499826431274 1.000000000000000
15.486176490783691 12.965001106262207 1.122107386589050 0.000000000000000
15.493474960327148 -22.299661636352539 0.881803274154663 1.000000000000000
15.494665145874023 14.706981658935547 0.201347962021828 0.000000000000000
15.495887756347656 14.788532257080078 -0.579612553119659 0.000000000000000
15.496961593627930 -11.167717933654785 1.731665253639221 0.000000000000000
15.503282546997070 14.692547798156738 0.734688520431519 0.000000000000000
15.504788398742676 1.735308408737183 2.312190532684326 0.000000000000000
15.505134582519531 15.301369667053223 0.038020230829716 0.000000000000000
15.506367683410645 13.919911384582520 1.760781884193420 0.000000000000000
15.507167816162109 13.195773124694824 0.504742205142975 0.000000000000000
15.508379936218262 -19.676523208618164 0.572917282581329 1.000000000000000
15.509261131286621 -2.963880538940430 0.755682468414307 0.000000000000000
15.509501457214355 -10.614807128906250 1.370260238647461 0.000000000000000
15.510931015014648 4.602205276489258 2.397805690765381 0.000000000000000
15.517832756042480 25.916093826293945 1.794611096382141 1.000000000000000
15.524674415588379 -9.125034332275391 1.521655082702637 0.000000000000000
15.526230812072754 -9.342383384704590 2.411321878433228 0.000000000000000
15.528143882751465 -0.168579339981079 1.042328596115112 0.000000000000000
15.531448364257812 -2.507756710052490 1.055990457534790 0.000000000000000
15.532114982604980 -5.201796054840088 0.626394152641296 1.000000000000000
15.532215118408203 -25.330385208129883 -0.632780611515045 1.000000000000000
15.532523155212402 -8.074007987976074 2.329537630081177 0.000000000000000
15.534090995788574 -21.256544113159180 0.804384529590607 1.000000000000000
15.535819053649902 0.363951444625854 1.765073776245117 0.000000000000000
15.545825958251953 14.001959800720215 0.961037218570709 0.000000000000000
15.550029754638672 -3.121880531311035 1.064562678337097 0.000000000000000
15.555972099304199 -7.676756858825684 0.930374443531036 0.000000000000000
15.559441566467285 -0.912955820560455 0.655980527400970 0.000000000000000
15.560078620910645 -9.145843505859375 2.401824235916138 0.000000000000000
15.562255859375000 -9.853643417358398 1.848251938819885 0.000000000000000
15.569020271301270 -6.424081325531006 1.000617265701294 0.000000000000000
15.569392204284668 -1.572696447372437 0.779034495353699 0.000000000000000
15.569738388061523 14.337690353393555 1.339049577713013 0.000000000000000
15.572275161743164 21.345520019531250 2.181576967239380 0.000000000000000
15.575284957885742 11.214248657226562 1.029345870018005 0.000000000000000
15.575785636901855 -7.711228847503662 0.831786155700684 0.000000000000000
15.583517074584961 -1.470880866050720 1.050632834434509 0.000000000000000
15.589016914367676 6.452720165252686 2.500426530838013 0.000000000000000
15.590714454650879 15.493597030639648 1.729866266250610 0.000000000000000
15.596721649169922 -23.805257797241211 1.855363011360168 1.000000000000000
15.602179527282715 -4.782573223114014 3.394300937652588 0.000000000000000
15.603642463684082 -2.221282482147217 1.498175501823425 0.000000000000000
15.605226516723633 -2.943560600280762 1.509531140327454 0.000000000000000
15.608396530151367 -7.071087360382080 0.754141211509705 0.000000000000000
15.609256744384766 -0.650400936603546 1.078753352165222 0.000000000000000
15.609270095825195 9.592374801635742 1.194406270980835 0.000000000000000
15.611392974853516 11.948337554931641 1.205843329429626 0.000000000000000
15.612047195434570 14.408405303955078 2.827103376388550 0.000000000000000
15.614034652709961 20.897554397583008 1.399096250534058 0.000000000000000
15.616466522216797 12.385903358459473 -0.003478790400550 0.000000000000000
15.617594718933105 9.314393997192383 3.108292102813721 0.000000000000000
15.617713928222656 -4.881725311279297 1.319401383399963 0.000000000000000
15.619406700134277 -6.259336471557617 0.190903529524803 1.000000000000000
15.620728492736816 -6.169551372528076 -0.551277160644531 1.000000000000000
15.622930526733398 -23.364589691162109 -0.868554115295410 1.000000000000000
15.624502182006836 1.366421461105347 1.173790812492371 0.000000000000000
15.626225471496582 11.959689140319824 0.298816800117493 0.000000000000000
15.627822875976562 -4.622645378112793 1.477422833442688 0.000000000000000
15.631052017211914 -4.564324855804443 2.783444643020630 0.000000000000000
15.632328033447266 -7.029382228851318 1.282751560211182 0.000000000000000
15.639750480651855 3.239973783493042 0.365240484476089 0.000000000000000
15.639872550964355 -25.105009078979492 -1.027723193168640 1.000000000000000
15.641613960266113 -5.440558910369873 1.303362607955933 0.000000000000000
15.642700195312500 25.837306976318359 1.561762928962708 1.000000000000000
15.645040512084961 12.441069602966309 -0.540877938270569 0.000000000000000
15.646560668945312 -7.157279968261719 0.790341198444366 0.000000000000000
15.646862983703613 7.304236412048340 2.297878980636597 0.000000000000000
15.648741722106934 7.438608169555664 1.196410417556763 0.000000000000000
15.650425910949707 -20.313690185546875 0.487900406122208 1.000000000000000
15.650770187377930 18.771991729736328 0.418075323104858 0.000000000000000
15.653139114379883 6.162150859832764 2.059569597244263 0.000000000000000
15.653330802917480 9.419616699218750 3.799955606460571 0.000000000000000
15.656452178955078 18.514446258544922 2.582679748535156 0.000000000000000
15.659018516540527 -4.232751369476318 2.158581495285034 0.000000000000000
15.659232139587402 -8.051898956298828 1.453836083412170 0.000000000000000
15.660297393798828 -19.646131515502930 -0.004384965170175 0.000000000000000
15.660692214965820 -21.404676437377930 0.861290216445923 1.000000000000000
15.662001609802246 16.743824005126953 1.671595215797424 0.000000000000000
15.664706230163574 7.580708980560303 2.315819025039673 0.000000000000000
15.665242195129395 -24.010272979736328 1.648005127906799 1.000000000000000
15.668027877807617 17.347465515136719 0.624361336231232 0.000000000000000
15.671253204345703 -25.031581878662109 1.811458706855774 1.000000000000000
15.671383857727051 -20.418914794921875 -0.152743339538574 1.000000000000000
15.676663398742676 -2.082246065139771 1.091979503631592 0.000000000000000
15.676854133605957 4.515417575836182 1.997350096702576 0.000000000000000
15.678695678710938 17.007511138916016 2.198812961578369 0.000000000000000
15.682161331176758 -1.674278140068054 0.633440256118774 0.000000000000000
15.685500144958496 -6.610979557037354 0.945703327655792 0.000000000000000
15.686620712280273 -4.551150321960449 1.285473942756653 0.000000000000000
15.687292098999023 -20.203538894653320 -0.250010967254639 1.000000000000000
15.688509941101074 25.764558792114258 0.805710196495056 1.000000000000000
15.689302444458008 13.456384658813477 -0.321094185113907 0.000000000000000
15.694539070129395 -24.780317306518555 1.742658615112305 1.000000000000000
15.694948196411133 14.411034584045410 1.759283185005188 0.000000000000000
15.698716163635254 -0.948899328708649 1.237770795822144 0.000000000000000
15.705083847045898 16.233585357666016 1.864938974380493 0.000000000000000
15.705349922180176 7.349573612213135 -0.036316782236099 0.000000000000000
15.708431243896484 -6.379170417785645 1.399856209754944 0.000000000000000
15.709413528442383 13.473633766174316 -0.003612133441493 0.000000000000000
15.712774276733398 -23.540719985961914 1.191193342208862 1.000000000000000
15.714156150817871 -1.507841825485229 0.968299031257629 0.000000000000000
15.718921661376953 -7.170483589172363 1.326372027397156 0.000000000000000
15.721699714660645 -8.177922248840332 -0.717963457107544 1.000000000000000
15.722023963928223 -4.879411697387695 1.564794778823853 0.000000000000000
15.724689483642578 25.769275665283203 1.096395730972290 1.000000000000000
15.725419998168945 -16.223976135253906 1.968805551528931 0.000000000000000
15.727273941040039 14.191758155822754 2.406098127365112 0.000000000000000
15.732462882995605 17.551372528076172 0.674847662448883 0.000000000000000
15.732932090759277 12.931922912597656 0.309263229370117 0.000000000000000
15.738651275634766 -19.744426727294922 1.938425898551941 0.000000000000000
15.742426872253418 -9.387349128723145 1.661604166030884 0.000000000000000
15.743606567382812 -1.649718761444092 1.938046932220459 0.000000000000000
15.744158744812012 14.844847679138184 0.203949183225632 0.000000000000000
15.744252204895020 2.115002870559692 0.271738708019257 0.000000000000000
15.744764328002930 -5.109405040740967 0.792204558849335 0.000000000000000
15.745770454406738 -2.916031360626221 1.322177886962891 0.000000000000000
15.747586250305176 -24.020885467529297 -0.280739426612854 1.000000000000000
15.748949050903320 -4.862465858459473 1.329046249389648 0.000000000000000
15.749696731567383 2.090834379196167 -0.063778355717659 0.000000000000000
15.750307083129883 25.721294403076172 0.458003580570221 1.000000000000000
15.750801086425781 2.086498260498047 -0.338363051414490 0.000000000000000
15.751192092895508 15.069008827209473 -0.254916995763779 0.000000000000000
15.753035545349121 -6.649806976318359 1.444865107536316 0.000000000000000
15.753278732299805 20.395624160766602 1.134201645851135 0.000000000000000
15.753500938415527 2.060284852981567 -0.949466168880463 0.000000000000000
15.754593849182129 -3.792813539505005 0.869106352329254 0.000000000000000
15.755396842956543 -8.753499984741211 1.523002386093140 0.000000000000000
15.758869171142578 -4.318826198577881 2.174410820007324 0.000000000000000
15.761040687561035 2.038054704666138 -1.379213929176331 0.000000000000000
15.764875411987305 -2.641529321670532 1.957004308700562 0.000000000000000
15.766634941101074 12.242655754089355 0.303128987550735 0.000000000000000
15.770597457885742 -1.149265289306641 0.787188768386841 0.000000000000000
15.771193504333496 -23.793371200561523 1.695925116539001 1.000000000000000
15.773911476135254 -2.377695322036743 1.070724010467529 0.000000000000000
15.774578094482422 21.304109573364258 1.115671515464783 0.000000000000000
15.774738311767578 11.537763595581055 1.771751761436462 0.000000000000000
15.777327537536621 -14.330612182617188 1.677455663681030 0.000000000000000
15.778676033020020 12.925736427307129 0.780012071132660 0.000000000000000
