VERSION .7
FIELDS x y z intensity index
SIZE 8 8 8 8 8
TYPE F F F F F
COUNT 1 1 1 1 1
WIDTH 1547
HEIGHT 1
VIEWPOINT 0 0 0 1 0 0 0
POINTS 1547
DATA ascii
-6.2755 6.075 1.6456 1 12025
-6.2721 3.2859 0.49513 0 9750
-6.271 2.7697 -1.2916 2 9364
-6.2706 -6.9618 0.21753 0 7351
-6.2665 -6.7957 0.43108 2 7391
-6.2655 -6.9561 0.43658 2 7352
-6.261 -5.5452 -0.58484 1 7613
-6.2572 -0.4595 0 0 7961
-6.2539 0.319 1.0288 0 8224
-6.253 5.8802 1.0038 2 11891
-6.2501 -7.2306 0.2219 0 7291
-6.2452 3.4348 0.8335 2 9901
-6.245 -6.8921 1.0876 1 7361
-6.2433 -1.1391 1.1957 0 7805
-6.2386 -7.1717 0.22069 0 7297
-6.2351 3.6187 1.3583 1 10071
-6.2328 3.6655 1.3623 0 10112
-6.2203 -6.1148 1.02 0 7528
-6.2188 -7.0266 0.87541 2 7326
-6.2163 5.3261 1.5423 2 11489
-6.2138 -0.93088 0.29301 0 7845
-6.2125 -6.5857 -0.2102 2 7428
-6.2089 -7.0998 1.103 1 7307
-6.206 -6.1008 0.40583 2 7527
-6.2029 3.822 1.3727 1 10268
-6.195 5.094 0.56084 0 11309
-6.1928 4.8855 -0.18313 0 11146
-6.1894 -1.1494 1.1861 0 7802
-6.1717 4.6676 1.0875 1 10998
-6.1701 -7.4372 0.22436 2 7243
-6.1672 -7.6077 0.91369 0 7217
-6.1597 -0.83173 0.72687 1 7869
-6.1555 -6.5986 0.63102 0 7409
-6.155 -5.9792 1.6167 2 7538
-6.1517 -7.5481 0.22607 2 7223
-6.1491 -6.009 0.19961 1 7531
-6.144 6.8765 0.64483 0 12679
-6.143 -0.64999 0.28807 0 7910
-6.1388 7.8686 1.4026 0 13293
-6.1385 -7.1015 1.7686 2 7293
-6.1339 7.149 1.1016 0 12861
-6.1318 2.6662 1.0985 2 9331
-6.1315 0.20769 0.429 0 8188
-6.1308 7.6251 0.68417 2 13160
-6.1294 -6.0952 1.4202 2 7520
-6.121 -0.80693 0.72199 1 7875
-6.1147 -6.631 0.63074 2 7392
-6.1103 5.5834 1.3599 1 11758
-6.1006 6.0793 1.6227 1 12163
-6.0867 6.1015 1.6238 1 12190
-6.0796 6.8404 0.63995 0 12704
-6.0789 -7.1578 1.7693 2 7273
-6.0744 4.933 1.2856 2 11268
-6.0567 2.551 0.45956 0 9274
-6.0533 -5.986 0.5953 0 7522
-6.0518 -6.4513 0.82525 2 7421
-6.047 4.2515 0.17162 0 10729
-6.0428 -6.188 1.0114 2 7483
-6.0409 -7.0704 0.86761 0 7277
-6.0318 2.6227 0.92439 0 9329
-6.0308 3.5002 0.4876 0 10063
-6.0287 1.232 0.28695 0 8545
-6.0247 -6.2388 1.0142 1 7466
-6.0227 -7.3453 0.88619 1 7229
-6.022 2.5562 0.45746 0 9285
-6.0032 1.538 0.87095 0 8684
-6.0024 5.7763 1.3686 1 11996
-5.9933 5.4116 0.75335 0 11702
-5.981 5.7899 1.3676 2 12023
-5.9743 -7.6412 0.45233 0 7174
-5.9728 4.4894 0.34844 0 10970
-5.9667 -6.9443 1.0707 1 7284
-5.9658 -6.5494 1.4555 1 7374
-5.964 -5.9682 0.78717 1 7513
-5.9634 5.4149 0.7515 2 11729
-5.9632 3.9141 0.66548 2 10481
-5.9599 -6.9757 1.5074 0 7278
-5.9554 -5.8893 0.78141 2 7523
-5.955 3.4798 0.4823 0 10083
-5.9442 -6.3721 0.81299 2 7410
-5.9433 -6.486 1.6575 1 7385
-5.9378 3.7276 0.49025 1 10328
-5.9345 7.1634 1.7526 1 13033
-5.9277 3.5786 0.16076 0 10192
-5.9143 3.6899 0.48746 0 10305
-5.912 3.4769 0.96391 0 10109
-5.9097 5.7209 1.156 1 12021
-5.9079 5.5557 0.18829 0 11885
-5.9054 -0.34671 0.41366 0 7989
-5.9026 -7.0294 1.508 1 7260
-5.8939 -7.0192 1.0718 0 7259
-5.8895 3.5108 0.31975 2 10146
-5.8879 -0.72607 0.97467 0 7887
-5.8622 5.5127 0.75075 0 11889
-5.8574 -5.6584 0.56949 1 7541
-5.855 -0.3971 0.13625 1 7971
-5.851 3.5323 0.31872 2 10194
-5.8493 -5.8534 1.3595 1 7514
-5.8471 -0.99736 0.41477 0 7815
-5.8387 3.5027 1.1186 0 10178
-5.8313 -0.97792 0.97143 0 7824
-5.8278 -6.4317 1.6353 1 7365
-5.827 -6.7817 0.83417 2 7283
-5.8253 -7.1045 1.0744 2 7230
-5.8164 -0.97542 0.4124 0 7822
-5.8142 -7.2159 1.0837 0 7212
-5.8063 -5.7078 1.1443 0 7529
-5.8037 3.6209 0.319 2 10303
-5.8021 5.1786 0.90946 1 11655
-5.7985 5.2651 1.4757 1 11734
-5.7747 7.7643 0.67664 2 13504
-5.7729 6.1303 0.98473 2 12451
-5.7664 -4.2747 -0.16665 0 7709
-5.7534 5.8322 0.76431 2 12235
-5.745 -6.7647 1.4581 2 7271
-5.7293 5.7775 0.75911 1 12210
-5.7222 6.4746 0.60423 0 12728
-5.715 0.80929 0 0 8403
-5.7055 1.4448 0.41156 0 8674
-5.6995 0.30768 0.26618 0 8231
-5.6928 7.4298 1.3155 2 13374
-5.6927 -0.48603 0.93868 1 7943
-5.6908 -7.2786 1.2985 0 7177
-5.6897 6.9514 0.83807 2 13077
-5.6882 7.1562 1.5019 2 13217
-5.6755 5.9933 0.77007 0 12422
-5.6703 2.784 1.1902 0 9586
-5.6681 -0.30102 1.0694 0 8001
-5.6597 -6.822 1.6701 2 7245
-5.6581 7.652 0.88786 2 13531
-5.6494 3.5246 1.094 0 10312
-5.6474 -7.1355 1.7145 2 7193
-5.6459 5.4962 1.4845 1 12052
-5.6452 -7.304 1.2974 2 7164
-5.6412 6.8506 0.62055 2 13054
-5.6276 6.9198 1.043 2 13105
-5.6202 2.7789 1.1813 2 9607
-5.6143 -0.071535 0.92247 0 8086
-5.6061 3.2537 0.60473 0 10065
-5.5869 6.0376 0.96196 1 12533
-5.5793 -0.86871 0.79357 0 7841
-5.5717 5.5523 0.73385 2 12156
-5.5678 3.6088 1.0901 0 10440
-5.5647 7.0009 1.0458 0 13214
-5.5622 5.5081 0.73032 2 12126
-5.5567 2.9508 1.0337 2 9800
-5.5558 -0.88294 0.52484 1 7836
-5.5546 2.9101 0.58503 0 9752
-5.5514 2.9692 1.0343 2 9819
-5.533 -0.8615 0.52242 0 7840
-5.5308 6.0083 0.95499 1 12559
-5.5284 2.8742 0.58132 2 9732
-5.5118 -3.9636 1.1154 0 7723
-5.5091 -7.0059 1.4643 2 7186
-5.5064 -0.75918 -0.12905 0 7862
-5.5044 -6.2194 0.97125 0 7327
-5.4977 5.8381 0.74815 1 12449
-5.4793 8.2783 1.8704 0 14018
-5.4653 6.5619 0.99866 0 12998
-5.4643 -6.2112 1.1627 2 7320
-5.4525 -6.1608 1.1563 1 7328
-5.4337 8.1076 1.3717 0 13958
-5.4245 4.6477 0.83536 0 11483
-5.4163 3.0594 1.022 2 9987
-5.4008 -4.511 0.98896 0 7656
-5.3812 -4.7928 -0.33605 0 7610
-5.3732 3.16 0.72896 1 10107
-5.3648 5.9687 0.9385 1 12661
-5.3635 5.7618 0.7344 2 12504
-5.359 -7.4141 1.2857 2 7108
-5.3212 -0.7015 0.75432 0 7876
-5.2973 -0.73035 0.75153 0 7864
-5.2886 3.1102 0.5724 2 10105
-5.2722 5.8328 0.91945 2 12636
-5.272 -6.1357 1.3291 2 7285
-5.2655 -0.9778 0.62628 1 7801
-5.2507 3.535 0.88959 1 10579
-5.2445 4.9025 0.83954 0 11862
-5.2366 6.7122 0.5953 0 13287
-5.2313 4.3508 0.15797 1 11354
-5.2139 7.9799 1.5661 1 14072
-5.1869 5.9062 0.91922 2 12757
-5.1855 6.0096 0.74053 2 12833
-5.1805 0.0090404 0.85113 0 8119
-5.1793 8.0305 1.8004 0 14127
-5.1595 1.9465 0.12803 0 9103
-5.1569 -0.92509 0.4888 0 7807
-5.1477 -8.3806 0.91759 0 6922
-5.146 -0.77091 0.48545 0 7846
-5.1422 2.7307 0.68088 0 9797
-5.1407 2.9037 1.1124 0 9989
-5.1388 1.4454 0.24894 0 8765
-5.1195 3.4039 1.1583 1 10534
-5.1146 5.7871 0.90319 0 12732
-5.1055 0.02495 0.83881 1 8126
-5.1026 5.947 0.73106 0 12859
-5.1023 5.8099 1.2704 2 12760
-5.0733 4.5809 0.79935 0 11704
-5.0635 5.9349 1.2817 0 12890
-5.0618 5.0442 0 0 12149
-5.0603 5.8645 1.0886 1 12836
-5.0556 3.5124 0 0 10683
-5.0538 8.0909 -0.44487 0 14241
-5.043 1.3711 0.98464 0 8735
-5.0255 5.9258 1.2765 0 12917
-5.0223 3.1334 0.69226 0 10309
-4.9878 -0.55594 0.11652 0 7902
-4.9876 8.1903 1.5755 1 14360
-4.9835 -3.5167 0.28444 0 7731
-4.9706 1.976 0.37403 0 9176
-4.9593 7.9923 1.0999 1 14277
-4.9583 1.1931 0.71674 0 8640
-4.9566 5.0545 0.66046 0 12261
-4.9486 1.0266 0 0 8554
-4.9422 -0.81375 0.70394 0 7828
-4.9372 5.0346 1.1585 1 12266
-4.9333 3.2197 0.96786 0 10463
-4.9006 -3.7211 0.28695 0 7700
-4.8965 3.3164 0.83114 1 10602
-4.8929 7.1245 0.60437 2 13848
-4.8533 3.4772 -0.13861 0 10794
-4.8513 3.2452 0.82029 0 10555
-4.8439 0.051572 0.33874 0 8138
-4.8348 4.2147 1.0538 0 11564
-4.8246 -4.7147 0.94805 0 7533
-4.8231 1.3249 0.34976 0 8743
-4.8202 -0.32692 0.79374 0 7972
-4.7883 6.9229 0.58861 2 13821
-4.7817 0.5795 -0.11183 0 8362
-4.78 0.734 0 0 8430
-4.7794 4.143 0.29497 0 11534
-4.7749 -0.36489 0.22332 1 7957
-4.753 1.4251 0 0 8826
-4.7528 8.2322 0.44329 0 14567
-4.7523 4.0718 1.0282 0 11487
-4.7459 5.1883 0.656 2 12585
-4.7221 1.5663 0.69921 2 8933
-4.7221 2.0376 0.60143 0 9314
-4.7098 3.4991 0.96397 0 10928
-4.6963 -3.6731 0.97953 0 7686
-4.6889 4.8082 1.1034 0 12294
-4.6887 -3.6474 0.97597 1 7689
-4.6829 -3.5752 0.41198 0 7698
-4.6788 0.58111 0.10946 0 8368
-4.6758 5.8531 0.69892 2 13188
-4.6542 5.1167 0.80887 2 12610
-4.6511 4.1251 0.43472 0 11628
-4.6186 -0.031438 0.87021 0 8098
-4.6127 3.3648 1.0757 2 10865
-4.6108 3.973 0.99996 0 11514
-4.6104 -0.77316 -0.10853 0 7821
-4.606 -0.74436 0.43529 1 7832
-4.6037 -0.33808 0.7584 0 7962
-4.5995 3.2953 0.9296 2 10803
-4.5862 2.0419 0.46836 1 9374
-4.5833 3.5092 1.0876 2 11047
-4.5778 5.6612 1.0232 1 13135
-4.5775 -5.2621 0.32525 0 7298
-4.5721 7.2716 1.2072 2 14226
-4.5685 -0.36195 0.53592 0 7953
-4.568 5.294 0.8177 0 12835
-4.5574 8.3867 1.1162 1 14796
-4.5474 -5.4156 1.3324 0 7261
-4.5433 7.5137 0.614 0 14379
-4.5393 3.332 1.0609 0 10886
-4.5334 0.94047 0.43195 0 8555
-4.5144 8.7279 1.6144 2 14977
-4.5142 6.6101 0.55973 2 13873
-4.4945 3.5242 0.93835 0 11132
-4.4823 -0.083719 0.84466 0 8075
-4.4791 3.4894 0.93284 0 11108
-4.4674 -8.204 0.21688 0 6754
-4.4661 6.2267 0.7149 2 13664
-4.4608 0.25408 0 0 8237
-4.4607 6.0681 0.70263 1 13558
-4.4553 8.7328 1.3778 2 15026
-4.4514 6.5624 1.3028 2 13904
-4.4466 -8.9498 0.69882 0 6607
-4.4464 6.2359 0.71452 2 13691
-4.4334 6.3717 0.72419 0 13797
-4.4321 6.3698 1.2749 2 13801
-4.4273 5.6748 1.1825 2 13295
-4.4236 0.97017 0.10514 0 8588
-4.421 6.2788 1.2616 2 13748
-4.4181 8.6599 0.907 2 15023
-4.3985 0.66206 0 1 8422
-4.3941 6.5962 1.3022 1 13989
-4.3834 6.5404 0.36717 0 13950
-4.3783 8.9057 0.69394 0 15150
-4.3756 7.7814 0.83287 0 14668
-4.3751 -0.23235 -0.20431 1 7999
-4.3746 -3.3823 0.77714 0 7692
-4.3714 5.6682 1.176 2 13349
-4.3688 0.40143 0.72079 0 8302
-4.3599 5.7191 1.3549 1 13402
-4.3581 8.9235 1.6316 0 15183
-4.355 -8.9649 0.92985 2 6574
-4.3431 5.7343 1.3553 2 13432
-4.3417 1.726 0.54637 0 9180
-4.3393 -3.6462 -0.26431 1 7651
-4.3329 -4.6189 0.29534 0 7420
-4.3262 8.9932 0.69784 0 15223
-4.3159 1.8623 0.32869 0 9311
-4.2981 7.7001 0.61665 0 14693
-4.2714 7.8605 1.2573 2 14798
-4.2687 6.4936 0.90876 1 14041
-4.2674 8.6801 1.5891 2 15158
-4.2578 4.6547 -0.14646 0 12577
-4.2486 -3.2648 0.24987 0 7695
-4.2401 3.5265 1.0391 0 11363
-4.2369 -3.5388 0.64557 0 7655
-4.2341 -4.042 0.27298 0 7549
-4.2298 8.7225 1.1336 1 15204
-4.2289 5.7192 1.3401 1 13538
-4.2199 7.4557 0.59907 2 14643
-4.2094 1.5596 0.84577 0 9083
-4.2088 5.7972 1.177 1 13616
-4.1972 6.4656 0.71917 2 14093
-4.1949 5.8122 1.1776 0 13642
-4.1888 6.7506 0.55554 2 14274
-4.1872 0.52006 0.19677 0 8369
-4.185 2.4289 0.22565 1 10062
-4.183 1.3737 -0.10222 0 8918
-4.1661 -0.39088 0.78838 0 7930
-4.1655 -2.7991 -0.23404 0 7749
-4.16 -0.087865 0.096603 0 8069
-4.1529 -4.6644 0.29124 0 7334
-4.1461 0.52672 0.19491 0 8374
-4.1403 7.4172 1.6005 2 14701
-4.1233 -6.846 0.18555 0 6896
-4.1186 -0.6656 0.68545 1 7833
-4.1145 6.7565 0.55317 0 14352
-4.1134 -0.71421 0.58675 0 7811
-4.0936 8.567 0.66394 1 15248
-4.0843 -0.19404 0.094932 0 8014
-4.0835 -0.69654 0.68058 0 7817
-4.0604 -3.809 0.91468 0 7566
-4.0469 -0.18023 0.09405 0 8021
-4.0468 8.5341 0.66045 0 15273
-4.0389 9.0546 1.3934 0 15471
-4.0283 -3.8028 0.91014 0 7562
-4.0161 0.54514 0.094097 0 8391
-4.0075 0.14695 0.65886 0 8196
-3.9985 1.2247 0.39015 0 8847
-3.99 6.6405 0.54173 0 14406
-3.9792 -5.4689 1.1112 0 7114
-3.9735 6.6551 0.54201 0 14435
-3.9724 1.1039 0.095721 0 8753
-3.9724 5.6416 -1.4666 0 13747
-3.972 0.37686 0.75172 0 8309
-3.9714 0.27144 0.65399 0 8257
-3.9613 7.8796 1.2395 0 15079
-3.9451 0.31603 0.18456 0 8279
-3.9074 7.0462 0.94221 1 14723
-3.8994 1.6016 0.69258 0 9235
-3.8987 -4.6151 -0.28174 0 7265
-3.8962 8.6695 1.7908 0 15450
-3.8712 0.8384 -0.091961 0 8580
-3.8568 -2.6398 0.43603 0 7743
-3.8547 8.9249 1.1369 1 15571
-3.8542 8.8515 1.129 2 15545
-3.8499 7.1861 0.95336 2 14845
-3.8457 7.8224 1.6423 1 15160
-3.8454 6.1563 0.84883 1 14250
-3.8451 8.2988 0.85331 0 15348
-3.8315 5.0588 0 0 13417
-3.8261 8.3185 0.85423 2 15374
-3.8167 8.9742 1.3706 1 15630
-3.8107 0.12908 0.71839 1 8190
-3.8101 6.6421 1.2581 2 14601
-3.8071 7.7954 1.6345 1 15184
-3.8044 1.6668 0.19369 0 9340
-3.8042 2.2677 -0.10282 0 10143
-3.8014 6.7603 1.09 0 14671
-3.7942 6.7035 1.2655 2 14650
-3.7795 7.0075 0.93106 1 14821
-3.7775 1.6684 0.19258 0 9357
-3.7769 7.8514 1.0189 2 15227
-3.7708 -0.015137 0.26368 0 8104
-3.7686 -2.8959 0.11034 0 7694
-3.7598 7.6986 1.0019 0 15180
-3.7558 -0.17843 0 0 8013
-3.7449 -0.003921 0.26187 0 8110
-3.7443 7.5032 1.1785 0 15104
-3.7398 0.56292 0.17636 0 8424
-3.7361 0.48656 0.3515 0 8380
-3.7321 6.0145 0.33009 0 14272
-3.7243 0.78348 0.17748 0 8562
-3.7219 2.7803 0.76326 2 10952
-3.7203 0.57128 0.17553 0 8431
-3.7161 0.79328 0.1772 0 8572
-3.7138 8.8694 1.3514 1 15680
-3.7125 8.945 1.3611 1 15704
-3.712 6.7885 0.54103 0 14769
-3.6971 1.5185 0.46739 0 9232
-3.6968 6.1526 1.1793 1 14414
-3.6963 -2.7732 -0.21549 0 7704
-3.6877 -2.701 0.21317 0 7717
-3.6809 1.2445 0.73209 2 8961
-3.673 7.5743 1.586 2 15208
-3.6584 5.5272 -0.15389 0 14004
-3.6532 6.7228 0.53503 0 14793
-3.6346 8.5459 -1.3052 0 15610
-3.6313 1.5669 0.64978 1 9317
-3.6227 7.15 0.93734 0 15051
-3.6062 2.7273 0.74284 1 11000
-3.6037 8.6064 1.0911 0 15678
-3.5977 -5.2919 0.29841 0 7044
-3.5948 0.62674 -0.084719 0 8475
-3.588 -6.9189 0.18095 1 6673
-3.5809 8.0277 1.0279 1 15469
-3.5773 -2.5114 -0.10148 0 7733
-3.5744 3.0259 0.76942 0 11435
-3.5501 1.6434 0 0 9440
-3.5499 6.0265 0.81793 2 14493
-3.5482 7.1604 0.74555 0 15126
-3.5414 5.9715 0.81189 0 14466
-3.5326 5.0771 -1.1653 0 13802
-3.5314 -6.9098 -0.18016 2 6649
-3.5266 8.2282 0.62599 0 15598
-3.5249 8.0951 1.2409 2 15547
-3.516 0.60289 0.24945 0 8467
-3.5013 8.6442 1.3107 0 15773
-3.4973 3.2137 0.55543 1 11782
-3.494 -4.3101 -0.38799 2 7214
-3.476 0.0060659 0 0 8117
-3.4655 3.2013 0.55172 0 11809
-3.4607 0.58285 0.2454 0 8459
-3.4517 8.0534 1.2314 1 15604
-3.4431 3.1264 0.10798 0 11725
-3.4426 6.5157 1.2107 2 14896
-3.4259 8.6792 1.533 2 15848
-3.4099 -4.9227 0.13903 0 7065
-3.4095 8.709 1.5366 0 15873
-3.4092 0.97951 0.49852 0 8787
-3.3795 -0.33731 0.63989 0 7920
-3.3653 0.29857 0.63655 0 8296
-3.3592 4.9522 0 0 13894
-3.3532 8.7858 1.0997 2 15937
-3.3526 2.2291 0.66145 0 10532
-3.3427 8.6091 1.2979 2 15893
-3.3394 8.1141 1.4416 1 15728
-3.3321 0.94666 0.48683 0 8776
-3.324 4.209 -1.404 0 13240
-3.3179 -2.8367 -0.20357 0 7637
-3.2957 3.1715 -1.1974 0 11993
-3.2895 3.0751 0.31488 0 11859
-3.2611 2.3364 0.18708 0 10798
-3.2577 -5.3412 0.14525 0 6910
-3.2511 1.4693 0.41721 0 9402
-3.2389 6.8861 -0.35487 0 15291
-3.2312 1.5516 0.33441 0 9525
-3.2181 8.2202 0.82358 2 15869
-3.2152 -5.7435 1.2401 0 6801
-3.2123 6.7227 1.0471 0 15253
-3.2095 -3.8686 -0.1167 0 7242
-3.2078 7.8527 1.1922 0 15750
-3.1886 -2.3785 0.7495 0 7707
-3.1881 4.7858 -0.13351 0 13976
-3.1868 8.3497 0.8338 2 15935
-3.1402 4.0484 0.35827 0 13316
-3.128 -5.2975 0.71944 1 6875
-3.1149 -2.079 -0.086948 0 7752
-3.0997 6.7393 0.17222 0 15369
-3.0978 1.9957 0.25768 0 10413
-3.0971 -5.9318 0.46793 0 6687
-3.0814 -3.9186 0.7006 2 7185
-3.0669 2.2095 0.17627 0 10819
-3.0429 1.5278 -1.1505 0 9633
-3.0306 8.304 1.0337 0 16032
-3.0288 -2.2306 0.618 1 7713
-3.0243 1.5723 -1.4238 0 9725
-3.0125 -2.2332 0.17487 0 7710
-3.0004 -2.4331 -0.089687 1 7668
-2.9889 2.3579 0.71728 0 11157
-2.9865 8.2545 1.0265 1 16053
-2.9809 2.8857 0.096325 2 12014
-2.9565 -2.6028 0.091451 0 7620
-2.9488 -2.1205 0.68432 0 7724
-2.9402 -2.5577 0.090476 0 7627
-2.9 9.1641 0 1 16361
-2.8992 2.2062 0.42604 0 11022
-2.8952 6.9758 1.2409 2 15706
-2.8924 -2.6532 0.36618 1 7586
-2.8851 2.182 0.42302 0 10996
-2.881 8.4194 1.462 0 16199
-2.8741 -2.2886 0.17133 0 7676
-2.8595 -1.969 0.48794 2 7741
-2.8476 -2.2546 0.16938 0 7679
-2.8429 -4.4832 0.12325 0 6957
-2.8256 1.5863 0.15112 0 9960
-2.8075 1.6843 0.22894 0 10171
-2.7944 -6.0586 0 0 6500
-2.7873 2.046 -1.0789 0 10879
-2.7864 -4.4196 0.1213 0 6950
-2.7699 -4.5095 -0.2468 0 6919
-2.7432 2.0254 -1.064 0 10901
-2.7254 4.8826 0.52168 0 14695
-2.7205 6.8923 0.6913 0 15843
-2.6948 2.1885 0.24275 0 11263
-2.6871 -4.1031 0.11387 0 6996
-2.6855 7.225 0.17896 0 15989
-2.6806 4.6094 -1.0046 0 14548
-2.6513 2.1408 0.23829 0 11240
-2.6365 -2.7628 -0.088665 0 7445
-2.634 2.1269 -0.97079 0 11241
-2.6217 -4.7142 0.25155 0 6784
-2.6163 2.8106 0.17907 0 12501
-2.5958 -2.299 0.56969 0 7617
-2.5626 -2.0663 0.54083 0 7671
-2.5574 9.0739 1.3249 0 16588
-2.5192 -2.3781 0.40513 0 7561
-2.5124 2.9117 -0.17935 0 12825
-2.5109 8.3482 0.2024 0 16462
-2.5026 -2.3086 0.39816 0 7582
-2.4951 -9.5515 0 0 5881
-2.4845 3.1459 0.56337 0 13242
-2.4692 5.6706 0.43249 2 15541
-2.4685 -6.394 0 0 6279
-2.4649 -3.5585 -0.1005 0 7064
-2.4159 8.1143 0.99007 0 16487
-2.4102 9.3669 0 0 16721
-2.4073 -6.4558 0 0 6235
-2.3965 8.9002 -1.0779 0 16647
-2.3872 -2.041 0.59175 0 7639
-2.3753 6.8711 0.16879 0 16165
-2.3742 -7.2554 -0.17724 1 6102
-2.3708 4.216 -0.91132 0 14674
-2.3548 -4.0394 -0.43622 1 6853
-2.3202 2.1432 0.1473 1 11804
-2.3173 -7.5984 -0.18443 0 6024
-2.3066 2.1196 0.14609 2 11777
-2.2949 9.15 0.21902 0 16757
-2.277 -3.3898 -0.19043 0 7027
-2.2504 -5.4953 0.55401 0 6361
-2.2049 -2.7364 -0.16388 0 7209
-2.2046 4.0876 -0.98716 0 14824
-2.1968 -7.3504 -0.35776 0 6005
-2.157 4.0532 -0.97594 0 14871
-2.1524 -3.9527 -0.1045 0 6753
-2.1443 2.1623 -0.87322 0 12209
-2.1412 2.1464 -0.86936 0 12183
-2.1343 3.5048 -0.19136 2 14345
-2.1261 3.2539 0.090244 0 14062
-2.1191 -4.6628 0.47784 2 6486
-2.1155 2.9867 0.17068 0 13715
-2.1129 5.3529 -0.94549 0 15827
-2.1071 3.2053 0.17888 0 14035
-2.1046 2.9159 -0.1677 2 13630
-2.0996 -8.1246 1.3787 0 5877
-2.0816 7.2212 1.2347 0 16548
-2.0526 2.244 0.070607 0 12580
-2.0213 -9.2548 1.5564 0 5737
-1.9976 2.7174 0.63544 2 13564
-1.9841 5.384 -0.40124 0 16002
-1.9535 6.9313 1.3568 0 16591
-1.9381 9.5773 1.1427 0 16996
-1.9216 3.3043 0.53721 0 14546
-1.9181 7.3797 -0.71137 0 16701
-1.9131 9.6 1.6082 0 17010
-1.8465 7.8297 1.5157 0 16842
-1.8292 5.6097 -0.13699 0 16296
-1.7824 5.6325 -0.69086 0 16355
-1.7551 -8.2644 1.3881 0 5714
-1.7232 -7.5663 0 0 5761
-1.7146 -2.5856 -0.21694 1 7010
-1.7108 4.3699 -1.3457 0 15868
-1.7046 6.3306 1.0771 0 16662
-1.7011 4.3097 -1.3286 2 15842
-1.6889 5.925 0.43082 0 16563
-1.675 5.8108 -0.28202 0 16538
-1.665 -5.4598 0 0 6025
-1.6573 -8.9417 1.0635 0 5618
-1.653 -3.2094 -0.16835 1 6660
-1.5951 -2.9898 0.47625 2 6726
-1.5941 -2.7914 0.14991 2 6824
-1.5903 -2.9011 0.15428 0 6765
-1.581 -2.9861 0.47486 1 6714
-1.5776 2.5906 -0.070422 0 14347
-1.5573 -5.3255 -0.12882 0 5985
-1.551 7.1316 0.6809 1 16925
-1.537 4.2114 -0.31349 0 16021
-1.5335 4.018 -0.50293 0 15923
-1.5307 4.4278 -0.21848 0 16161
-1.4902 -2.6254 -0.28165 2 6814
-1.4565 4.7939 -0.46743 0 16434
-1.454 5.4002 0.12984 0 16655
-1.4391 4.7846 -0.46613 0 16454
-1.432 4.4334 0.21727 1 16321
-1.4269 5.3551 -0.51704 0 16668
-1.4115 4.2831 -0.63379 0 16269
-1.3996 -8.6795 0.20412 0 5550
-1.3959 3.0589 -0.1568 1 15389
-1.3954 -3.2447 0 0 6414
-1.3602 -5.5337 -0.1323 0 5825
-1.3336 -9.1082 1.0765 0 5521
-1.3329 -6.87 0.16248 0 5649
-1.3284 -5.3398 0.12775 0 5838
-1.3107 5.161 0.49679 0 16740
-1.2896 -8.8075 1.6771 0 5522
-1.2883 6.9919 0.83141 0 17094
-1.2818 3.6077 0.62903 0 16102
-1.2751 3.6248 0.6313 0 16126
-1.2607 7.3215 1.3997 0 17162
-1.2469 -4.4537 0.21568 0 5948
-1.2355 5.3901 0.90852 0 16873
-1.2329 -8.2399 0.58261 0 5527
-1.2309 -3.6532 -0.089501 0 6133
-1.2185 -6.3634 0.30214 0 5638
-1.2169 -8.3109 0.78364 0 5520
-1.2143 -3.6376 -0.089037 0 6122
-1.2088 4.4336 -1.434 0 16637
-1.1854 9.2792 1.5369 0 17429
-1.1754 4.8659 0.5854 0 16808
-1.1717 4.6715 -0.33678 0 16752
-1.1608 4.9923 0.35841 0 16854
-1.1495 -9.138 0.85925 1 5476
-1.1091 -9.2323 1.0874 0 5465
-1.1078 -8.4033 0 0 5486
-1.0865 3.1429 0.54635 0 16176
-1.0702 3.3135 0 2 16318
-1.0668 7.3215 1.2156 0 17331
-0.99659 3.8342 -1.2362 0 16707
-0.99244 3.7246 0.26954 0 16676
-0.99026 3.6777 0.26633 0 16657
-0.97652 5.218 0.12325 1 17068
-0.96265 3.3395 -0.24303 1 16537
-0.95474 5.6388 0.6688 0 17177
-0.94701 -8.0859 -0.37965 0 5457
-0.9354 5.6199 0.66624 1 17195
-0.93262 -8.8436 1.2498 0 5432
-0.92294 -4.2259 0.60791 0 5736
-0.91287 -5.0133 0.83719 0 5609
-0.9027 -5.0371 0.84076 0 5600
-0.88049 5.8083 1.1068 0 17294
-0.87823 -7.8792 0 0 5442
-0.87026 -8.2522 0 0 5430
-0.8434 5.9186 0.1388 0 17342
-0.82569 8.3909 -0.78661 0 17561
-0.80712 -9.1701 -0.21373 0 5371
-0.78875 -4.0653 0.78023 0 5655
-0.78849 -4.064 0.48412 0 5652
-0.77775 7.9037 -0.18439 0 17565
-0.77774 3.1784 0.53759 1 16794
-0.77755 3.3922 -0.1623 0 16864
-0.77585 -4.0518 0.77727 0 5642
-0.76115 3.8832 0.55614 0 17025
-0.76045 -4.1762 0.098553 1 5606
-0.75818 -3.9078 0.65399 0 5654
-0.75764 3.3456 -0.15997 0 16879
-0.75662 3.9144 0.56031 2 17042
-0.75165 8.389 -0.98496 0 17606
-0.72301 6.5594 -0.92745 0 17503
-0.71053 7.9301 0.18485 0 17614
-0.69977 -2.9952 0.57953 2 5789
-0.69511 -4.7474 0 0 5518
-0.69468 6.6541 0.94025 0 17542
-0.64911 -4.9238 0.46335 0 5487
-0.61612 6.4339 1.0619 1 17585
-0.60841 3.1985 -0.30376 0 17050
-0.59692 6.0661 -0.28425 0 17563
-0.58311 -4.0565 0.38234 0 5512
-0.5718 5.6391 -0.93122 0 17544
-0.50874 -2.9857 -0.14124 0 5571
-0.49748 5.0556 0 0 17566
-0.47401 -8.9254 0 0 5270
-0.46545 -6.8985 -0.16053 0 5312
-0.46508 -4.5314 0.6402 0 5423
-0.44125 8.5335 -0.7972 0 17773
-0.42811 -9.0781 1.4931 2 5258
-0.41208 -4.8365 0 0 5363
-0.39339 -3.9552 0.37082 0 5411
-0.39256 7.5919 1.249 0 17782
-0.37387 -8.4615 0.19664 0 5247
-0.31967 -3.632 0.17003 1 5374
-0.31326 -3.6767 0.17208 0 5364
-0.27296 3.943 0.74468 2 17703
-0.26308 -3.8991 0 2 5313
-0.25637 -3.9537 0 0 5302
-0.25436 -8.5202 0 0 5204
-0.25182 -7.6719 0 0 5213
-0.25084 -5.319 0.49679 0 5257
-0.25018 8.6852 -1.0161 0 17856
-0.23321 -5.2779 0.49288 0 5249
-0.22677 -6.3663 0.59432 0 5222
-0.20566 -8.5995 0 0 5186
-0.18955 -3.2285 0.22615 0 5286
-0.16867 -5.1388 0.96872 0 5214
-0.14872 -8.1924 -0.19024 0 5162
-0.12195 -3.16 0.59582 0 5231
-0.1171 -4.3557 0.2032 0 5196
-0.11544 -3.2409 0.611 0 5223
-0.098998 -5.4534 0.50886 0 5166
-0.06843 -7.2603 1.1929 0 5139
-0.061804 -3.4045 0.079056 0 5164
-0.023683 9.0467 -0.84402 0 17938
-0.022044 -5.7409 1.0817 0 5122
-0.021862 8.3511 -0.9766 0 17936
0.0081312 -4.2354 -0.19751 0 5107
0.034363 -4.3751 0.20404 1 5095
0.046827 -3.396 0.15838 0 5078
0.047733 -4.4109 0.20571 1 5086
0.053033 -3.2322 0.53111 0 5073
0.063766 -3.2616 0.53597 0 5066
0.068282 3.8733 -1.1108 2 18013
0.070057 -3.5834 0.16714 0 5065
0.074548 -5.4064 1.0187 0 5080
0.088927 7.6045 -0.70951 0 17991
0.10423 -3.6855 0.25782 0 5048
0.16233 -4.4059 0.41133 0 5030
0.17163 -4.3298 0.40427 0 5024
0.18426 -4.3241 0 0 5018
0.18534 -3.6088 0.59369 0 5002
0.19941 -5.4123 0 0 5029
0.21652 -7.6557 0.71452 0 5049
0.27301 -3.8087 0.53665 0 4965
0.2912 7.6498 1.2577 0 18080
0.31995 -7.5084 1.2347 0 5019
0.33348 -3.5213 0.08212 1 4917
0.3337 -3.5236 0.2475 0 4918
0.34671 -3.5424 0.24889 0 4908
0.35876 -3.6655 0.085509 0 4907
0.39896 9.8053 0.91554 0 18089
0.40765 -3.6171 0.16975 0 4870
0.41327 -3.9856 0.093029 0 4891
0.42891 -4.0201 0.093864 0 4884
0.46179 -3.9016 0.74024 1 4858
0.46961 -3.875 0.73542 1 4851
0.47344 -7.5461 1.4246 2 4982
0.47415 3.9704 -0.37305 0 18313
0.48125 -3.6213 0.4272 0 4826
0.48749 -3.3013 -0.077478 2 4797
0.49403 7.7233 0.54117 0 18166
0.51082 -5.073 -0.11838 0 4900
0.52923 -3.9823 0.7569 2 4827
0.53114 -8.082 1.3307 0 4977
0.56865 -7.34 0.34332 0 4956
0.60581 -5.8423 0.41073 0 4892
0.61606 8.4702 -1.1935 0 18186
0.6244 9.3026 0.86984 0 18175
0.64312 9.2434 0.86445 0 18184
0.6444 -4.3639 0.20571 1 4798
0.65564 -7.3608 1.3923 0 4933
0.65897 -4.3779 0.20646 0 4791
0.66164 -3.7257 0 0 4734
0.68927 -6.8452 1.1303 0 4901
0.68998 6.2398 1.0314 0 18297
0.69943 -3.2295 0.1541 0 4654
0.70771 -3.513 0.41907 0 4688
0.70795 -3.5656 0.42511 0 4693
0.70896 5.0638 -0.59794 0 18365
0.71273 -3.2471 0.15503 0 4644
0.71737 -6.0611 0.28462 0 4856
0.75157 -4.3063 0.71819 2 4743
0.78964 5.7645 -0.68041 0 18356
0.81301 -8.8141 0.82581 0 4927
0.83435 -3.1759 0.38399 0 4559
0.84179 3.9233 -0.37435 1 18568
0.86975 -3.907 0.56254 0 4638
0.87943 -3.5167 -0.084162 0 4583
0.88894 -3.5947 -0.085973 0 4589
0.89617 5.2761 -1.401 0 18442
0.90979 -8.3072 0.38972 0 4877
0.91058 5.7753 -0.54546 0 18411
0.91369 6.388 0.30093 1 18377
0.91916 3.6113 -0.97552 0 18689
0.92712 -5.699 0.40375 0 4769
0.94522 -4.9929 0.35534 0 4710
0.96988 -5.6503 0.67042 0 4751
0.97674 -4.7752 0.68501 0 4681
0.98542 -5.7408 0.81862 0 4752
0.986 -5.6495 0.67065 0 4742
0.99252 -4.7801 0.68612 1 4673
1.0091 5.6535 0.67158 0 18471
1.0127 3.6665 -0.99578 1 18758
1.0188 -4.9808 0.47431 0 4680
1.0235 4.9771 -1.457 0 18543
1.0296 6.6434 -0.31351 0 18403
1.0343 3.6261 -1.4724 0 18788
1.0376 -4.9973 0.47616 1 4672
1.039 -9.7382 0.91369 0 4885
1.0465 5.576 0.66345 0 18499
1.0544 -3.5507 0.34556 0 4492
1.069 4.0573 0.68934 0 18713
1.0704 -4.0743 0.59204 0 4560
1.0769 4.0389 0.68674 0 18727
1.0866 6.7615 0.63891 0 18424
1.0894 -4.5202 0.76391 0 4602
1.1084 4.0132 0.19416 0 18756
1.1101 8.1039 -1.1496 1 18355
1.1216 -8.241 0.38785 0 4821
1.1291 -6.578 -0.15496 0 4749
1.1294 -3.7667 0.27498 0 4485
1.1356 4.1115 -0.39795 0 18750
1.139 -8.7458 0.20477 0 4832
1.1438 3.9629 -0.67766 1 18795
1.1464 -3.7804 0.27624 0 4478
1.1598 3.8513 0.28126 0 18843
1.1718 3.8519 0.28154 0 18854
1.1742 8.572 -1.4215 0 18354
1.1883 8.1454 1.3524 0 18383
1.1905 5.1816 -0.12344 0 18615
1.1976 -3.5079 0.43347 0 4406
1.199 2.8635 -0.21708 0 19307
1.2072 3.8103 -0.092797 1 18900
1.2085 -5.8203 -0.13801 0 4671
1.2087 -4.5489 0.10928 0 4550
1.2105 4.0656 0 0 18830
1.2156 5.8288 0.97824 0 18554
1.231 -9.4525 1.796 0 4833
1.2554 -6.9495 0 0 4729
1.2555 -3.0043 0.22769 0 4327
1.2602 4.366 0.42396 0 18805
1.2749 4.1033 -0.09976 0 18875
1.2757 -7.5744 1.2619 0 4758
1.2827 9.3638 1.5528 0 18363
1.2851 4.0561 0.098785 0 18902
1.2935 -2.9509 0 1 4300
1.3149 -4.4792 0.54591 0 4499
1.3233 -4.456 0.54359 0 4493
1.3423 3.9544 -0.68609 0 18972
1.3428 -5.4999 0.52818 0 4596
1.3442 3.6455 -1.1141 0 19113
1.3511 -6.6054 -0.15653 0 4679
1.3538 -5.4746 0.52614 1 4590
1.3543 -3.499 0.17497 0 4355
1.3598 6.3376 -0.758 1 18566
1.3721 3.277 -0.75514 0 19313
1.3745 -4.6282 0 0 4491
1.396 7.9493 0.75298 1 18458
1.4 6.0115 -0.1433 0 18623
1.4089 4.2725 -0.10445 0 18946
1.4142 6.4057 0.45872 0 18592
1.4298 3.1563 -0.65285 2 19455
1.4326 9.4279 1.5667 0 18400
1.4451 -5.0264 0.98538 0 4511
1.4468 -3.673 0.1841 0 4352
1.4763 -5.8259 0 0 4577
1.5 -5.5825 0.9497 1 4544
1.5169 4.042 0.40278 0 19142
1.5171 2.9737 0.15568 0 19666
1.5191 -7.8962 1.1301 0 4704
1.5195 8.0957 -0.38413 0 18495
1.5323 7.5587 -0.71954 0 18532
1.5489 4.2007 -0.20879 0 19109
1.5826 -8.2261 0.97961 0 4703
1.6013 4.0838 -1.0394 0 19210
1.6163 -3.9022 0.39405 0 4334
1.6486 -5.6782 0.97143 0 4505
1.6544 -3.8049 0.78171 1 4305
1.6546 -4.6235 0.11401 1 4390
1.662 3.9383 -1.4444 1 19325
1.6668 -4.058 0.40928 0 4337
1.6686 -3.8066 0.68285 0 4302
1.6844 -8.007 0.95685 0 4665
1.686 -2.5843 0.43366 0 3995
1.6925 -4.5219 0.33762 0 4375
1.6946 -8.4117 0.40015 0 4687
1.7088 -4.4493 0.89799 0 4362
1.7196 -4.8054 0.47616 0 4391
1.7264 -3.7056 0.28586 0 4262
1.7276 -3.7337 0.28768 0 4268
1.7281 -2.6159 0.44062 0 3970
1.7342 -9.3026 0.88285 0 4716
1.7591 4.1322 -1.2878 1 19341
1.7608 4.38 0.77558 0 19248
1.7741 -4.917 0.48768 0 4386
1.7748 -3.7227 0.38476 2 4251
1.778 3.639 0.28321 0 19583
1.7804 4.3913 0.7785 0 19262
1.7812 -6.4098 0.77798 0 4528
1.7867 2.4163 -1.0938 0 20587
1.7897 -3.9619 0.304 0 4281
1.79 -9.7626 0.23044 0 4723
1.7977 3.8763 0.099203 0 19488
1.8031 3.9805 -1.253 0 19453
1.8213 6.2446 1.0687 0 18816
1.8223 4.6885 0.46929 0 19194
1.8352 8.0843 0 0 18606
1.8356 4.0186 -1.2668 0 19467
1.8492 6.483 1.1076 0 18794
1.866 4.7227 0.47375 0 19223
1.8663 4.3168 0.77267 0 19368
1.8736 -2.6838 0.075992 2 3865
1.8739 3.0176 0.16565 1 20109
1.8773 6.797 -1.1585 0 18748
1.8798 4.3131 0.77299 1 19383
1.8904 -4.6416 -0.35046 0 4338
1.8981 -2.735 0.077292 0 3878
1.9059 9.6876 -0.22923 0 18519
1.9087 -4.647 -0.35129 0 4336
1.9275 4.8362 0.85535 0 19235
1.9457 4.1955 -0.32339 0 19485
1.951 -5.7673 0.14135 0 4412
1.9544 9.2263 0.87987 0 18561
1.9637 -4.3471 0 0 4280
1.9646 -3.8624 -0.20208 0 4221
1.9744 7.2322 -0.87671 0 18737
1.9841 5.6279 0.83866 2 19030
2.0148 -2.2861 -0.35635 0 3345
2.0263 3.5068 0.28321 0 19929
2.0345 5.5685 -0.97402 0 19087
2.0402 6.8525 1.0048 0 18833
2.0516 4.1096 -1.2024 0 19625
2.0567 -5.3136 1.0735 0 4357
2.0646 5.0092 0 0 19282
2.0692 4.7861 0.98242 0 19369
2.0845 3.1494 -0.98869 0 20276
2.1173 3.1202 -1.4724 0 20345
2.1269 8.2597 0.59642 0 18695
2.129 -3.8471 -0.41021 1 4162
2.1298 -8.3132 0.19924 0 4572
2.1308 3.8142 0.40761 0 19847
2.1346 3.0497 -0.97451 0 20435
2.1353 -3.2956 0.73987 0 4010
2.1389 -4.9592 0.37766 0 4309
2.1487 3.0517 -0.97704 1 20451
2.152 4.5383 0.82519 0 19526
2.1611 -2.9453 0.4272 0 3770
2.1633 6.6263 -0.81515 1 18928
2.192 3.846 -0.10278 0 19894
2.1943 -8.3522 0.20049 0 4558
2.204 5.0979 0.259 0 19366
2.2049 -7.8441 0.56977 0 4521
2.2071 -4.9595 0.50645 1 4290
2.2079 -4.9966 -0.38199 0 4294
2.2224 4.233 -1.2516 0 19721
2.2269 -6.8456 0.67161 0 4430
2.2336 6.1668 -0.30587 2 19079
2.2379 -8.3286 0 0 4543
2.2511 9.2908 0.4458 0 18648
2.2797 -3.8016 0.41355 0 4106
2.2847 -7.9468 1.1621 0 4510
2.3008 -2.1425 0.51652 0 3008
2.3062 8.2598 -1.2052 0 18761
2.3135 2.1259 0.51619 0 21905
2.3352 -5.8297 0 0 4347
2.3466 6.9129 0.68108 0 18982
2.3489 -4.0212 0.21717 0 4132
2.3525 6.439 0.80167 0 19100
2.3633 3.0456 0.089501 1 20728
2.3644 -5.5702 0.42314 0 4318
2.3698 -4.4011 -0.2331 0 4181
2.3711 -4.499 -0.35562 0 4196
2.375 -2.4261 0.078824 1 3150
2.391 3.045 -1.4091 0 20759
2.3977 -6.5274 0.64876 0 4381
2.4098 -4.5074 0.59771 0 4186
2.4222 -4.5308 0.96798 1 4190
2.4253 -8.3533 0.8115 0 4504
2.4272 -2.5685 0.41326 1 3219
2.4516 -2.1927 0.076364 0 2947
2.458 -7.7112 1.3297 0 4444
2.4615 8.9122 0.86259 0 18757
2.4711 4.0851 -0.33385 2 20040
2.4771 -6.3995 0.64021 0 4356
2.4832 8.8937 0.86148 0 18768
2.4876 7.9233 1.3644 1 18891
2.4905 -6.1151 0.30792 0 4339
2.4911 -6.1688 0.31025 0 4344
2.5043 5.567 -0.14173 0 19437
2.5137 3.2795 0 0 20690
2.5157 8.097 -0.3954 0 18873
2.5269 3.3158 -0.096789 0 20672
2.5288 -7.5448 1.3073 0 4417
2.5469 3.3421 0 0 20673
2.5609 3.5929 -1.3768 1 20485
2.567 3.6214 -1.3851 0 20465
2.5702 6.9073 -0.34369 0 19124
2.5957 3.3259 0.09795 0 20743
2.6225 7.0479 -0.17459 0 19126
2.633 5.6337 1.1716 0 19501
2.6493 -1.7218 0.51911 0 2342
2.6762 -7.2855 1.4623 0 4382
2.6825 -3.0257 -0.18857 1 3339
2.6828 4.4615 0 0 20026
2.683 7.0892 -0.17598 0 19153
2.6832 6.6177 0.66622 0 19259
2.7098 3.9934 0 2 20346
2.7188 4.0308 0 0 20326
2.7207 -5.089 0.94808 1 4189
2.7236 1.8922 0.15466 0 23066
2.7254 -4.6997 0.37989 0 4136
2.7363 8.9948 -0.43844 0 18849
2.7429 6.3445 0.97143 0 19367
2.7445 -1.8638 0.54505 0 2421
2.7504 3.5883 0.21084 0 20693
2.7517 -2.6536 0.62805 0 3053
2.7605 -1.8859 0.54926 0 2433
2.7778 -7.4974 1.1237 0 4377
2.7854 5.8267 0.14994 0 19535
2.8192 -7.4061 1.4931 0 4368
2.827 -4.5329 0.24913 0 4057
2.8461 3.9667 0.91984 0 20504
2.8474 3.7582 0.88836 0 20661
2.8618 6.8347 -1.396 1 19314
2.8756 8.4714 0.62558 0 18981
2.9022 0.90893 -0.070607 0 25646
2.9147 6.1466 0.31723 0 19523
2.9199 1.8702 0.24247 0 23395
2.9446 8.0597 0.80054 0 19099
2.9521 -9.2614 1.3661 0 4443
2.9632 -1.5564 0.07771 0 1878
2.9727 -1.6963 0.40026 1 2079
2.9732 -0.77612 0.50484 0 1100
2.9759 -5.4131 1.0149 0 4169
2.9867 0.50624 -1.3487 1 26778
2.9886 -7.7816 0.77769 0 4360
2.9953 -1.6968 0.40258 0 2062
2.9987 2.7086 0.093818 0 21972
3.0066 6.6371 0.67978 0 19454
3.0123 -4.8641 0.93997 0 4065
3.0174 -3.5254 0.87429 0 3419
3.0248 -8.8599 1.3157 0 4407
3.025 -7.303 0.55275 0 4333
3.0271 9.4565 0.46304 0 18916
3.0317 -3.5622 0.88132 0 3431
3.0373 6.4488 0.33242 1 19511
3.0389 3.5231 0.32534 0 21035
3.0494 2.3773 0.27038 0 22593
3.0595 3.7822 0.11294 0 20846
3.0658 0.58262 -1.3894 1 26617
3.0664 -3.7305 0.90984 0 3511
3.0708 -8.1397 0.20198 0 4371
3.0724 -3.7179 0.90873 0 3498
3.0757 3.4027 0.10649 0 21179
3.0807 0.49455 -0.51263 1 26838
3.0842 0.48518 -0.51295 1 26860
3.0954 3.1931 0.20739 0 21440
3.1025 4.7177 0.13109 0 20256
3.1091 5.31 0.57407 0 19961
3.1224 -3.5616 0.77818 2 3367
3.1241 2.8547 0 1 21919
3.1338 -1.4547 0.32234 0 1634
3.1448 -9.2115 1.5992 0 4408
3.1569 -2.4067 0.18512 2 2651
3.1659 -2.897 0.40036 1 2989
3.1766 7.9021 -0.39717 0 19242
3.1803 -2.4386 0.18689 0 2662
3.1893 7.6768 -0.38767 0 19293
3.2079 5.7048 1.2331 0 19868
3.2092 3.4863 0.33134 0 21242
3.2111 -1.4344 0.5778 0 1574
3.213 -1.346 0.24359 0 1471
3.2165 7.8039 -0.39363 0 19280
3.2318 7.7791 -0.19557 0 19295
3.2423 -0.76524 0.54732 0 1056
3.2466 0.95553 0.15782 0 25804
3.247 1.886 0.08718 0 23753
3.2719 -6.6641 0.17236 0 4239
3.2749 -5.1823 0.14233 1 4041
3.2758 5.4154 1.0398 2 20048
3.3002 -0.75947 0.63803 0 1041
3.3052 0.98282 0.16081 0 25778
3.3073 0.64886 0.15717 1 26575
3.3077 6.4834 0.67904 0 19667
3.317 0.64056 0.15755 0 26599
3.3204 5.6324 -0.1518 0 19974
3.3308 3.882 0.59818 0 21019
3.3521 0.44905 0 1 27036
3.3597 -2.5761 -0.29605 2 2659
3.3739 -6.6331 -0.52038 2 4220
3.3952 5.1628 1.0152 0 20260
3.4206 4.5443 0.26525 0 20639
3.421 3.6328 0 0 21329
3.422 -6.8217 0.17719 0 4228
3.4301 -5.9918 0.16029 0 4144
3.4317 -1.1656 0.68284 0 1241
3.4351 -1.7292 -0.17935 0 1779
3.4652 -5.2793 0.73849 0 3981
3.4655 -6.7144 0.17543 0 4209
3.4867 0.78961 0.083002 0 26337
3.4872 6.0351 -0.16183 0 19927
3.4892 0.77865 0.083002 0 26364
3.4955 -3.9873 0.12311 2 3361
3.5051 6.0247 -0.16183 0 19944
3.5235 -2.4975 0.10027 0 2503
3.541 -8.9117 0.22264 0 4349
3.5509 -4.0291 0.12469 0 3349
3.5562 5.5457 0 0 20189
3.5617 4.8736 -0.14015 0 20550
3.5724 7.0998 -0.18453 0 19636
3.5832 0.45839 0.68062 0 27087
3.5837 0.68103 0.68728 0 26631
3.5846 4.3024 0 1 20930
3.5881 -7.4158 0.76859 0 4245
3.5941 9.3239 0.93226 0 19180
3.6328 -7.4583 1.5631 0 4243
3.6423 -3.8075 0.49158 0 3196
3.6577 3.6246 0.9702 0 21602
3.6592 -6.7507 0.71638 0 4177
3.6794 -1.1672 0.72728 1 1210
3.686 6.1712 0.33521 0 20011
3.6938 7.9034 0 0 19496
3.705 -4.403 0.1336 0 3449
3.7098 -8.3954 1.7293 1 4297
3.7133 -8.6806 0.2192 0 4313
3.7185 -0.69859 0.35299 0 944
3.7246 4.5247 0.54676 0 20900
3.7247 2.4151 0.31042 0 23348
3.7258 3.6283 0.12074 0 21658
3.7304 4.5561 0.54936 0 20884
3.7381 8.3098 1.497 2 19443
3.7386 1.6271 0.66988 1 24725
3.7541 -4.2597 -0.26478 0 3348
3.7551 4.4294 0.81611 1 20986
3.7674 -0.84487 -0.08964 0 1026
3.7735 0.28439 0.44253 0 27412
3.7957 0.48557 0.26759 0 27080
3.8081 0.49865 0.26856 0 27061
3.8157 -1.0668 0 0 1139
3.821 -8.0725 1.0444 0 4255
3.8222 0.29947 0.44834 0 27391
3.8314 7.1456 0 0 19763
3.852 7.2323 0.95824 0 19749
3.8796 3.0595 -1.4168 2 22546
3.8845 4.6888 1.1472 0 20921
3.8859 -7.5287 1.392 0 4211
3.9505 6.974 0.74778 0 19881
3.9539 2.0443 0.31125 0 24175
3.9635 1.2664 0.096603 1 25599
3.9886 3.6857 0.37975 0 21873
3.9969 -0.60804 0.76172 0 850
4.0007 -0.97083 0.67637 0 1069
4.0263 0.27943 0 0 27441
4.0312 6.8381 0.92828 0 19979
4.0419 -0.91829 0.096232 0 1032
4.0482 -3.8605 0.65416 1 3033
4.0548 1.3089 0.098924 0 25576
4.0675 0.66463 0.77653 0 26837
4.0761 7.1519 0.57563 0 19898
4.0764 7.9901 1.2606 0 19668
4.0808 5.9733 0.33736 0 20370
4.0818 1.1504 -0.09846 0 25901
4.0846 8.2937 1.0811 0 19600
4.1272 9.0353 -0.23062 0 19464
4.2619 -2.4636 0.22956 0 2107
4.2726 -2.4529 0.22975 0 2092
4.2726 5.3753 0.32021 0 20795
4.2936 -1.556 0.31935 0 1294
4.3151 -0.87635 0.20534 0 984
4.3263 -4.4722 0.14446 0 3173
4.3379 5.8667 0.85324 0 20592
4.3403 -8.1766 1.7441 0 4194
4.3552 -8.1464 0.21447 0 4185
4.3705 -1.2474 0.53151 0 1151
4.3777 -5.0538 0.15523 0 3384
4.3873 -1.268 0.53406 0 1156
4.4041 -3.7601 0.54026 0 2875
4.4617 -0.666 0.21037 0 842
4.4713 5.9014 0.34528 0 20655
4.5601 6.1671 -0.17807 0 20586
4.564 -1.5786 0.79342 1 1257
4.5909 -2.6892 0.12353 0 2136
4.6417 2.8612 -0.38129 2 23522
4.67 -5.9946 -0.70895 0 3627
4.7114 -7.0912 0.19766 0 3953
4.7143 -2.3065 0.24475 0 1724
4.795 -0.36306 0.11164 0 563
4.7978 -1.4002 0.58447 0 1164
4.7983 -0.39196 -0.33664 1 592
4.8036 6.1174 0 0 20758
4.8366 3.117 0 0 23367
4.8648 -1.3738 0.95242 0 1147
4.8777 2.9668 0.66763 0 23582
4.8939 -3.1806 0.54453 1 2340
4.9212 0.8766 0.11605 0 26712
4.9373 6.5592 -0.19061 0 20637
4.9531 -1.4775 0.60445 1 1175
4.9728 -2.2213 0.50812 0 1572
4.9793 -7.1324 -0.40565 0 3864
4.9897 -1.5513 0.4875 0 1197
4.9977 2.4559 0.12928 0 24339
5.0019 -2.3027 0.64394 0 1622
5.0022 6.6454 -0.58163 1 20634
5.01 1.395 -0.12074 0 25925
5.0157 8.2396 0.89994 0 20062
5.0309 -0.39771 0.11717 0 578
5.0441 -2.5028 1.0609 0 1757
5.0693 8.2176 0.22417 0 20092
5.0777 -2.8192 1.0942 0 2020
5.0841 -0.90836 -0.11991 1 920
5.1034 -0.56523 0.11921 0 719
5.1048 -2.459 0.39622 0 1700
5.1224 4.6529 0.16067 0 21946
5.1245 5.0464 0.16698 1 21614
5.1682 -3.5547 -0.43863 2 2439
5.1732 4.6449 0.32422 0 22001
5.1762 3.3359 0.72013 0 23374
5.1865 8.3001 1.1445 0 20130
5.1879 1.7419 -0.12706 0 25477
5.1901 2.1519 0.13044 0 24868
5.2118 7.9766 1.3391 0 20242
5.2137 1.039 0.24792 0 26553
5.2354 -3.5101 0.29394 0 2396
5.2375 0.84079 -0.12316 0 26847
5.2815 3.2772 0.72687 0 23511
5.2839 -4.3018 0.79679 1 2787
5.2888 7.4614 1.0695 0 20468
5.2937 -1.0905 0.37794 0 991
5.3004 3.8921 0.45983 0 22839
5.3138 1.0425 0.63325 0 26580
5.3268 8.048 1.3564 0 20278
5.3278 3.6576 0.90824 2 23123
5.3302 -3.4854 0.74476 2 2353
5.344 0.76152 0 1 26977
5.3482 -4.4323 0.16127 0 2818
5.3649 -3.4867 0.74824 0 2341
5.3683 7.0037 0.61707 0 20695
5.373 -5.7861 1.2973 0 3253
5.4017 2.2397 -0.2727 1 24863
5.4021 4.4674 0 0 22349
5.4067 8.3767 1.4012 0 20210
5.4295 -1.4497 0.65718 0 1114
5.4314 2.8082 1.152 2 24185
5.4538 -7.6206 1.7656 0 3822
5.4583 3.3422 0.1486 0 23552
5.4697 5.5157 0.18035 0 21529
5.4862 -0.80133 1.0446 0 834
5.5012 -4.6112 0.33475 0 2842
5.5031 1.2462 -0.131 0 26334
5.5211 1.0163 0.2618 0 26665
5.5224 -7.0887 1.693 0 3640
5.5333 -4.4776 1.0004 1 2775
5.5671 -3.4612 0.76659 0 2261
5.5977 -5.7523 1.3187 1 3167
5.5992 -1.3215 0.53673 0 1054
5.6202 -0.8209 0.26487 0 833
5.6289 3.886 0 0 23088
5.6312 0.19567 0.79189 0 27654
5.6696 3.3157 1.0791 1 23737
5.6709 0.52608 0.53134 0 27300
5.6974 -5.7213 -0.56461 0 3116
5.7425 -0.37035 0.1336 0 500
5.7827 2.5964 0.74127 0 24624
5.8007 -7.3609 0.43705 0 3602
5.8134 0.77878 0.96364 1 27045
5.8233 -0.44092 0 0 562
5.8321 2.38 0.73663 0 24927
5.8345 6.6459 0.20532 0 21087
5.8549 3.9686 1.1621 1 23178
5.8746 -5.8644 1.3638 2 3112
5.8907 -2.5699 1.2109 0 1535
5.9221 4.4271 0.68982 1 22774
5.9287 1.0561 1.1346 0 26725
5.9667 0.62291 0.70155 0 27230
6.032 0.68406 0.99737 0 27179
6.0954 -4.1145 0.6861 0 2409
6.0982 -2.2099 0.91158 1 1295
6.1443 -3.6222 1.3438 0 2157
6.1597 -2.6668 0.78495 0 1522
6.1953 0.14276 1.1676 0 27717
6.1975 -4.8385 1.2918 0 2704
6.2131 3.7302 1.1906 0 23632
6.2272 -1.189 0.89099 0 954
6.2358 -3.7025 0.3382 0 2166
6.2367 5.935 1.0068 0 21758
6.2411 1.4134 0.89934 1 26347
6.2422 7.7167 -0.23044 2 20844
6.2468 -6.5301 1.4847 0 3199
6.2472 -4.6803 0.18123 0 2614
6.2489 -2.9459 0.32217 0 1658
6.2803 3.5518 1.014 0 23859
6.2853 3.8486 0.51536 0 23555
6.3041 3.47 0.16707 0 23948
6.3096 4.3316 1.2574 2 23125
6.3419 7.098 1.7934 0 21148
6.3438 3.5396 0.67774 0 23901
6.3492 -1.2123 0.60305 0 953
6.361 -3.1784 1.3398 0 1773
6.3754 6.2433 0.8325 1 21639
6.3968 -1.0097 0 0 866
6.4116 -2.8198 0.81909 0 1546
6.4299 1.4349 1.2413 0 26377
6.4921 -1.0085 0 0 858
6.4939 0.43246 -0.1511 0 27461
6.5016 0.92647 0.76799 0 26984
6.5019 1.8742 0.31556 0 25855
6.5126 -2.6631 0.82281 0 1435
6.5271 -3.052 1.1838 0 1647
6.5303 -2.9857 0.50211 0 1608
6.5332 -4.1637 0.90598 0 2306
6.5399 1.9447 0.9589 0 25786
6.5543 1.5433 0.47086 0 26271
6.5556 0.24611 -0.15231 0 27631
6.5729 5.1242 1.3693 0 22601
6.6072 3.0614 0 0 24525
6.6116 3.9429 0 0 23647
6.6533 -5.9865 0.62586 0 2960
6.6676 -6.9699 0.44981 0 3194
6.7054 -2.2358 0.32962 0 1230
6.7598 -2.0576 0 0 1187
6.7601 -2.5828 1.3635 0 1355
6.7666 0.76737 0 0 27171
6.7785 0.7867 0 0 27152
6.7874 2.6545 0.16921 0 25044
6.7887 5.8868 0.20862 0 22151
6.7939 -1.5012 0.64913 1 1022
6.8216 5.161 1.2022 0 22728
6.8295 6.2035 1.5158 2 21958
6.8528 -1.3271 0.16206 0 962
6.8631 0.13897 0.32012 0 27729
6.906 -1.8208 0 0 1105
6.9137 -0.70714 1.3094 1 690
6.9406 1.6766 0.33298 0 26222
6.9864 4.7355 0 0 23165
7.0326 -2.9231 1.2512 1 1460
7.0956 3.4638 0.18332 0 24364
7.1024 -4.244 0.19209 0 2180
7.1124 2.0717 0 0 25827
7.1182 2.0519 0 0 25852
7.142 4.0128 1.3459 0 23881
7.1724 2.4767 0 0 25406
7.1904 6.3817 0 0 22045
7.198 0.14575 1.1828 0 27736
7.231 -3.5378 1.3226 0 1728
7.383 2.4789 0 0 25479
7.3877 1.3826 0 0 26640
7.397 -1.6128 1.4264 1 1016
7.4019 -0.17444 0.1719 0 256
7.4034 6.6078 0.23039 0 22024
7.4445 0.21575 0.69483 0 27682
7.4519 -1.9647 0.71898 0 1106
7.4606 -1.8297 0.35823 0 1072
7.4877 6.1592 0.2251 0 22372
7.4895 -1.0299 0.17552 0 809
7.5016 -2.4751 0.36838 0 1224
7.51 -2.3592 0.7344 0 1202
7.5334 -0.94501 1.4305 0 772
7.5529 4.9293 1.4818 1 23330
7.5959 5.1158 0 0 23192
7.6011 2.848 0.37854 0 25170
7.6153 2.289 0.18462 0 25751
7.6492 1.1145 0 0 26954
7.6528 1.2971 0.18021 0 26783
7.6796 0.84648 1.4557 1 27198
7.6905 -4.6282 1.2615 0 2199
7.6932 5.6121 0.88842 0 22864
7.728 0.084978 0.72103 0 30
7.7694 5.3337 0 0 23113
7.7972 4.529 1.4815 0 23762
7.838 -4.8088 1.2924 2 2238
7.8465 -3.0529 0.58874 0 1373
7.8987 1.574 1.3232 0 26561
7.9233 1.0136 0.18545 0 27077
7.9343 5.5825 0.22524 0 23012
7.9459 -4.3539 1.4886 1 1984
7.9505 -0.28042 0.74221 0 336
7.9985 -2.1866 0.7736 0 1128
8.0132 -3.1937 1.6253 0 1403
8.0217 -1.3165 1.3355 1 884
8.1457 -2.8175 1.008 0 1255
8.1646 4.6174 0.43742 0 23853
8.2085 -3.3281 0.82637 0 1424
8.2187 1.8612 0.39298 0 26339
8.2302 -0.12354 1.1568 0 203
8.2525 -3.7731 0.42316 0 1607
8.2593 1.3732 1.5775 0 26815
8.2848 -3.6437 1.487 0 1548
8.3677 -0.0043813 0.19427 0 99
8.3698 -3.9707 0.43201 0 1672
8.3961 1.4457 0.1978 0 26758
8.4216 -0.49296 0 0 463
8.4355 2.4827 1.6567 0 25815
8.4356 0.70836 0.78977 0 27355
8.4691 -4.1087 0.8782 0 1713
8.4728 -1.2134 1.4062 1 826
8.499 -3.6796 0.64762 0 1521
8.5303 2.0605 0.20374 1 26220
8.5614 4.9389 0.69115 0 23781
8.615 -4.9799 0.92836 0 2110
8.6529 1.0808 0.81355 0 27102
8.662 0.25103 0.20119 0 27678
8.7257 -2.2501 1.4805 1 1094
8.7301 4.4482 -0.68515 0 24215
8.7739 4.3116 1.8419 0 24352
8.7779 0.072005 1.0265 0 49
8.8087 -3.2812 1.5444 0 1324
8.828 4.3707 1.856 0 24327
8.8606 1.5783 0.62934 0 26716
8.9059 3.4258 1.7978 2 25106
8.9072 -2.0237 1.2837 0 1033
8.9297 1.9682 0 0 26388
8.9869 1.63 0.21205 0 26688
8.9873 3.0753 1.7897 2 25442
9.0244 3.7122 1.3714 1 24904
9.0337 2.2658 -0.21623 0 26147
9.0488 3.7518 1.3767 0 24877
9.0791 -0.39799 0.63548 0 387
9.1001 3.9304 1.3931 0 24749
9.2008 1.9439 -1.0997 1 26452
9.2073 -0.27005 1.0772 0 297
9.2091 3.5757 1.3884 0 25078
9.2113 2.1418 -1.3291 2 26280
9.2186 -0.29937 0.64497 0 317
9.2414 2.2067 -1.1111 1 26236
9.2594 -0.70109 0.43304 0 564
9.2713 3.4738 1.3915 0 25178
9.276 3.6277 1.1648 0 25052
9.2987 2.3322 -1.1211 2 26139
9.319 3.4306 1.3956 2 25233
9.3252 3.5871 0.23197 0 25095
9.3666 2.2626 0 0 26218
9.4262 0.98408 0.22004 0 27225
9.4356 1.1519 0.44329 0 27119
9.5082 1.048 1.5716 0 27196
9.5203 2.8617 1.873 2 25765
9.5478 2.9592 1.1689 0 25680
9.5851 2.6438 1.8734 1 25964
9.7528 -0.96659 1.6102 2 675
9.7605 -0.14651 0.91071 1 199
9.7758 1.4819 1.6244 1 26923
9.7959 -0.17612 0.91406 2 220
9.8523 0.13758 0.91926 0 12
-14.422 4.0566 -0.69866 2 8764
-14.414 4.1412 -1.3991 2 8782
-13.066 2.0063 2.1718 0 8432
-12.877 1.4831 1.8218 0 8349
-12.799 1.2888 0 0 8321
-12.356 2.4153 0.58714 1 8525
-11.991 3.9774 2.3803 0 8936
-11.942 4.119 -0.29329 0 8980
-11.859 7.7398 0.99026 1 10457
-11.442 0.38757 1.8809 0 8189
-11.393 2.6072 1.0904 0 8611
-11.367 1.6806 0.26678 0 8415
-11.335 -0.40572 1.8634 0 8036
-11.228 -1.1544 1.3199 0 7914
-11.19 -1.1841 -0.26126 0 7909
-11.106 0.37617 0.51819 1 8187
-11.085 -1.4968 1.8378 0 7871
-11.052 1.2104 1.3002 0 8338
-10.959 -0.36164 0.25458 0 8041
-10.91 8.5547 0.96948 1 11126
-10.893 9.0592 -1.6568 2 11343
-10.78 1.2721 -0.25202 0 8355
-10.757 3.6368 0.26363 0 8955
-10.744 -7.965 2.1974 0 7711
-10.743 4.1606 1.6191 0 9143
-10.614 -1.0595 0.24766 0 7919
-10.462 8.1506 0.30791 1 11101
-10.305 4.4464 0.26056 0 9309
-10.286 -9.7676 -1.9935 0 7554
-10.168 -0.83598 1.1931 0 7948
-10.106 6.2272 0.2756 0 10259
-10.062 3.5335 2.0093 0 9011
-9.9325 2.0895 0.94694 0 8563
-9.914 -1.5436 0.70161 0 7839
-9.5726 3.9006 0.48205 1 9217
-9.5321 7.5199 1.9947 0 11155
-9.4746 -7.2806 0.83554 1 7696
-9.378 4.5396 1.2184 0 9545
-9.3597 -8.5316 0.29403 1 7589
-9.2722 4.0953 1.4246 0 9362
-9.1707 6.8506 0.26576 0 10944
-9.044 -6.5829 1.8378 0 7720
-9.0242 6.1536 1.019 0 10623
-8.9862 -6.1139 1.014 0 7746
-8.7792 5.621 0.72896 0 10392
-8.6877 7.7052 1.9078 0 11633
-8.6823 6.8078 -0.25615 0 11122
-8.5868 5.781 1.2105 0 10577
-8.3708 6.6442 1.2498 0 11177
-8.2871 8.5457 0 0 12312
-7.9799 -7.1927 -0.24942 0 7600
-7.9374 -11.969 0.33345 1 7012
-7.9007 -6.557 0.23837 0 7659
-7.4081 -11.981 1.6472 0 6930
-7.264 9.7029 2.2837 2 13486
-7.1715 10.058 -0.28679 0 13684
-6.9873 -7.5774 0.96162 1 7393
-6.9482 7.3373 1.1817 1 12424
-6.8973 -7.3526 0.23406 0 7419
-6.7923 8.352 1.0043 1 13103
-6.7359 12.227 0.97617 1 14743
-6.7022 -11.424 1.2356 1 6865
-6.3578 -11.917 2.2191 0 6727
-6.3519 -7.9797 0.71319 0 7199
-6.274 -11.681 0.61835 1 6734
-6.2706 -13 1.6879 1 6563
-6.1634 -9.4115 2.1196 0 7002
-6.1337 -9.1937 1.0311 1 7022
-6.0967 -9.8599 1.9046 2 6932
-6.0682 10.871 0 0 14688
-6.0276 -12.315 2.5832 2 6590
-5.9171 -13.441 1.7174 1 6447
-5.8539 -13.502 0.34166 2 6424
-5.7329 -8.2271 1.6475 0 7076
-5.5486 -8.6929 -0.48093 0 6965
-5.4722 -13.25 2.3553 2 6375
-5.3568 -11.266 2.0495 2 6545
-5.2274 8.6452 1.4198 2 14384
-4.9961 11.034 0.28122 1 15415
-4.715 9.8674 0 0 15245
-4.488 -11.053 0.5563 1 6348
-4.4719 -13.017 2.2613 0 6158
-4.4358 9.9442 1.0159 2 15467
-3.6272 -10.469 1.8203 2 6168
-3.5418 10.446 0.51437 1 16215
-3.2242 10.72 0 0 16460
-2.9696 10.418 1.0107 0 16565
-2.9541 0.50654 -0.069586 0 8465
-2.8362 -13.355 0.95469 1 5710
-2.7528 0.029308 -0.3869 1 8133
-2.7424 10.934 -0.26172 0 16754
-2.7101 10.805 1.3027 0 16761
-2.6715 9.9218 1.936 1 16664
-2.6479 12.003 2.3159 0 16914
-2.6193 13.363 0.63503 1 17021
-2.5792 12.746 0 0 16993
-2.5211 1.4632 -1.0609 1 10060
-2.3796 0.10806 0.39136 0 8212
-2.224 11.506 1.9253 1 17044
-2.1114 11.459 0 0 17086
-2.0765 13.2 0.31024 1 17247
-1.7637 -10.938 2.0874 0 5553
-1.6413 -12.45 2.0631 0 5488
-1.5569 11.637 -1.0954 0 17389
-1.5545 2.5368 -0.069075 0 14322
-1.198 9.3775 -1.7812 0 17430
-1.1961 0.58287 0.2507 2 9567
-0.79043 0.64996 -0.31932 1 11308
-0.70942 14.402 -1.3453 0 17785
-0.55466 13.691 0 0 17821
-0.46759 1.659 -0.71997 0 16579
-0.22199 12.846 -1.8056 0 17892
-0.11199 -11.882 2.2389 0 5140
0.0046286 13.26 2.1786 0 17955
0.16734 14.309 0.66735 1 17996
0.18702 -13.563 2.2285 0 5079
0.25375 -10.094 -0.23443 0 5054
0.2763 13.529 2.5495 0 18022
0.29606 11.231 -0.26084 0 18040
0.40102 10.535 0.98354 0 18078
0.72962 1.815 -0.76385 0 19244
0.77762 -11.319 1.8641 0 4971
0.96135 11.794 -0.55183 0 18214
1.0588 -11.479 0 0 4926
1.0808 11.992 0.56152 1 18240
1.1631 10.518 -0.4935 0 18289
1.2297 3.3049 -1.57 1 19123
1.3542 10.557 1.7486 0 18340
1.5563 -12.842 0.60326 1 4849
1.6449 11.749 2.2352 0 18371
1.6597 -10.574 2.0167 0 4781
1.8182 1.2482 -1.1078 0 23106
1.8648 -1.9277 0.44064 0 3178
