VERSION .7
FIELDS x y z intensity index
SIZE 8 8 8 8 8
TYPE F F F F F
COUNT 1 1 1 1 1
WIDTH 1540
HEIGHT 1
VIEWPOINT 0 0 0 1 0 0 0
POINTS 1540
DATA ascii
-9.0087 2.2879 -1.3063 0 12320
-8.981 0.4361 0.20876 0 12015
-8.8948 2.3717 -0.21373 0 12344
-8.8469 0.66054 0.82767 0 12051
-8.7422 0.5255 -1.2308 0 12029
-8.738 2.6315 -1.4993 0 12384
-8.6541 2.0665 -0.83008 0 12296
-8.5954 4.5165 1.5953 0 12753
-8.5861 -1.3906 0 0 11760
-8.5791 -1.061 0.80649 0 11793
-8.5394 0.68857 1.4075 1 12059
-8.5389 5.1104 -0.23104 0 12922
-8.5273 -0.081859 0.19799 0 11936
-8.5119 1.5162 1.629 0 12202
-8.4609 4.6707 1.5878 0 12823
-8.4414 4.854 1.5998 0 12879
-8.4369 0.87633 1.3936 0 12095
-8.4312 -1.1429 1.603 0 11781
-8.4252 -0.79197 0.9896 0 11827
-8.403 -1.2379 0.1972 1 11769
-8.3441 -1.6023 1.1941 0 11746
-8.3234 2.2692 -1.2125 0 12349
-8.2649 -1.5871 1.5856 0 11747
-8.2355 1.8635 -0.19604 0 12282
-8.2067 2.0583 -1.1891 0 12316
-8.2047 4.1625 1.7334 1 12720
-8.176 2.9904 0.20212 0 12481
-8.1715 1.163 0.57717 0 12149
-8.1585 4.6913 0.87801 0 12876
-8.141 1.1586 -0.38347 0 12147
-8.1249 1.7151 0.77472 0 12261
-8.1203 -0.45684 0.37928 0 11876
-8.0936 5.3713 1.5959 1 13092
-8.0863 -0.52575 1.3313 0 11861
-8.0829 3.9843 -0.20922 0 12686
-8.0814 -5.8349 -0.69701 0 11686
-8.0054 4.3901 0.42577 0 12808
-7.9445 4.2366 1.2654 0 12770
-7.9308 -1.0497 0 0 11785
-7.9137 0.89326 0 0 12110
-7.8978 1.5481 1.3223 0 12235
-7.8796 1.0052 1.3051 0 12128
-7.8547 2.4871 1.5523 1 12410
-7.8164 -0.55343 0 0 11855
-7.8118 0.67383 0.54829 0 12068
-7.7449 2.6019 0.95546 0 12441
-7.7352 4.5382 0.41823 0 12899
-7.6717 -6.2815 -0.46239 0 11636
-7.6511 -6.0101 0.22589 0 11659
-7.6266 5.791 0 0 13378
-7.6251 1.7492 -1.0995 0 12283
-7.5956 2.2139 0.73812 0 12373
-7.5946 3.2613 1.3579 0 12585
-7.553 0.23604 1.2415 0 11993
-7.5436 5.3273 1.08 0 13217
-7.5393 -5.6771 0.44012 0 11674
-7.5343 5.8971 1.5719 0 13459
-7.5258 -0.7963 0.35292 0 11811
-7.4887 4.163 0 0 12828
-7.4691 2.4139 -0.36605 1 12419
-7.4662 -0.28813 0.52248 0 11901
-7.4526 5.1335 -0.2101 0 13159
-7.4325 3.1411 0.7528 0 12571
-7.4129 -0.094453 -0.86695 0 11930
-7.4071 2.8805 0.74146 0 12524
-7.3957 3.944 -0.78196 0 12765
-7.3872 4.9304 0.8286 0 13103
-7.3803 -5.3937 1.7223 0 11684
-7.3625 2.8365 0 0 12518
-7.3532 4.7243 1.2283 1 13038
-7.3418 -0.71211 1.3898 0 11821
-7.3245 -4.9108 -0.41124 0 11711
-7.3164 0.37447 -1.0296 0 12016
-7.2967 4.9924 1.2425 0 13150
-7.2667 1.8698 0.70003 1 12330
-7.2392 0.49733 0.50741 0 12043
-7.2392 3.7797 -0.7619 0 12742
-7.2331 1.0294 -0.16962 2 12148
-7.2011 0.15964 -0.84232 1 11980
-7.192 4.2483 1.5738 0 12911
-7.1838 -1.206 0.85185 1 11757
-7.1559 -5.9642 0.8691 0 11627
-7.1511 5.4299 0.8377 0 13382
-7.146 -6.2427 1.559 0 11600
-7.1393 -6.1669 1.7775 0 11607
-7.1326 2.5609 0.88623 0 12472
-7.108 4.2541 0.19232 0 12924
-7.1077 2.8818 -0.89692 0 12549
-7.0827 4.4069 0.77825 0 12981
-7.0715 -4.7411 0.19766 0 11712
-7.025 4.1215 1.3381 0 12902
-7.0156 5.8265 0.21173 0 13584
-7.0068 -5.5356 0.20732 0 11655
-6.9902 0.60296 -0.82049 0 12065
-6.9756 3.8778 -1.3112 0 12824
-6.9747 1.6449 0.16637 0 12294
-6.9457 0.43821 1.3112 0 12035
-6.9429 6.0823 1.5165 0 13714
-6.9325 0.37666 -0.81189 1 12022
-6.9307 1.8247 0.66864 0 12339
-6.9104 -6.2156 1.7512 0 11584
-6.9077 0.29435 0.64504 0 12007
-6.8788 2.2457 0.33745 0 12427
-6.8354 -0.4049 0.80074 0 11871
-6.8272 3.1937 0.70319 0 12643
-6.823 6.0834 1.7223 2 13763
-6.8126 -5.008 0.78884 0 11680
-6.7889 1.1069 0.32077 0 12176
-6.7874 -0.086484 0 0 11932
-6.7869 -0.38183 0.79494 1 11877
-6.7825 4.1661 1.1187 0 12964
-6.7754 4.7248 0.77063 0 13187
-6.7409 0.22715 0.62925 0 11997
-6.6933 3.2256 0 0 12665
-6.6715 -4.757 -0.19024 0 11690
-6.6679 -5.3668 1.6127 0 11646
-6.6662 1.693 1.13 1 12326
-6.6345 4.4868 1.1256 0 13124
-6.6117 -4.6571 0.37714 0 11696
-6.5439 -6.5782 1.7482 0 11542
-6.5285 -7.4627 0.2302 0 11430
-6.5216 -6.2562 1.2701 0 11553
-6.5216 0.77534 -0.61272 0 12117
-6.5182 6.3764 0.8507 0 13971
-6.4645 -7.5183 -0.2302 2 11416
-6.4615 2.3633 0.64188 0 12483
-6.4541 1.5805 -0.30987 1 12308
-6.4081 6.4914 1.7186 0 14070
-6.3485 -1.01 0.44951 0 11762
-6.3195 -5.3309 0.96684 0 11620
-6.3031 0.029702 -0.29394 0 11959
-6.3001 -5.8034 0.19887 0 11572
-6.2966 -0.88941 0.29655 0 11774
-6.2925 -1.1697 0.1486 0 11748
-6.2916 -0.72129 0.74058 0 11802
-6.2386 5.0609 0.37462 0 13531
-6.201 -6.1622 1.6471 1 11549
-6.1956 0.67962 0.43584 0 12106
-6.1725 -5.9213 1.6116 2 11554
-6.1449 6.3013 1.237 0 14099
-6.108 -0.02452 0 0 11944
-6.0626 3.7721 1.1731 0 12983
-6.023 6.5798 0.62376 0 14267
-6.0217 -5.7444 1.1696 0 11555
-6.0023 -0.90134 0.56627 2 11768
-5.9848 0.94147 -0.14066 0 12167
-5.9703 4.4258 0.51969 0 13317
-5.9496 0.67156 -0.41868 0 12109
-5.9457 1.828 0.14442 0 12394
-5.9003 2.6977 0.7587 0 12626
-5.8843 7.3186 1.7693 0 14616
-5.8766 1.0637 0.55717 0 12207
-5.8367 -6.1121 1.5923 0 11515
-5.8365 -0.44602 0.9617 0 11849
-5.8311 3.4899 0.7947 0 12925
-5.8061 5.7476 0.18968 0 14001
-5.8048 7.4405 0.88043 0 14703
-5.8001 -0.20761 -0.40584 0 11906
-5.7865 -5.7503 1.1465 0 11547
-5.7718 -0.83378 0.27195 0 11770
-5.7653 -5.4998 1.5012 0 11556
-5.7514 -6.159 0.39298 0 11492
-5.735 -6.1415 -0.39186 1 11491
-5.7283 1.7984 0 0 12405
-5.7191 0.40995 -0.26739 0 12047
-5.7156 4.3667 0.67105 0 13398
-5.7149 2.1652 0.285 0 12504
-5.6935 -4.4723 -0.16809 0 11658
-5.684 0.42439 -0.26581 1 12050
-5.6813 5.6893 -1.321 0 14022
-5.6798 1.3395 -0.27214 0 12292
-5.6624 0.78874 0.66856 0 12143
-5.6466 -4.905 0.6978 2 11603
-5.6124 3.6308 0.78169 0 13048
-5.5763 -8.0532 0.4568 0 11283
-5.5597 5.4388 1.0931 0 13973
-5.5552 3.1944 -0.59785 0 12871
-5.5154 2.4245 -0.84673 1 12598
-5.4888 -4.6845 -0.16754 1 11612
-5.4741 7.3601 1.7282 0 14860
-5.4726 -7.5241 0.43388 0 11311
-5.4719 1.9474 -0.95424 0 12463
-5.4591 -5.0872 0.17325 0 11567
-5.4388 1.9699 0.67646 0 12477
-5.4368 -5.8589 1.3132 0 11486
-5.4099 2.1212 0.81667 0 12529
-5.4069 -0.60362 0.12631 1 11805
-5.4011 4.8156 0.33745 0 13757
-5.3809 2.9289 0.14224 0 12797
-5.3797 1.7386 -1.2017 0 12421
-5.3693 -7.6568 -0.43611 0 11289
-5.354 -5.0471 0.86044 0 11558
-5.3337 -5.9529 1.3132 0 11451
-5.3322 -7.7992 -0.44059 0 11278
-5.3239 -5.7735 -0.36624 0 11478
-5.3015 2.2591 0.94678 0 12580
-5.2996 2.4983 -1.1039 0 12651
-5.2856 2.4726 -1.0994 0 12645
-5.2768 -0.11238 0 1 11922
-5.2737 -4.2175 0.62999 0 11649
-5.2617 4.3699 1.2887 0 13589
-5.2552 -4.4615 1.1326 0 11616
-5.2482 2.5495 0.54435 0 12673
-5.2386 2.9122 0.98472 0 12832
-5.2015 1.6151 -0.76545 0 12397
-5.1778 1.315 -0.24913 0 12323
-5.1408 6.6275 -1.378 0 14707
-5.1187 0.89519 -0.24233 2 12196
-5.1093 7.079 1.227 0 14950
-5.0998 3.1731 1.1316 0 12984
-5.0928 -3.9775 0.75568 0 11662
-5.0927 1.7446 1.0143 0 12451
-5.0872 2.3798 0.39273 0 12642
-5.0803 4.2463 1.0878 0 13606
-5.0742 1.4954 0 0 12378
-5.0635 3.2134 0.84283 0 13016
-5.0572 1.6344 0.87318 0 12422
-5.0511 1.7146 1.005 0 12446
-5.0391 1.6773 -0.49549 0 12437
-5.0072 -5.9252 0.36177 0 11405
-5.0034 0.27185 0.82325 0 12026
-5.0016 1.2248 0.36008 0 12310
-4.9575 3.0071 -0.95262 0 12939
-4.9511 2.6592 0 0 12775
-4.9373 5.302 1.1903 0 14222
-4.9275 1.2679 0 0 12329
-4.9257 2.1653 -0.50199 1 12600
-4.8936 1.9514 -1.1198 1 12540
-4.8932 1.2728 0 0 12333
-4.8757 2.3686 -0.12585 0 12672
-4.8448 1.0812 0 0 12278
-4.8373 2.7996 0.78549 0 12887
-4.8211 7.1556 1.6256 0 15136
-4.8173 -4.0393 0.58652 0 11624
-4.7735 -0.18421 0.67137 1 11902
-4.7645 -0.18387 0.78337 0 11903
-4.7201 1.9474 0 0 12559
-4.7144 -5.4482 0.67217 1 11422
-4.7084 4.1729 -1.3373 0 13744
-4.7068 -4.437 0.90908 0 11559
-4.6745 2.3541 0.85989 0 12712
-4.6594 -4.1704 0.29161 0 11588
-4.6525 3.265 0.93381 0 13204
-4.6331 3.0747 -0.1291 0 13088
-4.617 -0.28643 -0.43158 0 11863
-4.5843 5.7017 1.0282 0 14613
-4.583 2.4081 -0.7276 0 12747
-4.5438 1.2116 0.32883 0 12345
-4.5347 -0.29484 0.42396 0 11860
-4.5336 -4.9737 0.94582 0 11467
-4.5082 -4.9753 0.94359 2 11461
-4.5057 -0.27953 0.42117 0 11866
-4.4757 7.5559 0 0 15471
-4.4752 1.405 -0.32799 0 12404
-4.4726 -4.3403 0.1447 0 11552
-4.4704 1.177 0.32325 0 12338
-4.4655 -0.45989 -0.20935 1 11814
-4.4654 -6.2533 -0.1784 0 11298
-4.4582 2.3605 -0.23525 0 12756
-4.456 -6.2771 -0.17872 0 11295
-4.4549 -0.44545 -0.20879 0 11817
-4.4525 4.6969 0.6038 0 14174
-4.4423 1.9528 0.91428 0 12602
-4.4419 -3.9953 0.13871 0 11583
-4.421 3.0647 1.0135 0 13178
-4.3981 0.085982 0.4104 1 11978
-4.3628 -7.4451 1.2128 0 11183
-4.3437 3.3596 -1.1672 0 13428
-4.3269 1.3154 -0.85207 0 12391
-4.3096 1.325 -0.84948 0 12396
-4.3089 2.7177 -0.95983 0 13007
-4.2985 5.2219 0.47295 0 14542
-4.2873 3.0853 0.74235 0 13258
-4.2867 0.0202 -0.50131 0 11957
-4.2741 -4.4461 -0.28761 2 11518
-4.2724 -6.2094 0.70319 0 11281
-4.2669 -5.901 -0.16907 1 11305
-4.2529 -0.41251 0.49968 0 11820
-4.2407 1.077 0.30595 0 12324
-4.2355 -0.21308 -0.09846 0 11884
-4.2263 2.6655 -0.11601 0 13003
-4.2154 0.019864 0.69258 0 11962
-4.1969 1.7884 -0.9697 0 12579
-4.1952 1.3171 0.72241 1 12406
-4.1946 -3.7097 0.52242 0 11594
-4.1625 3.2195 0.73957 0 13427
-4.1531 8.6412 0.22259 0 16066
-4.1523 0.0086965 0.6822 2 11955
-4.1452 1.3397 0.50944 0 12420
-4.1426 -0.32894 0.48597 0 11845
-4.1277 -0.34081 0.48435 1 11840
-4.1056 2.2664 0.43752 0 12819
-4.0964 -6.9405 0.37584 0 11190
-4.0703 -4.3375 0.97726 0 11500
-4.066 -5.7618 0.82467 0 11292
-4.0619 -8.6204 -0.22125 0 10893
-4.0527 2.5383 0 0 12991
-4.0341 2.8489 0.23031 0 13213
-4.002 0.11318 -0.18671 0 11988
-3.9987 0.12496 -0.37324 1 11991
-3.9956 1.6485 -1.0241 0 12560
-3.9811 5.1029 -0.45258 1 14694
-3.979 1.4286 0.29563 0 12471
-3.9768 2.1953 -0.96554 0 12822
-3.9702 7.3704 0.78104 0 15735
-3.9358 -0.17528 0.18373 0 11893
-3.9146 -0.50633 0.55474 0 11789
-3.9063 1.8683 -1.026 0 12660
-3.8837 7.1558 0.18903 0 15713
-3.8702 -4.2937 0.9497 0 11456
-3.8685 6.0398 0.50155 0 15257
-3.8522 -0.50989 0.54612 0 11786
-3.8287 6.2553 0.17027 0 15377
-3.7963 0.56329 0.17897 0 12156
-3.7948 2.8471 -1.2419 0 13350
-3.7932 2.2406 -1.1533 0 12910
-3.7697 -0.23387 -0.08769 0 11865
-3.7697 1.0874 0.64459 0 12369
-3.7603 0.4797 -0.26507 0 12127
-3.7571 -5.7045 0.31854 0 11267
-3.7377 3.9429 -1.4223 0 14175
-3.736 -0.15528 0.52552 0 11897
-3.7202 8.2356 1.4847 1 16245
-3.7199 0.029216 0 0 11967
-3.7104 -3.1668 0.68557 0 11613
-3.7079 0.029121 -0.17292 0 11966
-3.7018 0.039412 0 1 11970
-3.6887 2.3863 0.30721 1 13047
-3.6821 6.2987 0 0 15508
-3.6782 -0.16381 0.51745 2 11894
-3.6768 2.8264 -1.0988 0 13412
-3.6534 0.73865 0.52385 0 12246
-3.6397 1.6273 -0.092565 1 12610
-3.6114 3.6789 -1.2215 0 14084
-3.6087 4.4342 0.66856 0 14578
-3.6008 0.73914 0.51661 0 12251
-3.584 -3.0234 0.21866 0 11619
-3.5774 0.60508 0.3385 0 12186
-3.5731 -2.996 0.21745 0 11623
-3.5702 1.773 -1.4508 0 12693
-3.5644 2.4857 -0.81874 0 13189
-3.5529 4.1408 -1.1597 0 14438
-3.5525 -3.1221 0.44124 0 11597
-3.5523 1.961 0.18922 0 12816
-3.5406 3.1936 0.78337 0 13790
-3.5275 -2.3937 0.80319 0 11708
-3.5163 1.9943 -0.47273 1 12852
-3.5109 3.3963 0.45573 0 13940
-3.4971 7.014 -0.36549 0 15962
-3.4878 3.7024 0.2372 0 14191
-3.484 -3.604 0.11638 1 11522
-3.459 2.7722 0.10292 0 13507
-3.4338 1.961 0.27651 0 12867
-3.427 -3.3854 0.90762 0 11550
-3.426 0.18615 0.32011 0 12025
-3.4153 3.3597 0.22341 0 13987
-3.4094 3.8564 0.96983 1 14366
-3.3988 3.1188 0.8691 0 13829
-3.3934 3.8627 0.96872 0 14383
-3.3916 -3.1793 -0.10793 0 11562
-3.3754 4.1005 -0.37138 1 14535
-3.374 -4.5003 0.92409 1 11331
-3.3738 -3.8107 0.3559 0 11441
-3.3625 -4.623 0.13272 0 11310
-3.3596 9.0628 -0.45074 0 16715
-3.328 2.6529 0 0 13491
-3.2776 -0.49219 -0.15456 0 11767
-3.2606 1.8126 -0.43626 0 12825
-3.2485 -0.49768 -0.15326 0 11765
-3.2318 -6.9149 -0.71211 0 10885
-3.2303 -3.6053 -0.22574 0 11450
-3.2125 5.9191 0.31407 0 15714
-3.1925 3.7419 0.1142 1 14452
-3.1733 -5.9555 0.15667 0 11049
-3.1493 1.4846 -0.99836 0 12649
-3.1481 2.48 0.18689 0 13468
-3.144 7.7195 0.97474 0 16516
-3.1276 0.30666 -0.14655 0 12087
-3.1259 1.1433 -0.15522 0 12480
-3.1099 2.464 0.18503 0 13480
-3.1073 7.6295 0 0 16509
-3.094 -2.783 -0.19407 2 11582
-3.0918 3.5832 0.10988 2 14423
-3.0857 1.5438 -1.1659 0 12700
-3.0786 -3.4957 0.87762 0 11436
-3.0783 2.1204 0.17432 0 13161
-3.0688 -7.634 1.3518 2 10722
-3.0685 -3.8083 0.22807 0 11383
-3.0654 2.125 0.17394 0 13176
-3.0569 -2.1797 0.43905 2 11691
-3.0271 1.8239 -1.38 0 12931
-3.0265 2.9772 -0.19798 2 13983
-3.0121 -5.8159 0.61104 1 11012
-2.9864 2.2676 -1.267 0 13380
-2.9813 -4.9208 0.8086 0 11219
-2.9638 -0.5162 0.42281 1 11752
-2.9538 5.5954 1.0395 0 15796
-2.9525 1.779 0.080031 0 12933
-2.9395 -2.0705 0.42047 0 11697
-2.9307 4.8164 0 0 15397
-2.9276 -2.0736 0.41954 0 11693
-2.927 6.3259 -1.4816 0 16183
-2.9251 2.3176 0 0 13479
-2.9141 -4.4822 0.24931 0 11261
-2.9133 4.2965 -1.3589 0 15118
-2.9061 4.5371 0 0 15254
-2.9052 4.5638 0 0 15275
-2.8974 -6.7504 0.85905 0 10800
-2.8973 1.1553 -0.072418 0 12539
-2.876 -3.0455 0.097253 1 11505
-2.8726 4.6603 0.1271 0 15360
-2.8637 -3.0516 0.09716 1 11499
-2.8473 1.1458 -0.071257 2 12546
-2.8419 -8.1426 1.6249 0 10566
-2.7895 -8.0692 -0.19822 0 10549
-2.7644 -6.0491 -0.31015 0 10863
-2.7644 3.6052 0.53127 0 14763
-2.7607 -7.4233 0 0 10621
-2.6718 3.5059 0.51548 1 14784
-2.6634 -3.572 0.52105 0 11327
-2.6518 -4.0263 0.5638 0 11268
-2.6355 3.5852 0.52036 0 14894
-2.6319 -4.0204 0.56194 1 11265
-2.616 6.9969 0.17343 0 16697
-2.6062 -3.6269 0.73376 1 11302
-2.6011 2.2787 0.48599 2 13712
-2.59 -2.4415 0.67062 0 11560
-2.5624 -2.402 0.66173 0 11564
-2.5598 -1.6516 0.57397 0 11718
-2.5587 3.1084 -0.66145 2 14530
-2.5582 2.2412 0.078963 0 13710
-2.5565 3.889 0 0 15194
-2.5516 -2.7826 0.62027 0 11473
-2.5437 -3.0465 0.65205 0 11399
-2.538 5.9821 -0.15087 0 16404
-2.5196 -2.4743 0.24694 1 11551
-2.5061 -1.7114 -0.14152 1 11705
-2.5055 -2.5337 0.67136 0 11537
-2.5025 -5.7829 0.29385 1 10806
-2.4638 -2.2569 0.54894 0 11575
-2.4511 2.9088 -0.99578 0 14485
-2.4504 6.2719 -1.4313 0 16616
-2.4359 3.7295 -0.94683 0 15211
-2.4205 5.2697 -0.815 0 16188
-2.4108 5.1701 -1.2125 2 16160
-2.3734 5.6848 -1.3094 0 16452
-2.3399 -8.6901 1.2648 0 10315
-2.3268 -9.395 1.3603 0 10256
-2.3205 -8.419 1.4348 0 10336
-2.3136 -3.6968 0.61292 1 11244
-2.3124 3.1665 0.091033 0 14910
-2.3101 2.4807 -0.88739 0 14220
-2.2931 -5.1358 -0.13058 0 10840
-2.2747 -8.3493 0.20091 0 10319
-2.2694 3.8821 0.1044 0 15510
-2.2531 -3.1553 0.36172 0 11299
-2.2305 7.6926 -0.93664 0 17233
-2.2176 -5.1247 -0.2604 0 10804
-2.2124 3.3023 0.092286 0 15148
-2.1923 -3.4135 0.094189 0 11253
-2.161 -4.0866 -0.10733 0 11040
-2.1519 -2.7024 0.40397 0 11376
-2.1386 7.7011 -0.55889 1 17321
-2.121 -2.3269 0.3682 0 11466
-2.0816 -2.9861 0.16975 0 11286
-2.0488 -6.8903 0.50267 0 10403
-1.9973 -7.0114 0.68015 0 10361
-1.9823 -7.1918 -0.1732 0 10328
-1.9709 7.1846 0 0 17348
-1.9348 9.4844 1.8237 1 17829
-1.9157 3.0492 -0.083605 1 15308
-1.9037 -2.5699 0.22364 0 11323
-1.8906 -2.5672 0.22294 2 11319
-1.8905 -3.8658 -0.20068 0 10933
-1.8787 3.0875 -1.4113 0 15396
-1.8719 2.742 0 0 15099
-1.8642 -5.5012 -0.13485 0 10529
-1.8619 3.0804 -1.4055 1 15417
-1.8158 2.8165 0.077803 0 15241
-1.8094 3.6291 -1.2654 0 15970
-1.8091 2.6851 -0.68819 0 15134
-1.7945 2.8017 0.077246 0 15256
-1.7929 2.6441 -0.67904 0 15119
-1.7817 3.8506 0.098507 0 16177
-1.7525 -7.4541 0.53545 0 10222
-1.7518 7.1054 0.68276 0 17544
-1.7492 -7.8446 -0.37481 0 10194
-1.7484 3.8065 0.097253 0 16199
-1.6885 7.5977 -1.4664 0 17705
-1.6615 8.6686 0.41161 0 17904
-1.6305 6.3782 0.92522 1 17488
-1.6265 7.6326 0 0 17756
-1.6151 3.3144 0.085601 0 16028
-1.6042 -2.6647 0.511 0 11214
-1.603 3.6569 -0.8487 1 16326
-1.5784 -7.5887 0.54201 0 10154
-1.5715 2.7252 -0.51684 1 15537
-1.5542 5.4132 -0.26264 0 17257
-1.524 -4.1689 0.41411 2 10605
-1.5032 -3.0308 -0.078545 0 10950
-1.4918 7.4318 0 0 17840
-1.4911 -5.063 0.61722 0 10395
-1.4876 6.6066 0 0 17677
-1.4846 -3.9248 0.7906 2 10649
-1.477 5.9107 -0.71247 1 17513
-1.4512 9.4947 1.8097 0 18135
-1.4413 -2.9253 -0.075714 0 10941
-1.4361 -3.7276 0.37268 2 10670
-1.4289 8.368 -0.792 0 18026
-1.4133 -8.0894 0.57424 1 10078
-1.4083 -4.9439 -0.11935 0 10356
-1.3771 -8.947 1.0586 0 10036
-1.3623 2.9443 -0.76868 0 16181
-1.3599 -7.65 0.18039 1 10084
-1.3506 -7.9935 0.94802 0 10063
-1.327 -4.9285 0 0 10310
-1.3223 -7.3053 -0.17236 0 10089
-1.321 -4.9611 0 0 10304
-1.3122 5.6032 -0.67298 0 17611
-1.3051 2.7374 -0.57138 1 16094
-1.2688 -2.8876 0 0 10822
-1.2547 -9.8488 1.3953 0 9990
-1.2165 2.9869 0.074878 0 16511
-1.2136 -3.5814 0.71247 2 10537
-1.2129 -9.7658 1.8541 0 9984
-1.2094 2.9444 0.073903 0 16488
-1.1822 5.6343 -0.5371 1 17773
-1.182 3.0808 -0.54213 0 16638
-1.1738 -9.2142 1.0862 0 9989
-1.1689 -6.8025 0.97004 0 10071
-1.1604 5.6083 -0.53431 0 17791
-1.1223 -7.7406 -0.36475 1 10020
-1.109 -2.8297 0.35542 0 10693
-1.102 -3.9127 0.094375 0 10348
-1.1017 -9.0771 0.63939 0 9979
-1.0958 -4.168 0.60568 2 10300
-1.0935 9.3229 1.7686 0 18327
-1.0837 4.7507 0.11313 0 17660
-1.0542 3.843 0.092518 0 17350
-1.0499 -4.9778 0.59492 0 10163
-1.0447 4.7008 0.79115 2 17704
-1.0256 -4.8624 0.81644 1 10164
-1.018 -3.6535 0.53303 0 10345
-0.99754 6.7799 -1.4566 0 18161
-0.99624 -3.6144 0.52691 1 10335
-0.99496 3.4314 -1.3004 0 17240
-0.99492 -5.2404 0 0 10113
-0.98813 -2.9983 0.44368 0 10505
-0.97719 3.2947 -0.40188 0 17192
-0.97298 9.4638 -0.44366 0 18389
-0.97122 3.663 -0.35355 2 17412
-0.94732 -4.4302 0.42266 0 10172
-0.9402 -7.2194 0.67923 0 9995
-0.92355 -6.6302 0.15542 0 10010
-0.91158 -2.9985 0.51489 0 10425
-0.89786 3.3115 0.079659 0 17375
-0.89511 4.6006 -0.21857 1 17880
-0.88123 3.4471 0 0 17482
-0.84122 -5.4655 0.90852 0 10037
-0.84006 -7.2827 1.3812 0 9972
-0.83716 -9.7252 1.6037 0 9921
-0.83022 -3.8825 0.27763 0 10171
-0.82866 -4.9893 0.35367 0 10059
-0.82044 4.6387 -0.10937 1 17994
-0.81975 4.9786 0.35283 0 18067
-0.819 -4.8474 0.80768 0 10064
-0.81774 3.492 0.3346 0 17622
-0.80962 -3.0406 -0.14674 0 10303
-0.7878 4.4542 0.74316 1 18004
-0.78013 -4.876 0 0 10048
-0.77282 3.3879 -0.32419 2 17653
-0.77081 4.2926 0.82171 1 17987
-0.75113 5.008 0 0 18142
-0.74385 3.2169 0.54246 1 17648
-0.73355 3.2577 0.62915 0 17686
-0.70321 3.9759 -0.18829 0 17993
-0.6763 -6.7047 -0.31425 0 9945
-0.67447 -3.9252 0.37157 0 10070
-0.67128 3.3964 -1.4461 1 17859
-0.65992 -4.5514 0.21447 1 10021
-0.64993 3.6194 -0.69284 0 17986
-0.64279 -9.755 0.68361 0 9879
-0.63539 -4.2925 0.20236 0 10026
-0.63058 -4.6334 0.54684 0 10004
-0.62488 4.4294 -1.171 0 18187
-0.596 6.9807 1.1511 0 18465
-0.59143 -4.2459 -0.099528 0 10009
-0.58801 4.168 0.49225 0 18188
-0.5734 6.1115 0.14251 0 18434
-0.56101 -4.1222 0.6835 0 10005
-0.53706 3.1452 -1.0782 0 18031
-0.49215 4.5303 0.5329 0 18368
-0.48643 -7.382 -0.17176 0 9877
-0.4472 -6.254 0 0 9892
-0.42915 -5.7477 0.26879 0 9899
-0.42623 -9.3864 1.5437 1 9838
-0.41322 9.942 1.6348 0 18629
-0.41299 -5.7757 -0.13444 0 9891
-0.40672 -5.4474 -0.12682 0 9898
-0.39316 -3.6911 0 0 9955
-0.3869 8.7216 1.227 0 18618
-0.38116 -6.0584 0.14094 0 9872
-0.37886 -7.8588 0.18267 0 9844
-0.36482 9.4964 -0.22064 0 18636
-0.33 7.9397 -0.55568 0 18623
-0.32181 6.8239 0.79888 0 18606
-0.29691 4.8131 -0.3372 1 18546
-0.29655 -3.8191 0.62935 0 9904
-0.29379 -8.0505 -0.18703 0 9818
-0.27183 4.4064 0.1025 0 18549
-0.26539 -3.1872 0.37401 0 9915
-0.24384 -4.7805 0.11113 0 9851
-0.20815 -4.0807 0 0 9850
-0.18076 -4.9532 0.46242 0 9819
-0.15211 -4.9223 0.22966 1 9804
-0.11669 -3.4808 0.65618 0 9812
-0.10422 -3.1089 0.14506 0 9810
-0.1006 8.0047 -1.1251 0 18728
-0.082779 -4.3112 0 0 9777
-0.072692 -4.5267 0.74381 0 9771
-0.071675 -6.8442 0.31919 1 9758
-0.054653 3.6408 0.42581 0 18725
-0.046896 3.7316 -0.17404 0 18733
-0.044135 -3.2839 0.61878 2 9765
-0.035358 9.2079 0.85906 0 18766
-0.031791 3.3729 -0.078313 1 18742
-0.031775 -7.0023 0.32655 0 9746
-0.026304 3.9659 0 0 18754
-0.0084455 -4.3989 0.4104 1 9737
-0.0078749 -4.1017 0.57646 0 9738
0.032382 -4.6383 0.87392 2 9724
0.051717 -7.4078 -0.34546 1 9722
0.05229 -4.1038 0.3829 1 9711
0.072314 4.3155 -0.70912 0 18813
0.076298 9.5031 0.22064 0 18796
0.077988 -7.979 0.74444 0 9716
0.084626 4.3287 -1.2415 0 18839
0.10296 4.5724 0.8617 0 18851
0.1048 6.2545 -0.73152 0 18815
0.10481 4.6544 0.76488 0 18850
0.10837 -3.013 0.28128 0 9670
0.11058 -3.6402 0.68617 0 9680
0.11568 4.5701 0.86133 2 18860
0.11835 -9.2887 -0.21567 0 9710
0.1203 -6.5018 0.30326 0 9700
0.1256 6.4248 0 0 18835
0.13612 -3.4955 0.40908 2 9665
0.13971 -3.1249 0 0 9651
0.14571 -3.4911 0.40862 0 9659
0.1636 -7.558 0.35254 0 9694
0.16707 -7.7184 1.4546 0 9695
0.177 3.2472 0.22741 0 18936
0.17992 3.1492 0.22057 1 18942
0.19858 6.3901 -1.3589 1 18873
0.21332 -5.111 0.84043 0 9660
0.23168 -3.5538 0.67099 0 9612
0.23192 5.049 0.71034 1 18913
0.23737 8.3416 -0.38916 0 18865
0.2456 -3.3128 0.23229 0 9597
0.2482 5.8009 0.95392 0 18907
0.27025 -8.1467 -0.38012 2 9674
0.28623 7.769 -0.7253 0 18884
0.30336 -6.7849 0.79424 0 9652
0.32011 -6.319 -0.29506 0 9637
0.32145 5.8972 -0.83003 0 18932
0.32732 4.5551 -0.53406 0 18972
0.32797 -3.3692 -0.078592 0 9547
0.33116 4.4354 0.838 0 18979
0.33456 4.8452 0.22649 0 18968
0.34443 5.1994 0.73233 0 18961
0.36994 4.7536 0 0 18981
0.37597 7.7149 1.4553 0 18924
0.37602 -7.9148 1.3018 1 9645
0.37862 -8.4684 1.5971 0 9653
0.38347 4.1573 0.58675 0 19019
0.41355 -4.3831 0.82948 0 9553
0.44273 -9.319 0.2166 0 9642
0.44978 -5.8587 0.68715 0 9590
0.45465 4.2473 -0.2987 1 19044
0.45678 -7.0066 0.65507 0 9611
0.46475 -9.7824 0.91369 0 9644
0.4725 -7.5947 0.5321 0 9617
0.4767 -8.4734 -0.39577 0 9627
0.48053 3.6798 -0.086158 0 19099
0.51131 -8.6318 0.60465 0 9622
0.51988 4.168 -1.3106 0 19092
0.5391 3.6333 -0.25684 1 19142
0.5411 4.7938 0.33734 0 19068
0.5675 -7.3923 0.17213 0 9589
0.57403 -2.9865 -0.070607 1 9351
0.57425 3.7926 -0.90886 1 19152
0.58195 -7.2967 1.2026 1 9583
0.58481 4.5715 0.64771 1 19096
0.61406 -3.4648 0.57812 0 9387
0.63018 -3.8149 0.27038 0 9412
0.63062 3.5403 0 0 19207
0.63519 -3.5232 0.58817 0 9382
0.64756 -3.5387 0.4207 0 9374
0.65828 4.5234 -0.64242 0 19130
0.67993 4.5823 -0.65105 0 19140
0.69468 -5.0127 -0.11749 0 9463
0.70644 -4.9949 -0.11712 0 9458
0.72747 -9.8124 0.22844 0 9595
0.72811 -6.1702 0.57965 0 9509
0.74243 -3.9864 0.094143 0 9369
0.80039 -3.1585 0.53532 0 9218
0.84047 7.8515 1.1098 0 19049
0.85954 -3.8079 0.64135 0 9288
0.87926 -7.2871 0 0 9501
0.92013 -4.7872 0.57007 0 9353
0.93324 -6.7341 0.63427 0 9464
0.93927 -3.38 0.41024 0 9162
0.94768 -3.3715 0.40955 1 9155
0.99018 -9.3115 0 0 9531
0.99462 -3.7886 0.09094 0 9198
1.0088 -8.3605 1.3835 0 9503
1.0218 -9.3604 0 0 9525
1.0245 3.0495 -1.0038 0 19531
1.0266 -7.7452 0.54633 0 9476
1.0278 -4.6862 0.90391 0 9302
1.0327 3.0147 0.44786 0 19551
1.0729 -9.3442 1.3219 0 9515
1.0864 4.2776 -0.9381 0 19372
1.1029 3.7402 -0.45601 2 19440
1.1063 -8.3467 0.19548 0 9475
1.1094 -4.9879 0.71813 0 9295
1.1408 -5.0539 0.72815 0 9287
1.1771 4.0383 -1.4213 0 19437
1.1894 3.1146 0 0 19666
1.1902 5.0507 0.72927 0 19334
1.193 -3.103 0.15503 0 9016
1.2139 -3.1313 0.15661 0 9013
1.214 3.8692 -1.2654 1 19478
1.2309 -8.5102 1.4127 0 9452
1.2363 3.1515 0.31583 0 19696
1.2722 2.7838 0.14273 0 19899
1.2724 2.7639 0.14189 0 19912
1.2728 3.7154 0.64524 0 19553
1.2892 5.0102 0.36176 0 19376
1.3205 4.2977 0 0 19462
1.3331 2.9857 -0.85599 0 19870
1.3593 4.2929 0.31488 0 19484
1.3768 4.1341 -0.82096 0 19524
1.3844 -3.7952 0.66372 1 9040
1.4141 4.2092 -0.62405 0 19525
1.4191 -2.8865 -0.15 0 8828
1.447 -8.0257 0.38031 0 9381
1.4794 -7.5754 1.2681 0 9346
1.495 -3.0184 0.15708 0 8824
1.4954 -7.7802 0.55401 0 9352
1.4969 -2.9996 0.15633 0 8816
1.5004 9.549 1.1304 0 19164
1.5044 -5.352 0.78132 1 9156
1.5101 -7.6056 1.2739 0 9339
1.5189 6.7072 -1.2957 0 19314
1.52 -3.6952 -0.18633 2 8972
1.5242 3.4954 -1.3879 0 19840
1.5278 3.3681 0.60763 0 19889
1.5331 3.3548 0.60601 0 19901
1.5336 -4.0953 0.40798 1 9023
1.5505 4.573 0.11211 1 19539
1.553 5.9708 -1.1624 0 19384
1.5533 -7.8231 -0.18518 0 9338
1.5545 -5.2954 1.0398 0 9132
1.5641 -2.9817 0.39375 0 8769
1.5714 -2.8525 0.61359 0 8728
1.5731 -8.4468 0 0 9368
1.5875 -3.6755 0.18671 0 8933
1.5911 -2.6314 0.3596 1 8634
1.6014 4.3037 0 0 19634
1.6025 -5.396 1.0606 0 9126
1.6527 -5.63 -0.27363 0 9130
1.6531 4.2885 0.42879 0 19676
1.6574 9.1475 1.7515 0 19216
1.6621 -5.54 0 0 9122
1.6736 -3.2606 0.085091 0 8792
1.6885 7.6541 -1.4768 0 19304
1.6896 9.1696 1.7567 0 19225
1.7007 3.4762 0.72913 0 19996
1.7252 5.919 -1.4608 0 19439
1.7305 -6.2274 1.0619 1 9163
1.7507 -8.9647 0.42596 0 9345
1.7524 4.2855 -0.43195 0 19742
1.7567 -4.7771 0.47486 0 9034
1.773 4.4082 0.44328 0 19727
1.7902 -4.824 0.3598 0 9030
1.7916 8.1217 0.38785 0 19301
1.7943 -3.3269 -0.17627 1 8744
1.7978 6.7425 -0.16201 0 19392
1.7983 6.6741 -0.16048 0 19399
1.8058 5.9362 1.1691 0 19458
1.8154 -3.665 0 1 8822
1.8283 -3.7189 0 0 8829
1.8313 4.9215 0.3672 0 19636
1.8335 -9.6852 0.91963 0 9361
1.8473 7.9446 0.76097 0 19328
1.8493 -5.1649 0.25584 0 9046
1.8574 6.5076 0.95111 0 19428
1.8658 -5.7356 -0.28127 0 9086
1.8787 2.7304 -0.86764 0 20790
1.8824 4.4933 -1.3969 0 19794
1.8997 -5.7813 0.28379 0 9080
1.9073 6.9911 0.84744 0 19407
1.9141 8.0096 1.5516 0 19345
1.9164 3.5967 0.66956 1 20126
1.9227 -8.644 1.4549 0 9296
1.9395 6.5772 0.47951 0 19446
1.943 -4.0103 0.62628 0 8841
1.9633 -8.586 0.20449 0 9278
1.9643 -5.02 0.50292 0 9009
1.9743 6.6951 -0.16206 0 19443
1.9889 -3.4686 0.65691 2 8692
1.9967 -3.0746 -0.17096 0 8523
2.0108 3.6713 0.68772 0 20178
2.0149 -3.1217 0.52218 1 8543
2.0277 -4.6946 0.47709 1 8934
2.0285 -3.976 0.52198 0 8798
2.0304 -2.4921 -0.14991 0 8047
2.0428 -5.7053 0 0 9044
2.0455 4.1515 -1.2116 0 20004
2.0512 -3.624 0.68415 1 8705
2.0545 -4.2405 0 0 8840
2.0929 -3.8805 0.72435 2 8749
2.0962 -9.1673 1.0997 0 9280
2.0973 4.7305 0.12014 0 19862
2.1004 6.6943 -0.16289 0 19475
2.1011 3.8093 -1.47 0 20189
2.1044 3.8421 -1.4802 0 20174
2.1172 -6.8439 1.3498 0 9110
2.1291 -3.9476 0.20916 0 8745
2.1371 -5.1952 0.5241 2 8975
2.1462 6.034 0.74894 0 19586
2.1779 4.5213 0.23404 0 19972
2.1873 -5.3651 -0.40515 2 8977
2.1926 7.7744 -1.3271 0 19420
2.1948 4.4862 0.46595 0 19992
2.1964 -4.0418 -0.42916 2 8735
2.2003 4.0984 0.76424 0 20138
2.221 8.2427 -0.3981 0 19398
2.2544 -8.2068 0.39689 0 9168
2.2968 -5.9741 -0.44756 0 9014
2.3062 4.0961 -0.10914 0 20229
2.3104 -9.1174 1.3219 0 9217
2.3517 -8.7522 0.8455 0 9183
2.3717 4.8136 -1.1406 0 20005
2.3913 -4.4956 0 0 8758
2.4026 4.207 -0.22593 0 20261
2.4175 -7.5751 0.74184 1 9099
2.4252 -4.8963 -0.25481 0 8821
2.4401 -8.8829 1.7356 0 9170
2.4648 5.3935 0 0 19897
2.4822 9.543 1.8578 0 19385
2.4884 7.5462 0.18448 0 19512
2.5127 8.178 -1.4056 1 19459
2.5353 -5.275 -0.54602 1 8843
2.5428 -6.7903 1.1913 0 9024
2.5462 7.579 0.74592 0 19532
2.5468 4.0411 0.1109 1 20511
2.5595 -2.7151 0.5244 0 7841
2.5747 -6.4732 0.32487 0 8996
2.5783 -9.386 0.90811 0 9169
2.5788 -4.8175 0.76796 2 8753
2.5827 -8.0057 1.5849 0 9094
2.5993 -2.8726 0.63649 0 7888
2.5996 -5.2094 0.95651 0 8818
2.6114 -2.1665 0.078777 0 7671
2.6346 -5.6039 0.14377 0 8861
2.6406 -3.9896 -0.33455 2 8477
2.645 -2.9739 0.74987 1 7913
2.653 -3.1074 0.57423 0 7969
2.6572 -4.89 0.78215 0 8740
2.6648 3.7553 -0.10691 2 20888
2.6753 -4.0145 -0.33734 0 8462
2.6769 7.3909 1.1048 0 19603
2.6889 -7.9441 0.39111 0 9067
2.7019 3.236 0.3933 0 21478
2.7147 6.3739 0.97366 0 19813
2.7288 1.4607 0.071861 0 1643
2.7316 2.9799 0.37714 1 21818
2.7346 1.9861 0.23633 1 615
2.7363 3.3574 0.40408 0 21385
2.7414 3.6994 -1.3203 0 21039
2.7435 1.4587 0.072139 0 1667
2.7625 2.0189 0.23926 0 597
2.7719 9.0214 1.1037 0 19464
2.7784 -7.5554 1.3226 0 9035
2.7798 3.7308 -1.3341 0 21062
2.7965 -6.9671 0.70041 0 8990
2.816 2.626 0.63259 0 22306
2.823 2.6473 0.63584 0 22289
2.8418 -2.5178 0.26549 0 7726
2.8519 3.3568 0.61904 0 21549
2.8592 1.5849 -0.075899 1 1513
2.8644 7.9824 1.5979 0 19595
2.868 5.8208 1.0661 0 20006
2.8879 6.1763 -0.1583 0 19932
2.8936 8.2076 0.60856 0 19577
2.8951 6.4841 -1.3379 0 19872
2.9086 1.9494 0.24485 1 865
2.9171 -3.1119 0.19891 0 7848
2.9193 2.1728 0.5979 0 548
2.9222 6.0664 -1.4313 0 19974
2.9267 3.6545 0 0 21314
2.931 1.9518 0.24624 0 887
2.9349 3.3138 0.72727 0 21698
2.9366 2.5953 0.73839 0 54
2.9539 3.7564 0.11095 0 21245
2.9592 2.6319 0.74616 0 35
2.9741 -1.652 0.641 1 6879
2.9868 7.1297 1.4564 0 19796
2.9943 -0.73271 0.50646 0 5880
2.9971 -2.8292 0.1922 0 7758
3.0001 2.288 -0.087598 0 474
3.016 -5.7082 0.75498 0 8764
3.0226 -3.9879 0.58517 1 8191
3.0227 -4.0127 0.58749 0 8204
3.0456 1.4867 0.078685 0 1979
3.0635 -4.02 0.83038 1 8179
3.0641 2.8255 0 0 22334
3.0706 2.258 0.35559 0 580
3.0836 -3.0313 0.71041 0 7779
3.1091 -1.3025 0.47375 0 6278
3.1247 -3.5133 0.66079 2 7912
3.1249 1.3711 0.47959 0 2326
3.133 7.1847 1.4768 0 19843
3.1358 -7.884 1.5986 0 8999
3.1377 -8.9299 1.5551 0 9052
3.1579 1.3417 0.079659 0 2414
3.1649 -2.4763 0.37491 0 7593
3.1724 9.3564 1.6232 0 19543
3.1758 -5.5385 0.44644 0 8689
3.2211 -1.9141 0.26201 0 7040
3.2433 -0.15692 0.075389 0 5391
3.2563 -1.1788 0.080402 2 6078
3.2609 -9.1932 1.8378 1 9050
3.2621 0.69577 0.31119 0 3847
3.2742 7.112 -0.36512 0 19909
3.2798 7.0143 0.90551 0 19934
3.2856 -4.6646 1.075 2 8346
3.3047 3.6052 -0.22807 1 21811
3.3139 -1.0921 0.57326 0 6005
3.3145 -1.2116 0.081934 0 6088
3.3202 -6.8013 0.88507 0 8836
3.3235 -4.3849 0.51332 0 8189
3.3281 -5.7598 0.15444 0 8681
3.3338 8.2265 0.41394 0 19736
3.3434 -3.1026 0.64103 0 7754
3.3489 8.6161 0 0 19686
3.3503 0.26662 0.63322 0 4722
3.3506 1.7696 0.62254 1 1707
3.3613 7.4653 -0.3818 0 19879
3.3625 0.062803 0.078081 0 5067
3.3677 -3.832 0.35673 1 7925
3.3789 5.9601 0.47909 0 20252
3.3871 -2.9309 0.84392 0 7712
3.3883 -6.3298 1.3527 0 8755
3.3902 -0.055625 0.47653 0 5250
3.41 -1.0804 -0.083048 0 5981
3.4236 -6.7106 1.4194 0 8800
3.4313 2.4009 0.68804 0 730
3.435 -3.6644 0.11661 0 7847
3.4404 -1.2339 0.084859 0 6070
3.4506 8.1687 0.20588 0 19804
3.4628 2.4085 0 0 742
3.4659 -0.59556 0.32809 0 5746
3.4672 2.2379 0.67799 0 994
3.4919 3.238 0.78239 0 22324
3.4932 0.71324 0.67173 1 3911
3.5112 -3.0912 0.65745 0 7720
3.5234 -7.664 1.1855 0 8884
3.5373 6.9244 1.0928 0 20056
3.5408 0.99461 -0.51689 1 3404
3.5434 -0.18136 0 0 5400
3.5477 -8.0209 1.4409 0 8915
3.5664 0.42021 0.083373 2 4465
3.5981 -2.0816 0.78319 0 6978
3.5981 0.75627 0.60406 1 3870
3.6045 2.1368 0.78949 1 1283
3.615 -4.7437 0.55642 0 8173
3.6208 0.43688 0.084673 0 4445
3.6335 0.58979 -0.085462 0 4178
3.6342 1.5689 0.27679 0 2368
3.6512 -2.436 -1.3696 0 7307
3.6873 -0.22165 0.17227 0 5430
3.6906 2.7801 0.54033 0 514
3.692 1.272 -0.090661 0 2973
3.7079 -1.7591 0.47993 0 6524
3.7203 -1.7793 0.48226 0 6541
3.7289 -7.2649 0 0 8791
3.7299 -2.1422 0.20059 0 6954
3.7597 -0.98913 0.73246 0 5907
3.7794 2.0231 -0.099528 0 1640
3.8266 7.8214 1.4306 2 19994
3.8542 -7.8953 -0.81968 0 8832
3.8673 0.89568 -0.18512 2 3723
3.875 2.8496 0 0 575
3.9057 -8.4335 0 0 8874
3.9079 1.7686 0.29995 0 2226
3.9139 -6.1389 1.0232 0 8566
3.9186 -1.4185 0.19435 0 6080
3.945 -0.36319 -0.18475 2 5532
3.9514 6.8801 1.1151 0 20283
3.9535 1.453 -1.4232 0 2809
3.9596 -0.27133 -0.092147 1 5461
3.9623 2.1666 0 2 1565
3.975 2.9769 0.58075 0 530
3.9784 -0.9735 0.57562 0 5878
3.9788 8.6426 1.3372 0 19913
3.9878 -0.25159 0.75283 0 5447
4.0088 -7.9776 0.62432 0 8810
4.0105 -2.6424 -0.22397 0 7274
4.0272 3.1092 0.83589 2 451
4.0595 1.5461 0 0 2715
4.0625 -1.4179 0.099899 2 6045
4.0983 4.343 0.41756 0 21920
4.1019 1.1399 0.19854 0 3438
4.1116 2.7214 -0.11448 0 903
4.113 5.9378 1.1867 2 20814
4.1212 4.1443 0.8214 2 22085
4.1406 -4.2164 -0.41324 1 7801
4.1527 4.0102 0.53859 0 22200
4.164 -4.3391 0.56107 1 7824
4.1792 2.6277 0.11461 0 1073
4.1855 -4.3875 0.56571 0 7830
4.2536 6.1407 0.17343 0 20805
4.2564 2.7631 0.11782 0 964
4.2756 -5.9195 1.1997 1 8295
4.3018 0.83931 0.61598 0 3966
4.3032 5.7753 0.33587 0 21059
4.3133 2.8908 0.85308 1 870
4.3417 7.7115 1.0349 0 20233
4.3592 2.9392 0.86378 0 849
4.3663 3.6172 0.93154 0 240
4.3729 3.7772 1.0887 0 122
4.3825 0.77591 0.41523 0 4083
4.4386 5.9181 0.86509 0 21088
4.4457 -7.159 1.3845 0 8599
4.4676 -4.9933 1.1008 0 7905
4.5266 4.8508 0.30941 0 21875
4.573 5.9189 1.2289 1 21186
4.58 4.0265 1.0019 0 70
4.5814 -4.7492 0.30773 0 7818
4.5877 -2.8523 0.25192 0 7150
4.5983 0.33929 -0.10705 0 4752
4.6209 5.1591 0.97338 0 21738
4.6296 -6.6959 0.95197 0 8379
4.6412 2.6259 -0.12381 1 1438
4.6429 6.3811 0.36801 0 20975
4.7183 4.9116 1.119 1 21981
4.7237 5.3336 1.3424 0 21700
4.7264 -0.40769 0 1 5518
4.7283 -6.2045 0.91225 0 8175
4.733 3.2117 0.80386 1 828
4.7353 -6.5996 0.94988 0 8302
4.7389 5.4171 1.3561 0 21661
4.7465 -0.5215 0.67109 0 5585
4.7612 -0.45342 -0.11104 0 5542
4.7669 3.4418 0.27419 0 631
4.7727 -5.6577 0.51759 0 7987
4.7745 4.3232 0.30037 0 22390
4.7761 0.97519 0.11318 0 3902
4.7829 4.305 0.30009 0 22407
4.7888 -0.78076 0 0 5725
4.803 -0.7676 0 0 5718
4.8106 0.95253 0 0 3941
4.8283 0.82532 0.80477 0 4127
4.8322 -4.7254 0.63055 0 7774
4.834 -7.3984 0.20518 0 8509
4.8487 1.8302 0.12032 0 2738
4.8605 1.7241 0.97168 0 2916
4.8612 -1.1895 0.11619 0 5876
4.8799 7.0923 0.602 0 20788
4.8883 2.5642 0.25742 0 1725
4.9252 8.4555 1.1443 0 20315
4.9843 -2.1569 0.63511 0 6337
4.9913 -6.3931 0.7567 0 8125
4.9953 -1.0099 0.9602 0 5801
5.0037 -1.4093 0.24242 0 5931
5.0149 -4.9299 1.3249 0 7780
5.0766 7.1067 0.20277 0 20910
5.0829 0.99169 0.60561 0 3964
5.0913 4.4258 0.7889 0 22513
5.1042 -0.61949 0.47969 0 5619
5.1062 3.358 0.57017 0 931
5.1086 3.2973 0.14117 0 985
5.1086 4.655 1.1355 1 22377
5.1121 -0.94102 0 1 5770
5.1368 6.4532 0 0 21291
5.1373 7.3314 0.62599 0 20849
5.1395 -4.0459 1.2324 0 7604
5.1579 5.0669 0.50559 0 22152
5.1581 -5.6667 0.7149 0 7878
5.162 0.99032 0.61467 0 3983
5.1769 1.3891 0 0 3492
5.184 -3.4351 0.43486 0 7293
5.1916 -5.636 1.0769 0 7866
5.1986 7.3695 1.0546 0 20873
5.2203 2.1826 0.39566 0 2463
5.2459 1.6069 -0.12738 0 3243
5.2465 4.2713 1.1115 2 291
5.2711 -0.87641 0.75098 0 5731
5.2728 4.4197 0.64188 0 201
5.2773 -4.2023 0.7889 0 7620
5.3241 -2.5646 0.41324 0 6557
5.3244 4.7639 0.4996 0 11
5.3444 7.0846 -0.62055 0 21098
5.3468 -4.8737 0.84604 0 7750
5.3592 5.7773 0.92154 0 21859
5.3756 4.9569 0.8551 0 22341
5.3932 6.691 0 0 21338
5.4033 -5.8988 0.93548 0 7871
5.4241 5.7138 0.92131 0 21939
5.4309 -0.24662 0.12622 0 5379
5.4604 -0.66272 -0.12771 0 5618
5.4646 0.62745 0.12771 0 4484
5.4996 -0.37686 0.38547 0 5462
5.51 -0.68534 -0.12891 0 5626
5.5122 -0.4435 0 0 5500
5.5396 -0.05898 0.51685 0 5217
5.5795 4.9677 1.4075 0 22449
5.6068 -6.2314 1.5793 0 7896
5.6481 0.83203 0.66763 0 4280
5.6914 -4.7825 0.1726 0 7683
5.6981 4.5569 1.1987 1 349
5.7115 -5.1174 0.71545 0 7737
5.7203 -1.8852 0.70434 0 6003
5.7393 6.0121 0.19297 0 21953
5.7403 -0.71398 0.67646 0 5627
5.7467 5.9157 1.355 1 22018
5.747 4.6489 0.68963 0 307
5.7504 3.6156 0.31677 0 1075
5.8004 1.3594 0.27782 0 3709
5.8034 -3.632 1.1248 0 7172
5.8155 -5.7872 0.76543 0 7786
5.8237 -0.062004 0 0 5215
5.8254 4.4426 0.85673 0 481
5.8546 5.3987 0.1849 0 22336
5.8609 3.7094 0.16104 0 1051
5.8784 -2.0886 1.0249 0 6063
5.8885 -5.8252 1.3608 0 7783
5.8885 6.3857 0.81039 0 21837
5.8926 1.1839 -0.13954 0 3920
5.8942 5.2479 0.18323 1 22440
5.8948 0.93787 1.1246 0 4210
5.9139 -0.64977 -0.83615 1 5580
5.9143 4.7586 0.70821 0 327
5.945 -2.8013 1.0797 0 6510
5.9501 -0.20154 0.83671 0 5334
5.994 -6.0002 0.79125 1 7790
6.0228 4.9896 1.0992 0 238
6.0419 -0.61051 0.71015 0 5559
6.0648 -4.4128 1.0541 2 7472
6.0819 -1.4882 0.73221 0 5877
6.0981 -4.3033 0.69632 0 7412
6.1369 4.8798 0.91689 0 367
6.1567 0.095644 1.0116 0 5087
6.1705 6.0617 1.6297 0 22158
6.1778 0.58071 0.87206 0 4619
6.1984 3.8717 1.0271 0 1101
6.2193 7.1093 0.44049 0 21652
6.2547 -1.8219 1.0703 0 5945
6.272 2.0597 1.0846 0 3099
6.283 2.1255 0.30931 0 3025
6.2903 -7.0304 1.1032 0 7903
6.2998 0.81485 0.14748 0 4388
6.2999 5.6091 1.1855 0 22446
6.3329 -2.7628 1.1352 0 6354
6.3479 -2.7024 0.48244 0 6304
6.3945 5.5586 1.1908 0 22515
6.41 -3.6814 0.5169 0 6956
6.4193 -2.2204 0.63371 1 6037
6.4621 1.4967 0.61885 0 3731
6.4718 -3.6945 1.2243 0 6943
6.4921 1.4821 0.62126 0 3751
6.513 2.6553 0.65619 1 2538
6.5178 6.5543 1.7415 0 22089
6.5344 -0.31615 0 0 5390
6.5395 2.7342 0.16456 0 2460
6.5556 -2.2228 0.16071 0 6021
6.5636 2.6545 -0.16438 0 2555
6.5834 -0.43265 1.0839 0 5454
6.6374 5.0894 0 0 460
6.6385 1.1969 1.1083 0 4065
6.6396 5.0635 0 0 475
6.6437 -5.4494 0.80166 0 7657
6.6568 5.9602 0.83361 0 22425
6.6594 1.6641 -0.15937 0 3612
6.6638 -5.9331 0.41608 0 7731
6.6774 -2.2433 0.16354 0 6015
6.6945 2.3957 0.33158 0 2882
6.6971 -1.1315 0 0 5739
6.7066 0.72976 -0.15663 0 4519
6.7118 2.4243 0.33279 0 2858
6.7284 -5.1368 1.5949 0 7559
6.7403 5.7203 1.6656 0 172
6.7439 0.10477 0.31453 0 5081
6.7824 -6.3291 1.0848 0 7755
6.861 0.48578 0.6417 1 4778
6.8823 -5.6814 1.4662 0 7665
6.8849 -1.4321 1.3249 0 5811
6.9614 -1.0106 0.32804 0 5678
6.9739 -1.6833 0.33456 0 5871
7.0257 -2.6128 0.34956 0 6112
7.0288 -1.9797 0.68127 0 5932
7.0511 1.5245 -0.16749 0 3822
7.0822 -0.1768 0.99564 0 5293
7.0959 -2.1573 1.2185 0 5963
7.1333 -2.7468 0.8939 0 6155
7.1672 -5.5035 1.0567 0 7566
7.1928 1.9529 0.87159 0 3476
7.1978 -1.7839 1.3972 0 5886
7.2135 0.57405 0.50601 0 4715
7.2269 -1.1123 1.2013 0 5703
7.2934 5.1031 1.6771 2 732
7.3055 3.0275 0 0 2483
7.3097 5.2121 1.475 0 673
7.3224 -0.16233 0.68331 0 5275
7.3232 6.4722 0.22691 0 46
7.3269 -1.171 0.51885 0 5719
7.3275 6.4012 0.90774 0 84
7.3419 -1.6613 1.4183 2 5842
7.3488 1.7223 -0.17524 1 3705
7.3667 2.3978 0.54173 0 3115
7.3969 -0.12136 0.69019 1 5247
7.4326 -2.2851 0.18053 0 5966
7.438 0.28964 0.69446 0 4959
7.4784 1.9605 0.54061 0 3536
7.5297 6.238 0 0 231
7.5364 2.5965 1.3096 0 2984
7.5455 -1.7517 1.2726 0 5854
7.5683 1.9601 0.72939 0 3558
7.5787 -1.7594 0.72586 0 5852
7.6018 1.5978 0.18035 0 3863
7.6273 1.2381 0.54033 0 4183
7.6763 6.1389 1.8519 0 351
7.7359 -2.1337 1.512 1 5924
7.7585 -4.3379 1.4604 0 6894
7.7634 3.4581 0.39633 0 2271
7.764 1.3998 1.4864 1 4067
7.7682 -0.80551 -0.18132 0 5567
7.7893 -1.7154 0 0 5832
7.8374 -0.19565 -0.18202 0 5289
7.9265 0.74509 0.74276 0 4616
7.9489 1.2647 1.1312 0 4206
7.9489 4.0222 1.4636 0 1862
7.9546 1.3597 1.5205 0 4129
7.9662 2.5669 0.58526 0 3136
7.9911 -0.31677 1.124 0 5359
7.992 -3.4584 0.81243 0 6336
8.026 0.26345 1.3193 0 4996
8.1318 2.6469 0.19855 0 3112
8.1864 -5.3939 1.3778 0 7280
8.1955 -1.2614 0 0 5702
8.2013 4.5161 1.5382 0 1551
8.2262 -1.5856 0.78159 0 5786
8.2806 -3.027 0.61651 0 6090
8.2846 -5.4897 1.3967 0 7296
8.3112 4.8295 1.1241 0 1347
8.3326 -4.8205 0.67315 0 6972
8.3531 1.1546 0.98612 1 4336
8.3661 -2.6234 1.6519 0 5978
8.3993 1.9685 0.60325 0 3711
8.4763 -4.083 1.7726 1 6561
8.4996 4.9053 1.3792 0 1372
8.5106 -1.539 0.40332 0 5763
8.5143 0.57896 0 0 4795
8.5385 0.15948 0 0 5066
8.6089 0.93674 0.20105 0 4523
8.7255 1.992 1.2578 0 3754
8.7478 2.3751 1.4892 0 3479
8.7588 -4.6336 0.92446 0 6772
8.7769 1.6045 1.4659 0 4046
8.7945 -2.8983 0.8639 0 6002
8.7994 -0.067576 -0.2043 0 5200
8.8478 3.6993 0 0 2458
8.9955 -0.96134 1.4863 0 5577
9.0498 -3.1302 -1.3458 2 6034
9.064 0.6688 -1.2773 0 4744
9.0671 1.7953 -1.299 0 3931
9.0688 -3.2524 -1.1267 1 6068
9.0714 0.66935 -1.4944 0 4743
9.0724 1.0947 -1.2843 0 4435
9.0774 1.0696 -1.2846 0 4455
9.0859 3.37 -1.3619 1 2775
9.0884 -0.97127 -1.2846 1 5571
9.0889 -3.2902 -1.1304 2 6076
9.0929 3.3419 1.8252 0 2820
9.0993 -0.94353 -1.2857 1 5563
9.1087 0.72487 1.5012 0 4720
9.3134 0.30571 -1.3096 1 4982
9.3936 1.3285 1.7875 1 4319
9.4509 -0.40107 0.21962 0 5367
9.4647 1.3942 -1.1188 2 4267
9.5673 0.038407 0.22213 0 5139
9.6659 0.038802 1.8212 0 5146
9.7289 1.8383 0.92372 0 4002
-14.98 0.5519 -1.7529 1 11999
-14.693 -2.4666 -1.7423 0 11756
-13.521 1.445 -0.31571 0 12100
-13.509 2.8148 -0.6435 0 12256
-13.179 3.5931 -0.31715 0 12352
-13.103 6.2245 0.33679 1 12655
-12.981 -2.0654 2.4766 0 11763
-12.786 3.7267 2.5092 0 12374
-12.487 4.0767 2.1581 0 12429
-12.051 0.056785 0.27978 1 11960
-12.02 -8.6276 2.4308 0 11688
-11.941 -1.725 1.6957 0 11771
-11.725 7.7814 2.6514 0 13093
-11.636 9.3254 2.8095 0 13511
-11.482 1.5994 0.26915 0 12142
-11.464 5.6509 2.4081 0 12690
-11.306 -1.1644 0 0 11815
-11.148 3.2853 1.9095 0 12379
-11.031 3.8522 1.3664 0 12459
-10.994 0.21494 2.0719 0 11979
-10.914 -1.0259 0.51121 1 11826
-10.91 4.8369 -1.9607 0 12603
-10.818 3.0185 1.5785 0 12359
-10.8 3.2835 -0.78936 0 12390
-10.776 7.7549 2.5014 0 13260
-10.485 -0.22328 1.4738 0 11923
-10.379 0.38239 0 0 12001
-10.364 3.9931 1.8248 0 12520
-10.272 2.6087 0.98874 0 12325
-10.256 -1.755 0.24158 0 11754
-10.146 6.9054 -0.28494 0 13134
-10.145 -9.0798 2.5651 0 11589
-9.982 -0.93831 0 0 11825
-9.9805 5.8954 0.81057 0 12909
-9.9549 5.1623 -0.52295 0 12737
-9.952 -6.8808 1.7004 0 11702
-9.8173 4.9806 1.8086 0 12718
-9.7619 4.8842 1.2765 0 12702
-9.6493 -10.464 2.0005 0 11480
-9.4279 6.0572 0 0 13035
-9.4149 3.5971 1.8989 0 12513
-9.17 -8.2076 -0.57391 0 11587
-9.1287 -7.2587 0.27078 0 11652
-9.0762 5.6847 0.99915 0 12994
-9.0612 -7.5522 1.938 0 11628
-8.8658 -9.1232 2.0901 0 11526
-8.8163 4.5076 -1.8656 0 12727
-8.6612 -6.1347 1.7438 0 11694
-8.6591 -8.9573 0.58099 1 11523
-8.3966 -5.7342 0.94861 0 11706
-8.2371 9.8865 -1.5048 1 14505
-8.2198 5.9153 0.47226 1 13256
-8.024 -10.255 1.2148 0 11362
-8.0099 11.098 2.2486 0 14951
-7.9469 3.0108 -1.8063 0 12506
-7.8013 7.1586 0.98781 0 13825
-7.5642 9.6365 0.5713 1 14681
-7.4935 7.2922 0 0 13953
-7.3517 3.0062 -1.6882 0 12555
-7.3141 -9.2912 1.1032 0 11367
-7.3085 8.2666 -1.8128 0 14352
-7.2966 -6.8783 0.70119 0 11557
-7.2317 -7.7442 1.2391 0 11494
-7.2148 8.7647 2.1389 0 14544
-7.0923 -9.0647 0.53673 1 11361
-6.5964 -8.3345 2.0026 0 11373
-6.5445 -8.1689 0.24302 0 11381
-6.4377 -9.7115 1.6375 0 11269
-6.3633 2.1601 -1.5922 0 12445
-6.2227 8.1655 1.6867 0 14785
-6.1962 -12.576 2.6414 1 10948
-6.03 3.1927 -1.6167 0 12760
-6.0227 13.222 1.3555 0 16223
-5.9668 -12.11 0.31344 1 10942
-5.9434 6.2696 -1.8363 2 14176
-5.8313 12.696 1.6338 0 16204
-5.8237 10.73 1.4277 0 15717
-5.8139 8.4625 0.23837 0 15084
-5.6497 11.594 1.8126 1 16032
-5.4896 -8.4436 -0.23383 0 11260
-5.3547 3.0369 -1.7652 1 12858
-5.3193 -13.807 0.34352 1 10667
-5.1643 2.1826 -1.8945 0 12570
-5.0508 13.625 1.6993 0 16722
-4.9237 -13.974 0.69093 1 10569
-4.8475 10.975 -1.6862 0 16290
-4.4646 7.1503 -1.7918 0 15329
-4.4416 -9.573 -0.24501 0 10877
-4.377 -11.77 2.3659 0 10629
-4.3208 9.1284 0.70621 1 16112
-4.2994 14.204 -1.7355 0 17148
-4.2316 -12.977 1.9184 1 10494
-4.1549 5.7928 -1.5153 0 14968
-4.0887 6.342 -1.9754 0 15243
-3.8701 14.423 1.0443 1 17399
-3.8412 -14.099 2.7532 0 10324
-3.773 10.859 1.3443 0 16866
-3.7346 10.546 -1.8381 0 16811
-3.7328 14.423 -1.7423 0 17453
-3.4502 -9.4382 -0.46863 0 10600
-3.3898 -11.645 0.8481 1 10382
-3.3592 -11.297 0 0 10400
-3.3541 -10.593 1.8255 0 10468
-3.2897 6.3221 -1.5148 0 15843
-3.2632 10.043 1.2349 2 17019
-3.1258 14.065 -1.6849 1 17689
-2.926 7.4281 -1.697 0 16596
-2.8183 -10.72 0.51689 1 10296
-2.7717 -14.14 1.3443 0 10130
-2.7493 13.288 1.2659 1 17805
-2.5765 2.324 -1.9496 1 13779
-2.528 1.5833 -1.4983 0 12987
-2.5177 -12.845 1.8396 0 10131
-2.3279 -10.027 1.2038 0 10215
-2.2627 12.377 1.4714 0 17966
-2.0337 12.351 2.3585 0 18074
-1.9397 -11.48 2.1937 0 10065
-1.92 -10.441 0.74235 0 10099
-1.8664 -10.149 0.23958 0 10098
-1.7794 -11.808 0.55686 1 10030
-1.5233 10.353 0.48801 1 18159
-1.4617 9.5632 -1.5894 0 18124
-1.3941 -14.269 2.0149 0 9940
-1.3824 -10.852 1.7973 0 9991
-1.3284 -12.11 2.0015 0 9963
-0.85632 -10.69 0 0 9910
-0.83564 -12.682 1.7861 0 9880
-0.79171 -12.015 0.56152 1 9878
-0.56288 10.599 1.7438 0 18584
-0.37817 11.645 2.1952 0 18662
-0.28893 1.7229 -0.5903 1 18049
-0.22512 -10.155 0.23582 0 9784
-0.16569 11.038 -0.25629 0 18722
-0.041174 -2.1444 -0.14998 2 9776
-0.026348 6.8614 -1.9675 0 18765
0.039093 7.9992 -1.5071 0 18790
0.090104 -12.906 -0.29965 0 9723
0.16094 8.2324 -1.951 0 18841
0.49129 -11.771 -0.5494 0 9658
0.6001 12.314 -0.57493 0 18919
0.77693 11.728 1.3745 0 18959
1.0328 -12.097 0.56617 1 9571
1.064 -13.341 0.62412 1 9582
1.0753 -12.595 0.29348 1 9570
1.0797 -13.537 0 0 9581
1.2079 -10.011 1.1792 0 9502
1.2924 11.45 0.26753 0 19066
1.2968 -10.471 1.7334 0 9495
1.3284 -10.471 0.24506 0 9489
1.3911 9.0274 -1.9415 2 19159
1.5787 2.5235 -1.0058 1 20493
1.6572 3.0044 -1.8244 0 20182
1.925 3.6634 -1.5063 0 20100
1.9406 -10.096 1.4449 0 9354
1.9483 -11.186 1.0593 0 9394
1.9572 10.622 1.7746 0 19224
1.9965 0.73379 -0.29894 0 2798
2.1499 5.9912 -1.9862 0 19594
2.2144 11.112 0.26307 0 19261
2.3428 -13.663 2.6118 0 9401
2.3661 9.9012 1.4307 0 19342
2.3761 6.7398 -1.519 0 19578
2.4164 11.447 1.6442 0 19285
2.418 11.605 0 0 19275
2.6246 11.898 2.2955 0 19305
2.6982 -10.042 1.4613 0 9185
2.7893 3.565 -1.5295 0 21223
2.7955 -12.061 1.7399 0 9271
2.8654 -10.915 0.78909 0 9199
2.8811 -10.722 2.0918 1 9186
2.9127 11.32 2.2022 0 19378
2.973 9.5747 1.1724 0 19469
3.1407 6.1933 -1.9912 0 20043
3.2361 -10.239 1.7642 0 9103
3.2538 0.3926 -1.5513 0 4438
3.2599 -12.132 0.29167 1 9182
3.2628 -9.4652 1.6449 0 9057
3.3556 7.6299 -1.975 0 19852
3.4237 10.493 2.0796 0 19504
3.4941 -12.574 2.4588 0 9164
3.5372 6.5885 -1.9576 0 20137
3.5557 -9.9308 0.9841 0 9047
3.5595 -13.101 0 0 9175
3.6855 -9.8417 1.98 0 9025
3.8591 13.831 2.3592 0 19418
4.0248 11.416 2.2807 0 19579
4.088 10.164 1.2811 0 19728
4.1595 -10.203 0 0 8978
4.4377 11.418 1.7216 0 19688
4.45 -11.991 2.1014 0 9031
4.4666 -10.956 1.9438 0 8980
4.5037 -10.343 1.0525 1 8926
4.5359 -13.804 2.7377 0 9082
4.6729 -12.93 1.2827 0 9042
4.8653 9.4507 -1.7464 2 20058
4.9674 9.0058 1.4455 0 20192
5.0907 -7.4515 -1.9182 0 8413
5.1455 -9.1542 1.7253 0 8710
5.2321 9.4857 1.0107 0 20190
5.287 10.976 -0.28285 0 19969
5.3188 -12.512 2.2337 0 8949
5.4612 -8.4094 0.4676 1 8525
5.526 10.156 1.625 0 20162
5.5499 -11.714 0.30095 1 8855
5.5775 -3.4233 -1.8765 0 7119
5.5864 -3.9906 -1.9686 0 7438
5.6177 -10.782 2.2907 0 8779
5.6872 12.537 -0.64201 0 19887
6.2548 -10.825 2.3555 0 8686
6.2836 -8.1388 1.6893 0 8155
6.4673 1.222 -1.5595 0 4004
6.657 11.057 0.29965 1 20389
6.6716 8.23 0.49406 1 21361
6.7068 -7.7208 0.71514 0 7940
6.7223 -8.1085 1.9845 0 8022
6.8208 -7.6233 0.23749 0 7902
6.9284 -9.3632 1.9137 0 8243
7.0333 7.4089 0.95307 0 21937
7.1405 7.138 1.9023 0 22107
7.4208 -7.0495 1.4385 0 7762
7.4535 -8.2374 0.25792 0 7885
7.79 -9.6785 -1.1591 0 8064
7.9253 -7.7502 2.0885 0 7775
7.9307 7.9752 1.8478 0 22087
8.017 -9.2291 -1.1405 0 7937
8.0835 -8.9336 1.4089 0 7886
8.107 9.4319 2.3433 0 21600
8.2301 -10.044 -1.2115 0 8036
8.6763 7.5795 1.6191 0 87
8.841 7.9103 2.2352 0 17
8.9727 -5.0167 -1.2022 2 6882
9.0212 -3.416 -1.8175 2 6136
9.0829 -5.503 -0.99079 2 7080
9.2947 3.7893 1.6491 0 2544
9.3682 8.9963 1.8254 0 22219
9.5396 9.1067 0.3062 1 22230
9.5416 6.2748 0 0 926
9.6274 -5.1298 1.5331 2 6788
9.6772 -8.6707 2.4481 0 7738
9.7247 7.3254 -1.4238 2 504
9.7591 -10.594 0.33442 1 7864
9.8471 3.8155 1.735 2 2680
9.9809 -6.5363 1.6768 2 7266
10.003 -8.5014 -0.6122 0 7699
