VERSION .7
FIELDS x y z intensity index
SIZE 8 8 8 8 8
TYPE F F F F F
COUNT 1 1 1 1 1
WIDTH 1539
HEIGHT 1
VIEWPOINT 0 0 0 1 0 0 0
POINTS 1539
DATA ascii
-9.0455 3.0811 1.8004 0 11431
-9.0324 -0.64745 -0.21024 0 10696
-8.9279 2.0612 1.7264 1 11166
-8.8849 3.3166 0.44226 0 11521
-8.7887 2.3516 1.7141 0 11247
-8.7457 4.5082 0.91796 0 12068
-8.7399 4.3157 1.6014 0 11974
-8.7007 1.3298 0.82116 0 11027
-8.6048 2.3847 1.0442 0 11269
-8.4834 -1.4806 0.19994 0 10610
-8.4175 -1.243 0.3968 0 10628
-8.3029 1.071 1.1766 0 10994
-8.2733 5.0204 -0.22468 0 12462
-8.2269 1.3074 -1.1707 0 11033
-8.2084 1.085 -0.19223 0 10998
-8.1479 5.2068 0.45093 0 12614
-8.1408 1.3141 0.76933 0 11043
-8.0841 5.2319 0.22357 0 12653
-7.9945 -0.3169 1.3145 0 10747
-7.9917 1.126 1.1343 0 11012
-7.9831 2.2124 0.77286 0 11268
-7.9548 2.5311 0.19381 0 11369
-7.9356 4.2372 0.62906 0 12149
-7.9272 -5.6754 0.45465 0 10549
-7.9105 0.76448 -0.37062 0 10948
-7.8982 -6.0103 1.6306 0 10530
-7.8815 -0.40478 -0.18323 0 10728
-7.8712 2.3271 1.3485 0 11314
-7.8695 -1.4898 1.1256 0 10608
-7.8161 -0.856 -0.54982 0 10659
-7.7724 -1.1477 1.2908 0 10629
-7.7 1.3369 1.284 0 11068
-7.6723 0.45313 0.35841 0 10900
-7.637 -0.43633 1.2568 0 10719
-7.5655 0.53434 0.88693 0 10916
-7.5579 4.6188 0.82637 0 12488
-7.5149 0.53076 0.5268 0 10915
-7.5068 -5.474 1.0865 0 10543
-7.4894 2.4291 1.4834 0 11390
-7.4612 1.3613 1.2461 0 11082
-7.4465 4.033 1.3913 0 12188
-7.4385 1.6028 -1.0694 0 11130
-7.4319 4.1349 0.39661 0 12249
-7.4283 -5.8918 1.7863 0 10508
-7.4145 0.4379 0.86857 0 10901
-7.395 0.76029 0 0 10958
-7.373 1.6345 0.17533 0 11146
-7.3694 3.7436 -0.19191 0 12031
-7.3674 1.566 0 0 11129
-7.3615 -0.82833 0 0 10657
-7.309 -6.1178 0.22129 0 10483
-7.291 1.7061 -0.17385 0 11172
-7.2653 -0.85991 0.16986 0 10648
-7.2491 4.5438 1.6119 0 12566
-7.2459 1.7155 1.2234 0 11179
-7.2236 1.148 0.68238 0 11039
-7.2172 5.8548 1.5269 1 13568
-7.2169 1.1469 1.3768 0 11040
-7.205 2.3369 1.2444 0 11388
-7.1811 1.4193 1.0288 0 11106
-7.1776 0.047604 1.3524 0 10815
-7.1521 -0.82373 1.3564 0 10655
-7.101 -0.054532 -0.66251 1 10790
-7.0772 2.0494 0.17106 0 11300
-7.072 0.80825 1.0004 0 10973
-7.0559 2.0006 0 0 11283
-7.0325 -0.85352 -0.16447 0 10645
-7.027 -1.3736 1.349 0 10607
-7.0182 -6.9113 1.6183 0 10415
-6.9978 2.2481 0.17065 0 11378
-6.9415 2.754 1.2269 0 11593
-6.9109 5.6384 1.043 0 13592
-6.9105 2.1088 1.187 0 11338
-6.8444 0.84282 0.16011 1 10984
-6.7908 1.5254 0 0 11151
-6.7817 0.9966 0.31966 0 11020
-6.7742 4.003 1.2927 1 12404
-6.7326 -0.97498 1.1177 0 10630
-6.7274 -0.26667 0.31397 0 10746
-6.7217 -0.79556 0.63148 0 10649
-6.7064 2.7041 1.188 0 11616
-6.6872 5.4559 0.80519 2 13590
-6.6871 5.4558 1.4179 1 13596
-6.6845 -0.14936 0.15523 0 10769
-6.679 5.3528 1.4062 0 13514
-6.6781 3.5898 0.35357 0 12166
-6.6745 1.6024 0.15937 0 11185
-6.6693 5.3776 1.6142 0 13544
-6.5935 3.5949 1.4149 2 12205
-6.5888 -5.4469 0.39866 0 10487
-6.5615 3.1904 0.16939 0 11934
-6.5523 0.86612 0.61662 0 11000
-6.5275 4.5266 0.74109 0 12901
-6.5266 1.2497 0.61996 0 11094
-6.5187 1.2683 1.0911 0 11100
-6.5152 -5.386 1.5927 0 10488
-6.5038 0.3659 0.45551 0 10894
-6.5003 0.21336 0.60677 0 10854
-6.4923 2.6389 0.16271 0 11625
-6.4911 4.4462 0.73403 0 12856
-6.4816 5.6423 1.0049 1 13884
-6.4784 3.5556 1.3923 0 12222
-6.475 5.538 -1.1974 2 13786
-6.4702 5.4387 0.98844 0 13726
-6.4658 -5.7044 1.4166 0 10456
-6.4635 3.2621 -0.16809 0 12013
-6.4592 -0.40525 0.6038 0 10708
-6.455 2.1348 1.117 0 11404
-6.4492 4.6121 0.55442 2 13016
-6.441 6.7921 1.5379 2 14806
-6.4367 0.0056173 0.90463 0 10805
-6.4137 -5.8258 -0.40406 0 10443
-6.3812 5.5882 0.99193 1 13912
-6.3742 0.06119 1.0473 0 10820
-6.3688 4.9562 1.5205 2 13383
-6.3588 -4.7208 0.73886 0 10537
-6.3449 5.4267 0.97636 0 13806
-6.3432 5.5864 0.98844 2 13941
-6.3281 -5.9508 1.2208 0 10427
-6.3271 0.26186 0.59079 0 10871
-6.3227 1.5366 1.069 0 11192
-6.3175 5.3425 0.96754 1 13752
-6.2964 4.8699 1.4997 0 13356
-6.2947 5.2278 0.76339 2 13671
-6.2946 0.3883 -0.441 1 10904
-6.2732 6.8101 1.7445 2 14935
-6.2513 1.5969 0.75451 0 11220
-6.2329 0.65951 1.1809 0 10961
-6.2175 4.2048 0.35003 0 12808
-6.2148 7.1923 0.22069 0 15201
-6.188 4.3442 1.2422 1 12951
-6.1647 4.9406 0.92386 0 13510
-6.1576 -3.9912 0.85812 0 10579
-6.147 6.6731 1.2751 1 14932
-6.1325 1.7388 -0.14799 0 11282
-6.1283 5.5587 0.19209 2 14071
-6.1251 0.95369 1.0184 1 11032
-6.1195 5.2044 0.93943 2 13777
-6.1128 4.9873 -1.4864 1 13597
-6.109 -4.993 0.18318 0 10494
-6.1016 5.3116 1.5242 2 13890
-6.1011 7.6209 1.8393 2 15534
-6.091 5.6879 -0.19349 2 14211
-6.0877 -4.6326 -0.17761 0 10528
-6.0728 -4.7327 0.53838 0 10515
-6.0695 5.252 1.3187 1 13863
-6.0468 -3.9464 0.67365 0 10577
-6.0448 4.2184 1.211 2 12928
-6.0428 -5.584 -0.19102 0 10434
-6.0107 0.52798 1.1368 0 10939
-6.0031 -7.2462 1.546 0 10276
-6 5.1028 1.294 2 13781
-5.9943 5.4049 0.37639 2 14044
-5.9836 4.0986 1.0193 1 12860
-5.9712 4.1131 1.019 0 12881
-5.9522 5.6881 0.38394 2 14330
-5.9436 1.9864 0.58466 1 11413
-5.9407 4.2218 0.33987 0 12991
-5.9382 -4.0492 1.0101 1 10563
-5.9291 2.41 0.59711 2 11628
-5.9279 3.4114 0.79981 2 12335
-5.9244 4.9203 0.53852 0 13669
-5.8996 5.9368 0.78085 0 14588
-5.8697 5.944 0.77936 2 14614
-5.8645 -0.21504 0.13625 0 10751
-5.8642 -0.54091 0.96754 0 10678
-5.8638 4.2447 1.0174 2 13067
-5.843 -6.9339 -0.21052 0 10286
-5.8043 -0.076996 0.54156 1 10784
-5.7798 1.2983 0.83253 0 11153
-5.775 -7.5316 0.88545 0 10223
-5.7448 -0.54405 1.0872 0 10674
-5.7241 7.8727 1.1383 0 15949
-5.7219 4.1939 0.99704 1 13116
-5.7177 0.13874 1.0776 0 10839
-5.716 4.4482 1.19 1 13381
-5.7158 2.3233 0.72153 1 11629
-5.7074 -0.87743 -0.13407 1 10625
-5.7043 7.7033 1.806 2 15873
-5.7023 -3.7671 0.63761 2 10574
-5.6996 4.0505 1.1488 1 12998
-5.6867 4.7532 1.3964 2 13706
-5.6864 6.7792 1.6671 1 15335
-5.6859 6.1338 1.1755 2 14906
-5.665 4.2011 0.49318 0 13165
-5.6616 4.1497 0.65489 2 13112
-5.6458 7.5827 1.7812 1 15848
-5.6348 3.8814 0.63835 0 12878
-5.6242 6.1744 1.1738 0 14980
-5.6061 7.9031 1.8256 1 16059
-5.5932 4.2733 0.4922 0 13295
-5.5718 4.5734 0.50406 2 13616
-5.5479 -8.0242 0.45493 0 10159
-5.5405 0.0048352 0.38743 0 10804
-5.5383 4.1341 0.48327 1 13191
-5.5373 -7.672 1.7826 0 10185
-5.526 -0.71868 0.12938 0 10639
-5.513 -0.91267 0 0 10617
-5.5057 1.1372 0.26217 0 11121
-5.4945 -4.518 0.83187 0 10491
-5.4795 3.0712 1.1835 0 12273
-5.4765 0.8527 -0.12868 0 11031
-5.4668 7.2944 1.7175 1 15824
-5.4665 4.8143 0.50936 2 13937
-5.4657 0.9166 0.25844 0 11056
-5.4462 -7.4989 0.4322 0 10188
-5.4314 -4.207 0.1595 0 10519
-5.431 4.5928 0.49736 2 13749
-5.4207 -0.5296 -0.12645 0 10668
-5.4149 3.4179 1.2065 0 12584
-5.411 0.60312 0.12641 1 10969
-5.4061 4.3327 1.3053 2 13516
-5.391 0.90407 0.50998 2 11057
-5.375 2.7909 0.14061 0 12081
-5.3643 -7.4324 -0.42745 0 10182
-5.3634 8.2462 1.1504 1 16398
-5.3362 3.4534 1.1976 1 12665
-5.3197 4.5773 -1.153 0 13812
-5.3184 3.8245 1.2342 1 13047
-5.3174 4.2616 0.63575 2 13508
-5.3056 -5.5675 1.449 0 10388
-5.2771 2.1804 0.26627 0 11650
-5.2647 3.2174 0 0 12482
-5.2439 -7.9226 1.7901 0 10145
-5.2359 4.6389 0.98312 2 13971
-5.2338 0.21662 0.24428 0 10870
-5.2285 -0.25206 0.73567 0 10735
-5.2283 8.0386 1.8067 2 16403
-5.2266 -0.14599 -0.73483 0 10759
-5.2248 3.599 1.1953 2 12885
-5.2052 4.1478 0.46542 2 13482
-5.1826 4.254 0.62553 0 13618
-5.1615 4.6539 0.64839 2 14048
-5.1587 3.6661 1.1924 2 13000
-5.1059 1.8222 -0.89069 0 11468
-5.0901 0.19643 0.47524 0 10864
-5.0893 4.3529 0.62479 2 13804
-5.0863 4.3257 0.62293 2 13775
-5.0844 -0.6315 -0.35827 2 10642
-5.0766 4.2161 0.77171 0 13673
-5.0668 -5.9053 1.466 0 10300
-5.0646 6.4824 0.76747 2 15632
-5.051 -6.0969 0.36922 0 10275
-5.0388 4.6775 0.48076 1 14190
-5.0382 1.2403 0.12046 0 11198
-5.0309 7.691 1.7315 2 16380
-5.0305 6.7563 0.78587 2 15840
-5.029 5.0926 0.83698 1 14616
-5.0158 2.3849 0.259 0 11885
-4.9961 0.38092 0.11633 0 10922
-4.9945 4.5814 0.47393 2 14131
-4.9908 4.3186 0.46151 1 13857
-4.9874 4.823 1.3072 1 14398
-4.985 0.26474 0 0 10888
-4.9788 2.1083 0.37808 0 11684
-4.978 4.3334 0.46151 2 13881
-4.975 4.1083 0.75451 1 13646
-4.9744 3.3213 0.84061 0 12768
-4.9569 4.0688 0.90129 2 13622
-4.9531 6.265 0.55847 0 15577
-4.9488 4.4357 0.46472 0 14019
-4.9473 6.296 0.74704 2 15605
-4.9469 3.9888 0.74313 0 13538
-4.9449 -6.0394 -0.364 0 10265
-4.9409 3.3214 0.83671 0 12791
-4.9371 0.39203 0.11499 0 10927
-4.9354 0.26211 0.57797 0 10889
-4.9338 0.8274 0.11615 0 11055
-4.9317 5.1391 1.342 2 14756
-4.9297 4.445 0.46416 1 14046
-4.9205 0.1194 -0.34418 0 10837
-4.917 -3.5411 1.1416 0 10547
-4.907 2.3531 0 0 11900
-4.9054 -0.79801 0.34753 0 10620
-4.8862 0.83259 0.11508 0 11062
-4.8815 3.9827 0.88542 2 13594
-4.8718 4.7642 1.2838 1 14455
-4.8633 6.7308 1.5645 2 15981
-4.8513 2.4484 0.25341 0 12017
-4.8498 1.7308 0.9702 0 11477
-4.8479 5.7796 0.5275 1 15326
-4.8259 3.9612 0.73012 1 13620
-4.8211 -7.5676 1.0493 0 10126
-4.8154 3.4019 0.68947 2 12971
-4.8108 5.1319 1.3253 1 14860
-4.8098 5.4041 0.67495 0 15079
-4.8083 -6.8263 -0.19386 0 10165
-4.8032 5.3382 0.83977 1 15033
-4.7951 -5.2716 -0.33233 0 10349
-4.793 3.7975 0.42761 2 13454
-4.7757 5.1249 0.98451 0 14881
-4.7628 3.532 0.69342 2 13169
-4.7622 6.7559 0.96661 1 16080
-4.7549 -5.3821 1.3531 0 10323
-4.7547 1.1837 0.92317 0 11206
-4.7499 0.22483 0.66831 0 10880
-4.7464 3.1511 0.66624 0 12742
-4.7384 3.8439 0.56924 2 13564
-4.7115 3.2067 0.53171 1 12833
-4.6887 4.2769 1.1957 0 14110
-4.6824 -4.0346 0.43221 0 10466
-4.6795 4.1707 0.88097 1 13999
-4.6723 0.23423 0.54707 0 10884
-4.6642 0.2069 -0.10839 0 10875
-4.6511 3.1859 0.65927 2 12858
-4.6454 8.8445 1.8823 2 17256
-4.6403 -0.6993 0.10895 0 10627
-4.629 -3.2751 0.13165 0 10552
-4.6272 0.44718 0.10793 0 10949
-4.6233 -3.4763 0.1343 0 10533
-4.6201 4.1658 0.87429 2 14051
-4.618 3.3025 0.52967 2 13018
-4.614 4.3086 1.1894 1 14227
-4.5875 3.4419 0.53506 0 13220
-4.5777 6.3728 0.91759 2 16002
-4.5726 -4.8847 0.62423 0 10373
-4.5671 -0.70213 0.10728 0 10626
-4.5648 5.3789 0.49332 0 15275
-4.5265 4.4513 0.59228 0 14477
-4.5252 8.8621 1.6348 2 17358
-4.5234 -7.4309 1.4293 0 10110
-4.5147 -0.80175 0.86392 0 10609
-4.5139 0.45054 0.42322 0 10953
-4.5111 -7.2164 1.1961 0 10118
-4.5015 4.3017 1.1731 2 14341
-4.4997 -0.53257 -0.2113 0 10647
-4.4923 1.202 0.54382 0 11245
-4.4915 4.4696 0.59116 1 14533
-4.4901 7.0399 1.1735 2 16475
-4.4847 3.3064 0.51982 1 13139
-4.4815 3.0502 0.63395 0 12835
-4.4782 7.8447 1.4841 2 16930
-4.4729 4.6889 0.45314 0 14774
-4.4714 0.96348 0 0 11135
-4.4648 -0.77923 0.85392 1 10611
-4.4494 0.15926 0.62572 2 10859
-4.4475 3.0464 0.37696 0 12854
-4.4438 5.9294 0.6913 2 15817
-4.4437 -3.9899 0.55717 0 10448
-4.4326 5.878 0.5148 0 15788
-4.431 8.5555 1.5829 2 17307
-4.4289 2.5139 -0.11824 0 12296
-4.4272 -3.5329 0.93057 0 10505
-4.4266 -0.22734 0.62294 2 10730
-4.4092 5.8832 0.51411 1 15815
-4.406 5.6394 0.50043 0 15631
-4.4024 0.55459 0.31028 0 10989
-4.4004 0.61999 0.83726 0 11013
-4.4003 4.5345 0.58949 2 14695
-4.4001 2.9757 0.62117 2 12814
-4.3962 -6.9007 1.5416 0 10127
-4.3927 7.1151 1.1752 0 16605
-4.3781 -4.9277 1.083 0 10327
-4.3779 0.35993 0.82763 1 10930
-4.3561 8.841 0.68919 0 17474
-4.3543 8.8374 1.6186 2 17482
-4.3486 4.6389 0.44463 0 14851
-4.3433 -7.8323 1.4714 0 10058
-4.3431 3.1834 0.37655 0 13110
-4.3374 3.1978 0.37682 2 13137
-4.3362 -0.71786 -0.20497 0 10616
-4.3251 1.024 0.41467 0 11178
-4.3198 -0.40911 0.40482 2 10673
-4.3173 -8.4005 0.88117 1 10024
-4.3159 6.5553 0.91782 2 16350
-4.3069 -8.3803 1.7752 0 10026
-4.2988 1.45 0.10533 0 11421
-4.2988 7.8455 -1.4698 0 17066
-4.2982 4.2534 0.99347 2 14511
-4.2822 -5.23 -0.47267 1 10264
-4.2779 4.257 0.99153 1 14539
-4.2715 2.8187 0.71925 1 12721
-4.2691 2.6759 0.82779 2 12564
-4.2672 5.7626 0.50141 0 15866
-4.2667 8.9938 1.6355 2 17597
-4.2607 -5.4593 1.1378 0 10237
-4.2564 6.587 0.91713 0 16423
-4.2376 6.6008 1.4779 2 16453
-4.237 0.57136 0.19938 0 11005
-4.2325 0.55948 0.1991 0 10999
-4.2285 5.3484 1.2846 2 15585
-4.2229 0.37094 0.69647 2 10938
-4.2024 5.6441 0.49206 2 15839
-4.1957 1.8061 -1.3098 1 11705
-4.1944 -0.43493 -0.097903 0 10663
-4.194 5.368 1.2835 0 15639
-4.1938 8.5117 0.88526 2 17476
-4.1506 1.3334 0.71625 0 11380
-4.1436 8.602 1.5687 2 17550
-4.1426 -4.0103 0.26888 0 10420
-4.1417 8.6599 1.5771 1 17573
-4.1313 -3.6027 1.0328 0 10460
-4.1278 -4.7568 0.88514 2 10308
-4.1236 -8.3803 0.43556 0 10007
-4.1175 6.8419 0.74499 1 16709
-4.1121 -4.0255 0.1336 0 10417
-4.1089 -8.9293 0.22821 0 9983
-4.1025 8.7698 0.90328 1 17639
-4.0961 2.263 0.43659 0 12234
-4.0849 -7.7313 1.2289 0 10038
-4.0837 6.243 0.1732 0 16366
-4.0817 0.6589 0.67928 0 11044
-4.0741 5.5381 0.48076 0 15891
-4.0525 7.099 0.95592 0 16927
-4.0299 -0.065417 0.56643 0 10779
-4.0149 1.0256 0.28977 0 11219
-4.0044 2.0061 -0.10398 0 11997
-4.0038 0.99677 0 0 11204
-3.9821 -0.077155 0.55975 0 10775
-3.9785 1.9499 0.72792 2 11957
-3.9634 -2.8722 0.45666 0 10545
-3.9575 1.1221 0.19183 0 11284
-3.954 -6.9377 0.37239 0 10071
-3.9535 6.8865 0.55526 0 16894
-3.9484 8.5099 0.87523 0 17663
-3.9427 7.3009 0.97032 1 17146
-3.9391 -4.1582 0.80498 0 10383
-3.9329 0.99153 0 2 11212
-3.9304 -7.8216 0.20323 0 10015
-3.9278 7.5292 0.99309 2 17276
-3.9228 8.2022 1.0632 2 17571
-3.9092 0.13993 0.18242 0 10858
-3.8945 -2.5894 -0.10858 0 10571
-3.8918 -7.7448 -0.20124 0 10013
-3.89 9.0586 1.8574 1 17921
-3.8769 -9.0368 1.382 0 9970
-3.873 5.5622 0.79261 2 16129
-3.8716 -4.2563 0.26832 0 10350
-3.8695 1.3309 0.77097 0 11442
-3.8473 4.8961 -1.3236 1 15610
-3.8371 0.9802 0.74616 0 11221
-3.8314 8.9956 0.9122 2 17937
-3.8212 1.5789 0.67928 0 11653
-3.8007 -4.9282 0.7278 0 10226
-3.7928 0.47779 0.72024 0 10990
-3.7925 7.1688 0.56712 1 17221
-3.7888 -7.272 0.19037 0 10031
-3.7757 6.3996 1.2208 2 16793
-3.7744 8.9397 0.90532 0 17962
-3.7592 -0.17005 0.52886 0 10739
-3.7555 -0.38941 -0.35225 1 10662
-3.752 2.5374 0.63658 0 12816
-3.7469 3.7286 0.61815 2 14535
-3.7455 3.5993 0.60747 1 14365
-3.7374 4.8392 1.152 2 15693
-3.735 -2.9977 0.44681 1 10502
-3.7337 9.1309 1.1536 2 18062
-3.7293 -0.64015 0.17646 0 10612
-3.7212 3.9696 0.89393 2 14858
-3.7189 4.5114 0.54546 0 15399
-3.7163 -2.5964 0.63713 0 10556
-3.6994 -3.6215 0.97538 0 10418
-3.6956 4.8441 1.1479 2 15744
-3.6942 -7.676 0.39726 0 9997
-3.6908 0.70673 0.70802 2 11095
-3.6741 -2.5841 0.63129 0 10554
-3.6589 -0.2193 0.69062 0 10714
-3.6429 5.7849 1.1232 2 16527
-3.6369 -2.817 0.75581 0 10521
-3.6193 7.9823 0.40872 0 17734
-3.6093 3.806 -1.3731 0 14801
-3.593 5.4927 0.61234 1 16372
-3.591 0.53733 0.084302 1 11023
-3.5884 4.4061 -1.4876 0 15451
-3.5869 4.2991 0.91987 2 15356
-3.5773 -6.0682 0.16354 0 10091
-3.5721 4.1824 0.90366 2 15256
-3.5671 0.14763 -0.16649 0 10869
-3.5643 5.2486 0.59191 2 16229
-3.5524 1.1071 -0.26019 1 11352
-3.5487 4.9714 0.85842 2 16027
-3.545 1.8407 0.65626 0 12088
-3.5445 -2.5686 -0.30609 2 10544
-3.5342 5.5777 0.92801 2 16501
-3.5319 1.2827 -0.61735 1 11488
-3.5252 -4.4096 0.6602 0 10253
-3.5227 6.0916 0.49206 0 16868
-3.5059 -6.2782 -0.67087 0 10061
-3.5058 5.3249 0.896 2 16352
-3.5056 -3.1642 -0.33023 2 10445
-3.5053 4.0338 1.0069 2 15187
-3.5033 4.6205 0.67809 2 15765
-3.5019 1.2843 -0.61282 2 11496
-3.492 -2.6883 0.72403 0 10524
-3.4888 4.6265 0.67762 2 15792
-3.4858 4.1074 1.015 0 15282
-3.4815 5.5286 0.76404 2 16523
-3.4803 5.5631 1.0781 2 16553
-3.4592 5.5639 0.92077 2 16578
-3.458 -3.7566 0.71758 0 10360
-3.4527 8.9572 1.3491 1 18227
-3.4506 0.14281 -0.2415 0 10868
-3.4424 9.01 1.3555 2 18252
-3.4409 -3.4493 0.68473 0 10410
-3.4294 5.016 0.85397 2 16206
-3.4291 -7.2314 0.74667 0 9993
-3.4283 5.6253 1.0823 2 16662
-3.4281 -0.4763 -0.080356 0 10633
-3.4215 0.27168 -0.16006 0 10926
-3.4209 9.1156 1.3684 1 18298
-3.4081 3.49 0.68557 0 14672
-3.3977 5.9981 1.1326 2 16957
-3.3906 5.7469 1.2572 2 16795
-3.3844 4.1557 0.62675 2 15452
-3.3805 5.5841 0.609 2 16683
-3.3747 2.2685 0.47552 0 12789
-3.3516 3.4538 0.67638 2 14699
-3.3395 1.7458 0.44068 0 12102
-3.3358 -7.7196 0.78457 0 9972
-3.3353 -8.6615 0.21549 0 9933
-3.3329 -0.17117 0.54829 0 10731
-3.3188 -6.847 -0.70988 0 10000
-3.3087 6.0812 0.48411 1 17112
-3.3069 -4.1873 0.62396 0 10246
-3.3058 5.6032 0.60696 2 16788
-3.3056 -2.5761 0.58898 0 10516
-3.29 -3.1287 0.8554 2 10424
-3.2772 0.52902 0.62544 1 11045
-3.2755 -4.0262 0.24205 0 10262
-3.2619 -4.4389 -0.12789 0 10196
-3.2573 -9.2445 1.8467 0 9890
-3.2438 0.30434 -0.22782 1 10944
-3.2378 5.5631 0.90463 0 16843
-3.2288 5.0623 1.1313 2 16479
-3.2173 6.9885 0.8997 2 17691
-3.2146 5.0073 -0.13815 0 16438
-3.2094 5.5498 0.90101 1 16873
-3.2078 -2.0792 0.26731 0 10578
-3.1958 0.0027889 0.60211 1 10806
-3.1777 5.8845 0.46765 0 17142
-3.1748 5.0105 1.1176 1 16504
-3.1661 -2.8931 0.099574 1 10440
-3.1531 -2.7965 0.59232 0 10453
-3.1509 9.1043 0.89882 1 18519
-3.1508 -7.5248 1.1465 0 9965
-3.1282 7.5897 -0.38282 0 18027
-3.1238 -2.3344 0.6407 0 10535
-3.1224 -5.5527 0.59432 0 10066
-3.118 2.4846 -0.092565 2 13475
-3.1102 0.77431 -0.074414 0 11203
-3.1079 -3.4565 0.87577 0 10339
-3.1042 9.0614 0.89362 1 18546
-3.1037 -3.4337 0.87207 0 10345
-3.0882 4.8419 0.67158 2 16473
-3.0825 0.02959 -0.28759 0 10818
-3.0727 4.8493 0.67135 2 16499
-3.0549 -8.9174 1.776 0 9872
-3.0403 6.8608 1.0547 0 17816
-3.0401 -4.8351 0.93835 1 10122
-3.0346 0.038136 -0.28313 1 10823
-3.0196 -9.1627 0.22398 0 9833
-3.0154 0.73284 0.072046 0 11191
-3.013 6.0299 0.62888 2 17425
-3.0072 9.4855 0.92836 2 18752
-3.0061 -5.9821 0.62461 1 10016
-3.0061 1.1817 0 0 11579
-2.9991 -8.5116 1.0553 0 9889
-2.9891 1.1648 0 2 11569
-2.9888 1.1353 -0.52527 2 11536
-2.9887 -6.166 1.1258 0 10003
-2.9806 -1.9931 0.4193 0 10567
-2.9664 -7.5075 0.56447 0 9942
-2.8781 -5.7275 0 0 10014
-2.8666 1.8916 -1.4345 0 12713
-2.8503 -3.322 -0.20413 0 10298
-2.8373 -5.9406 0.6142 0 9995
-2.8354 -2.1577 0.082723 0 10529
-2.822 2.8737 0.18782 0 14638
-2.8097 -5.7505 1.0515 0 10005
-2.7862 -6.817 1.3875 0 9955
-2.7308 6.2625 0 0 17855
-2.7159 5.2823 -0.27699 0 17319
-2.7063 6.8458 -1.2094 0 18135
-2.6904 -7.7085 1.3414 0 9884
-2.6578 -2.0586 0.23508 0 10520
-2.6262 -2.2358 0.32178 0 10472
-2.6225 2.8629 -0.91993 0 14956
-2.6162 -3.784 0.75581 0 10160
-2.6075 -4.1471 0.45703 0 10121
-2.599 -3.6898 0.52779 0 10167
-2.5924 -8.5272 1.4643 2 9754
-2.5896 -1.9935 0.22852 1 10523
-2.5836 -2.2121 0.31732 0 10469
-2.5778 -4.8115 0.12673 0 10043
-2.5577 -2.8446 0.35689 1 10337
-2.5344 -4.0543 0.44607 1 10117
-2.5229 -8.8507 1.0763 0 9693
-2.5216 3.5548 -1.2497 1 16050
-2.5213 3.1313 -0.85452 1 15509
-2.499 -3.2792 0.095721 0 10218
-2.4707 1.7134 -0.78711 1 12902
-2.4494 -5.0533 0.52391 0 10001
-2.4459 -6.9417 -0.34323 0 9886
-2.4393 -2.6817 0.2535 0 10351
-2.4356 -6.6056 -0.32832 0 9909
-2.424 2.9934 0.45043 0 15478
-2.3908 6.908 -0.3409 1 18509
-2.3862 -7.0374 1.0444 1 9863
-2.3714 -2.8141 0.17161 0 10287
-2.3448 -2.7659 0.1691 0 10291
-2.3407 3.2997 -0.85992 1 16056
-2.34 -3.6033 0.80949 0 10137
-2.3086 -1.9544 0.5699 0 10476
-2.3049 -7.1317 0.87647 0 9819
-2.2999 6.2951 1.2627 0 18376
-2.2668 -3.1791 -0.27303 2 10171
-2.2549 -4.7898 0 0 9989
-2.2288 -9.716 1.6377 0 9522
-2.1988 -5.0067 0.51016 0 9975
-2.1733 -2.5482 0.55024 0 10295
-2.1582 -5.1116 0.12882 0 9968
-2.1008 -3.2548 0.54445 0 10132
-2.0862 -3.2124 0.53832 1 10136
-2.0725 -2.9424 0.083559 1 10166
-2.0456 -3.9263 0.20646 1 10032
-2.0305 -4.4493 0.11355 0 9982
-2.007 -5.2121 0.78494 0 9937
-1.9819 -2.7632 0.55867 1 10178
-1.9691 -4.3148 -0.22118 0 9981
-1.9279 -3.3139 0.44834 0 10084
-1.9085 -3.2608 0.44184 0 10087
-1.8919 -3.8178 -0.098924 0 10010
-1.8395 6.4406 -0.94137 0 18988
-1.8333 -6.7243 0.65024 1 9650
-1.8091 6.9403 -0.33447 0 19168
-1.8011 -3.2479 -0.34649 0 10057
-1.7512 3.7435 -0.095953 0 17632
-1.7481 8.2595 0.98728 0 19525
-1.6935 5.342 0 0 18744
-1.675 -7.5932 1.2775 0 9493
-1.6503 6.2593 1.0635 0 19160
-1.6409 -4.015 0.60958 2 9954
-1.6388 -3.9801 0.70717 0 9958
-1.6162 -7.8668 1.1287 1 9450
-1.4887 -7.1387 1.1981 0 9458
-1.408 5.464 -0.131 0 19192
-1.4077 4.3507 0.10617 0 18691
-1.3828 -8.1583 1.1629 1 9355
-1.3686 5.3812 -0.12891 1 19214
-1.3532 -4.7475 0.46056 2 9692
-1.3486 -6.7675 1.3001 0 9431
-1.3187 -8.364 0.59209 0 9336
-1.2989 -8.7332 1.2409 0 9317
-1.2607 -4.847 0.46725 0 9608
-1.2517 -3.3947 0.16873 0 9911
-1.2463 -8.379 0.79032 0 9316
-1.2285 2.8402 -0.50841 0 17869
-1.2176 -9.7476 0.91647 0 9275
-1.2157 5.9172 -0.70643 2 19554
-1.2012 -8.9666 1.4863 1 9291
-1.1857 -4.2042 0.51083 0 9682
-1.1727 -9.3886 1.7826 0 9276
-1.1662 2.9726 -0.52462 0 18161
-1.1636 -6.3087 1.2087 0 9394
-1.1606 2.9875 -0.52657 0 18187
-1.1448 -5.6519 0.94743 1 9440
-1.142 -4.3907 -0.10533 0 9603
-1.1286 -8.2391 0 0 9296
-1.1223 5.8008 -0.13718 0 19650
-1.113 -7.3246 1.2172 0 9325
-1.0595 6.8516 1.1391 0 19949
-1.0288 -5.0074 0 0 9446
-1.0237 -3.8854 0 0 9616
-0.98617 -4.5344 0.54266 0 9483
-0.96424 -5.594 -0.13179 1 9359
-0.95517 6.9729 0 0 20063
-0.94581 5.8786 0.97824 1 19908
-0.93318 -7.8259 1.4849 0 9267
-0.89547 -6.9903 0.65749 0 9280
-0.86606 -3.5366 0.25461 0 9560
-0.84229 -7.2355 0.85185 0 9261
-0.83854 -7.5954 1.4397 0 9250
-0.83041 -3.6199 0.1732 0 9518
-0.82687 -9.2104 0.64664 0 9213
-0.82278 -8.0861 -0.1887 0 9236
-0.81015 -3.0405 -0.14674 0 9626
-0.7573 -9.3107 -0.21688 0 9193
-0.73863 -8.7594 0.61469 0 9198
-0.73788 3.1683 0.075528 0 19368
-0.73213 -8.6824 1.4315 0 9199
-0.73093 -4.0993 0.38847 0 9376
-0.71361 -5.8457 0.96754 1 9271
-0.70406 -5.9045 0.97694 0 9266
-0.69971 3.7901 0.54166 0 19730
-0.65567 3.7998 0 0 19814
-0.5579 -7.9984 -0.18615 0 9172
-0.52075 -3.977 -0.093122 0 9285
-0.5041 -8.2656 1.3605 0 9156
-0.49853 -7.8151 1.2866 0 9162
-0.46901 -4.7492 0.33371 0 9231
-0.46188 -6.3657 1.0486 0 9177
-0.45064 -9.1163 1.7197 0 9137
-0.4444 -4.9501 0 0 9212
-0.43486 -4.4034 0.10273 0 9230
-0.43074 -9.9452 1.6355 0 9126
-0.41525 -3.4824 -0.081423 1 9265
-0.40225 -9.9286 1.6326 0 9119
-0.38451 -5.5126 -0.2577 0 9171
-0.37834 -3.9509 0.55781 2 9225
-0.37745 -8.1244 0.37928 0 9132
-0.36657 -3.9441 0.55669 0 9220
-0.36007 -4.6059 0 0 9188
-0.35277 -4.6807 0 0 9182
-0.35197 -8.1264 1.1432 0 9125
-0.31696 -8.4428 1.3881 1 9113
-0.31633 -9.1501 -0.21256 0 9106
-0.28282 -3.2523 0.61508 1 9206
-0.26651 -4.8274 -0.22546 0 9146
-0.26073 -6.9451 0 0 9112
-0.2425 3.9763 0.18577 0 20597
-0.23356 6.1925 -0.43333 0 20730
-0.22611 2.9932 0.49317 0 20510
-0.19873 -6.8573 0.64003 0 9095
-0.18761 -6.4735 0.15036 0 9093
-0.16928 -5.8412 0.27251 0 9094
-0.16837 -6.43 0.75219 0 9087
-0.10283 -7.0132 0 0 9064
-0.080986 -4.6397 0.65217 0 9071
-0.078899 -5.3813 0.88421 1 9065
-0.069669 -3.4113 0 0 9076
-0.049937 -5.7222 0.13286 0 9052
-0.037607 -4.3093 0.30135 0 9053
-0.020558 6.928 0 0 20929
-0.019518 3.2891 -0.076364 0 20909
-0.012414 -4.4457 0.51989 0 9043
-2.5181e-07 -5.7606 1.0854 0 9039
0.021111 -7.5598 -0.35254 0 9035
0.034679 -3.9738 0 0 9026
0.038698 3.3092 0.38701 0 21010
0.041401 -3.5403 0.58169 0 9021
0.042253 -7.3359 -0.17032 0 9031
0.047848 -3.3028 0.076688 2 9013
0.061285 4.2304 0.098228 0 21021
0.073641 8.6107 0.60214 0 20992
0.079408 -9.0992 0.21126 0 9027
0.09222 -6.3656 -0.14781 0 9012
0.096254 -6.644 0.93385 0 9014
0.099485 -8.5071 0.19752 0 9020
0.12776 -8.8188 1.449 1 9015
0.14419 -6.2107 0.14423 0 8997
0.15488 -5.3123 -0.12339 0 8986
0.156 -7.6383 0.89343 0 9003
0.17025 4.5348 0 0 21119
0.17589 3.3901 -0.47709 0 21182
0.18147 5.2228 0.85859 0 21114
0.18157 4.4624 0.73376 0 21142
0.18654 3.3895 -0.47709 0 21194
0.18828 -7.2385 1.1896 1 8992
0.20038 4.3294 0 0 21164
0.21213 4.8978 -1.4058 0 21155
0.2234 -4.0594 -0.18959 0 8943
0.24569 -6.5443 -0.3054 1 8971
0.24595 -8.4358 0.78735 0 8987
0.25166 6.7033 1.1021 0 21126
0.26718 -6.6234 -0.30913 0 8966
0.28231 -6.9984 -0.16261 0 8967
0.28692 -7.6425 0.89436 0 8972
0.28925 -5.8513 -0.13602 0 8952
0.29597 5.1174 0 1 21211
0.29881 3.4292 0.48377 0 21313
0.30241 6.9824 0.48871 0 21154
0.32202 -3.703 0.086298 0 8891
0.40393 -3.6588 -0.085462 0 8842
0.40741 4.2545 -1.1189 1 21341
0.40915 -4.028 0.76283 0 8861
0.42555 4.3091 -1.1336 0 21352
0.42709 3.0583 -0.80838 0 21483
0.42883 8.675 1.427 0 21179
0.43171 3.6204 -0.17003 0 21410
0.43901 3.1436 0.59804 1 21488
0.44187 4.2325 -0.39702 0 21363
0.45147 3.1642 -0.83674 0 21494
0.45261 4.2073 -0.39479 0 21370
0.4684 3.0327 0.1431 0 21536
0.47174 -6.5173 1.0736 0 8921
0.47496 4.6759 -0.54963 1 21354
0.49796 3.8872 0.090986 1 21441
0.5068 -4.3535 0.82578 0 8830
0.52291 -4.0876 0.095675 0 8804
0.5388 -5.6162 0 0 8874
0.54224 -4.1355 -0.096835 0 8798
0.54278 -8.5087 0 0 8932
0.56939 4.4448 -0.20897 0 21438
0.572 6.3715 0.89906 0 21324
0.57301 -3.2104 -0.075714 0 8702
0.59223 -8.182 1.1529 0 8920
0.64242 8.8753 1.2506 0 21265
0.64364 4.4228 0.84207 1 21509
0.64905 8.6121 0.80574 0 21274
0.65475 -8.0673 -0.18791 0 8905
0.65826 -4.105 0.19388 0 8739
0.66573 4.5746 0.10733 0 21503
0.68381 6.1939 0.72873 0 21385
0.68434 6.1987 1.0246 0 21388
0.68732 4.723 -0.11081 0 21501
0.69822 4.6943 -1.0088 1 21516
0.71127 4.6052 0.43473 0 21537
0.72547 4.4351 0 0 21566
0.72721 3.0059 -0.14422 0 21774
0.73181 -4.6467 0 0 8745
0.73846 3.6492 -1.2581 0 21682
0.79741 -3.215 0.15447 0 8576
0.81656 -9.3899 1.3246 0 8893
0.81758 -3.2573 0.15661 0 8570
0.82053 -8.3087 0.97636 0 8868
0.82734 3.3331 0.16015 0 21790
0.82927 6.0538 0.71456 0 21472
0.83286 3.9936 -0.19025 0 21694
0.86142 4.1306 0.69323 2 21698
0.86148 6.038 0.42649 0 21493
0.86444 -8.0621 1.1395 0 8851
0.87386 4.136 0.69452 0 21706
0.87636 3.4456 -0.24861 1 21802
0.88434 4.6491 0.33092 0 21650
0.88761 4.7337 0.33678 0 21638
0.90187 -7.2099 -0.1687 0 8811
0.9149 -8.5328 -0.19924 0 8850
0.91787 -6.2995 1.1994 0 8767
0.92008 -4.9886 0.95576 0 8690
0.93546 -6.2969 1.1994 0 8761
0.95859 3.9145 0.28182 0 21782
0.98476 -3.1119 0 0 8469
0.9888 3.1514 -0.94709 0 21932
0.99577 -3.655 0.443 0 8533
1.0232 3.9282 -0.86283 1 21818
1.027 -9.302 1.5376 0 8843
1.0297 -7.3735 1.4027 0 8781
1.0334 3.9195 -0.86159 0 21823
1.0764 -5.836 0.97499 0 8689
1.0835 -9.8146 1.8604 1 8844
1.0854 3.4954 -0.51438 1 21920
1.096 4.7063 0.3379 1 21756
1.1016 -3.55 0.086298 0 8476
1.1034 3.5935 -0.5283 0 21910
1.117 4.8656 0.94057 0 21749
1.142 4.9741 0.35687 0 21746
1.1694 -3.6553 -0.17897 0 8465
1.1694 3.0338 -1.1834 0 22085
1.1997 3.3122 -0.57877 0 22035
1.2005 -3.9914 0 0 8491
1.2102 3.3745 0.67543 0 22034
1.225 6.5333 0.62015 0 21639
1.2259 4.8199 0.81709 0 21807
1.2516 -7.1418 0.8479 0 8709
1.2657 3.4015 -0.59628 0 22057
1.2665 -6.7609 0.32077 0 8684
1.278 3.2329 -0.40653 0 22103
1.2794 -5.2965 0.6372 0 8589
1.2857 3.4277 -0.60147 0 22065
1.3036 -5.3234 0.64092 2 8582
1.3089 -3.401 0.33998 0 8402
1.3279 3.3591 0.16845 0 22108
1.3349 -4.6801 0.79958 0 8512
1.3453 3.1602 0.40165 0 22192
1.3875 -3.2374 0.16425 0 8350
1.3917 -7.3165 0.69483 0 8679
1.411 3.5422 -0.71839 1 22118
1.4274 -3.3562 0.5992 0 8356
1.4447 -3.094 0.39933 0 8277
1.4598 5.8116 -1.2737 0 21798
1.4632 -4.3577 0.64604 0 8442
1.4649 -8.9553 1.4909 0 8733
1.4867 -9.0887 1.2943 0 8732
1.4902 4.9513 0.84951 0 21899
1.5015 -4.4284 0.65718 0 8439
1.5232 8.4069 0.99913 0 21623
1.5294 4.8743 0.11861 0 21931
1.5343 -4.6555 0.68891 0 8452
1.5475 -3.1476 -0.24526 0 8236
1.554 -4.9106 0.11958 0 8470
1.5606 3.126 -1.0902 0 22393
1.6112 4.8405 0.83816 1 21983
1.6136 3.0297 0.40142 0 22487
1.6233 -8.3982 -0.19859 0 8671
1.6243 -4.4921 0.1109 0 8422
1.6341 -9.8175 1.6351 0 8725
1.6569 3.957 -0.6029 1 22170
1.6646 3.2854 0.25754 0 22415
1.6675 4.821 0.59655 0 22006
1.6681 -3.5466 0.45833 0 8272
1.7324 4.4572 0 1 22091
1.7378 -4.4756 0.44792 0 8400
1.7483 -3.5296 -0.36748 0 8228
1.7734 -3.886 -0.2987 2 8297
1.8081 3.0056 0.49295 0 22692
1.8124 5.4996 0.67716 1 21972
1.8177 4.2026 0.32018 0 22213
1.8245 3.1781 -0.86829 0 22607
1.8383 -6.1118 0.14818 0 8492
1.8477 3.0715 0.33441 0 22690
1.8602 -5.7594 0.14052 0 8460
1.8645 3.5772 0.66275 0 22454
1.8786 5.4312 0.94419 0 22007
1.8804 3.1258 0.68728 0 22695
1.8833 -4.222 -0.21559 0 8321
1.9049 5.3554 -0.39747 0 22020
1.907 -3.7687 0.29535 0 8205
1.9161 -4.6556 0.82714 2 8372
1.9263 -4.7154 0.83687 0 8376
1.9349 -3.2626 0.62319 0 8047
1.939 -5.222 -0.38952 0 8411
1.9404 -4.916 0.36957 0 8393
1.9514 -3.2058 0.087133 0 8020
1.9646 -4.7735 0 0 8369
1.9712 5.2976 -0.7944 0 22058
1.9796 4.2031 0 0 22317
1.9829 5.016 0.88615 0 22110
1.99 5.3055 -0.13156 0 22067
1.9951 -8.2592 0.39624 0 8588
1.9963 -5.4228 0.94938 1 8417
1.9991 -4.4482 0.5703 0 8316
2.0208 -3.5243 0.76542 2 8069
2.0256 5.3046 0.79802 0 22079
2.0384 4.4625 0.34306 0 22282
2.057 -9.7276 1.6335 0 8641
2.096 3.6274 0.19537 0 22618
2.1007 4.0303 0.31781 0 22451
2.1018 5.3167 0.66856 0 22109
2.1394 4.9463 -1.0154 0 22216
2.1497 9.4851 1.5979 0 21741
2.1502 8.5605 0.41161 0 21795
2.1545 -7.6444 1.4964 0 8518
2.1614 5.2028 0.26273 0 22166
2.1656 3.4203 0.56894 0 22799
2.1717 5.2742 0.26599 0 22155
2.1722 3.9399 -0.3146 1 22538
2.1971 -4.1287 0.2181 1 8139
2.2013 -3.3704 0.18773 0 7950
2.2127 -9.16 0.21878 0 8587
2.2436 4.2125 0.11081 0 22485
2.2577 3.5425 0.59037 0 22810
2.2818 -5.0395 0.51611 0 8308
2.2944 -4.5979 0.1193 0 8221
2.31 -7.5275 0 0 8481
2.3489 8.6096 -1.2542 0 21838
2.3541 -4.8546 0.63093 0 8252
2.3779 -5.4609 0.97856 1 8340
2.3816 2.4559 0.079427 0 24212
2.3816 3.7614 0 0 22796
2.3853 -5.4339 0.97499 1 8336
2.3853 4.9167 -0.63906 2 22350
2.3886 5.6108 0.85703 1 22193
2.3898 2.6263 -1.3866 0 23965
2.4031 -4.8156 0.88421 1 8227
2.407 -2.9597 0.62676 0 7650
2.4167 3.8421 0.31739 0 22782
2.4247 -1.926 0.28889 0 7003
2.4279 5.2329 -0.94776 0 22294
2.4474 3.3086 -1.3906 0 23231
2.4551 -1.9613 0.29317 0 7012
2.4622 2.4519 0.6547 0 24351
2.5142 -2.8639 0.62611 0 7500
2.5142 2.2685 0.15792 0 24708
2.5166 4.131 0.79471 0 22720
2.5302 -2.8498 0.62611 0 7476
2.5431 4.4297 0.71785 0 22608
2.5629 -3.3065 0.48923 0 7728
2.5661 -5.4558 0.99056 0 8274
2.6079 4.3939 0.83946 1 22665
2.633 -8.152 -0.3995 0 8459
2.644 5.4499 1.1413 0 22355
2.6441 6.6377 0.66659 2 22117
2.6451 -4.7387 0.63465 0 8085
2.6555 2.4823 0.084394 0 24572
2.6946 -7.2571 0.90528 0 8413
2.7031 -2.1471 0.48516 0 7004
2.7189 2.5712 -1.2645 0 24525
2.7738 6.8447 1.038 0 22137
2.7788 5.9892 -1.4034 0 22302
2.7809 -3.5224 0.73732 0 7705
2.8048 -1.1635 0.21234 0 5920
2.8176 -5.083 0.27102 0 8092
2.8182 -8.4766 1.683 1 8447
2.8247 -2 0.080356 0 6809
2.8266 6.5349 1.0007 0 22215
2.8289 -6.2947 -0.48258 0 8313
2.8476 -8.5652 0.42093 0 8446
2.848 4.6167 0.50608 0 22743
2.8516 -4.3115 0.72648 0 7934
2.8517 1.443 0 0 1247
2.8524 3.4223 0.20776 0 23624
2.8533 -2.0322 0.081331 0 6822
2.8536 4.653 0.50923 0 22730
2.8588 -0.95155 0.56768 0 5707
2.8805 -3.9472 0.80282 0 7813
2.8913 -1.2101 0.21917 0 5933
2.9014 -2.1056 0.67543 0 6862
2.9122 -3.0062 0.19518 0 7301
2.9126 -5.5524 1.0301 0 8159
2.9149 -4.4902 0.75237 0 7963
2.9165 -6.9653 0.70449 0 8363
2.9171 0.70464 0.27998 0 2836
2.9194 5.0852 -0.27344 0 22604
2.9513 7.5932 -0.76004 0 22089
2.959 -5.7626 0.60435 0 8185
2.9648 3.7975 -1.3815 0 23411
2.9698 -2.6985 0.46925 0 7163
2.9807 4.9903 0.5423 0 22676
2.9826 -0.43405 0 0 5278
2.9888 -1.1605 -1.167 2 5833
3.0045 9.1978 -1.1315 0 21958
3.0147 1.6375 -1.433 0 1052
3.0352 0.7427 0.36541 0 2818
3.0606 6.5514 1.188 0 22310
3.0612 0.22158 -0.071257 0 3943
3.0631 1.3972 0.63433 2 1537
3.0774 4.1091 0.47895 1 23277
3.0786 1.1431 0 0 2030
3.0887 0.51411 0.44007 0 3332
3.1031 -2.0129 0.43255 0 6648
3.112 1.4637 0.079845 0 1446
3.1217 -2.0389 0.43603 0 6661
3.1271 -3.2484 0.3153 0 7312
3.1435 -5.7873 -0.46053 1 8114
3.1553 0.91909 0.15326 0 2522
3.1555 0.53485 0.44981 0 3313
3.1661 0.34898 0.52333 0 3707
3.1985 3.905 0.35297 2 23560
3.2019 -4.2046 0.99575 0 7757
3.2291 2.3573 0 0 36
3.231 0.95215 0.15708 0 2502
3.2353 2.3488 0 0 63
3.248 -0.29216 -0.075714 0 5011
3.2565 -1.613 -0.16947 0 6191
3.2738 4.5896 0.65927 0 23119
3.2869 -3.5971 0.11313 0 7411
3.33 -0.35764 0.39166 1 5106
3.3315 0.1542 -0.077431 1 4120
3.3618 -1.6172 0.43626 0 6149
3.3623 -2.7334 0.40427 1 7036
3.37 -7.2699 1.5097 0 8284
3.3743 2.4193 0 0 118
3.3979 0.14776 -0.078963 0 4141
3.4012 -8.3972 0.63353 0 8380
3.4014 -5.5877 0.6103 0 8021
3.4087 2.4296 0 0 141
3.4104 -0.4872 -0.079984 0 5263
3.4122 -4.0751 -0.37166 1 7585
3.4201 -8.5857 0.86222 0 8390
3.4359 -2.7933 0.8343 2 7038
3.4375 0.24882 0.40304 0 3951
3.4402 -2.7818 0.83355 2 7028
3.4437 -2.935 0.10505 0 7101
3.4588 0.55524 0.57553 0 3376
3.4606 -8.0123 0.20263 0 8345
3.4611 6.2776 0.50127 0 22542
3.5053 -3.2596 0.11113 0 7178
3.5136 -8.1978 1.6804 0 8352
3.5317 5.2045 -1.0334 1 22962
3.5568 2.3676 0.70198 0 419
3.5604 4.7541 0.27699 0 23275
3.5653 -1.7151 0.27665 0 6148
3.5727 -2.2455 0.79504 2 6595
3.577 -1.9155 0.18922 0 6318
3.5958 -5.9868 0.65154 0 8031
3.6144 0.34676 0.084302 0 3795
3.6283 -1.772 0.6634 0 6173
3.6316 -3.9953 0.6314 0 7427
3.6316 2.0413 0 0 956
3.6322 -2.6043 0.84207 0 6839
3.6331 -1.1504 0.62611 0 5683
3.6351 -2.2697 0.29967 0 6580
3.6378 -1.0034 0.71098 0 5631
3.6503 2.0652 0 0 935
3.6716 -0.98998 0.26591 0 5620
3.6722 -2.0777 0.49341 2 6409
3.6783 -2.5584 0.41801 0 6778
3.6911 -3.8343 0.2482 0 7311
3.6975 -3.4192 0.46985 0 7174
3.6983 -7.4666 1.3689 0 8234
3.7007 -7.6929 -0.3981 0 8256
3.7014 -4.6053 0.13718 2 7667
3.7046 4.8894 -0.14242 1 23314
3.7284 -1.78 0.19267 0 6133
3.7303 -4.4267 0.54007 2 7575
3.7328 -2.2287 0.81911 0 6508
3.7366 0.5551 0.35243 0 3456
3.745 -7.3437 1.3544 1 8198
3.7486 2.0489 0.60039 0 1039
3.764 -3.1161 0.80282 0 7064
3.7702 -2.235 0.82578 0 6497
3.789 6.059 1.1741 0 22771
3.7951 -4.4814 0.13634 0 7562
3.7981 -6.4043 0.52066 0 8043
3.8077 -7.6874 0.80036 0 8232
3.8157 -1.7825 0.69193 1 6102
3.8165 -5.2937 0.45635 0 7824
3.8236 -6.4473 0.34956 0 8042
3.834 -8.6602 1.3311 1 8328
3.8356 -1.477 -0.38346 0 5824
3.852 -1.7848 0.19798 0 6087
3.8564 0.56189 0.36358 1 3477
3.864 -2.1129 0.51501 0 6352
3.8765 6.8018 0.54745 0 22595
3.8836 -1.966 0.10106 0 6230
3.8896 -1.789 0.19966 0 6076
3.8943 7.4176 0.19451 0 22463
3.8946 3.7702 0.12585 0 24445
3.9042 7.8754 0 0 22380
3.9123 -3.9232 0.12863 1 7254
3.9328 1.9071 -0.10148 2 1361
3.9361 6.0983 0.50755 0 22834
3.9372 -2.0943 0.52152 0 6309
3.9414 -5.85 1.329 0 7910
3.9466 0.5638 0.37194 1 3497
3.9533 1.8183 0.30428 0 1509
3.9599 0.51852 0.75246 0 3577
3.969 -1.7979 0.61236 0 6052
3.9714 6.3928 0.17473 0 22756
3.9934 1.8216 0.30693 0 1531
4.0017 -0.00069842 0.18661 0 4442
4.0047 -1.8006 0.61709 2 6040
4.0189 0.86158 -1.496 1 3013
4.0289 1.7002 0.40798 0 1739
4.0331 0.79127 0 0 3124
4.0397 -2.1344 0.53429 0 6300
4.0911 1.795 0.52245 0 1633
4.1035 0.81698 0 0 3105
4.1077 -3.2815 0.86378 0 7013
4.108 2.8722 0.23376 0 223
4.1151 -3.2093 0.12116 0 6979
4.117 -5.5719 0.64634 0 7796
4.1244 -5.0122 0.3027 0 7622
4.1386 1.3639 0.71592 0 2292
4.1549 -1.5999 0.73149 1 5829
4.1566 7.5954 0.80779 0 22529
4.1659 0.81732 0.79986 0 3133
4.175 -1.255 0.71625 0 5657
4.1819 2.366 0.67527 0 942
4.194 2.5862 0.92835 0 686
4.2081 -5.558 1.3135 0 7766
4.2114 1.0696 0.40538 0 2753
4.2183 -1.2824 0.72435 0 5661
4.2218 5.1544 1.0946 1 23567
4.2411 -0.12291 -0.098507 0 4652
4.2471 0.52976 0 0 3607
4.2501 5.6421 1.3309 0 23306
4.2588 1.069 0.40965 0 2773
4.269 1.3239 0.52268 0 2410
4.3067 -7.8794 0.20848 0 8108
4.3083 2.7775 0 0 519
4.3151 1.3655 0 0 2363
4.3201 -8.4133 1.7819 0 8187
4.3417 -5.8761 1.2003 0 7800
4.3417 -5.3386 0.48118 0 7646
4.3523 -1.0256 0.52291 0 5559
4.3695 -2.1643 0.68529 0 6196
4.3753 -2.3431 0.69754 0 6321
4.3775 0.89858 -0.10375 1 3066
4.3793 0.8457 0.73278 2 3153
4.3828 -0.49626 -0.10241 0 5130
4.418 2.7768 0.98316 0 624
4.4322 -3.2965 0.77631 0 6905
4.4405 2.2645 0.23245 0 1229
4.4526 8.7275 1.377 0 22424
4.4718 -2.6162 0.97612 0 6474
4.4726 -2.548 0.96983 0 6424
4.4992 -1.5545 0.78207 0 5727
4.5017 1.5115 -0.11025 0 2245
4.551 -6.9679 1.3673 0 7954
4.5722 2.0061 0.70171 0 1635
4.6428 8.7836 1.8719 0 22477
4.645 8.4248 1.125 0 22543
4.6478 1.3398 0.56565 0 2544
4.6493 -1.3261 -0.22546 0 5636
4.6721 -7.1972 0.40015 0 7960
4.7898 2.618 0.12673 0 1032
4.8021 2.3453 0.24922 1 1347
4.8168 2.931 0.13091 1 718
4.8262 -1.3013 -0.2331 0 5619
4.8297 2.3067 0.87934 0 1411
4.8334 1.9401 0.85567 2 1862
4.8494 0.79151 0.92576 0 3356
4.8746 -2.7963 0.65718 0 6435
4.8898 3.8798 0 0 25220
4.8927 1.6742 0.72676 0 2216
4.9157 -4.2402 0.60566 0 7112
4.9206 3.0142 0.13397 0 697
4.9292 5.5441 1.2188 0 23885
4.9651 7.0909 0.8076 0 23068
4.9812 -1.5296 0.73233 0 5666
5.0294 -2.6934 0.53227 0 6320
5.0334 6.0757 0.18318 0 23603
5.0805 8.0771 1.5677 1 22785
5.1006 -6.5403 1.5627 1 7721
5.1031 6.1972 0.18638 0 23580
5.1311 1.146 0.86378 0 2958
5.181 2.0283 0.51908 0 1919
5.1813 2.9722 0.83949 1 902
5.1984 2.6693 0.27251 0 1209
5.22 -0.71412 -0.12232 1 5234
5.2206 -7.8935 0.44133 0 7931
5.2293 -1.3768 0.88842 0 5613
5.2574 -0.73514 -0.12325 0 5249
5.2812 0.52155 0.87188 0 3782
5.2862 -6.3853 0.96939 0 7614
5.3277 2.3376 0.95586 0 1637
5.338 4.3088 0 0 25152
5.3815 -2.8626 0.56868 1 6308
5.4093 -8.0286 1.3606 0 7907
5.4193 -0.43983 0.89328 0 4974
5.4245 -6.5177 0.19687 0 7597
5.4435 -2.8555 0.42984 0 6290
5.5171 3.2719 0.7501 0 803
5.5355 0.56228 0 0 3757
5.5374 -5.0634 0.70003 1 7167
5.5589 -2.2516 0.98537 0 5889
5.5751 -2.864 1.1809 0 6258
5.5776 -2.885 1.1831 0 6270
5.5814 -5.8284 0.18736 0 7322
5.6053 -3.9205 0.63817 0 6790
5.6078 5.0599 1.4231 0 24720
5.6183 7.0279 0.2089 0 23484
5.6478 -1.058 0 0 5424
5.6807 -0.1309 -0.79858 0 4603
5.7071 -0.032871 0.53246 1 4492
5.7481 -0.14951 0 0 4629
5.7535 -4.7075 0.1726 0 7045
5.7622 -2.2373 0.28826 0 5836
5.8006 -0.69168 0.95975 0 5163
5.8029 0.31935 0.27102 0 4060
5.8137 0.43918 -0.6818 1 3919
5.8382 2.7884 0.60361 0 1407
5.8518 4.171 0.33512 0 145
5.8645 1.0467 1.1224 0 3256
5.8661 -5.6806 0.18959 0 7211
5.8821 0.71807 -0.83281 0 3616
5.8971 -5.2064 1.2924 0 7133
5.9137 -1.2851 0.5646 2 5512
5.9455 -1.5653 0.71897 0 5611
5.9539 4.8941 0.53894 0 25083
5.968 2.3364 0.29888 0 1916
5.9759 1.6292 0 0 2631
5.9776 1.2815 0.57036 0 3017
6.0024 -7.7914 0.22835 0 7736
6.0079 -4.9737 0.36372 0 7061
6.0426 2.2845 0 0 1990
6.0472 3.1265 0.7961 0 1191
6.0485 1.649 0.73314 0 2638
6.0663 -0.26274 0 0 4749
6.0791 2.9689 1.1115 0 1353
6.0809 -2.2193 1.0635 0 5775
6.1274 0.35545 1.0084 2 4046
6.1369 1.5199 -0.14679 0 2788
6.1457 -1.1512 0.87874 0 5426
6.1834 -3.6177 1.177 0 6472
6.1856 -4.6544 0.54131 0 6924
6.2412 1.3757 0.29804 0 2973
6.2448 -4.3144 1.247 0 6766
6.2718 1.1556 0.89627 0 3215
6.2796 -2.1292 0.30922 0 5714
6.2812 -2.3148 0.15542 0 5781
6.2866 -2.4827 1.2735 0 5858
6.2877 -2.2737 0.15523 0 5763
6.3331 0.92278 0 0 3472
6.344 4.4653 -0.18012 1 193
6.3612 5.2906 0.57856 0 25035
6.3702 -1.1565 0.90991 0 5407
6.3734 -1.877 0 0 5646
6.3759 -5.0317 -1.1415 0 6991
6.3777 0.68495 0.44853 0 3721
6.3779 -2.9106 1.3209 0 6067
6.3925 -4.7822 0.74481 0 6915
6.3956 0.37101 0.44798 0 4040
6.4107 2.5304 0 0 1894
6.4267 1.4566 1.0826 0 2938
6.4394 1.7351 0.62219 1 2655
6.4575 0.18827 0.45174 0 4247
6.4693 3.514 0.5148 0 1057
6.5187 1.7772 0.63036 0 2636
6.5201 0.68069 0.92133 0 3744
6.5442 -1.9671 0.79912 0 5655
6.5555 1.07 0.15421 0 3347
6.5833 2.4261 0.16289 0 2053
6.5883 2.8237 1.3505 0 1699
6.602 2.3029 0.16234 1 2174
6.6161 2.3273 0.65433 1 2157
6.6548 -2.1072 0.81631 1 5681
6.6597 3.544 -0.17515 1 1113
6.6599 -3.0169 1.3775 0 6055
6.663 1.6922 0.32059 0 2750
6.67 -4.4399 1.3164 0 6695
6.6835 1.9051 0.97672 0 2564
6.6945 1.2928 -0.1583 0 3143
6.7034 3.6639 0.5342 0 1035
6.723 -6.289 0.42931 0 7184
6.733 -1.6687 0.8112 0 5587
6.8153 4.7385 1.3638 1 260
6.8367 -4.1339 0.74536 0 6529
6.8518 -5.096 0.59712 0 6902
6.8735 4.8667 0 0 168
6.8769 1.5158 0 0 2970
6.898 -4.6755 0.9745 0 6729
6.9365 0.38174 0.48578 0 4062
6.9767 6.0094 0 0 24889
6.991 -3.513 0.72994 1 6219
6.9944 -5.3922 1.451 0 6964
7.0134 -3.3482 1.0922 0 6135
7.0413 5.9947 -0.2147 0 24935
7.0562 1.215 0 1 3286
7.0786 2.6283 1.2405 0 2038
7.0981 -2.4996 0.70208 1 5740
7.1025 4.5213 0.78549 0 571
7.1033 3.8295 -0.18736 0 1073
7.1197 5.6127 0 0 25244
7.1406 -1.9253 0.86486 0 5621
7.2246 -1.2674 1.382 0 5391
7.244 -1.7739 0 0 5579
7.2485 6.8546 1.639 1 24535
7.2584 2.5775 1.4512 0 2141
7.261 4.0814 1.5693 0 965
7.2943 -5.2938 0.84086 0 6860
7.3167 1.6127 1.053 0 2979
7.3348 -6.7447 1.6371 0 7172
7.3659 -4.5404 0.60507 0 6560
7.3791 3.0883 0.37304 0 1758
7.3815 4.2343 0.19757 0 895
7.3878 1.9451 1.2551 0 2696
7.4354 -4.0657 1.3923 1 6353
7.4514 -0.86479 1.2324 0 5149
7.4677 -5.6518 0.87374 0 6935
7.49 -6.3452 1.6128 0 7095
7.5284 3.2797 -0.19065 0 1648
7.5336 1.5917 0.17877 0 3032
7.563 3.6675 -1.3809 0 1355
7.5916 6.4245 0.46378 0 24962
7.5957 -3.7623 1.3926 0 6198
7.6186 -6.1606 1.377 0 7027
7.6247 2.2701 0.74221 0 2484
7.6276 2.9341 0.76246 0 1956
7.6344 4.7391 1.2629 0 662
7.6707 -1.5983 0.3654 0 5489
7.7417 4.8057 0 0 654
7.7575 -0.17875 0.36186 0 4611
7.7651 1.7115 0.74184 0 2976
7.8045 0.52111 0.1816 0 3986
7.839 -5.3816 1.5622 0 6754
7.8431 2.9652 0.98054 0 1996
7.849 0.54473 0.18267 0 3967
7.8829 -1.8315 0.75503 0 5551
7.8858 -5.7567 1.1418 0 6872
7.892 0.50343 0 0 4002
7.8929 -3.4927 1.0093 0 6014
7.9053 1.8644 1.1415 0 2879
7.9148 -1.5284 0.75205 0 5445
7.9195 -3.4221 1.0089 0 5978
7.9339 1.9414 0 0 2811
7.9373 -2.4131 1.5631 0 5663
7.994 -0.48473 1.3158 0 4859
8.0488 1.9934 0.7736 0 2795
8.0587 0.045008 1.1326 0 4410
8.0671 3.0242 1.2108 0 2016
8.0732 4.7233 0.87263 0 840
8.1091 0.37532 0.18847 1 4122
8.1797 3.5058 0.83027 0 1693
8.1837 0.25861 -0.1901 0 4225
8.1892 0.21301 0 0 4265
8.2022 -3.0748 0.20337 0 5798
8.2379 0.83678 1.5601 0 3766
8.2405 -0.094928 -1.1582 0 4523
8.2505 -2.6919 0.40472 0 5695
8.2622 2.1475 0.3981 0 2711
8.2933 1.3313 1.1805 0 3374
8.315 0.99004 -1.3758 0 3633
8.3481 -2.6161 1.0231 0 5677
8.3674 0.77623 1.3806 0 3821
8.3765 -2.5722 1.4396 1 5668
8.382 -2.6815 0.61539 0 5687
8.3914 -1.2481 0.19697 0 5292
8.3984 3.4564 0.63506 0 1797
8.4141 -4.6967 0.89901 0 6387
8.4396 4.0599 0.87374 1 1386
8.4416 1.9132 -0.20096 0 2929
8.4435 -5.272 1.399 0 6582
8.4744 -4.0766 1.545 0 6151
8.4845 -1.5129 1.6238 0 5400
8.5209 1.6193 1.6342 0 3175
8.5216 -0.27376 0 0 4673
8.5307 -4.7287 0.90997 0 6374
8.5356 -3.256 1.5009 0 5818
8.5553 -1.2222 1.4199 0 5269
8.6046 1.6103 0 0 3187
8.6151 0.72646 -0.20073 0 3869
8.6218 -2.4853 1.0493 0 5639
8.6479 1.6184 1.0289 0 3193
8.7046 -3.2338 0.43304 0 5791
8.792 1.7249 -0.20802 0 3122
8.8273 -2.2419 0.21145 0 5597
8.8325 -1.9484 1.7041 0 5525
8.8542 0.48728 0.20588 0 4058
8.9721 3.4243 0.22296 0 1971
8.9818 -4.3866 -1.4048 0 6164
9.0557 -2.8379 0 0 5676
9.1303 -0.68812 0.85423 1 4938
9.1556 -0.87836 -1.2926 2 5038
9.1594 3.195 1.3633 0 2180
9.1728 1.5547 0.86798 0 3310
9.1811 1.6619 -1.3113 0 3219
9.2031 1.6957 -1.3152 0 3199
9.2042 -3.0636 -1.3633 0 5704
9.2066 -0.5873 1.2965 0 4875
9.2235 -0.74859 0.86334 0 4970
9.2431 -3.1035 -1.3703 0 5709
9.2578 -0.77903 1.7504 2 4989
9.2649 -0.29764 1.523 2 4681
9.3073 -0.26973 1.5298 2 4661
9.3365 -0.48604 0.65376 1 4805
9.338 -0.86791 1.5408 2 5035
9.3442 -0.43412 1.0939 2 4773
9.3472 -0.89674 1.5427 0 5049
9.4011 -0.70852 0.43965 1 4936
9.4127 -0.35502 1.3238 1 4719
9.4217 1.5969 -1.343 1 3297
9.4468 -1.5724 1.1199 1 5363
9.4522 -0.65599 1.3316 0 4909
9.4652 -1.6877 0.67231 2 5397
9.4723 -0.57437 0.44254 0 4852
9.4771 -2.9409 1.6303 0 5673
9.4932 -2.2966 1.6047 0 5576
9.4957 -0.55084 0.44357 1 4835
9.51 -0.21913 1.3369 2 4617
9.5253 -0.63601 0.89065 2 4888
9.549 2.9012 1.1671 0 2447
9.5588 0.13848 1.5706 2 4357
9.5679 -0.33078 1.5729 0 4702
9.5688 0.22216 -0.22222 0 4288
9.5733 -0.11028 1.3455 2 4539
9.5776 -0.3897 1.5748 2 4740
9.5963 -1.8844 0.91238 2 5457
9.6059 -0.11066 1.1234 1 4537
9.6227 -0.52957 1.3544 2 4824
9.6243 -0.50102 1.3544 0 4810
9.6492 -0.30998 1.129 1 4678
9.6658 -0.22272 0.67608 1 4612
9.6745 -0.31079 0.45139 1 4674
9.6988 -0.42006 1.1353 2 4755
9.7198 1.9352 -1.3928 1 3097
9.7305 -0.73335 1.3714 2 4941
9.7518 -0.5657 0.68306 0 4836
9.7518 -0.086805 0.68194 1 4511
9.7535 -0.48214 0.22672 0 4786
9.7699 0.027284 1.3731 2 4428
9.7837 -0.76484 1.3792 0 4957
9.7903 -0.73785 0.68654 1 4937
9.8189 -0.85386 0.68919 2 4999
9.8236 -0.91303 0.68989 2 5031
9.8508 0.085965 1.3845 2 4392
9.8852 0.17082 1.1562 2 4338
9.8912 0.22965 0.69184 2 4293
9.9065 0.25768 0.69296 0 4269
9.911 -0.0017298 0.92465 2 4446
9.9219 -0.14374 1.6303 0 4561
9.9301 0.57605 0.92799 1 4042
-14.931 -0.98122 2.8191 0 10704
-14.138 4.3144 0.34319 1 11337
-13.823 -0.50688 2.6062 0 10752
-13 5.8668 0.33113 1 11780
-12.882 -2.1327 1.8351 0 10618
-12.699 -0.16846 -0.29487 0 10783
-12.638 0.3773 1.777 0 10849
-12.572 0.34019 0.29199 1 10845
-12.492 3.3074 1.5111 0 11238
-12.059 3.4921 -0.29148 0 11299
-12.039 -0.092457 1.1232 0 10792
-11.85 -8.1258 -0.33359 0 10561
-11.788 6.1626 2.1854 0 12105
-11.743 4.7348 2.3855 0 11618
-11.652 3.0481 2.2692 0 11231
-11.471 0.31039 -0.26641 0 10844
-11.421 2.4986 1.0907 0 11140
-11.414 0.34075 1.8761 0 10850
-11.351 -1.3073 1.6058 0 10653
-11.303 1.3918 -0.79634 0 10983
-11.06 4.3881 0.5549 1 11590
-10.947 2.5919 2.1196 0 11180
-10.611 -1.6617 1.5095 0 10623
-10.465 0.37459 1.973 0 10860
-10.44 1.4412 1.9856 0 11009
-10.426 8.971 -1.6085 2 13815
-10.364 8.7117 1.9028 0 13728
-10.303 1.1484 -0.2407 0 10968
-10.245 1.6868 -0.48419 0 11049
-10.192 2.3531 0.97592 0 11165
-10.106 -0.54553 1.6627 0 10724
-10.071 -1.1332 1.1852 0 10658
-10.016 -8.4314 2.151 0 10480
-9.9833 3.0789 1.4683 0 11347
-9.7966 3.2399 1.9441 0 11406
-9.635 -6.689 -0.54698 0 10558
-9.5712 4.3196 1.4758 0 11786
-9.516 -10.045 -0.64527 0 10382
-9.4727 3.258 -0.23257 0 11438
-9.2757 -6.2025 1.8333 0 10569
-8.3886 -8.1206 -1.6409 0 10419
-8.3027 -11.229 2.2943 0 10202
-8.0908 -8.0626 1.3357 0 10412
-8.0901 8.2845 0.54 1 14665
-7.8114 -9.712 0.87154 1 10257
-7.7212 -7.4745 1.5103 0 10421
-7.6062 -7.0681 1.2142 0 10431
-7.5797 -6.5681 1.8897 0 10463
-7.4367 9.6289 0.85075 1 15685
-7.1127 -7.3835 1.1989 0 10394
-7.0466 11.64 2.5636 0 16689
-6.9964 -10.439 2.3677 0 10150
-6.7464 3.7535 -1.8293 2 12253
-6.5378 -7.9423 1.9382 0 10272
-6.4807 8.0488 1.2084 0 15506
-6.4514 9.9838 2.2396 2 16428
-5.9885 9.0374 1.5237 1 16328
-5.9297 -9.9353 1.6261 0 10097
-5.8913 9.5426 2.113 2 16609
-5.8804 10.808 0 0 17107
-5.7312 -8.9342 -0.495 0 10129
-5.5157 -12.165 2.1945 0 9980
-5.4728 -8.813 1.458 0 10115
-5.2603 8.7998 1.1989 0 16736
-5.1482 12.386 0.62552 1 18005
-5.1328 8.876 -0.23805 0 16860
-4.7004 11.982 0.9 2 18176
-4.4147 11.167 1.4043 1 18154
-4.4132 -13.259 2.6329 0 9847
-4.3375 10.184 2.0856 1 17945
-4.0308 12.585 0.3068 1 18718
-3.9568 12.354 2.444 1 18732
-3.9224 11.034 1.3694 2 18446
-3.7123 -9.3191 0.2329 0 9944
-3.7113 10.933 0.80736 1 18571
-3.5089 10.844 1.6019 2 18701
-3.407 -11.819 -0.28559 0 9697
-3.3106 -9.9461 -0.48885 0 9842
-3.2562 12.35 1.7951 0 19158
-3.1634 -9.6955 1.1926 0 9829
-3.0777 -11.289 -0.27166 0 9646
-2.5216 1.9265 -1.6873 1 13279
-2.4937 -10.871 -0.25894 0 9516
-2.4643 1.1371 0 0 11820
-2.258 12.031 -1.4314 0 19689
-2.2339 -1.7098 0.19671 0 10526
