VERSION .7
FIELDS x y z intensity index
SIZE 8 8 8 8 8
TYPE F F F F F
COUNT 1 1 1 1 1
WIDTH 1550
HEIGHT 1
VIEWPOINT 0 0 0 1 0 0 0
POINTS 1550
DATA ascii
-5.8521 0.19925 0.96202 0 8625
-5.8342 -1.0813 1.1179 1 8237
-5.834 -0.020364 0 0 8535
-5.8276 7.3158 0.65404 0 13694
-5.8115 -6.5757 1.2334 0 7730
-5.809 -7.4432 0.44031 1 7504
-5.8038 -7.852 0.68278 2 7406
-5.7924 1.1008 0.82864 2 9077
-5.7762 -0.59182 0.13481 2 8337
-5.7735 -4.3364 0.67365 2 8108
-5.7637 -7.4279 0.43844 0 7493
-5.7636 6.621 1.0265 0 13299
-5.7619 -6.2946 1.402 2 7788
-5.7543 -7.1135 0.21243 0 7563
-5.754 -7.2858 0.43295 2 7526
-5.7466 1.6739 0.41854 1 9467
-5.7441 -0.80932 0.54119 0 8279
-5.7417 3.4992 0.94499 0 10831
-5.7397 -7.0955 0.85145 2 7566
-5.7314 1.1921 0.68459 2 9144
-5.7257 -6.9929 0.63199 0 7584
-5.7233 6.4622 1.4182 1 13227
-5.7224 1.6853 0.41714 0 9478
-5.7201 0.29477 0.80498 2 8671
-5.7181 -6.7021 1.4474 1 7663
-5.7137 1.3812 0.82613 1 9281
-5.7093 -1.0088 -0.27037 0 8241
-5.7083 1.5906 1.1165 2 9422
-5.7082 -7.6721 0.66869 2 7415
-5.6996 1.6064 0.69249 0 9429
-5.6955 1.2543 0 0 9195
-5.6913 0.01192 0.53097 0 8548
-5.6884 1.6204 0.97175 1 9445
-5.6883 -4.6195 1.2039 0 8067
-5.6828 -8.1249 1.629 1 7315
-5.6805 1.2864 0.68111 0 9221
-5.6674 1.4731 0.40947 2 9349
-5.6641 -6.5991 0.40556 2 7668
-5.6621 1.1448 0.67553 1 9120
-5.6618 0.16111 0.93057 0 8609
-5.6587 -7.3374 0.43211 0 7484
-5.6545 -7.8373 1.1301 0 7365
-5.6545 3.8877 0 0 11219
-5.6544 -4.1445 1.3209 1 8125
-5.6533 6.1264 1.3696 1 13042
-5.6492 1.6092 0.68692 1 9442
-5.6478 -6.2091 1.379 0 7780
-5.6417 -0.87742 1.0757 0 8261
-5.6236 -6.2194 0.39102 0 7764
-5.6232 1.4448 0.40598 2 9337
-5.6231 1.2548 0.80971 2 9209
-5.6084 2.4631 0.57147 2 10077
-5.6038 2.3269 0.56608 2 9982
-5.5998 6.6641 1.2233 1 13457
-5.5993 -6.8385 0.41217 0 7583
-5.597 3.6361 0.93803 0 11037
-5.5957 6.617 1.4237 1 13432
-5.5944 2.5342 0.86315 1 10136
-5.5865 -7.0308 1.6919 2 7541
-5.5829 6.763 1.6523 2 13543
-5.5757 2.5082 0.85925 2 10124
-5.5636 1.3614 0.80498 0 9295
-5.5627 4.8904 1.2169 1 12152
-5.5521 -6.9451 1.6753 2 7548
-5.5382 -4.7134 0.85046 0 8041
-5.5319 -6.7563 0.81466 1 7585
-5.5307 -8.2554 1.6326 0 7249
-5.5243 3.871 0.47169 0 11290
-5.5213 6.6457 1.6279 1 13514
-5.5194 -0.43535 -0.12854 0 8378
-5.5189 1.2833 0.39622 1 9244
-5.515 -6.2798 0.19404 2 7716
-5.5117 1.365 0.79802 0 9306
-5.504 6.6249 0.60228 0 13507
-5.5002 -7.5288 0.43481 0 7385
-5.4983 -8.0061 0.67915 1 7283
-5.4958 -4.6773 0.67328 0 8040
-5.4928 3.09 0.14632 0 10599
-5.4909 5.7139 1.4931 0 12856
-5.4895 4.4453 1.3309 1 11824
-5.4859 -7.559 0.43556 0 7374
-5.4845 -6.2826 0.19362 2 7705
-5.4745 -6.9744 0.62 1 7517
-5.4687 -6.4098 0.19562 1 7659
-5.4682 6.6642 1.4163 2 13569
-5.4657 6.6968 1.4202 1 13597
-5.465 -4.0057 0.79238 0 8123
-5.4568 7.7758 0.22055 0 14211
-5.4552 6.6083 0.59921 0 13534
-5.4549 -0.60705 0.3838 1 8324
-5.4417 -5.6115 0.91411 2 7866
-5.4356 -7.1793 0.84011 2 7450
-5.4314 -7.4346 1.0767 2 7388
-5.4295 7.6429 0.65557 1 14167
-5.4237 1.3272 0.52094 2 9294
-5.4126 -6.306 1.1679 2 7672
-5.4017 6.6184 0.79701 2 13592
-5.3946 6.6499 0.79887 0 13620
-5.3935 5.6125 0.18072 0 12843
-5.3925 -6.586 0.99541 1 7586
-5.3856 3.8671 0.15393 1 11376
-5.381 -6.2339 1.1574 0 7682
-5.3808 -6.6518 1.0005 2 7567
-5.3802 -6.6511 0.39894 0 7564
-5.3728 -6.6801 0.39978 0 7553
-5.3721 -6.1171 0.37965 2 7717
-5.3687 2.3399 0.82307 0 10065
-5.3665 0.57351 1.0169 0 8813
-5.3661 2.0846 0.94581 0 9879
-5.3591 3.5713 0.60083 0 11117
-5.354 -6.2754 0.38469 2 7660
-5.3373 7.5131 0.42978 0 14165
-5.3362 -5.9724 1.509 2 7750
-5.3299 -7.1636 1.6823 1 7420
-5.3296 0.75851 1.0143 1 8924
-5.3277 6.7654 1.2102 0 13747
-5.3253 -7.2442 0.83881 2 7398
-5.3071 2.6495 0.83365 0 10311
-5.3062 2.3492 0.81555 0 10096
-5.2967 -0.1424 -0.12302 2 8484
-5.2881 6.7588 1.2061 2 13770
-5.2823 1.2438 0.37948 2 9252
-5.2747 -0.21739 0.86734 0 8454
-5.2617 0.73293 1.0009 0 8913
-5.2459 0.33188 0.73873 1 8702
-5.2419 -0.032936 0 0 8529
-5.2396 6.5777 0.78457 2 13696
-5.2392 1.5748 0.63976 0 9509
-5.2332 0.54449 0.9913 2 8806
-5.2325 2.6523 0.82446 0 10343
-5.2146 -6.1837 0.75465 1 7639
-5.2136 -0.55073 -0.12172 1 8332
-5.2115 -0.17015 0.98242 0 8472
-5.2108 2.6413 0 0 10335
-5.2078 1.5823 0.63651 1 9524
-5.1957 0.63151 0.98612 1 8859
-5.1752 4.2148 0.93803 0 11845
-5.1714 -5.9553 1.486 1 7699
-5.1692 4.0154 0.61067 1 11670
-5.1613 -5.9436 0.7344 1 7695
-5.1601 -5.978 1.4879 2 7685
-5.137 -7.8651 1.5434 2 7210
-5.1369 6.6415 1.5819 2 13827
-5.122 -6.8842 0.40015 1 7414
-5.121 -6.0385 0.73868 1 7651
-5.1196 6.5835 0.77806 1 13795
-5.1188 -5.8636 0.36298 1 7706
-5.1166 -6.6753 0.98356 1 7475
-5.1046 -7.1169 1.0242 1 7355
-5.1032 -6.4618 0.57577 0 7527
-5.1002 0.30748 0.83946 0 8693
-5.0827 8.4925 1.6261 2 14887
-5.0728 6.6783 1.5801 2 13903
-5.071 -7.2502 0.82544 2 7314
-5.0694 -7.5669 0.42475 0 7245
-5.0664 2.261 0.25872 1 10105
-5.0655 -6.1167 0.92874 1 7605
-5.0612 -7.6004 1.7204 2 7240
-5.06 -0.80323 0.84173 1 8258
-5.059 -5.8609 0.72233 2 7680
-5.0401 4.2532 0.30754 1 11980
-5.0288 2.1222 0.50923 0 10009
-5.0259 -7.2233 0.82098 2 7304
-5.0236 3.2226 0.13857 0 10988
-5.0144 -6.7004 0.97869 1 7429
-5.0116 6.4054 1.3362 0 13772
-5.0086 -6.6153 0.97032 1 7451
-5.0078 4.8057 0.81166 0 12501
-5.0053 -6.5301 1.3518 2 7477
-5.0046 -4.5157 0.62888 0 7999
-4.9975 2.5508 0.78855 0 10358
-4.9861 -7.7816 0.43099 1 7174
-4.9832 -7.7236 1.2918 2 7186
-4.9734 -7.1107 1.6349 1 7317
-4.9711 6.5444 0.76673 2 13898
-4.9692 -6.1782 0.55442 0 7554
-4.965 -0.77217 0.11666 0 8260
-4.9602 -5.8821 1.0814 2 7641
-4.9551 3.0579 0.54323 0 10872
-4.9522 6.5981 0.96475 1 13949
-4.9496 6.6768 0.97195 2 13996
-4.945 -7.4768 0.62683 2 7225
-4.9423 -7.6601 0.42512 2 7185
-4.9395 -7.6119 0.42316 1 7194
-4.9369 6.3485 1.3213 1 13800
-4.915 0.36697 0.22984 0 8727
-4.9136 -6.2217 0.92711 1 7529
-4.9132 -7.3782 0.41338 2 7234
-4.912 0.083166 0.11406 0 8581
-4.9118 -7.9622 1.7626 1 7125
-4.8988 -5.9154 1.0794 0 7606
-4.8866 -5.9006 0.53573 0 7603
-4.8826 -6.6057 0.76636 2 7407
-4.8807 -7.5214 1.6893 1 7201
-4.8797 -6.3663 0.37406 2 7472
-4.8754 -0.088506 0.91872 1 8505
-4.8745 -6.9229 1.1899 1 7325
-4.8737 -7.4139 0.62041 2 7217
-4.8612 4.1754 0.14878 0 12051
-4.8579 -7.4862 1.2542 0 7198
-4.8547 -6.3703 0.37351 1 7460
-4.8494 -7.2384 0.60925 2 7246
-4.8327 -8.367 0.67566 0 7034
-4.8298 -7.5842 1.4772 1 7167
-4.8266 -0.83717 0.11373 1 8244
-4.8251 -6.4851 -0.37695 1 7411
-4.825 -6.8121 0.77881 1 7333
-4.8216 -7.0656 1.2022 0 7276
-4.8211 -0.70677 0.80055 0 8271
-4.8207 -8.4038 0.67747 2 7026
-4.8096 -6.1273 0.36326 0 7516
-4.7957 -8.5879 1.616 1 6992
-4.7923 -5.9946 0.71601 1 7545
-4.7894 -8.5767 0.4581 0 6987
-4.7766 6.5575 0.75688 0 14069
-4.7663 -6.5243 1.5223 2 7392
-4.765 -8.5891 1.6137 1 6980
-4.7643 -6.5647 1.5282 2 7379
-4.7641 -8.7744 1.8811 2 6953
-4.7598 1.2372 0 0 9348
-4.7506 4.9435 1.1264 0 12854
-4.7435 6.4386 1.5068 0 14027
-4.7376 7.1877 1.4143 0 14482
-4.7342 -6.2123 1.4716 1 7466
-4.7174 4.5001 0.76241 1 12477
-4.7126 -7.0769 1.1949 2 7237
-4.7026 -6.0976 1.0822 0 7487
-4.7016 0.79521 -0.33344 0 9005
-4.6983 -6.2056 0.36298 2 7448
-4.698 -8.5314 0.45419 1 6965
-4.6911 -8.7015 1.6241 2 6944
-4.6834 -0.5767 -0.10955 0 8308
-4.6824 -0.71317 0.3312 0 8263
-4.6789 8.5321 1.8334 0 15235
-4.6731 -6.1723 1.4586 2 7454
-4.6675 -5.7005 1.0354 2 7587
-4.6667 -6.1996 1.0906 0 7440
-4.6497 -6.2495 1.0947 2 7418
-4.6495 0.038141 0.76391 0 8561
-4.6473 6.7898 0.96219 2 14321
-4.6459 4.2796 0.58931 0 12337
-4.645 -3.5539 0.54565 0 8098
-4.6401 -6.0536 0.53336 0 7473
-4.6385 -6.7972 0.38375 0 7274
-4.6318 6.4387 0.73998 2 14118
-4.6286 -5.8252 1.2224 2 7539
-4.6256 7.7288 -1.4798 0 14863
-4.6236 -8.6921 0.45913 0 6918
-4.6047 2.9539 0.8988 0 10996
-4.6004 2.6603 0.24782 0 10674
-4.5947 -8.2822 1.7845 0 6982
-4.5947 2.7097 0.24876 0 10731
-4.5933 -8.3414 1.7941 2 6971
-4.5878 -8.3902 0.66869 2 6957
-4.5869 -5.6381 0.50825 2 7575
-4.58 -5.8685 1.223 1 7508
-4.5736 -5.654 0.50852 1 7565
-4.5682 6.7548 0.9536 0 14376
-4.5643 6.7949 1.1504 1 14405
-4.5637 -7.5953 1.2453 1 7088
-4.5631 -8.1714 0.65446 0 6988
-4.5569 2.4434 0.12005 0 10471
-4.5547 6.4496 0.73663 2 14190
-4.5535 -8.3865 1.116 2 6951
-4.5499 -7.0519 1.5812 1 7188
-4.5297 1.8809 -0.11387 0 9980
-4.5202 4.5424 0.14878 0 12692
-4.5182 -8.3808 1.1134 0 6942
-4.5122 -7.042 0.58484 2 7175
-4.5092 8.452 0.44674 0 15323
-4.5079 0.16687 0.31544 0 8633
-4.5036 4.0055 -1.4281 0 12198
-4.4975 0.64008 0.10547 0 8919
-4.4876 4.5096 0 1 12690
-4.4828 -7.7613 1.0481 2 7036
-4.4792 -8.7268 1.1471 1 6871
-4.475 2.3654 0.35394 0 10436
-4.4749 1.7222 0.67388 0 9864
-4.4709 -6.8453 0.57172 2 7206
-4.468 -5.7934 0.85557 2 7486
-4.4614 -7.7775 0.41813 0 7025
-4.4614 8.6623 0.90904 1 15455
-4.4592 6.4736 1.1048 0 14294
-4.4569 -8.5 0.44757 1 6897
-4.4518 6.1522 -0.17631 0 14088
-4.4508 1.3108 0.76229 0 9483
-4.4462 0.67243 -0.1044 0 8949
-4.4453 8.6907 0.91071 2 15479
-4.4418 0.16442 0.1032 0 8632
-4.4356 -5.8204 1.2023 1 7465
-4.4336 1.2629 -0.43009 2 9438
-4.4301 -6.531 0.73626 2 7266
-4.4279 -8.5643 1.355 2 6883
-4.4278 -6.9529 0.38441 2 7162
-4.4242 0.15063 0.10278 1 8622
-4.4226 2.5906 -0.35841 0 10704
-4.4217 -8.4868 0.44627 0 6889
-4.4169 2.0008 0.79666 1 10138
-4.4009 -6.3676 0.72214 2 7294
-4.3974 -6.5243 0.73403 2 7257
-4.3974 8.8507 1.3889 1 15582
-4.3969 -7.8256 0.4186 0 6999
-4.3959 -8.3235 0.65822 2 6908
-4.3916 -5.8342 0.68127 0 7439
-4.3838 8.9524 1.1657 2 15636
-4.3761 -8.3992 0.66227 1 6890
-4.3653 6.4986 0.9155 2 14403
-4.3643 8.984 1.168 0 15661
-4.3613 2.8899 0.85956 0 11098
-4.3574 6.9087 0 0 14657
-4.3367 0.62956 0.51246 0 8931
-4.3327 -3.434 0.12836 1 8080
-4.3303 -8.6814 0.45242 2 6833
-4.3248 -3.1699 0.88096 0 8124
-4.3231 -6.6621 0.92874 1 7197
-4.3068 0.56242 0.30372 0 8886
-4.2782 1.3276 0.52384 0 9548
-4.268 0.15799 0.49945 0 8634
-4.2464 -8.3269 0.65362 2 6858
-4.2427 -8.5058 1.1116 2 6835
-4.2318 3.2284 -1.3934 0 11600
-4.2003 0.7225 0 0 9018
-4.1876 -5.2382 0.78425 1 7546
-4.1666 -2.8722 -0.11749 0 8168
-4.1654 -7.7263 0.20379 0 6938
-4.1554 -5.1665 -0.15393 0 7551
-4.1417 -3.3015 0.12297 0 8076
-4.1376 -8.4757 1.103 0 6805
-4.1345 2.7731 0.46446 0 11141
-4.1309 -6.4868 1.0808 2 7166
-4.1304 -3.0097 0.11865 0 8127
-4.1254 3.5222 0.50608 0 12030
-4.1227 3.3195 0.49381 0 11798
-4.0949 1.9558 0 0 10222
-4.0931 -5.34 0.15621 0 7471
-4.0866 -8.2576 0.64427 2 6823
-4.0777 0.13883 0.2853 0 8623
-4.0769 1.7347 0.72792 0 10025
-4.0669 -8.7095 0.89678 1 6753
-4.0528 -3.7648 0.77742 2 7976
-4.0265 3.1278 0.11838 0 11665
-4.0251 6.6357 0.54271 0 14827
-4.0209 -8.6821 1.3447 1 6745
-4.0028 3.6436 -0.3785 2 12282
-3.9868 -8.676 1.3419 1 6737
-3.9842 1.4281 0.59483 0 9755
-3.9601 -6.3375 0.87392 0 7139
-3.9439 -0.55568 0.46576 0 8280
-3.9369 0.71263 0.09289 0 9048
-3.9252 7.9004 -1.4494 0 15560
-3.9222 -0.23027 0.36655 1 8415
-3.9058 -8.7561 1.3475 1 6703
-3.8719 -8.7539 1.3452 0 6693
-3.8664 -8.6678 1.7882 1 6705
-3.8643 -2.8667 0.7905 0 8115
-3.841 -2.9197 -0.11202 1 8103
-3.8354 7.3459 -1.3615 0 15386
-3.8345 -7.6874 0.80147 1 6834
-3.8333 -7.7459 0.8063 2 6824
-3.8234 0.37556 0.17916 0 8786
-3.7969 -0.54512 0.44857 0 8274
-3.7949 -7.8887 0.81671 1 6787
-3.7939 -7.5531 0.98844 2 6844
-3.793 -0.67017 -0.45043 0 8240
-3.7773 -5.1383 0.89627 1 7399
-3.7679 -6.4376 0.87229 2 7053
-3.7626 -6.4752 0.87578 2 7045
-3.7372 -8.7197 0.88507 2 6658
-3.7289 0.3768 0.17478 2 8795
-3.7267 -0.51381 0 0 8283
-3.7177 -6.2689 1.0243 2 7072
-3.7033 0.10538 0.43324 0 8608
-3.7005 -3.9739 0.25323 0 7810
-3.6814 -7.1204 -0.1861 0 6878
-3.6811 4.5103 0.4071 0 13590
-3.6744 5.4006 0.45677 0 14347
-3.6667 -3.3282 0.34627 0 7994
-3.6596 1.2181 0.089547 0 9640
-3.6457 -8.5763 1.5311 2 6652
-3.6435 -6.5247 0.87392 2 6990
-3.6396 -8.5618 0.65055 1 6649
-3.632 -6.547 0.87554 2 6978
-3.6297 7.7522 -1.203 0 15767
-3.6076 -6.3739 1.0293 0 7012
-3.6019 0.80381 0.60633 0 9210
-3.6012 1.2098 0.088201 1 9656
-3.5942 -0.35812 0 0 8342
-3.5864 -8.3676 0.6366 1 6657
-3.5747 -6.4015 1.0304 0 6991
-3.5623 -2.7394 0.7383 1 8096
-3.5518 0.26519 0.41652 0 8729
-3.5409 8.8708 0.22176 0 16292
-3.5336 2.3987 0.80467 0 11188
-3.5285 2.4115 -1.2255 1 11203
-3.5216 -8.9311 0.89566 2 6561
-3.5075 5.2216 -0.14604 0 14395
-3.4793 -2.7409 -0.20655 0 8083
-3.478 2.8508 0.31446 0 11866
-3.4765 -0.32556 0.49072 0 8354
-3.4738 1.0442 0.59596 1 9513
-3.4713 -7.9154 1.0107 2 6683
-3.45 -7.9269 1.011 1 6673
-3.4366 -9.0089 0.89957 1 6524
-3.4334 3.0536 0.64576 0 12199
-3.4171 -0.43047 0.48404 0 8304
-3.4037 6.8507 0.35674 0 15574
-3.3939 -7.9839 1.6345 2 6653
-3.3877 -2.2491 0.37937 0 8200
-3.3861 -8.0988 1.0265 2 6634
-3.3715 -7.8097 1.1955 2 6665
-3.3711 5.8248 0 0 15005
-3.361 3.664 0 0 13059
-3.3606 -8.974 0.67008 2 6505
-3.3306 3.826 0.11777 0 13294
-3.3299 -3.8346 0.11791 1 7692
-3.3264 -9.1244 1.5956 2 6479
-3.3199 -0.49735 0.55153 0 8266
-3.3056 -9.1466 1.5979 2 6470
-3.2985 5.2643 0.14423 0 14686
-3.2841 6.031 0.4802 0 15253
-3.2831 -7.9813 1.626 2 6615
-3.2723 2.3058 -1.457 0 11310
-3.2719 3.1017 0.42061 1 12453
-3.2666 -7.8786 0.79571 0 6623
-3.2579 3.7637 0.34808 0 13321
-3.2478 2.9069 -1.3601 0 12219
-3.2384 -7.9354 0.79961 2 6600
-3.2367 0.51844 -0.22922 0 8974
-3.2077 -0.53736 0.53435 1 8250
-3.2073 -0.52752 0.53403 0 8253
-3.2061 -9.4664 0.93245 2 6405
-3.1873 5.8532 -0.3108 0 15246
-3.1831 0.90674 0.62359 0 9447
-3.1612 -8.8239 1.766 2 6461
-3.1569 2.3369 0.18317 1 11483
-3.1416 5.2161 0.42579 0 14853
-3.1177 7.4313 -1.1326 1 16127
-3.1172 -0.31058 0.14609 0 8343
-3.1034 0.74105 0.44842 0 9268
-3.1017 -2.931 0.39813 0 7958
-3.0873 0.90922 0.45231 0 9481
-3.0869 1.4638 0.48015 0 10211
-3.0736 3.4304 0 2 13168
-3.0644 -0.11772 0.14301 0 8460
-3.0626 -0.31379 0.14357 0 8338
-3.0586 -8.018 1.0035 0 6525
-3.0434 6.5986 -1.0213 0 15820
-3.041 -7.7756 0.97636 0 6553
-3.0326 -8.0257 1.0033 2 6516
-3.0217 0.94693 0.14767 0 9559
-3.0131 0.95408 0.14739 0 9575
-3.0095 2.6937 0.76098 1 12225
-3.0089 0.19036 0.56805 0 8703
-3.0022 2.1828 -1.2542 0 11419
-2.9746 -8.703 1.0756 2 6413
-2.9382 2.0966 -1.2196 0 11354
-2.929 1.1567 0.073114 1 9902
-2.9129 -3.0739 0.098321 0 7835
-2.9107 -6.1438 0.63427 0 6772
-2.9059 6.7055 -0.3408 0 16034
-2.9023 4.7213 0 0 14766
-2.8971 8.5247 0.20904 0 16740
-2.8923 -3.0714 0.09795 1 7827
-2.8789 9.3465 1.3745 0 16992
-2.8689 1.9976 -1.1812 0 11265
-2.8665 3.8908 0.1122 0 14017
-2.8653 1.4935 0.60878 0 10407
-2.865 -3.971 0.22835 1 7363
-2.8627 -8.1426 1.0093 2 6439
-2.8587 1.1388 0.071443 1 9915
-2.8555 1.4782 0.60582 0 10388
-2.8517 1.2134 -0.071953 0 10020
-2.8167 2.4623 -1.0728 1 12124
-2.8037 1.1832 -0.070654 2 10006
-2.7945 1.9458 0.31769 1 11268
-2.7934 1.5824 0.4512 1 10624
-2.7887 1.5906 0.4512 0 10644
-2.7854 2.0997 -1.0884 1 11553
-2.7634 6.3281 0.48285 0 16013
-2.7522 4.7554 -0.90269 0 14991
-2.7151 4.2799 -0.23636 0 14627
-2.713 -8.4957 1.2534 0 6365
-2.6996 2.9081 0 0 13007
-2.6869 2.9117 0 1 13033
-2.6802 -5.2556 0.27512 0 6857
-2.6744 -2.5001 -0.084998 0 7971
-2.6739 -9.6092 1.6387 1 6274
-2.6736 -8.9969 1.3191 1 6313
-2.6684 -5.1988 -0.27251 0 6866
-2.6502 2.7092 0.17674 0 12764
-2.613 -2.1988 -0.079288 1 8048
-2.6081 -2.8333 -0.089408 0 7794
-2.606 8.372 -1.0254 0 16950
-2.6028 2.7085 0.43928 0 12850
-2.6023 5.6036 0.14344 0 15804
-2.5954 5.8021 -1.1976 0 15943
-2.594 1.8063 0.44424 0 11271
-2.5645 4.2579 -0.9365 0 14860
-2.5536 3.8016 -1.1989 1 14402
-2.5448 2.4842 0.58428 0 12579
-2.5446 1.7066 0.4306 0 11144
-2.5138 -3.359 -0.19565 0 7424
-2.5042 1.7327 0.5003 0 11249
-2.4781 -7.8358 0.76673 1 6356
-2.4719 2.0131 0.60063 1 11848
-2.4705 -1.746 0.070236 0 8146
-2.4393 9.6899 1.8826 0 17391
-2.4111 2.509 -0.99781 0 12847
-2.4067 -4.689 0.12237 0 6867
-2.3923 5.0337 0.91566 2 15739
-2.3858 3.068 0.27177 0 13793
-2.3823 6.8104 -1.014 0 16654
-2.379 8.7022 -0.20945 0 17228
-2.3427 -2.3467 0.23187 1 7904
-2.3087 9.064 1.7623 0 17371
-2.3053 8.9398 1.5168 0 17348
-2.3035 -4.8273 -0.49902 0 6778
-2.2958 -6.8495 0 0 6395
-2.2907 5.9365 -0.29674 0 16387
-2.2901 8.5708 -0.82767 0 17272
-2.2892 6.93 -1.0257 0 16807
-2.2756 9.0395 -0.21642 0 17381
-2.2555 9.6696 0.46304 0 17503
-2.2407 2.5149 -0.96583 0 13197
-2.2349 5.1178 0.12966 0 16010
-2.2289 5.8799 0.88375 0 16449
-2.2026 -2.7074 0.16276 0 7574
-2.2017 -3.2864 -0.18447 0 7242
-2.2002 5.9036 0.14627 0 16489
-2.1959 -2.5287 -0.077756 0 7691
-2.1923 -7.8785 -0.18986 1 6267
-2.187 2.3437 0.60397 0 12991
-2.1799 7.7137 -0.1861 2 17159
-2.1457 3.8854 -0.72922 0 15184
-2.1378 7.1573 -0.52234 2 17048
-2.1375 -6.0261 0 0 6444
-2.1274 2.2918 0.58915 0 13017
-2.061 8.3911 0.80612 0 17428
-2.0571 8.2751 0.79553 0 17406
-2.0497 9.5364 0.68208 0 17609
-2.0276 7.1749 0.3477 0 17164
-1.9822 6.5695 0 0 17030
-1.9783 2.6852 0.54797 2 14025
-1.9757 2.6651 0.54505 1 13998
-1.9743 9.055 1.5226 1 17595
-1.9656 3.8164 0.099667 0 15451
-1.9442 8.9169 -0.85145 0 17582
-1.9421 7.3559 0.17663 0 17299
-1.9395 7.346 -0.35431 2 17294
-1.9321 -3.3681 0.090151 1 7024
-1.9207 6.5767 1.2909 0 17111
-1.9073 4.2999 0.55009 0 15965
-1.8898 4.7344 -0.83751 0 16280
-1.8865 2.607 0 0 14090
-1.884 4.2798 0.54684 1 15991
-1.8818 4.3423 -1.2389 1 16043
-1.8651 4.3369 -1.2359 0 16070
-1.8269 5.4792 0.26935 0 16793
-1.7937 4.4937 -0.68 0 16282
-1.7665 4.9146 -0.61072 0 16578
-1.7498 2.8847 -1.3175 1 14821
-1.7137 2.6 0 0 14472
-1.7027 -4.8894 0.36204 0 6428
-1.6853 -4.8396 0.11898 1 6426
-1.6155 2.6465 0.14459 0 14797
-1.6132 2.6596 0.14506 0 14825
-1.5968 -4.7641 -0.23431 0 6394
-1.5839 -7.1978 0 0 6099
-1.5617 -4.06 0 0 6530
-1.5513 2.644 -0.6516 0 14962
-1.5136 3.1619 -0.49267 0 15694
-1.4931 6.4882 0.46555 0 17522
-1.4828 -8.795 1.6804 0 5969
-1.4443 -3.2933 -0.1677 0 6678
-1.4268 7.0254 0.66882 0 17679
-1.4237 5.6554 0.95813 0 17389
-1.392 -3.8517 -0.19099 1 6463
-1.3748 3.3856 -0.51355 0 16230
-1.3695 6.0277 -0.28826 0 17531
-1.3313 6.2795 0.29935 0 17628
-1.3278 6.743 -1.4608 2 17712
-1.3215 4.9456 0.59864 2 17282
-1.3211 -6.746 0.64133 0 6037
-1.3096 5.2682 0.12603 1 17402
-1.2841 9.3379 -0.43956 0 18029
-1.2827 6.9344 0 0 17769
-1.2751 6.7874 0.97059 0 17758
-1.2534 5.5168 0.52781 0 17538
-1.228 -3.4279 0.59822 2 6460
-1.2253 6.8578 -0.32487 0 17798
-1.2129 3.0386 -0.3826 0 16283
-1.2124 8.2806 0.39028 0 17984
-1.202 7.1905 0.85255 0 17875
-1.1955 5.4016 0.64696 1 17574
-1.1747 -9.2341 1.3082 1 5833
-1.173 -8.8031 1.4591 1 5858
-1.1677 -3.4164 0.68025 0 6415
-1.1551 -7.9665 -0.18689 0 5897
-1.1308 5.6538 0.26888 0 17696
-1.1292 6.3202 0.14906 0 17801
-1.115 -4.9398 0.832 0 6116
-1.1123 -8.006 0.94523 0 5883
-1.1047 -5.3252 0.76434 0 6067
-1.0963 -4.9207 0.94983 0 6110
-1.094 5.649 0 2 17721
-1.0876 -6.4506 0.6103 0 5967
-1.0671 -6.4318 0.60826 1 5961
-1.0615 -9.6773 -0.22603 1 5768
-1.0535 -5.5544 0.52744 0 6022
-1.0469 5.406 0.64394 0 17727
-1.0389 5.3649 0.12687 0 17723
-1.0178 -9.2782 -0.43528 0 5767
-1.0118 -3.6783 0.71876 1 6266
-1.0045 7.1567 1.3616 0 18022
-0.99848 -6.8864 0.3245 0 5898
-0.9927 -4.0661 0.48946 2 6172
-0.99179 5.933 0.98829 0 17878
-0.97659 3.7871 -1.4235 0 17338
-0.96535 3.79 -1.4235 0 17360
-0.88509 9.5049 1.5684 0 18296
-0.87368 -7.9647 0.56028 0 5772
-0.86792 7.6294 0.71638 0 18170
-0.86439 3.0588 -0.14823 0 17157
-0.82776 -9.616 -0.45009 0 5690
-0.82708 -5.8333 0.41198 0 5891
-0.81018 5.4405 0.64324 0 17972
-0.80521 -8.4866 0.39754 0 5721
-0.80061 4.189 0.70068 0 17744
-0.79775 3.8186 0.36395 0 17646
-0.77704 -7.9534 -0.37267 0 5731
-0.77063 3.1374 0.53078 0 17432
-0.76814 -4.4797 0.74673 0 5977
-0.76483 8.2134 1.1593 0 18294
-0.75439 -5.5504 1.0554 0 5870
-0.74013 5.3821 0.37989 0 18034
-0.72099 6.8828 -0.32273 0 18223
-0.70782 -9.1157 1.7227 0 5666
-0.69565 -3.7316 -0.17702 1 6012
-0.67869 8.3263 -1.1741 0 18340
-0.67186 -4.8356 0.34139 0 5881
-0.65852 -4.5418 0.86466 1 5903
-0.61597 -6.3048 0.74081 0 5733
-0.61252 -3.5721 0.33813 0 5975
-0.60806 -5.8541 -0.27447 0 5749
-0.60064 5.4232 0.76684 0 18193
-0.56355 -4.3214 0 2 5838
-0.56082 3.0318 -1.204 0 17768
-0.54862 -4.6283 -0.10821 2 5799
-0.52422 -7.3132 1.0304 0 5646
-0.51546 -7.5223 -0.17506 1 5635
-0.51496 -5.6043 -0.26245 0 5710
-0.51408 -5.4182 0.7649 0 5724
-0.51201 -5.0847 -0.23832 0 5740
-0.50778 -3.9915 0.18764 0 5831
-0.5001 -5.6257 -0.26338 0 5700
-0.49216 3.118 -0.1472 0 17916
-0.49021 6.4893 0.60714 0 18375
-0.47751 -4.3531 0.20422 0 5771
-0.47299 -9.7759 1.1445 0 5566
-0.46798 -3.948 -0.1854 0 5798
-0.45186 6.4781 0.60584 0 18405
-0.44566 7.6364 1.4412 0 18455
-0.42683 6.9786 -0.65229 0 18434
-0.42033 -6.681 0.94081 0 5617
-0.40642 -4.7213 -0.11002 0 5691
-0.38424 -4.3224 0.30344 0 5703
-0.30276 7.9535 -1.3077 0 18513
-0.29959 -3.4803 0.57391 2 5695
-0.29053 -3.489 0.5752 2 5685
-0.28613 -5.5904 0.52224 0 5575
-0.2706 -4.7217 0.44124 0 5593
-0.26117 -6.6177 0.77449 0 5536
-0.24774 8.5484 0 0 18550
-0.24442 -8.6959 1.4293 1 5494
-0.23845 -7.7603 0 0 5502
-0.22889 9.7851 1.8441 0 18577
-0.20083 7.5685 0.70635 0 18568
-0.14113 -8.6939 1.6382 2 5455
-0.12577 -4.093 -0.095071 0 5501
-0.12342 -4.0167 0.46995 0 5505
-0.10365 -4.6387 0.43288 0 5472
-0.094955 -8.9186 1.6804 0 5438
-0.09315 -5.7383 0.53543 0 5454
-0.066867 -4.9115 0 1 5444
-0.049744 -3.6538 0.34091 0 5446
-0.045348 -9.2794 0.21544 0 5420
-0.020024 -4.0975 -0.19109 1 5419
-0.014222 -8.1486 0.76023 1 5413
-0.001357 7.7758 1.2775 0 18659
0.0061039 -4.9961 0.94131 0 5407
0.011765 -9.63 0 0 5405
0.076703 -7.8475 -0.1822 1 5385
0.12813 -8.2479 1.1593 1 5373
0.1351 7.8979 -1.4883 0 18717
0.13626 -8.7713 1.4413 1 5374
0.14623 8.5487 -1.2016 0 18705
0.14751 -3.5642 0.6721 0 5314
0.16958 -6.2669 -0.29236 0 5342
0.20496 -6.2113 1.1709 0 5333
0.26311 7.6493 -0.89506 0 18762
0.26991 -9.9748 1.88 0 5345
0.28617 -6.4256 0 0 5306
0.29114 -7.0343 -0.32832 0 5311
0.30271 -4.8793 0.1135 0 5274
0.31809 -4.8923 0.11383 1 5269
0.31868 -4.0134 0.66145 0 5246
0.32086 -7.7525 0.90737 0 5313
0.32388 -9.0484 -0.42223 0 5325
0.32526 -4.7958 0.22416 0 5265
0.3324 -4.1862 0.49109 0 5245
0.33624 -4.7489 0.22202 2 5261
0.34376 -6.1294 0.42928 0 5285
0.35239 7.6136 -0.35543 0 18794
0.3613 -7.157 0.16637 0 5297
0.37678 -4.0083 0 0 5216
0.39355 -3.2665 0.61989 2 5161
0.39463 -4.4746 0 0 5227
0.40092 -4.1335 -0.096418 1 5209
0.40652 -3.2966 0.62581 0 5156
0.40943 7.0794 1.3361 0 18837
0.41637 -4.1641 -0.09716 0 5202
0.42149 -7.9104 0.73905 0 5291
0.43076 -4.5826 -0.10686 0 5215
0.44412 -3.3599 -0.078685 0 5138
0.44874 -8.0013 -0.18606 0 5283
0.46488 8.5013 0 0 18825
0.4799 9.7426 1.8378 0 18809
0.49361 -7.592 1.2499 0 5270
0.50141 -6.8116 0 0 5256
0.50846 9.8002 0.91554 0 18817
0.51391 -4.0737 0.48017 2 5150
0.52115 -9.7808 1.6092 0 5292
0.53439 -4.1372 0.48783 0 5145
0.53844 -4.469 0.52639 0 5160
0.53951 9.3284 0 0 18832
0.54824 -4.4458 0.52384 0 5155
0.58042 9.1239 -0.85293 1 18846
0.58436 -3.251 -0.076688 0 5035
0.61072 -4.4182 0.73278 0 5127
0.61834 5.0579 0.35632 0 19038
0.65466 -4.842 0.92058 0 5133
0.65727 -3.4819 0.24778 0 5017
0.65905 8.1557 -0.95685 0 18901
0.68099 -5.1518 0.12065 0 5139
0.72084 4.4116 -0.73441 0 19151
0.72684 7.5902 -0.71137 0 18954
0.73761 -6.9711 0 0 5192
0.73811 -5.0227 0.9565 0 5111
0.74576 -6.6908 0.1563 0 5179
0.78963 -3.8708 0.74431 0 4989
0.80628 -5.833 0.13671 0 5126
0.81238 6.0562 -1.1513 0 19076
0.81632 2.8925 -0.35147 1 19505
0.81707 -5.0559 0.35813 0 5079
0.83016 2.9753 -0.36123 0 19491
0.83329 -3.917 0.37361 2 4972
0.84296 -3.9088 0.37305 0 4967
0.84358 -3.4658 0.5013 0 4911
0.87376 3.1636 0.53921 1 19489
0.87921 3.1154 -0.60989 0 19518
0.89581 5.5865 -0.26385 2 19146
0.90289 5.6307 -1.2121 1 19150
0.91914 -2.9456 0.43366 0 4763
0.93478 6.6937 -0.31518 0 19087
0.9415 -9.4159 0.66171 0 5203
0.97193 3.1301 -0.85802 0 19644
0.97785 -3.4102 0.6684 0 4816
0.97832 3.118 -0.85548 1 19660
1.0065 -2.9263 0.28871 0 4697
1.0303 -4.7058 0.90762 0 4960
1.0347 -4.6593 0.22258 0 4951
1.0441 7.1747 -0.50699 0 19104
1.0465 -3.6883 0.44834 0 4822
1.0716 9.2193 0.64901 0 19019
1.1073 -4.9867 0.96242 1 4952
1.1137 -6.1958 0.73616 2 5036
1.1196 -4.6601 0.11127 0 4915
1.1349 -6.3139 1.2087 0 5037
1.1381 7.0974 -0.16689 0 19147
1.1431 -7.7783 0.73347 0 5110
1.1816 7.6592 -1.0892 0 19131
1.2034 -3.4988 0.17255 0 4696
1.2059 -3.4747 0.17152 1 4692
1.212 3.4378 -0.95425 0 19813
1.2143 -5.1247 -0.12227 0 4920
1.2527 3.1948 0.23996 0 19975
1.2726 3.2191 0.24205 0 19989
1.3152 -7.8426 1.4983 2 5066
1.3175 -5.5605 0.13267 0 4921
1.3307 -8.2344 1.5716 1 5080
1.3512 6.6829 -0.1583 0 19252
1.3731 2.9367 -1.0116 1 20276
1.3744 -3.9225 0.68285 0 4690
1.3866 -8.1121 0.19107 0 5059
1.394 2.9585 -1.0205 1 20290
1.408 -4.4198 0.32437 0 4749
1.4189 -7.4032 1.0594 0 5011
1.4304 2.9484 -1.2796 0 20350
1.4391 2.9876 -1.2949 0 20335
1.4394 9.891 0.46611 1 19109
1.4441 5.4196 -1.1922 0 19449
1.4448 -7.4123 1.0613 0 5005
1.4462 2.9586 0.076456 1 20365
1.4516 6.3176 0.45328 0 19328
1.452 -9.6812 0.91331 1 5103
1.4526 -5.5449 0.40082 0 4874
1.4788 -4.2205 0.62851 0 4689
1.4963 6.9797 0.33289 0 19287
1.5128 -4.0142 0.6029 0 4667
1.5203 -3.8302 0.095675 0 4651
1.5426 5.1223 -0.62559 0 19587
1.5426 6.5463 -0.4703 1 19344
1.5436 8.2322 1.3761 0 19225
1.545 7.0978 0.16865 0 19292
1.5457 3.8782 0.096928 0 20004
1.5494 6.2468 0.60045 0 19385
1.5611 3.313 -1.0502 0 20291
1.5622 -3.9018 0.097578 0 4647
1.5636 -7.5634 0.90319 0 4983
1.5649 -3.2143 0.083002 0 4544
1.5898 3.1148 -0.081191 0 20448
1.5923 3.0956 -0.08082 0 20462
1.6022 -9.72 1.3845 1 5072
1.604 6.3859 0.15287 0 19394
1.6284 9.4474 1.1211 0 19180
1.637 8.3286 0 0 19240
1.6519 3.5056 -1.4105 0 20287
1.6626 6.6189 1.1212 0 19399
1.6798 -7.6722 0.73273 0 4959
1.7147 3.4079 0.088572 0 20418
1.7514 9.666 -0.22807 0 19202
1.7614 9.5593 0.67971 0 19214
1.7773 3.2679 0.17348 0 20579
1.7855 -7.8337 1.5138 0 4939
1.8028 5.6934 0 0 19668
1.8048 6.6156 -1.292 0 19475
1.8318 5.611 -0.13704 0 19706
1.8347 9.4918 0.45083 0 19236
1.8426 3.9105 0.10036 0 20288
1.8462 9.1312 0 0 19253
1.8692 -4.303 0.88392 0 4605
1.9117 -3.7055 0.4876 0 4508
1.9287 3.4968 -1.0454 0 20611
1.9293 7.0716 0 0 19467
1.931 -2.9419 0.081702 2 4306
1.938 -3.8382 0.60429 0 4525
1.9801 -3.6048 0.67572 0 4467
1.9833 8.0988 -1.1718 0 19369
1.9908 3.7887 0.60151 0 20512
2.0008 6.1874 1.0684 0 19700
2.0033 3.2665 0.17869 0 20849
2.0062 7.2636 0.52694 0 19486
2.0283 4.804 -0.12107 0 20094
2.0452 -4.0788 0.10593 0 4530
2.0465 3.7896 -1.1275 1 20566
2.047 4.1273 -0.97926 0 20396
2.0531 6.6779 -0.817 0 19611
2.0562 -2.8912 0.41489 0 4166
2.0571 -2.8564 0.66321 2 4146
2.0676 3.4154 0.65594 1 20819
2.0683 2.4948 -1.3536 0 21740
2.0688 3.4377 0.65918 0 20804
2.0916 7.4113 -1.2652 0 19504
2.0955 -3.8675 0.61821 0 4475
2.1207 -2.9092 0.16789 0 4116
2.1234 4.7962 -1.3731 0 20180
2.1252 4.72 -1.1003 0 20203
2.1326 4.0586 0.53615 0 20511
2.139 3.878 -0.10282 0 20607
2.1603 5.1166 0.259 0 20097
2.1707 -5.6579 0 0 4658
2.1721 -3.7441 0.50618 0 4428
2.1726 -3.9292 0.73765 0 4462
2.1752 2.8348 0.67321 0 21472
2.1839 -3.7418 0.50665 1 4425
2.1857 5.1319 0.26012 0 20110
2.194 2.3693 -0.074971 2 22176
2.1957 -4.2269 0.66942 1 4501
2.2031 -4.916 0.7571 0 4588
2.2062 3.1125 -1.3886 0 21198
2.221 3.3517 -1.2546 0 21026
2.2283 -4.9721 0.1265 0 4587
2.2286 6.3215 0.62535 0 19812
2.2365 -5.4478 0.96754 1 4639
2.243 -5.5601 0.27959 0 4643
2.243 6.6116 0.65136 0 19761
2.2438 -4.9695 0.12659 0 4581
2.2499 3.5073 0.096743 2 20950
2.2692 -3.834 0.20776 0 4413
2.2765 6.4038 1.2805 0 19831
2.3127 9.3244 1.81 0 19390
2.3191 4.1769 -1.3699 1 20626
2.3302 7.9895 -1.3673 0 19546
2.3316 -8.4996 0.20463 0 4840
2.3398 2.8053 0.60017 1 21775
2.3483 5.9403 1.2035 0 19994
2.3522 -2.2803 0.53824 0 3391
2.3642 2.8518 0.6086 0 21753
2.3699 2.7602 0.68543 1 21881
2.3703 3.2421 -1.1516 0 21294
2.3763 -4.6417 0.12107 0 4515
2.3832 3.0868 0.6407 1 21489
2.3846 3.1645 0.27707 0 21396
2.3868 -7.3544 0 0 4731
2.3909 6.0977 0.92049 2 19978
2.3927 5.2796 0.67786 0 20217
2.3944 6.4349 1.128 0 19891
2.3952 -3.3866 0.38699 0 4176
2.4015 -4.5878 -0.24149 0 4493
2.4124 2.2137 -1.4577 1 22843
2.4191 -8.0787 1.1852 0 4788
2.4285 8.7037 -0.42139 0 19495
2.4363 3.0269 0.73209 0 21645
2.4391 -8.689 0.84197 0 4828
2.4569 3.3606 0.09665 0 21291
2.4785 3.4966 0.60234 0 21203
2.4893 2.1171 0.30487 0 23165
2.4953 3.0099 0.18233 1 21745
2.5018 5.3945 -0.13806 0 20257
2.5044 2.9688 0 0 21805
2.5107 7.1215 1.4227 2 19816
2.5142 4.4079 0.23664 0 20684
2.515 2.9624 0 0 21829
2.5155 6.7603 -1.0137 0 19878
2.5233 6.4355 0.32236 0 19974
2.529 3.0702 0.1855 0 21722
2.5399 6.7681 -1.016 1 19893
2.5433 7.283 1.4534 0 19803
2.5502 -8.1726 1.4066 0 4764
2.5883 -2.5983 0.69099 1 3444
2.6171 4.2128 0.81482 1 20884
2.648 4.5828 0.99723 0 20722
2.6492 -5.0999 0.94419 0 4503
2.6652 -5.0916 0.94419 2 4496
2.6774 -4.5236 0.12204 0 4412
2.6807 5.0693 0.13314 0 20524
2.6841 -9.5617 1.8711 0 4829
2.6856 2.9504 -0.18605 0 22099
2.6989 -4.4441 0.48508 2 4392
2.701 4.027 0.45238 1 21052
2.7073 -1.9771 -0.15633 0 2917
2.7115 -2.1414 0.080217 0 3104
2.7128 3.1406 0 0 21891
2.7354 -5.0485 -0.40152 0 4472
2.7476 5.579 0.87401 0 20381
2.7709 3.3046 0.50433 0 21790
2.8207 8.3143 1.2339 1 19763
2.8214 3.5482 0.74478 1 21598
2.835 8.5974 1.7056 0 19723
2.839 6.3586 0.97867 0 20193
2.8554 1.0852 0.14245 0 25983
2.8593 -7.0878 0.71304 0 4644
2.8697 7.5824 -1.332 0 19906
2.8854 -6.104 0.94888 0 4556
2.894 6.0538 0 0 20319
2.8965 -6.5611 0.16651 0 4598
2.8981 -5.3487 -0.28369 0 4473
2.9108 5.582 -1.3381 0 20498
2.9222 4.469 0.62443 0 20995
2.9493 -6.6368 1.1932 1 4595
2.9542 -1.7513 0.48265 0 2355
2.9568 0.66525 0.57101 0 27051
2.963 1.7754 0.16109 0 24557
2.9763 1.7728 0.16155 0 24583
2.9802 -6.6005 0.33773 0 4582
3.033 -1.4577 0.078128 0 1847
3.0369 -4.376 0.87513 2 4214
3.0437 4.4005 0.12422 0 21123
3.045 -5.5069 -0.44002 0 4458
3.0607 -3.8368 -0.3432 1 3923
3.0622 3.9907 0.46929 0 21466
3.0919 5.4963 0.14641 0 20652
3.1087 -0.14986 0.51133 0 550
3.1092 0.5125 -0.07316 2 27535
3.1285 0.50614 -0.073578 2 27562
3.1327 2.1474 0 0 24040
3.1332 -8.6225 0.85591 0 4676
3.1439 2.5514 0.094004 1 23358
3.1458 -1.7194 0.083234 0 2136
3.1541 -1.7368 0.6784 0 2162
3.1683 -1.145 0.55348 0 1422
3.1784 -1.34 0.64988 0 1612
3.182 -3.5044 0.66525 1 3625
3.1843 -6.7365 0.87136 0 4555
3.189 8.0669 0.80927 0 19991
3.1914 7.2633 0.74016 0 20164
3.2026 -5.5583 0.90156 0 4434
3.2318 -1.1464 0.31992 2 1404
3.2585 1.5633 0.16854 0 25338
3.2689 -2.1083 0.54667 0 2582
3.2691 -8.597 0.64315 0 4663
3.2696 -9.0668 1.1271 0 4680
3.2754 1.5602 0.16919 1 25363
3.2855 -1.1557 0.32494 0 1396
3.2903 -4.4063 1.0361 2 4071
3.2982 1.7492 0.52468 0 25012
3.3282 0.11913 0.15531 0 105
3.3304 -0.60164 0.15782 0 979
3.3434 -8.7145 0.43528 0 4659
3.3463 6.8458 -0.17691 0 20363
3.366 -0.57717 0.079288 0 957
3.3812 -3.7237 0.58819 0 3623
3.385 3.181 -1.4495 0 22757
3.3886 9.3558 1.6348 1 19853
3.389 6.8331 0.53336 0 20394
3.4004 3.5262 0.11373 0 22354
3.4033 7.6872 -0.39205 0 20174
3.4052 2.7802 0 0 23330
3.4153 6.071 -0.64987 2 20646
3.4291 4.8056 0.27531 0 21217
3.4507 2.8003 0 0 23356
3.452 4.7495 -1.3912 1 21279
3.4599 -6.9486 0.72419 0 4534
3.4599 4.8204 0.27671 0 21235
3.466 -5.4531 1.0616 1 4353
3.4759 0.59352 0.16444 0 27489
3.4842 6.9245 1.4605 0 20423
3.4959 7.8298 0.79999 0 20192
3.4988 -4.8299 0.97986 0 4134
3.505 -9.2172 1.3859 1 4664
3.5106 2.8489 0.21084 0 23360
3.5192 -1.1584 -0.086019 0 1351
3.5271 -8.8095 1.1097 0 4648
3.5383 -5.8264 0.31789 0 4391
3.5384 -2.0834 -0.38309 1 2326
3.5441 1.4782 0 0 25760
3.551 6.1012 1.1598 0 20736
3.5537 -4.8751 0.7055 0 4119
3.5608 -2.1949 0.097114 1 2456
3.5666 -0.89389 0.42999 0 1200
3.5676 7.7459 1.6068 0 20247
3.5678 -3.4987 0.82098 0 3408
3.5696 -0.88206 0.42999 0 1193
3.5771 3.7721 0.97945 1 22290
3.5933 -4.2687 0.52057 1 3796
3.6091 0.27644 -1.3175 0 28209
3.6215 -4.4057 0.66694 0 3859
3.6581 5.6308 0.31313 0 20980
3.6771 -6.5552 1.0563 0 4448
3.683 1.7276 0 1 25408
3.6883 -7.8027 0.80519 0 4554
3.6971 -1.2882 0.73765 1 1391
3.7023 3.077 0 0 23254
3.7269 -1.2862 0.74283 0 1384
3.7366 -0.49658 0.6193 1 844
3.7369 -6.7581 0.72047 0 4459
3.7383 5.7171 0.96002 0 20997
3.7651 -8.0891 1.4659 0 4566
3.7934 1.2553 0.18633 0 26307
3.7951 3.6713 0.24624 0 22645
3.8399 0.51986 0.089965 0 27781
3.841 3.136 -0.23124 1 23327
3.8507 -4.6316 0.98958 2 3833
3.8561 4.2363 0.133 0 22105
3.8626 -3.2549 0.95168 1 3233
3.8698 0.37603 0 0 28063
3.871 -1.6848 0.79541 0 1666
3.8722 4.6426 -0.28192 1 21762
3.8905 3.8715 0.64185 0 22532
3.9533 -4.5349 1.1335 0 3720
3.9561 3.7385 0.89426 0 22745
3.9584 2.1287 0.41931 2 24958
3.9751 2.2729 0.21354 0 24731
3.9911 -2.0494 0.41857 0 1995
4.0038 -1.0646 -0.096186 0 1239
4.0062 -5.9935 1.0132 0 4278
4.014 -8.6872 1.5722 0 4571
4.0498 -0.61031 0.19099 0 900
4.065 7.4744 1.603 0 20583
4.0762 3.8077 0.6523 0 22784
4.0841 -7.0881 0.7632 1 4432
4.0941 7.7422 0 0 20522
4.0961 2.5357 0.79147 1 24444
4.0997 -4.5966 0.57463 1 3661
4.1019 -4.1902 0.41003 0 3467
4.1109 -0.58287 0 0 873
4.1148 -6.6443 1.284 0 4375
4.1188 -1.7077 0.10352 0 1581
4.1214 -4.1372 0.95943 1 3443
4.1275 -1.4917 0.82689 0 1424
4.1299 -4.418 0.56423 2 3557
4.1301 -1.4788 0.82652 0 1414
4.1412 3.3811 0.24931 0 23334
4.1485 -0.35711 0.29116 0 683
4.1812 -5.8792 -0.50448 1 4160
4.1936 -0.5834 0 0 862
4.2292 -4.5767 0.72873 0 3583
4.236 -7.7116 0.41031 0 4464
4.2412 -1.1135 0.4091 0 1234
4.243 -8.4033 -0.439 0 4524
4.3322 5.7158 0.16651 0 21416
4.3343 -4.4013 1.0149 2 3461
4.3958 2.4648 0.58935 0 24810
4.4088 -7.7076 0.82841 0 4437
4.4108 -5.3986 1.3135 0 3879
4.4247 -1.3149 0.43065 0 1301
4.4305 1.2838 0.10709 1 26575
4.4348 -6.5085 0.73478 0 4241
4.4532 6.127 0.88577 0 21278
4.4841 -8.6322 0.22584 0 4499
4.5151 -7.7359 0.83566 0 4424
4.5419 1.6666 0 0 26065
4.546 1.6232 0.56449 0 26132
4.5628 3.1277 0.90885 0 24052
4.5695 1.2244 -0.10983 2 26717
4.5798 -7.586 1.4558 0 4399
4.5814 -6.9798 1.5731 0 4313
4.5822 1.6669 0 0 26084
4.5964 1.4775 0 1 26368
4.6101 6.9572 0 0 21022
4.6127 -0.7504 0.7678 2 934
4.6129 6.9614 1.5734 0 21031
4.6379 3.8751 0.56385 1 23236
4.6385 -0.13038 0.87429 0 460
4.6431 3.4659 0 0 23693
4.6458 -0.74331 0.77299 0 926
4.6601 6.695 0.3804 0 21140
4.6634 -8.7227 0.92279 0 4481
4.7021 7.2379 1.0093 0 20982
4.7044 -0.10429 -0.43901 2 420
4.7326 1.8461 0.47393 1 25923
4.7457 6.735 0.38422 0 21181
4.7554 6.8319 0 0 21137
4.7635 1.9867 0.97242 0 25769
4.7716 3.3498 0 0 23944
4.7897 7.6562 1.4837 0 20899
4.7898 -5.2162 0.82815 0 3597
4.8113 2.5517 0.25397 1 25005
4.8211 3.1428 -0.53692 1 24227
4.843 1.2543 0.7031 0 26792
4.8435 2.9786 0.79913 1 24469
4.8566 -4.1158 1.1994 0 3242
4.8772 -7.2036 1.4293 0 4256
4.8851 1.7136 0.97538 0 26183
4.8863 3.7575 0 0 23572
4.8911 -5.8455 1.2522 0 3817
4.9022 -5.064 0.16364 0 3488
4.9031 3.7487 0 0 23595
4.972 -4.6805 1.1219 0 3352
4.9728 -2.2172 0.38073 0 1706
4.9778 -2.2528 1.0294 0 1737
5.0009 0.19386 0.11619 0 85
5.0012 6.5984 0.96823 2 21422
5.0175 0.1796 0.82487 1 112
5.0349 4.8149 1.1446 0 22702
5.0373 2.1694 0.38352 0 25681
5.0501 7.3015 1.6727 0 21127
5.0607 5.7909 0.7175 0 21940
5.0682 5.4084 0.17208 0 22230
5.091 4.2537 0.15403 0 23230
5.0948 -2.8253 0.40738 0 2174
5.1063 -1.5495 0.24885 0 1315
5.112 1.8093 0.3792 0 26153
5.1184 -1.5375 0.87804 1 1311
5.1189 2.6409 0 0 25098
5.1255 4.2086 0 0 23304
5.1327 -1.1435 0.12209 2 1102
5.1334 7.3285 -0.20774 0 21157
5.1358 5.9815 0.18304 1 21871
5.1404 -4.409 0.15723 0 3254
5.175 -0.87249 0 2 950
5.1881 2.093 0.39119 0 25843
5.1912 -1.6079 0.12617 0 1324
5.2075 1.4109 0.63093 0 26702
5.2081 -7.1447 1.4526 0 4123
5.2128 1.429 0.63209 0 26677
5.252 3.2933 0.57835 0 24388
5.2539 2.1377 0.39664 0 25823
5.2599 7.3714 -0.21024 0 21215
5.2638 -2.6463 -0.27475 0 1938
5.2644 -2.3274 0.40249 0 1691
5.2669 2.0018 -0.13082 0 25980
5.2681 -3.5294 0.29571 0 2679
5.2772 7.7216 1.5366 0 21100
5.2905 -1.3741 0 0 1224
5.3321 -7.5392 1.5171 0 4179
5.3579 -0.85723 0 1 924
5.3723 7.6696 1.316 0 21166
5.3797 5.9102 0 0 22103
5.386 -1.4826 0.39064 0 1261
5.4383 -0.90129 0.12798 0 941
5.4502 4.0432 0.15755 0 23719
5.4549 0.72203 -0.12775 1 27800
5.4783 -4.0998 0.3191 0 2984
5.4973 -1.1084 0.26152 0 1030
5.4986 -3.3026 0.59841 0 2388
5.5213 -6.7578 0.40695 0 3871
5.5498 8.1755 0.4608 0 21081
5.6024 1.3109 0.26832 0 26970
5.6283 -2.3532 0.7134 0 1597
5.6444 0.53156 0.66299 0 28091
5.646 -2.1707 0.9938 1 1490
5.6472 -5.1656 1.2574 0 3327
5.6514 -5.1405 1.2551 0 3322
5.686 6.1039 0 0 22202
5.6863 -3.5975 -0.62776 1 2521
5.7399 -0.89987 0 0 915
5.7641 -4.4181 0.84929 0 3045
5.7701 -7.3616 0.21716 1 3963
5.8348 -2.2632 0.1453 1 1497
5.8459 -7.2839 1.7597 0 3919
5.8733 -2.0086 0.28947 0 1372
5.8744 2.5105 1.0496 0 25707
5.8789 -4.8981 0.17766 0 3208
5.9124 -3.4577 -0.47895 1 2309
5.9387 -0.56451 0.41714 1 715
5.9414 -0.044591 0.83504 0 349
5.9652 -5.0858 1.1017 2 3249
5.9819 4.7684 0.89459 0 23439
6.0086 7.9737 1.6403 1 21403
6.0154 4.2513 0.17102 0 23920
6.0619 -2.1324 0 0 1394
6.0653 1.8544 0.59172 0 26477
6.1209 0.29187 1.0068 0 28394
6.1342 -0.5993 1.0126 0 727
6.1515 -1.3345 0.44016 0 1079
6.1778 -1.0982 0.43877 0 972
6.1919 2.6667 0.94749 0 25686
6.2305 -2.2517 0.93107 0 1420
6.2323 7.6552 0.22918 0 21676
6.2761 -1.7665 0.91632 0 1271
6.2836 1.4138 -0.90518 1 27029
6.3081 -2.5717 0.15816 0 1558
6.3146 1.7512 0.30559 0 26651
6.3283 -0.89726 1.2042 0 876
6.344 -0.67686 0 2 756
6.3582 1.9233 0.77682 0 26499
6.3594 -3.5483 1.1964 0 2192
6.3626 -5.82 0.60297 0 3325
6.3692 -5.4939 1.3819 0 3266
6.3758 -0.66113 0 0 745
6.4457 3.0016 0.33158 0 25436
6.4706 -5.1432 0.96661 0 3120
6.4783 -5.7235 0.80649 0 3282
6.4793 2.1253 0.95835 0 26335
6.5028 5.2172 -0.38879 0 23403
6.5165 3.2903 0.34043 0 25171
6.5348 -3.096 1.188 0 1820
6.547 -1.6409 1.1089 0 1203
6.5545 -2.262 0.6469 0 1381
6.5841 2.2248 0.64839 0 26266
6.5967 7.2066 1.3731 0 22140
6.5995 1.8526 0.96336 0 26636
6.6176 5.4339 0.39931 0 23308
6.6235 -0.45387 1.0907 0 627
6.6259 2.9917 0 0 25535
6.6554 5.498 0.40257 0 23284
6.6769 3.2985 0.8709 0 25246
6.7008 -2.0755 0.49053 0 1326
6.7194 2.2235 0.82769 0 26312
6.7348 2.6733 0 0 25880
6.738 -2.3254 0 0 1379
6.7656 3.2227 -0.17399 0 25358
6.7698 -6.9155 -0.4513 0 3465
6.7804 -6.8853 0.22436 0 3457
6.782 6.2233 1.5123 1 22858
6.796 -6.4379 0.65459 0 3355
6.7961 0.24327 0.63445 2 108
6.8312 -3.1391 0.17455 0 1758
6.8524 2.7644 1.214 1 25848
6.9657 -1.7665 0.33512 0 1207
6.9704 -2.0939 0.33941 0 1309
7.0095 0.45697 0.32757 0 28282
7.0124 7.1011 1.1671 0 22458
7.0201 -2.353 0.34528 0 1360
7.025 6.0446 0.21516 0 23112
7.0276 0.3966 -1.4961 1 28340
7.0717 -1.1087 1.3486 2 917
7.0808 2.3226 0 0 26328
7.1146 -3.3191 1.2898 1 1790
7.1744 -1.189 0.50852 0 943
7.1859 4.6845 0 0 24234
7.1995 0.82537 0.84744 0 27939
7.2121 2.3183 1.0647 1 26375
7.2254 -1.0695 0.51076 0 893
7.2441 3.1468 1.2976 0 25666
7.2638 1.458 1.2172 0 27244
7.2674 -2.8906 1.0992 0 1529
7.331 -1.8373 1.0622 0 1201
7.3368 -0.93335 0.69 0 823
7.3626 5.8021 0 0 23477
7.3644 4.3 -0.99727 0 24646
7.3739 2.8025 1.1087 0 25988
7.4079 2.4514 0.54564 0 26309
7.4481 -2.8635 0.93315 0 1488
7.4832 -0.079673 1.2295 0 366
7.4844 -3.5715 1.3625 0 1836
7.4879 -3.2341 0.95383 0 1649
7.5135 6.0973 1.5898 0 23370
7.6077 5.7851 0.2219 0 23621
7.6373 -1.9141 1.4834 0 1204
7.6633 3.3289 0.97706 0 25663
7.68 3.3075 -1.3738 0 25668
7.7563 1.5823 0 1 27208
7.7577 -3.4022 1.596 0 1679
7.7613 4.1476 0 0 24977
7.8819 2.6357 0.38757 0 26285
7.9083 1.9235 -1.3372 0 26888
7.9694 -2.1936 0.19191 0 1260
7.9822 3.8296 1.4545 2 25347
7.9947 2.2909 1.3664 0 26600
8.0501 4.1532 -1.0593 0 25089
8.1089 0.33561 0.18843 0 66
8.1349 3.0658 -1.4283 0 25991
8.1579 5.3527 1.603 0 24220
8.1703 2.5495 0.7985 0 26436
8.2384 3.1575 1.6623 0 25970
8.2659 -3.4272 0.41729 0 1583
8.2823 2.7407 0 0 26304
8.3407 -3.4583 1.269 0 1585
8.376 3.1567 0.8351 0 26008
8.4056 2.5955 1.6575 1 26461
8.4101 -4.378 0.22013 0 2023
8.4498 0.39996 0.78921 0 33
8.4894 1.2233 1.616 0 27721
8.6014 -4.8348 -1.3867 2 2196
8.6307 2.2064 0.62293 0 26808
8.648 -0.4169 0 0 546
8.6504 -3.2704 0.43127 0 1465
8.7413 1.3376 1.2428 0 27646
8.7525 -3.309 0.65432 0 1467
8.7533 0.23686 0.40835 0 158
8.7749 -0.65363 1.6579 0 647
8.7984 -0.81001 0.82432 0 705
8.8196 2.5857 1.51 0 26561
8.8245 -2.5387 1.7301 0 1283
8.8817 0.78486 0.4158 0 28131
8.9276 -2.0185 1.7245 0 1120
8.9413 -0.61269 -0.41795 0 622
9.0337 -0.54303 0 0 589
9.0559 3.5326 1.3661 0 25926
9.0875 3.7307 -1.3806 1 25790
9.0919 3.7326 1.6147 0 25808
9.11 3.4915 -1.3711 2 25951
9.1123 3.6484 -1.3795 1 25851
9.1819 0.92133 0 0 28041
9.2821 3.4686 0.92446 0 26029
9.498 1.4534 -0.67189 1 27632
9.5432 -0.62717 1.5713 0 615
9.6815 -1.2626 1.1418 1 833
9.6842 2.0903 1.6277 2 27123
9.7565 1.6397 1.6254 2 27523
9.791 1.1519 1.8574 0 27922
9.805 0.95276 0.91907 0 28068
9.8178 0.20737 -0.68668 2 186
9.8286 -0.87372 -0.22909 0 693
9.8515 -0.19088 -0.22877 1 409
9.8683 0.70218 -0.46136 1 28243
9.911 0.35476 -0.23025 2 103
-14.258 4.3809 -0.69558 2 9534
-13.87 2.5907 -1.65 2 9064
-13.529 -0.36372 2.5499 0 8488
-13.131 5.5415 1.6668 0 10011
-12.926 0.51465 0.30035 1 8643
-12.91 -0.68564 2.4359 0 8428
-12.841 -1.3882 0 0 8328
-12.771 -2.176 1.8207 0 8247
-12.569 -1.4743 1.1807 0 8316
-12.516 -1.062 1.7653 0 8369
-12.336 2.3845 -0.29171 0 9084
-12.262 3.6461 2.1017 0 9498
-12.051 5.7145 2.5129 0 10214
-11.905 -1.1861 2.254 0 8345
-11.825 3.7784 1.1582 0 9588
-11.767 2.7709 2.2777 0 9258
-11.567 1.4777 1.088 0 8877
-11.445 2.9749 1.662 0 9352
-11.324 -0.40136 1.5924 0 8466
-11.225 -0.88541 0 0 8379
-11.12 5.6366 1.4579 0 10341
-10.951 1.6249 0.77416 0 8939
-10.796 -0.78903 1.0099 0 8388
-10.716 4.09 1.8845 0 9849
-10.689 6.2611 1.4486 0 10714
-10.513 5.8758 0 0 10578
-10.417 2.9674 0.75742 0 9441
-10.394 -0.30667 1.7084 0 8478
-10.339 -7.9999 1.5288 0 8094
-10.336 -0.51818 0.96552 0 8435
-10.309 4.7437 1.8644 0 10163
-10.294 -0.42427 0.23921 0 8453
-10.26 7.5453 0.59394 1 11462
-10.181 -10.375 0.67788 1 7881
-9.8571 4.1294 -0.24812 0 9994
-9.753 5.9837 1.0675 0 10850
-9.6923 3.8923 0.48708 1 9930
-9.6692 5.5915 2.1044 0 10681
-9.4172 7.8544 1.1441 0 11935
-9.2963 5.2297 2.0096 0 10607
-9.238 9.8996 0.31437 1 12979
-8.7277 7.1946 1.5896 0 11892
-8.6038 6.3688 1.7587 0 11490
-8.4069 -5.6534 0.47245 1 8192
-8.2685 -6.5912 0.98651 0 8077
-8.1025 -5.8674 1.1699 0 8131
-8.1005 -9.6675 0.29283 1 7625
-7.908 10.536 0.9212 1 13946
-7.7307 6.4113 0.23318 0 11910
-7.5685 7.0528 1.6997 0 12384
-7.5672 9.5543 0 0 13717
-7.5017 -8.5933 1.8741 1 7708
-7.4703 7.2115 1.2142 0 12525
-7.3941 12.518 1.0166 1 14931
-7.1543 10.256 0.58313 1 14238
-7.0633 -8.8354 0.52751 2 7544
-6.9904 -8.2896 0.75825 2 7638
-6.9692 7.1716 1.8841 0 12801
-6.9682 -8.4652 1.5409 2 7595
-6.9477 10.67 0.29561 1 14526
-6.8364 -8.6038 -0.76844 0 7534
-6.6984 10.833 1.1883 0 14742
-6.6956 -7.9908 -0.24204 1 7624
-6.6747 -8.816 1.8167 1 7453
-6.6065 9.9587 -0.27746 0 14447
-6.6035 8.4917 0.24975 0 13790
-6.6028 -9.7965 1.6603 1 7259
-6.5982 13.28 2.7939 0 15586
-6.5011 -10.962 0.89121 1 7069
-6.4876 11.434 1.5374 0 15092
-6.4847 9.0145 2.0922 0 14124
-6.3966 10.479 2.0171 2 14806
-6.2999 -13.096 1.0162 2 6786
-6.2086 -7.9553 0.23429 0 7503
-6.1865 -11.475 2.4562 1 6945
-6.1318 -12.118 1.267 1 6850
-5.8204 -13.58 2.0765 1 6659
-5.5247 10.581 1.6776 2 15408
-5.4955 5.92 -1.7169 2 13015
-5.4532 -11.087 1.4449 0 6816
-5.3495 -12.392 0.94381 1 6663
-5.2489 13.264 1.6682 0 16325
-5.1226 -10.351 -0.5386 0 6821
-5.0016 -10.319 0.26623 0 6791
-4.7624 12.445 0.93181 2 16419
-4.7423 12.841 2.2489 2 16523
-4.3404 13.14 1.291 1 16821
-4.0559 9.288 1.1852 0 16017
-3.7783 -11.705 2.3174 2 6376
-3.7684 13.469 1.6356 1 17190
-3.6295 13.114 -1.5913 0 17197
-3.373 -11.717 0.5686 2 6292
-3.0526 -11.097 1.346 0 6263
-2.9153 0.17576 0.55027 0 8694
-2.7122 -12.502 1.496 0 6092
-2.7009 1.0216 0.40583 0 9834
-2.5012 -12.057 2.32 0 6068
-2.4346 -1.7309 0.069354 1 8141
-2.416 13.281 1.8972 0 17789
-2.3167 10.467 0.49993 1 17571
-2.172 1.1803 0.17286 0 10509
-2.0539 -13.375 2.5495 0 5929
-2.0518 -10.324 0.98205 0 6045
-2.0121 11.446 1.0842 0 17821
-1.9592 -11.809 1.3998 0 5962
-1.8188 10.519 0.24784 0 17836
-1.7571 -9.8944 1.4123 0 5991
-1.5727 13.13 0 0 18130
-1.4925 10.023 0.70859 0 17969
-1.4581 -10.284 1.7065 0 5893
-1.4429 -11.065 1.8333 0 5845
-1.4083 -11.881 1.3992 0 5802
-1.3115 12.844 2.1212 1 18250
-1.2236 1.9905 -1.3128 0 14753
-1.1037 -12.415 0.58127 1 5702
-0.77605 -10.826 0.50618 1 5644
-0.48993 2.4124 -1.3089 1 17670
-0.42258 13.154 1.2278 0 18542
-0.27218 13.327 2.5114 0 18590
-0.25039 12.26 1.1441 0 18587
-0.0021246 12.174 -1.711 0 18648
0.2776 10.744 1.7658 0 18741
0.38806 13.472 0.6285 1 18748
0.80336 -10.117 0.7097 0 5244
0.96556 -13.117 2.4781 0 5257
1.0239 2.1593 0.27946 0 20307
1.1232 10.741 1.7742 0 18983
1.1565 -13.114 0.30564 1 5228
1.4221 -13.091 0.92079 1 5186
1.6235 12.691 -1.7981 1 19049
1.7077 10.451 1.9952 0 19158
1.8185 -11.253 -0.26465 0 5078
1.8637 10.115 0.23879 0 19213
1.9822 -12.716 2.1144 0 5090
2.0849 -11.983 0.28238 1 5051
2.1656 9.8171 1.8941 0 19309
2.1859 14.714 1.3878 0 19120
2.2681 1.9187 0.13854 1 23183
2.3861 10.816 1.2953 0 19306
2.467 -13.272 1.8972 0 5023
2.5135 11.725 2.2592 0 19289
2.626 9.8554 1.6757 0 19450
2.6425 9.9174 0.95753 0 19446
2.7784 10.297 -1.2472 0 19451
2.8086 10.907 -1.0508 0 19410
2.8091 0.6408 0.54287 0 27027
2.8569 9.5956 -1.8863 0 19586
2.9134 10.323 0.50021 1 19513
2.914 12.036 1.4482 0 19366
2.9939 9.5419 0.93301 0 19659
3.1148 13.556 1.2977 0 19330
3.1376 -9.7548 0.71654 0 4740
3.1753 -11.984 2.0369 0 4864
3.3654 -10.463 1.2853 0 4741
3.49 1.3153 -1.983 0 25993
3.8961 11.367 1.6887 0 19776
4.0582 12.08 2.0936 0 19750
4.2059 10.035 2.05 0 20086
4.2582 11.047 1.9451 0 19950
4.4374 -9.1834 1.6757 0 4548
4.5907 -8.8981 0.93412 1 4507
4.6692 12.78 1.9122 0 19864
4.8026 4.4863 -1.5572 0 22785
4.8649 13.074 0.32388 1 19886
4.8947 11.056 0.56385 1 20178
4.9351 9.5945 1.7726 0 20470
4.937 10.477 2.1822 0 20295
5.0142 8.734 1.6546 0 20705
5.0254 -9.0215 0.48158 1 4452
5.0898 10.491 -0.27073 0 20349
5.2218 -10.121 0.26442 0 4506
5.2483 12.733 1.9356 0 20061
5.3394 -9.0213 1.4733 0 4415
5.3512 -9.6063 1.0259 0 4453
5.3531 -10.089 2.1518 0 4487
5.419 11.957 -0.6122 0 20212
5.4598 -2.8422 -1.9207 0 2026
5.4733 8.8104 1.4577 0 20882
5.74 7.4348 -1.7697 2 21490
5.8446 -9.5562 1.8404 0 4387
5.8539 -8.9798 2.0196 1 4323
6.1429 13.337 -1.7172 1 20235
6.222 10.015 1.1 0 20879
6.2365 10.363 -0.2808 0 20798
6.4825 9.5495 1.0768 0 21085
6.6976 13.122 2.4205 0 20452
6.7525 -9.7301 2.2315 0 4216
6.8133 -8.4377 0.25179 0 3897
6.8571 8.9363 0 0 21461
7.217 7.3956 1.6977 0 22413
7.3653 8.9922 1.0844 0 21702
7.3933 7.984 0.7609 0 22182
7.4002 -11.421 -0.63465 0 4327
7.6959 6.9416 0 0 22918
7.7078 -6.9304 1.2121 0 3307
7.8748 11.176 2.5758 0 21189
8.1538 -0.10959 -1.5364 0 383
8.2051 6.8193 1.7528 0 23266
8.3777 -8.5074 -1.9617 0 3453
8.5217 -8.7569 1.14 0 3479
8.6063 5.2616 0.2342 0 24487
