VERSION .7
FIELDS x y z intensity index
SIZE 8 8 8 8 8
TYPE F F F F F
COUNT 1 1 1 1 1
WIDTH 1541
HEIGHT 1
VIEWPOINT 0 0 0 1 0 0 0
POINTS 1541
DATA ascii
-7.0117 -5.1243 1.2205 0 9984
-6.9508 0.20022 1.3101 0 10718
-6.9474 3.4578 0.724 2 12378
-6.9421 -0.91641 0.81886 1 10278
-6.9342 -6.5734 0.66813 0 9585
-6.9299 -0.042333 1.3057 0 10613
-6.9081 -6.5167 0.66408 0 9592
-6.8801 3.5238 1.0864 2 12455
-6.8789 3.3729 0.53573 1 12335
-6.8784 -5.4694 0.81986 2 9866
-6.8784 -0.76546 0.80934 2 10328
-6.8741 6.9829 1.6099 0 14928
-6.8568 -6.654 0.66813 2 9553
-6.8552 -5.581 1.0337 1 9833
-6.8503 -4.7949 0.78011 0 10032
-6.8486 3.434 1.2587 1 12402
-6.8439 -7.0797 1.1515 2 9467
-6.836 -1.2682 0.81305 1 10167
-6.8357 3.3517 1.07 0 12341
-6.8227 -6.2104 0.43024 0 9643
-6.8186 0.61334 -0.15895 1 10900
-6.813 0.27602 1.1203 1 10750
-6.81 -6.8457 0.90087 0 9509
-6.785 -6.0008 0.63339 0 9694
-6.7717 1.4357 1.3042 0 11213
-6.7704 0.48887 0 0 10846
-6.7672 3.0555 1.0435 0 12136
-6.76 -1.032 0.63798 1 10229
-6.7577 1.6399 0.64876 0 11296
-6.7562 6.0726 1.7115 0 14422
-6.7418 4.8892 0 1 13605
-6.7394 -5.754 1.0363 1 9753
-6.6909 -5.9175 0.41655 0 9693
-6.6903 -0.040869 0.78239 2 10612
-6.689 0.60168 1.1034 0 10904
-6.6872 -4.6529 0.76004 2 10038
-6.6844 -6.0845 1.703 2 9648
-6.6843 3.0181 0.51285 2 12132
-6.6702 3.6156 0.70784 0 12616
-6.6698 -0.46757 0.15523 0 10431
-6.6681 -0.080307 0.77984 1 10596
-6.661 2.9824 0.51034 0 12119
-6.6567 3.4328 0.52373 2 12470
-6.6505 3.1664 0.86137 0 12260
-6.6488 4.2586 0.73663 0 13163
-6.6401 -4.7346 0.38031 0 10010
-6.6362 3.4974 0.69985 0 12530
-6.6326 -5.3998 0.39885 2 9830
-6.6299 3.1822 0.51424 0 12278
-6.6293 -6.5488 1.0897 2 9535
-6.6236 3.1536 0.34211 0 12254
-6.6197 -5.486 1.2083 0 9808
-6.6011 -4.679 0.37733 2 10017
-6.5732 3.9934 0.53782 0 12984
-6.5706 0.4952 0.92606 2 10858
-6.5561 3.8819 1.0708 1 12891
-6.552 -6.8204 1.7819 1 9458
-6.548 -5.8917 0.41077 0 9662
-6.5409 -4.9559 0.76562 2 9935
-6.5397 4.0013 1.0775 2 13012
-6.5392 3.1598 1.0207 0 12300
-6.539 -5.6145 0.40192 0 9741
-6.526 -5.7031 1.218 2 9715
-6.5227 3.4609 0.51634 2 12550
-6.5219 2.1974 0.64207 2 11617
-6.5201 -0.70485 1.0775 0 10335
-6.5134 3.5778 0.86904 0 12659
-6.4996 2.34 0.64448 0 11721
-6.4926 3.1373 0.84325 1 12298
-6.484 3.1122 0.3354 2 12277
-6.4773 3.1536 0.33596 2 12314
-6.4738 -0.22946 0.75753 1 10535
-6.4733 4.249 0.90551 0 13254
-6.4701 3.1725 0.1673 0 12332
-6.4646 0.50537 0.91131 2 10867
-6.4637 -1.1595 0.30624 0 10175
-6.4477 3.8406 0.87763 2 12913
-6.4429 3.8667 1.056 0 12940
-6.4378 3.6602 0.86602 2 12764
-6.4315 3.3423 0.33801 2 12488
-6.4303 3.6337 0.51648 0 12741
-6.4252 -5.3249 0.38916 0 9805
-6.4252 -4.957 0.37844 2 9909
-6.423 -5.1697 0.3845 1 9848
-6.4207 -5.3534 0.77992 1 9795
-6.4206 5.3476 1.1743 0 14126
-6.416 -4.9821 0.37882 2 9900
-6.4103 -0.44938 0 0 10430
-6.4087 3.7946 0.5208 2 12887
-6.4051 3.6653 0.863 2 12787
-6.4037 3.5175 0.5109 1 12655
-6.4033 3.3532 0.33708 2 12509
-6.3989 -4.075 1.2464 2 10119
-6.3987 -4.9081 0.56391 2 9917
-6.3961 -4.1015 1.2483 0 10115
-6.3874 -6.0933 0.20495 0 9576
-6.3706 3.3107 1.009 1 12494
-6.3669 2.2496 0.62999 2 11689
-6.3642 -1.1612 1.0629 1 10172
-6.3639 -6.324 1.474 2 9530
-6.3633 -0.29897 0.59432 0 10499
-6.358 3.2788 1.0054 0 12474
-6.3543 -6.3476 1.4756 2 9521
-6.3484 4.0662 1.2386 1 13168
-6.3407 1.0964 0.90435 1 11112
-6.3389 5.6299 0 0 14364
-6.3381 2.4482 0.63389 1 11839
-6.3369 -5.8373 0.20003 0 9626
-6.3348 7.4014 1.3692 1 15517
-6.3285 -4.2158 0.88925 2 10083
-6.3241 2.4428 0.47407 0 11837
-6.3235 -7.3986 1.8337 2 9233
-6.3235 4.0721 1.2357 2 13190
-6.3214 -4.3414 1.0778 1 10052
-6.3205 2.2755 0.46974 1 11719
-6.3204 -0.27817 0.59024 2 10509
-6.3172 2.4833 0.79377 1 11871
-6.3156 7.6045 0.92223 1 15644
-6.3105 3.6375 1.3723 1 12810
-6.3077 -4.4414 0.71973 1 10024
-6.3059 2.4358 0.79052 2 11841
-6.3055 3.5631 0.6757 1 12743
-6.2957 -5.1585 0.37956 0 9820
-6.2953 4.0804 1.4135 0 13215
-6.2801 3.6669 0.50852 1 12846
-6.2792 -4.1294 0.70115 1 10093
-6.279 3.1484 0.82142 0 12398
-6.277 2.2995 0.62368 2 11752
-6.27 -4.9252 1.3099 2 9886
-6.2697 -6.0842 0.40742 0 9552
-6.2656 -5.1338 0.56642 1 9821
-6.2621 -7.2856 1.81 1 9243
-6.2604 -7.498 1.3728 1 9189
-6.2592 3.3674 0.83117 1 12597
-6.258 3.3205 0.99564 1 12555
-6.2565 5.9268 0 0 14629
-6.2422 -4.3692 0.5328 0 10031
-6.2408 3.3351 0.16429 0 12569
-6.2403 3.1059 0.81515 0 12380
-6.2335 -4.8965 0.55428 2 9882
-6.2154 3.6291 1.3561 2 12852
-6.2121 3.7002 0.67458 1 12911
-6.2066 3.7249 0.67532 1 12936
-6.2061 7.7437 -0.69394 2 15791
-6.2043 3.4334 1.165 2 12684
-6.2014 3.7675 0.33838 0 12982
-6.2011 -7.3824 1.355 2 9198
-6.1985 4.0454 1.3946 0 13236
-6.1974 3.5235 0.66511 2 12762
-6.1921 -7.7318 1.8663 2 9119
-6.1908 -4.5492 1.0797 2 9976
-6.1862 2.5145 0.46695 0 11933
-6.1753 3.3473 0.82142 1 12618
-6.174 -5.1769 0.37574 0 9783
-6.172 3.5319 0.66343 0 12785
-6.1683 6.9183 1.0839 1 15340
-6.1551 2.6305 0.46807 0 12025
-6.155 7.6799 0.68822 1 15801
-6.1528 6.7832 1.2871 0 15269
-6.1437 -3.9867 1.2033 2 10107
-6.1242 3.4353 1.1536 2 12726
-6.1228 -4.0006 1.2016 2 10102
-6.1198 -3.9986 0.68201 0 10099
-6.1128 7.7152 -0.91833 2 15847
-6.111 2.5488 0.61773 2 11981
-6.107 7.7079 -0.68766 1 15849
-6.1035 3.4701 0.98674 0 12766
-6.0948 7.8291 0.6938 0 15934
-6.0915 3.2103 1.1313 0 12535
-6.0886 -7.7428 0.68878 2 9086
-6.0885 7.5969 1.1385 1 15805
-6.0884 -0.73139 0.71711 1 10306
-6.0847 7.7713 0 1 15903
-6.0832 3.6019 1.332 0 12895
-6.0793 -0.4966 0.56906 1 10399
-6.075 -4.1223 1.2062 0 10066
-6.0685 -0.4808 0.56794 1 10407
-6.0632 -4.164 1.2084 2 10053
-6.0607 1.9845 0.89627 2 11576
-6.0588 7.7829 0.92019 2 15936
-6.0564 -0.44263 0.99769 1 10425
-6.0452 -0.072805 1.1391 0 10599
-6.0417 7.7609 0.22835 2 15930
-6.0319 3.8635 0.83768 1 13165
-6.028 -4.6809 0.8925 2 9903
-6.0236 -0.84871 0.42537 0 10254
-6.0186 7.7788 -0.45866 2 15955
-6.0079 -6.904 0.4268 2 9258
-6.0078 -0.98812 0.712 1 10206
-6.0043 -6.6265 1.4691 1 9340
-5.9986 1.3452 1.01 0 11244
-5.9862 -0.87863 0.14047 0 10240
-5.985 1.3608 1.0084 0 11253
-5.975 2.2697 1.2042 1 11814
-5.9646 3.4132 0.15955 0 12781
-5.9573 3.9102 1.0015 2 13256
-5.9532 -0.71514 0.5594 2 10305
-5.9505 -5.5122 1.5282 2 9621
-5.9505 7.7857 1.1459 2 16025
-5.9368 0.8481 0.84283 0 11046
-5.9272 -7.9984 0.46425 2 8967
-5.9218 -5.175 0.91968 0 9714
-5.9208 -0.67669 0.6969 0 10322
-5.9147 -6.3007 1.6282 1 9412
-5.9129 0.60165 1.1198 2 10938
-5.9027 0.86217 0.83838 2 11054
-5.9 -0.018537 0.82919 0 10622
-5.8951 -0.69148 0.69412 1 10315
-5.8948 1.3047 0.28155 0 11235
-5.8944 -4.4936 0.51829 0 9926
-5.8903 -6.2049 1.6119 2 9434
-5.8802 -0.0030782 0.82641 2 10629
-5.8759 -7.9816 0.4622 0 8957
-5.8748 7.5929 0.89566 1 15965
-5.872 -6.2552 1.0033 1 9408
-5.8718 2.4286 1.1972 0 11971
-5.8708 2.509 0.74662 1 12028
-5.87 -0.93182 0.69505 1 10220
-5.8669 4.0518 0.16554 0 13432
-5.8635 -1.0002 0.55494 2 10193
-5.8605 0.13402 0.68552 2 10701
-5.854 -0.018392 0 0 10619
-5.853 -4.9374 1.2581 2 9777
-5.8399 6.4382 0.81095 0 15265
-5.8316 3.4529 1.1134 0 12893
-5.8278 -5.9992 1.1755 2 9479
-5.8132 -4.0192 0.65935 2 10044
-5.8131 -5.3849 0.92665 1 9619
-5.8088 -0.66388 0.54546 1 10321
-5.8042 -6.0041 0.38944 1 9464
-5.8035 -6.2563 1.402 2 9387
-5.7971 -0.47355 0.68018 0 10400
-5.7949 -0.67972 0.54435 2 10314
-5.7938 -6.1032 1.1827 2 9431
-5.7867 -5.5202 1.124 2 9580
-5.7841 3.6552 1.1241 2 13123
-5.7769 6.1496 0.59 0 15118
-5.7714 -6.2917 0.99843 1 9365
-5.7694 0.30135 0.81194 1 10788
-5.7633 3.666 1.1222 2 13144
-5.7603 -0.27064 0.67437 0 10500
-5.7517 -5.5195 1.1203 2 9572
-5.7493 -7.0922 1.0677 0 9134
-5.7421 -5.3509 0.54884 0 9607
-5.7404 0.88968 0.81639 0 11074
-5.7218 0.8541 0.81305 0 11061
-5.7097 -6.1919 0.98496 0 9377
-5.7005 -0.31571 0.53264 2 10473
-5.6917 -7.5449 0.88173 1 9006
-5.6858 5.7758 0.75614 0 14924
-5.6827 -7.7701 1.1257 1 8949
-5.6815 -0.76716 0.53487 0 10269
-5.6776 0.34626 0.79941 2 10813
-5.6746 -4.2995 0.83257 2 9936
-5.6741 0.24476 0.52986 1 10757
-5.6735 -5.638 0.55931 0 9528
-5.6722 -1.1736 0.95165 1 10145
-5.6672 0.3784 0.93317 1 10831
-5.6656 3.5802 0 0 13115
-5.6651 3.3744 1.2424 1 12918
-5.6615 -0.29968 0.52893 0 10480
-5.6576 -7.7357 1.3469 0 8950
-5.6568 3.4151 1.245 2 12967
-5.6532 0.69112 0.53134 0 10993
-5.6452 5.1331 0.89227 0 14467
-5.6443 6.8739 0.62195 0 15696
-5.6331 -1.1481 0.94451 2 10147
-5.6291 -7.7393 1.345 2 8941
-5.6211 0.55512 0.79384 0 10929
-5.6183 0.014708 0.39287 0 10637
-5.6166 0.68664 0.79524 2 10995
-5.6107 -0.74066 0.528 2 10277
-5.5973 6.8556 0.61888 0 15722
-5.5926 0.42149 -0.13021 1 10855
-5.5874 6.414 1.1955 2 15442
-5.5867 -6.1656 1.1693 2 9339
-5.5817 6.7209 1.0217 1 15646
-5.5794 -6.2271 0.97776 2 9315
-5.5743 1.9893 0.9724 1 11710
-5.5715 -4.1954 0.81561 1 9945
-5.5668 4.972 1.2263 2 14397
-5.5647 6.2413 -0.19414 0 15333
-5.541 5.5662 0 0 14869
-5.5358 0.27268 1.0443 2 10781
-5.5333 -5.3397 0.3586 0 9561
-5.5264 4.9083 1.0388 0 14371
-5.5203 5.5725 0.18211 0 14893
-5.5179 -0.3056 0.64626 1 10474
-5.5169 -0.11364 0.51481 1 10575
-5.5022 0.014404 0.90398 0 10639
-5.5021 -5.28 0.35562 0 9568
-5.5012 0.25462 1.0376 1 10771
-5.4993 -3.8981 0.62888 2 10018
-5.4883 -7.1473 1.2665 0 9040
-5.483 -6.0152 0.37956 1 9349
-5.483 -5.9773 0.37826 2 9362
-5.4801 8.2608 0.46229 0 16628
-5.4745 0.02962 0.89944 2 10648
-5.4727 -0.017194 0.63999 0 10621
-5.4714 -6.4791 0.99169 0 9208
-5.4543 -6.3078 0.38888 1 9248
-5.4531 -6.691 0.2004 0 9143
-5.4409 -7.3049 1.2801 2 8983
-5.4403 6.5856 1.2005 2 15673
-5.4395 -6.792 0.20203 0 9112
-5.4388 6.702 1.0093 0 15751
-5.4385 4.6911 0.33493 0 14253
-5.4349 0.029406 0.63558 1 10646
-5.4211 -5.1391 1.2273 2 9588
-5.4183 0.29629 0.50626 1 10794
-5.4085 -7.2614 1.0588 1 8982
-5.4083 8.2053 0.45829 0 16653
-5.4043 -5.309 0.35329 0 9540
-5.4027 4.942 0 0 14487
-5.3938 -3.8687 0.46416 2 10002
-5.3835 -7.0976 0.41543 2 9016
-5.3806 -0.39324 0.75822 2 10424
-5.3742 -7.0419 0.4131 0 9026
-5.3624 -5.2348 0.34947 0 9545
-5.3542 0.26374 0.50013 1 10777
-5.3444 -5.4025 1.068 2 9503
-5.338 -5.8193 0.55219 2 9363
-5.334 -5.9532 0.37276 2 9313
-5.3246 -0.10968 0.6228 1 10576
-5.3201 -7.096 1.2464 2 8996
-5.3039 0.58556 1.0054 2 10961
-5.2959 -6.3048 0.96289 1 9197
-5.2861 7.5298 0.85832 1 16405
-5.2841 3.6945 1.0593 0 13482
-5.2828 -6.8376 0.40295 1 9048
-5.2793 -6.9983 1.0251 1 9007
-5.2592 5.4977 1.4334 0 15049
-5.2582 -0.29122 0.74012 0 10475
-5.2568 8.2866 1.8489 2 16810
-5.2365 -5.1118 1.2023 2 9549
-5.2316 8.2979 1.8482 2 16834
-5.2256 -0.16879 0.61142 0 10544
-5.2191 -4.4308 0.63872 1 9764
-5.2024 -4.9924 0.5042 2 9569
-5.199 -5.6381 0.53629 2 9375
-5.1979 -6.2255 0.56712 1 9186
-5.1894 0.10417 0.85275 1 10693
-5.1883 0.042561 0.85243 2 10657
-5.1845 -5.2409 0.34379 1 9500
-5.1796 4.7913 1.3294 0 14544
-5.1788 0.31584 0.85243 2 10814
-5.1718 5.5344 1.4272 1 15149
-5.1715 -0.57551 0.48545 0 10327
-5.1655 -4.9848 0.50197 2 9562
-5.1649 -3.571 0.7343 1 10045
-5.164 -0.091941 0.60398 0 10584
-5.1597 -3.5435 0.73198 2 10051
-5.1515 1.655 1.0194 0 11552
-5.1442 0.2219 0.84594 0 10760
-5.1292 1.0874 0.36664 0 11210
-5.1192 -4.4736 0.63427 0 9713
-5.1144 -4.4427 0.63204 2 9723
-5.1128 -5.7405 0.53754 2 9305
-5.1096 -0.045483 0.71813 1 10606
-5.1076 -0.97895 0.60817 2 10159
-5.1061 -0.37318 0.47765 1 10422
-5.0949 -0.47623 0.59841 1 10369
-5.0921 -0.55048 0.47784 1 10334
-5.091 -0.99144 0.60654 2 10154
-5.0844 -0.34216 0.47542 1 10441
-5.0798 -4.2099 1.0839 1 9809
-5.0719 -5.7287 0.53503 2 9294
-5.0624 -5.4573 0.52052 2 9385
-5.0456 -4.2068 0.76822 2 9796
-5.0438 -4.7001 0.96892 0 9610
-5.0427 0.13116 0.82876 0 10709
-5.0373 0.11519 0.11698 0 10699
-5.0325 -0.66432 0.7134 2 10279
-5.0249 -4.9639 1.1605 1 9537
-5.0232 -7.7767 0.43174 2 8771
-5.0094 -0.11805 0.70422 0 10567
-5.0065 -0.43977 0.58772 0 10384
-5.0062 1.2 0 2 11287
-4.9991 -0.13178 0.70282 2 10559
-4.9968 -7.4473 0.41823 1 8827
-4.9939 3.3004 0 0 13272
-4.9929 -0.14731 0.82065 2 10552
-4.9916 -0.48152 0.8239 1 10361
-4.9772 -7.7588 0.42987 1 8763
-4.9738 -0.49469 0.46632 2 10353
-4.9729 0.44731 0.70171 0 10903
-4.9629 8.0293 1.3266 0 16908
-4.9598 -5.0737 0.66195 2 9487
-4.955 -0.52166 0.46483 1 10339
-4.9541 0.085608 0.93354 2 10685
-4.9521 -0.8447 0.9465 0 10197
-4.9465 -7.5647 1.057 2 8793
-4.9387 0.47293 0.69726 2 10921
-4.9329 3.1973 0.54843 0 13210
-4.9235 -8.2396 0.6712 1 8670
-4.9206 -4.775 0.96363 2 9556
-4.9117 -8.2722 0.67273 0 8662
-4.9004 -7.5402 1.0516 2 8784
-4.8925 -0.96608 0.70088 0 10151
-4.888 -5.3287 1.188 2 9367
-4.8875 7.957 1.3124 0 16937
-4.8853 -5.4219 1.199 1 9326
-4.8796 -7.4626 0.4158 2 8790
-4.8796 -5.229 1.175 0 9398
-4.8775 -5.1958 1.1708 2 9410
-4.8743 -7.4063 0.41347 2 8799
-4.8646 -3.6631 0.56813 2 9944
-4.859 -5.0883 1.1559 2 9444
-4.8588 7.963 1.311 0 16966
-4.8561 4.933 0.16071 0 14919
-4.8487 -0.97326 0.69503 0 10148
-4.847 5.903 0 0 15692
-4.8397 4.0538 0.29441 0 14145
-4.8383 -4.8332 0.96113 1 9520
-4.8329 -3.2795 0.82084 0 10065
-4.8103 -0.89241 0.80379 1 10168
-4.7925 0.16484 0.56078 2 10730
-4.7908 6.9136 1.3819 1 16457
-4.7895 -5.4748 0.33922 2 9270
-4.7893 -7.6113 1.0516 0 8739
-4.7869 8.218 1.3366 2 17139
-4.774 -7.7844 0.63855 0 8702
-4.7693 8.2374 1.3377 2 17165
-4.7603 0.88056 0.79536 0 11141
-4.7597 -7.81 0.42652 2 8694
-4.7528 0.53984 0.55938 1 10967
-4.7516 -7.2667 0.81002 1 8792
-4.739 -8.4794 1.136 1 8597
-4.7376 7.9191 0 0 17033
-4.7362 4.6478 0.46402 0 14778
-4.733 4.3037 0.89906 1 14469
-4.7133 -7.6345 0.41841 1 8707
-4.7001 -4.4837 1.2239 1 9582
-4.6987 -4.179 0.88375 1 9686
-4.6914 0.64431 0.66553 1 11032
-4.6895 -4.2956 0.89377 2 9638
-4.6829 0.65648 -0.10979 0 11039
-4.675 -6.6321 0.5674 1 8893
-4.6696 -6.42 0.55512 1 8938
-4.6684 5.0255 0.80214 0 15171
-4.6584 0.76451 0.77558 1 11094
-4.6527 -3.8122 0.70341 1 9823
-4.6388 4.8797 0.62814 1 15070
-4.6317 -0.80419 0.77234 2 10189
-4.6251 4.1805 1.0243 0 14446
-4.6234 0.69014 0.32688 0 11060
-4.6215 6.8801 1.5616 1 16585
-4.6198 -6.5904 0.5628 1 8886
-4.6192 -6.4711 0.55596 2 8912
-4.6176 -0.47311 0.76261 2 10348
-4.613 3.8421 0.27997 0 14122
-4.5949 -8.334 0.66548 0 8577
-4.5909 0.58892 0.6505 1 11008
-4.5852 0.4795 0.75743 1 10946
-4.5776 -6.1458 0.53587 1 8980
-4.5721 -0.32052 0.86355 2 10436
-4.5625 4.828 0.77682 0 15095
-4.5614 -7.3367 1.2141 1 8719
-4.5582 0.80045 0.76035 2 11119
-4.5574 -0.47981 0.75289 1 10341
-4.538 -0.62485 0.53569 0 10262
-4.5376 -4.1799 0.86705 0 9629
-4.536 -4.75 0.45928 1 9440
-4.5315 4.4205 0.59061 1 14755
-4.5312 3.5351 0.53617 0 13881
-4.5282 4.3896 0.58838 1 14731
-4.5255 -7.5198 0.61372 0 8679
-4.5255 3.4663 0.13235 0 13807
-4.5152 -3.0432 0.89458 2 10073
-4.5065 -5.7972 1.3835 1 9068
-4.5055 -6.8459 1.1518 0 8803
-4.4948 -7.3752 0.60395 2 8695
-4.4862 -5.6359 1.1835 2 9109
-4.4807 -8.2421 0.87523 2 8563
-4.4789 -0.63107 0.52895 0 10256
-4.4767 4.5191 0.29664 0 14895
-4.4733 -6.5848 0.55666 2 8843
-4.4713 0.24451 0.62934 0 10796
-4.4704 -0.70964 0.42229 0 10219
-4.4666 0.25832 0.62878 0 10803
-4.4472 -4.0736 0.70527 2 9637
-4.4445 -4.0941 0.70666 2 9628
-4.4431 -4.1158 0.85118 1 9620
-4.4329 -8.4434 1.3402 0 8525
-4.4311 -6.0922 0.70282 0 8939
-4.4289 -5.5301 1.164 0 9117
-4.4261 -8.3736 1.1076 0 8534
-4.4254 -6.313 0.35953 1 8885
-4.4236 -6.8483 1.3394 0 8776
-4.4159 4.5109 0.58893 0 14949
-4.4147 -8.4088 1.1106 0 8524
-4.4099 -8.2799 0.65599 2 8541
-4.409 -8.3978 0.66324 0 8523
-4.3978 -6.8555 1.3381 2 8767
-4.3968 -4.9661 0.77565 1 9296
-4.3831 -6.5326 0.5501 1 8828
-4.3737 -8.5103 0.89269 2 8504
-4.3731 7.7106 0.41338 0 17230
-4.3681 -0.71844 -0.10278 0 10205
-4.367 -6.8442 0.75744 1 8756
-4.3616 8.5379 1.5752 0 17582
-4.3572 8.4096 1.7845 0 17534
-4.3554 -6.7428 0.74889 1 8773
-4.3426 -6.9013 1.146 0 8740
-4.3426 1.0795 0.10389 0 11313
-4.3354 -7.0224 1.1599 2 8711
-4.3308 -0.69988 0.40928 0 10213
-4.3249 -0.64713 0.40798 0 10235
-4.3161 -6.8992 1.1437 2 8729
-4.3059 -0.41537 0.81504 2 10362
-4.3055 -6.0674 0.52024 1 8903
-4.2965 6.0102 0.17153 0 16319
-4.2938 -5.9777 0.51466 2 8919
-4.2885 -0.71919 0.50851 1 10200
-4.2854 -4.5923 0.73454 1 9397
-4.2827 -7.2647 1.1852 0 8656
-4.2798 -7.2598 0.5893 0 8654
-4.2734 -7.2955 1.1883 0 8649
-4.2727 8.4805 0 0 17621
-4.2649 -0.72748 0.50595 1 10194
-4.2583 -5.5116 0.48704 0 9049
-4.2557 -4.7231 0.89349 1 9325
-4.2557 -3.2643 0.62721 1 9919
-4.2557 4.5812 -1.4816 1 15172
-4.2481 4.0952 -1.3981 0 14708
-4.242 -0.83763 0.81467 1 10153
-4.2379 -6.8164 0.56126 1 8716
-4.2374 -0.85057 0.8143 1 10150
-4.2354 -4.6465 0.73523 2 9352
-4.2347 -5.5147 0.4862 0 9037
-4.2322 -6.8552 0.56335 0 8708
-4.2238 3.2352 1.0024 0 13815
-4.2215 -6.79 0.37285 0 8715
-4.2132 -3.2119 0.61955 0 9928
-4.2097 -6.5977 1.4746 0 8759
-4.2074 -5.8187 0.50211 0 8928
-4.2008 -6.7149 1.4923 2 8732
-4.1847 -0.72658 0.80023 1 10190
-4.1835 -7.0012 1.1462 1 8672
-4.1755 -2.659 0.5789 2 10117
-4.173 -5.4679 0.9667 0 9029
-4.1657 -8.0502 0.4227 2 8508
-4.1589 8.0785 1.7119 0 17558
-4.1577 -7.2891 1.1794 0 8621
-4.1498 0.63056 0.49085 0 11067
-4.1302 0.64013 0.48876 0 11073
-4.1246 -7.2783 1.1757 2 8614
-4.1224 -6.343 1.4253 2 8786
-4.1211 7.7867 1.0303 0 17460
-4.1179 -5.6616 1.319 1 8944
-4.1158 -3.4511 0.75487 2 9787
-4.1147 -7.1153 1.5486 1 8637
-4.1132 -6.7491 0.73738 1 8696
-4.1132 -3.4295 0.75265 2 9797
-4.1078 1.7133 0.10333 2 11978
-4.1017 0.046534 0.28684 0 10665
-4.0933 -8.0788 1.7064 2 8493
-4.0823 -6.398 0.53071 2 8755
-4.081 -3.0375 0.59492 0 9961
-4.0778 -3.0517 0.59562 1 9952
-4.0731 -3.1051 0.47784 2 9927
-4.0702 4.4062 0.13926 0 15191
-4.067 -6.758 0.36782 0 8678
-4.0561 -8.0646 1.7008 2 8487
-4.056 0.033272 0.28363 1 10655
-4.0509 3.7289 0.7738 0 14517
-4.048 -6.5109 0.71527 2 8717
-4.0468 5.0494 -0.30177 2 15793
-4.0421 -5.109 1.0703 0 9099
-4.0372 2.8754 0.46242 0 13546
-4.0284 -2.6836 0.68028 0 10084
-4.0145 -7.5374 0.99866 0 8542
-4.0107 -7.1294 1.5412 2 8608
-4.0104 -5.5463 0.63854 2 8929
-4.0003 -7.3067 1.1707 1 8572
-4.0002 -5.8883 1.1695 2 8846
-3.9959 7.3903 1.3803 2 17394
-3.9835 -7.0294 1.3274 2 8615
-3.981 -2.6832 0.67471 1 10072
-3.9689 1.5882 0.099249 0 11899
-3.9669 -5.7676 1.1501 2 8860
-3.9596 2.8536 0.22761 0 13585
-3.9566 -7.0333 1.3258 0 8607
-3.9427 8.4243 0.65041 0 17845
-3.928 -2.5334 0.6569 1 10110
-3.9255 2.9527 0 0 13738
-3.9249 -7.0227 0.75057 0 8596
-3.9232 6.3473 0.34798 0 16902
-3.9212 -2.8312 0.67972 0 9998
-3.9188 1.3985 -0.096603 0 11702
-3.909 -8.1843 0.63423 0 8440
-3.906 -8.2409 0.63771 1 8434
-3.9058 -6.2071 1.2049 2 8741
-3.8989 -6.2323 1.2078 1 8730
-3.8899 -5.5184 0.94888 1 8896
-3.8851 -2.8738 0.67916 1 9969
-3.883 -5.3701 0.77496 1 8930
-3.8745 -5.8493 0.82049 2 8810
-3.857 -7.5568 0.99216 2 8498
-3.8551 7.3836 1.5693 0 17510
-3.8387 -7.3678 1.5653 1 8518
-3.8382 -6.9615 0.74165 2 8578
-3.8302 -5.3322 0.76776 2 8921
-3.8254 -2.6935 -0.32716 2 10022
-3.8097 1.4716 0 0 11836
-3.8083 -2.6331 0.76067 2 10047
-3.8016 -7.7258 1.6223 2 8466
-3.7933 -6.88 0.91875 1 8579
-3.7905 -6.8271 0.91318 0 8589
-3.7751 -7.7883 1.2164 2 8455
-3.7648 7.6952 0.79924 1 17714
-3.7629 5.2308 1.0586 1 16299
-3.7574 3.8841 0.25202 0 14993
-3.74 0.8724 0.72357 0 11272
-3.7388 -6.9235 1.2927 1 8556
-3.7288 -6.0801 1.1718 2 8705
-3.7243 -5.9532 0.82119 1 8728
-3.7242 -6.8506 1.2811 0 8565
-3.7216 -7.792 1.2136 2 8442
-3.6972 -2.5391 0.84503 2 10054
-3.6918 -2.5052 0.84059 2 10067
-3.6877 8.5218 0.21558 0 18068
-3.6859 -5.7063 0.95473 0 8775
-3.6846 -5.9264 1.1465 2 8720
-3.6823 -6.3677 1.0338 0 8636
-3.6819 -2.3747 0.71982 1 10111
-3.6745 -7.8088 1.626 2 8429
-3.6722 7.5058 1.3728 0 17718
-3.6601 7.01 0 0 17501
-3.6319 -6.6808 1.4327 0 8567
-3.6265 7.8702 1.6327 0 17893
-3.6191 8.855 0 0 18229
-3.6103 0.97616 0.17441 0 11372
-3.6064 1.3699 0.17991 0 11806
-3.5738 0.98842 0.17292 0 11393
-3.5726 -7.8905 1.6319 2 8388
-3.5609 5.761 -1.4396 0 16909
-3.5366 5.9117 1.2979 0 17045
-3.535 3.7829 0.48304 2 15143
-3.533 6.7179 -1.247 0 17464
-3.5229 7.1 0 0 17666
-3.5109 5.9866 -0.16113 1 17105
-3.5069 0.57553 0.41559 0 11093
-3.4944 -2.2675 0.48714 0 10105
-3.4812 0.56009 0.41234 0 11088
-3.4811 -7.6245 1.178 2 8395
-3.4629 6.7787 0 0 17572
-3.4436 -6.7467 1.4272 0 8499
-3.416 -6.0279 0.3231 0 8612
-3.3918 -6.0294 0.64541 0 8604
-3.3758 3.4078 -0.22369 1 14888
-3.3588 3.374 -0.22202 2 14865
-3.2971 -6.8479 1.432 1 8449
-3.2693 7.0949 0.18137 0 17885
-3.2483 -4.3326 0.63325 0 8995
-3.2391 1.0506 0.31769 0 11560
-3.2223 8.6552 0.21442 0 18482
-3.1946 1.0263 0.31305 0 11545
-3.1799 6.5488 0.16902 0 17734
-3.1627 8.1372 -1.227 0 18363
-3.1397 5.3536 0.14409 0 17108
-3.1381 3.8904 0.46632 0 15776
-3.1367 6.7605 -1.0474 0 17852
-3.1002 7.9107 -1.1941 0 18338
-3.091 3.8568 0.46112 0 15803
-3.0579 4.3834 -1.136 0 16431
-3.0366 2.0699 0.085323 0 13389
-3.028 4.5079 -1.0232 0 16584
-3.0111 0.8805 -0.072835 0 11441
-3.0078 4.5049 -1.0206 0 16610
-2.9933 5.6917 1.2116 1 17486
-2.9717 3.7723 -1.2571 0 15884
-2.9565 3.4543 -1.3038 0 15515
-2.9533 8.0096 0.3981 0 18506
-2.949 6.8673 0.52262 0 18097
-2.897 7.9251 0 0 18528
-2.891 8.94 0.43816 0 18861
-2.8586 5.7184 -0.29813 0 17640
-2.8553 6.4953 1.3368 0 18030
-2.8542 2.2671 0.084627 0 13944
-2.8499 8.319 -0.20416 0 18705
-2.8448 2.9738 -1.3906 2 15041
-2.8279 -8.7709 0.64441 0 8134
-2.804 2.8986 0.093632 0 14991
-2.7928 1.686 0.53597 2 12965
-2.7692 7.3131 0.18155 0 18435
-2.7646 3.3861 0.71819 1 15728
-2.7497 2.8593 0.0921 2 15017
-2.7207 1.4858 0 0 12633
-2.7148 1.4716 0 0 12611
-2.6714 -8.5402 0.41729 0 8108
-2.6591 2.624 0.34853 0 14803
-2.6542 8.4695 -0.20607 0 18932
-2.6107 -2.2814 0.080495 0 9711
-2.605 9.1387 0.88656 0 19171
-2.6001 -2.006 0.22964 0 9910
-2.5975 6.4616 0.16169 0 18277
-2.5936 2.9439 0.64459 1 15392
-2.5598 -5.1297 0.67042 1 8478
-2.5594 7.849 0.96544 0 18841
-2.5349 -7.014 1.2253 0 8199
-2.5346 -8.1028 0 0 8107
-2.5215 7.6511 -0.18703 0 18808
-2.504 -1.9444 0.22169 1 9901
-2.4998 2.5393 0.67136 0 14930
-2.4918 -5.1754 0 0 8446
-2.4684 3.3286 0 1 16148
-2.463 2.5612 0.24847 1 15019
-2.4411 2.5518 0.24694 2 15043
-2.4312 -7.8492 0.3832 0 8098
-2.3785 3.6319 0.30358 0 16680
-2.3634 2.6969 0.58915 2 15418
-2.3387 9.0956 -0.21804 0 19360
-2.2917 7.3804 -1.0861 0 18948
-2.27 7.9638 1.3605 1 19177
-2.2585 4.4212 0.93539 0 17584
-2.2521 5.8486 0.29226 0 18396
-2.234 2.5056 0.63248 0 15344
-2.2085 9.1426 -1.3219 1 19466
-2.1789 8.0811 0.19432 0 19276
-2.1041 5.922 0.58633 2 18610
-2.0989 -5.0151 0.76406 0 8315
-2.0972 6.7542 0.32981 0 18958
-2.0934 7.8619 -0.18889 0 19297
-2.0262 -3.999 0.31349 0 8491
-2.0004 -4.8583 0 0 8294
-1.9645 2.748 0 0 16317
-1.9546 -5.3586 0.80164 0 8205
-1.9527 4.273 0 2 17908
-1.9521 -5.2602 0.92182 0 8219
-1.9475 7.6684 -0.18369 0 19382
-1.9294 -5.2413 0.9176 0 8213
-1.9253 7.8739 0.18819 0 19451
-1.9172 3.1832 0 0 17007
-1.8955 8.3769 -0.80129 0 19574
-1.8578 5.8072 0.42635 0 18888
-1.8425 6.3919 0.15444 0 19141
-1.8368 -9.5474 1.3664 0 7708
-1.8312 -6.4329 0.78216 0 8040
-1.8073 8.0986 0.19265 0 19606
-1.7253 3.8337 0.79208 0 17964
-1.7252 -4.5657 0.45536 0 8230
-1.7232 8.2844 0.19646 0 19727
-1.721 3.3429 -0.17534 1 17545
-1.695 3.3181 -0.17376 2 17568
-1.6901 3.4806 0.36098 0 17739
-1.685 7.7672 1.117 0 19667
-1.6466 6.9012 1.1656 1 19504
-1.6142 -4.272 0.75029 0 8232
-1.6107 5.9119 -0.28574 0 19253
-1.5912 4.027 -0.71138 0 18313
-1.5885 -5.9159 0.57147 1 7994
-1.5885 3.9856 -0.7049 0 18290
-1.563 6.4707 -0.31043 2 19470
-1.4606 2.9218 -0.61545 0 17651
-1.4225 2.9958 -1.3852 1 17799
-1.4116 3.3679 0.68803 0 18174
-1.4081 -4.6433 0.3393 0 8082
-1.3778 -2.761 0.58138 1 8481
-1.3521 -6.4273 0 2 7771
-1.3508 -5.6834 0.95975 0 7881
-1.2307 6.2787 1.0512 0 19828
-1.2282 5.8234 -0.41617 0 19701
-1.1901 2.9861 -0.14991 2 18298
-1.1776 6.008 -0.14214 2 19816
-1.1756 -5.9265 0 0 7723
-1.1066 6.1197 0.5802 2 19935
-1.0844 -5.6366 0.40138 0 7705
-1.0792 5.1167 -1.4995 0 19709
-1.0778 7.0028 0.66102 0 20120
-1.0649 4.4084 0.74511 0 19483
-1.0455 5.7815 0.96527 0 19941
-1.0243 5.6646 0.13365 0 19931
-1.02 -5.8502 -0.13787 0 7635
-1.0195 6.896 -0.48746 0 20155
-1.0175 7.4763 1.4216 0 20249
-1.0027 -5.3836 0.51091 1 7681
-0.99547 4.0165 0 0 19427
-0.97682 3.1459 0.62063 1 18969
-0.97473 3.3097 -1.3473 0 19089
-0.92662 7.4499 1.2334 0 20313
-0.88292 9.2884 1.3113 0 20472
-0.86792 6.1059 1.0133 1 20209
-0.84042 5.3485 -1.2828 0 20101
-0.82748 5.8215 0 1 20197
-0.81448 4.0285 0.48063 1 19781
-0.80847 6.3551 0.14873 0 20294
-0.79395 -7.7092 0 0 7340
-0.76419 3.1253 -1.2564 0 19449
-0.74881 -6.5217 1.2368 0 7395
-0.72861 -6.5163 -0.30577 0 7375
-0.72724 5.7165 -1.0857 0 20299
-0.72479 5.4466 0.38422 0 20261
-0.70654 7.6892 -0.36009 0 20483
-0.70474 7.6696 0.17882 0 20485
-0.69489 6.69 0 0 20419
-0.64694 6.0736 0.85842 0 20408
-0.62093 -7.0127 1.3264 0 7283
-0.58686 3.1449 -1.4244 1 19881
-0.58008 -5.6326 0.79579 0 7345
-0.55461 9.2534 0 0 20638
-0.54701 -8.4132 1.3852 0 7189
-0.54274 -5.4089 -0.25351 1 7326
-0.53016 -3.916 -0.18428 0 7479
-0.49309 3.5399 0.5872 0 20229
-0.43179 -6.6411 0.62089 0 7187
-0.39726 -9.5181 1.3388 1 7094
-0.37406 3.9352 0.091775 0 20467
-0.33784 -7.5561 1.063 0 7108
-0.32118 9.5312 -0.88972 0 20773
-0.3137 -4.0955 -0.19155 0 7233
-0.30209 -4.0844 -0.19099 0 7220
-0.28128 -4.3262 0.20217 1 7185
-0.25474 -8.4833 0.79181 0 7054
-0.23474 3.1439 -1.4923 1 20566
-0.23136 3.0987 0.58545 1 20574
-0.22472 3.1504 0.59508 0 20590
-0.19419 7.7791 1.0936 0 20827
-0.18082 -8.4218 -0.19557 0 7020
-0.15741 -8.5076 0.79385 0 7012
-0.14595 -4.8605 0.1129 0 7051
-0.14409 -7.7876 1.4675 0 7014
-0.10575 4.2361 -0.19761 1 20819
-0.087809 3.1834 -1.4179 1 20804
-0.046784 -4.7866 0.22323 0 6985
-0.011965 7.6179 0.17687 0 20925
0.0072431 -3.7728 0.26382 0 6951
0.0095896 -4.995 0.82065 0 6952
0.013346 3.1863 -0.37261 0 20942
0.014195 9.037 1.7027 1 20941
0.014318 9.1158 1.4977 0 20940
0.016176 3.862 0.54278 0 20950
0.01835 -3.7548 0.26256 0 6943
0.059072 8.2548 0.38497 0 20957
0.089593 9.0051 0.20908 0 20969
0.095273 -9.0976 0.42428 0 6925
0.10224 -6.2315 1.1742 0 6910
0.1245 -9.3853 1.5421 0 6917
0.12818 -5.7817 0.81277 0 6892
0.14644 -8.9251 -0.41627 0 6906
0.17646 8.1526 1.5364 0 21017
0.1855 -4.3533 0.2032 0 6854
0.18648 -3.6434 0.34036 0 6840
0.19954 -5.0561 0.47208 1 6860
0.21147 -3.6899 0.34481 0 6828
0.21174 -5.3654 1.0117 0 6861
0.21664 -7.6601 1.4438 0 6882
0.22109 -4.3196 0.20171 0 6839
0.24278 -3.5249 0.49657 0 6803
0.24499 -4.0755 0.094793 0 6820
0.27792 -5.43 0.89328 1 6841
0.31473 -5.2358 0.48935 0 6822
0.31549 -9.3142 0.86947 0 6871
0.32354 -5.1282 0.23963 0 6813
0.33219 9.1907 1.511 0 21074
0.34779 9.6222 0.67329 0 21069
0.35975 8.5477 1.4056 0 21096
0.36034 9.9695 0 0 21063
0.38421 -6.0899 0.85758 0 6814
0.41405 -6.3004 0.88737 0 6808
0.42364 -3.574 0.083559 0 6706
0.44122 -4.7744 -0.11132 0 6758
0.44185 -5.3063 0.8748 0 6774
0.44404 -5.7186 0.26748 0 6789
0.48157 9.5063 1.7934 0 21129
0.49033 -6.5826 -0.30782 0 6794
0.49427 3.2226 -1.2731 1 21473
0.51868 -3.3047 0.47013 2 6627
0.52242 -3.3903 0.4821 0 6635
0.52912 -6.5763 1.0839 0 6782
0.57904 -3.254 -0.076735 0 6586
0.63085 -9.5993 0 0 6807
0.64365 -4.6149 0.76553 1 6664
0.65272 -8.4061 0.78661 1 6790
0.65626 -3.2962 0.55218 0 6546
0.73238 3.8686 -0.55335 0 21569
0.74262 -3.0325 0.51295 0 6450
0.75068 5.6562 -0.26608 0 21407
0.76726 6.1952 -1.3269 0 21383
0.78833 5.9399 0.55902 0 21411
0.80662 -6.6268 0.46681 0 6700
0.81308 3.9124 -1.3503 2 21607
0.85577 6.1672 -0.14456 1 21427
0.85726 -2.972 0.071814 1 6301
0.85781 4.9201 0.46595 1 21537
0.86675 7.7273 1.2775 0 21341
0.87476 6.1773 -0.58206 0 21435
0.88414 8.541 0.40043 0 21308
0.88558 -5.0585 0.35911 0 6592
0.88967 -3.4575 0.58655 0 6407
0.9043 -3.2432 0.47319 0 6336
0.92284 -6.9164 0.65099 0 6677
0.93775 5.6645 0.80693 1 21508
0.93972 -6.3408 1.0531 1 6646
0.94431 3.1778 -0.076967 0 21916
0.96028 3.1646 -0.076781 0 21941
0.98983 9.3237 -1.0965 0 21313
0.99821 5.8275 0.13727 0 21522
1.0204 3.1313 -1.0277 0 22013
1.0242 -7.2056 -0.16897 0 6656
1.0464 -6.9189 0.65284 2 6640
1.0509 -6.8197 0.1602 0 6634
1.0635 -4.7655 0.571 0 6493
1.075 9.3341 0.43816 0 21350
1.0827 3.8884 0.56727 0 21842
1.0863 -7.4825 1.4246 0 6651
1.1014 -5.0013 0.59887 0 6499
1.113 4.2366 -1.1467 0 21782
1.1144 -4.2327 0.82467 0 6385
1.115 8.401 -1.191 0 21402
1.1226 -4.3159 0.84022 0 6395
1.1233 4.3246 0.73408 1 21774
1.1261 3.9585 -0.77542 1 21872
1.1451 8.4253 0.39652 0 21420
1.1591 -5.5679 0.66508 0 6526
1.1702 -4.9619 0 0 6467
1.1755 4.3655 -0.96097 0 21805
1.1763 -5.059 0 0 6475
1.1767 4.278 -0.94309 0 21830
1.1826 -6.9991 0.33102 0 6604
1.1891 -8.5255 0 0 6663
1.2048 -8.476 1.4066 0 6657
1.2218 4.1566 0.50665 0 21906
1.2346 2.9014 0.073207 0 22414
1.2359 9.5157 0.44748 0 21400
1.2443 4.1873 0.51083 0 21922
1.2533 5.4027 -0.64859 0 21675
1.2595 -7.3224 0.34649 0 6598
1.2759 -2.7689 -0.28444 0 5825
1.2814 3.6086 0.35726 1 22118
1.2833 -3.7806 0.65594 1 6113
1.2894 7.9258 0 0 21499
1.2917 6.5058 0.77565 0 21590
1.3021 5.6134 -0.13379 0 21678
1.3103 4.3619 -1.306 0 21935
1.3188 9.5041 1.8078 0 21432
1.326 5.6448 -0.13462 0 21689
1.3278 3.4501 -1.3455 0 22236
1.3398 7.5447 0.7149 0 21546
1.342 4.2435 0.41523 0 21981
1.3437 9.0994 0.85814 0 21458
1.3739 7.257 0.68907 0 21574
1.379 -5.7752 1.1187 0 6461
1.3937 2.7905 0.072418 0 22735
1.3981 6.1142 0 0 21669
1.4137 4.2521 -1.3982 1 22034
1.4415 -5.4061 0.91922 2 6374
1.4506 -5.5099 0.93608 0 6384
1.4575 5.4129 -0.52298 0 21796
1.4826 -8.0465 0 1 6573
1.5121 8.3702 0.19748 0 21553
1.5217 5.6513 0.54602 0 21803
1.5225 -7.4234 0.17594 0 6532
1.5259 3.4762 -1.3818 0 22482
1.5385 5.6509 0.54639 1 21815
1.5394 6.1467 -0.44309 0 21742
1.5644 5.499 0.53339 0 21869
1.5918 4.7002 0.46297 1 22058
1.5995 5.8148 0.84756 0 21829
1.6007 6.7294 -0.48369 0 21698
1.6106 -2.622 0.071443 0 5650
1.6164 4.552 -0.67889 0 22107
1.6334 4.8229 0.71563 0 22060
1.6394 4.1176 0.83504 1 22299
1.6518 4.0436 -1.2525 1 22341
1.6535 7.0387 -0.50559 0 21686
1.6586 9.683 0.68696 0 21524
1.6619 9.532 1.823 0 21539
1.6689 2.8491 0.62211 0 23085
1.6791 4.2172 0.74575 0 22297
1.6801 3.5964 -1.3413 0 22596
1.681 -5.9605 1.0175 0 6327
1.6831 4.1202 -1.0546 2 22344
1.7074 -3.9742 0.30246 0 5884
1.7089 9.1671 1.532 0 21567
1.7149 -9.474 0 0 6580
1.745 7.3359 -0.88182 0 21696
1.7586 -3.6216 0.66145 0 5808
1.7647 -2.4694 0.070468 0 5498
1.7679 4.1548 -1.4089 0 22416
1.7715 7.0736 0.34006 0 21745
1.7769 2.7321 -1.3613 0 23366
1.7837 3.1707 0 0 22983
1.792 3.2051 0 0 22967
1.793 2.8649 0.23633 0 23258
1.7996 -7.1751 1.0396 0 6428
1.8167 -8.858 1.0574 0 6533
1.8277 6.788 -1.1549 0 21794
1.8493 6.7924 -1.1566 0 21806
1.8689 3.7965 -0.79726 2 22706
1.8834 5.2544 -1.0517 0 22131
1.8948 4.3848 0.1109 0 22447
1.9064 4.8272 0 0 22277
1.9241 -4.8227 0.24214 0 5944
1.9654 3.7981 -1.445 0 22809
1.9834 2.5359 -1.1718 0 24003
1.9847 -4.1498 0.42916 0 5812
1.9935 3.6171 0.38532 2 22940
1.9968 -4.2014 0.43399 0 5814
2.0023 4.7843 0.24186 0 22384
2.0057 6.8234 -0.16512 0 21899
2.0268 9.0899 1.5301 0 21655
2.0386 6.7864 0 0 21931
2.0458 -4.2132 -0.43696 0 5806
2.0464 3.6857 0.3933 0 22955
2.0547 -5.1061 0.25667 0 5936
2.0687 -4.2909 0.55706 1 5809
2.0694 5.2831 0.93219 0 22272
2.0742 -8.2698 1.6064 0 6430
2.0956 -8.6687 1.4652 0 6456
2.0964 -5.5362 0.83198 0 5996
2.1004 4.496 0.46297 1 22599
2.1072 4.0983 -1.3214 0 22797
2.1086 3.2644 -1.3131 0 23348
2.1138 3.7806 0.60874 0 22973
2.1204 3.3041 -1.3266 0 23328
2.1216 -3.9502 0.63018 0 5736
2.1258 8.3766 1.4199 2 21757
2.1273 6.598 -0.32329 0 21999
2.1302 -5.5233 1.1154 0 5977
2.1317 2.4376 -1.1786 0 24435
2.1338 4.1235 -1.3313 0 22811
2.1497 3.4576 0.66891 2 23246
2.1511 2.8525 -1.3004 1 23868
2.175 3.6631 0.59872 0 23119
2.1784 6.7566 -1.3375 0 22006
2.1833 4.0429 0.3213 0 22898
2.1886 4.2295 0.89725 0 22815
2.208 5.0301 1.035 0 22488
2.2276 5.276 -1.4992 0 22402
2.2414 7.4616 0.5448 0 21934
2.2584 2.7543 -1.4877 0 24192
2.2611 9.382 1.5855 0 21721
2.2649 9.3979 1.3586 0 21719
2.273 9.3099 1.8056 0 21733
2.2771 4.0477 -0.98716 0 22985
2.2837 4.1714 0.55613 0 22926
2.319 -4.1459 0.89503 0 5714
2.3491 5.4362 -1.4032 0 22452
2.3502 3.3514 -1.4898 0 23612
2.3871 -5.1379 0.52856 1 5821
2.3907 -5.9412 1.0522 1 5938
2.3941 8.7937 1.4973 0 21818
2.4 -5.3703 0.82669 0 5843
2.4274 6.5376 0.65062 0 22183
2.4367 8.8584 1.0744 0 21827
2.4478 2.5489 0.41326 0 24823
2.4575 6.3294 0.79401 0 22255
2.4621 4.5592 0.48341 0 22899
2.4625 3.0947 -0.091822 1 24073
2.4647 8.5615 1.6786 0 21884
2.4686 6.3024 0.31565 0 22267
2.4928 5.0283 0.39245 0 22722
2.499 3.479 0.29953 0 23699
2.5012 4.5048 0.11963 0 22952
2.503 2.8946 0.72098 0 24406
2.506 7.1281 -0.35236 0 22099
2.5073 3.0578 0.27651 0 24197
2.5083 7.0637 -0.34956 0 22112
2.5225 -5.3509 0.69179 0 5817
2.5258 -4.9422 0.64905 0 5786
2.5374 -5.1476 1.0813 0 5803
2.54 3.309 0.19453 0 23934
2.5837 3.6196 -0.20739 2 23675
2.6194 -9.0811 1.5528 0 6306
2.6289 5.6275 0.28966 0 22597
2.6464 5.1472 0.2699 0 22796
2.658 4.3889 0.60003 0 23175
2.6657 6.1191 -1.2576 0 22472
2.6774 3.7273 0.86466 0 23707
2.6918 -9.4432 0.9161 0 6316
2.7187 7.9452 1.3796 0 22072
2.7282 -3.3037 0.70393 0 5279
2.7348 -4.7234 1.0283 0 5699
2.7443 4.2764 -1.457 0 23329
2.7445 6.0111 0 0 22552
2.75 -3.3112 0.70717 0 5269
2.7605 -7.9809 1.3874 0 6089
2.7732 3.1879 -1.4277 0 24416
2.7785 7.2877 -1.2814 0 22212
2.7913 7.6484 -0.18903 0 22151
2.7926 -7.9969 1.3916 0 6078
2.811 6.7696 0.34183 0 22369
2.8169 1.6178 0.15149 2 27087
2.8178 8.0151 0 0 22101
2.8223 1.7643 0.15522 0 26801
2.8286 -1.21 0.21513 0 3108
2.8396 -1.1381 0.071025 2 3009
2.8406 5.5653 0.14507 0 22780
2.8407 8.6348 1.7127 0 22027
2.8593 1.7992 0.15755 0 26775
2.8659 7.3167 0 0 22264
2.8769 5.3631 -1.2936 0 22886
2.8797 9.1055 1.7993 0 21986
2.8833 1.6667 0.15531 0 27065
2.8845 -0.95564 0.14171 0 2819
2.8976 -1.1707 0.072557 0 3021
2.8993 4.3771 0.61397 0 23433
2.9003 5.4847 0.14405 0 22855
2.9054 -1.2333 0.22071 0 3094
2.9067 1.9496 0 0 26521
2.9201 8.8762 -1.3132 0 22017
2.9489 3.8418 0.79569 2 23943
2.9537 1.4849 0.23117 0 27473
2.9558 -5.39 -0.57351 0 5723
2.9779 0.88493 0.14487 0 28757
2.9879 5.8972 0.7731 0 22766
2.9891 -6.5379 0.67068 1 5830
2.9912 0.30226 0.42253 0 786
2.993 6.3548 -0.32757 0 22610
3.023 8.5985 -1.2809 0 22095
3.0231 4.1336 0.59887 0 23765
3.0277 -6.3706 1.1588 0 5816
3.0304 1.2683 0.076271 0 27967
3.039 1.1696 0.535 1 28183
3.0429 1.1815 0.53629 0 28162
3.0717 -2.794 0.6822 0 4796
3.0776 -5.1079 0.8381 0 5668
3.0833 6.0854 -1.2853 0 22768
3.0915 -7.8846 1.5956 0 5962
3.1042 4.8056 0.66903 0 23352
3.1071 1.2064 -0.077385 0 28152
3.1224 -4.5042 -0.38324 0 5535
3.1288 8.5729 0 0 22152
3.129 5.833 0.61755 0 22885
3.1526 3.914 0.35143 0 24125
3.1625 6.196 0.32441 0 22781
3.163 4.9573 0.13653 0 23309
3.1659 7.75 0.78104 1 22342
3.2017 9.1786 1.8315 0 22094
3.2224 5.2175 0.14238 0 23227
3.2282 5.0594 0.98602 0 23314
3.2591 1.6742 0.51494 0 27416
3.2821 0.28426 0.15363 0 879
3.2971 3.9983 0.24167 0 24221
3.3073 7.5919 1.3605 0 22471
3.3111 1.1869 0.24596 0 28356
3.3191 1.2002 0.2468 0 28331
3.3355 -0.92564 -0.24205 1 2682
3.347 -8.4665 0.42456 0 5951
3.3555 0.16293 0.31342 0 1125
3.3599 0.15433 0.31379 0 1142
3.42 6.6092 0.69427 0 22812
3.4573 8.9043 1.7997 0 22257
3.4684 1.3467 0.4351 0 28159
3.5113 4.9482 0.28295 0 23658
3.5185 0.23247 0.16444 0 1016
3.5326 -1.8649 0.37268 0 3554
3.5448 -0.895 0.51383 0 2610
3.5521 4.8836 -1.4309 1 23747
3.5572 2.9323 0 2 25726
3.5578 5.4039 0.75661 0 23410
3.5676 4.4292 0.5306 1 24127
3.5733 1.4234 0.72469 1 28102
3.5818 -4.8036 -0.55902 1 5431
3.5975 0.24841 0.16817 0 999
3.6313 1.3375 0.18046 0 28286
3.6483 -0.85503 0.52663 0 2550
3.6594 5.0036 1.1679 0 23770
3.6602 0.67442 0.34723 2 239
3.6838 0.70006 0.34983 0 199
3.6868 2.443 0.41263 2 26578
3.6953 1.1566 0.63616 0 28655
3.7508 1.5952 0.57284 0 27929
3.7673 6.1429 0.1673 0 23207
3.7674 6.697 -0.1784 0 22982
3.8252 -0.035385 0.35689 0 1503
3.8254 4.1253 0 0 24666
3.83 7.7801 1.4247 0 22705
3.8419 5.3486 0.61439 1 23701
3.8423 -6.0569 0.66919 0 5624
3.8547 4.1062 0 0 24718
3.879 -7.2769 0.76933 0 5740
3.9127 4.6056 -0.42258 2 24325
3.9179 5.7284 0.16113 0 23534
3.9333 7.763 0.40583 0 22765
3.9488 8.6489 -0.44338 1 22551
3.9555 -6.9235 1.5023 0 5704
3.9984 1.8952 0.41281 0 27639
4.021 -5.3926 -0.31369 1 5433
4.0277 -6.9091 1.124 1 5695
4.0329 0.12604 0.093679 1 1228
4.0386 -8.0159 1.2615 0 5793
4.0428 6.9019 1.3141 0 23083
4.0636 -5.6488 0.81375 0 5491
4.0865 0.13914 0.094932 0 1209
4.0973 -2.3962 0.89428 0 3808
4.107 6.964 0.75428 0 23100
4.1257 -8.0139 0.20927 0 5779
4.1979 -6.6174 0.91643 0 5626
4.2354 -1.2957 0.20655 0 2752
4.3097 -7.299 1.3926 0 5687
4.3536 8.9105 0.46248 0 22687
4.4132 -6.3663 0.7227 0 5538
4.4751 0.76976 -0.10542 0 311
4.4763 1.2599 0.87614 0 28875
4.5902 1.1768 0.8928 2 29076
4.6081 3.4939 0.53952 0 26033
4.6133 3.4789 0 0 26053
4.6267 3.489 0.54063 2 26058
4.63 2.5855 0.49474 0 27170
4.6734 2.6291 0.25006 0 27149
4.6997 2.8811 0.12798 0 26870
4.6998 2.7167 1.0228 0 27073
4.7713 -4.1667 1.1935 1 4730
4.7723 4.3212 0 1 25387
4.7804 -1.5542 0.1167 0 2801
4.7991 -1.5741 0.11726 0 2810
4.804 1.0413 0.92613 0 29412
4.8045 3.8231 1.1568 0 25857
4.8291 3.8179 0 0 25869
4.8365 -3.96 0.58318 0 4629
4.8417 4.6739 0.47058 0 25133
4.8603 2.6598 0.38743 0 27226
4.8962 8.3022 1.816 0 23105
4.8973 -8.6348 0.92613 0 5705
4.9016 8.5934 0.92297 0 23014
4.9089 5.3872 1.1974 0 24609
4.934 2.7203 0.39398 0 27206
4.9444 4.8301 0.97143 1 25091
4.9473 4.8044 0.9692 2 25115
4.9662 3.7655 0.1447 0 26029
5.032 -8.4079 1.6099 0 5674
5.0459 3.8259 -0.14702 0 26026
5.0507 6.5372 -0.38524 0 23952
5.0706 -0.61002 0.59725 0 2097
5.0855 3.2423 0.99088 0 26736
5.0974 7.7424 0.86482 1 23408
5.1055 3.2764 0.85257 0 26709
5.1084 -1.8603 0.76406 0 2904
5.1137 -0.60073 0.60213 0 2085
5.1195 -7.8623 1.5414 2 5604
5.1376 -7.4585 0.84495 0 5545
5.1643 -2.3166 0.92992 0 3203
5.165 6.1511 0 0 24287
5.1902 6.7178 0.59363 0 23959
5.191 -2.0448 0.91663 0 2989
5.2157 -1.9324 1.048 0 2922
5.2319 3.3139 0.57779 0 26754
5.2351 4.0185 1.0843 1 25991
5.2507 5.4335 0 0 24838
5.3148 4.4597 0 0 25668
5.3167 -3.8359 0.45844 0 4352
5.3235 -8.2321 -0.91461 0 5607
5.3478 2.6314 0.55605 0 27535
5.3865 4.7656 0 0 25477
5.4002 4.5571 0.16405 0 25648
5.4084 -1.4846 -0.13021 0 2673
5.4092 0.40577 0.50608 0 960
5.4178 -3.2747 0.44267 0 3884
5.4254 -1.5056 -0.13072 0 2684
5.4615 5.3037 0.71025 0 25111
5.4803 -2.4011 0.69969 0 3153
5.4888 1.7887 0.53859 0 28570
5.5114 4.6773 0.6744 1 25633
5.515 2.3274 0 0 27945
5.5436 -4.378 0.82606 0 4565
5.5581 -7.3172 1.5097 1 5406
5.609 4.5162 1.0121 2 25817
5.6283 5.066 1.2441 0 25423
5.6389 2.5936 1.0197 0 27728
5.6609 7.783 0 0 23739
5.6825 1.1799 0.27065 0 29470
5.6871 2.3591 0.43054 0 27992
5.6905 -1.5974 0.13722 0 2692
5.6956 0.41127 -0.13258 0 975
5.7048 -0.13643 0.13249 0 1590
5.7375 0.57976 0.94743 0 788
5.7492 4.9678 1.2483 0 25571
5.751 -8.0477 1.6251 0 5502
5.7662 -0.22252 -0.13397 0 1689
5.7936 5.4673 0 0 25220
5.8005 3.9391 0.65415 0 26475
5.8223 3.0555 0.92411 0 27357
5.8513 5.0276 0.71973 0 25588
5.8796 -2.4752 -0.89655 0 3074
5.8983 1.2279 -0.84673 0 67
5.9026 2.884 0.6129 0 27557
5.916 -0.26244 0.83226 0 1727
5.9446 6.6767 0.20755 0 24504
5.9474 0.79566 -0.13931 0 563
5.9503 -0.038426 0.13815 0 1481
5.959 -7.7997 1.3795 0 5394
5.9658 4.7471 0.89157 0 25853
6.0354 -2.8775 -0.9397 1 3307
6.0405 -2.5021 0.1518 0 3054
6.089 0.77678 0.14251 0 607
6.0921 3.2652 0.64486 0 27291
6.0945 -4.5328 1.0675 0 4434
6.1151 -7.7236 0.22872 0 5339
6.1225 3.3049 1.3109 0 27272
6.1553 -6.0025 1.2083 0 4876
6.1659 4.058 1.0374 0 26609
6.1753 2.4799 0.77821 0 28075
6.1907 -3.5699 1.1741 0 3772
6.1989 4.3972 1.2487 0 26302
6.2199 2.2491 0 0 28327
6.232 6.9995 0.43705 0 24506
6.2334 -4.3339 0.17626 0 4243
6.2818 -3.8979 1.2146 1 3949
6.2935 3.5404 1.3605 0 27156
6.3073 3.4991 0.84349 0 27189
6.3242 -5.6228 -0.9896 0 4751
6.3561 4.2631 1.2574 0 26531
6.3704 2.2197 0.7889 0 28423
6.4335 0.18308 0.75266 0 1253
6.4813 0.29772 0.4537 0 1140
6.4879 3.2404 0.3382 0 27492
6.4922 0.03286 -0.15073 0 1402
6.5035 5.0519 1.1574 1 25942
6.5193 0.56463 0.91966 0 884
6.5305 -0.34682 0.9191 0 1775
6.5352 5.7131 0.80983 1 25529
6.557 4.9142 1.3462 2 26086
6.562 -6.983 0.89399 1 5039
6.5789 -3.2315 1.2042 2 3392
6.5866 0.80173 0.61903 0 650
6.5886 4.6151 1.3216 0 26353
6.5916 1.7526 0.31807 0 28988
6.6051 -1.9578 0.48174 0 2728
6.6103 -1.3269 0.15653 1 2437
6.6329 5.3712 0.79627 0 25794
6.6345 -3.4038 1.048 2 3490
6.6658 -3.4199 0.34938 0 3485
6.7167 2.6756 0.16786 1 28094
6.7449 4.9023 1.3699 0 26204
6.7906 2.842 1.2094 0 27974
6.8636 3.5259 1.4538 0 27419
6.885 4.8227 1.5838 1 26355
6.9203 -4.1302 0.94245 0 3855
6.9599 0.25643 1.1442 2 1199
6.9767 5.6174 0.83566 0 25814
7.0087 -2.2786 0.86184 0 2803
7.0466 5.3428 1.2428 0 26037
7.0962 2.9699 1.4494 0 27976
7.108 1.1602 0.16721 0 373
7.1088 -5.1289 -0.81782 1 4344
7.127 5.8043 0.2134 0 25770
7.214 3.5248 1.1284 2 27560
7.2329 0.016412 -1.0165 1 1414
7.2501 4.2451 1.1807 0 27027
7.2751 4.7879 1.4309 0 26611
7.2878 -0.70687 -0.17 0 1986
7.294 6.0858 0.22055 0 25688
7.2955 3.9925 1.3664 0 27231
7.3018 3.6183 0.38003 0 27511
7.4407 -2.1815 0.18002 0 2722
7.4565 0.97505 0.17459 0 586
7.4682 6.3785 0.91629 0 25609
7.514 3.117 1.5327 0 27998
7.5573 -4.3316 1.0186 0 3752
7.5669 -2.338 0.18388 0 2759
7.6029 3.7675 0.79163 0 27514
7.6747 4.7678 1.7023 0 26836
7.7378 3.6411 1.0001 0 27660
7.7825 -3.0124 1.5723 0 2971
7.7997 -4.4977 1.6964 0 3774
7.8219 1.6056 -1.3119 0 87
7.8304 3.7972 1.2231 0 27582
7.8375 3.3074 0.3967 0 27948
7.8503 3.1781 -0.79014 0 28045
7.8747 -3.1816 0.79237 0 3024
7.907 3.6653 1.4318 1 27706
7.9194 3.5061 0.60563 0 27824
7.9408 5.8438 0.2289 0 26147
7.9724 -1.2427 1.134 0 2255
7.9933 -0.30847 -0.74629 0 1684
8.0026 4.9715 0.87894 0 26828
8.038 1.6997 0.19075 0 57
8.0447 0.064591 -1.1306 0 1375
8.1195 1.1585 1.5453 0 515
8.145 -2.6716 0 0 2809
8.1937 1.7327 0.97938 0 62
8.2014 -2.6664 0 0 2800
8.2115 2.781 0.20128 0 28480
8.2296 2.6011 0.60353 0 28630
8.2558 4.898 0.22287 0 26980
8.2594 -3.0078 0 0 2901
8.2838 1.4249 0.58777 0 316
8.3267 0.21223 1.5693 0 1277
8.3669 3.7322 0.2127 0 27803
8.3863 3.1422 0.20792 0 28241
8.4987 0.9608 -0.79794 1 697
8.5287 2.9717 0.20969 0 28418
8.5416 1.7782 0.61009 0 81
8.6601 3.834 0.88359 0 27826
8.6957 4.2788 0.22501 0 27531
8.7068 -1.3308 1.4471 1 2243
8.7184 -2.9188 0 0 2827
8.7273 0.80807 -0.61288 0 836
8.7341 -1.3084 1.451 0 2229
8.764 -1.4965 1.4607 2 2324
8.7957 1.987 1.699 0 29338
8.8123 -1.0602 1.6723 2 2101
8.8219 -0.93033 1.2467 2 2032
8.8701 -1.729 1.7027 1 2421
8.8759 -1.6226 1.4824 2 2373
8.8922 -4.3678 0.92427 0 3389
8.9076 -1.3106 1.2654 1 2214
8.9181 -1.125 1.0512 0 2125
8.9218 -1.8444 1.2804 2 2459
8.929 -2.8445 1.7656 0 2789
8.9331 4.3319 0 0 27575
8.9428 -2.233 1.2954 0 2599
8.9444 3.2061 0.4431 0 28354
8.9599 -1.4769 1.2762 1 2294
8.9864 -3.4784 0.89901 0 2968
9.0223 -2.2244 1.7508 2 2591
9.0229 -1.2167 1.2796 0 2166
9.0397 -3.9006 0.45913 0 3121
9.0633 0.70534 -1.2776 2 927
9.085 -2.2938 1.0958 2 2609
9.1271 4.0713 1.642 0 27810
9.1355 -0.11321 1.284 2 1525
9.163 3.3134 0.90904 0 28333
9.2306 -2.0751 1.3297 0 2520
9.2406 -2.3074 1.5648 2 2601
9.2686 -2.2269 1.3397 2 2568
9.284 -2.2049 1.3411 2 2560
9.3548 -2.1924 0.89641 2 2549
9.3705 -1.5446 1.7893 1 2295
9.3725 2.9947 -1.3828 2 28596
9.4037 -2.0589 0.67315 1 2497
9.4039 -1.7735 1.803 0 2397
9.4316 -1.5546 1.1178 2 2293
9.4591 -1.7548 0.67273 1 2382
9.465 -0.036343 1.5551 0 1469
9.4685 0.12891 1.7841 0 1354
9.4743 -2.1908 0.67999 0 2539
9.5182 -2.2307 0.68361 0 2548
9.5395 -0.20149 0.44496 0 1570
9.5752 -1.922 0.68292 0 2439
9.5898 -2.0436 1.1466 1 2478
9.5998 -0.22958 0.67148 0 1591
9.6078 -2.0738 1.1494 2 2489
9.6166 -1.8136 0.68431 0 2393
9.6802 -2.2082 1.6313 2 2531
9.737 -1.9846 1.8723 2 2452
9.8219 -0.14915 1.1487 2 1539
9.8322 -0.12185 1.1499 2 1523
9.8336 1.403 -0.46323 0 503
9.9083 -0.20928 1.159 0 1575
9.9556 0.10947 1.3992 2 1370
9.9557 -0.092096 1.1643 2 1505
-13.53 1.9329 2.5751 0 11047
-12.794 2.8318 0 0 11234
-12.786 -0.15398 2.1008 0 10598
-12.199 -8.3313 2.0762 0 10059
-12.171 2.2866 1.1554 0 11148
-11.8 5.4923 -1.522 2 12193
-11.703 5.3261 1.1996 0 12150
-11.609 2.708 0.55593 1 11268
-11.284 -0.46309 0.52667 1 10518
-11.193 2.2711 1.8764 0 11187
-11.103 6.8786 2.1458 0 13057
-10.976 10.153 2.4565 0 14542
-10.817 1.4183 1.7924 0 11017
-10.806 2.9217 1.8391 0 11375
-10.549 0.70433 0 0 10828
-10.512 7.7161 0.6081 1 13652
-10.505 8.2398 1.8763 0 13905
-10.386 -1.5855 0 0 10228
-10.221 0.11595 -0.23731 0 10664
-10.159 3.5239 -0.24966 0 11660
-10.024 -0.93692 0.23373 0 10367
-9.9452 6.326 2.2207 0 13146
-9.9026 -1.6003 0.46779 1 10212
-9.6838 7.7777 0.57922 1 13988
-9.5274 7.0783 0.82996 0 13695
-9.381 7.6292 1.414 0 14036
-8.6673 -7.1423 -0.26075 0 9813
-8.0984 8.519 0 0 15065
-7.9611 9.8101 -1.4774 2 15735
-7.9433 6.8928 1.9815 0 14283
-7.9331 -10.088 1.8037 0 9088
-7.869 7.9435 2.1067 0 14902
-7.4206 8.0332 0.51 1 15193
-6.9676 -12.137 1.9668 0 8629
-6.9052 7.7884 0.4854 1 15362
-6.8252 10.55 1.1723 0 16730
-6.5317 12 0.3172 1 17364
-6.5026 -7.654 1.4115 1 9220
-6.4353 11.657 2.5088 0 17324
-6.4159 11.866 1.8958 0 17392
-6.2356 8.7776 0.24998 0 16345
-6.0739 10.428 2.2737 0 17143
-5.455 13.919 1.7483 0 18356
-5.3616 10.877 2.2848 0 17695
-5.2418 11.647 1.7951 0 17961
-4.9111 -10.513 0.54111 2 8416
-4.1323 9.5492 1.9604 0 18078
-3.8317 12.471 0 0 18980
-3.7445 12.855 0.93627 1 19119
-3.7433 10.432 -0.25731 0 18577
-3.5498 10.08 0.24812 0 18631
-3.4587 -11.285 0.27403 0 8090
-3.3908 -10.012 0.49295 1 8162
-3.1799 -10.586 -0.25662 0 8072
-3.0045 9.5875 1.893 2 18945
-2.7812 9.8613 0 0 19189
-2.7697 10.656 -0.51344 0 19336
-2.7584 1.1789 0.49285 0 12031
-2.6824 9.9485 1.2049 0 19282
-2.6585 -10.126 1.7201 0 7971
-2.3574 -12.464 1.7828 0 7695
-2.2889 -0.39742 0.3265 1 10188
-2.2239 2.1694 -1.8425 2 14736
-1.9032 11.276 0.53329 1 20017
-1.6225 13.709 1.9401 0 20343
-1.5991 12.017 0.56534 1 20259
-1.5726 12.092 2.2974 0 20284
-1.5697 12.952 2.1436 0 20330
-1.1849 -10.042 -0.23475 0 7400
-1.1426 0.35587 0.055807 1 11509
-0.58235 13.723 1.9303 0 20735
-0.51835 10.197 1.9237 0 20692
-0.49852 11.747 1.375 0 20734
-0.46 -10.289 0.72017 0 7105
-0.40167 12.998 0 0 20790
-0.33259 12.058 1.9818 0 20813
-0.24838 -11.568 1.3532 0 7023
-0.1872 -10.117 1.1833 0 7013
-0.075264 -11.348 2.1381 0 6977
-0.043869 -10.929 1.5359 0 6968
0.016072 10.232 0 0 20934
0.25879 10.514 1.7279 0 21030
0.40132 -10.169 -0.47459 0 6859
0.54052 -11.172 0.78211 0 6846
0.54629 12.98 -1.5193 0 21086
0.60243 1.6347 -0.63411 1 22168
0.75706 2.6612 -0.38885 0 21858
0.77876 10.945 1.0237 0 21200
0.811 10.939 -1.2828 0 21203
0.85324 11.509 1.6219 0 21209
0.91224 11.002 1.5515 0 21232
0.93285 1.3814 -0.93657 1 23482
0.9488 11.896 -1.1134 0 21220
0.96475 14.152 2.6725 0 21193
1.277 -10.252 1.2082 0 6694
1.2784 12.718 -1.7964 0 21292
1.3407 12.262 2.0265 0 21330
