VERSION .7
FIELDS x y z intensity index
SIZE 8 8 8 8 8
TYPE F F F F F
COUNT 1 1 1 1 1
WIDTH 1537
HEIGHT 1
VIEWPOINT 0 0 0 1 0 0 0
POINTS 1537
DATA ascii
-9.1356 2.4752 1.3302 0 12585
-9.1243 1.8298 0 0 12443
-9.0915 3.9211 0.92372 0 12820
-9.0834 0.61128 1.4957 0 12243
-9.0415 -0.54983 -0.42242 0 12077
-9.0385 4.2455 1.1678 0 12881
-9.0176 0.5784 -0.42139 0 12240
-8.9407 1.1009 0.42009 0 12311
-8.9006 -0.64581 0 0 12055
-8.8942 -0.10091 1.4614 0 12159
-8.8242 2.2558 0 0 12555
-8.821 4.2036 -0.22686 0 12892
-8.7337 1.6471 1.6745 0 12417
-8.714 -0.73326 1.4367 0 12037
-8.7124 -1.4017 0.61707 0 11961
-8.6666 2.2429 -0.62599 0 12561
-8.624 0.50179 0.40285 0 12233
-8.5428 0.20132 0.59753 0 12192
-8.5275 2.2594 1.4494 0 12575
-8.5068 2.3863 1.2417 0 12602
-8.3418 1.0997 1.5853 0 12322
-8.3218 1.3941 -0.1959 0 12376
-8.2977 4.919 -0.89994 0 13111
-8.2965 1.1911 -0.78196 0 12339
-8.2939 0.24181 0.97032 0 12200
-8.2213 3.0184 1.6501 0 12711
-8.2132 5.4672 1.8589 0 13278
-8.1013 5.257 0.45037 0 13231
-8.0839 5.2157 1.125 0 13222
-8.0366 2.7672 -0.19734 1 12685
-8.0255 -1.1493 1.5275 0 11971
-8.0221 5.8241 0.23016 0 13449
-8.0002 1.5797 1.3398 0 12435
-7.9973 2.1908 0 0 12590
-7.9929 -0.69648 0.74852 0 12033
-7.9548 0.69735 0.74499 0 12266
-7.9378 4.429 0.63562 0 13046
-7.9192 1.4935 1.1326 0 12416
-7.9017 1.157 0 0 12345
-7.8861 4.8953 -0.43285 0 13170
-7.8809 5.38 1.3411 0 13330
-7.8784 -0.3426 -0.18309 0 12108
-7.8694 4.3585 1.6949 0 13041
-7.8636 -1.1262 0.92897 0 11970
-7.8481 -0.27132 -0.54912 0 12121
-7.848 3.0378 0.58847 0 12740
-7.8298 -0.61484 0.18234 0 12047
-7.821 1.0561 0 0 12327
-7.7957 3.7736 1.0128 0 12903
-7.7785 -0.45123 1.2801 0 12084
-7.7711 2.2049 0.18754 0 12608
-7.721 6.2858 -1.1643 0 13698
-7.7067 -0.24489 1.2668 0 12127
-7.6857 3.7453 0.1985 0 12907
-7.6465 -5.1829 -0.21447 0 11904
-7.6281 0.53475 -1.0747 0 12244
-7.5931 2.6382 -0.5621 0 12689
-7.5505 -0.68051 0.70728 1 12029
-7.5303 -5.9066 0.89288 1 11850
-7.5217 -6.2291 1.84 0 11822
-7.5112 1.3935 -0.5342 1 12408
-7.4757 1.4545 1.2512 1 12428
-7.4245 2.3895 0.36372 0 12654
-7.4236 3.3052 -1.1421 0 12836
-7.3971 3.7139 1.3599 0 12925
-7.3195 5.3826 -0.21094 0 13473
-7.315 5.4089 -0.21122 0 13485
-7.3113 3.179 0.55749 0 12826
-7.2894 3.3728 -0.18648 0 12867
-7.2863 2.9913 1.294 0 12782
-7.2823 2.2961 0.35608 0 12644
-7.277 -0.12448 -0.16897 0 12148
-7.2742 6.819 1.8786 0 14069
-7.2539 3.8537 0.96057 0 12988
-7.2172 4.628 -1.0026 0 13208
-7.18 0.66986 1.0135 1 12274
-7.176 -0.41628 -0.16689 0 12082
-7.1715 5.8032 1.2965 0 13695
-7.1624 1.1139 0.67625 0 12357
-7.1415 3.5063 0.18471 0 12913
-7.1269 5.0798 1.23 0 13415
-7.1109 -6.278 0.44236 0 11786
-7.103 4.8182 1.6171 0 13318
-7.0712 2.9536 -0.53587 0 12791
-7.0538 -6.7573 1.8404 0 11750
-7.0411 0.78231 -0.99564 0 12294
-7.0169 3.0263 0.35636 0 12819
-7.0026 1.3206 0 0 12414
-6.9996 6.5226 0.44618 0 14050
-6.9833 4.276 0.76394 0 13156
-6.983 6.1024 1.5236 0 13882
-6.96 5.0234 1.0038 0 13440
-6.9176 -0.10022 1.3035 0 12155
-6.9064 3.2176 1.0708 0 12874
-6.9049 -4.7687 0.78289 0 11897
-6.902 1.2182 1.3205 1 12393
-6.898 -5.6762 0.83343 0 11825
-6.8729 6.5955 -0.44422 1 14129
-6.8691 -6.4686 0.21906 0 11756
-6.8279 -5.7517 -0.20727 0 11813
-6.8261 2.8261 -0.34453 0 12785
-6.8093 -0.098648 0 0 12152
-6.7945 3.0479 -1.0466 0 12842
-6.7878 4.4893 1.1437 0 13264
-6.7814 -5.5802 1.027 0 11826
-6.78 -5.7804 0.20685 0 11807
-6.779 7.1787 1.6222 0 14386
-6.7718 5.2244 0.79794 0 13580
-6.7513 -0.097807 0.78959 0 12154
-6.7491 2.4565 -0.33493 0 12706
-6.6638 -1.034 1.1079 1 11964
-6.6634 -6.023 0.62809 0 11776
-6.6218 -0.90943 0 0 11977
-6.5924 1.7061 0.79633 0 12562
-6.5671 7.3734 0.69045 0 14542
-6.5601 -0.97925 0.77565 0 11966
-6.5552 -5.7874 1.0226 0 11787
-6.5431 -7.1706 1.8289 1 11678
-6.5325 -4.5368 -0.3709 0 11894
-6.5166 -4.3872 1.4801 0 11909
-6.5132 2.8537 1.3398 0 12830
-6.4873 2.4902 1.1417 0 12735
-6.4848 4.3988 -0.18193 0 13312
-6.4805 -4.6997 0.37332 0 11878
-6.4646 1.0251 -0.76543 1 12360
-6.4539 7.4165 -1.3817 0 14602
-6.4483 2.7159 0.48927 0 12798
-6.4167 2.7674 0 0 12817
-6.4118 7.5445 0.92372 0 14690
-6.364 5.3381 1.1674 0 13773
-6.3443 1.563 0.4569 0 12536
-6.3247 -5.3278 0.96707 0 11814
-6.299 6.0447 -1.227 0 14123
-6.2683 2.2815 1.0959 0 12707
-6.2665 4.4123 0 0 13389
-6.261 4.1174 -1.2311 0 13243
-6.2312 1.5536 0 0 12543
-6.2258 -0.91046 0 0 11967
-6.2201 2.5536 -0.94499 0 12778
-6.2145 1.919 0.91409 1 12637
-6.2038 0.20038 0.87234 1 12203
-6.1913 5.1932 0.945 0 13772
-6.1889 3.9686 0.17069 0 13212
-6.1861 0.96208 0.87985 0 12358
-6.185 7.5377 1.8371 1 14808
-6.1753 0.46866 1.1668 0 12252
-6.1529 2.632 -0.15537 0 12808
-6.15 1.2144 0.58485 0 12434
-6.1414 2.6487 -0.15528 0 12816
-6.1374 0.88113 -0.14395 0 12340
-6.1277 1.1922 0.87735 0 12427
-6.0878 0.92939 -0.14298 0 12354
-6.0825 -0.42213 0.42635 0 12064
-6.0808 -0.088093 0.2836 0 12153
-6.0774 3.4848 0.65359 0 13080
-6.0659 -4.1612 -0.34304 0 11899
-6.0265 7.8002 1.3853 0 14976
-6.0239 -0.66718 0.99574 0 12010
-6.0053 -7.4001 1.5658 0 11576
-5.9965 -0.64508 0.99088 1 12014
-5.9839 2.0406 -0.14679 0 12681
-5.9831 4.6159 1.2415 0 13582
-5.9826 0.87596 -0.14038 0 12344
-5.9525 2.3244 0.59618 0 12747
-5.9509 2.9878 1.2546 0 12927
-5.9445 -0.88735 -0.13954 0 11965
-5.8983 -5.5875 0.758 0 11753
-5.8405 2.3195 0.88319 0 12757
-5.8349 -4.7166 0.8774 0 11835
-5.8341 -5.0323 0.7188 0 11800
-5.817 4.3548 0.67793 0 13515
-5.7978 2.7853 0.75219 0 12897
-5.7661 3.8136 0.48341 0 13262
-5.7645 3.0213 -0.1511 0 12967
-5.7578 6.3545 0.59963 0 14491
-5.72 1.8035 0.98537 0 12646
-5.6955 3.0693 0.75661 0 13003
-5.6702 2.8866 0.74406 0 12936
-5.6667 5.1581 0.7149 0 13986
-5.6654 4.5845 0 0 13692
-5.6647 -6.8572 -0.41478 1 11591
-5.6208 4.0568 0.64671 0 13438
-5.5861 5.5803 0.18332 0 14234
-5.5504 2.0752 0.69296 0 12723
-5.5491 -6.4834 1.6079 0 11625
-5.5186 -3.7153 0.77798 0 11908
-5.5177 8.2237 0.46183 0 15377
-5.5094 3.222 -1.0486 0 13095
-5.4952 -7.1048 1.6923 0 11541
-5.4679 5.9609 0.75465 0 14460
-5.4151 4.0762 0.79261 0 13528
-5.3993 -4.8804 -0.33941 1 11774
-5.3758 5.1895 -0.17348 0 14149
-5.3714 2.5025 -0.83281 0 12868
-5.3574 2.9893 -1.304 0 13049
-5.3504 6.804 1.6308 0 14925
-5.3359 8.1571 1.6014 0 15437
-5.3306 -4.2326 0.31742 0 11844
-5.3267 1.4943 -0.64696 0 12598
-5.3203 -5.8964 -0.18439 2 11666
-5.3073 -3.7564 0.91381 1 11889
-5.3062 2.1622 0.2672 0 12775
-5.2832 2.9672 -1.1416 0 13059
-5.2699 3.6873 1.0567 0 13380
-5.2575 3.7946 -0.75823 0 13431
-5.2158 -4.9117 0.50099 0 11757
-5.2101 -4.1875 0.93942 0 11838
-5.2019 2.842 0.69319 0 13019
-5.1962 2.4208 -0.13309 0 12872
-5.1608 -7.1767 0.20523 1 11493
-5.1596 7.0085 1.6397 0 15121
-5.1576 0.8178 0.85794 1 12363
-5.1569 -6.6267 0.98194 0 11546
-5.1512 7.9261 0.88192 0 15449
-5.1497 6.0594 1.4983 0 14693
-5.1127 0.88679 0.72927 0 12386
-5.087 5.0252 0.50001 0 14205
-5.0824 -0.043467 0.118 2 12163
-5.0559 -5.0754 1.177 0 11739
-5.0293 5.2025 0 0 14320
-5.0152 7.0233 1.626 2 15207
-4.9773 1.745 -0.24596 0 12692
-4.9691 3.4768 -0.70922 0 13370
-4.9568 -5.3999 1.0302 0 11681
-4.9523 1.9668 0.87545 0 12759
-4.9431 3.9052 -1.4926 1 13633
-4.9229 3.7299 0.1434 0 13539
-4.9126 0.24456 0.45889 1 12224
-4.9112 0.60476 0.57866 0 12312
-4.902 0.67498 0.57866 0 12332
-4.882 -0.64186 0.80898 2 11984
-4.8724 -3.4691 0.69946 0 11887
-4.8585 3.5273 0.56014 0 13452
-4.8487 0.22781 0 0 12220
-4.8446 -3.2837 0.54602 0 11905
-4.8441 -0.16747 0.79634 0 12122
-4.8368 -5.4574 0.68034 0 11652
-4.8114 2.0097 0.98242 0 12794
-4.7752 4.5015 -1.2364 0 14085
-4.7641 3.0141 0.52595 0 13196
-4.7487 0.042269 0.22146 0 12179
-4.7432 1.361 0.23012 0 12612
-4.7408 -6.2007 1.2824 0 11531
-4.7391 0.56846 0.67081 1 12307
-4.7073 6.8441 1.3647 0 15308
-4.6937 -5.0228 0.32059 0 11695
-4.6793 0.96564 0.90021 0 12455
-4.6668 2.1921 0 1 12880
-4.6589 2.3903 -0.61235 2 12940
-4.6524 -5.5999 1.1961 0 11598
-4.6388 2.1789 -0.59934 2 12877
-4.6307 -5.1321 0.32236 0 11667
-4.6246 3.5473 -0.13532 0 13562
-4.6003 6.6885 0.18847 0 15305
-4.5987 0.90807 0.88318 0 12436
-4.5865 -5.6176 0.3382 0 11582
-4.5786 1.9908 -0.11591 1 12825
-4.5765 5.5774 0.67309 0 14806
-4.5745 3.0832 0.12808 0 13299
-4.5712 3.0233 -0.12724 0 13259
-4.5627 0.88772 0.87577 0 12429
-4.5594 -0.46474 -0.21372 0 12020
-4.5458 7.5535 -1.4484 0 15617
-4.542 4.3057 0.87957 1 14102
-4.5419 -6.1605 0.89506 0 11506
-4.5271 -6.1047 1.2487 0 11511
-4.52 -7.1224 1.5893 0 11410
-4.5056 3.1725 0.6444 0 13392
-4.4949 0.52564 0.63602 1 12304
-4.474 -0.46866 0.41969 0 12017
-4.4715 1.4391 0.88503 0 12656
-4.463 0.74765 0.52918 0 12377
-4.4513 1.5327 0.66163 2 12686
-4.436 7.8855 -0.21006 0 15818
-4.4256 0.06566 0.83393 1 12185
-4.4188 1.8457 0.22332 0 12792
-4.4133 8.061 0 0 15895
-4.4011 0.026885 -0.20525 1 12176
-4.3802 -0.16368 -0.30651 0 12116
-4.3675 2.5043 0.23478 0 13078
-4.3203 5.36 -0.96753 0 14846
-4.3104 -3.126 0.8748 2 11879
-4.3085 -0.29901 0.10027 0 12062
-4.3012 7.2932 1.5953 1 15691
-4.2937 2.511 0 0 13098
-4.2855 -0.75334 0.61153 0 11951
-4.2687 -4.8453 1.0609 1 11648
-4.2636 1.2629 0.41486 1 12622
-4.2437 -4.8732 0.60287 0 11640
-4.2192 -2.9862 0.9739 0 11890
-4.2101 6.8649 0.75131 0 15581
-4.1998 -3.6035 0.90917 0 11804
-4.1958 0.84145 -0.19956 0 12442
-4.1742 9.0754 -0.23192 0 16405
-4.1625 -6.5997 1.4701 0 11403
-4.1557 3.227 0.86443 1 13596
-4.1462 -4.9906 0.15064 0 11596
-4.1284 -6.7608 0.73905 0 11359
-4.1228 -7.2693 0.97729 0 11259
-4.1145 -0.64947 0.19425 0 11963
-4.099 3.2002 0.85438 2 13608
-4.0948 3.4347 -1.136 0 13774
-4.0839 0.91885 0 0 12490
-4.0821 -0.12971 0.76949 1 12128
-4.0609 0.90028 0.19397 2 12483
-4.0563 -4.0719 0.80776 0 11738
-4.0559 2.4525 -0.55427 1 13133
-4.0531 6.695 1.4746 0 15615
-4.0396 0.83362 0.67766 0 12454
-4.0311 -0.67313 -0.094886 0 11957
-4.0046 -4.9647 0.74592 0 11573
-4.0034 5.3729 0.78355 0 15083
-3.9964 1.6146 0.70814 1 12770
-3.9788 4.0701 1.0724 0 14295
-3.9649 5.2866 0.15342 0 15063
-3.9559 -0.56653 0.27944 0 11969
-3.9429 -2.8073 0.33846 0 11886
-3.9059 -8.1632 -0.2101 0 11038
-3.903 1.3683 0.28921 0 12693
-3.8938 -2.5743 0.87947 2 11914
-3.8747 -0.6352 0.27456 0 11959
-3.8478 2.8451 0.55961 1 13489
-3.8381 -0.48079 0.63551 0 11993
-3.8271 8.8567 1.8178 0 16586
-3.8212 3.6453 0.4927 0 14119
-3.8193 -7.9253 0.20425 0 11047
-3.8015 -3.8162 0.12506 1 11737
-3.7818 -3.8189 0.12478 2 11734
-3.773 -0.46125 0.62449 0 11996
-3.7727 -4.0841 0.25928 0 11685
-3.7664 0.38523 0 0 12285
-3.7514 7.2995 -0.38273 0 16080
-3.751 -4.182 0.65695 0 11661
-3.7503 -0.44852 -0.08769 0 11999
-3.7501 -3.9684 1.0287 0 11708
-3.731 0.52501 0.70987 0 12336
-3.7278 0.60111 0 0 12368
-3.7128 3.3796 -0.11656 0 13983
-3.7065 2.9823 0.44384 0 13680
-3.697 1.6841 -0.76542 0 12858
-3.6851 2.4838 0 0 13297
-3.6766 2.7354 0.75289 0 13503
-3.6737 -7.2412 -0.18852 0 11106
-3.6728 0.60341 0 2 12372
-3.6666 3.9072 0.88031 0 14401
-3.6604 0.38601 0.60471 0 12288
-3.6593 0.39559 0.60471 0 12293
-3.6466 -7.2885 -0.18921 0 11086
-3.6246 -3.8356 0.86702 1 11706
-3.6195 2.4258 0.2032 0 13285
-3.6183 -4.2545 0.78494 0 11616
-3.5991 7.8829 0.20119 0 16430
-3.599 0.9981 0.26117 0 12596
-3.5975 -7.9899 -0.40863 1 10981
-3.597 -4.0103 0.7571 0 11662
-3.5827 2.7303 0.42024 1 13553
-3.5649 0.80208 0.1704 1 12491
-3.5483 6.7585 0.53378 0 16026
-3.5472 -0.25738 0.33181 0 12056
-3.544 -5.4823 -0.45649 0 11425
-3.5423 0.99369 0.25726 0 12601
-3.5339 5.4375 -0.30242 0 15445
-3.5094 2.3361 -0.7943 0 13277
-3.4881 0.605 -0.16509 1 12385
-3.4715 2.385 -0.79356 2 13345
-3.4684 1.921 0.6514 0 13039
-3.4524 3.9215 0.73428 0 14579
-3.4438 3.3619 -0.67638 0 14170
-3.4343 0.010189 0.16015 0 12172
-3.433 -5.6597 1.2472 0 11354
-3.4199 -2.7982 0.72598 0 11830
-3.417 -4.0391 0.12283 0 11609
-3.4016 -3.7278 0.23534 0 11676
-3.4015 -0.24681 0.47931 0 12058
-3.3733 2.6497 0.29995 0 13620
-3.3675 -0.2538 -0.078406 0 12050
-3.3234 1.502 0.084673 0 12851
-3.3203 -5.2991 0.73128 1 11392
-3.3188 -4.6977 -0.26823 2 11487
-3.3154 2.1928 0.092286 0 13261
-3.3122 1.5784 0.25656 0 12893
-3.3087 2.1759 0 0 13248
-3.3009 -0.25921 -0.076874 0 12046
-3.2858 -4.003 0.97575 0 11588
-3.2828 2.7703 0.30037 0 13787
-3.2776 0.12534 0.53889 2 12210
-3.2684 4.9966 -1.2691 0 15436
-3.2609 2.6087 0 0 13659
-3.2541 2.2074 -0.83581 0 13316
-3.2499 -3.6669 0.68863 1 11653
-3.2466 -7.4418 1.3339 2 10953
-3.2378 3.8999 -1.0774 0 14769
-3.2309 -3.5594 0.44848 0 11671
-3.2259 1.5276 0.24959 0 12887
-3.2053 2.579 0 0 13676
-3.2011 0.43223 0.22587 0 12328
-3.2005 -2.8928 0.81282 1 11777
-3.1852 1.4509 -0.91626 1 12856
-3.1721 2.138 0.35689 0 13301
-3.1582 3.9676 -1.3275 0 14890
-3.1575 -2.4474 -0.09275 0 11857
-3.1567 -0.20137 0.073439 0 12072
-3.1467 3.2951 -0.96845 0 14356
-3.1459 1.7187 -0.50381 0 13013
-3.1436 -9.3573 -0.46034 0 10665
-3.1431 3.1235 0.30986 0 14222
-3.1413 -7.1459 -0.18123 0 10956
-3.1329 2.1387 -0.80628 0 13331
-3.1301 -2.4402 -0.092147 0 11853
-3.1205 -0.22642 0.36587 0 12057
-3.1142 -7.8775 1.1905 0 10838
-3.1127 1.7133 -0.49935 0 13023
-3.1119 -0.23453 0.36495 0 12051
-3.0816 1.5593 -0.90411 1 12930
-3.0688 3.9237 -1.4284 0 14942
-3.0534 -7.1104 1.2713 2 10935
-3.0467 3.1704 0.72241 0 14342
-3.0432 0.17707 0.57434 0 12234
-3.0309 -5.2369 0.70759 0 11288
-3.0292 1.5755 -0.97906 0 12959
-3.0229 7.2836 0 0 16694
-3.0154 5.7436 1.0658 2 16030
-2.9956 2.8081 0 0 14062
-2.9939 4.3238 0.36776 0 15287
-2.9932 3.1509 0 0 14365
-2.9907 -5.7304 -0.60305 0 11137
-2.9639 4.0011 -1.4278 0 15101
-2.9628 3.1026 0 0 14353
-2.9591 3.5428 -1.3236 0 14749
-2.9526 -4.0284 -0.23292 0 11502
-2.9477 3.4077 -1.406 1 14631
-2.9295 6.2708 -1.4712 0 16368
-2.9279 2.6335 -0.83705 1 13954
-2.9218 7.2207 -1.0947 1 16756
-2.9186 -1.9894 0.16472 0 11902
-2.8986 -2.1535 0.083837 0 11868
-2.8965 1.7048 -0.55218 0 13104
-2.8791 -2.6961 -0.27582 1 11759
-2.822 -2.0722 0.081284 1 11873
-2.8174 3.4755 -0.62878 0 14829
-2.8107 3.6816 -1.2126 1 15011
-2.8036 -6.2764 -0.1596 0 10973
-2.7988 2.6237 0.53916 0 14068
-2.7669 -3.0322 -0.095304 0 11675
-2.7505 -2.8762 -0.18559 0 11716
-2.7412 -6.3316 1.1335 0 10944
-2.7048 2.5355 -0.87843 0 14067
-2.6967 4.6352 0.1245 0 15721
-2.691 -2.7013 0.71839 0 11741
-2.6729 3.164 -0.28963 0 14701
-2.6668 -5.4921 -0.28472 0 11056
-2.6626 2.2588 -1.4584 1 13801
-2.6477 4.2587 0.70477 0 15551
-2.6246 -9.413 1.8412 0 10508
-2.6086 7.7782 -0.57368 1 17206
-2.6085 9.3741 -0.6804 0 17568
-2.6042 -3.7109 0.63713 0 11484
-2.5969 -6.4049 1.1355 2 10871
-2.5868 3.1158 0.66534 0 14770
-2.5746 -1.8905 0.298 2 11874
-2.5673 -2.3899 0.49295 0 11762
-2.5597 -1.8906 0.29688 1 11870
-2.5567 3.1719 0 0 14854
-2.5538 2.9347 -0.92178 0 14614
-2.5365 3.977 0.88873 0 15491
-2.5213 6.7868 -0.16809 0 16993
-2.5181 5.3903 -0.83615 0 16351
-2.5066 4.844 -1.1593 0 16067
-2.495 -2.8977 -0.17832 1 11628
-2.4946 -3.8325 0.31976 0 11435
-2.4814 -2.0418 0.60545 0 11827
-2.4379 -6.7939 -0.16758 0 10730
-2.4319 4.7319 0.2481 0 16083
-2.4259 2.1576 -0.84991 0 13923
-2.4252 3.4584 0 0 15254
-2.4244 2.3404 -1.2265 0 14150
-2.4216 6.9499 -1.0343 0 17124
-2.4178 4.0175 0.21866 1 15629
-2.4069 2.3098 -1.2142 0 14133
-2.4037 3.7198 0.10282 0 15461
-2.3967 -8.901 0 0 10473
-2.3781 -3.1285 -0.18326 0 11526
-2.3723 3.942 0.10682 0 15627
-2.3526 -3.1152 -0.18205 0 11523
-2.3452 3.9232 0.10612 0 15647
-2.3377 3.6177 0.20087 0 15463
-2.3324 3.4987 0.097625 0 15390
-2.3302 4.7356 -1.2506 0 16211
-2.3177 -8.4029 1.6423 1 10499
-2.3147 4.2 -0.90354 0 15884
-2.2954 4.1927 -0.90058 1 15904
-2.2741 -5.8508 -0.29273 0 10811
-2.2643 4.7771 -0.12274 0 16311
-2.2534 -5.7441 -0.14326 0 10820
-2.2487 -6.1549 0.30559 0 10750
-2.2348 3.5269 -1.093 0 15505
-2.2289 -8.9998 1.5233 0 10427
-2.2247 3.0767 -0.26549 1 15160
-2.1862 -2.6464 0.40142 0 11592
-2.1825 3.4443 0.19015 0 15503
-2.1412 9.2379 -0.8847 0 17868
-2.1154 4.672 0.11907 0 16450
-2.1147 -6.6063 0.32348 0 10625
-2.1085 8.2241 -0.99286 0 17705
-2.0952 3.0645 0.6099 0 15327
-2.0941 3.9319 0.10343 0 15984
-2.0809 6.0848 -0.90379 0 17162
-2.0415 6.7321 0.49192 0 17409
-2.0342 3.5418 -1.0692 0 15764
-1.9944 -6.2306 0.45746 0 10626
-1.9848 3.0916 0.51633 0 15478
-1.9732 2.6309 -1.3736 0 15059
-1.9719 4.714 -1.0861 0 16677
-1.9698 3.5492 -1.0626 0 15859
-1.9605 3.0941 0.60179 0 15508
-1.9494 2.5841 -1.3521 0 15041
-1.9235 -9.6698 0.45978 0 10311
-1.9037 2.946 0.49295 1 15464
-1.9024 -6.6039 0.96586 0 10531
-1.9 4.7311 0.96057 0 16803
-1.8745 8.3041 -0.79423 0 17904
-1.8629 -9.3654 1.1167 0 10312
-1.8623 8.2501 0.19636 0 17911
-1.8413 2.9059 0.48349 0 15507
-1.8166 -4.164 -0.21186 0 10946
-1.8121 -8.7119 0.41497 0 10336
-1.7996 6.1264 -0.89739 1 17462
-1.7963 6.2437 0.30298 0 17513
-1.7804 3.0394 -0.83462 0 15706
-1.7402 6.6192 0.1589 0 17672
-1.725 3.5056 -1.3202 0 16207
-1.6937 -8.9208 1.0618 0 10290
-1.6493 -7.3845 0.88484 0 10370
-1.6411 -7.0578 0.16823 0 10389
-1.6234 -3.7497 0.28572 2 10940
-1.6143 7.7883 0.18467 0 18038
-1.6057 6.4934 -0.62405 0 17768
-1.5839 6.7372 -0.80934 1 17845
-1.5751 -3.1716 0.49768 2 11083
-1.57 7.243 1.0416 0 17987
-1.5545 -4.9545 0.97834 1 10611
-1.5484 -8.2896 1.3855 1 10281
-1.5327 -9.4114 0.22138 0 10237
-1.5312 -6.1005 1.0334 0 10436
-1.5087 -7.0556 1.014 0 10346
-1.4869 7.7358 -1.4842 0 18145
-1.4622 6.6559 -1.1196 0 17945
-1.4587 5.8989 -0.71061 1 17766
-1.4407 8.7213 1.4523 0 18308
-1.4406 -8.5352 1.4221 0 10247
-1.4379 8.5465 -0.40416 0 18283
-1.4303 5.8629 -0.70573 0 17786
-1.368 6.0604 0.43444 0 17914
-1.3672 6.1417 0 0 17933
-1.3661 -6.6669 0.47588 0 10327
-1.3482 8.6195 1.2261 0 18359
-1.3464 -6.4731 1.2457 0 10338
-1.3464 9.3087 1.3219 0 18424
-1.3461 2.8606 -0.82763 0 16343
-1.3318 -4.289 0.84615 0 10600
-1.3236 5.7102 -0.27335 0 17870
-1.3151 7.0614 -0.67012 0 18173
-1.2789 -7.5775 0.71694 1 10246
-1.2776 -4.4822 -0.10821 0 10517
-1.2573 -9.6408 1.3664 0 10178
-1.2554 -3.4662 0.60568 2 10745
-1.2364 6.9623 1.1618 0 18242
-1.2276 -8.2934 -0.19465 0 10206
-1.2247 -3.575 0.087737 0 10686
-1.2061 -6.9035 -0.16271 0 10258
-1.1976 -6.8546 -0.3245 0 10257
-1.1659 -4.0901 0.49736 0 10520
-1.1388 -5.1711 0.494 0 10362
-1.1311 -3.123 0.62581 0 10746
-1.0911 5.7581 0.54676 0 18160
-1.0703 5.6484 0.94451 2 18165
-1.0668 -6.6749 0.95 1 10231
-1.0621 -7.9817 1.3229 0 10184
-1.0587 -3.8832 0.093447 0 10484
-1.0283 5.6138 0.53246 0 18203
-1.0156 5.3596 -1.2925 0 18162
-1.0119 -3.7115 -0.089315 0 10482
-1.009 3.0085 0.073671 0 17212
-0.97957 -6.0148 0 0 10236
-0.9582 -3.6865 0.71765 0 10455
-0.9542 3.9113 0.66145 0 17803
-0.93259 4.1894 -1.3392 0 17937
-0.93172 3.866 0.65335 1 17822
-0.91986 6.2368 -0.14637 0 18402
-0.91781 -7.5622 -0.35525 0 10164
-0.91153 4.0382 0.48412 0 17917
-0.904 -5.9916 1.1416 0 10214
-0.88287 5.4329 0.90431 0 18328
-0.84911 9.5707 0.89641 0 18708
-0.84249 -4.4375 -0.10487 0 10287
-0.79022 -4.7579 0.44997 0 10242
-0.73805 -6.7282 0.63148 0 10147
-0.73489 -7.7312 0 0 10119
-0.7304 2.9536 -0.21276 1 17769
-0.70763 -4.9846 0.23478 0 10196
-0.70399 -3.8893 0.74468 0 10270
-0.68774 -7.0268 -0.32925 0 10125
-0.65805 -4.945 0.23264 0 10183
-0.6423 3.8882 -0.091497 0 18300
-0.64139 4.3488 -0.93436 0 18409
-0.62903 -7.5542 0.88646 0 10102
-0.6246 -9.9277 -0.23095 0 10063
-0.61763 6.5582 0.92578 0 18682
-0.61256 3.7695 -0.088665 1 18317
-0.56468 -7.3053 1.3805 0 10093
-0.55484 -5.6689 0 0 10126
-0.5462 -4.5004 0.63713 0 10165
-0.5407 7.6178 -1.0733 0 18775
-0.53527 5.1885 -0.85697 0 18631
-0.53152 3.5354 -1.396 0 18385
-0.4929 4.5152 -1.4173 0 18614
-0.49215 -6.6071 1.2483 0 10086
-0.48725 7.8099 1.0997 0 18818
-0.445 -6.461 0.91019 0 10073
-0.4221 7.1258 1.1728 1 18834
-0.37654 -3.4327 0.65062 2 10148
-0.3678 -3.353 0.078313 0 10146
-0.36569 -8.5819 0.19943 0 10020
-0.36188 -3.3918 0.079195 0 10142
-0.3573 -7.9295 0.74053 0 10028
-0.34757 4.3675 0.30637 0 18741
-0.33472 -8.4441 1.3884 0 10013
-0.31371 -5.7925 0.81528 0 10044
-0.30897 -9.2168 0 0 9993
-0.3064 -4.2851 0 0 10079
-0.29863 3.8899 0.73505 0 18758
-0.28602 -9.2555 0.43183 0 9987
-0.26933 -7.3801 1.2133 1 10003
-0.25604 -6.4592 1.2179 0 10014
-0.25453 -4.0457 0.66599 0 10064
-0.24952 -3.3498 0.077988 0 10084
-0.24465 -4.07 0.66988 0 10056
-0.23276 -8.3328 0 0 9978
-0.20882 -3.6661 -0.17124 0 10049
-0.17303 -5.1615 0.24084 0 9994
-0.1699 5.1486 0.97057 0 18945
-0.16855 -8.7781 1.2339 1 9959
-0.16214 3.4002 0.64137 0 18881
-0.15986 3.5755 -0.083095 0 18888
-0.13647 -3.7397 0.70506 0 10004
-0.13116 7.0226 1.154 1 19001
-0.12956 -3.2686 0.075946 1 10011
-0.12422 -9.3647 0.21744 0 9948
-0.11176 -8.425 1.5875 0 9949
-0.069875 -9.5321 1.3397 0 9935
-0.068827 -9.3892 0.218 0 9933
-0.064087 -6.1197 0 0 9942
-0.063194 4.0227 0.75801 0 19014
-0.06183 -5.9041 -0.13708 0 9941
-0.049513 7.2738 0 0 19040
-0.047645 6.9995 -1.4878 0 19044
-0.037844 -8.3397 0.77806 0 9926
-0.0068858 6.5759 0.45983 0 19067
0.0098802 5.1466 -0.11949 0 19075
0.012182 6.3456 0.89182 0 19078
0.019213 4.0773 -0.66988 0 19080
0.024839 -3.5579 0 0 9907
0.030914 6.5605 -1.2361 0 19092
0.034971 -3.5778 0 0 9902
0.03915 8.3083 1.1677 0 19090
0.04001 -3.1401 0.21959 0 9897
0.062614 3.8572 0.45113 0 19127
0.06784 6.3719 0.14795 0 19109
0.069032 6.4839 -0.15055 0 19107
0.084217 -4.4673 0.73408 0 9887
0.12387 9.2167 -0.214 0 19117
0.12452 6.4851 -0.15059 0 19133
0.1297 3.2719 0.1527 0 19191
0.13447 8.2835 1.1643 0 19128
0.13762 3.2296 0.15074 1 19200
0.14139 -3.1624 0.52008 0 9837
0.14786 -3.1009 0.51003 0 9831
0.15117 6.7656 1.1118 0 19144
0.15919 -3.1426 0.14674 0 9825
0.18183 8.1378 0.18898 0 19142
0.22585 -8.293 1.5631 1 9873
0.23008 9.1526 -0.21256 0 19149
0.23119 3.6747 0.17171 2 19250
0.23806 -8.7412 1.0226 0 9872
0.24093 3.6661 0.17133 0 19257
0.25056 -5.9782 -0.27903 0 9844
0.28095 9.0916 1.7138 0 19169
0.2834 7.7288 1.0869 0 19184
0.29156 -3.4079 0.4807 0 9765
0.29881 -3.2644 0.53856 1 9750
0.30408 9.0709 0 0 19174
0.31168 4.014 -0.85576 0 19294
0.34704 6.7573 -0.15709 1 19217
0.34753 -8.2917 0.38702 0 9845
0.34876 -9.6491 0.22417 0 9858
0.3556 4.1225 -0.48388 0 19312
0.36307 3.7162 0.61346 0 19353
0.37823 6.9839 -0.16238 0 19224
0.38132 -7.1098 0 0 9819
0.38405 3.8074 0.6287 0 19364
0.38477 8.441 -0.19618 0 19206
0.39251 6.8699 -0.80469 0 19231
0.3949 9.2673 0.86538 0 19201
0.39838 -8.9102 1.6804 0 9838
0.40283 -3.3288 0.077849 0 9691
0.40999 -9.7822 1.6086 0 9846
0.43207 7.1878 0.67179 0 19242
0.44166 -5.7531 0 0 9784
0.44648 3.145 0.14814 2 19472
0.44776 3.5148 0.49796 0 19434
0.4567 -5.9489 0.13852 0 9785
0.46365 3.9116 -0.9333 0 19413
0.47077 8.6926 1.4302 0 19227
0.47094 -3.26 0.54116 0 9645
0.47457 -3.2216 0.535 2 9638
0.5269 -6.1587 0.57667 0 9764
0.53156 -9.9111 0.23044 0 9820
0.552 -8.4445 1.3903 0 9801
0.5621 -9.9294 -0.2309 0 9813
0.56712 4.4518 -0.9539 0 19435
0.59456 4.0956 -1.0834 0 19480
0.63929 -8.0156 0.7502 0 9777
0.6476 -7.2993 0 0 9756
0.66551 -5.6482 0.66508 0 9699
0.67056 4.9272 -0.23189 1 19453
0.68503 -6.827 0.80237 0 9731
0.71434 -3.3957 0 0 9505
0.71696 6.2156 -1.4825 0 19402
0.7176 3.5021 -0.50241 0 19609
0.7232 3.4769 -0.24833 0 19616
0.7296 -3.4149 0 0 9498
0.74462 -3.874 -0.09159 0 9543
0.76642 -7.4165 0.17311 0 9726
0.78394 6.4405 0 0 19418
0.78923 5.2247 0.61792 0 19497
0.79506 -8.9615 1.0521 0 9757
0.81854 3.4762 -0.24973 0 19660
0.83982 4.4234 0.42006 0 19587
0.84804 -7.7559 0.7279 0 9715
0.85524 5.2514 -0.12353 0 19522
0.85771 6.3024 -0.44477 0 19452
0.86077 -3.3164 0.15978 0 9397
0.86139 8.3072 0.77918 1 19372
0.8685 -3.3082 0.1595 0 9390
0.89095 6.4043 0 0 19462
0.91178 7.6921 0 0 19407
0.9153 6.4474 0 0 19468
0.92426 -7.2856 0.85882 0 9679
0.93569 -9.8986 1.6335 0 9742
0.96343 6.3779 0.14976 0 19495
0.96627 3.1138 0.53565 0 19795
0.97314 3.1034 0.53435 0 19801
0.99356 6.5774 0 0 19493
0.99365 6.578 0.93496 0 19498
1.0298 -6.5839 0 0 9614
1.048 5.9985 -1.4428 0 19555
1.0592 4.3285 -0.62628 2 19675
1.0659 7.6621 -0.17961 0 19461
1.0697 -5.2298 1.0057 0 9520
1.0697 4.2118 0.81874 0 19688
1.0822 8.7129 0.81912 0 19428
1.0825 4.3676 -0.6324 0 19680
1.0846 -8.7449 1.4477 0 9685
1.0855 3.5706 0 0 19775
1.0922 5.0302 0.96983 0 19641
1.1105 -7.0997 0.16684 0 9615
1.1397 -9.4184 1.7875 1 9692
1.156 3.7253 -1.2171 0 19794
1.171 3.7735 -0.64913 0 19786
1.1743 3.8195 -1.2469 0 19785
1.1876 -3.0875 0 0 9221
1.1881 3.2222 0.16015 0 19949
1.2072 7.6914 0.36307 0 19511
1.2171 -8.7824 0.62 0 9658
1.2252 -4.8922 0.9502 0 9419
1.2306 -9.2721 0.87263 0 9668
1.2527 -8.1582 -0.19163 0 9622
1.2647 4.6971 -0.9165 0 19710
1.2938 3.2996 -0.16528 0 20038
1.3029 4.5229 -1.0005 0 19748
1.3126 -4.7686 0 2 9361
1.3274 6.1137 1.0278 0 19640
1.3371 -7.6612 0.90946 0 9580
1.3604 -4.3491 0.5329 0 9309
1.3611 -9.5994 -0.2251 0 9651
1.3652 4.0262 -0.19826 0 19857
1.375 3.6638 0.45763 0 19973
1.3763 -3.4566 0.70099 0 9211
1.3858 7.2995 -0.51955 0 19585
1.3867 7.6611 1.2791 0 19571
1.3882 -9.6096 -0.22542 0 9644
1.3943 3.682 0.46042 0 19986
1.3998 9.4341 -0.22143 0 19486
1.4045 4.5259 -0.22099 0 19792
1.4313 -2.7459 0.28889 0 8995
1.4316 3.3338 0.3385 0 20163
1.443 6.8297 0.81631 0 19627
1.4578 -6.9297 1.3342 1 9507
1.469 6.9527 -0.99871 1 19621
1.4801 6.4574 -0.93107 0 19654
1.4916 5.6655 0.54658 0 19698
1.4988 3.6965 0.46646 0 20090
1.5061 -6.6775 0.47867 0 9472
1.5101 -7.7256 0.7344 0 9537
1.5172 -6.3783 0.15222 0 9448
1.5177 6.2876 -0.4523 0 19670
1.5194 2.8301 -0.22462 1 20500
1.527 -9.3971 1.5641 0 9603
1.5315 -4.796 0.11689 0 9301
1.5459 7.6529 0.3641 0 19605
1.5562 4.8153 -0.23599 0 19818
1.5629 6.9013 0 0 19651
1.5669 3.2501 0.16826 0 20334
1.582 7.0835 0 0 19646
1.5871 -8.9368 0.8468 0 9572
1.5872 -4.0879 0.72046 1 9218
1.5883 9.7526 -0.92186 0 19520
1.6089 5.7664 1.1279 0 19728
1.6166 6.7702 -0.81398 0 19663
1.6176 -6.712 0.97031 0 9442
1.6177 -5.6902 0.69179 0 9349
1.6222 7.9167 0.37686 0 19612
1.6321 3.4372 -1.1873 0 20309
1.6331 6.3558 0.15236 0 19691
1.6412 -8.0237 0.19014 0 9518
1.6678 5.9214 1.1591 0 19734
1.6834 6.5518 0.31546 0 19692
1.6877 3.2573 -1.3352 0 20439
1.6894 -5.0875 0.50013 2 9282
1.71 -7.6815 1.4827 0 9479
1.7208 5.9036 -0.5737 0 19750
1.7418 6.3151 0.30549 0 19722
1.7623 3.7383 -0.095953 0 20296
1.7646 -3.1794 0.51104 1 8947
1.7673 4.1156 -1.3976 0 20161
1.7801 -4.289 0.76294 0 9186
1.783 2.9222 -0.81111 0 20795
1.786 -3.197 0.51466 0 8941
1.7941 4.1779 0.10556 0 20159
1.8177 6.3768 0.77542 0 19742
1.8305 -3.3672 0.268 0 8961
1.8333 3.2116 0 0 20639
1.8422 7.7147 0.73998 0 19666
1.8589 4.9533 0.12283 0 19971
1.8626 6.5343 -0.31686 0 19738
1.8715 -9.7367 0.92502 0 9544
1.8786 -9.4614 0.89994 0 9531
1.8838 2.9891 -1.286 0 20888
1.8978 2.5619 -1.4195 1 21393
1.9138 7.9287 -0.95383 1 19668
1.9501 -6.2921 0.61457 0 9313
1.9533 6.9351 0.84256 0 19733
1.9576 -2.4304 0.36495 1 8301
1.9715 -2.432 0.36611 0 8288
1.9717 3.0107 -1.123 0 21004
2.0022 6.8691 0.66752 0 19754
2.0091 -3.722 0.29577 0 8968
2.0161 8.5619 -1.4451 0 19657
2.0191 5.4262 -1.3718 0 19961
2.0212 5.3859 -1.3631 0 19974
2.0309 -8.1095 1.3735 0 9418
2.0911 7.8535 0.379 0 19703
2.0954 2.219 0 0 22201
2.0958 -5.9051 1.0295 0 9255
2.1222 -2.2223 0.50484 0 8051
2.1322 -9.578 1.6121 0 9478
2.1644 3.4132 0.18848 0 20909
2.167 3.395 0.18782 0 20927
2.1672 -3.2918 0.64751 0 8752
2.1919 7.5201 -1.2869 0 19749
2.1933 7.2146 0.88182 0 19777
2.1981 3.3349 -1.3496 2 21025
2.2071 8.1968 0.39587 0 19706
2.223 -2.7757 -0.16584 0 8309
2.2291 -6.8443 -0.33568 0 9291
2.2377 5.7573 0.43193 0 20027
2.2466 -7.8091 0.18866 0 9343
2.2504 -3.094 -0.17841 0 8531
2.2586 4.6846 0.12074 0 20333
2.2612 8.294 1.6197 0 19717
2.2972 -4.2558 -0.33818 0 8966
2.3032 6.6626 1.1582 0 19875
2.306 7.5853 1.1142 0 19778
2.3216 3.5681 0.098832 0 20984
2.3234 2.6841 0 0 21918
2.324 3.5951 0.099389 0 20966
2.3413 2.8041 0.60017 2 21805
2.3472 -3.497 0.39293 2 8706
2.3506 -2.0197 0.071953 0 7912
2.3548 2.1844 0 0 67
2.3684 -2.4372 0.55834 0 8028
2.3708 2.6759 0.67358 2 22006
2.3936 1.9865 0.29019 0 408
2.3969 -6.511 0.16108 0 9243
2.4021 -2.0764 0.073717 0 7916
2.4021 7.8129 -0.18977 0 19783
2.4049 -7.3841 1.2759 1 9292
2.4073 6.1396 -1.4017 0 20042
2.4085 -4.2243 0.1129 0 8923
2.4194 6.615 1.1572 0 19939
2.4228 1.895 0.57953 0 595
2.4228 2.0943 0.14935 0 285
2.4473 7.2847 1.4479 0 19850
2.4802 8.701 0.21006 0 19740
2.5143 9.6662 1.4037 0 19695
2.5253 -7.6717 1.1351 0 9287
2.5278 -5.9901 1.225 1 9171
2.5482 -9.5834 1.1596 0 9382
2.5509 -7.5319 1.4983 1 9277
2.568 2.6723 -1.2523 0 22255
2.5885 3.5341 -1.4802 0 21354
2.6042 -4.137 0.80315 0 8827
2.6048 -4.6003 0.12274 1 8927
2.6291 7.9777 -0.19502 0 19831
2.6422 6.8545 0.51369 0 20013
2.6575 -2.521 0.085044 0 7962
2.6594 5.8194 -0.14855 0 20249
2.6596 3.3992 0.81319 0 21590
2.6924 -3.024 0.094004 1 8127
2.694 -3.044 0.094375 0 8134
2.6989 2.7426 0.17944 0 22330
2.7059 -3.4822 0.51571 0 8384
2.7094 2.4844 0 0 105
2.7201 2.4786 0 0 123
2.7277 -5.3835 0.99153 0 9022
2.7407 2.571 0.17525 0 31
2.7454 2.5736 0.52886 0 22575
2.7518 8.4291 1.2462 0 19826
2.7549 -5.4776 -0.28593 0 9026
2.7712 6.0167 -0.15379 2 20258
2.7716 -8.8603 0.86612 0 9308
2.7774 2.9064 0.66048 0 22244
2.7839 -5.6576 1.036 1 9045
2.7852 -5.6205 -0.58522 0 9036
2.7951 2.9413 0.66664 0 22227
2.811 8.1315 0.19975 0 19874
2.816 7.917 -0.39186 2 19903
2.8229 3.3192 0.2032 0 21857
2.8293 2.6522 0.63713 1 22577
2.8347 -4.9357 1.0724 0 8922
2.8352 -7.121 1.0772 0 9210
2.8361 -1.006 0.069864 0 6280
2.8372 3.1115 0.097764 0 22095
2.8515 2.1247 0 0 731
2.8642 2.685 -1.3266 1 22570
2.8652 4.1363 -0.35185 0 21175
2.8671 -1.0554 0.35728 0 6328
2.8672 5.4566 0.72083 0 20463
2.8693 2.4515 0 0 316
2.8727 3.1306 0.098646 0 22117
2.8776 7.5992 0.18866 0 19985
2.88 6.4991 0.49708 0 20214
2.8851 -1.0524 0.35914 0 6318
2.9031 -5.49 0.14419 0 8984
2.9136 -8.774 1.2993 0 9283
2.9191 2.673 0 0 22642
2.9247 0.982 -0.071629 0 3210
2.9274 5.3427 0.85619 0 20547
2.9284 3.4046 0.10426 0 21898
2.9387 -1.2389 0.074042 0 6548
2.9434 -6.8149 1.3986 0 9149
2.9465 1.9651 0.66729 0 1120
2.9753 4.485 0.25099 0 21045
2.9897 0.39732 0 0 4496
2.9905 7.8976 -0.39382 0 19983
2.9959 0.99603 -0.0733 0 3228
3.008 6.4272 0.33093 0 20284
3.0153 -0.14325 0.14078 0 5491
3.0239 2.8168 0.67896 0 22596
3.0528 -2.9143 0.59316 0 7966
3.0535 3.7426 0.33776 0 21720
3.0568 -0.15485 0.14273 0 5504
3.0593 1.3974 0.31379 0 2416
3.0653 1.5531 0.16025 1 2108
3.0802 -6.1243 0.47937 0 9027
3.0932 7.629 0.76803 0 20089
3.1334 1.323 0.31732 0 2653
3.1369 1.6018 0.16425 0 2084
3.1421 -0.75726 0.22601 0 6015
3.1523 -0.74923 0.22657 0 6006
3.1692 -5.6337 -0.75591 0 8930
3.1768 -6.9579 0.7136 0 9101
3.1885 -1.2048 0.47903 0 6370
3.1983 4.3668 -0.3785 2 21349
3.2121 6.1994 -0.1621 0 20438
3.2248 8.0179 1.4199 0 20081
3.2375 -3.6363 -0.22705 2 8126
3.2425 6.2984 -0.16447 0 20427
3.2542 -0.39265 0.46066 0 5738
3.2742 -4.4769 0.38785 0 8521
3.2769 -0.47455 -0.076874 0 5801
3.2916 6.0073 0 0 20542
3.2937 -5.4752 1.2039 1 8884
3.3013 -1.1181 0.24373 0 6226
3.3045 2.0139 0.18046 0 1441
3.3118 -6.6309 0.17208 0 9033
3.3182 -5.4811 1.2072 0 8876
3.3195 3.0578 0.52779 0 22630
3.3261 6.8988 0.71452 1 20335
3.3273 2.9458 0 1 212
3.3282 -1.1382 0.24596 0 6238
3.3385 -5.3718 1.1916 0 8845
3.3492 0.58573 0 0 4220
3.3626 2.873 0.10268 0 318
3.3846 1.9431 -1.1191 2 1657
3.3862 -3.0672 0.53429 0 7948
3.3905 3.673 0.11605 0 22134
3.3922 -8.902 1.3388 0 9228
3.4017 -8.8433 1.5567 0 9222
3.4022 -8.4039 1.7082 0 9197
3.4047 -8.5512 0.85869 0 9209
3.4066 -1.955 0.18317 0 7220
3.4141 -0.83289 0.16388 0 6022
3.4357 3.2422 0 0 9
3.4364 -0.39518 0.080309 0 5720
3.4396 1.3362 0.17208 1 2874
3.4469 2.7105 0.4091 0 572
3.4519 -5.7746 1.2676 0 8892
3.4572 -1.9712 0.18559 0 7206
3.4631 -0.40805 0.080959 0 5730
3.467 -2.6278 0.50874 0 7761
3.4674 3.6718 0.82973 0 22211
3.476 -6.0966 1.153 0 8926
3.5151 -7.4733 1.556 0 9077
3.5199 2.6534 0.51548 0 701
3.5213 0.53066 0.082677 0 4385
3.5228 -1.3312 0.17562 0 6366
3.5318 7.4919 1.164 0 20298
3.5364 2.2564 -1.4175 1 1273
3.5437 -3.9123 0.12255 1 8105
3.5695 -3.7614 -0.48378 1 8054
3.5926 0.41377 0.68136 2 4620
3.5952 6.6493 1.4242 0 20523
3.599 7.4119 1.3537 1 20348
3.6173 -0.55482 0.68951 0 5825
3.6244 -0.96235 0 0 6062
3.6252 -0.97477 0 0 6068
3.6373 -8.282 0.21001 0 9133
3.6423 -0.86571 0.61509 0 6008
3.6588 6.3654 0.17046 0 20655
3.6608 6.3689 -0.17055 0 20653
3.6641 2.9156 0.32744 0 536
3.6675 -3.4404 0.82617 1 7958
3.6725 0.57641 0.52246 1 4352
3.7004 4.7007 0.13889 0 21599
3.7147 2.636 0.74835 0 890
3.7245 5.3769 1.2324 0 21189
3.7409 -3.6557 0.73511 0 7981
3.7441 3.4489 0.23739 0 22626
3.7561 -8.6262 1.7726 0 9141
3.757 0.59976 0.5347 0 4328
3.7918 6.5968 0.70988 0 20657
3.7926 2.6428 0.64966 0 951
3.7936 -3.684 0.74318 0 7976
3.7969 3.7273 0.87415 1 22432
3.8104 9.0911 -0.22886 0 20127
3.8184 -0.63076 0.63584 1 5854
3.8237 0.22918 0.72172 0 4965
3.8287 3.4076 0.35841 0 199
3.8513 0.88207 0.64913 0 3882
3.9061 -6.5785 0.71378 0 8896
3.9073 8.9605 -0.22696 1 20183
3.9117 7.2861 0.192 0 20504
3.9368 -8.1801 0.42335 0 9060
3.9655 9.094 1.63 0 20189
3.9658 -4.0582 0.79746 0 8019
3.969 0.30749 0.46553 0 4854
3.9699 0.29502 0.46553 0 4871
3.9883 0.68532 0.76246 0 4250
4.0074 7.1586 0.57368 0 20596
4.0265 -6.5195 1.0769 0 8851
4.0509 -5.0581 -0.91075 1 8305
4.0539 -3.5652 0.12534 0 7925
4.0852 7.6093 -0.40276 0 20501
4.0889 -3.7232 0.25789 0 7953
4.0969 -1.2035 0 0 6119
4.0988 1.3239 0.20087 0 3294
4.1083 1.7481 0.10366 0 2624
4.1163 1.7651 0.10398 0 2601
4.1277 -1.2651 0.40278 1 6153
4.1335 -1.2803 0.40371 1 6163
4.1391 3.8168 -0.39371 2 84
4.1393 -1.2293 0 0 6128
4.2307 -4.4582 0.71874 0 8058
4.2359 1.6592 0.63936 0 2858
4.2603 -5.5161 0.65024 0 8395
4.2775 -7.8163 0.62306 0 8956
4.2845 3.9041 0.13458 0 125
4.2962 1.3455 0 0 3347
4.3377 -1.497 0.53662 0 6249
4.3385 -8.8794 1.1557 0 9049
4.3472 -0.06905 0.7143 0 5353
4.361 1.7222 -0.10886 0 2824
4.3825 3.6579 0.13253 0 388
4.4019 -6.7731 1.522 1 8781
4.4298 -0.082737 0.72792 0 5367
4.4525 -0.27701 0.31195 0 5548
4.4608 -0.38242 -0.20879 0 5630
4.4624 3.3056 0.78048 0 755
4.467 1.2439 0.21624 0 3567
4.4757 -2.8349 0.74458 1 7425
4.5285 1.2763 0.21941 0 3546
4.5331 3.4608 0.53209 0 664
4.5471 4.288 0 0 22550
4.5543 -0.72704 0 0 5839
4.5598 1.5018 0.11146 0 3250
4.5612 -2.7787 0.37348 0 7347
4.5622 0.53997 0.4286 0 4598
4.5766 3.5155 0.5384 0 645
4.5925 -1.5554 0.22612 1 6225
4.6244 4.9245 1.1099 0 22191
4.6402 -1.5553 0.92206 0 6218
4.6522 -0.38575 0.65606 0 5624
4.654 7.7302 1.4824 2 20762
4.6718 4.2779 1.1935 1 22652
4.6792 -0.4555 0.88577 1 5668
4.6793 7.3309 1.6386 0 20934
4.6799 4.0239 0 0 301
4.6981 4.3277 1.2035 0 22634
4.7124 -0.29318 0.44049 0 5549
4.7164 -2.6532 0.88907 1 7180
4.728 -0.40533 0.66692 0 5632
4.7327 4.8668 0.63334 2 22294
4.7388 -0.29482 0 0 5547
4.7436 2.8356 0.12831 0 1507
4.7668 1.3876 0.23152 0 3486
4.7817 0.79332 0.79634 1 4288
4.7869 -4.7304 0.94582 1 7989
4.7957 3.02 0.66276 0 1327
4.8049 0.8101 0.80055 0 4267
4.8052 3.7126 0.85341 0 629
4.8179 8.6066 -0.229 0 20591
4.9005 -0.39084 0.80768 0 5615
4.9337 1.499 0.24046 0 3405
4.9438 -6.8422 0.59028 0 8546
4.9965 -1.5314 0.85859 1 6156
5.001 -1.5166 0.85859 0 6146
5.007 -5.1237 1.177 0 8020
5.0143 -0.47399 -0.11694 2 5655
5.0252 0.99867 0.35827 0 4073
5.0269 -0.48935 -0.11726 1 5665
5.0321 -0.86105 0.59701 0 5872
5.0354 -1.276 0.1206 0 6041
5.0408 -0.84896 0.71841 0 5863
5.0874 0.6472 0.23916 0 4535
5.1141 -0.87509 0.85243 0 5873
5.1167 4.9967 1.0051 0 22450
5.1247 4.5901 1.1303 1 186
5.1506 -1.1617 0.61746 0 5985
5.1595 -5.8647 1.0978 0 8142
5.1618 4.5699 0.64318 0 217
5.1856 3.5907 1.0363 0 976
5.1916 3.2064 0 1 1390
5.2151 0.66345 0.49047 0 4539
5.23 7.2756 1.6882 0 21305
5.2344 4.1921 0.1557 0 515
5.2372 8.1484 0.67734 0 20948
5.2493 -3.6091 0.59432 0 7583
5.2692 -1.2699 0.25276 0 6014
5.2766 -5.1564 0.86277 0 7980
5.3249 -3.244 0.29077 0 7345
5.3327 0.99413 1.022 0 4154
5.337 0.31988 0.12413 0 4956
5.341 1.2882 0.51258 0 3801
5.375 5.6246 0.18063 1 22237
5.3832 -5.3832 0.71025 0 7997
5.3931 -4.4473 1.1485 0 7870
5.3961 -1.2349 0.77798 0 5991
5.4035 -5.928 1.1273 0 8098
5.4048 0.43296 0.25285 0 4833
5.4098 8.0536 0.90514 0 21083
5.4108 -0.0066106 0.76044 0 5280
5.4438 -4.6216 0.66622 0 7904
5.4617 -0.51629 0.77102 0 5656
5.4743 0.81033 0.25807 0 4405
5.479 1.271 -1.4724 1 3860
5.5288 0.90043 0.52261 2 4306
5.5341 -3.0904 0.59135 0 7162
5.5497 -6.4932 1.6093 0 8195
5.582 -1.0729 0.79885 1 5916
5.6154 1.6879 0.27344 0 3426
5.6288 0.71607 0.39677 0 4537
5.6301 -3.4515 1.2442 0 7361
5.6301 -0.56593 -0.13137 0 5674
5.663 -1.1398 0.94905 1 5935
5.6738 -0.33709 0.93381 0 5539
5.6886 5.6806 0.3749 0 22378
5.6933 -0.83868 1.0843 0 5810
5.7342 -1.3989 0.13704 0 6021
5.7537 -0.62912 0 0 5701
5.7654 4.8963 0 0 334
5.7789 4.3563 1.189 0 704
5.7793 -7.2163 1.7419 0 8318
5.7854 -3.6644 0.63891 0 7424
5.7971 5.011 -0.7149 0 279
5.8778 -0.3492 0.82752 0 5537
5.8798 -0.27934 1.1091 0 5497
5.9098 6.0771 1.5971 0 22299
5.9315 5.724 1.5531 1 22486
5.9372 4.0592 0.3354 0 1016
5.955 -3.6507 0.48843 0 7358
5.9801 4.8738 1.2675 2 464
5.985 1.7038 0.43514 0 3529
5.9855 5.3932 1.1323 2 166
6.001 -6.2099 0.20049 0 8035
6.0079 -0.40958 0.56181 0 5569
6.0166 -5.6737 0.57828 0 7960
6.0462 1.0748 0.42942 0 4204
6.0503 -5.1057 1.4916 0 7897
6.0898 -5.9511 0.39708 0 7979
6.1102 1.3054 1.1772 0 3981
6.1444 1.77 -0.14846 0 3503
6.1452 1.7888 -0.1486 0 3482
6.161 1.5624 0 0 3718
6.1664 5.7846 1.1883 0 37
6.2219 1.7923 0.30195 0 3507
6.2319 -2.2105 -1.4055 1 6284
6.2327 -1.7133 0.60305 0 6081
6.2329 -2.3552 0.62163 0 6368
6.2473 -1.8553 0.30391 0 6129
6.2848 -2.1493 0.15421 0 6236
6.2892 0.33841 0.14623 0 4988
6.2974 -2.1942 0.31099 0 6259
6.3024 -2.2566 0.94081 1 6294
6.3061 3.7951 0.17088 0 1482
6.3347 -1.5665 0.76311 0 6030
6.3529 -6.6155 1.289 0 8043
6.3649 -0.54567 0.59599 0 5631
6.3665 2.0563 1.0992 0 3300
6.3704 -4.8284 1.1234 0 7762
6.3747 1.4999 1.2339 1 3844
6.3807 0.81173 0.75219 0 4541
6.3819 -0.97885 0.90741 0 5824
6.3971 -0.30392 0.14869 0 5490
6.4128 1.8874 0.31174 0 3465
6.4237 0.79898 1.0635 0 4564
6.4341 3.2135 0 0 2151
6.4572 -4.09 1.2558 1 7426
6.4634 2.189 0 0 3192
6.4674 -2.294 0.64021 0 6282
6.4732 -0.87751 1.0732 0 5778
6.475 -3.1385 1.1822 0 6849
6.4843 5.0098 1.3462 0 631
6.4893 -2.9382 0.83303 0 6701
6.491 7.4565 0 0 21939
6.4924 6.0226 1.0356 0 73
6.5089 4.4768 0.18341 0 989
6.521 -1.3326 0.46542 0 5941
6.542 -1.7983 0.31639 0 6080
6.5521 -0.52256 0.30652 2 5612
6.5627 -0.46697 -0.92467 1 5576
6.5659 6.8708 0.44319 0 22238
6.5709 -4.8657 0.95615 0 7719
6.5714 -0.8733 1.0891 0 5768
6.5854 2.6674 0.66288 0 2765
6.5865 2.7565 -0.16577 0 2669
6.6199 -1.9032 0.64263 0 6104
6.6214 -5.9285 1.6745 0 7938
6.6332 -0.51039 0.31025 0 5601
6.6364 0.5701 1.255 0 4800
6.644 5.1965 0.39335 0 588
6.6606 0.63196 -1.4221 1 4745
6.6732 -1.1419 0.15718 0 5870
6.6752 -5.1536 1.1852 0 7787
6.6814 -1.1253 0.47379 0 5862
6.7009 -5.2372 0.39661 0 7805
6.7092 6.2236 1.5035 0 76
6.7158 -3.854 0.54145 0 7222
6.7166 -1.8677 0.97978 0 6087
6.7239 5.646 0 0 370
6.7376 1.9409 0.65415 0 3510
6.7635 -5.1263 1.599 1 7764
6.7672 -0.028347 1.1118 0 5295
6.7747 -4.7472 1.5586 0 7622
6.8378 7.1154 1.8593 0 22264
6.8522 0.4107 0.96475 0 4962
6.8935 1.8561 0.66604 0 3628
6.906 -1.8337 0.83559 0 6063
6.9233 5.3799 1.2322 0 610
6.9542 2.3796 0.34276 0 3173
6.962 -6.3394 1.547 0 7955
6.9714 6.1353 1.3052 0 237
6.9854 1.5358 0.33354 0 3935
6.9914 1.3261 -0.16521 1 4125
6.9982 -4.7542 0.98937 0 7558
7.0125 2.7468 0.70263 0 2854
7.0359 -1.4788 1.1812 0 5952
7.0463 -2.0485 -0.17037 0 6112
7.0528 3.074 0.35879 0 2557
7.1117 -6.4757 0.89734 0 7954
7.1406 0.86664 0.84116 0 4579
7.1556 -1.5719 0.6835 0 5970
7.1594 2.0178 1.2221 0 3552
7.1641 3.0972 0.54577 0 2581
7.1656 -2.3809 1.2405 1 6208
7.1674 1.7977 -1.0385 0 3730
7.2078 -2.4159 0.17649 0 6213
7.2412 -4.7043 1.2136 0 7475
7.2472 -4.358 1.3894 1 7323
7.282 6.3682 1.8226 1 257
7.2958 4.1076 1.5775 0 1742
7.2988 4.9901 0.82488 0 1020
7.3008 0.92878 1.0343 0 4543
7.3028 4.4804 0.19892 0 1416
7.3115 2.3362 -0.89761 1 3305
7.3134 5.1896 0.2082 0 880
7.3176 -0.97248 0.5162 0 5767
7.3489 -0.75943 1.392 0 5686
7.3563 5.9252 0.44049 0 496
7.3773 4.2662 0 0 1627
7.386 5.9854 1.7912 0 483
7.388 1.5354 1.0605 0 4018
7.3966 4.5379 1.4257 0 1427
7.419 2.3022 0 0 3366
7.42 -2.3923 0.72734 0 6186
7.4259 1.5432 1.429 0 4021
7.4654 -5.0983 0.42158 0 7568
7.5191 2.7709 0.9371 0 3013
7.5416 -2.3115 0.18313 0 6151
7.5741 -0.9837 0.35618 0 5759
7.5928 3.0231 0.76246 0 2807
7.604 1.7415 0.91225 0 3879
7.7167 1.6966 1.4886 0 3943
7.7173 -3.1243 0.1933 0 6473
7.7353 -1.5358 1.2957 0 5929
7.7494 1.9897 1.3145 0 3707
7.773 1.5222 0.55387 0 4093
7.8339 -2.5787 1.355 0 6200
7.8528 5.7432 1.833 0 793
7.9266 -0.42374 0.92828 0 5516
7.9312 -2.6861 0.19441 0 6223
8.0016 2.1545 1.1646 0 3631
8.0778 -3.2702 1.0191 0 6476
8.1187 2.0589 1.3761 0 3727
8.1416 0.083842 0 0 5216
8.1423 -3.2963 1.4432 0 6478
8.2221 -2.624 0.40248 0 6178
8.2418 5.1261 1.5946 0 1378
8.2865 2.1276 -1.4056 0 3690
8.287 3.5262 0.62976 0 2627
8.295 3.3027 0.41636 0 2804
8.3755 0.96463 0.39316 0 4613
8.4266 4.5486 -1.3458 0 1874
8.4449 -0.4278 -0.19632 0 5503
8.4458 0.43229 1.1885 0 5009
8.4907 3.1864 1.2745 0 2971
8.5026 -0.75285 1.6082 0 5642
8.5347 3.2864 0.21233 0 2896
8.539 -1.2579 -1.213 1 5804
8.5628 -2.0637 0 0 6013
8.5675 -1.8821 1.2328 0 5971
8.6802 1.3857 1.4442 0 4330
8.6926 -2.0661 1.6834 0 6009
8.7031 0.69718 -1.4344 0 4820
8.7233 -0.23757 1.0205 0 5409
8.7579 1.7405 1.0442 0 4076
8.8346 4.5735 -1.1634 0 2022
8.9666 -3.1524 -1.3358 0 6265
8.984 1.5712 1.2818 0 4228
8.9951 -3.7002 1.367 0 6507
9.0069 0.93236 -1.2726 0 4678
9.0351 0.32972 -1.2707 0 5072
9.0454 0.40759 -1.4876 0 5026
9.0643 0.9671 -1.4977 2 4658
9.0701 0.38491 -1.4915 0 5041
9.1565 1.9029 -1.3144 0 4001
9.232 1.6146 1.096 0 4226
9.2339 2.0606 1.3297 0 3920
9.2402 2.0316 0.88266 0 3938
9.6798 1.1457 1.6014 0 4602
9.7286 1.038 -1.375 2 4659
9.7415 1.3552 -0.91759 1 4452
9.7836 1.5356 0.22993 0 4346
-14.841 1.348 -0.34598 0 12269
-14.381 1.3062 2.7206 0 12270
-13.992 0.89747 0.65385 1 12241
-13.912 3.3862 2.6977 0 12530
-13.643 3.0246 0.32444 1 12482
-13.49 -0.50408 1.8972 0 12117
-13.095 -1.4874 2.1653 0 12006
-12.772 4.5228 1.2641 0 12697
-12.591 5.3861 1.6015 0 12811
-12.501 -1.0146 -0.5849 0 12041
-12.425 6.696 -1.3168 0 13000
-12.424 1.3431 -0.58276 0 12292
-12.293 -1.1447 2.0285 0 12026
-12.178 3.8396 1.7945 0 12645
-12.134 -0.62957 -0.2821 0 12093
-12.071 0.95427 1.7018 0 12256
-12.05 -8.1674 2.3916 0 11906
-12.041 3.2985 0.5822 1 12591
-11.915 0.42024 1.9587 0 12206
-11.771 -0.57774 1.0995 0 12098
-11.69 5.2049 -0.89484 0 12839
-11.619 -8.0694 0.32843 1 11895
-11.592 2.0106 2.2166 0 12387
-11.405 0.33251 -0.53208 0 12199
-11.391 -8.1639 2.3024 0 11884
-11.341 -8.8414 0.33386 1 11854
-11.322 2.0637 -0.2672 0 12404
-11.294 8.6632 2.0005 0 13566
-11.18 4.0337 0.55425 1 12701
-11.164 4.1741 -0.55583 0 12721
-11.11 -1.8891 2.1233 0 11954
-11.065 1.953 1.5791 0 12392
-11.045 -9.9832 0.34566 1 11775
-11.001 6.7359 2.4303 0 13158
-10.765 -1.3809 -0.25198 0 11988
-10.716 -0.52597 1.2547 0 12099
-10.689 7.9525 -0.30931 0 13498
-10.673 3.5713 -0.26131 0 12672
-10.357 -0.84059 1.9578 0 12042
-10.311 6.691 2.3159 0 13234
-10.119 1.8171 -0.2387 0 12398
-10.049 -7.6471 1.7747 0 11862
-10.004 2.6806 0.24046 0 12580
-10.002 5.8094 -1.6255 0 13088
-9.9839 3.4046 1.9874 0 12682
-9.9395 3.6807 0.24608 0 12716
-9.8985 5.6368 0.26446 0 13070
-9.8587 6.1988 1.6367 0 13189
-9.8212 -7.2118 2.0019 0 11875
-9.7179 -8.4327 -0.29872 0 11796
-9.6699 7.111 -1.972 0 13464
-9.6677 2.743 1.651 0 12609
-9.5037 -6.6003 1.901 0 11896
-9.4781 5.8835 2.1018 0 13176
-9.4028 -8.0166 2.0301 0 11808
-9.4014 3.8923 -0.23624 0 12786
-9.3303 3.7697 -1.4143 0 12766
-9.2741 6.6543 1.0649 0 13425
-9.232 6.383 1.5774 0 13356
-9.202 6.9266 -1.8923 2 13517
-9.1553 4.2653 0.9423 0 12873
-9.0305 -10.87 0.98817 1 11597
-9.004 -6.6504 1.309 0 11871
-8.8357 10.272 2.5529 0 14653
-8.4486 -8.0034 1.6356 0 11754
-8.4231 -6.0705 0.72603 0 11882
-8.4069 5.6343 1.6627 0 13289
-8.3214 -5.9971 0.23814 0 11881
-8.2851 7.7667 0.79411 0 14064
-8.2601 6.4141 1.9704 0 13597
-8.2476 10.61 -1.5715 1 14948
-8.1746 -8.5962 1.1067 0 11712
-8.1594 7.7349 0.26103 0 14097
-8.1559 -6.788 -0.24636 0 11819
-8.1237 -7.0494 1.7671 0 11797
-8.0691 -11.575 -0.3276 0 11481
-7.8976 -9.3356 2.009 0 11611
-7.8437 5.5578 -1.5794 0 13394
-7.7713 -10.479 2.4581 0 11513
-7.6916 2.9772 -1.7531 0 12741
-7.6913 -6.5992 1.4243 0 11803
-7.6197 9.8623 2.0476 0 14977
-7.4538 -7.3942 1.725 0 11744
-7.3562 -9.5109 1.1218 0 11540
-7.3473 -8.0944 2.0596 0 11673
-7.2856 -8.6642 1.8598 0 11605
-7.2291 12.587 2.04 2 15766
-7.0227 -9.0243 0.26549 0 11545
-6.9059 -9.3124 0.81071 0 11510
-6.8735 -7.4019 1.1813 0 11689
-6.8323 7.4067 1.8985 0 14443
-6.6881 11.048 0.29984 1 15610
-6.5623 3.1076 -1.7204 1 12888
-6.5219 9.8386 0 0 15402
-6.4911 -7.673 0.93765 0 11610
-6.3802 8.6665 1.7681 0 15119
-6.3791 -13.434 0.69353 1 11030
-6.2307 7.1198 -1.5544 1 14582
-6.1367 -10.891 1.4619 1 11248
-6.0547 -12.564 2.6277 0 11054
-6.0196 -13.584 0.34496 1 10965
-6.0132 5.4086 -1.5238 0 13956
-5.8978 -11.876 0.61835 1 11080
-5.8724 8.9195 0.24794 0 15417
-5.8343 8.1703 1.1741 0 15204
-5.5108 7.9585 -1.5904 0 15274
-5.3455 9.9028 1.5816 1 15944
-5.2767 8.6041 0.23434 0 15580
-5.179 10.761 1.6784 2 16276
-4.9985 3.4123 -1.8885 0 13327
-4.8159 13.203 1.9751 2 17040
-4.7946 4.2389 -1.997 0 13908
-4.7771 10.463 0.80429 1 16432
-4.7126 9.1071 1.1991 1 16065
-4.6557 -10.672 2.1937 2 10954
-4.482 5.2738 -1.9846 0 14689
-4.4214 9.5424 1.9815 1 16392
-3.9558 13.896 0.67378 1 17535
-3.905 10.068 1.2628 0 16893
-3.7524 3.3562 -1.7011 0 13935
-3.7357 14.209 1.0274 1 17675
-3.6333 -10.709 1.0551 0 10680
-3.5553 -11.949 2.3488 0 10560
-3.3113 10.363 0.76076 1 17317
-3.2282 -13.53 1.9548 0 10407
-3.1964 9.6255 1.4254 0 17240
-3.1483 9.9609 -0.48717 0 17329
-3.0086 -10.444 2.0478 0 10532
-2.7297 13.978 1.3287 1 18122
-2.6228 -9.8433 1.9193 0 10470
-2.4262 10.467 2.0245 0 17882
-2.3088 9.9608 1.6799 1 17881
-2.1102 6.885 -1.5306 0 17392
-2.0345 11.669 1.9461 0 18258
-1.9028 -10.022 1.676 0 10291
-1.8653 -9.8251 0.93301 0 10289
-1.83 10.695 -0.50599 0 18266
-1.7218 -11.86 0.27825 1 10201
-1.6462 11.382 1.0729 0 18422
-1.5069 -10.615 0.24891 0 10195
-1.479 -10.645 1.0027 0 10190
-1.3125 2.5 -1.1794 0 16021
-1.1839 14.877 -1.7453 2 18735
-1.061 -10.841 2.0522 0 10127
-1.0526 -12.641 0.88702 1 10101
-1.0419 11.744 1.3787 0 18710
-0.95151 -12.31 -0.57577 0 10091
-0.92171 7.1162 -1.5252 0 18499
-0.84212 -10.895 0.25369 0 10092
-0.67669 10.38 1.4619 0 18806
-0.65797 3.8452 -1.5233 0 18267
-0.5822 11.533 -1.8971 0 18855
-0.53631 12.904 2.1218 0 18907
-0.31944 11.73 1.3722 0 18966
-0.31745 10.45 0.48754 1 18954
-0.26224 3.5456 -1.9976 0 18760
-0.22426 4.1951 -1.9886 0 18849
-0.20073 -10.454 1.97 0 9960
-0.076123 -10.384 0.48428 1 9934
0.18666 7.4254 -1.9445 0 19153
0.19107 -12.163 1.7096 0 9892
0.21435 3.7517 -1.9981 0 19230
0.32583 8.2198 -1.9491 0 19192
0.45534 -12.598 1.4742 0 9859
