VERSION .7
FIELDS x y z intensity index
SIZE 8 8 8 8 8
TYPE F F F F F
COUNT 1 1 1 1 1
WIDTH 1355
HEIGHT 1
VIEWPOINT 0 0 0 1 0 0 0
POINTS 1355
DATA ascii
-9.5248 2.6146 0.92149 0 9416
-9.4546 -0.45249 0.21976 0 8436
-9.4328 1.5295 0 0 8988
-9.3329 1.0997 0.21818 0 8859
-9.1964 2.2384 0.88303 0 9289
-9.0147 3.2526 0.44692 0 9847
-8.9913 2.4682 0.43481 0 9415
-8.898 -1.2616 0.83844 0 8263
-8.7983 -0.60135 1.6616 0 8389
-8.7932 -0.090552 0.20416 0 8535
-8.7446 2.2371 0.42093 0 9339
-8.6095 -1.0693 -0.20142 0 8286
-8.5489 1.0073 0 0 8858
-8.3777 -1.0138 1.3865 0 8292
-8.2062 1.0396 0.19205 0 8885
-8.1147 -0.74421 1.3388 0 8341
-8.0748 -0.22132 0.18754 0 8492
-8.0659 1.9901 0.19288 0 9300
-7.8699 4.8492 -0.43108 0 11135
-7.8426 -0.39866 1.2902 0 8429
-7.8326 5.2079 0 0 11411
-7.7987 3.2033 1.3852 2 10087
-7.779 3.1682 1.38 1 10073
-7.7468 5.9357 0.22658 0 11952
-7.69 -0.43532 1.0825 0 8415
-7.6166 6.0087 0.22524 0 12079
-7.5137 5.8219 1.1116 0 12009
-7.4893 0.24845 0.6991 1 8639
-7.4362 1.586 0.53168 0 9164
-7.4191 -0.52921 0.17269 0 8381
-7.4151 0.031059 1.0421 0 8566
-7.4037 -4.9564 0.20685 0 8180
-7.3877 -6.3343 0.45382 0 8032
-7.3668 6.4265 1.3739 0 12492
-7.3577 1.5693 1.236 2 9166
-7.3485 1.5459 1.2337 1 9154
-7.305 -0.49929 0.17 0 8388
-7.2095 0.46875 0.84488 1 8714
-7.2057 -5.0718 -0.20458 0 8152
-7.1997 -5.0976 0.20481 0 8148
-7.1972 5.5466 0.84773 0 11982
-7.1941 0.0113 0.16702 0 8560
-7.1897 -0.87005 0.33773 0 8291
-7.1847 -6.1254 1.5512 0 8038
-7.1752 3.2186 0 0 10260
-7.1717 -6.2585 1.3377 2 8016
-7.1705 6.7054 1.8497 0 12796
-7.1695 2.0369 0.87159 2 9459
-7.1471 2.7664 0.89622 0 9980
-7.1344 -0.15692 -0.16568 0 8504
-7.1278 3.3982 1.1098 2 10398
-7.1194 0.3208 1.3427 1 8669
-7.0822 1.6168 0.67774 2 9227
-7.0804 0.98123 0.16596 0 8920
-7.0715 5.5149 1.4734 0 12038
-7.0671 2.7142 0.8853 0 9964
-7.0628 -1.0631 1.3457 1 8250
-7.0615 -5.611 1.6993 0 8086
-7.0189 1.6256 0.67217 1 9239
-7.002 -6.5547 1.8071 0 7961
-6.991 5.5152 1.463 2 12087
-6.9877 7.0072 1.8645 1 13112
-6.9866 6.5334 0.22208 0 12787
-6.9769 -5.4765 0.20593 0 8094
-6.9426 0.13088 1.3083 2 8601
-6.9279 6.9134 1.1445 2 13078
-6.9262 0.22977 0 0 8638
-6.924 6.9846 1.853 2 13140
-6.9156 -6.9398 1.1457 1 7908
-6.91 -6.9779 1.6134 2 7902
-6.9042 2.6517 0.69 2 9962
-6.9009 0.14937 1.3005 2 8608
-6.8988 6.8844 0.68152 0 13074
-6.8912 6.7909 1.3597 0 13025
-6.8804 4.1833 0.56307 0 11094
-6.8777 -6.2167 1.3029 0 7990
-6.861 6.9212 1.1397 2 13134
-6.8592 -6.237 1.3029 0 7986
-6.8551 4.1942 0.56196 1 11117
-6.8542 -5.7047 0.20704 0 8056
-6.8451 -5.091 0.39782 0 8128
-6.8239 -6.8909 1.1341 1 7900
-6.8138 0.5219 1.2875 0 8745
-6.8011 -7.1894 1.1573 0 7838
-6.79 0.048588 -0.15765 0 8572
-6.7851 -4.6285 1.5475 0 8172
-6.7838 0.26535 1.1154 2 8654
-6.7737 7.0759 0.91387 0 13291
-6.768 5.5376 1.4367 0 12229
-6.7461 6.6898 0.88637 0 13049
-6.7442 3.361 0.70301 0 10493
-6.7325 1.0314 0.95723 0 8963
-6.7317 -4.592 1.3388 0 8171
-6.7277 3.3046 0.69929 2 10459
-6.7212 5.8964 1.0456 0 12517
-6.7125 0.26256 0.46974 0 8653
-6.7002 -0.9882 0.31584 0 8253
-6.699 -0.22457 0.31257 0 8475
-6.6915 6.7501 0.88675 0 13132
-6.6814 -7.0211 1.5923 2 7850
-6.6804 -0.4566 0 0 8387
-6.6762 1.4825 0.96113 2 9205
-6.6659 6.6103 1.3194 0 13052
-6.6627 0.64859 0.94081 0 8799
-6.6491 -0.68946 0.31174 0 8320
-6.6417 0.89918 0.78378 0 8911
-6.6342 5.8201 1.2403 0 12519
-6.6318 1.0349 0.94332 1 8970
-6.6293 -6.574 1.3121 0 7918
-6.6275 0.66268 0.93608 2 8809
-6.6272 -6.4267 1.7393 0 7937
-6.6223 -6.3107 1.0697 2 7947
-6.6152 -6.8742 1.7975 2 7870
-6.6062 -4.7944 1.3411 0 8137
-6.6061 -7.2753 1.1492 1 7764
-6.5875 -0.99157 0.46583 0 8248
-6.5861 4.6322 0 0 11623
-6.5846 3.0915 0.50866 0 10359
-6.5781 2.5687 0.82583 2 9995
-6.5633 -7.1476 1.1348 0 7784
-6.5597 4.4446 0.73923 1 11484
-6.5401 -6.8726 1.7875 0 7852
-6.5393 -5.2259 0.97892 1 8081
-6.5369 5.098 0.57968 0 12031
-6.5353 -7.3687 0.45931 0 7719
-6.5197 6.7325 1.3171 1 13244
-6.5179 -0.19914 0.3041 0 8485
-6.5175 4.226 1.0917 1 11328
-6.517 -4.961 0.76413 0 8112
-6.5166 6.8478 0.88192 0 13318
-6.5155 5.0813 1.5568 2 12040
-6.4946 -6.6297 1.3043 0 7889
-6.4862 0.38648 1.2242 0 8701
-6.4779 -0.53599 0 0 8359
-6.4737 4.1195 0.53657 0 11256
-6.4663 -7.3321 0.68361 0 7709
-6.458 -7.2815 1.8337 1 7726
-6.4564 4.1354 0.53615 0 11278
-6.4531 1.4543 0.77356 2 9216
-6.4499 1.4323 0.77263 2 9204
-6.4465 6.7342 1.3102 0 13295
-6.4451 1.6488 0.93496 0 9340
-6.4419 -7.3482 0.68333 0 7698
-6.4347 2.7076 1.3153 1 10139
-6.4138 1.3867 1.0781 0 9179
-6.4073 1.4839 -0.30671 2 9236
-6.3964 7.5105 0.92037 1 13809
-6.3921 3.4432 0.67737 2 10711
-6.3891 -0.94233 -0.14994 0 8252
-6.3855 1.2655 0.60733 1 9112
-6.3808 0.99578 0.75521 1 8969
-6.3771 5.7946 0.80389 2 12664
-6.3747 1.1849 0.60491 1 9067
-6.373 -6.4716 1.2765 2 7896
-6.3616 2.5277 0.80051 0 10025
-6.3516 6.0443 0.81801 2 12868
-6.3512 7.4127 1.1415 0 13783
-6.3505 -7.6356 0.23058 0 7589
-6.3487 1.8409 0.15347 0 9481
-6.3467 7.3632 1.8315 2 13759
-6.3435 6.4394 1.2704 2 13165
-6.342 -7.7127 0.23183 0 7567
-6.3368 -4.3519 0.53754 0 8168
-6.3314 3.7489 0.68647 2 11007
-6.3255 3.9465 0.69557 2 11187
-6.3117 4.0427 0.69929 0 11280
-6.3092 -0.94967 -0.14813 2 8247
-6.309 1.9711 1.2453 2 9588
-6.2991 -6.7786 -0.21484 0 7804
-6.2931 4.7336 1.1067 0 11886
-6.2759 5.5407 1.3754 2 12546
-6.2713 -5.8338 1.4072 0 7965
-6.2708 1.1849 1.2024 1 9082
-6.2694 3.863 0.68703 2 11142
-6.2682 2.0173 0.30708 1 9623
-6.2674 5.2776 1.1515 0 12346
-6.2657 2.8344 -1.2957 0 10286
-6.2603 2.5293 0.78959 2 10058
-6.2524 -6.7686 1.5139 1 7797
-6.2496 1.1617 0.74336 2 9068
-6.2487 -1.1638 1.1976 0 8222
-6.2401 1.4452 1.2068 0 9244
-6.2384 6.7486 1.7315 2 13456
-6.2363 0.60708 1.1805 2 8801
-6.2338 -6.9063 0.86798 0 7752
-6.2247 5.7239 0.98891 0 12717
-6.2218 1.0088 0.73709 2 8989
-6.2158 2.595 0.94666 2 10118
-6.211 1.1736 0.73918 0 9080
-6.2106 3.7761 0.67811 0 11096
-6.2101 1.4178 1.2002 1 9230
-6.2055 -7.5091 0.22617 1 7580
-6.2017 -6.6738 0.84996 1 7806
-6.1967 0.2944 0.72548 0 8675
-6.1875 -6.0318 1.2144 1 7932
-6.18 7.7888 1.6335 1 14150
-6.1775 3.9567 0.85789 2 11282
-6.1429 -4.2187 -0.17301 0 8167
-6.1421 5.8449 1.1916 0 12872
-6.141 0.68665 0.86844 0 8843
-6.1385 5.982 1.6149 2 12978
-6.1335 0.54308 0.86538 0 8773
-6.1323 0.31065 0.71804 0 8681
-6.1287 -5.1645 1.3167 0 8047
-6.1266 -7.4137 0.44851 2 7581
-6.1261 6.8613 1.733 2 13610
-6.1185 7.0162 0.65097 1 13701
-6.1132 -6.8085 0.85368 2 7741
-6.1073 0.71961 0.86427 1 8860
-6.0989 -5.2607 1.5175 0 8027
-6.0966 1.0432 1.1653 1 9015
-6.0938 2.4004 0.61104 1 10009
-6.0809 6.1729 1.0133 2 13163
-6.0802 5.7217 1.5731 1 12823
-6.0698 -5.3287 0.94454 0 8012
-6.0677 3.0002 1.2753 0 10484
-6.0655 6.9115 -1.2924 2 13660
-6.0617 7.826 0.92353 2 14245
-6.0589 2.3452 0.30298 0 9977
-6.0431 6.2403 1.0159 2 13242
-6.0407 -6.3857 1.4442 0 7840
-6.0394 0.80153 1.0009 1 8904
-6.034 -5.8515 1.3809 2 7935
-6.0299 -7.8357 -0.46108 1 7447
-6.0284 5.3825 1.3278 1 12596
-6.0279 0.39192 0.84896 1 8715
-6.0243 2.8502 0.93664 0 10383
-6.0237 2.8281 0.93524 2 10364
-6.019 7.8187 0.92056 1 14274
-6.0117 1.2275 1.0081 2 9134
-6.0055 -6.3863 1.4403 1 7830
-6.0015 -4.8219 0.71824 0 8076
-5.9982 6.8783 -0.85145 2 13689
-5.9978 4.9918 1.0967 2 12296
-5.9914 2.9859 1.2613 1 10501
-5.9907 -3.8637 0.49848 2 8192
-5.9814 5.6603 1.1574 2 12846
-5.9799 -7.7706 1.1466 2 7450
-5.9747 5.0009 1.095 1 12321
-5.9698 6.3461 1.6416 0 13378
-5.9617 -7.9808 0.69659 0 7394
-5.9567 -7.879 0.46062 0 7414
-5.9548 2.5056 0.90797 2 10136
-5.9436 0.38644 0.97856 1 8716
-5.943 6.6562 1.0435 2 13605
-5.9318 -3.8994 0.49639 0 8188
-5.9213 -7.7363 1.3692 2 7440
-5.9143 3.0775 0.622 0 10609
-5.9104 5.1252 1.0995 0 12466
-5.9077 6.353 1.6345 2 13430
-5.9066 0.83537 0.6976 0 8928
-5.8981 -6.129 1.3975 2 7868
-5.8904 6.8337 0 1 13749
-5.8866 2.6184 1.2139 2 10252
-5.881 5.5653 0.7554 1 12842
-5.878 -7.8231 1.1443 2 7405
-5.8749 3.9329 0.82676 2 11438
-5.8673 2.5317 0.59618 1 10177
-5.8622 -6.8082 0.41897 1 7660
-5.86 7.5656 1.803 2 14252
-5.8585 -6.8377 0.4199 1 7647
-5.8494 6.827 0.41925 0 13779
-5.8455 0.041829 0.9604 0 8573
-5.8394 0.058094 0.95943 1 8580
-5.8389 -6.3209 0.60172 0 7793
-5.837 5.2409 0.91736 0 12617
-5.8363 6.8118 0.62725 2 13780
-5.8341 4.1814 1.1793 2 11701
-5.8329 5.6842 0.95244 2 12973
-5.8256 0.24416 0.81945 2 8662
-5.8228 3.4946 1.1157 2 11055
-5.8225 4.6764 1.2269 1 12159
-5.8223 4.1469 1.1744 2 11678
-5.8158 1.0643 -0.13727 0 9054
-5.814 2.8747 0.6051 0 10476
-5.8098 6.176 0.79107 1 13371
-5.8088 1.0107 0.82864 2 9023
-5.8037 -8.0589 1.8711 1 7340
-5.8028 0.32849 0.95489 2 8693
-5.7997 6.971 -0.42288 2 13915
-5.7984 0.21059 0.95327 1 8647
-5.7887 -0.88787 -0.13597 0 8245
-5.7883 7.5189 0.66352 0 14272
-5.781 -7.2029 0.86167 1 7532
-5.777 5.1003 1.083 1 12544
-5.7713 -6.6227 0.61428 0 7687
-5.7603 -6.162 1.1855 0 7818
-5.7541 -5.6427 0.94245 2 7927
-5.7452 -7.8297 0.22547 2 7362
-5.743 2.8209 0.74824 0 10461
-5.7423 -6.3954 0.60102 2 7740
-5.7325 3.7171 -0.15862 2 11320
-5.726 -7.0938 1.2812 0 7542
-5.7204 0.28978 -0.26711 1 8680
-5.7184 -5.9092 0.38347 0 7874
-5.7174 4.1967 0.99676 2 11790
-5.714 0.12368 0.939 0 8607
-5.7131 2.5413 0.58336 0 10244
-5.7126 7.0293 0.63339 2 14039
-5.7045 4.9466 0.88298 0 12464
-5.7039 2.9251 0.59804 2 10569
-5.6972 2.5556 1.1765 0 10269
-5.6948 2.3775 0.57574 0 10114
-5.6948 3.7408 0.79679 1 11370
-5.6938 3.0262 0.60157 0 10671
-5.6918 2.3588 0.57482 2 10098
-5.6914 0.1719 0.80025 0 8631
-5.6909 3.5065 0.78169 2 11144
-5.6908 5.081 1.0722 2 12594
-5.6887 0.12313 0.79969 1 8606
-5.6859 -7.1277 0.63757 0 7521
-5.6809 -6.2192 1.1838 1 7774
-5.6788 3.5224 0.78146 0 11167
-5.6748 -6.7414 1.4477 2 7615
-5.6719 -7.9224 -0.45437 0 7322
-5.6643 0.13942 0.9309 2 8614
-5.6593 0.33722 0.66299 1 8699
-5.6568 1.3602 0.95586 1 9280
-5.6558 -6.7189 0.40956 0 7611
-5.6554 2.7559 0.7357 1 10444
-5.6542 2.5959 0.72757 2 10312
-5.6499 -4.4078 1.1773 1 8101
-5.639 1.2522 1.0883 1 9207
-5.6246 0.5297 0.66067 1 8791
-5.6164 -0.66375 0.52763 0 8297
-5.6113 2.6345 1.1679 1 10368
-5.609 0.51342 0.13077 0 8781
-5.6046 -0.64451 0.52633 0 8303
-5.6027 -7.1045 0.63269 0 7499
-5.5973 -5.2709 1.0805 1 7955
-5.5914 -5.3882 0.90807 0 7941
-5.5882 -5.4476 0.72809 1 7931
-5.5832 -7.7527 1.5697 0 7338
-5.5822 -4.0009 1.1284 0 8143
-5.5807 -4.8138 0.51536 0 8025
-5.5742 -6.7789 0.40928 1 7568
-5.5695 -5.4923 0.72976 1 7922
-5.5687 2.3078 1.1357 1 10106
-5.5637 -7.0146 0.83528 2 7511
-5.5612 7.136 1.2715 2 14221
-5.5546 5.7701 0.74722 2 13267
-5.5543 1.2171 0.79913 0 9191
-5.55 1.1999 0.79802 2 9178
-5.5438 0.91479 0.78967 0 8997
-5.5345 -5.367 0.90156 2 7934
-5.5217 6.0406 1.5419 2 13508
-5.5129 -5.6968 0.73961 2 7875
-5.5127 3.0106 0.73454 1 10756
-5.5113 -5.6595 0.737 2 7882
-5.5109 -6.6686 1.2158 1 7584
-5.5061 -8.2843 -0.46388 0 7237
-5.5059 2.9857 0.73245 2 10734
-5.5059 3.7798 1.0972 2 11538
-5.5003 0.71241 0.64859 2 8893
-5.4871 0.10344 -0.7713 1 8594
-5.4862 0.61343 0.64557 0 8842
-5.4841 7.8496 1.5732 1 14703
-5.483 -5.8654 0.74908 1 7816
-5.4784 2.771 0.57277 2 10530
-5.4771 3.2224 0.74313 1 10988
-5.4745 -5.8216 0.74555 2 7827
-5.464 4.4152 0.49123 0 12177
-5.4545 -7.8567 0.89232 1 7287
-5.4524 -6.0047 0.7567 1 7763
-5.4513 -0.93278 0.38673 1 8230
-5.4475 2.9124 0.5763 2 10690
-5.4441 3.3101 0.89544 2 11099
-5.4439 -7.604 0.43611 0 7325
-5.4424 -5.5556 1.4653 1 7891
-5.4403 -7.4142 0.42885 0 7363
-5.438 -7.4573 0.64539 0 7354
-5.4369 0.97923 0.64603 0 9044
-5.4366 2.1415 1.1009 1 10016
-5.4339 3.2174 0.73849 2 11009
-5.4325 4.1116 0.95751 0 11910
-5.4277 2.4143 0.13792 0 10241
-5.4275 -0.18195 0.12608 0 8474
-5.4271 7.3935 1.0725 2 14485
-5.4259 6.1827 0.96196 1 13677
-5.42 3.4929 0.60157 2 11301
-5.4119 5.2116 1.2344 1 12925
-5.4103 -7.5126 0.43174 1 7335
-5.404 0.95676 0.7713 1 9033
-5.4035 1.9689 0.53654 2 9866
-5.4021 2.2387 0.96073 2 10104
-5.3994 -5.88 1.3116 0 7786
-5.3937 7.1733 1.0495 2 14378
-5.39 2.7641 1.1413 0 10577
-5.388 -6.6347 0.79738 1 7548
-5.3836 6.7439 1.2128 1 14122
-5.3811 -5.9262 1.3151 2 7766
-5.3763 5.5189 1.2658 2 13219
-5.3756 -6.0952 1.3352 0 7712
-5.3697 1.0467 0.63976 0 9100
-5.3677 2.9717 0.5724 2 10797
-5.3636 1.2748 1.0387 2 9269
-5.3597 1.2571 1.0372 0 9257
-5.356 -7.3936 0.63841 0 7346
-5.3559 5.8285 0.73849 2 13477
-5.3512 3.9525 0.93496 1 11815
-5.3481 -6.7815 0.40276 0 7498
-5.3478 3.2951 1.1835 2 11150
-5.3403 -6.8156 0.40379 0 7485
-5.3377 -6.1598 1.3391 1 7678
-5.3294 3.0534 0.71828 2 10906
-5.3275 -0.89725 0.50403 0 8233
-5.3214 5.3681 1.2418 2 13138
-5.3131 -7.748 1.7701 2 7276
-5.3105 -7.556 1.7401 1 7306
-5.3088 -6.936 0.40733 1 7438
-5.3065 -7.7878 1.102 1 7267
-5.3045 -7.5475 1.0788 2 7303
-5.3027 4.4939 1.142 0 12373
-5.3003 5.1941 1.043 2 13000
-5.2971 3.3048 0.73012 0 11189
-5.2863 -7.2973 0.84067 1 7347
-5.2835 -7.9493 1.1162 0 7241
-5.2835 6.2037 1.3388 0 13815
-5.283 2.749 0.83699 1 10613
-5.2805 7.8434 1.5534 1 14864
-5.2787 -0.93743 0.75348 0 8226
-5.2787 3.148 0.71874 2 11029
-5.2751 0.85532 1.0069 2 8991
-5.2682 -5.7674 1.2833 2 7775
-5.267 1.2664 0.63349 0 9277
-5.2667 4.8126 1.1721 2 12696
-5.2664 -7.222 0.41683 1 7353
-5.2573 7.6637 0.86705 0 14778
-5.2562 8.06 1.1253 2 14996
-5.2484 5.8106 0.7305 0 13552
-5.2476 8.0467 0.67175 0 14992
-5.2456 8.093 1.1278 2 15024
-5.2414 -6.7281 0.39773 1 7473
-5.2402 -7.2337 0.41655 2 7345
-5.2349 4.8953 0.83814 0 12790
-5.2261 -8.1687 0.45223 0 7188
-5.2211 -7.0715 1.0279 0 7374
-5.2161 2.2313 0.66345 0 10163
-5.2136 -3.7602 0.59971 1 8140
-5.2129 4.0174 0.92494 2 11985
-5.2082 -7.9347 1.1099 2 7224
-5.2048 2.1378 0.79078 0 10085
-5.2018 -8.286 0.91276 1 7163
-5.2012 3.3725 1.0184 2 11330
-5.1978 -4.5359 1.2998 1 8017
-5.1933 1.5897 0.89231 2 9557
-5.1888 -5.988 0.3695 0 7674
-5.184 5.8061 1.2788 0 13608
-5.1835 -6.6946 0.39484 1 7460
-5.1781 2.0397 0.78215 0 10013
-5.1691 2.158 1.0554 0 10122
-5.1598 2.2425 0 0 10193
-5.1598 3.2619 0.71386 0 11236
-5.1505 -8.2618 0.9083 0 7156
-5.1473 5.5353 1.2418 1 13428
-5.1457 -6.187 0.94105 0 7593
-5.1412 4.1796 0.46332 0 12201
-5.1353 2.9804 0.69435 2 10944
-5.1336 1.5872 0.62838 1 9569
-5.1327 -5.8899 1.472 2 7691
-5.121 -6.8553 0.79831 0 7395
-5.1185 1.4051 0.62071 2 9417
-5.11 -5.8289 1.4605 0 7703
-5.1095 -0.60384 0.8453 0 8298
-5.109 -7.9367 -0.66004 0 7194
-5.1035 -6.2064 0.93966 2 7571
-5.1023 5.6488 1.2506 2 13556
-5.096 2.1989 0.64905 2 10179
-5.0931 0.65967 0.9676 2 8896
-5.0913 0.54051 0.96464 0 8829
-5.0877 7.9006 0.65711 1 15047
-5.0854 -7.6022 0.85331 1 7248
-5.085 4.1339 0.76636 0 12203
-5.0786 -6.5591 0.97009 0 7463
-5.0651 2.3964 1.0557 2 10386
-5.0581 4.9016 0.65712 2 12947
-5.0568 0.46287 0.83427 2 8784
-5.0547 0.41824 0.8333 1 8759
-5.0505 1.7716 0.87934 1 9801
-5.0491 3.5066 0.57351 2 11579
-5.0462 -7.9916 0.21943 2 7169
-5.045 -7.739 1.5178 2 7218
-5.0421 -6.3936 0.9522 2 7501
-5.0397 2.4211 0.78577 1 10415
-5.0355 -6.4266 0.95476 2 7487
-5.035 1.5087 0.61467 2 9525
-5.0333 2.418 0.653 1 10413
-5.0311 3.2015 0.69737 1 11259
-5.0296 0.19673 0.94835 1 8655
-5.028 2.6342 0.79774 1 10635
-5.0224 7.9477 1.3213 2 15131
-5.0209 3.4469 0.85591 0 11536
-5.0132 4.8581 0.48816 0 12945
-4.9901 -5.7587 1.4357 0 7680
-4.9901 4.3531 0 0 12485
-4.9875 -7.5525 0.84439 2 7232
-4.9813 4.2215 0.76357 0 12370
-4.9757 -6.1642 1.3015 2 7543
-4.9702 4.1853 0.75986 2 12344
-4.9613 -5.339 1.0243 0 7808
-4.9563 7.898 1.3105 0 15158
-4.9445 0.62639 0.58284 0 8886
-4.9425 4.3635 0.77101 1 12542
-4.942 5.8028 0.89134 2 13811
-4.9343 -8.2806 1.3547 2 7104
-4.9334 2.2462 0.76183 2 10299
-4.9227 -6.4736 0.75874 2 7427
-4.9175 6.4225 0.94593 1 14299
-4.9138 4.9035 1.3079 1 13083
-4.9108 0.60819 0.57866 0 8877
-4.9108 3.0638 1.0905 2 11195
-4.9068 4.8659 1.302 1 13056
-4.9056 -8.2884 1.3536 2 7094
-4.9041 -6.2185 0.73886 1 7500
-4.9003 0.62079 0.6942 2 8887
-4.9003 5.7193 1.419 1 13788
-4.8903 -6.6233 0.38394 0 7372
-4.8839 3.1668 0.54305 0 11324
-4.8819 3.3515 0.69249 1 11534
-4.8813 4.3338 0.76334 0 12567
-4.8801 -8.1897 0.22134 0 7099
-4.878 2.8129 1.0609 2 10929
-4.8739 -0.16339 0.8012 0 8477
-4.8656 -5.9914 1.4542 2 7552
-4.8635 -0.17749 0.79958 0 8466
-4.8558 5.5331 1.0346 0 13678
-4.8496 2.6123 0.64417 1 10713
-4.8462 6.641 1.1554 2 14513
-4.8447 -8.2941 0.22301 1 7072
-4.8432 6.4411 1.1326 0 14379
-4.8417 5.5874 1.0391 1 13731
-4.8312 -7.1357 1.2111 1 7262
-4.829 1.6637 0.83914 2 9764
-4.8269 2.5654 0.76824 0 10674
-4.8205 4.1801 1.0483 2 12468
-4.8189 0.31331 0.90984 2 8717
-4.8185 -6.5261 0.56726 1 7373
-4.8116 -5.3307 0.83977 1 7753
-4.8096 3.0217 1.0702 0 11219
-4.8091 0.48086 0.56519 0 8808
-4.8059 -6.2068 0.73236 2 7462
-4.8026 2.3248 0.62396 1 10429
-4.7953 -6.0113 0.89924 2 7522
-4.7891 -6.0727 1.4571 1 7504
-4.7854 3.6429 1.1331 0 11936
-4.7829 -7.723 0.42363 0 7148
-4.7819 1.8673 0.72147 2 9997
-4.7801 7.7156 1.4912 2 15217
-4.7768 3.593 0.69899 1 11884
-4.7765 3.6361 0.84367 2 11933
-4.7752 2.5529 0.761 0 10694
-4.7715 -8.228 0.22083 0 7062
-4.7588 -6.146 0.54354 2 7461
-4.7582 -8.258 0.66645 2 7055
-4.7547 -5.9242 0.88832 1 7533
-4.751 -6.3973 0.55721 0 7383
-4.7484 0.48902 0.55822 0 8818
-4.7415 -5.7376 0.87043 1 7583
-4.7412 1.7107 0.82811 2 9856
-4.7399 -6.6598 0.95592 0 7316
-4.7359 2.2064 0.73428 1 10348
-4.7279 -8.0425 0.65236 2 7082
-4.7247 -6.6779 0.95662 1 7310
-4.7221 -8.1429 0.65822 0 7064
-4.7138 -5.9092 1.4242 1 7526
-4.7048 -8.0032 0.86612 2 7083
-4.6863 -8.7107 0.46127 0 6966
-4.6697 5.1391 1.3083 2 13533
-4.6632 3.573 1.1068 2 11963
-4.6594 3.5908 1.1083 1 11989
-4.6594 8.2455 0.66227 0 15586
-4.6526 2.5588 0.74625 2 10778
-4.6332 -8.2058 0.21878 0 7028
-4.6304 -6.5884 1.1318 1 7304
-4.6279 -6.6265 1.1359 1 7295
-4.614 -7.7003 1.0498 2 7110
-4.609 0.12632 0.64799 1 8622
-4.5953 1.8417 0.11494 1 10038
-4.595 6.9979 0.78104 2 14966
-4.5914 5.053 0.79842 1 13527
-4.5911 -7.8598 0.84922 1 7074
-4.5846 -0.40755 0.53824 0 8347
-4.584 2.6083 0.74124 2 10888
-4.5814 1.8986 0.69698 2 10102
-4.579 -4.9276 0.31369 0 7805
-4.5741 6.4627 0.73868 2 14647
-4.5718 1.9406 -1.3002 2 10150
-4.5714 6.0052 1.422 2 14330
-4.5707 -7.1005 0.98751 2 7199
-4.5704 -6.963 0.38841 0 7222
-4.566 -8.4235 1.8052 0 6983
-4.5626 5.1717 1.2994 1 13656
-4.5484 -8.1117 0.43369 0 7019
-4.5438 -5.0606 0.95584 1 7743
-4.5425 0.085636 0.63853 0 8599
-4.5415 2.8533 0.62721 0 11213
-4.5314 -6.4884 0.92549 1 7294
-4.5265 5.985 1.4138 2 14356
-4.5261 2.7346 0.74318 0 11076
-4.525 6.2418 0.90156 0 14539
-4.5229 6.8463 1.1532 2 14943
-4.5222 -7.9059 1.4964 1 7049
-4.5206 2.713 0.74096 2 11053
-4.5197 -7.3408 0.40202 1 7139
-4.5196 3.5655 1.0846 1 12089
-4.5157 6.8771 1.1563 0 14969
-4.5071 2.0218 0.81158 1 10268
-4.5061 -8.313 0.44096 1 6976
-4.5004 5.7026 0.84953 1 14171
-4.4917 -6.47 0.92108 2 7288
-4.4858 -5.6233 1.011 2 7523
-4.4787 -3.4941 -0.13188 0 8100
-4.476 -7.7184 1.4659 2 7068
-4.4751 4.729 1.0697 1 13350
-4.4735 0.79201 0.53127 0 9032
-4.4695 5.1253 1.2813 2 13709
-4.4649 -6.9361 1.1593 0 7200
-4.4644 5.8307 1.2065 1 14302
-4.4636 -8.1766 0.8691 2 6986
-4.459 -8.0609 0.42959 2 7002
-4.4561 1.9062 0.91317 0 10168
-4.4552 -6.7876 1.3339 0 7226
-4.4523 0.77465 0.52849 1 9022
-4.4505 -7.0481 0.58289 1 7170
-4.4504 5.3816 0.98145 2 13960
-4.4474 -7.775 0.83566 2 7046
-4.4456 -8.2633 0.87541 2 6968
-4.4428 -7.8686 0.42139 0 7029
-4.4384 -6.895 0.5734 1 7197
-4.4356 2.4557 0.83298 0 10803
-4.4323 -7.9048 0.8455 1 7021
-4.4288 -7.0547 0.58247 2 7162
-4.4269 -6.6604 1.124 2 7242
-4.4263 6.0655 0.8781 0 14512
-4.4148 6.6423 1.1209 2 14916
-4.4139 3.0098 0.87772 2 11514
-4.4109 3.6283 0.93835 1 12252
-4.4104 1.7222 0.89206 2 10001
-4.4099 -7.3596 1.2058 0 7111
-4.409 0.50623 0.83615 1 8852
-4.4079 -0.63676 0.83911 0 8259
-4.4053 7.5417 0.81485 2 15456
-4.396 -6.6568 0.37202 0 7230
-4.384 0.50337 0.725 1 8851
-4.3836 8.0267 1.0695 2 15721
-4.3833 2.614 0.83849 2 11033
-4.3746 -7.2491 1.1899 1 7116
-4.3723 -3.9757 0.41324 0 7985
-4.3643 2.0807 0.91095 1 10401
-4.362 5.9057 0.85859 2 14457
-4.362 7.8822 1.0535 2 15671
-4.3594 3.8923 0.68343 0 12592
-4.3567 3.7355 0.67112 0 12417
-4.3499 0.8621 0.72857 2 9114
-4.3444 -6.9687 0.57424 2 7155
-4.3435 1.1525 0.7383 0 9380
-4.3365 -8.844 0.68878 2 6868
-4.3347 -8.4056 0.21957 0 6917
-4.3313 -8.9597 0.69589 2 6852
-4.3259 -5.6214 1.3364 1 7454
-4.3195 -8.141 0.85981 1 6954
-4.3147 4.7203 0.89878 1 13504
-4.3125 -7.8998 0.41972 0 6984
-4.3012 2.6317 0.70867 0 11122
-4.2995 5.8917 1.3742 1 14517
-4.2992 -0.081048 0 1 8510
-4.2975 3.7069 0.66369 1 12439
-4.2876 -6.6607 0.36941 1 7196
-4.2875 0.44156 0.81208 1 8820
-4.2829 0.78374 0 0 9055
-4.2646 -6.9265 1.1432 0 7143
-4.2635 1.868 0.10807 2 10209
-4.2624 -5.7393 0.66696 0 7384
-4.2572 2.325 -0.22621 0 10748
-4.2498 -8.6673 1.3567 1 6871
-4.2422 5.921 1.3723 1 14597
-4.2319 -7.8661 0.6246 1 6967
-4.229 -7.8019 0.62055 2 6977
-4.2247 3.0638 0.73344 1 11745
-4.2242 8.5394 1.1141 2 16108
-4.2173 -7.5213 0.60297 2 7020
-4.2079 0.78217 0 2 9066
-4.2052 -7.3516 0.59223 1 7045
-4.2051 -7.9253 1.2609 1 6956
-4.2 -8.2572 0.43201 0 6905
-4.1979 -4.5957 0.14451 0 7772
-4.1966 4.6185 1.0253 1 13531
-4.1929 -7.0841 0.96266 0 7093
-4.1922 2.8587 0.71312 2 11512
-4.1903 -7.8412 1.2495 1 6962
-4.1892 8.5362 0.88712 0 16134
-4.189 2.6656 0.69781 2 11261
-4.1879 -7.028 0.38152 2 7100
-4.1848 -6.845 1.5116 2 7136
-4.1836 -7.3138 1.5875 0 7051
-4.1784 -0.42 0.19584 0 8326
-4.1729 1.4638 0.83318 2 9803
-4.1708 -5.3867 1.1193 0 7465
-4.1639 -7.0352 0.38124 0 7091
-4.1513 -7.2988 0.98194 2 7040
-4.1511 2.7268 0.93576 2 11375
-4.1467 3.8587 1.0672 2 12770
-4.1403 -7.7476 0.40965 1 6960
-4.137 -8.6192 0.66855 0 6845
-4.1366 -8.3734 0.21684 2 6875
-4.1364 2.2749 0.77558 2 10780
-4.1316 6.3355 1.063 0 14997
-4.1089 7.0344 0.95267 2 15458
-4.1087 3.7782 1.0517 2 12721
-4.1037 7.0764 0.95662 0 15484
-4.102 3.642 1.0335 2 12572
-4.1019 -7.5674 0.19984 0 6975
-4.0989 6.3238 1.0591 2 15025
-4.0981 -5.4541 -0.15839 2 7404
-4.0913 -6.8659 0.55889 0 7101
-4.0902 -6.9107 0.56154 0 7092
-4.0875 3.6495 1.0324 1 12598
-4.0768 4.5405 1.0026 0 13582
-4.0723 -5.6547 -0.32497 0 7333
-4.0705 -7.6716 0.405 1 6952
-4.0693 -5.7177 1.153 2 7318
-4.0611 -7.8749 0.4132 2 6918
-4.0585 -5.8459 0.49764 0 7286
-4.0569 6.259 1.4053 1 15027
-4.0556 -5.7322 1.1536 2 7311
-4.0553 2.7148 0.91947 2 11444
-4.0422 -5.646 0.64783 0 7327
-4.0382 -5.7457 0.49109 1 7301
-4.0358 5.9586 0.67142 0 14832
-4.0348 -7.294 0.58289 2 7003
-4.0345 -5.8462 0.66269 1 7279
-4.0333 7.2882 0.77713 0 15669
-4.0303 5.8054 1.1611 0 14730
-4.0252 -7.0369 0.94802 0 7047
-4.0116 -8.1815 0.42493 2 6867
-4.01 -7.1957 1.3534 1 7014
-4.006 -5.662 0.64709 2 7309
-4.0047 5.9484 0.66901 0 14858
-4.0023 7.9197 1.0377 1 16027
-3.9928 7.2628 0.77323 0 15693
-3.9893 3.0744 0.82746 0 11987
-3.9838 -5.9241 0.66604 1 7254
-3.977 7.087 0.95035 1 15618
-3.9554 -2.6639 0.22239 0 8177
-3.9495 -7.5998 0.79906 2 6929
-3.9492 6.1327 1.1984 0 15053
-3.9433 -7.0327 1.1331 2 7023
-3.9409 -6.577 0.53615 1 7109
-3.9325 -7.1591 0.57117 2 6993
-3.9322 8.7007 1.5687 2 16430
-3.9201 1.1367 0.19034 0 9482
-3.919 6.2016 0.68443 2 15128
-3.9182 -7.7032 0.8063 2 6907
-3.9176 -7.7622 0.608 1 6899
-3.9074 5.696 1.1348 1 14783
-3.9013 7.5553 0.7933 0 15940
-3.8999 -7.7778 0.60842 2 6892
-3.8991 -8.1893 0.42298 1 6836
-3.8974 5.6454 1.1271 1 14757
-3.895 8.6871 1.5641 1 16455
-3.8879 4.0613 0.39315 0 13289
-3.8837 7.685 0.80333 0 16025
-3.8799 -8.4589 1.7534 2 6804
-3.8753 3.0408 0.80931 2 12061
-3.8735 -0.33276 0.54639 1 8353
-3.8734 7.5562 0.79218 1 15967
-3.8716 -0.48086 0.73505 0 8287
-3.8682 -7.6049 1.1991 2 6909
-3.8601 0.083552 -0.08964 0 8605
-3.8594 6.4358 1.0547 2 15349
-3.8558 -6.9703 1.1195 1 7006
-3.8536 -7.6855 1.2083 1 6894
-3.8509 -6.5927 1.073 1 7076
-3.8411 0.69182 -0.090615 0 9042
-3.8409 -6.0035 0.66492 2 7189
-3.8349 -4.1762 0.26441 0 7782
-3.8279 7.3097 -1.3557 0 15868
-3.8204 -5.6068 1.2783 1 7269
-3.818 -7.898 1.4413 1 6856
-3.8147 5.8854 0.65433 2 15022
-3.803 -7.6411 0.59684 1 6884
-3.7993 -8.6798 0.88396 2 6750
-3.7954 6.3292 0.68852 2 15346
-3.794 -7.7376 0.20008 1 6866
-3.7922 8.6593 1.5531 1 16540
-3.7735 3.1776 0.92946 2 12350
-3.7728 -8.6893 1.5564 2 6743
-3.7681 -8.5394 1.7586 2 6762
-3.7613 0.64361 0.44625 0 9014
-3.7566 5.9446 0.82235 2 15130
-3.7562 -7.3339 0.57619 0 6913
-3.753 3.1805 0.92687 2 12375
-3.7414 8.6749 1.5521 2 16595
-3.7361 -5.6575 0.79284 2 7233
-3.7333 7.7159 1.0024 2 16189
-3.731 -8.4554 0.43099 2 6756
-3.7242 -0.070209 0.26047 1 8511
-3.7229 -8.852 1.8093 1 6713
-3.708 -0.2749 0.61087 0 8375
-3.6995 -8.4518 0.43024 1 6748
-3.6915 -8.5021 1.7464 2 6744
-3.6915 -6.9077 1.4757 1 6964
-3.6689 -7.6439 0.3954 1 6844
-3.6629 -6.9975 0.92363 0 6938
-3.6621 8.5651 1.5304 1 16621
-3.6575 6.0178 1.3268 1 15299
-3.6563 -6.8909 0.91225 1 6955
-3.6541 -8.6885 1.5486 2 6712
-3.643 5.994 0.82026 2 15295
-3.6221 -7.2774 1.5316 1 6889
-3.6111 -7.6984 0.5946 0 6822
-3.6089 6.261 0.67421 2 15509
-3.6078 -3.0934 0.8954 1 8033
-3.5934 -5.6557 0.31248 0 7178
-3.5701 5.2375 1.1942 1 14812
-3.5655 -6.4456 0.17102 0 7001
-3.5639 6.0575 0.82188 1 15432
-3.5573 -6.8451 1.4534 2 6934
-3.551 0.43978 0.16686 0 8876
-3.5504 1.507 0.089547 0 10147
-3.5376 6.3038 0.6744 1 15616
-3.5288 -5.9621 1.3053 2 7097
-3.5288 5.9598 1.305 1 15409
-3.5191 -6.6803 0.88298 0 6946
-3.5176 -8.9436 1.1239 2 6623
-3.5152 -7.8473 0.80221 1 6775
-3.4959 -7.8041 1.4049 2 6778
-3.4899 -8.3675 0.42279 2 6696
-3.4881 5.856 1.2842 1 15380
-3.4818 0.80641 0 0 9238
-3.4811 -8.4836 0.42764 1 6675
-3.4661 -7.1192 1.1128 0 6862
-3.4552 -6.6487 0.87624 1 6930
-3.4545 -8.3522 1.057 1 6689
-3.4509 6.6347 1.051 2 15916
-3.4394 -8.382 1.0595 2 6678
-3.4389 -8.0508 0.40826 2 6723
-3.4371 -5.4433 1.0577 1 7173
-3.4289 0.80425 0 2 9252
-3.4239 -7.4067 0.18945 0 6806
-3.4203 -8.0694 1.0249 0 6717
-3.4152 5.3035 0.88653 2 15051
-3.4111 -7.4368 0.18996 1 6798
-3.4081 -7.2657 0.9385 1 6824
-3.4074 -8.2383 1.6797 2 6691
-3.4023 8.4252 1.4928 1 16820
-3.3977 -8.0789 1.0249 2 6710
-3.392 -7.941 1.0098 2 6726
-3.3777 8.8778 1.5606 2 17009
-3.3738 7.2916 1.32 1 16347
-3.3737 -6.6845 1.2302 1 6902
-3.3722 6.7194 1.0566 0 16058
-3.3669 5.3966 1.045 1 15190
-3.3442 -7.4655 0.95662 1 6776
-3.344 -0.31727 0.55186 0 8336
-3.3358 -4.6594 -0.13304 0 7323
-3.3207 6.5257 1.029 2 16001
-3.2856 5.8144 1.2583 1 15595
-3.2674 5.9829 0.95807 1 15723
-3.2669 6.6567 1.0421 1 16138
-3.2571 -8.5653 0.64078 1 6587
-3.2486 8.3236 1.0449 2 16925
-3.2456 -8.6947 1.0853 1 6570
-3.2311 5.6441 1.2253 0 15539
-3.2277 -6.8283 1.2409 2 6833
-3.2244 -0.19269 0.22587 0 8407
-3.1983 -6.5227 1.1935 2 6872
-3.1941 -2.0997 0.53721 0 8189
-3.1851 -0.18031 0.22308 0 8414
-3.1734 -9.0567 1.1222 0 6511
-3.1653 -9.11 1.1278 0 6502
-3.1636 -7.9014 0.59516 1 6641
-3.157 4.4903 -1.4369 0 14674
-3.1531 5.8559 1.0927 0 15782
-3.1492 -4.9224 -0.27251 0 7186
-3.1419 -2.5244 0.56643 0 8077
-3.1373 -7.4596 1.1373 1 6711
-3.1363 6.2495 0.8177 0 16056
-3.105 -7.8946 0.59321 1 6621
-3.1041 -2.9913 0.10008 0 7939
-3.1002 6.4562 1.1767 1 16217
-3.0818 6.6605 1.3827 2 16349
-3.0763 8.4568 0.83956 0 17130
-3.0675 8.3552 1.2509 2 17106
-3.0635 8.2729 1.0317 1 17079
-3.0513 -2.1199 0.52218 1 8161
-3.0436 6.533 1.0129 0 16320
-3.0419 6.1983 1.3009 1 16141
-3.0245 -8.7939 -0.21591 0 6490
-3.024 -5.6994 -0.60194 0 6951
-3.0236 5.0761 0.55122 0 15375
-3.0229 0.37438 0 0 8875
-3.002 6.8 1.4005 0 16513
-3.0007 -2.5883 0.36971 0 8026
-2.9882 -2.0893 0.51244 0 8157
-2.9879 8.2809 1.2372 1 17158
-2.9445 -8.0944 1.0073 0 6544
-2.9356 2.621 -1.1285 0 12590
-2.88 8.4406 1.4652 2 17304
-2.8767 2.2042 0.169 0 11954
-2.8683 -2.2378 0.68543 1 8102
-2.8462 -2.2341 0.68173 0 8096
-2.7514 -5.7787 0.1486 0 6835
-2.7455 -1.8159 0.3071 1 8186
-2.7443 -5.8506 0.15003 1 6821
-2.7438 1.6682 -1.3413 0 11090
-2.7335 -1.8196 0.30636 1 8183
-2.7238 6.5792 1.3416 2 16740
-2.6903 -2.1118 0.56191 0 8095
-2.6507 -2.3001 0.49323 0 8021
-2.6355 6.6361 1.1731 0 16874
-2.624 3.3071 0.29521 0 14144
-2.6119 6.6307 1.3427 2 16903
-2.6012 2.8139 0 0 13446
-2.5901 2.8187 0 0 13472
-2.5746 6.6516 1.3438 0 16958
-2.5505 1.6856 0.070979 0 11388
-2.5241 4.1239 0.56542 0 15268
-2.51 3.659 -1.0514 0 14780
-2.3896 -6.02 -0.30205 0 6628
-2.3377 -5.2977 0.67716 1 6759
-2.3 -6.103 0 0 6574
-2.2584 -2.8139 0.16826 2 7530
-2.1775 -2.4838 -0.076688 0 7696
-2.1656 -2.1732 0.57804 0 7910
-2.1606 -4.936 -0.25127 0 6746
-2.1035 8.1277 -1.1799 0 17862
-2.0704 -2.7385 -0.079706 0 7413
-2.0153 3.1695 -0.17515 0 15092
-2.015 -6.7333 -0.32776 0 6354
-1.9582 9.0648 -0.43248 0 18199
-1.921 -5.2352 -0.12947 0 6549
-1.8805 6.9357 0.16684 1 17786
-1.8794 3.4671 0.18391 0 15746
-1.8413 3.6978 -0.095907 0 16074
-1.7983 -2.7755 0.076781 1 7204
-1.7759 -4.0572 -0.10282 0 6747
-1.74 7.5187 0.90249 1 18088
-1.7059 -3.7468 0.095582 0 6789
-1.6771 -4.2992 -0.10714 0 6609
-1.6485 5.178 0.25341 0 17462
-1.6434 -6.936 0 0 6151
-1.6426 -4.4003 -0.21904 0 6565
-1.5719 -3.0482 0.23982 1 6919
-1.5224 5.6149 1.0961 0 17796
-1.4946 8.1678 -0.97102 0 18410
-1.4884 4.9673 0.48378 0 17596
-1.4491 2.7485 0.072139 1 15856
-1.4253 5.2567 -0.76545 0 17774
-1.4162 -7.879 -0.37332 0 5944
-1.3254 -3.6753 0.090708 2 6532
-1.3172 -7.3282 0.69465 2 5947
-1.2942 4.5586 0.11002 0 17701
-1.2826 4.5722 -0.11025 0 17720
-1.2597 3.9929 0.097207 0 17486
-1.2591 3.9124 0 0 17436
-1.2007 -3.8454 0.37584 1 6399
-1.1934 -9.664 0.22607 0 5802
-1.1737 -3.7272 0.642 2 6416
-1.1537 -6.1235 0.29059 1 5975
-1.1193 5.1814 0.87091 1 18212
-1.0977 -4.0514 0.19574 1 6264
-1.0883 -3.4557 0.084116 0 6410
-1.0768 -3.4488 0.083884 0 6397
-1.0493 -3.7811 0 2 6285
-1.033 -3.5279 0 0 6336
-1.0292 -3.5519 0 0 6326
-0.97358 -7.5373 0.17645 0 5815
-0.951 -6.4714 -0.30503 0 5846
-0.95091 5.4597 -0.51704 0 18476
-0.94957 -9.4967 1.7982 1 5746
-0.93555 2.9654 0.437 1 17492
-0.90118 -5.6706 -0.26776 0 5875
-0.89336 2.9515 0.58101 0 17579
-0.88782 -3.7912 0.18158 0 6143
-0.88551 -9.7114 0.90978 0 5729
-0.87572 6.0621 0.4283 0 18676
-0.8497 6.0155 0.42482 0 18694
-0.8292 -3.8944 0.18568 0 6062
-0.78552 5.4377 0.51258 1 18678
-0.78483 -4.8564 0.92687 2 5889
-0.77648 6.9444 0.65192 0 18870
-0.77412 -3.5895 0.34259 0 6076
-0.77319 -7.3073 0.68554 0 5762
-0.77039 5.4539 0.51388 1 18696
-0.76509 -5.3159 0.50106 1 5840
-0.76038 5.4938 0.64859 0 18714
-0.74694 2.9562 0.50095 0 17921
-0.7439 2.9814 0.50484 0 17944
-0.73981 -4.1158 0.29242 0 5946
-0.73738 7.1722 0 0 18920
-0.73455 -4.9033 0 0 5854
-0.72654 -4.7535 0.67582 1 5860
-0.71308 5.9186 0.69714 0 18824
-0.68874 5.4367 0.77018 0 18787
-0.65018 -5.6713 -0.13253 0 5781
-0.63577 -7.733 0.90737 0 5710
-0.62364 4.2438 -0.40018 0 18645
-0.61725 3.9507 -0.37305 0 18589
-0.60438 4.1127 0.78319 0 18661
-0.59467 -4.7073 0.11016 1 5809
-0.58983 4.083 0.77727 0 18682
-0.5888 -5.1359 0.48229 2 5783
-0.57985 -4.8198 0.91465 0 5798
-0.55913 -7.3167 0 0 5696
-0.53517 -4.4485 0.41801 0 5797
-0.53158 -4.5251 0.42507 0 5790
-0.51456 4.0618 0.38197 0 18785
-0.50869 -3.9382 -0.092193 0 5814
-0.48721 -4.4776 0 0 5770
-0.48406 -4.5748 0.75581 0 5764
-0.47329 -4.473 0 0 5761
-0.4621 8.6159 1.4176 0 19238
-0.45517 -4.5521 0.3199 0 5745
-0.41677 6.3928 0.74917 0 19171
-0.40919 -8.1055 0.18843 0 5644
-0.39145 -4.293 -0.10008 0 5728
-0.35221 -3.5224 0 0 5743
-0.34219 -4.0079 0.56532 0 5717
-0.30992 -7.4255 0.17255 0 5624
-0.29378 3.972 0.46576 0 19118
-0.28599 -8.6667 1.6338 0 5601
-0.27845 -3.7827 -0.088062 0 5689
-0.27015 -6.4725 0.453 0 5625
-0.26356 -3.7317 -0.086855 0 5680
-0.25264 -6.5172 0.45607 0 5615
-0.23323 8.5641 1.6142 1 19374
-0.23291 -4.3711 0.30609 0 5650
-0.2284 -5.1286 0.96723 0 5632
-0.21144 -5.4544 -0.12673 0 5614
-0.19426 -6.5068 0.60733 0 5594
-0.18629 -4.8056 0.5624 0 5617
-0.1726 -4.822 0.56426 0 5608
-0.14788 -6.1834 1.1653 0 5581
-0.13645 -5.0428 0.11712 0 5587
-0.12374 -5.174 0.48285 0 5580
-0.08841 -3.2673 0.61582 0 5588
-0.034106 -3.5529 0.082491 0 5545
-0.018756 -4.8846 -0.11341 0 5535
-0.013551 9.7023 0.67845 0 19513
-0.0033689 -3.2171 -0.074692 2 5528
0.04354 -5.5435 0.91079 0 5515
0.049213 -6.2658 0 0 5513
0.051424 -6.5474 0.61086 0 5514
0.077958 -4.7013 0.54986 0 5498
0.084365 -3.3561 0.39259 0 5476
0.096636 9.2275 -0.43034 1 19571
0.097653 -9.024 1.0553 0 5508
0.10001 -5.1155 -0.2386 0 5492
0.12538 -7.5609 -0.17557 0 5497
0.15172 -6.0355 0.28155 0 5474
0.15742 -3.4667 -0.16183 0 5427
0.16993 -4.2681 0.39851 1 5440
0.17656 8.0273 -0.93896 0 19622
0.1783 9.4579 -1.1062 0 19609
0.18554 -6.6426 0.61996 0 5466
0.19452 -7.7379 0.72214 0 5475
0.20766 -9.2937 0 0 5486
0.21926 -8.7223 1.4335 0 5477
0.22407 -6.6151 0.77403 0 5454
0.2422 8.7807 0 0 19652
0.24742 -4.1281 -0.19286 0 5396
0.25416 3.0653 0.43227 0 19841
0.26183 -4.1733 -0.195 0 5392
0.2796 7.6984 -0.90086 0 19682
0.29803 9.6993 0.90532 0 19665
0.31795 3.0768 -0.071814 0 19907
0.32044 -8.7388 0.61149 1 5448
0.3298 4.2667 0.39925 0 19825
0.33444 -5.089 0 0 5387
0.35419 8.3462 0.77936 0 19704
0.38139 3.0021 -0.42531 1 19974
0.38713 -5.4007 0.12571 1 5379
0.3919 -8.1292 0.7593 0 5422
0.43214 4.0571 -0.2853 0 19917
0.46159 -5.3513 0.75487 0 5352
0.46961 4.4088 -1.4981 0 19921
0.49556 -6.6217 0.15417 0 5374
0.53224 -3.2681 0.076874 1 5212
0.53666 -7.4868 -0.17427 0 5378
0.5371 -3.3645 0.079102 0 5218
0.54266 -6.5169 0.76474 0 5357
0.55678 -5.3604 0.63023 0 5324
0.55904 4.4006 0.83578 0 19983
0.56364 3.1771 0.53013 0 20118
0.57349 4.7391 -1.3688 0 19965
0.57724 -3.8304 0.45299 0 5235
0.579 -5.5743 0.39189 0 5323
0.57994 -5.1541 0.12042 1 5306
0.59892 -5.1922 0.12135 0 5299
0.60078 -7.4833 1.2334 0 5364
0.60218 -5.0802 0.47728 0 5293
0.63436 6.917 0 0 19867
0.6695 -4.6175 0.43529 0 5246
0.67734 3.173 -0.53305 0 20200
0.68242 -9.9334 1.876 0 5383
0.69331 -6.3204 -0.14762 0 5312
0.69779 -3.7945 0.72691 0 5171
0.71095 5.1235 0.12009 0 20012
0.74598 -4.4246 0.8454 0 5200
0.7478 6.4928 -0.91854 0 19946
0.75157 -4.5301 0 0 5207
0.77607 -6.1004 1.0103 0 5276
0.78777 -5.6626 0.53339 2 5257
0.79332 3.1329 -0.92669 0 20309
0.79489 -5.9733 0 0 5266
0.80284 6.6343 -0.31164 0 19962
0.80826 -4.1273 0.39238 0 5152
0.81152 -6.0983 0.71944 0 5267
0.83004 6.2542 -0.73779 0 19993
0.85432 6.0329 -0.42607 1 20020
0.88937 -3.3853 0.40932 1 5038
0.90145 -3.3903 0.41024 0 5032
0.92328 -4.3813 0.52361 0 5127
0.92471 -7.4346 0.34938 0 5281
0.94585 3.9307 0.76172 0 20278
0.96545 -8.3697 1.1841 0 5300
0.96992 4.0745 0.78912 0 20270
0.97458 -3.5846 0.4344 0 5022
0.99234 -8.6029 1.4228 0 5301
0.99422 3.9758 -0.38234 0 20297
0.99492 4.0293 0.68188 1 20294
1.0307 4.1742 -1.3416 0 20291
1.0631 -6.7732 1.1264 0 5225
1.1297 -3.9268 0.76986 1 4977
1.1487 -5.5274 0.6602 1 5132
1.1501 -6.8217 0.64541 0 5199
1.1619 -6.7692 0.64077 0 5192
1.1798 -5.7682 -0.27456 0 5137
1.1973 3.6761 -1.2064 0 20521
1.2049 -3.2467 0.65248 0 4789
1.2058 -6.1574 0.8818 1 5153
1.2077 -6.1672 0.1459 0 5151
1.2257 -6.3532 0.90936 1 5158
1.2483 -3.1625 0 0 4776
1.2774 -3.1053 -0.2348 1 4767
1.2876 -3.1551 -0.23829 1 4768
1.3063 -2.9519 0 0 4738
1.3112 6.2327 0.29702 0 20198
1.3166 -3.0733 0.31193 0 4753
1.3249 3.1719 -0.98568 0 20799
1.3455 8.1454 -0.19167 0 20081
1.3474 -8.4403 0.59767 0 5219
1.3587 2.9814 0.15279 0 20936
1.3746 -6.9167 0 0 5146
1.3771 4.5929 -0.67388 0 20446
1.3933 -7.705 0.7305 0 5176
1.408 9.5349 -1.1271 0 20033
1.4148 -6.0131 0.28807 0 5080
1.4165 -5.2607 0.25407 0 5026
1.4291 5.6435 0.27149 0 20308
1.4298 3.1859 0 0 20907
1.4309 -5.263 0.25435 0 5020
1.4494 3.2056 0 0 20921
1.4715 -3.6976 -0.18559 0 4774
1.4719 4.3512 -0.97635 0 20559
1.5035 -3.2704 0.42093 0 4716
1.5195 4.9088 0.1193 0 20472
1.5407 -7.199 0.17092 0 5121
1.5704 -4.3053 0.53592 0 4794
1.5837 4.7718 0.35157 0 20540
1.5899 6.2058 -0.14873 0 20315
1.5963 4.8097 -1.2008 1 20542
1.6069 9.541 -0.22463 0 20089
1.6076 -5.1393 0.37655 0 4896
1.6142 5.809 -1.4285 0 20384
1.6165 4.4341 -0.6633 0 20616
1.6191 -5.955 0.57574 0 5021
1.6364 -7.646 1.2846 0 5122
1.6395 4.666 0.81255 0 20591
1.6518 5.7453 -0.55772 1 20407
1.6665 5.1168 -0.6293 2 20516
1.6814 7.6667 -1.1031 0 20213
1.6836 3.4275 -0.81169 0 21059
1.6927 8.4023 0.59935 0 20181
1.6944 6.0975 -0.44254 0 20377
1.6946 7.9383 0.37854 0 20204
1.7065 2.7696 0.075528 0 21454
1.7098 8.4875 0 0 20178
1.726 -4.092 0.31056 0 4760
1.7276 5.885 0.57221 0 20435
1.7403 4.6496 0.23152 0 20655
1.7513 4.4437 0.33399 0 20719
1.7531 2.863 0.077942 0 21440
1.7531 6.0978 -0.74197 0 20405
1.7708 3.2172 -1.3366 0 21236
1.7796 5.8099 -0.14108 0 20465
1.7827 -5.4157 0.93673 0 4855
1.7887 3.1208 0.083512 2 21314
1.8096 9.4062 -1.1202 1 20150
1.8376 4.5097 -1.3964 0 20759
1.8396 5.8845 -1.4608 0 20487
1.85 -5.4095 0.66856 0 4823
1.8666 6.3586 0.93135 1 20436
1.8771 7.5064 -0.36084 0 20298
1.905 -8.4393 -0.20087 0 5095
1.9593 8.2306 1.39 0 20268
1.9788 -3.9671 0.31 2 4652
1.986 -4.1939 0.54266 2 4695
1.9866 -4.1003 0.42507 0 4679
2.0025 -8.0978 0.77825 0 5063
2.0043 9.389 1.1227 0 20206
2.0113 -5.5683 0.13745 2 4797
2.0152 9.4404 1.3567 1 20207
2.0269 -5.135 -0.38603 0 4775
2.0337 -8.7669 1.6956 0 5086
2.0448 -7.521 0 0 5018
2.0647 -7.5062 0.54438 0 5012
2.0792 5.7594 -1.3015 1 20615
2.1136 -9.6132 1.8545 0 5106
2.1798 5.3496 0.67553 0 20760
2.2525 9.5883 0.22867 0 20259
2.3773 7.929 0.19219 0 20448
2.416 9.2091 -0.66576 0 20335
2.4555 8.1024 0.99007 0 20460
2.4833 9.2421 1.345 0 20357
2.8323 5.2208 0.27699 0 21214
2.8409 9.1776 1.5784 0 20476
3.0414 6.1054 -0.95862 2 21069
3.0652 8.1246 -1.4267 0 20660
3.0796 6.5533 -1.0176 0 20979
3.223 7.4693 1.3365 1 20852
3.2514 8.318 1.6827 0 20712
3.4188 7.0097 0.54536 0 21043
3.5424 8.0165 1.0249 0 20887
3.5562 -2.8035 -0.85318 0 3422
3.7332 7.547 1.5864 0 21068
3.7572 8.2445 1.0595 0 20937
4.6487 7.4977 1.0317 0 21468
5.5176 8.242 1.1599 0 21677
-14.549 0.43944 2.7425 0 8632
-13.866 -2.0871 2.3037 0 8249
-13.717 0.13646 1.9278 0 8579
-13.681 -0.45863 1.6008 0 8476
-13.607 1.8857 0.64062 1 8921
-12.557 4.7801 0.31195 1 9944
-12.322 2.2194 0.29069 1 9043
-12.309 0.91254 0.57558 1 8736
-12.287 -0.019303 1.1463 0 8554
-11.96 0.18788 1.9652 0 8592
-11.857 -0.43272 2.2355 0 8467
-11.772 0.32266 1.0987 0 8621
-11.537 -1.1963 1.9056 0 8321
-11.145 -0.052523 1.0398 0 8547
-11.039 -8.358 2.2749 0 8116
-10.755 -0.17458 0 0 8521
-10.53 1.5812 0.99339 0 8952
-10.521 -0.17079 1.4789 0 8523
-10.498 8.0903 0.61807 1 11980
-10.453 -7.2623 2.3981 0 8162
-10.408 -1.535 0.9815 0 8255
-10.04 -0.18926 1.6497 0 8513
-9.9816 -9.3439 1.2756 0 7958
-9.575 11.509 -1.3967 2 13911
-9.3143 -7.5291 0.8375 1 8072
-9.1595 -6.8922 0.26614 0 8120
-8.7017 9.9784 0.61742 1 13699
-8.6505 -7.683 1.0794 0 8002
-8.6163 -6.4435 0.24979 0 8123
-8.4346 7.9373 0 0 12812
-8.4026 -6.3964 1.9896 0 8113
-8.0383 -6.0112 1.4107 0 8124
-7.9674 -6.1802 -0.7051 0 8104
-7.9431 -7.3092 0.50338 1 7974
-7.7939 6.8375 0 0 12511
-7.5492 -6.903 1.4377 1 7980
-7.1599 7.2226 1.4293 2 13136
-6.8737 10.276 0.28702 1 14883
-6.766 9.3882 1.6264 0 14567
-6.7023 -10.476 -0.28874 0 7187
-6.5363 -8.2409 0.73551 0 7510
-6.2777 -9.63 0.53608 1 7214
-6.2713 -7.8139 0.23262 0 7529
-6.1308 -8.3552 -0.2406 0 7361
-6.1184 -12.385 1.6154 0 6879
-5.9265 12.623 1.6308 0 16292
-5.91 13.703 -1.3923 2 16574
-5.5018 8.8183 1.4608 2 15188
-5.2957 -13.576 0.33832 1 6610
-5.1717 -11.545 -0.29371 0 6772
-4.9468 -9.8015 -0.2549 0 6897
-4.8946 -13.455 1.3358 1 6543
-4.7997 -13.814 0.68198 1 6500
-4.7715 13.984 -1.3785 2 17288
-4.7401 -11.183 2.2885 1 6720
-4.6566 -13.157 0.65086 1 6517
-4.572 -11.929 2.407 0 6599
-4.3933 -9.1532 -0.47347 0 6843
-4.3628 -12.912 1.2715 0 6478
-4.2865 -12.826 1.9005 1 6471
-3.7145 -9.6014 1.9397 2 6606
-3.3546 10.12 -0.24752 2 17368
-3.186 12.016 1.4537 0 17837
-3.0986 -10.035 0.7344 2 6387
-2.8222 -10.067 1.4694 0 6301
-2.3398 1.4316 0.12792 0 11116
-2.2157 11.367 1.9026 0 18352
-2.182 0.34715 -0.051296 0 8978
-2.0912 12.687 2.4225 0 18549
-1.7795 -2.114 -0.064155 0 7609
-1.7339 1.3042 0.10118 0 11881
-1.6698 12.317 -1.1597 0 18723
-1.5553 10.583 1.2509 0 18656
-1.433 10.571 0.74598 0 18731
-1.397 11.296 -1.5997 2 18792
-1.1135 2.4265 -1.5833 1 16350
-1.0173 0.87226 -0.79472 2 12398
-1.0014 0.62115 -0.16562 2 11152
-0.91494 11.497 1.8949 0 19081
-0.65299 1.5398 -0.31513 0 16651
-0.48729 -10.942 1.0218 0 5631
-0.31783 -14.803 2.0809 0 5573
-0.21538 0.94344 -0.51454 1 18095
-0.20683 -13.465 2.5373 0 5560
-0.012571 -12.004 1.4038 0 5530
0.55499 10.314 -0.23981 0 19746
0.57052 12.612 1.1779 0 19713
0.65398 13.615 1.2717 0 19725
0.86892 -13.222 2.177 0 5388
0.88293 6.7889 -1.9631 0 19990
0.99317 11.978 1.9746 0 19842
1.0659 2.0063 -0.76764 0 21181
1.0947 4.0742 -1.8783 0 20351
1.198 11.919 0.27811 1 19900
1.2846 -12.04 -0.28113 0 5318
1.4288 10.766 1.7843 1 20001
1.7758 6.6834 -1.9829 0 20344
1.9159 5.4073 -1.5018 0 20599
2.0207 12.421 -1.7686 0 20069
2.1832 7.5939 -1.6795 0 20413
2.3114 6.5237 -1.9846 0 20598
2.3595 10.759 1.8096 0 20218
2.4232 -11.179 0.26558 0 5113
2.6596 9.8982 0.23796 0 20353
2.6921 -10.125 0.73258 0 5031
2.78 11.553 -0.27588 0 20273
2.8928 10.64 -0.51419 0 20361
3.0014 10.224 -0.99413 0 20428
3.2569 11.72 1.7096 0 20385
3.3339 11.997 1.1617 0 20382
3.395 6.7648 -1.9814 0 21084
3.5854 10.703 -0.52639 0 20548
3.7552 11.895 0 0 20491
4.51 9.1817 0.95437 0 21056
4.5328 8.2349 -1.998 2 21238
4.9353 12.112 2.1487 0 20762
5.0054 13.495 1.3428 0 20645
5.1635 9.7194 1.5468 0 21182
5.3569 9.6761 1.0318 0 21251
5.6662 8.7923 1.9708 0 21571
5.7334 8.8965 1.2377 0 21566
5.7345 10.713 1.9964 0 21193
6.4823 12.034 2.2457 0 21203
6.5969 9.3206 -1.8761 2 21822
7.3355 11.528 -1.9203 2 21516
