VERSION .7
FIELDS x y z intensity index
SIZE 8 8 8 8 8
TYPE F F F F F
COUNT 1 1 1 1 1
WIDTH 1532
HEIGHT 1
VIEWPOINT 0 0 0 1 0 0 0
POINTS 1532
DATA ascii
-5.4113 -3.775 1.2431 2 13780
-5.4088 -0.0028314 1.0191 1 14110
-5.4087 2.6814 -1.4304 1 15450
-5.4073 -0.618 -0.12636 0 13927
-5.3931 -4.585 0.49499 1 13522
-5.3885 5.2 -1.0524 0 17369
-5.3877 -8.3441 1.1615 2 12706
-5.3808 0.67116 0.50589 0 14327
-5.3772 -6.012 1.3252 1 13163
-5.3722 0.06001 -0.12473 0 14131
-5.3716 6.1014 -1.3355 0 17941
-5.3631 -5.6575 1.2808 0 13246
-5.3489 -4.2349 0.6365 2 13620
-5.3451 1.5752 0.38966 0 14749
-5.3398 7.8484 -1.3341 0 18783
-5.3344 -6.9094 1.4341 2 12956
-5.3243 1.9611 0 0 15013
-5.3232 -4.3431 0.64095 2 13573
-5.3227 2.9968 -0.14182 0 15712
-5.319 -6.0162 1.3193 1 13149
-5.3032 2.7056 0.83671 0 15501
-5.2875 3.1821 0.57574 0 15895
-5.2869 -4.471 0.9731 2 13530
-5.278 -6.7946 0.19975 0 12962
-5.2664 -4.5043 0.64653 1 13515
-5.2416 -8.1179 1.3581 2 12707
-5.2217 2.4028 0.40194 0 15331
-5.2175 5.4294 0 0 17637
-5.2139 -5.7603 0.36233 1 13177
-5.2082 5.3913 -1.4123 0 17624
-5.2081 -5.5597 0.89088 2 13227
-5.1844 -6.2535 1.5305 0 13068
-5.1782 -0.21341 0.12032 0 14040
-5.1771 2.8744 0.41407 0 15681
-5.1756 -6.2829 0.56921 0 13053
-5.1673 3.0681 -0.28025 2 15849
-5.1645 -4.4705 0.31854 0 13499
-5.162 2.7864 -0.68599 0 15608
-5.1588 -3.3399 1.0097 0 13850
-5.1461 -6.1004 1.3112 2 13085
-5.1359 -0.16679 0.1193 0 14057
-5.1256 4.8318 1.3272 0 17305
-5.1136 -5.4587 0.52303 0 13226
-5.1068 -4.5516 0.96141 2 13465
-5.1045 1.7149 0.37655 0 14898
-5.1027 -5.2253 1.3761 1 13290
-5.0844 -0.72905 0.23953 0 13899
-5.0743 -4.7384 0.81189 0 13402
-5.0711 -7.9539 0.65962 0 12689
-5.0633 -4.5128 0.63278 1 13463
-5.063 -5.0683 1.3498 2 13320
-5.0593 3.93 -0.74917 0 16625
-5.0538 4.3164 0.15431 0 16955
-5.0527 -6.0946 0.55359 0 13062
-5.0517 -5.8462 0.72084 1 13112
-5.0455 2.5942 0.5293 0 15512
-5.0449 -0.70901 0.23758 0 13905
-5.044 -0.031693 -0.47059 1 14097
-5.042 2.8179 0 0 15697
-5.0406 -4.3879 0.62349 1 13492
-5.0113 -6.1929 0.55708 0 13029
-5.0113 3.4468 -0.8548 0 16253
-5.0069 -4.5146 0.94749 2 13448
-5.0064 -4.7842 0.8098 2 13374
-4.9969 -4.9725 1.1582 2 13326
-4.9939 -3.4194 0.14052 1 13795
-4.9771 -5.4031 0.51369 0 13203
-4.9757 -6.1797 0.92781 1 13023
-4.9734 -0.3626 0.23254 0 13983
-4.9624 -6.1632 0.55331 0 13021
-4.9614 -7.8817 0.65125 0 12671
-4.9601 3.5616 0.71409 0 16396
-4.9568 -0.1324 -0.23124 0 14066
-4.9508 2.4727 -0.25807 0 15458
-4.9507 -3.8763 1.033 0 13640
-4.945 -4.3046 1.0771 2 13495
-4.94 4.3185 0.61216 0 17043
-4.9377 -4.5025 0.93914 2 13433
-4.9357 -5.6798 0.87996 2 13120
-4.9331 -7.8854 0.65041 0 12663
-4.9325 -0.34578 0.23059 0 13987
-4.9184 7.2782 1.4432 0 18823
-4.9175 1.0974 0.82779 0 14543
-4.9175 2.9969 -0.67344 0 15923
-4.8979 2.4281 0.89815 1 15452
-4.8835 -4.5603 0.46723 0 13400
-4.8814 2.1276 0.49679 0 15258
-4.8725 -5.323 0.50462 1 13194
-4.8716 -6.3099 0.93223 2 12954
-4.8583 -4.975 0.97727 0 13288
-4.8297 -0.38095 0.11248 0 13976
-4.8295 -3.9642 1.1772 1 13567
-4.8295 -3.8956 1.1691 2 13595
-4.8283 -5.6552 0.34677 1 13096
-4.8215 -8.3376 1.3536 0 12567
-4.8212 -7.8092 -0.64176 0 12644
-4.8201 -5.1132 0.98757 0 13234
-4.8146 -5.0488 1.1462 0 13254
-4.814 -5.6725 0.34695 0 13090
-4.8022 -8.3648 1.3555 0 12557
-4.8019 -3.5831 0.41896 0 13702
-4.7781 -4.5121 1.0797 2 13391
-4.7743 -7.9332 1.3013 0 12620
-4.7733 0.2886 0 0 14208
-4.7723 -8.6522 0.92186 2 12500
-4.766 -7.8757 1.2938 2 12628
-4.7593 1.8805 0.84076 0 15117
-4.7568 -4.9018 1.1222 2 13282
-4.7559 1.9593 -0.47988 1 15168
-4.7485 7.0692 0 0 18837
-4.741 -7.8344 1.5045 1 12629
-4.7294 1.4676 0.34627 0 14808
-4.7292 -5.8068 0.87578 1 13039
-4.7268 -5.6672 0.863 2 13071
-4.7095 5.8407 0.8774 0 18279
-4.7075 -5.2632 0.65879 1 13161
-4.707 -4.4186 0.75498 0 13396
-4.7045 4.8125 0 0 17576
-4.7009 -5.2264 0.65582 0 13168
-4.6975 -4.7024 0.77728 1 13318
-4.6927 -6.3026 1.4805 1 12903
-4.6889 -4.666 0.77356 2 13325
-4.6862 1.4247 0 0 14783
-4.6672 3.8941 -0.14112 0 16874
-4.6301 -4.3724 0.59414 1 13388
-4.616 -0.39086 0.65105 0 13969
-4.6131 -7.5694 0.61986 0 12633
-4.6024 -6.33 1.4746 2 12868
-4.5924 -0.002404 0.75451 1 14109
-4.5838 -5.8669 0.87067 1 12975
-4.5838 -4.133 0.72176 1 13447
-4.5836 3.4339 1.0791 0 16523
-4.5821 -4.2046 0.87401 2 13424
-4.5802 -8.7241 -0.22877 0 12435
-4.5771 -0.26792 0.64437 2 14007
-4.5739 1.9152 -0.11513 0 15198
-4.5652 -5.1636 0.96864 2 13148
-4.5594 4.351 -0.14632 2 17337
-4.5551 -6.5005 0.74053 1 12816
-4.5464 3.127 -0.25733 0 16261
-4.5418 -5.1972 0.64393 2 13128
-4.5326 -5.7681 1.031 1 12987
-4.5321 -4.4568 0.59302 1 13340
-4.5274 -4.0352 0.70922 1 13464
-4.519 -4.5238 0.59655 2 13317
-4.5057 3.0426 -1.4233 0 16212
-4.5023 0.85641 0.21372 0 14454
-4.4822 -5.6714 0.84534 1 12996
-4.4706 -4.1967 0.86176 1 13397
-4.4504 -6.0852 1.2386 0 12874
-4.45 1.7583 0.22313 0 15112
-4.4412 -4.1473 0.99834 1 13404
-4.4399 0.9243 0.21149 0 14503
-4.4393 5.3472 0.64839 0 18173
-4.4323 -6.0272 0.69799 2 12881
-4.4236 -4.0139 0.69853 2 13441
-4.4177 3.9554 -0.83337 1 17112
-4.4153 -6.0372 0.6978 0 12871
-4.4106 2.4832 0.35394 0 15716
-4.4075 2.2177 0.34502 1 15473
-4.4074 3.4658 -0.788 0 16661
-4.4061 -8.9465 0.93041 2 12363
-4.405 -8.9442 1.1659 2 12364
-4.3789 3.7189 0.94387 1 16940
-4.3767 -6.1746 0.88507 2 12830
-4.3719 -6.1999 0.88716 0 12823
-4.3461 -0.44529 -0.10143 0 13945
-4.3432 -4.9981 1.2476 2 13124
-4.3356 4.9542 -0.6142 1 17966
-4.3286 3.5467 0 2 16812
-4.3256 -4.3544 1.0084 2 13312
-4.3254 -5.0057 1.2464 0 13116
-4.3204 2.7726 0.35897 0 16074
-4.3082 0.2092 0.20115 0 14189
-4.3068 -4.1619 0.84172 2 13363
-4.3057 -8.8085 1.6108 0 12358
-4.3008 8.1779 0.86204 0 19467
-4.2737 7.7418 1.2428 0 19362
-4.26 -4.0709 1.1102 1 13377
-4.2521 -5.9218 0.85255 2 12845
-4.2465 -4.1527 0.69458 2 13349
-4.2403 -5.9425 0.85371 2 12839
-4.2397 1.3157 -0.20702 0 14806
-4.215 -5.2687 1.2713 0 13017
-4.1975 0.58469 0 0 14354
-4.1958 -5.2748 0.7882 2 13005
-4.1924 -4.5242 0.7213 2 13212
-4.189 8.023 -0.84439 0 19471
-4.1888 -0.60063 0.39479 0 13900
-4.1681 -5.8048 1.1741 2 12847
-4.1655 1.3318 0.20394 0 14839
-4.1625 -3.3961 -0.25053 1 13570
-4.1567 -4.4856 0.57054 2 13211
-4.1546 2.9471 0.83687 0 16363
-4.1525 -4.0129 0.6753 2 13362
-4.1495 1.7095 0.73732 0 15177
-4.1451 3.0683 -1.222 2 16484
-4.1448 -6.2978 1.4205 1 12738
-4.1328 -6.0836 1.3857 2 12775
-4.1312 0.033167 0.77838 1 14126
-4.1265 -4.2776 0.69505 2 13272
-4.125 3.0904 -1.478 0 16518
-4.1229 -0.097882 0.38476 0 14073
-4.107 5.219 -0.61959 1 18344
-4.104 5.9248 -1.1841 0 18722
-4.1027 -3.9883 0.80414 2 13356
-4.0677 -4.2403 0.68715 1 13263
-4.0635 -0.084408 0.37918 0 14079
-4.036 3.098 0.47468 0 16597
-4.0278 -6.5241 0.53615 0 12647
-4.0241 1.6718 0.71592 1 15190
-4.0215 -3.9326 0.7905 1 13350
-3.9106 -7.2385 1.5501 1 12480
-3.9081 1.0779 0 0 14688
-3.8923 4.5268 0.55698 0 18046
-3.8757 7.1203 -0.94802 0 19381
-3.8707 -8.2781 0.85256 0 12305
-3.8321 1.0448 0 0 14678
-3.8253 0.02003 0.35689 2 14120
-3.7667 8.7673 -1.3411 0 19816
-3.7649 7.1589 -1.1368 0 19455
-3.7623 0.41337 -0.087876 0 14297
-3.7537 3.9987 -0.12733 0 17714
-3.745 6.1765 1.1867 0 19128
-3.7432 7.0697 0.93548 0 19452
-3.7422 4.0796 0.51648 2 17806
-3.7212 3.9172 -0.75933 0 17668
-3.717 6.0918 -0.33279 2 19101
-3.6971 3.3866 -0.94465 0 17214
-3.6906 4.5251 -1.1002 0 18240
-3.6841 5.3845 -1.3868 0 18779
-3.6789 -3.3546 -0.11559 0 13429
-3.6745 0.10521 0.34296 0 14159
-3.6674 3.8836 -0.7507 1 17689
-3.6671 0.083219 0.34221 0 14150
-3.6657 2.8981 0.21792 0 16689
-3.6614 8.1279 -1.4646 0 19724
-3.6541 5.1457 0.29431 0 18662
-3.6487 8.8392 0.66869 0 19883
-3.6474 0.7037 0.69987 0 14466
-3.6369 0.86777 0.086808 0 14580
-3.6226 2.1801 0 0 15890
-3.6162 5.1225 0.14558 0 18680
-3.6131 2.1881 0 0 15910
-3.5892 -0.30392 -0.16798 0 13968
-3.5811 0.14258 0.58882 0 14176
-3.5703 7.4619 0.77175 0 19636
-3.5654 0.09087 0.33274 2 14154
-3.5551 2.1802 -1.4092 0 15948
-3.5307 8.0241 1.4403 0 19788
-3.5208 -3.0844 0.10867 0 13483
-3.5027 0.54037 0.16528 0 14381
-3.5018 -0.093533 -0.081331 0 14067
-3.4933 3.6352 0.58958 0 17644
-3.4841 -6.9244 0.36149 0 12387
-3.4737 -0.30513 -0.080959 0 13963
-3.4729 -0.31422 -0.080959 1 13959
-3.468 1.5361 0.088062 1 15279
-3.461 4.2436 0.25537 0 18234
-3.458 -2.3236 0.68447 1 13818
-3.4569 -0.12253 0.080309 1 14052
-3.4386 -0.1315 0.079892 2 14047
-3.4357 -0.60519 0.65729 0 13883
-3.4322 6.393 -0.16846 0 19417
-3.4272 3.6933 -0.70811 2 17747
-3.4107 0.49574 0.40304 1 14365
-3.4081 -0.080912 -0.079149 0 14072
-3.4081 0.48565 0.40258 1 14360
-3.4023 -0.52852 0.079938 1 13894
-3.3929 -4.9017 0.83782 0 12800
-3.3657 5.9731 1.1264 0 19315
-3.3374 -4.6206 -0.26581 0 12852
-3.3297 -0.32179 0.3912 0 13950
-3.3275 -5.9102 -0.63278 2 12521
-3.3233 -8.5503 1.0728 0 12082
-3.2983 2.2542 -1.1455 1 16247
-3.2918 2.5268 -0.48528 0 16585
-3.2905 5.5706 0.60361 0 19196
-3.277 0.95453 0.31843 2 14738
-3.2666 0.25422 0.15279 0 14242
-3.2664 0.94095 0.31713 1 14727
-3.2654 -0.30522 0.38353 1 13955
-3.2599 -7.8469 0.79274 0 12168
-3.2578 -3.9296 -0.23804 2 13061
-3.2369 9.4328 0.93041 0 20143
-3.2342 5.1979 1.0058 0 19061
-3.2286 2.4622 -0.47482 2 16564
-3.1918 8.5732 1.2857 0 20010
-3.1874 0.60629 0.53305 0 14455
-3.1866 3.8849 0.70616 0 18216
-3.1727 8.3698 1.0468 1 19987
-3.1722 8.444 -0.42065 1 19993
-3.1479 4.1232 0.48397 0 18449
-3.144 -2.5206 -0.18792 0 13598
-3.1413 5.1482 -0.70527 0 19096
-3.1373 1.3034 0.31695 0 15186
-3.1319 1.2902 0.31602 0 15173
-3.1317 1.6102 0.4949 0 15515
-3.1259 3.3886 0.75743 1 17786
-3.1112 3.838 0.2304 0 18255
-3.1052 2.1622 -1.2785 0 16301
-3.0982 2.585 -0.76023 0 16882
-3.07 2.5452 -0.75135 1 16863
-3.063 0.7688 0 0 14613
-3.0629 3.7555 -0.33888 1 18226
-3.0574 -1.9794 0.3398 0 13847
-3.0314 -0.42603 0.071071 0 13904
-3.0254 2.9043 0.39126 2 17361
-3.0197 1.1326 0.074878 0 15038
-3.017 2.4145 -0.63486 0 16716
-3.0143 -4.5214 -0.25341 0 12746
-2.9966 8.0491 1.4111 0 20011
-2.9547 -2.9239 0.09651 0 13329
-2.9537 -4.0624 0.82519 2 12866
-2.9507 1.8466 -0.32475 1 15996
-2.9377 5.3591 -0.57017 0 19367
-2.9146 6.7256 -0.17018 0 19809
-2.9043 1.1776 0.51489 0 15152
-2.8981 7.1407 1.452 0 19903
-2.8848 -5.8191 -0.30289 0 12369
-2.8547 1.7741 -0.39305 0 15975
-2.8523 2.2966 0 0 16751
-2.8467 2.1592 0.50214 0 16558
-2.8272 1.7694 -0.39003 1 15994
-2.8258 1.9677 0.64877 0 16307
-2.8227 4.9426 -1.0724 0 19279
-2.8111 2.1438 0.49685 1 16577
-2.7958 7.442 -0.92967 0 19989
-2.7908 5.8327 0 0 19631
-2.7858 5.8615 1.2227 0 19652
-2.7816 5.643 -1.1853 0 19575
-2.7632 -6.005 0.15347 0 12285
-2.7623 -7.8353 0 0 11975
-2.7522 3.0706 -0.1923 0 17884
-2.7255 6.393 -1.3094 0 19839
-2.7163 4.7894 0.51369 0 19296
-2.6851 6.4538 0.16229 0 19871
-2.6761 -7.5278 0.37257 0 11987
-2.6743 5.7115 0.58838 0 19676
-2.673 4.9107 0.91857 0 19394
-2.6697 4.6747 -0.62954 0 19264
-2.6686 4.9355 0.92182 0 19409
-2.6581 1.5883 0.50873 0 15877
-2.6432 1.6542 -0.5123 2 15992
-2.6421 6.5626 -0.99425 1 19905
-2.6412 9.2415 -1.3508 0 20428
-2.6304 9.1072 -0.22008 0 20418
-2.6285 3.7947 0.7584 1 18740
-2.6241 2.5769 -0.78175 0 17444
-2.6237 -3.418 0.10004 0 12942
-2.6213 6.2512 0.63241 0 19861
-2.617 2.158 0 0 16835
-2.6163 7.1495 -1.07 1 20028
-2.604 7.7376 0 0 20172
-2.6014 2.2093 -1.2422 0 16934
-2.5975 2.1534 0 0 16856
-2.5968 1.7968 -0.98537 0 16284
-2.5898 -7.7087 0.56865 0 11930
-2.585 3.1325 -1.4782 2 18189
-2.5767 2.1744 -1.2272 1 16913
-2.5746 6.1398 0.46555 0 19860
-2.56 -2.0767 -0.15373 0 13580
-2.5588 6.102 0.30857 0 19858
-2.5587 -3.162 -0.18969 0 13028
-2.5401 3.0058 0.55307 0 18114
-2.5358 3.9712 0.66219 1 18992
-2.5149 9.2056 1.116 0 20507
-2.5089 -2.8378 -0.17664 1 13145
-2.4929 2.5653 -0.67395 1 17604
-2.4904 3.3594 0.29242 0 18544
-2.4903 7.123 -0.35189 0 20104
-2.4856 -3.2794 0.095536 0 12923
-2.4833 3.372 0.29284 0 18561
-2.4732 -3.0173 -0.45624 0 13043
-2.4726 4.9076 -1.0354 0 19538
-2.4376 8.003 0 0 20340
-2.4232 2.4936 0.080727 1 17596
-2.4177 -2.5954 -0.082352 0 13218
-2.4103 2.495 0.080541 2 17615
-2.4014 2.7277 -1.228 1 17953
-2.3963 2.7218 0.50965 0 17958
-2.3934 -2.5389 0.57326 1 13235
-2.3917 -2.5965 -0.16463 0 13202
-2.3823 8.1573 -0.99379 0 20397
-2.3815 2.6273 0 0 17846
-2.38 8.0607 -0.98287 0 20381
-2.3773 6.0105 -1.3739 2 19939
-2.3631 4.2492 0.33999 0 19346
-2.3447 6.4666 -0.32077 0 20047
-2.3419 5.493 0.41756 0 19837
-2.3341 4.949 -1.1631 0 19663
-2.3236 5.3618 0.96008 0 19814
-2.3155 7.9285 0.96591 0 20408
-2.3014 3.4916 0.39015 0 18897
-2.2972 3.1946 0.74135 0 18631
-2.2955 2.7817 0.50687 0 18196
-2.2942 3.5234 -1.4207 0 18932
-2.294 2.4292 0.46957 0 17703
-2.2658 2.0159 0.28295 1 17105
-2.2616 2.598 -0.40281 0 17988
-2.2588 3.4505 0.38476 0 18915
-2.2566 -2.0476 -0.070747 0 13437
-2.2501 -2.7452 0.66877 0 13049
-2.2487 2.3955 0.38423 0 17722
-2.2335 4.7356 0.98649 1 19664
-2.2322 8.1706 0 0 20499
-2.2201 2.5657 -0.39677 0 18010
-2.2118 -4.6601 -0.24056 0 12318
-2.1929 4.6836 -0.48248 0 19668
-2.1715 3.6761 0.29856 0 19194
-2.15 3.9764 -0.8517 0 19410
-2.1371 3.3468 0.092193 0 18987
-2.134 2.8977 -0.9421 0 18562
-2.1263 9.0018 0.21475 0 20712
-2.126 8.2504 -0.99634 0 20577
-2.1255 3.5055 -0.19118 0 19120
-2.1242 -8.5642 1.4497 0 11679
-2.1131 3.0688 0.17376 0 18755
-2.1084 3.3248 0.091404 1 19006
-2.0951 -8.6533 0.83064 1 11665
-2.092 3.7617 0.81097 0 19349
-2.0837 4.2552 0 0 19586
-2.0797 -6.9853 1.1974 0 11816
-2.0716 3.4848 0.28349 0 19179
-2.0581 4.2366 0 2 19603
-2.0525 -8.3815 1.2128 0 11670
-2.0075 4.3888 -1.0258 2 19713
-2.007 3.6357 -0.78245 0 19364
-2.0057 4.7047 -1.2118 1 19838
-1.9994 -3.2185 0.087969 0 12654
-1.9807 6.1764 -0.15059 0 20256
-1.9636 -9.5576 1.603 0 11567
-1.9554 -6.9287 1.3564 0 11769
-1.9335 3.454 -0.74579 0 19331
-1.9328 3.0656 -0.169 0 19018
-1.9101 5.3172 -0.26348 0 20059
-1.8897 -8.1203 1.5708 0 11643
-1.8642 3.0552 0.67432 0 19111
-1.8571 -8.1937 0.78382 0 11623
-1.826 -2.7745 0.5457 2 12736
-1.8223 2.9867 -1.3662 0 19104
-1.7942 3.1841 -0.86598 0 19314
-1.7867 3.1503 -0.85814 1 19298
-1.7739 3.373 0.08848 0 19464
-1.7665 3.072 -0.66766 1 19262
-1.745 -4.4895 0.67694 2 12083
-1.7411 3.5557 0.55641 0 19592
-1.7331 -4.4983 0.67749 0 12072
-1.7294 -8.2854 0 0 11573
-1.7243 3.1678 -1.0342 0 19392
-1.7189 -4.3861 0.21969 0 12089
-1.7172 -9.7888 1.3967 0 11501
-1.7075 -3.37 -0.17618 0 12396
-1.6925 7.3543 0.88251 1 20752
-1.6914 -4.5457 0.33916 0 12032
-1.6867 -9.4502 0.44767 0 11508
-1.6814 -3.5172 0.27261 2 12329
-1.6596 -3.1372 0.4988 1 12449
-1.6454 3.2404 -0.33906 0 19520
-1.6316 -5.3068 0.25891 0 11843
-1.6008 3.5804 -1.1246 0 19757
-1.5771 3.1994 -0.5013 0 19563
-1.5685 -4.2153 0.73895 1 12035
-1.5679 3.0223 -0.97631 0 19491
-1.5539 3.1733 -0.49657 0 19577
-1.5487 -3.2396 0.50464 2 12331
-1.5455 5.8579 -0.14066 0 20550
-1.545 -2.6375 -0.28518 0 12583
-1.5432 3.247 -1.1218 0 19649
-1.4943 -3.8447 -0.095768 1 12076
-1.4903 3.1147 -0.99009 0 19635
-1.4739 4.2159 0.73376 0 20113
-1.4649 -6.5484 0.78471 0 11615
-1.4582 -8.4508 1.2052 0 11496
-1.4508 5.3105 1.0372 0 20510
-1.4448 -6.7338 0.80539 0 11589
-1.4274 3.576 -0.63259 0 19916
-1.4266 6.2841 0.6012 0 20768
-1.4144 3.5132 -0.62222 1 19904
-1.404 5.6522 -0.95684 0 20627
-1.3638 2.9596 -0.61396 1 19702
-1.3637 4.4274 0.32395 1 20326
-1.3496 6.2847 0 0 20823
-1.3492 3.8985 0.77727 0 20128
-1.3471 2.967 0.15196 0 19723
-1.3407 3.3587 0.68136 0 19928
-1.3394 8.1791 0 0 21092
-1.3383 2.9709 0.15196 0 19738
-1.3358 9.1569 0.86334 0 21172
-1.331 -7.0983 0.16767 0 11526
-1.3179 3.4172 -0.95881 0 19968
-1.3092 3.4248 -0.95982 0 19978
-1.303 -4.2382 0 0 11841
-1.2959 3.6718 0.63973 0 20097
-1.2816 -7.5533 1.2587 1 11491
-1.2805 6.4143 -0.30503 0 20908
-1.2641 5.7163 0.13592 0 20795
-1.2587 -5.0111 0.60422 0 11686
-1.2566 -4.5068 -0.10863 0 11752
-1.2556 -3.1489 0 0 12106
-1.2506 5.7357 0.13629 0 20810
-1.2328 -4.8506 0.70338 0 11693
-1.1957 4.3767 -0.21158 0 20498
-1.1843 4.011 -0.99094 0 20393
-1.1787 6.486 -0.15305 0 21005
-1.1483 3.0565 0.075806 0 19995
-1.1423 -7.8398 1.4927 0 11452
-1.1254 2.969 0.073717 0 19983
-1.0961 7.5135 -0.70839 0 21163
-1.0415 -8.7346 0.41021 0 11404
-1.0195 5.0242 0.11902 0 20891
-1.0053 -3.6449 0.087783 0 11745
-0.99877 7.2817 0.85952 0 21210
-0.99412 -4.0081 0.19258 0 11676
-0.96882 3.8542 -0.74876 0 20625
-0.96042 5.2848 0.62814 0 21010
-0.91441 -4.1452 -0.098553 0 11604
-0.86951 -9.08 -0.21178 0 11361
-0.86413 8.2354 -1.1638 0 21350
-0.85049 -3.8017 0.54751 1 11616
-0.84473 7.6271 0.89738 0 21331
-0.79274 -8.0273 0.56405 0 11368
-0.78993 6.0164 0 0 21236
-0.78754 -4.9113 0 0 11477
-0.78615 6.2758 -1.4986 0 21264
-0.73583 -3.9896 0.094189 0 11519
-0.73245 3.1827 -0.45899 0 20742
-0.73117 -5.5839 0.5254 2 11424
-0.71724 -4.7258 0.90058 2 11461
-0.70724 4.3958 0.73149 0 21108
-0.7021 -4.7261 0.90021 2 11457
-0.69666 4.4185 -0.31279 1 21115
-0.68811 3.8513 -1.1218 0 21024
-0.66342 3.3231 0.47625 2 20918
-0.65835 3.3463 0.47931 1 20933
-0.62606 -5.6708 0.53227 0 11392
-0.62087 5.0785 -1.2123 0 21282
-0.6188 -8.2106 0.57577 0 11321
-0.55024 -7.9284 0.74146 1 11310
-0.53986 -9.3345 1.3141 0 11287
-0.52608 -4.3094 0.30358 0 11410
-0.50697 -3.6303 0.69062 0 11441
-0.50642 3.9423 0.65302 2 21254
-0.50562 -6.2298 -0.14511 0 11334
-0.50179 8.624 -0.40285 0 21509
-0.50079 -3.7334 0.2634 0 11430
-0.4937 4.9903 0.11643 0 21385
-0.47232 6.2525 0.14558 0 21456
-0.44781 8.5733 1.6175 0 21529
-0.44242 -5.6341 0.52725 0 11328
-0.43989 -8.4786 0 0 11275
-0.43553 8.3382 -0.58386 1 21525
-0.42772 -5.6752 0.53097 1 11322
-0.41353 -4.0712 0.47854 0 11374
-0.41261 8.3468 1.5745 0 21541
-0.40822 -4.1336 0.48574 0 11369
-0.40274 6.3135 0.14688 0 21493
-0.3995 -4.7476 0.33316 0 11341
-0.38445 -9.5304 1.7971 0 11248
-0.37459 -4.0304 0.66502 0 11356
-0.35855 -4.2609 0 0 11340
-0.35836 9.5454 1.3425 0 21572
-0.34584 -5.4215 -0.12613 0 11298
-0.34121 8.3859 -0.98147 0 21560
-0.33507 -6.8024 0.31761 0 11268
-0.31351 -9.1147 0.42531 0 11232
-0.30327 -8.0781 1.5231 0 11240
-0.29602 -5.3789 0.7571 0 11282
-0.27737 6.3784 -0.44644 0 21552
-0.2469 7.1058 -0.99926 0 21575
-0.23949 -6.9625 1.1446 0 11234
-0.15863 -6.1396 1.009 0 11211
-0.14298 -8.2744 0.96777 1 11190
-0.11845 5.1403 -0.47969 2 21605
-0.11333 -6.5586 0.92188 0 11191
-0.091951 3.1728 0.59804 0 21595
-0.091415 6.387 -1.2035 0 21635
-0.089477 -7.7674 0.18035 0 11176
-0.075894 -8.874 0.41385 0 11168
-0.055691 -4.8344 -0.22546 0 11174
-0.053606 -4.6535 0.43418 0 11177
-0.036008 -3.1258 0 0 11175
-0.029629 4.9928 0.70171 0 21653
-0.026306 -3.0759 0 0 11167
-0.015791 5.654 0 2 21659
0.023842 -8.0352 0.37472 0 11145
0.023853 -8.039 1.1298 0 11147
0.027168 -9.1562 0.85423 0 11146
0.037451 -4.2073 -0.19621 0 11134
0.044613 -3.8727 -0.089919 0 11127
0.056134 -3.8286 -0.088897 1 11117
0.064632 3.1647 -0.82864 0 21729
0.071978 -4.9092 0.69002 0 11121
0.073113 3.1492 0 0 21735
0.076678 -5.2298 0.61165 0 11120
0.078845 -5.3776 -0.25081 2 11116
0.078948 -8.8691 0.82748 0 11135
0.081619 3.1169 0 0 21741
0.088675 -3.7908 0.17683 0 11097
0.096727 8.2715 0.77175 0 21701
0.097279 -5.5731 -0.25994 1 11111
0.12062 3.7547 -1.0772 0 21759
0.12568 -4.7996 0.56147 0 11090
0.13164 3.7697 -1.0816 0 21764
0.13368 -6.602 0.61606 0 11104
0.13377 9.1234 0.85126 0 21710
0.13721 -9.3585 0.2173 0 11119
0.14262 -3.0699 0.07135 0 11052
0.16275 -4.6841 0.21857 0 11076
0.17062 8.3541 1.1743 0 21730
0.17703 -4.6936 0.21904 1 11071
0.18275 -9.0253 1.7008 0 11105
0.18646 -6.3956 0.14855 0 11085
0.19635 8.4574 -0.19641 0 21734
0.19917 -3.2658 0.45983 0 11023
0.21158 -9.0451 -0.21006 0 11096
0.21178 3.836 0.17916 1 21809
0.22446 3.8693 0.18074 0 21818
0.22468 -3.8614 0.72876 0 11028
0.23378 -3.8333 0.72357 1 11024
0.23895 9.1252 0.85163 0 21744
0.2748 -5.2611 0.24568 0 11040
0.27485 4.9784 0 0 21805
0.29098 7.1513 -0.83698 0 21774
0.31629 -4.9447 0.93354 0 11019
0.33832 -6.1086 1.0051 0 11034
0.34011 -6.5114 0.15138 0 11039
0.37283 -9.2025 0.85925 1 11066
0.39029 -4.3304 0 0 10967
0.40511 -3.2386 0.3045 1 10891
0.40717 -3.1741 0.29855 0 10884
0.42958 -3.5919 0.59433 0 10906
0.43582 4.4053 0.413 0 21906
0.43946 -3.5947 0.59498 0 10899
0.46178 -4.1694 0.097392 0 10923
0.46553 6.4159 0.90407 1 21847
0.49517 -6.808 0 0 11005
0.49831 8.1708 1.5423 0 21826
0.51323 -4.9078 0.46037 0 10936
0.51387 -7.0651 0.82839 0 11006
0.51497 -3.6004 -0.084441 2 10855
0.51723 -3.699 -0.086716 1 10861
0.52829 6.4952 1.0706 0 21867
0.57512 -3.2222 -0.075992 0 10771
0.58238 6.2541 -0.29292 0 21890
0.58768 -4.6981 0.89206 1 10893
0.59323 3.7625 0.71765 0 22029
0.59519 -7.3018 -0.17009 0 10988
0.60782 3.7821 0.72172 0 22034
0.6633 6.914 -0.97616 0 21896
0.66689 -4.1496 -0.097578 0 10814
0.68447 4.3412 0.61765 0 22027
0.68873 4.4438 -0.84726 0 22024
0.69985 3.554 -0.33794 1 22091
0.73789 4.2719 0.40445 1 22051
0.76091 6.0829 0.14233 1 21963
0.77264 -8.0389 1.5216 1 10954
0.79049 -6.7905 1.1232 1 10912
0.79388 -4.3002 0.10152 0 10759
0.80857 -9.2793 1.3091 0 10975
0.82786 3.7466 0.089083 0 22153
0.82858 6.3193 -0.89572 1 21975
0.84371 -5.0527 -0.11893 0 10799
0.85095 3.9094 0.09289 0 22144
0.86046 8.2282 1.3592 0 21920
0.86125 -9.8839 0.23034 0 10974
0.87107 7.4714 0.17464 0 21944
0.87264 -3.8471 0.36804 0 10669
0.8998 3.0494 -0.52235 0 22376
0.92935 -5.7827 1.1035 0 10816
0.96841 4.0493 0.19416 0 22207
0.97408 -4.8049 0.11383 0 10716
0.98651 2.9864 -0.073021 0 22501
0.98778 -6.2649 0.14725 0 10823
0.98921 -9.1804 1.7397 0 10929
0.99726 -3.5742 0.43394 0 10554
1.0059 7.0327 -0.3313 1 22000
1.0098 -4.4517 0.10598 0 10668
1.0207 8.3493 -0.78475 0 21954
1.0222 -8.1722 0.96312 0 10892
1.0243 -4.4545 0.10612 0 10660
1.0431 -8.3387 0.19511 0 10890
1.0489 7.3334 0 0 22001
1.103 8.4123 1.3939 0 21981
1.1182 -3.7131 -0.18084 1 10512
1.1184 -5.5167 1.0606 0 10718
1.1456 6.8753 0.16183 0 22042
1.1573 4.052 0 2 22353
1.1647 -7.6738 1.0908 0 10837
1.183 6.5096 -1.4063 0 22071
1.2051 4.0373 0.49271 0 22398
1.2114 4.0583 0.69582 0 22400
1.2274 -5.5593 0.66578 0 10681
1.2313 -3.8054 -0.18652 1 10470
1.2465 6.33 -1.0599 0 22089
1.2478 -5.8906 0.98926 0 10699
1.2556 8.4217 0.39708 0 22013
1.282 7.1826 -0.34025 0 22061
1.2958 6.1175 0.29161 0 22131
1.3308 3.4813 0.08653 1 22654
1.3339 2.9379 0.15046 0 22917
1.3344 -4.3377 0.4234 0 10501
1.3391 5.7409 -0.96851 0 22177
1.3533 2.9383 -0.84687 0 22945
1.3611 3.5275 0.087783 0 22664
1.3634 2.9358 -0.84738 0 22963
1.4041 -7.9955 0.18847 0 10778
1.4081 -5.7458 0.83142 1 10628
1.4263 -5.2208 0.25239 0 10569
1.448 -4.0731 0.10036 0 10425
1.4499 2.7971 0.36843 0 23222
1.4533 7.9968 0.1887 0 22070
1.4579 6.2502 1.0544 0 22186
1.4581 3.4755 0.52969 1 22782
1.4632 -4.4819 0.10946 0 10463
1.4639 3.1522 -0.24303 1 22955
1.4799 -5.9665 -0.28667 1 10622
1.5091 9.39 1.5625 0 22033
1.5132 8.3267 1.5945 1 22072
1.5139 -2.6714 -0.21471 0 9993
1.5196 -3.3023 -0.25419 2 10212
1.5275 -6.4668 0.30987 0 10644
1.5283 -3.3443 -0.25712 1 10221
1.5307 6.2412 -0.7515 0 22220
1.5408 3.4205 -0.98211 0 22902
1.5474 3.6614 0.55864 0 22797
1.5625 -2.9964 0.31528 0 10087
1.5629 -7.944 0.56614 0 10732
1.5729 3.5212 -1.4037 2 22887
1.5735 -9.423 0.2218 0 10800
1.584 7.2773 0.69483 0 22145
1.5887 8.3282 1.3929 0 22083
1.6001 4.0106 -0.81356 0 22710
1.6071 3.1217 0.081516 0 23203
1.6139 3.1136 0.081423 0 23219
1.6225 6.2201 -0.14925 0 22275
1.6433 -4.6587 0 0 10430
1.6452 2.7863 -1.4407 1 23502
1.6819 8.0647 -0.76859 0 22117
1.692 7.169 -0.68721 0 22190
1.7002 -7.2945 0.1739 0 10652
1.7067 8.1838 -1.1749 0 22116
1.7093 3.2502 -0.96134 0 23256
1.7102 -5.5009 1.0854 0 10494
1.7197 4.6992 0.94279 0 22611
1.7229 -3.2788 0.34556 1 10079
1.7433 3.1372 0.083327 0 23374
1.7472 6.9407 0.83698 0 22245
1.7562 -5.6489 0.41366 0 10492
1.7602 -5.9046 1.0123 1 10519
1.7617 8.3165 0.79311 0 22132
1.7789 -5.5539 0.95813 2 10478
1.786 -6.1156 0.29711 0 10529
1.7992 -9.4406 1.1239 0 10746
1.8011 4.4758 0.67805 0 22720
1.8201 2.7973 -1.0414 0 23727
1.8393 2.8075 -1.0473 0 23743
1.8466 4.7046 0 0 22685
1.854 -8.0626 0.3858 0 10661
1.9043 8.1637 0.98031 0 22185
1.9069 9.1436 1.0923 0 22123
1.9098 -5.3722 0.93673 1 10427
1.9114 -4.6768 0.71006 0 10328
1.9188 -4.1698 0.42823 0 10216
1.9327 6.913 0.16665 0 22333
1.9331 4.2574 0.88095 0 22921
1.9344 8.196 -1.1835 0 22188
1.935 -4.8948 0.99167 0 10355
1.9364 -4.1094 0.10547 0 10190
1.945 6.2562 0.92077 0 22446
1.9569 3.7752 0.59761 0 23224
1.9595 -6.645 0.97366 0 10524
1.9663 -2.3575 0.43144 0 9445
1.9746 -4.7135 0.23832 0 10308
1.9872 -5.248 0.52354 0 10395
1.9887 3.0357 -1.3209 0 23741
1.9951 5.6028 -1.1205 0 22578
1.9965 -8.1465 0.78252 0 10627
1.9989 -5.3719 0.2673 0 10404
1.999 5.2293 0.39147 0 22655
2.0132 -3.5053 0.5681 0 9985
2.0201 6.7675 -0.99258 1 22391
2.0299 2.6589 0.3912 0 24206
2.0313 3.0819 -1.3435 0 23759
2.032 -8.7183 0 0 10651
2.0339 5.014 1.0194 0 22733
2.0543 2.5947 0.46512 0 24334
2.063 7.7261 1.3138 0 22298
2.0661 6.6458 -1.3112 0 22447
2.0672 7.3199 -1.4331 0 22345
2.0684 4.7389 -0.12005 0 22837
2.0697 -6.3397 0.62219 0 10464
2.085 2.5876 0.077153 0 24384
2.0863 5.6491 1.1346 0 22623
2.0893 -4.5718 -0.23441 0 10222
2.0934 -4.5808 0.82746 0 10229
2.0999 -3.7573 0.70717 0 10010
2.1024 5.641 1.1342 0 22633
2.1045 4.3964 0.68501 0 23028
2.1048 -2.6151 0.63248 0 9493
2.1082 4.7913 -0.12153 0 22851
2.1105 -6.1608 0.1512 0 10445
2.1211 4.3994 0.6864 0 23045
2.1425 -4.5161 -0.2331 0 10180
2.156 2.8756 0.16761 0 24134
2.1673 3.5985 0.59037 0 23553
2.1678 8.9471 0.85888 0 22219
2.1808 6.5405 0.32152 0 22513
2.1912 -9.5289 0.9122 0 10662
2.2032 -3.1866 0.63649 0 9708
2.2049 7.3167 0.35636 0 22409
2.2063 5.9741 0.44533 0 22621
2.2162 -8.7135 0.83881 0 10607
2.2283 6.3702 0.62962 1 22560
2.2285 -3.4725 0.38494 0 9831
2.2308 7.979 -1.3612 0 22324
2.2482 7.0149 1.3879 0 22473
2.2554 -3.2792 0.74987 0 9718
2.2573 5.5646 0.84395 0 22731
2.2783 6.4553 -1.2898 0 22568
2.3147 8.9763 -0.43229 0 22262
2.3238 -5.161 0 0 10241
2.3319 7.0592 -1.2214 0 22494
2.3323 -2.6076 0.65914 1 9357
2.4202 3.3893 0.78467 0 23981
2.4839 -3.8705 0.21447 0 9829
2.4876 5.611 1.0084 0 22876
2.5202 -2.6446 0.25545 0 9286
2.5425 -8.1033 0.39605 0 10485
2.5443 -3.1804 0.094561 0 9499
2.557 1.5903 -0.069911 1 2071
2.574 -9.2252 1.5735 0 10555
2.5903 -7.0214 0.17376 0 10409
2.5914 3.3324 0.19686 0 24264
2.6063 -8.5622 1.2578 0 10508
2.6091 -3.3794 0.1991 0 9551
2.6186 6.4552 0.16173 0 22728
2.6205 1.609 0.3596 1 2115
2.6219 1.5991 0.35914 0 2134
2.6267 7.8007 -1.1568 0 22515
2.6432 5.9619 0.76265 0 22873
2.6534 7.0591 1.4209 0 22640
2.6537 7.6634 -0.18829 0 22549
2.6548 -3.7691 0.75743 1 9679
2.6581 -1.4408 0.49674 0 7920
2.6703 -3.8136 0.76488 0 9689
2.7072 2.7205 0 0 580
2.7228 4.0291 0.79893 0 23828
2.7255 4.189 -1.3083 0 23728
2.7498 -6.5641 1.3409 1 10310
2.7568 -3.8649 0.6672 0 9658
2.7716 7.5046 0 0 22618
2.7925 -1.1085 0.42225 1 7385
2.8019 9.1019 0.22111 0 22432
2.8187 1.9759 0.16053 0 1703
2.8414 -5.2948 0.70271 0 10052
2.8439 1.8852 0 0 1879
2.8507 -8.9001 0.21697 0 10477
2.8513 1.3649 -0.073393 2 2840
2.8593 -5.2227 0.97824 0 10026
2.8669 -1.2063 0.511 0 7469
2.8693 -8.2163 1.6397 0 10438
2.8713 -3.6778 0.8791 0 9537
2.8767 -1.3092 0.14739 0 7587
2.8802 2.3066 0 0 1280
2.8921 3.2437 0.71398 2 212
2.9211 5.8359 -1.3872 0 23140
2.9295 7.4029 0.74276 0 22697
2.9309 2.8442 0.28558 0 700
2.9353 2.241 0.085741 0 1436
2.9385 2.772 0.18838 0 792
2.9517 -4.7182 0.91436 0 9865
2.9534 5.6565 -0.29757 0 23235
2.9569 3.8956 0.57193 0 24184
2.9762 -2.8282 0.57701 1 9196
3.0025 -2.8864 0.096696 1 9205
3.0459 4.5654 0.51202 0 23794
3.0542 -3.3766 0.53243 0 9338
3.0724 5.3452 -1.4608 1 23450
3.0731 -1.2823 -0.23285 0 7450
3.0783 9.0632 1.5726 0 22533
3.0958 2.7064 0.48086 0 1017
3.1109 6.6989 0 0 22959
3.12 -5.5057 0.14692 0 9994
3.1316 -1.5709 0.49239 0 7760
3.1361 6.3622 0.66176 0 23102
3.1392 7.3033 0.37071 0 22817
3.1454 -7.5083 0.95197 0 10309
3.1595 2.1609 0.17851 0 1786
3.163 3.0195 0.10152 0 753
3.1715 -4.036 0.60027 0 9525
3.1841 -8.8735 0.21888 0 10421
3.1923 1.2859 0.24066 0 3316
3.1947 -3.1614 0.41931 0 9235
3.1969 1.4301 0.16332 0 3022
3.2012 1.3012 0.24164 0 3294
3.2016 -4.1008 0.6084 0 9534
3.2115 5.6259 0 0 23430
3.2128 2.0896 0.72209 0 1943
3.2312 -0.42024 0.15196 0 6812
3.2411 -3.1895 0.63908 0 9228
3.2439 2.9892 0.20571 0 868
3.2514 -1.8613 -1.463 0 8032
3.2556 2.4711 0.6715 0 1463
3.2659 -0.56882 0.076967 0 6927
3.2948 -0.96658 0.2401 0 7152
3.2959 -6.5049 1.1981 0 10122
3.3036 0.76208 0.1581 1 4568
3.3046 -8.2913 0.20723 0 10345
3.3137 1.1274 0.16323 0 3729
3.3144 0.93914 -1.2538 2 4145
3.3185 4.1185 0.86897 0 24393
3.3189 2.1463 0.74468 0 1965
3.3192 2.2003 0.27847 0 1883
3.3237 4.6545 0.93965 0 23979
3.331 -0.84288 0 0 7085
3.3336 8.5679 0.21345 0 22675
3.3363 0.78007 0.15978 1 4543
3.343 -2.3045 -0.37881 0 8511
3.3529 -7.6273 0.19344 0 10267
3.3677 1.9885 0.090801 0 2227
3.3851 1.3987 -1.4302 0 3244
3.3861 0.63859 0.56612 0 4895
3.3952 1.4133 -1.436 0 3224
3.4076 -8.55 1.7341 0 10346
3.4102 -0.8099 0.57585 1 7060
3.4154 -5.5322 1.225 0 9887
3.42 0.17205 0.48126 0 5951
3.4264 4.7091 0.27158 0 24032
3.4406 -1.7004 0.17897 0 7731
3.4441 -5.4041 0.44812 0 9840
3.4773 4.1163 -1.4106 1 24570
3.4865 2.2547 0 0 1956
3.4975 1.4681 0.62319 0 3209
3.4985 0.064732 0.57488 0 6172
3.4997 3.496 0.11485 2 601
3.5107 -7.9261 -0.60618 0 10257
3.5138 -0.24016 0.41187 0 6614
3.5148 1.8751 0.18577 0 2532
3.5199 -8.4023 -0.63702 0 10306
3.5244 2.3363 0.59427 0 1887
3.5306 1.4819 0.088897 0 3201
3.5382 -3.6258 0.83233 0 9263
3.5398 5.4031 1.0612 0 23748
3.5404 5.9579 0.3232 0 23523
3.5649 2.8889 0.75386 1 1249
3.5667 4.1953 0.12785 0 31
3.5728 8.8076 0.88675 2 22730
3.5789 3.3761 0 0 789
3.5815 0.61091 0.42488 1 5036
3.5863 -5.347 0.45021 0 9753
3.5886 0.72946 0 0 4769
3.5925 2.5183 0.30679 0 1705
3.5982 -1.4043 0.2701 1 7361
3.6047 -5.0202 0.14349 0 9647
3.6151 4.2748 -0.12998 2 8
3.6184 1.8238 0.28335 0 2702
3.6287 0.6294 0.43069 0 5010
3.636 3.5285 0.11763 0 697
3.6413 -6.2164 0.50378 0 9962
3.654 2.5929 0.41801 0 1668
3.6593 -1.44 0.27498 0 7372
3.672 -7.9142 1.0203 0 10206
3.6721 1.6165 0.28056 0 3073
3.6761 -6.3187 0.68201 1 9971
3.6842 -8.2478 1.2695 0 10253
3.6887 8.5119 1.7478 0 22828
3.6955 -2.1019 0.19826 0 8021
3.706 6.6693 1.4375 1 23380
3.7212 6.5186 -0.17427 1 23429
3.7283 -5.0073 0.58243 0 9601
3.7318 3.244 -1.4179 2 1032
3.7672 3.8969 0.25276 0 482
3.7887 -0.76188 0.27024 0 6991
3.7943 1.2424 0.65594 0 3828
3.8204 -0.10671 0.17823 0 6433
3.8271 -0.81626 0.73728 2 7017
3.841 -2.5365 -0.21466 0 8390
3.8586 -0.34234 0.18065 0 6686
3.8638 3.2617 0.23581 0 1115
3.8782 0.61633 0.73987 0 5132
3.8798 -4.4397 0.82864 0 9383
3.8881 2.2204 0.52361 0 2334
3.9323 -0.36064 0.36841 0 6698
3.9428 -0.73431 0.37417 0 6956
3.9447 0.96963 0.28405 0 4448
3.9936 3.5544 0.87837 2 970
3.9994 -1.6281 0.70944 2 7420
4.0025 2.0017 -0.31293 0 2714
4.0068 -0.27386 0.28084 0 6612
4.0087 3.588 0.88388 0 955
4.0111 -8.6451 1.7956 0 10208
4.0298 -1.0077 0.29047 0 7079
4.0383 2.8487 0.34557 0 1685
4.0393 -6.5838 1.0856 0 9896
4.0517 -5.821 0.33074 0 9696
4.0633 2.2728 0.43436 0 2393
4.0744 -6.2311 1.4027 0 9802
4.0759 -3.9183 0.26366 0 9206
4.0909 -6.668 0.54703 0 9892
4.099 -0.43588 0.38457 0 6744
4.105 1.8225 0.52523 0 3052
4.108 4.2023 1.1072 2 532
4.1107 1.3064 0.20115 0 3888
4.1179 -0.99166 -0.39516 0 7061
4.1268 1.5126 0.30735 0 3548
4.13 1.8474 0.85244 0 3030
4.1344 3.43 0.88258 0 1174
4.1356 -7.4979 -0.79887 0 10015
4.1452 1.8543 0.53104 0 3026
4.1526 2.8948 0 0 1723
4.1571 -0.45454 0.39015 0 6754
4.1584 1.5094 0.51734 1 3575
4.1752 1.3148 0.71917 0 3919
4.1802 -4.1136 1.105 0 9229
4.1944 -0.58053 0.5951 0 6841
4.1956 -1.2181 -0.10143 1 7147
4.2175 -7.8589 1.6804 0 10056
4.2179 1.3008 0.51617 0 3962
4.2335 -1.2163 -0.10227 1 7142
4.2453 -5.6011 0.82188 0 9577
4.2659 -2.7979 0.83816 2 8382
4.2759 2.3449 0.8012 0 2457
4.2774 -2.2714 0.79569 1 7877
4.2795 2.9655 0.12088 0 1745
4.282 -5.751 0.16647 0 9600
4.301 -1.1019 0.83652 0 7094
4.3213 -7.9457 1.486 0 10035
4.3213 -2.7636 -0.35869 0 8305
4.3267 2.9781 0.12195 1 1765
4.3308 -4.4909 0.58206 0 9275
4.3495 -4.4307 1.0201 0 9256
4.3577 3.7429 0.13337 0 1060
4.3633 -1.1041 0.848 0 7088
4.3772 -4.7005 1.2102 0 9308
4.3855 0.34822 0.30763 0 5738
4.4047 -8.2079 1.5304 0 10055
4.4274 7.163 0.3927 0 23607
4.4343 -5.0742 0.62869 1 9381
4.4361 2.6193 0.48062 0 2232
4.4541 4.1768 1.0032 0 817
4.4588 -1.478 0.88503 0 7216
4.468 -1.5971 0.22127 1 7267
4.4748 1.8627 0.4522 1 3229
4.5059 2.0005 0 0 3044
4.5256 5.751 0.8558 0 24309
4.5307 3.1185 0.90366 0 1772
4.5312 -7.5323 1.4442 0 9927
4.5406 -0.95437 0.76229 1 7010
4.5444 6.4017 1.2898 1 23962
4.5472 2.5622 0.48694 0 2372
4.55 1.9098 0.46037 0 3205
4.5597 2.484 0.85308 2 2477
4.5712 2.5926 0.49028 0 2353
4.5762 3.3077 0.13109 2 1606
4.5921 3.9918 0.71154 0 1034
4.5974 -8.6977 -0.68794 0 10065
4.6015 -8.7054 1.8552 0 10073
4.6098 1.4058 0.7918 0 3989
4.6192 -0.50507 -0.10788 0 6753
4.6239 -0.696 0 0 6871
4.6456 -0.93419 0.8928 2 6993
4.6723 4.0132 -0.57463 1 1056
4.6751 -2.3944 0.12195 1 7800
4.7015 -6.965 1.3806 0 9746
4.7085 1.9139 0.118 0 3291
4.7279 -0.41946 0.89428 0 6689
4.7298 7.7002 1.4847 0 23595
4.7348 -5.2938 0.33121 0 9354
4.7408 -4.0091 1.0201 1 9035
4.7408 -1.1259 0.11313 0 7058
4.75 -3.8575 -0.42789 0 8940
4.7529 -0.97044 0.45257 0 6997
4.7587 1.9497 0.1194 0 3268
4.7938 -5.3316 1.3509 0 9347
4.7968 -2.4063 0.1246 1 7756
4.8035 -2.4433 1.0154 0 7791
4.8203 3.999 0.29208 0 1168
4.8608 3.0433 0.67065 0 2058
4.8679 -4.9311 0.48453 0 9249
4.8682 0.62882 0.45796 2 5364
4.8876 3.842 0.87373 0 1341
4.8899 7.1926 1.4289 0 23845
4.8982 -2.5803 0.64742 0 7862
4.9127 1.1333 0.35255 0 4570
4.9281 -1.3537 -0.11865 0 7122
4.9374 0.65265 0.46465 0 5340
4.9552 -1.4838 0.12009 0 7162
4.9966 -7.0937 0.60674 0 9674
5.0149 6.334 0.94477 0 24332
5.0342 -5.1588 0.16735 0 9262
5.0423 5.7557 0.17766 0 138
5.0461 -0.86527 0.47765 1 6918
5.0702 -2.064 0.51072 0 7418
5.0742 -3.0213 0.2754 0 8133
5.0778 3.1582 0.98245 0 2081
5.1017 -0.81259 0 0 6892
5.1096 2.4657 0.5293 0 2825
5.11 -0.79838 0 0 6884
5.1111 -5.5505 0.70394 0 9319
5.1629 -0.62478 0.12074 0 6787
5.1663 2.9707 0.27792 0 2311
5.1669 6.5261 0.77658 1 24330
5.2006 2.4339 0 1 2901
5.2045 -0.50756 0.36566 0 6718
5.2077 4.5526 -0.48369 0 1008
5.2095 3.1587 1.0009 0 2156
5.2175 5.8519 1.4771 0 214
5.2316 -3.4969 0.58708 0 8434
5.242 5.551 1.073 0 406
5.2517 3.3315 0.29003 0 2018
5.26 6.3764 0 0 24470
5.2856 5.2525 0.6952 0 625
5.2908 -7.5114 1.2912 0 9677
5.375 -0.71336 0.25285 1 6821
5.376 -1.9217 0.66763 0 7268
5.3823 -0.87463 0.89588 0 6899
5.3836 5.904 0 0 282
5.3968 8.3454 1.3967 0 23714
5.4181 -1.0895 0.12831 0 6990
5.4361 4.9499 0.68591 1 903
5.4463 -7.3603 0.85423 1 9610
5.4537 6.5714 0.19827 0 24493
5.4691 -7.4371 1.7393 0 9621
5.4791 -7.825 0.89121 0 9686
5.483 -0.18381 0.77102 0 6465
5.4921 -0.072854 0.38408 0 6354
5.4947 0.97085 1.0513 0 4991
5.495 -0.40835 0.90528 0 6639
5.5007 -1.8951 0.95586 0 7238
5.5129 2.8772 1.1716 0 2601
5.5322 2.7498 0.72246 0 2745
5.5436 6.3682 1.1866 0 124
5.5483 -7.5919 0.87727 0 9627
5.5547 -1.9322 0.96624 0 7246
5.5719 4.5948 -0.16767 0 1184
5.5816 5.3283 1.2678 0 760
5.5841 -0.10722 0.78494 0 6390
5.5843 -0.47972 0.92084 0 6677
5.5905 -4.812 1.3898 0 9071
5.6165 8.212 1.8745 0 23863
5.6439 -7.6748 0.88879 0 9618
5.6457 -0.6173 0.66415 0 6755
5.6559 4.138 0 0 1568
5.6633 -4.9649 1.419 2 9096
5.6747 4.7617 -0.69112 0 1127
5.7328 -0.52576 0.94581 1 6700
5.746 3.0219 0.91242 0 2579
5.7755 5.8404 0.1907 0 561
5.7761 2.6433 1.1968 0 2965
5.7957 -1.2721 0.83393 0 7029
5.8023 -5.776 -0.3818 0 9239
5.8086 3.0135 -1.3909 1 2620
5.8116 -0.7713 0.54695 1 6823
5.8239 0.023379 0.95684 0 6256
5.8399 0.31117 0.6839 0 5931
5.8551 5.784 0.76784 2 644
5.8643 -0.4183 0.96591 0 6627
5.8802 -5.1823 0.18197 0 9099
5.8921 4.0299 1.3449 0 1793
5.9188 2.1484 0.58745 1 3573
5.9267 -2.3525 0.74569 1 7384
5.945 4.9024 0.35934 0 1188
5.9534 5.616 1.3446 0 799
5.9653 4.004 0.50239 0 1844
6.0022 3.6165 0.65377 0 2173
6.0131 -1.0841 1.0039 0 6941
6.0284 5.0584 1.4827 1 1140
6.0615 -2.5505 0.15268 0 7465
6.0732 0.99997 0.4304 0 5078
6.0825 6.0444 1.4088 0 630
6.0866 2.7444 0.31136 0 3002
6.0911 -1.3192 1.1742 0 7024
6.0921 4.3776 -0.34984 0 1620
6.1169 -2.4503 0.61476 0 7396
6.1318 -1.6453 0.74244 0 7113
6.152 -3.8591 1.3683 1 8268
6.1793 4.4961 0.89366 0 1592
6.2074 -1.647 0.75103 0 7106
6.2107 0.65606 0.29124 0 5540
6.2521 1.2538 0.74569 1 4797
6.2638 -1.3566 0.90073 0 7023
6.2914 4.7461 0.55108 0 1477
6.2967 2.0217 0.61699 1 3867
6.3035 3.4083 1.3501 0 2498
6.3036 3.2243 0.99509 2 2662
6.3075 -1.1747 1.0541 0 6957
6.3255 -3.6919 0.17004 0 8083
6.3324 -7.0799 1.5606 1 9356
6.34 1.0621 0.44951 0 5056
6.3436 -2.6043 1.292 0 7433
6.3443 -1.6431 -1.393 0 7097
6.3505 -1.7635 0.30736 0 7127
6.3508 -0.76853 0.89906 0 6788
6.3755 -0.10461 0.59488 1 6371
6.3802 3.3796 0.16763 0 2552
6.3929 1.2995 0.60863 0 4774
6.4179 2.0804 0.62944 1 3845
6.4185 6.0548 0.82321 0 795
6.4381 -2.4714 0.16011 0 7337
6.4451 3.3895 0.33959 0 2574
6.4573 7.0816 0.44692 0 285
6.4631 -3.3602 1.0238 0 7834
6.4702 0.49332 1.0661 0 5764
6.4917 5.6751 0.80444 0 1015
6.4932 -5.6924 1.2136 0 9095
6.4958 4.0401 0.35674 0 2075
6.4959 -0.27453 0.76032 0 6509
6.5041 2.7756 1.3324 0 3164
6.5109 -0.29452 0.76218 0 6522
6.5245 -3.5588 0.17255 0 7931
6.5351 0.99884 0.7731 0 5178
6.6227 1.0122 0.46848 0 5175
6.6277 -0.84198 0.6233 0 6804
6.6712 4.1767 0.55038 0 2055
6.7805 3.4682 0 0 2654
6.8393 -1.2133 0.16127 0 6933
6.8699 -6.1987 1.3004 0 9141
6.9571 4.9077 1.3988 0 1690
6.9585 -5.1962 0.405 0 8744
6.9732 -1.2773 0.66139 0 6948
7.0158 -1.7753 1.0171 0 7086
7.0336 0.78397 1.1627 1 5503
7.0529 4.3017 -1.3573 2 2119
7.0656 4.2572 0.38469 0 2170
7.0778 0.93558 0.83489 0 5342
7.1503 -0.11732 0.83629 0 6373
7.1707 0.36074 1.1796 2 5953
7.2062 0.88737 1.1929 0 5409
7.2073 5.6655 0.21284 0 1335
7.2158 2.4551 0.89134 0 3733
7.2262 3.6963 0.94918 0 2660
7.2402 -1.2181 0.85859 0 6912
7.2511 4.7486 0.20124 0 1919
7.253 2.587 0.71843 1 3620
7.2538 -3.5316 1.3255 0 7709
7.2763 5.2594 1.6915 0 1613
7.2975 6.1603 1.569 0 1121
7.3026 5.6421 1.5162 0 1404
7.3149 -2.4731 0.36009 0 7224
7.3446 -3.5521 1.5371 0 7696
7.3453 -2.0854 1.4386 0 7139
7.3532 -0.26706 0.34313 0 6476
7.3957 -4.3165 1.4069 0 8091
7.3975 2.071 0.17835 0 4171
7.418 6.4121 1.1466 1 1048
7.42 -2.388 1.4686 0 7198
7.421 1.1794 1.056 0 5128
7.432 4.5955 0.81522 0 2097
7.4525 4.3131 1.4147 0 2296
7.4697 1.7465 1.2603 0 4551
7.4966 -0.97497 1.0624 0 6813
7.5567 5.7692 1.1118 0 1441
7.6021 5.6996 0.2206 0 1494
7.6594 -0.16847 1.2587 0 6408
7.72 -2.4593 0.56656 0 7190
7.7899 6.0533 0.22904 0 1380
7.8259 -2.8484 1.1704 0 7284
7.864 3.6553 0 1 2921
7.8717 1.7192 0.37574 0 4657
7.8884 -1.5634 0.18671 0 6981
7.9074 -2.2212 1.5475 0 7134
7.9147 5.6873 0.68152 0 1628
7.9366 3.6605 -1.2283 2 2930
8.023 1.9513 1.1604 0 4476
8.083 -3.6513 0.82748 0 7574
8.0847 -4.1122 1.4902 0 7790
8.1191 -1.6091 0.38599 0 6982
8.1196 -2.6132 0.19803 0 7195
8.1976 -5.0748 1.355 0 8232
8.2208 2.9564 1.646 0 3604
8.2339 4.5453 0.87746 0 2432
8.2438 -3.724 -0.63255 0 7568
8.27 4.0175 1.7323 0 2808
8.3144 0.34557 1.5679 0 6017
8.3298 -4.3602 1.5447 0 7848
8.4002 4.6372 1.8078 0 2437
8.4102 -1.314 1.6038 0 6885
8.4203 0.98916 0.99146 0 5452
8.4249 0.05735 1.3842 0 6239
8.4651 4.6422 0.6751 0 2452
8.48 4.3675 0.8899 0 2638
8.5148 -1.9721 1.6467 0 7050
8.5173 1.5264 1.0119 0 4962
8.5814 -3.2085 0.64064 0 7310
8.5882 -3.8795 1.102 0 7575
8.5989 -0.11407 -0.19966 2 6350
8.6306 0.91168 -0.40472 2 5533
8.6425 -4.0246 0.44459 0 7626
8.6498 0.58665 0.20128 2 5822
8.6548 2.2625 0.20769 0 4325
8.6587 0.58725 0.40472 2 5824
8.6663 0.96596 0 1 5492
8.6806 -0.64508 -0.40593 2 6633
8.7047 0.79066 -0.4076 2 5639
8.7384 -0.75068 -0.6133 2 6673
8.7394 -0.54831 -0.61232 2 6591
8.7569 -1.7609 -1.2553 0 6984
8.7663 1.4434 -0.41431 2 5070
8.7825 -0.039854 -0.61414 1 6297
8.7859 2.1077 -1.2698 2 4481
8.7871 -0.11656 -0.81986 1 6344
8.7872 0.23931 0.40993 1 6109
8.7968 -1.7434 -1.2604 0 6975
8.8007 -3.4065 0.6599 0 7350
8.804 0.36592 0.20458 1 6006
8.8113 -0.14457 -0.61623 1 6365
8.8202 -0.24637 -0.20486 1 6431
8.8245 -0.22183 -1.2406 0 6411
8.841 -0.04012 -1.2425 2 6293
8.844 -1.8058 -1.0556 2 6994
8.8458 -3.2196 -1.323 2 7280
8.8553 -0.17003 -1.2448 1 6378
8.856 -0.3495 -1.2456 2 6484
8.8612 2.0996 -1.2798 0 4505
8.8641 1.3802 -1.0491 1 5135
8.8957 1.3851 -0.83993 2 5137
8.9002 -0.42751 -1.2523 2 6527
8.9262 0.11218 1.6819 0 6207
8.9391 0.088935 -0.20755 2 6216
8.9998 2.2122 1.5226 0 4455
9.0092 -2.0568 -1.0807 0 7041
9.0431 -1.5214 -0.85553 2 6909
9.061 -2.1269 -0.65083 0 7052
9.0642 -1.203 0.63939 0 6822
9.0731 -0.35807 -1.0618 2 6485
9.0864 -0.78058 -1.0665 1 6671
9.1058 0.22095 -0.84978 2 6119
9.1276 -0.09718 0.42568 2 6335
9.1351 1.8022 1.5298 0 4824
9.1748 -0.8705 -0.85981 0 6705
9.1779 -0.81427 -0.85962 0 6681
9.1885 -0.25666 -0.85758 2 6425
9.2066 0.57117 1.5155 2 5871
9.2086 -0.68432 0 2 6635
9.212 -3.5067 1.1527 0 7329
9.2186 2.5237 1.8008 0 4234
9.2261 1.4101 -0.65264 2 5163
9.2299 1.7107 -0.65641 1 4902
9.2385 -0.65898 0 2 6624
9.2422 3.7867 -1.4037 2 3256
9.2699 2.0823 1.7901 2 4621
9.2772 2.8009 1.3619 1 4010
9.2792 2.7733 1.3611 0 4034
9.2832 -0.49951 -1.0872 1 6552
9.2837 -1.8956 1.7852 0 6998
9.2895 2.4596 1.3505 2 4306
9.2897 -0.20432 -0.43332 2 6400
9.2955 -1.3693 0.43816 0 6865
9.3 -0.017855 0 2 6284
9.3192 2.1224 1.8008 1 4599
9.3356 1.6192 1.5567 2 5014
9.3369 0.71188 0 2 5755
9.3391 1.5377 -0.66185 2 5068
9.3508 1.3441 -0.66059 2 5235
9.357 2.5335 1.1336 2 4254
9.427 0.22875 0.43975 2 6127
9.429 -2.3579 -0.22566 0 7077
9.43 2.4072 1.3678 2 4385
9.4319 0.36563 0.66004 2 6031
9.4325 -1.0847 1.5599 0 6773
9.4331 1.4991 -0.22176 0 5117
9.4364 1.5537 0.22203 1 5075
9.4399 -1.6441 0 0 6926
9.445 2.8229 1.6196 2 4036
9.4535 2.2679 1.1369 2 4498
9.4623 -0.92279 -1.1118 2 6714
9.4655 1.7851 1.1264 2 4892
9.4696 2.3856 1.142 1 4408
9.471 1.9562 1.3592 2 4755
9.4754 -1.0645 -1.115 2 6760
9.4837 1.7303 1.1274 2 4939
9.492 2.0731 1.5962 2 4664
9.4944 -1.9956 -0.90514 1 7006
9.4995 0.39483 0.44338 1 6008
9.5032 0.39498 -0.22083 2 6005
9.5061 -1.9686 -0.9057 2 7000
9.5209 1.0057 1.3455 0 5545
9.5319 0.45285 0.66729 2 5969
9.5363 0.8662 0.44655 1 5647
9.5416 0.75764 0.44636 1 5736
9.546 0.17663 0.44524 1 6165
9.5466 0.34172 0.66799 2 6050
9.5476 -0.98833 1.1225 0 6736
9.5493 1.8545 1.1376 1 4845
9.5539 1.9733 1.1408 0 4753
9.5678 2.004 1.1432 0 4730
9.5801 1.9473 1.8419 2 4781
9.5892 1.8918 1.8415 2 4826
9.6589 0.59923 0.4513 2 5865
9.7025 -2.1883 1.3979 0 7040
9.7182 1.4264 1.6137 0 5227
9.7232 1.3977 1.8508 1 5253
9.7495 -0.5246 -0.9109 2 6553
9.7544 0.71974 1.6069 0 5787
9.7622 1.6652 1.627 2 5040
9.7701 1.3748 1.8589 2 5274
9.7761 1.5222 1.8641 0 5157
9.7812 1.7846 1.6335 0 4943
9.8 1.5574 1.6303 0 5130
9.8111 1.8184 1.6394 2 4919
9.8415 -0.18897 0.22853 1 6386
9.8427 1.1267 0.92427 0 5475
-13.646 -0.79876 -0.63745 0 14006
-13.613 0.89943 -0.63624 0 14220
-13.44 6.6193 -1.752 2 15433
-13.278 5.2035 2.6869 0 15105
-13.015 7.226 2.8047 0 15688
-12.928 0.06769 -0.60288 0 14119
-12.788 1.5181 1.2015 0 14318
-11.981 -1.399 0.28006 1 13923
-11.942 5.0419 0.30095 1 15211
-11.637 1.7952 -1.6548 0 14376
-11.54 -1.0137 2.1826 0 13964
-11.366 3.6339 0.27704 0 14838
-11.308 6.0657 2.1082 0 15604
-11.215 4.3208 -0.27904 0 15074
-11.048 -1.7478 -0.25968 0 13893
-10.907 8.0737 2.2295 0 16486
-10.887 3.2725 0.79494 0 14770
-10.864 5.2685 -0.84433 0 15408
-10.623 3.9128 1.0562 0 15015
-10.529 4.3376 0.53105 1 15171
-10.469 4.0332 2.1137 0 15080
-10.329 4.4656 1.8488 0 15249
-10.149 4.3204 -1.0291 1 15220
-9.9556 5.8339 2.1741 0 15825
-9.9278 10.699 2.7499 0 17767
-9.6161 -6.7935 1.3769 0 13764
-9.5578 7.649 1.7205 0 16736
-9.4808 4.0693 -0.23954 0 15233
-9.4373 3.3252 0 0 14956
-9.3761 6.9405 -1.6395 0 16471
-9.348 10.682 0.66195 1 17976
-9.3147 6.7304 2.1652 0 16419
-9.2813 7.8322 0.84922 1 16916
-9.2319 5.3386 2.0093 0 15788
-9.0849 8.5193 0.5808 1 17279
-8.912 4.7466 1.1808 0 15587
-8.884 5.3086 -1.7003 2 15861
-8.8612 7.6542 -0.54605 0 16995
-8.8249 -7.3292 -0.53496 0 13547
-8.7306 -5.7962 1.7217 1 13831
-8.0216 8.4441 0.27041 0 17678
-8.0181 8.6406 1.3785 0 17763
-8.0131 8.7877 1.9539 0 17832
-7.6047 7.0865 0.48475 1 17261
-7.4548 -11.259 0.94422 1 12740
-7.2798 -9.8994 0.85926 1 12880
-7.2253 -7.5319 0.24232 0 13259
-7.1456 8.7115 -1.3176 0 18202
-7.1013 -11.884 0.96808 1 12609
-7.0381 -10.694 1.1944 1 12734
-7.0227 9.1389 -1.8936 0 18414
-7.0167 8.5028 1.0285 0 18193
-6.9582 -7.2534 -0.23336 1 13258
-6.918 10.973 1.2102 0 19029
-6.8642 -11.049 0.60661 2 12655
-6.7381 -11.421 1.2371 2 12596
-6.5633 9.4117 1.0705 0 18718
-6.5378 8.6633 -1.5253 0 18475
-6.5056 -11.106 2.1147 0 12590
-6.3914 9.7634 1.64 0 18917
-6.3596 12.348 -1.6243 0 19494
-6.2785 -11.788 1.2461 2 12457
-6.101 8.3299 -0.23972 0 18575
-6.0323 10.079 1.9299 0 19163
-5.7974 10.017 1.0798 0 19242
-5.6716 -8.4022 0.70887 0 12762
-5.5536 12.724 0.64742 1 19800
-5.5274 8.4888 -1.9085 0 18936
-5.4821 10.072 0.26623 0 19390
-5.476 -9.671 1.0369 1 12535
-5.4732 11.267 2.3599 0 19608
-5.4057 -9.6684 0.25718 1 12512
-5.2764 10.551 2.2226 0 19549
-5.2687 11.011 -1.1389 0 19625
-5.1531 9.0234 1.9578 0 19280
-4.938 -14.14 0.69847 1 11965
-4.794 8.8663 0.70482 0 19408
-4.7794 -11.135 1.9908 2 12208
-4.7758 -9.0275 -0.47627 0 12445
-4.6157 11.563 -0.28907 0 19924
-4.5737 -10.092 0.5167 1 12270
-4.5541 -14.227 0.34682 1 11884
-4.4636 -10.082 2.0774 1 12251
-4.4288 -11.394 1.1405 1 12081
-4.3886 9.9739 -1.0166 0 19777
-4.3867 -13.303 2.6392 0 11914
-4.2052 9.5569 0.24241 0 19784
-4.1722 11.614 2.3251 0 20071
-4.1392 8.2766 -1.5204 0 19539
-4.1259 10.431 0.52313 1 19938
-4.0134 -11.715 0.86596 1 11946
-3.835 -13.427 -0.32421 0 11772
-3.6107 12.229 -0.29603 0 20386
-3.5277 9.7293 -0.96552 0 20044
-3.1607 -11.722 0.56617 1 11726
-3.142 8.3637 -1.8991 0 20000
-3.1286 11.078 1.8913 0 20461
-3.058 -10.37 2.037 0 11806
-3.0421 12.701 0 0 20694
-3.0412 10.53 -0.51111 1 20416
-2.879 8.9778 -1.7763 0 20269
-2.8725 7.6461 -1.9353 0 19999
-2.8672 10.495 -1.2723 0 20494
-2.6537 10.944 -1.8501 0 20669
-2.4712 11.666 -1.6759 0 20836
-2.357 1.7975 -0.48701 0 16561
-2.3437 -12.114 2.0272 0 11539
-2.3127 -10.634 2.0504 0 11598
-1.8327 1.8643 -0.36742 0 17547
-1.7131 11.743 -0.27551 0 21167
-1.7071 1.8506 0.47436 2 17788
-1.6614 -13.609 2.2525 0 11411
-1.5152 12.096 1.7132 0 21265
-1.5124 12.074 2.2926 0 21267
-1.5019 -14.362 2.0294 0 11380
-1.4816 -10.384 1.9763 0 11447
-1.4446 -10.344 1.2214 0 11440
-1.4308 -10.927 1.8106 0 11425
-1.3766 4.8745 -1.5805 0 20456
-1.346 -14.056 0.6585 1 11362
-1.2592 13.523 1.267 0 21408
-1.2438 -11.6 2.1981 0 11388
-1.2037 -11.227 1.0534 0 11387
-1.0704 -1.218 0.3055 2 13140
-0.84415 10.379 0.97146 0 21439
-0.81702 -12.236 1.7235 0 11305
-0.75433 -11.825 0.82857 0 11299
-0.61473 -11.17 -0.25973 0 11281
-0.56725 11.475 -1.6147 0 21530
