VERSION .7
FIELDS x y z intensity index
SIZE 8 8 8 8 8
TYPE F F F F F
COUNT 1 1 1 1 1
WIDTH 1547
HEIGHT 1
VIEWPOINT 0 0 0 1 0 0 0
POINTS 1547
DATA ascii
-6.722 -5.5491 0.40649 0 7659
-6.7174 6.8883 1.3522 0 12351
-6.708 7.3282 1.6322 1 12650
-6.7038 -5.3401 0.39969 0 7687
-6.7025 -6.1849 0.42531 0 7543
-6.6997 -6.5494 0.65515 2 7480
-6.6981 -6.0056 0.41953 2 7573
-6.6935 7.274 0.92223 1 12620
-6.6905 -6.2806 1.729 1 7522
-6.6791 -5.1977 0.78958 2 7704
-6.677 -5.3512 0.39903 2 7682
-6.6686 3.7945 1.0783 0 10010
-6.6545 3.3892 0.34826 0 9733
-6.6517 -5.655 0.61051 1 7634
-6.6458 6.6226 1.5414 2 12224
-6.6452 4.0118 0.72419 0 10203
-6.6404 -5.1046 0.78141 0 7709
-6.6392 2.4823 -0.16456 1 9208
-6.6313 4.272 0.92247 2 10437
-6.6175 -5.8609 1.0337 0 7591
-6.5864 3.9763 0.8997 1 10205
-6.5754 -5.2698 0.98542 2 7683
-6.5729 3.8903 0.8932 0 10135
-6.552 7.4162 1.8645 0 12814
-6.549 -5.345 0.78865 2 7670
-6.5468 6.7912 0.65962 0 12404
-6.5401 -5.3055 0.78568 1 7674
-6.5344 6.978 1.5706 1 12542
-6.52 4.2519 0.18072 0 10478
-6.5162 -5.256 -0.19437 0 7677
-6.5103 -5.6354 1.4147 2 7617
-6.5037 -5.4033 0.59126 0 7654
-6.5026 -5.8632 0.20328 2 7568
-6.4734 3.7314 1.2276 2 10052
-6.473 -7.3629 1.3778 2 7319
-6.4656 -5.3052 0.58484 1 7665
-6.4596 -5.9254 0.20351 2 7550
-6.4494 -6.4561 0.21187 0 7458
-6.4465 -5.1352 0.96382 1 7689
-6.4435 6.1297 0.82971 0 12024
-6.4408 -5.7043 0.19975 2 7588
-6.4361 -5.4409 0.19567 0 7638
-6.4339 3.7326 1.2221 2 10074
-6.4063 6.2386 1.2567 2 12122
-6.394 -5.3747 0.38953 0 7644
-6.3909 -5.9994 0.20351 1 7517
-6.3879 6.0408 0.82024 1 11999
-6.3786 5.9983 0.81689 2 11974
-6.3772 -5.5495 0.19627 2 7607
-6.3743 -7.1644 0.4472 0 7332
-6.3722 -6.7975 0.65153 2 7396
-6.3642 -5.9078 -0.20161 1 7534
-6.3635 -6.48 1.0621 1 7444
-6.3612 -5.8699 -0.20096 0 7541
-6.36 6.445 1.706 1 12302
-6.3576 3.7389 1.0366 0 10113
-6.3559 -6.8182 0.6518 1 7387
-6.3554 -5.5014 0.19516 0 7615
-6.3548 3.4461 1.1877 0 9882
-6.3507 3.7828 0.5169 1 10156
-6.3456 -5.0856 1.1429 1 7684
-6.344 3.9074 1.0471 1 10278
-6.3437 6.7364 1.7434 1 12518
-6.3416 4.2678 0.8939 0 10605
-6.3378 -5.5152 0.58749 2 7609
-6.3284 6.1994 1.245 0 12148
-6.3273 4.699 1.4849 2 11005
-6.3135 4.6615 1.4786 1 10979
-6.3077 3.5151 1.0149 1 9954
-6.3 4.1085 0.70171 0 10482
-6.2903 -0.18999 0.29348 0 8154
-6.2888 -5.2545 0.38217 2 7648
-6.2841 -7.3577 1.1315 1 7275
-6.2782 3.5232 1.0118 2 9973
-6.2762 -6.6555 0.42661 2 7404
-6.2734 -4.9102 0.55708 0 7700
-6.2704 -5.6857 0.98984 2 7564
-6.2688 6.4284 -0.8377 2 12335
-6.2687 -0.02407 0.58485 1 8214
-6.262 -5.4492 0.38711 1 7608
-6.26 3.6815 0.50783 2 10108
-6.255 3.4615 -0.66696 2 9923
-6.2541 -6.7091 0.42773 0 7386
-6.2478 -0.66108 0.43933 0 7971
-6.2445 3.6959 0.50741 2 10131
-6.2409 0.37296 1.1779 0 8345
-6.2399 -6.4661 1.693 0 7429
-6.2376 -5.9255 1.2091 2 7507
-6.2358 3.5713 -0.16684 0 10022
-6.2292 4.4057 1.4375 2 10804
-6.2255 3.809 0.85348 0 10253
-6.2234 -6.3 0.82618 1 7449
-6.2193 7.1243 1.3291 2 12862
-6.2188 4.5348 1.4501 0 10928
-6.217 -0.75013 1.0288 0 7946
-6.2161 -7.1508 0.66255 0 7296
-6.2057 -6.469 1.689 0 7423
-6.2036 3.599 0 0 10065
-6.2015 -6.8489 0.64608 0 7352
-6.1986 5.0645 0.55973 0 11386
-6.1964 4.0178 1.2133 1 10463
-6.1962 -6.6843 1.2809 2 7380
-6.1959 -0.15034 0.72478 0 8171
-6.1899 -6.9133 0.21544 2 7339
-6.1857 -6.9917 0.65278 0 7327
-6.1822 3.6358 0.16651 2 10106
-6.1797 3.7543 0.84558 2 10230
-6.1702 -5.6599 0.97915 0 7552
-6.1698 -0.13247 1.0139 0 8177
-6.1656 3.1823 0.32357 0 9765
-6.1628 -6.7302 0.21187 0 7363
-6.1599 -7.0438 0.873 0 7307
-6.1499 3.6632 0.33382 1 10154
-6.1498 -0.16748 0.71944 2 8164
-6.1494 1.7842 0.2986 0 8905
-6.1481 6.5654 1.0519 0 12540
-6.143 3.1476 0.32189 0 9749
-6.1367 -0.59522 1.1616 1 7989
-6.1365 3.7047 0.16642 1 10199
-6.1346 -7.226 0.88433 0 7264
-6.1289 4.0489 1.2068 1 10536
-6.126 6.0012 0.1991 0 12142
-6.1212 4.0932 1.0349 2 10581
-6.1182 -6.4113 1.6697 1 7418
-6.11 -5.9376 1.3997 0 7488
-6.0807 6.4189 1.034 0 12487
-6.0735 1.3154 0.14428 0 8682
-6.0625 5.7331 1.1727 2 12002
-6.062 -4.7995 1.4568 0 7693
-6.0609 -6.4655 1.6697 1 7399
-6.0598 -0.56855 0.99996 1 7997
-6.0587 5.5986 1.3553 1 11909
-6.0557 7.5344 0.67594 0 13215
-6.0505 -7.4665 0.89659 1 7196
-6.044 1.1267 0.71897 0 8606
-6.0436 -7.3288 1.1109 2 7223
-6.0434 -6.9915 0.64622 0 7288
-6.0365 3.7896 0.8335 1 10344
-6.0319 -7.4435 1.1204 0 7197
-6.0297 -7.4887 1.1243 2 7189
-6.0229 -4.2787 -0.17153 0 7734
-6.0211 5.7278 1.1679 0 12027
-6.0191 3.7787 1.339 1 10349
-6.0149 -7.0003 0.64539 0 7280
-6.0111 7.4789 1.8078 1 13222
-6.0083 6.0885 1.2022 1 12299
-6.0051 -7.1541 1.0923 0 7250
-5.9981 -7.2736 0.43965 0 7221
-5.9971 -6.5104 0.82581 2 7370
-5.9951 -0.65128 -0.14001 0 7966
-5.9816 -7.2099 1.0955 2 7232
-5.9803 -5.2041 0.73961 2 7610
-5.9757 -6.6741 1.6878 1 7341
-5.9756 0.51229 0.27969 0 8400
-5.9643 -6.7036 1.0493 0 7334
-5.9585 1.3614 1.0042 1 8712
-5.942 1.1421 0.70759 0 8620
-5.9405 0.99943 1.135 0 8568
-5.9384 0.33825 0 0 8337
-5.9382 -6.3701 1.0184 0 7389
-5.9321 -0.55657 0.55587 0 7994
-5.927 -5.4368 1.1304 0 7553
-5.9249 5.9706 0.78475 1 12270
-5.9223 -6.1007 1.1949 2 7434
-5.9181 -4.0765 -0.33512 1 7745
-5.9142 -4.0253 1.1754 0 7753
-5.9088 -6.9183 0.42428 0 7273
-5.9075 1.4773 0.28397 0 8773
-5.8753 3.8096 0.81886 1 10460
-5.8738 6.2005 0.79683 1 12485
-5.8729 -5.3552 1.117 0 7560
-5.8634 7.3792 0.87932 2 13269
-5.8603 -6.9029 1.2726 0 7266
-5.8566 -7.0193 1.0691 1 7241
-5.8544 3.8179 0.98228 2 10486
-5.8513 -0.73919 0.6897 0 7935
-5.8494 -6.9685 0.42428 0 7248
-5.8482 7.4477 1.7841 1 13328
-5.8478 -7.5253 1.7956 0 7154
-5.8453 -6.6841 1.0384 0 7308
-5.8452 3.7411 1.3075 2 10419
-5.8428 6.2788 0.80017 0 12564
-5.8422 3.6918 0.80818 0 10367
-5.838 1.2975 -0.13885 0 8697
-5.8296 -6.9082 1.2704 2 7257
-5.8264 0.86037 0.27466 0 8527
-5.8204 -0.39577 0.95846 2 8065
-5.8203 -5.248 1.2876 2 7569
-5.8178 -6.0965 1.3845 1 7417
-5.8108 -0.35948 0.95651 0 8082
-5.8004 -4.5694 -0.17143 0 7696
-5.7508 -7.2271 0.43071 0 7177
-5.746 -7.7596 0.22417 0 7090
-5.7352 7.4366 0.87616 1 13406
-5.7179 3.8032 0.80307 1 10556
-5.7102 -0.6708 0.80804 0 7952
-5.7075 -7.2607 0.64581 0 7167
-5.6948 3.3706 1.2468 1 10140
-5.6851 3.4783 1.2557 0 10257
-5.6849 -0.53338 0.80247 2 7996
-5.6832 -0.55124 0.80247 1 7987
-5.683 1.7929 1.1228 0 8999
-5.6825 8.0227 0.91722 1 13781
-5.6822 -6.8103 0.82748 2 7240
-5.6726 3.7932 1.2857 2 10584
-5.6717 3.6538 0.62944 2 10435
-5.6647 3.7196 1.2768 0 10513
-5.6559 -6.5826 1.2197 0 7283
-5.655 3.5501 0.62293 2 10342
-5.6528 0.96828 0.94224 0 8576
-5.6519 3.9019 1.1284 2 10708
-5.6485 7.1523 0.6373 1 13292
-5.6417 5.7511 1.5179 0 12327
-5.64 3.9155 1.128 2 10733
-5.6339 -6.7909 0.82321 2 7231
-5.631 4.3114 0 0 11119
-5.6218 3.483 1.0865 2 10302
-5.6172 -0.84251 1.0702 0 7887
-5.6155 5.3701 0.18039 0 12047
-5.612 3.8961 1.2872 2 10734
-5.6059 -5.8092 0.94407 0 7428
-5.6047 1.7865 1.1083 1 9010
-5.6032 -5.7398 0.93803 0 7438
-5.5952 2.2424 0.56237 1 9310
-5.5928 -0.21681 0.78661 0 8134
-5.5882 -6.4285 1.3994 2 7298
-5.5794 2.366 0.1407 0 9400
-5.5754 -0.80244 1.0613 2 7896
-5.5633 -6.9095 1.2467 2 7190
-5.542 -6.528 1.4069 2 7267
-5.5313 0.088824 0 0 8259
-5.5266 -7.1946 1.0609 2 7135
-5.5266 3.6041 1.2431 1 10489
-5.526 4.0046 1.1212 0 10900
-5.5251 2.7716 0.28826 0 9703
-5.5202 0.042394 0.64557 0 8240
-5.516 -7.2277 1.0632 2 7127
-5.5099 2.764 -0.14312 0 9701
-5.5071 -1.0555 1.0565 1 7811
-5.5046 -0.2933 0.64464 0 8104
-5.501 0.1037 0 1 8265
-5.4798 7.2798 0.63716 0 13526
-5.475 6.0191 0.75911 0 12670
-5.4702 6.0476 0.76079 1 12697
-5.4692 -6.9952 1.0384 2 7161
-5.4655 7.2609 1.0628 1 13530
-5.464 4.309 1.1433 2 11251
-5.4519 0.80507 1.0383 0 8529
-5.4468 -0.54558 0.25528 0 7979
-5.446 2.5569 0.13968 0 9570
-5.4458 -0.44964 0.76796 2 8026
-5.4441 7.272 1.0623 2 13556
-5.4298 -0.27411 0.38017 1 8110
-5.4181 3.8093 0.61792 0 10773
-5.4109 -0.1313 0.12566 0 8170
-5.4074 8.1173 1.1406 2 14040
-5.4036 2.5577 0.1388 1 9584
-5.3962 7.3865 1.0697 2 13658
-5.3918 7.6123 1.0909 1 13783
-5.3907 1.7526 -0.13161 0 9029
-5.3898 1.6674 0.2631 0 8972
-5.3721 -4.4348 0.16173 0 7658
-5.359 -0.5028 -0.12497 0 7993
-5.3559 8.1474 0.6818 1 14089
-5.3518 -1.0093 1.0261 0 7815
-5.3431 1.518 -0.12896 0 8882
-5.3394 8.3265 1.6251 0 14201
-5.3362 -4.6715 0.16466 0 7600
-5.3287 -0.098595 0.74903 0 8184
-5.3229 -0.14496 0.49679 1 8163
-5.3216 1.4439 0.25714 0 8840
-5.3193 3.8548 0.76822 0 10897
-5.3191 -4.263 -0.31789 0 7681
-5.3164 5.2371 1.0488 2 12172
-5.315 6.4937 1.3787 2 13144
-5.3104 6.8067 1.0096 1 13354
-5.2976 -7.3265 1.2707 2 7057
-5.2975 6.7464 1.2055 2 13324
-5.2969 6.3983 1.1674 1 13091
-5.2967 8.0573 1.1276 2 14093
-5.281 8.3473 1.6228 1 14251
-5.2761 6.4462 1.1707 2 13142
-5.2758 -0.066302 0.24605 0 8195
-5.2744 1.2526 0.63395 0 8739
-5.2656 -6.347 1.5538 0 7234
-5.2164 3.8038 0.60231 1 10921
-5.1975 -0.82506 0.12218 0 7867
-5.1719 4.0291 1.0771 0 11204
-5.17 3.98 1.0719 2 11154
-5.1661 -0.35128 0 0 8061
-5.1641 8.106 1.5791 2 14227
-5.1473 6.8756 1.6182 1 13562
-5.1437 7.8725 1.0997 0 14118
-5.1376 2.671 -0.13444 0 9778
-5.1297 -4.4404 0.31639 0 7616
-5.1243 4.2136 0.15403 0 11409
-5.1202 6.2157 0.75131 2 13113
-5.1189 -0.16892 0.7198 0 8147
-5.1189 2.1707 1.0476 0 9409
-5.1081 -0.24179 0.47709 0 8117
-5.0942 6.7284 0.78735 1 13498
-5.0901 -3.4644 0.57444 0 7751
-5.0793 8.1826 1.5823 2 14328
-5.0702 2.73 0.13369 0 9859
-5.0614 -4.7797 0.97839 0 7512
-5.0556 -8.6205 0.69882 2 6770
-5.0487 6.8679 0.99681 1 13633
-5.0374 6.3035 0.94361 2 13244
-5.0299 6.2941 0.75168 1 13242
-5.0296 -4.2024 1.0768 0 7649
-5.0287 3.6215 1.1676 0 10879
-5.0265 1.3018 0.85308 0 8801
-5.0159 6.7835 0.98658 1 13609
-5.0124 -0.15139 0.70477 2 8156
-4.9914 -0.58636 0.58772 0 7951
-4.9824 3.7682 0.5828 2 11076
-4.9823 1.3071 0.84627 0 8811
-4.9709 6.2203 0.5568 0 13240
-4.9675 0.29687 0.46427 2 8344
-4.9649 0.61577 0.82195 0 8480
-4.9604 0.23827 0.58075 0 8321
-4.9599 -0.45314 0.23226 0 8002
-4.9574 3.862 0.88319 2 11203
-4.9441 6.6865 0.77583 2 13607
-4.9211 -3.5388 -0.28267 0 7730
-4.9154 7.2409 -0.20319 0 13953
-4.9121 0.35124 0.11434 0 8371
-4.9097 1.3487 0.35604 0 8852
-4.9014 7.2721 1.6523 0 13993
-4.8943 6.7811 -0.39 0 13699
-4.8938 6.7382 0.77695 2 13680
-4.8898 0.078523 0.80347 2 8260
-4.8764 4.2525 1.219 2 11661
-4.8679 -5.0744 1.1553 0 7421
-4.8582 6.6088 0.76524 0 13631
-4.8572 6.1857 0.54996 1 13319
-4.8566 6.3361 0.74481 2 13436
-4.8533 -3.2835 0.40975 0 7755
-4.8493 1.3157 0.11666 0 8839
-4.8389 1.404 0.70811 2 8909
-4.8284 6.9835 0.99286 2 13885
-4.8213 7.4755 1.0402 0 14171
-4.8202 -3.1977 0.95035 0 7764
-4.8195 6.2088 0.73329 2 13378
-4.8181 6.1758 0.54773 0 13350
-4.8171 -0.271 0.11202 0 8096
-4.8107 -3.4391 0.41352 0 7732
-4.8065 -8.5931 1.6176 1 6705
-4.7998 6.0776 0.72251 2 13294
-4.7978 1.3468 0.81871 0 8874
-4.7939 -0.25543 0.11146 0 8103
-4.7893 3.7526 -0.14126 1 11218
-4.7624 7.0659 0.79497 2 13986
-4.761 2.1848 0.24428 0 9532
-4.7514 -0.84036 0.9091 0 7829
-4.7466 0.85576 0.90873 0 8591
-4.7464 6.8266 1.366 1 13862
-4.7436 1.4376 0.23115 0 8950
-4.7249 -0.6103 0.78272 0 7929
-4.7197 3.6981 0.5594 2 11224
-4.7146 3.852 0.85564 0 11390
-4.704 6.213 1.4683 0 13504
-4.6995 4.1915 0.29366 0 11752
-4.698 3.4258 -0.13499 0 10914
-4.6901 6.539 0.75075 1 13734
-4.6812 1.6752 -0.34767 2 9146
-4.6796 3.8479 0.85146 2 11416
-4.6746 -0.67278 -0.10965 0 7894
-4.6462 7.2456 1.0066 1 14197
-4.6461 -8.6505 1.85 2 6646
-4.6441 8.2018 1.3246 2 14687
-4.6437 -8.7115 0.69031 1 6631
-4.6377 6.753 1.3459 0 13915
-4.6338 3.6965 0.69319 1 11292
-4.6263 -8.5029 0.9031 0 6662
-4.6239 5.0514 0.15899 0 12642
-4.621 7.9524 0.64315 0 14574
-4.6205 7.49 0.61539 1 14346
-4.6125 -4.0379 0.71688 0 7603
-4.6123 -6.421 -0.18355 0 7045
-4.6116 -3.1564 0.39078 0 7748
-4.5998 7.04 0.78457 2 14116
-4.5893 -8.4912 0.90049 1 6652
-4.5874 -8.664 1.8471 1 6624
-4.5855 6.1251 -1.4416 0 13561
-4.5778 -8.5233 1.3597 2 6645
-4.5772 -3.3944 -0.1323 0 7722
-4.5675 6.4868 0.74016 2 13805
-4.5599 -8.7932 1.6274 2 6587
-4.552 6.2676 1.2726 2 13686
-4.5481 -4.685 0.76357 0 7433
-4.547 7.5675 0.61734 2 14447
-4.5457 -3.8878 -0.27894 2 7628
-4.5397 7.0795 1.5845 2 14203
-4.5383 8.1806 0.65418 2 14760
-4.534 7.4983 1.4396 2 14427
-4.5328 2.493 0.72704 0 9918
-4.5273 1.5456 0.90132 0 9093
-4.5118 -8.645 1.1404 1 6596
-4.5109 8.3012 1.1048 2 14842
-4.5099 6.2096 1.0786 0 13684
-4.5079 7.2169 0.79385 0 14300
-4.5004 7.1134 0.78531 2 14247
-4.5003 -3.1383 -0.12738 0 7742
-4.4986 -3.1582 -0.12761 0 7739
-4.4818 -8.4077 0.44431 1 6630
-4.4782 -8.6356 1.1376 0 6585
-4.4766 -8.2827 0.65836 0 6651
-4.4642 7.1469 0.98542 1 14302
-4.4557 7.2228 1.1927 1 14351
-4.4369 1.9903 0.45368 0 9494
-4.4128 7.3938 1.4147 1 14478
-4.4051 8.575 1.1274 1 15045
-4.4039 0.83292 0.6299 0 8612
-4.4038 6.8281 1.5308 1 14176
-4.4033 3.7053 0.67298 0 11506
-4.3992 8.2147 1.0897 0 14899
-4.3861 -5.6443 1.1744 0 7153
-4.3832 -8.2785 0.87393 1 6619
-4.3688 7.0378 0.9687 1 14326
-4.3628 0.85199 0.2073 0 8627
-4.3613 8.0829 1.7304 0 14877
-4.3522 7.0551 0.96939 1 14350
-4.341 -3.0272 -0.2468 0 7741
-4.3313 3.7321 0.93933 1 11608
-4.3268 3.7493 0.94062 1 11634
-4.3141 -8.7519 0.45503 0 6504
-4.3127 8.8345 1.1497 1 15221
-4.3093 7.3158 1.5997 0 14531
-4.3064 1.7111 0.76132 0 9299
-4.3 1.7382 0 0 9322
-4.2951 -8.779 0.45577 0 6496
-4.2935 -8.6492 1.1292 0 6518
-4.2659 7.6895 1.2359 2 14765
-4.2563 7.0837 0.771 2 14449
-4.2483 8.5731 1.3447 1 15167
-4.2418 -3.32 0.12506 0 7699
-4.2374 8.1296 0.64106 2 14993
-4.2288 8.1131 1.7238 2 15001
-4.1977 7.7247 1.2356 2 14844
-4.1894 5.8755 0.33652 0 13754
-4.1844 1.677 0 1 9308
-4.1767 1.1223 -0.10041 0 8828
-4.1767 7.4306 1.606 2 14716
-4.1746 -0.24655 0.39015 0 8089
-4.1597 6.5295 1.0881 0 14225
-4.1591 3.9566 0.13328 0 12021
-4.1587 8.04 0.63297 2 15018
-4.1282 -8.5017 0.66087 1 6487
-4.1261 -6.2623 0.69966 0 6934
-4.123 8.5024 1.5525 2 15248
-4.1144 3.5653 1.0257 1 11636
-4.1141 1.9597 0.5329 0 9602
-4.1125 2.1536 0.87466 0 9801
-4.0979 7.9771 0.62711 1 15042
-4.092 0.25601 0 0 8351
-4.0916 0.11286 0.67248 1 8282
-4.0748 8.7264 1.5823 1 15375
-4.0586 7.3673 1.3819 2 14794
-4.0572 0.26664 0 0 8359
-4.0432 2.8946 0.93687 0 10854
-4.032 7.3706 1.3803 2 14821
-4.0177 0.24011 0.093447 0 8343
-4.012 -4.3554 0.69249 0 7371
-4.0118 7.5929 1.2069 0 14950
-4.0106 1.3039 0.49318 1 9032
-3.9953 9.1014 0.69505 0 15561
-3.9901 -9.146 1.88 1 6363
-3.9838 -2.8301 0.45591 0 7735
-3.9826 -9.1288 0.69645 0 6358
-3.956 7.931 1.2456 0 15141
-3.9361 6.5095 0.70969 1 14422
-3.9248 0.33647 0.64719 0 8402
-3.9247 -5.775 1.1472 0 6972
-3.9203 8.6584 1.3358 2 15469
-3.9171 -5.9836 1.0051 0 6928
-3.8965 -9.1441 0.69505 0 6331
-3.8727 1.4998 0.78245 1 9263
-3.8712 -2.8887 0.33776 0 7719
-3.8359 8.8727 0.67594 0 15607
-3.8135 7.7534 0.80612 0 15193
-3.8103 3.2257 0.46576 0 11530
-3.8102 -4.4345 0.54546 2 7281
-3.8096 8.8884 0.67622 0 15633
-3.8087 4.4139 0 0 12906
-3.7876 1.5689 0.57618 1 9366
-3.7875 -7.1054 0.18694 0 6629
-3.7821 7.5824 0.59251 0 15135
-3.7729 4.2946 0.13272 0 12830
-3.7553 -3.5252 -0.11958 0 7516
-3.751 -4.2893 0.39845 0 7306
-3.7502 7.4049 1.1665 0 15093
-3.7465 -3.1303 0.91984 0 7650
-3.7261 -2.6304 -0.2127 0 7737
-3.7254 -4.2375 0.39454 0 7317
-3.7215 7.7326 1.0035 1 15269
-3.7121 8.521 1.7512 2 15592
-3.7115 1.6007 0 2 9429
-3.6975 -0.28256 0.60925 0 8039
-3.693 7.5085 0.58512 1 15191
-3.6788 -9.2162 0.23039 0 6248
-3.6568 -0.27945 0.69099 0 8040
-3.6545 -9.0818 0.91331 1 6263
-3.646 -0.024818 -0.17003 0 8207
-3.6341 9.0492 0.90978 2 15845
-3.6339 9.0489 1.6021 0 15851
-3.6187 7.2549 1.332 1 15143
-3.609 8.9868 0.6772 0 15843
-3.6048 3.9381 0.49809 1 12646
-3.603 7.271 0.94895 2 15165
-3.603 8.5378 1.746 2 15693
-3.6009 7.6558 0.98937 2 15347
-3.5799 -0.034991 -0.16696 0 8202
-3.5652 -2.6603 0.73084 0 7720
-3.555 4.3682 0 0 13160
-3.5446 7.2067 0.93919 1 15195
-3.5432 -9.1066 0.91164 2 6223
-3.5432 8.8992 0.6698 1 15871
-3.5356 2.4254 0.29981 0 10678
-3.5326 6.7774 0.71304 2 14995
-3.5134 7.09 1.4908 1 15171
-3.5022 6.6735 0.88135 2 14973
-3.4965 7.8978 1.01 1 15540
-3.4895 0.63919 0.6684 2 8599
-3.4859 1.0891 -0.17031 2 8982
-3.4836 3.7646 0.5998 1 12594
-3.47 -0.45807 0.40932 0 7921
-3.4657 2.6999 0.20487 0 11197
-3.4542 -9.1896 0.91591 1 6180
-3.4518 -4.4936 0.79635 0 7136
-3.446 1.8819 0.27456 2 9896
-3.4345 2.5806 0 0 11046
-3.4296 8.4716 1.5016 2 15824
-3.4201 8.7405 1.3191 0 15921
-3.4083 -0.44024 0.40188 0 7927
-3.3985 8.4626 1.7182 2 15853
-3.3724 6.1648 0.98757 1 14819
-3.3618 -5.2366 -0.43514 2 6895
-3.3583 5.6605 1.0813 0 14504
-3.3495 8.8548 1.5554 0 16013
-3.3405 1.9772 0.18102 0 10130
-3.3257 -3.5877 0.34209 0 7378
-3.3256 9.2729 1.3845 1 16146
-3.3174 8.8538 0.66115 0 16032
-3.2939 -0.012648 0.23034 0 8213
-3.2897 7.7349 -1.1813 0 15645
-3.2854 9.2468 1.1476 0 16163
-3.284 -0.0045855 0.22964 0 8222
-3.2786 2.234 -1.444 2 10651
-3.2782 -0.54917 0.23243 0 7845
-3.2716 0.043398 0.45983 1 8253
-3.2677 0.03422 0.45927 0 8245
-3.2373 7.0384 0.90598 0 15419
-3.2342 7.7926 1.1858 1 15744
-3.2303 5.9867 0.31723 0 14865
-3.2216 7.6939 0.97543 0 15714
-3.2189 -6.776 0.52457 0 6458
-3.2119 -3.9891 -0.35813 0 7185
-3.2113 -2.7797 0.80023 0 7618
-3.2085 2.3107 -1.2338 0 10871
-3.2015 7.1237 0.72864 2 15488
-3.198 -8.0119 0.80482 0 6251
-3.1936 9.3276 0.91982 2 16247
-3.1934 -8.5686 0.85312 1 6169
-3.1923 2.2854 -1.429 0 10843
-3.1914 -3.5444 0.55776 0 7346
-3.1662 7.0981 0.72511 0 15512
-3.1527 8.7906 1.5343 0 16148
-3.1437 6.2532 0.48941 0 15110
-3.1363 -0.46089 0 0 7890
-3.1306 -3.3986 0.32311 0 7369
-3.1284 -6.4916 -0.1673 0 6475
-3.118 3.9708 -0.11721 0 13314
-3.1156 -4.0559 0.23851 0 7133
-3.1042 1.3272 0 0 9416
-3.0992 7.5869 1.1518 2 15797
-3.0823 -4.1368 0.84757 1 7099
-3.0763 -2.3089 0.72469 1 7717
-3.0478 4.5476 -1.2971 0 14014
-3.0461 -2.0469 0.51578 0 7759
-3.0461 2.3323 0.72283 0 11129
-3.0441 5.6019 -1.3552 1 14845
-3.0373 -3.7481 -0.33734 0 7192
-3.0353 2.3937 0.45206 0 11248
-3.033 -2.4887 0.64459 0 7666
-3.0169 1.5572 0.078824 0 9764
-3.012 7.826 1.1785 2 15962
-3.0097 4.8184 -1.2076 0 14303
-3.0066 -4.6528 0.91014 2 6911
-2.9983 8.0024 1.6101 0 16039
-2.9953 3.5108 -0.98093 1 12964
-2.9602 7.9007 1.1858 0 16036
-2.9584 1.0378 0.072789 0 9124
-2.954 6.1849 0.15913 0 15286
-2.9539 2.6982 0.56226 0 11860
-2.9431 8.9357 1.1002 0 16339
-2.9383 9.0057 1.3313 0 16363
-2.9378 -2.6341 -0.184 0 7572
-2.9374 -2.4248 0.62579 2 7661
-2.9327 -1.9227 0.32717 0 7768
-2.9084 1.0111 0.071489 1 9111
-2.902 -5.2963 0.42231 0 6670
-2.9018 -3.7586 0.89465 0 7146
-2.8804 -2.5663 -0.17991 2 7581
-2.8639 2.5714 -1.1037 0 11782
-2.8595 2.689 0.45903 0 11976
-2.8095 -3.6155 0.53545 0 7152
-2.7608 2.4624 -0.96843 0 11756
-2.7528 2.1192 0 0 11144
-2.7394 3.842 -1.003 0 13760
-2.7387 -2.5557 -0.17469 0 7525
-2.7321 1.3807 0.35798 0 9721
-2.7159 -3.1799 0.39015 0 7274
-2.7036 -6.9486 0 0 6219
-2.7024 1.3556 0.35356 0 9706
-2.6895 3.4055 -0.30344 2 13285
-2.6878 1.8772 0.15289 0 10749
-2.6874 -2.5228 -0.17189 0 7515
-2.6804 -4.3113 0.11786 2 6853
-2.6682 -2.7485 0.72172 0 7435
-2.6366 3.2993 0.69388 1 13247
-2.6305 1.6836 -0.072511 0 10407
-2.6243 8.6374 1.2687 0 16505
-2.6188 -1.9188 -0.1514 0 7725
-2.6067 -3.2572 0.38922 0 7182
-2.6055 2.7824 0.17776 1 12536
-2.5799 4.5304 -1.1082 1 14662
-2.5752 -1.7738 0.58915 0 7746
-2.5378 -3.1711 -0.18941 0 7180
-2.5019 2.3119 0.47876 0 11907
-2.5001 2.7972 -0.35002 2 12739
-2.4808 1.7127 -1.0972 0 10698
-2.4797 4.7251 -1.3969 1 14972
-2.4792 -3.1157 -0.18568 1 7176
-2.4607 -6.9067 0 0 6114
-2.4575 4.7148 -1.3919 2 14996
-2.4232 4.649 -0.12172 0 14988
-2.4188 -5.1707 -0.13253 0 6437
-2.4102 3.4859 0 0 13878
-2.4006 5.0261 -0.25975 1 15282
-2.3832 7.6799 -0.94036 1 16453
-2.3753 -5.803 0.14558 0 6280
-2.3668 7.186 -0.35282 0 16329
-2.3521 3.5096 0.098089 0 14008
-2.3412 -2.0611 -0.072418 0 7595
-2.3147 4.6043 -0.72426 0 15096
-2.3132 4.199 0 0 14782
-2.3024 3.4562 0.096418 0 14034
-2.2783 -2.914 0.25866 1 7159
-2.2563 -7.4031 0.90505 0 5953
-2.2496 -5.5904 0 0 6259
-2.231 2.3551 0 0 12480
-2.22 7.7831 1.3297 0 16630
-2.1675 8.2327 0.5953 0 16761
-2.155 5.0279 -0.76879 1 15620
-2.1535 -7.1374 0.87183 0 5942
-2.1358 6.5461 1.1313 2 16365
-2.1259 -5.7041 -0.28388 1 6165
-2.1203 2.472 -0.93386 0 12935
-2.0868 -3.129 -0.087319 0 6945
-2.0605 -3.0503 -0.085462 0 6959
-2.0311 7.0461 1.3816 0 16609
-2.0119 -2.4554 0.37122 0 7213
-2.0105 2.8384 -0.73933 1 13785
-2.0052 3.2102 -0.087876 0 14292
-1.9666 -2.3849 0.071768 0 7220
-1.9659 6.5362 0.79819 0 16523
-1.9588 7.2645 0.17468 0 16722
-1.8716 -5.7227 0.70411 0 6027
-1.86 8.9344 0 0 17059
-1.7752 4.7379 -0.59167 2 16019
-1.763 4.6607 -0.70032 0 15993
-1.719 2.8052 0 0 14368
-1.706 2.8037 0 0 14393
-1.7057 7.0614 0.84953 0 16886
-1.6955 3.4216 0.26703 1 15161
-1.6162 3.8002 -1.1841 2 15661
-1.5908 2.988 -0.078592 0 14915
-1.5246 -6.3601 -0.15185 0 5729
-1.504 4.2733 0.85355 0 16188
-1.4995 -5.0754 -0.2468 0 5914
-1.4941 -8.2133 1.3715 0 5537
-1.4905 4.5683 -0.56194 1 16348
-1.4457 5.8289 0.98667 0 16855
-1.4374 3.9728 0.098089 0 16123
-1.3898 4.8723 -0.11763 0 16618
-1.27 5.8395 -0.55754 0 17002
-1.2454 -4.5031 0.54637 0 5858
-1.2344 -5.0867 0.61211 0 5743
-1.225 -7.6055 0.90086 0 5478
-1.2136 2.8071 0.57619 0 15617
-1.2098 -3.8488 0.3764 0 5982
-1.1422 5.7319 0.54528 0 17107
-1.1336 5.607 0.13281 0 17089
-1.1135 3.3162 -0.40908 1 16279
-1.097 5.1923 -0.49511 0 17037
-1.0575 -3.7798 0.36618 1 5866
-0.99986 6.1192 -0.14395 0 17286
-0.96971 -4.5118 0.86947 0 5649
-0.94542 7.558 -0.71062 1 17519
-0.93542 5.4381 0 0 17237
-0.93325 -4.1615 -0.099017 0 5676
-0.82175 4.9424 -0.46743 0 17266
-0.81294 5.8286 -1.3944 1 17435
-0.78986 5.114 0.85016 0 17347
-0.75939 -8.3605 0.39149 0 5291
-0.75396 -6.2856 1.1927 0 5380
-0.74884 -3.6905 0.7095 1 5609
-0.74592 4.1168 -0.39033 0 17189
-0.74567 5.837 1.1087 0 17514
-0.7276 -3.6347 0.69839 1 5599
-0.72092 9.2219 1.5197 0 17743
-0.72047 7.7812 -1.4723 0 17684
-0.71673 5.481 0.77686 0 17493
-0.69472 3.541 0.50715 0 17123
-0.69059 -4.0572 0.19192 0 5498
-0.67812 4.9698 0.58656 0 17455
-0.67292 4.7164 0.78272 0 17418
-0.67063 5.5015 0.64812 0 17542
-0.64573 -7.8878 1.1123 0 5266
-0.6084 -4.9479 0.81903 0 5388
-0.59817 -5.6817 0.6681 0 5339
-0.57911 -4.9446 0.46446 2 5373
-0.49951 -4.0623 0.095025 0 5385
-0.47886 -7.7847 1.2814 0 5209
-0.46393 -8.324 -0.38879 0 5184
-0.46388 3.1263 -0.74886 0 17376
-0.45402 3.1198 -0.74701 0 17397
-0.45011 -3.4991 0.6647 2 5400
-0.43672 -6.4896 0.15101 0 5225
-0.43221 -5.0937 0 0 5272
-0.40955 3.0653 -0.28852 0 17463
-0.38104 8.2952 0.77472 1 17877
-0.35145 -3.4361 0 0 5323
-0.34875 -8.462 0.79014 0 5140
-0.3399 -3.5235 0.41396 0 5307
-0.33378 -7.1042 0 0 5158
-0.26054 -5.9198 0.27633 0 5149
-0.19583 -3.3355 0.62952 0 5200
-0.17294 -8.396 -0.19497 0 5073
-0.16319 8.2004 1.3475 0 17961
-0.11325 -7.5444 1.4216 0 5058
-0.08048 -3.3899 0.39654 0 5086
-0.043243 -4.6747 0.21801 0 5041
-0.040692 -6.4762 0.91019 0 5033
-0.0047756 -6.8406 -0.319 0 5017
0.011166 -4.5696 0.86096 0 5012
0.053295 -4.8467 0.79634 0 4991
0.070493 -3.1064 -0.072139 2 4957
0.071088 -5.2215 0.85794 0 4983
0.10146 3.8489 -1.0079 0 18111
0.10393 -6.2024 0.28928 0 4975
0.111 -6.6243 1.0885 0 4977
0.11364 -5.7613 0.13379 0 4967
0.15471 -5.4369 0.89361 0 4942
0.15915 -6.202 0 0 4949
0.1793 -9.0902 0 0 4966
0.18281 -4.9153 0.1142 0 4924
0.20459 -4.4881 0.10431 0 4908
0.22583 -4.3822 0 0 4894
0.23354 -3.6914 0.43255 0 4876
0.23758 -3.6056 0.42256 0 4868
0.23968 -4.9359 0.8119 0 4902
0.25194 7.8425 0.91759 0 18129
0.25775 -4.7438 0.22155 0 4889
0.2754 -6.917 0.32282 0 4920
0.31772 -6.543 1.2342 0 4903
0.32101 -9.4283 -0.43993 0 4929
0.3678 -5.3401 0.49939 0 4862
0.36837 -6.1103 -0.28546 0 4880
0.36953 -8.6366 0.80649 0 4914
0.37633 -4.5195 0.53034 0 4834
0.38595 -7.4895 0.69966 0 4896
0.38952 -6.157 -0.2877 0 4872
0.39159 3.6282 -1.2331 1 18343
0.40992 -4.1807 0.59037 0 4802
0.42162 -9.8541 1.3862 0 4915
0.42201 -4.7192 0 0 4821
0.42897 -5.3084 0.6228 0 4840
0.45627 6.525 -0.30503 0 18245
0.46406 -4.7329 0.55613 0 4801
0.46997 -4.2706 0.70587 0 4779
0.47422 4.5271 0.85762 0 18337
0.47641 -6.1355 0 0 4844
0.48393 -4.7808 0.56194 0 4796
0.52154 -8.2436 0.77063 0 4875
0.52679 -5.0631 0.95909 0 4789
0.53456 -6.8844 0.48285 0 4845
0.54465 -3.1697 0.22489 0 4661
0.57446 -3.6559 0.43278 0 4690
0.58043 3.673 -1.452 0 18474
0.58738 3.6549 -1.4455 0 18482
0.5875 -3.672 0.43487 0 4684
0.63005 5.0226 0 0 18387
0.64659 -8.6195 -0.20068 0 4850
0.66855 -7.0202 0.82467 1 4807
0.66886 3.7474 -0.53498 0 18531
0.68219 7.3122 -0.85882 0 18303
0.69814 3.605 0.17124 0 18573
0.69953 -4.2164 0 2 4673
0.70191 8.6111 -0.20059 0 18278
0.71837 -4.2517 0 0 4667
0.77683 -4.163 0.098321 2 4635
0.7827 -7.7324 0.18044 0 4795
0.79288 -9.1733 0.21377 0 4827
0.8378 9.2958 0.87077 0 18302
0.85217 -7.3763 0.86834 0 4767
0.87619 3.8628 0.091961 0 18659
0.87983 7.9567 1.5082 0 18351
0.9011 5.3107 -0.50255 2 18505
0.92019 -4.6261 0.10951 0 4612
0.92124 5.7323 0.40598 0 18485
0.9251 3.8152 -0.18307 0 18697
0.9268 3.7311 -0.63162 0 18716
0.9277 5.3708 -0.50849 0 18512
0.93424 -3.7751 -0.09029 0 4520
0.95013 -7.1304 1.3553 0 4738
0.96274 3.1928 -1.3022 0 18871
0.97845 4.4913 0.53755 0 18635
0.979 3.5446 0.69284 0 18799
0.98039 7.1477 -0.67309 0 18420
0.98093 3.8966 0.28098 1 18733
0.98159 -6.6233 0.46821 0 4711
0.98607 4.1231 0.79875 1 18694
0.99539 -4.291 0.72371 0 4546
1.0028 4.4211 -0.63713 0 18653
1.0036 -4.2688 0.72046 0 4540
1.0113 -3.4033 0.58331 0 4420
1.0125 5.3027 0.12534 0 18568
1.0158 -3.3814 0.58007 2 4413
1.0163 5.5925 0.39747 0 18545
1.0272 4.2949 -1.2663 1 18692
1.0372 -3.9452 0.67021 0 4490
1.0406 6.5848 -0.93691 0 18471
1.0521 8.2018 -0.38562 0 18394
1.0611 -3.6884 0 0 4441
1.0628 9.3429 0.87727 0 18358
1.0663 6.6348 -0.94443 0 18480
1.0686 4.6433 0.11062 0 18668
1.0758 6.2283 0.58968 0 18514
1.0798 4.6366 -0.11053 0 18677
1.0843 4.4179 -0.21214 0 18710
1.0848 4.367 0.73927 1 18726
1.1025 4.734 0.11285 0 18678
1.1512 4.3116 -0.41634 0 18763
1.1588 -5.3459 0.25509 0 4573
1.1723 7.7148 1.282 0 18462
1.1747 -7.7858 -0.18281 0 4705
1.189 4.2558 -0.41225 1 18802
1.2042 8.4191 -0.39661 0 18438
1.205 7.2243 0.51215 0 18498
1.2155 -3.0312 0.30469 0 4279
1.2245 6.6326 -0.31453 2 18550
1.2256 -3.8403 0.75949 0 4369
1.2264 -3.4904 0.51995 2 4326
1.2483 3.2101 0.16062 0 19227
1.2603 6.4003 1.229 0 18584
1.2663 7.2036 0.34108 0 18523
1.2827 7.1865 0.34043 1 18536
1.3066 9.3321 -0.87913 0 18430
1.3238 6.5299 1.2553 0 18601
1.3483 7.1767 0.68127 1 18561
1.3666 3.0608 0 0 19476
1.3708 -4.8704 0.3538 0 4455
1.3768 7.3285 -1.048 0 18556
1.3901 -3.1222 0.23899 0 4237
1.4116 9.1077 1.5142 0 18470
1.4266 -2.7819 0.21862 0 4164
1.4395 -7.1261 0 0 4604
1.4557 -5.537 0.53413 0 4489
1.4593 -3.7353 0.65886 0 4287
1.4648 -3.5947 0.73135 0 4275
1.4716 6.5673 0.78704 0 18649
1.4721 -2.81 -0.22183 0 4149
1.4835 -3.0429 -0.31583 1 4191
1.4853 -9.6498 1.1418 0 4698
1.4969 -3.0475 -0.31676 1 4185
1.5033 -2.771 0.59397 2 4132
1.5058 6.4658 -0.30959 0 18676
1.5082 -3.3874 0.17292 0 4236
1.5139 -3.4784 0.35392 0 4248
1.5163 -5.1621 0.2509 1 4427
1.5238 -6.2367 0.59897 0 4525
1.5238 3.186 -1.0127 0 19603
1.5266 -2.7941 0.59989 0 4128
1.5315 2.836 -0.074832 0 19873
1.5342 2.8209 -0.074553 0 19891
1.5476 -3.891 0.48969 0 4281
1.5565 -2.9297 0.54505 0 4144
1.5785 -2.7562 0.2221 0 4097
1.5788 -5.9378 0.71851 0 4482
1.5835 6.226 -0.14915 0 18739
1.587 3.4205 -1.1766 0 19546
1.6022 3.2764 0.42651 0 19651
1.613 4.2553 -0.10566 0 19183
1.631 3.4614 -1.3927 0 19571
1.6327 4.2735 -0.10621 0 19195
1.6337 -3.7861 0.1923 1 4251
1.6396 -3.1971 0.08342 0 4162
1.6471 2.7218 0.52268 0 20150
1.6505 3.877 0.29465 0 19391
1.6777 -3.7683 0.095768 0 4235
1.6852 -3.2636 0.085276 1 4157
1.6967 -4.572 0.8012 2 4304
1.7024 4.1632 0.63212 0 19318
1.7232 -4.1214 -0.20832 0 4267
1.735 -2.8715 0.63211 0 4058
1.7491 -4.5543 0.80152 0 4293
1.7668 4.921 0.73483 0 19118
1.7675 -2.8144 0.54602 0 4014
1.7711 2.778 -1.1991 0 20277
1.7794 2.9591 -0.99009 1 20128
1.8274 2.3832 0.069725 0 20798
1.8281 -7.5796 0.54522 0 4530
1.84 -5.2868 0.65463 0 4329
1.8421 7.0617 -0.16944 0 18753
1.8438 -4.2043 -0.32102 0 4244
1.8516 2.4 0.070375 0 20819
1.8678 -3.8569 -0.19984 0 4197
1.8711 6.9299 -0.16665 0 18773
1.8736 -3.7043 0.58341 0 4172
1.8738 -4.4466 0.79277 0 4264
1.889 4.5785 -1.1735 0 19332
1.9008 4.7667 0.47877 1 19274
1.9068 6.7519 0 0 18814
1.9196 4.4021 -1.3771 1 19432
1.9199 -6.8213 0.33046 0 4454
1.9265 9.3518 1.3419 0 18607
1.9415 2.3848 -0.071396 0 20969
1.9509 6.9827 -0.3381 0 18804
1.9553 -4.6018 0 0 4259
1.9566 -9.5655 0.9109 0 4597
1.9582 5.9946 -0.14641 0 18978
1.9602 -6.0221 0.29534 1 4354
1.9671 4.0837 -0.10524 0 19617
1.981 4.5431 0.57959 0 19434
1.9917 2.9696 0.41814 0 20425
1.9928 2.9903 0.42023 0 20406
1.9976 4.2108 0.3259 0 19588
2.0137 4.5442 -1.1777 0 19462
2.0224 -5.6484 0.98569 0 4318
2.0237 -3.2223 0.71691 0 4015
2.0408 -3.6352 0.096789 0 4109
2.0413 4.7558 -0.3619 1 19401
2.0413 6.3733 1.2609 0 18954
2.0448 5.7969 -0.42984 1 19086
2.053 4.742 -0.36134 0 19417
2.0569 -4.5832 0.9465 0 4231
2.085 -3.6883 0.098367 0 4103
2.0873 6.6524 0.16187 0 18920
2.0945 5.1633 1.0498 0 19304
2.0964 -5.8549 0.87401 0 4317
2.1024 -2.3162 0.51392 2 3270
2.1087 -5.4422 0.1355 0 4290
2.109 5.7136 0.1414 0 19153
2.1114 2.3606 -1.4991 0 21272
2.1166 5.308 0.13267 0 19271
2.1347 -4.3173 0.33678 0 4182
2.1489 -3.0205 -0.25922 1 3798
2.15 4.596 0 0 19558
2.1657 -7.6078 0 0 4448
2.1716 8.9559 1.2951 0 18704
2.189 -2.3697 0.37726 1 3233
2.1964 4.8465 0.37208 1 19507
2.2105 -3.3058 -0.37101 2 3907
2.2115 6.7027 -0.16387 0 18993
2.2237 4.4483 0.69893 2 19701
2.2242 4.006 0 0 19940
2.228 -7.0492 1.2146 1 4377
2.2581 6.2893 1.0979 1 19119
2.2593 3.8324 0.10329 0 20079
2.2676 7.2271 1.2444 0 18921
2.3064 9.5117 1.1445 0 18703
2.3144 -2.4767 0.23703 0 3211
2.3215 -2.908 0.086391 1 3555
2.3253 2.6769 0.41466 2 21184
2.3347 2.7029 0.41768 0 21162
2.3357 5.7121 0.57574 0 19317
2.3418 -3.2103 -0.18531 2 3751
2.3468 4.8373 -0.12483 1 19634
2.3649 3.2947 0.66632 1 20607
2.3649 6.7043 0.66325 0 19093
2.3675 4.1506 0.33413 0 19999
2.3703 -2.6399 0.41489 0 3289
2.3715 -3.2331 -0.18699 1 3737
2.3951 3.7799 0.10389 0 20260
2.4156 4.6661 0.24503 0 19782
2.4172 -5.4727 1.1272 0 4241
2.4266 2.8262 0.086483 0 21135
2.4274 4.6216 -0.24345 0 19804
2.4465 -3.7032 0.62377 0 3939
2.4523 -2.8131 0.61314 1 3351
2.4641 -3.9991 0.88503 0 4038
2.4679 6.9382 0.68703 2 19105
2.4708 6.0425 -1.3876 0 19319
2.4744 4.0889 0.44588 0 20146
2.4803 2.5711 0.3333 0 21576
2.4863 4.9392 -1.4476 0 19717
2.4947 1.9674 0.073764 0 22698
2.4964 -7.522 0.36959 0 4344
2.4988 3.8938 0.8717 2 20300
2.5076 4.8771 0 0 19766
2.5148 6.3613 0.63817 0 19257
2.5339 -5.1977 0.13425 1 4192
2.5494 4.0514 0.22323 0 20243
2.5498 4.4396 -1.468 1 20016
2.56 4.0683 0.1116 0 20241
2.5796 2.6453 -1.3448 0 21616
2.5855 9.4705 -1.148 1 18782
2.5886 3.5616 0.72338 2 20644
2.605 2.6546 -1.3537 0 21636
2.622 -6.1293 0.7796 0 4255
2.6235 -4.7702 0.25388 0 4121
2.6306 -6.3444 0.64077 0 4270
2.6411 9.2473 1.58 0 18828
2.6472 2.5174 0.25545 0 21916
2.6485 -6.4448 0.65006 0 4272
2.6514 3.1442 0.095489 0 21077
2.6523 5.3478 0.41742 0 19681
2.6616 1.3944 0.14012 0 24266
2.671 7.572 -0.37444 0 19087
2.673 -3.5549 -0.52012 0 3688
2.6768 -4.5789 0.74541 0 4088
2.6788 6.7761 1.024 0 19258
2.6953 5.1315 0.9523 0 19808
2.6964 -6.9016 1.396 0 4288
2.7016 3.3374 0.60345 1 20958
2.7016 3.4184 0.4065 0 20889
2.7031 1.8892 -1.3775 0 23185
2.7045 -3.9931 -0.2249 0 3884
2.7066 3.3639 0.60679 1 20943
2.7146 5.8939 -1.3793 0 19533
2.7295 -5.3224 0.27894 0 4163
2.7413 -3.3743 0.81911 2 3520
2.7542 6.2654 0 1 19442
2.7581 -1.8138 0.076642 0 2260
2.7695 -7.8122 1.1649 0 4321
2.7701 -7.5984 1.3287 0 4311
2.7732 3.726 0.10784 0 20706
2.7757 2.349 -0.33924 1 22395
2.7813 -6.1974 1.116 1 4230
2.787 2.7599 -1.4276 0 21753
2.7937 -7.7342 1.5494 0 4314
2.7981 4.8719 0.39287 0 20015
2.7992 4.7483 0.25705 0 20081
2.8031 1.7482 0.46428 0 23632
2.8143 4.5283 0.74931 1 20213
2.8277 2.465 -1.3653 0 22276
2.8363 2.4865 -1.3729 0 22252
2.8409 -5.956 -0.30773 0 4204
2.8552 8.1762 0.80797 0 19081
2.8591 4.9124 0.93381 0 20051
2.8867 3.6975 -1.3451 0 20853
2.8873 3.3239 -0.10222 2 21177
2.9092 -2.2178 0.34129 0 2622
2.9103 -6.7447 1.0324 0 4252
2.914 1.7948 0.48098 1 23680
2.9379 -2.5056 0.36023 0 2859
2.9391 -2.0702 0.083466 2 2405
2.9553 1.9524 0 0 23408
2.9775 -6.0617 1.1096 0 4189
2.9852 -3.7623 -0.22397 0 3568
3.0093 7.0112 0.3558 0 19406
3.0297 -0.58672 0 0 902
3.0466 7.8342 -0.19516 0 19224
3.0476 -7.7328 -0.58121 0 4282
3.052 -3.6052 0.66386 1 3415
3.0771 7.2282 0.18239 0 19389
3.0865 -6.7167 1.3927 1 4224
3.0945 8.0322 0.19984 0 19211
3.1213 -2.3367 0.36376 1 2574
3.1341 3.3845 0.32255 1 21414
3.1346 -2.3322 0.36451 0 2557
3.153 3.4241 0.32548 0 21392
3.1594 6.1029 0.15955 0 19781
3.161 7.1907 1.1039 0 19449
3.1739 5.2448 -0.14233 2 20142
3.1824 -6.5715 1.3757 0 4199
3.1826 0.38682 0 0 27206
3.1933 0.39775 0 0 27186
3.2011 2.3765 0.56031 2 22956
3.2076 -0.36433 0.4537 0 701
3.2076 2.0262 0 0 23577
3.2105 6.8133 -0.35124 0 19569
3.211 -8.502 1.4931 0 4301
3.213 -2.4203 0.37528 0 2591
3.2152 0.37201 0.53176 1 27253
3.224 0.36391 0.53305 2 27273
3.2277 0.32558 0.22685 0 27342
3.2468 4.3086 0.75822 0 20744
3.25 -6.8693 1.068 0 4209
3.2528 4.2916 0.75682 2 20763
3.2602 2.1809 -0.27428 2 23352
3.2625 6.3892 0 0 19748
3.2684 -7.9533 1.6201 0 4273
3.2867 -6.1425 0.81468 0 4137
3.2924 2.7548 0.099667 0 22452
3.3003 4.4862 0.91501 1 20677
3.3015 2.7781 0.10018 0 22426
3.307 3.3325 0.21894 0 21685
3.31 0.32455 0.23257 0 27361
3.311 -3.7768 0.70589 2 3339
3.3351 0.89676 0.2415 0 26176
3.3392 -6.8495 0.89111 0 4193
3.3403 -8.7611 1.5405 0 4297
3.3421 6.7386 0.35077 0 19680
3.3535 0.913 0.24303 0 26152
3.3833 3.7392 0.11708 0 21319
3.3866 1.9925 0.45949 0 23854
3.3963 1.9838 0.45996 0 23879
3.4244 -3.0435 0.86318 0 2917
3.4269 1.4083 0.086019 0 25068
3.4337 -4.1037 -0.4992 0 3435
3.4641 -5.5523 1.0752 0 4022
3.4644 1.4117 0.086855 0 25094
3.4691 3.8125 0.11967 2 21342
3.4722 -7.7987 -0.3981 0 4234
3.4841 -9.1383 0 0 4294
3.5001 5.3856 1.2102 0 20338
3.5619 5.7313 0 1 20209
3.5657 2.8947 -0.10663 1 22570
3.5659 4.2769 0.12928 0 21041
3.5692 8.5829 0.21581 0 19343
3.6037 4.6998 -0.1375 0 20795
3.6057 2.4569 0.82208 0 23296
3.6109 6.3745 0.6835 0 19984
3.6223 -5.7344 1.2779 0 4007
3.6286 5.3133 0.75242 0 20472
3.6394 6.8765 0.72586 0 19824
3.6411 -0.25525 0.17022 0 539
3.6549 -3.4623 0.70756 1 3012
3.713 8.6506 1.5466 0 19409
3.7445 7.8294 1.2197 0 19604
3.7478 3.1359 0.57146 1 22460
3.7503 8.5313 0.65166 0 19445
3.7743 0.95714 0.54723 0 26300
3.7843 8.4048 0.214 0 19490
3.7874 0.9823 -1.3221 1 26244
3.8125 -3.7166 1.0032 0 3061
3.8232 -7.8422 1.6438 0 4195
3.8472 -3.2626 0.82876 0 2849
3.8586 0.54848 0.73431 0 27080
3.8787 3.9774 0.91274 0 21625
3.8973 6.6963 1.0889 0 20049
3.9055 -7.4546 0.19539 0 4150
3.9337 -4.1597 0.53413 1 3190
3.9374 6.1757 0.8565 0 20280
3.9394 -5.9226 0.66362 0 3923
3.9427 -6.1579 1.2013 0 3990
3.9529 7.8018 0.81596 0 19733
3.9557 7.7467 0.8115 0 19751
3.9868 6.0578 0.16837 0 20368
4.0254 -3.218 0.48081 0 2724
4.056 6.7025 1.476 0 20152
4.0651 3.1283 0.35869 0 22802
4.0774 7.8763 1.4571 0 19783
4.0933 3.9377 0.93317 1 21874
4.094 0.46211 0 0 27265
4.106 0.89 0.49132 0 26573
4.1065 5.3867 0.95194 0 20782
4.1131 7.2611 0.9759 1 19985
4.1187 -5.2207 -0.465 0 3580
4.2234 -6.8543 0.75112 0 4034
4.2952 3.0199 0.1219 0 23163
4.298 2.5287 -0.11578 2 23844
4.3289 -0.41606 -0.10097 0 643
4.3395 -5.2811 0.47797 0 3484
4.353 -6.0423 1.4031 0 3782
4.3597 -7.7119 1.245 1 4106
4.424 -1.1252 0.53383 1 1021
4.4247 -4.3664 0.14432 0 3073
4.4393 -0.91367 0.42284 0 927
4.4606 -7.7353 0.83305 0 4094
4.5352 -0.63496 0.86281 0 778
4.5747 -1.2206 0.10993 1 1042
4.5892 -7.548 0.82414 0 4048
4.5936 3.4103 0.53376 1 22952
4.6257 -1.1208 0.55659 0 998
4.633 3.5653 0 0 22797
4.6491 -5.0914 1.299 0 3259
4.6685 -3.0133 0.12901 0 2223
4.6727 6.7558 0.76636 0 20504
4.6801 2.2806 0.85535 0 24519
4.6815 -0.21832 0.32772 0 428
4.7393 6.8088 0.1926 0 20520
4.7471 -1.0637 0.56891 0 962
4.7472 -7.6594 1.4805 0 4030
4.7493 -2.7619 0.77213 2 2041
4.756 -1.0788 0.5703 0 968
4.7577 2.3887 0.74819 1 24418
4.7932 8.4034 1.5894 0 20003
4.7951 0.38749 0.22435 0 27471
4.8618 -8.1558 1.7889 0 4072
4.8726 -5.655 1.4064 0 3379
4.875 0.36485 0.1135 0 27510
4.8818 -0.90303 0.93539 0 885
4.8969 7.3928 1.037 0 20388
4.9015 -6.213 -0.73831 0 3579
4.9019 1.1823 0.70867 0 26389
4.9073 0.59645 0.69475 0 27214
4.9137 6.7607 0.19404 0 20638
4.9138 6.4831 1.5327 0 20766
4.9283 0.15402 0.11448 0 27760
4.9323 4.9981 0 0 21659
4.9833 5.6386 1.2363 0 21246
4.9976 2.2251 0.12701 0 24804
5.0014 -0.71536 0.83006 0 786
5.014 7.913 0.43686 0 20261
5.0207 2.6303 0.93122 0 24275
5.0321 -3.044 0.96624 0 2112
5.0332 4.6494 0 0 22035
5.0456 0.62847 0.11805 0 27188
5.0544 -5.8329 1.4542 1 3366
5.058 5.792 0.3586 0 21200
5.0658 -6.5403 1.1627 0 3633
5.0913 -0.075537 0.47505 0 241
5.0916 -1.0785 0.12084 0 938
5.0956 5.4377 1.2243 1 21470
5.0979 2.5942 0.39998 0 24368
5.0987 2.6712 0 0 24263
5.1002 0.54505 0.8427 0 27311
5.1085 -1.5872 0.75181 2 1117
5.1085 -0.29724 0.59841 0 487
5.1091 5.4521 0.34844 0 21462
5.1325 2.447 0 0 24580
5.1395 2.6357 -0.40389 2 24335
5.1671 2.0531 0 0 25172
5.1778 8.39 1.3856 0 20196
5.1852 1.1391 0.87221 0 26555
5.1919 3.7846 0.90296 0 23031
5.1922 -0.57506 0.85827 0 693
5.2042 0.61688 0.12167 0 27228
5.2184 -3.4122 0.58169 0 2250
5.2281 7.6041 0 0 20485
5.2329 5.7187 0.36149 0 21367
5.2379 1.9251 0.12956 0 25403
5.2428 -3.2557 1.1628 0 2162
5.2456 -0.39718 0.12214 0 570
5.2494 -3.1131 0.42677 0 2078
5.2658 -1.4218 0.76657 0 1048
5.2662 4.0775 0.15463 0 22773
5.2721 -8.2342 0.45596 0 3986
5.2759 2.3667 0.13425 0 24778
5.3215 0.89719 0.50347 0 26900
5.3405 3.8716 0.15314 0 23046
5.3432 2.3433 0.13546 0 24855
5.3484 5.9483 0.74629 0 21302
5.3531 -0.65539 1.0161 0 729
5.3553 -3.157 1.1713 0 2067
5.3568 1.8466 -0.39622 1 25565
5.3591 1.8129 0.66159 2 25627
5.3601 -6.3676 0.97334 0 3427
5.3623 1.7299 0.92571 1 25756
5.3755 1.8017 0.66299 0 25651
5.4084 -8.0334 0.6772 0 3897
5.4085 4.1381 0 0 22824
5.4193 -4.0086 0.62888 2 2539
5.4217 1.2417 0.65044 0 26482
5.4384 4.7408 -0.67309 0 22271
5.4533 -2.1735 0.54769 0 1318
5.4562 -8.1044 1.3731 0 3902
5.4598 4.2549 0.97282 0 22756
5.4776 0.85875 -0.12873 2 26976
5.4813 6.0239 0.95244 0 21349
5.4956 1.2748 0.65974 0 26459
5.4967 1.6324 0 0 25946
5.5065 -3.2891 1.0538 0 2091
5.5099 0.89735 0.12961 0 26937
5.5198 -0.41794 0.77798 0 572
5.522 -1.2881 1.0683 1 981
5.5303 0.86701 0.65463 0 26983
5.5404 7.8163 1.1204 0 20570
5.5971 1.0788 0.39859 0 26742
5.616 -7.518 -1.0974 0 3700
5.6285 -7.4422 1.533 0 3685
5.6289 0.013755 1.0606 0 125
5.6497 0.144 0.6609 0 27800
5.7108 -2.0324 0.56553 0 1196
5.7111 -2.0494 0.56608 0 1205
5.7153 3.0159 0.15003 0 24240
5.7327 -2.4004 -0.87345 0 1375
5.7457 -0.84025 0.54175 0 795
5.7562 -6.6031 1.6504 0 3352
5.7645 7.3385 0.43518 0 20871
5.7807 7.716 1.355 0 20729
5.794 4.2514 0.50253 0 23001
5.8512 6.8971 0.84383 0 21098
5.9017 -7.7554 1.1397 0 3668
5.9253 -0.087911 0 0 238
5.9876 6.9735 1.0749 0 21139
6.0119 0.44993 -0.84729 1 27500
6.019 0.96193 0.28425 0 26959
6.0374 1.5861 -0.14493 1 26218
6.0458 3.4178 -0.48564 0 23992
6.0563 2.07 0.1486 0 25597
6.0605 0.98702 -0.14256 0 26934
6.0643 1.2228 -0.14363 0 26673
6.0733 0.9891 0.28695 0 26939
6.0836 -4.2852 0.8702 0 2411
6.1257 0.51116 0.42984 0 27452
6.1749 -1.0289 0 0 848
6.2123 6.9456 1.0897 0 21281
6.2344 5.9974 -0.60493 0 21859
6.2634 -0.36444 0 0 484
6.3323 -1.8493 0.30764 0 1087
6.3579 2.4012 0.15779 0 25326
6.435 5.015 0.95406 0 22754
6.4361 -1.9187 0 0 1095
6.5005 2.5633 0.65192 0 25205
6.5699 -1.5919 0 0 997
6.6277 -3.9071 0.35879 0 2062
6.6401 -3.5113 1.2341 0 1870
6.6525 -4.4316 1.1234 0 2290
6.6563 -1.4696 1.1199 0 956
6.7015 -0.52742 0.15607 0 581
6.7041 0.95294 0.47351 0 27073
6.7054 1.8432 0.16145 0 26121
6.728 4.25 0.18476 0 23579
6.7287 -0.13742 0.78704 0 281
6.7311 5.6321 0.61372 0 22456
6.7357 4.2302 0.18467 0 23602
6.7484 -0.49083 0.15709 0 554
6.7497 1.8782 0.16266 0 26096
6.7506 -3.7728 0.90435 0 1968
6.8466 1.033 0.16076 0 27017
6.8515 -1.0411 0.1609 0 809
6.8667 -4.7194 1.171 0 2354
6.8874 -1.6879 0.66158 0 1004
6.9091 0.92064 0.16183 0 27130
6.9345 -0.64574 0.81445 0 632
6.9516 -1.7474 1.1776 1 1017
6.9519 -3.7276 1.296 0 1898
7.0058 2.2817 0 0 25717
7.0966 -4.758 1.2008 2 2304
7.0992 -4.1851 1.1582 0 2065
7.1394 0.63968 0 0 27409
7.1779 -1.5414 1.2062 0 945
7.2249 6.0068 0.43816 0 22478
7.2328 -4.971 1.4419 1 2355
7.2339 -2.933 0.18123 0 1335
7.2669 2.3443 0.35608 0 25748
7.2953 1.1659 0.68926 0 26962
7.3701 0.16725 0.34379 0 27815
7.3789 -1.1859 0.69725 0 833
7.3983 -4.8376 1.4523 0 2251
7.4256 -0.95256 1.0521 2 745
7.4637 0.49312 -0.17366 0 27561
7.4672 0.81911 0.17441 0 27285
7.4688 -1.3344 0.70784 0 874
7.469 0.47384 -0.17376 0 27580
7.4726 -0.21787 -1.2282 0 322
7.4805 2.1521 -0.18072 2 26018
7.4807 1.0194 -1.0611 0 27101
7.4822 5.8626 0.22069 0 22723
7.5128 1.0679 0.88739 0 27076
7.5341 2.071 0.36438 0 26123
7.54 0.91644 0.53113 0 27210
7.5511 1.9149 0.72679 0 26296
7.5914 0.74434 1.4372 0 27367
7.5959 -2.928 0.75948 1 1275
7.6438 0.37117 0.71397 0 27672
7.6758 3.1043 0.19223 1 25121
7.6933 -2.7607 -1.1487 0 1201
7.8195 0.1993 0.72976 1 27798
7.833 2.0813 0.75614 0 26201
7.8476 0.36047 0.73292 0 27686
7.8652 1.7523 0 0 26523
7.8802 5.7443 0.90978 0 23027
7.9031 1.5935 1.519 0 26686
7.9668 -2.1005 1.1579 0 1037
7.9945 4.2758 0.42279 0 24194
8.0222 4.0576 0 0 24386
8.0495 -3.51 1.6545 0 1447
8.0804 1.4859 1.3498 1 26806
8.0838 -5.7981 1.1634 0 2456
8.0922 -2.6168 0.39661 0 1138
8.1237 0.090747 -1.1418 0 44
8.1629 -0.38067 -0.18973 0 427
8.2141 2.0069 -0.19632 0 26356
8.2353 0.35524 1.1585 0 27704
8.2615 2.1181 0.39773 0 26268
8.3318 -0.31571 0.77788 0 392
8.3463 2.064 -0.19961 0 26334
8.3848 3.4748 1.4912 1 25054
8.3873 1.07 1.593 1 27175
8.3961 2.0514 1.2147 0 26367
8.4799 1.8381 0.60674 0 26570
8.4989 1.1325 0 0 27128
8.5592 -3.7893 1.5379 0 1475
8.5894 -0.57503 0.40146 0 524
8.5902 -0.10196 1.6186 1 227
8.5982 -1.2804 1.6379 0 801
8.615 2.9144 1.2782 0 25629
8.6353 -3.2992 1.5187 0 1266
8.6673 0.37388 1.6345 0 27707
8.7007 -2.984 1.733 0 1171
8.7267 -4.6479 0.46108 0 1881
8.7443 0.45062 1.6497 0 27659
8.7512 3.1317 1.3063 0 25483
8.7606 -3.4615 1.5476 0 1309
8.7649 -4.6349 0.92502 0 1868
8.8548 4.3475 1.8586 2 24495
8.8661 4.4166 1.6274 1 24443
8.939 -2.0851 1.508 0 980
8.9491 0.22809 1.4708 1 27803
8.9807 4.3763 1.8823 2 24521
8.9851 -0.39544 1.6945 0 422
9.3979 2.1214 1.1267 0 26508
9.5516 1.985 0.91016 0 26637
9.6689 -1.0418 1.8323 0 684
9.6853 1.6329 0.68682 0 26898
9.6937 1.3503 1.1445 0 27096
9.7353 -0.90654 -0.45596 1 630
9.7688 -0.28481 1.6056 0 342
9.8204 -0.11656 1.1485 2 222
9.8246 -0.45816 0.91759 0 429
9.8249 -0.060017 1.149 2 183
9.832 0.16647 1.382 1 19
9.869 -0.032727 1.387 2 165
9.9211 -0.60854 -0.69505 2 496
9.9354 -0.55026 1.6348 0 477
-14.092 1.9103 0.66316 1 8504
-13.628 0.34258 2.5684 0 8276
-13.564 -1.9159 -0.31803 0 7900
-13.26 -0.93888 0.61993 1 8052
-13.24 0.82837 2.1795 0 8352
-13.187 3.0929 2.2253 0 8730
-13.143 1.8635 2.501 0 8516
-12.793 4.7397 0.31673 1 9196
-12.389 2.8307 2.3944 0 8714
-12.015 -1.3774 2.2785 0 7958
-12.015 5.0556 1.2161 0 9389
-11.505 4.4904 -0.28675 0 9270
-11.49 4.1456 0.28359 1 9159
-11.27 1.0316 0.26275 0 8414
-11.121 1.973 1.5874 0 8585
-11.114 2.8123 1.0696 0 8782
-10.898 4.3677 1.65 0 9313
-10.879 -0.95943 -0.25355 0 8009
-10.853 6.0479 0 0 9947
-10.732 1.1109 1.0066 0 8438
-10.729 8.3106 1.5871 0 11175
-10.68 -1.7892 1.0103 0 7846
-10.612 7.0108 0.8894 1 10529
-10.525 -0.19475 0.24441 0 8183
-10.494 3.5827 0.77541 0 9087
-10.478 9.4081 0 0 11777
-10.443 -0.92096 0.24339 0 8010
-10.379 7.4305 0.29636 1 10844
-10.374 4.9815 1.0736 0 9617
-10.292 4.0541 1.8174 1 9286
-10.229 3.9267 -0.25439 0 9245
-10.201 -7.7064 2.1004 0 7714
-10.197 5.7224 -1.6434 1 9958
-10.123 7.205 0.86889 1 10821
-9.9738 1.1469 0.70203 0 8463
-9.7322 -6.6613 1.3792 0 7749
-9.6305 2.7361 1.407 0 8884
-9.338 5.2402 0.74877 0 9969
-9.2042 11.051 -0.33391 0 13052
-8.9799 5.0043 -1.689 2 9938
-8.9164 6.6631 0.25843 0 11021
-8.8682 7.868 2.2337 0 11734
-8.7456 7.8003 1.647 0 11758
-8.6929 4.9785 0.70049 0 10027
-8.6585 6.1237 0.24622 0 10794
-8.6075 -9.4529 2.1004 0 7358
-8.207 7.2406 1.0211 0 11704
-8.0359 6.0379 0.70287 0 11051
-7.8751 7.318 1.5109 0 11932
-7.8329 6.8669 0.97184 0 11681
-7.7717 10.381 -0.60475 0 13548
-7.6394 9.6732 -1.4414 0 13281
-7.6157 -10.86 0.30796 1 7012
-7.4611 7.309 0.48708 1 12144
-7.044 9.5823 2.2407 2 13637
-6.8958 8.7316 2.0963 0 13300
-6.8645 10.242 1.4419 1 14013
-6.7193 9.0343 1.0504 1 13582
-6.7144 -9.9396 2.26 1 6965
-6.4787 10.999 1.4928 0 14526
-6.3899 12.71 1.3272 0 15112
-6.014 -10.396 1.1205 0 6752
-5.9641 10.903 2.3414 0 14822
-5.6945 13.286 1.3486 1 15635
-5.4944 -11.315 2.3699 2 6492
-4.981 11.896 0.29942 1 15707
-4.9533 -9.4908 2.017 2 6599
-4.9437 9.5578 1.2584 0 15021
-4.908 -13.663 2.3851 1 6133
-4.4161 -11.451 1.145 2 6212
-4.4145 -12.734 1.2574 2 6089
-4.4039 9.8727 1.2642 2 15514
-4.3869 -11.671 0.58145 2 6178
-4.3373 -12.873 0.31539 1 6059
-4.313 -10.718 1.3511 0 6264
-4.1179 -10.061 2.0482 1 6285
-4.0578 -9.3013 0.94675 2 6359
-3.6415 -10.137 -0.25007 0 6125
-3.3483 9.5132 1.1794 0 16184
-3.2469 12.492 2.1205 0 16783
-2.9437 -14.705 1.3991 2 5597
-2.8212 11.972 2.3174 0 16924
-2.5203 -0.31035 0.47843 0 7941
-2.2264 10.538 1.5136 1 17048
-2.0368 10.894 -0.25731 0 17160
-1.8958 -12.462 1.176 0 5449
-1.8427 -10.293 0.48764 1 5527
-1.808 -10.457 1.4914 0 5507
-1.7608 -1.3216 0.10267 0 7716
-1.6309 7.1036 -1.908 1 16954
-1.3231 1.1201 -0.45383 1 11531
-1.2949 -11.365 1.8793 0 5366
-1.0754 -14.138 1.9927 0 5249
-1.0552 11.396 1.8803 0 17683
-1.0484 11.7 -0.82145 0 17688
-0.74414 7.3514 -1.9343 0 17639
-0.67364 10.169 0.23661 0 17786
-0.63164 2.7892 -1.3537 0 16963
-0.60762 11.751 -0.27319 0 17851
-0.57945 -12.333 2.0285 0 5161
-0.51935 10.619 -1.4942 0 17857
-0.48085 -11.667 0.54456 1 5138
-0.12277 10.99 -0.76858 0 17981
-0.084296 -13.416 2.2042 0 5034
0.27822 10.554 0.98503 0 18110
0.29011 14.205 -0.32987 0 18092
0.2998 11.373 0.26414 0 18108
0.45029 11.067 -0.51652 0 18148
0.50128 11.481 1.0722 0 18164
0.52758 10.033 1.6507 0 18200
1.0047 11.484 1.8939 0 18294
1.1072 -11.981 1.1225 0 4814
1.1195 -12.113 1.9986 0 4815
1.2389 -9.9468 1.6468 0 4753
1.3571 11.93 0.83959 1 18356
1.4053 12.709 -1.1929 0 18345
1.6321 -10.604 0.2491 0 4697
1.672 -2.0225 -0.30687 1 3465
1.8416 -12.701 2.1085 0 4717
1.903 10.662 1.2665 0 18538
1.928 10.263 1.9674 0 18563
2.0285 10.006 -1.4349 0 18594
2.095 -9.7889 0.93394 0 4580
2.1566 -1.961 0.20383 0 2955
2.479 -12.273 0.58388 1 4605
2.4955 3.6079 -1.9531 0 20499
