VERSION .7
FIELDS x y z intensity index
SIZE 8 8 8 8 8
TYPE F F F F F
COUNT 1 1 1 1 1
WIDTH 1551
HEIGHT 1
VIEWPOINT 0 0 0 1 0 0 0
POINTS 1551
DATA ascii
-6.2252 5.6784 0 0 12028
-6.2228 3.0499 0 0 10022
-6.2191 1.0787 0.88709 2 8895
-6.2189 -7.0218 0.43742 0 7511
-6.2189 -5.246 1.1434 1 7776
-6.2176 0.94699 1.185 2 8841
-6.2156 0.1302 0.58002 2 8430
-6.2156 1.0401 0.8857 2 8880
-6.2111 -7.5213 1.8378 2 7398
-6.2078 0.76332 0.87902 2 8754
-6.2004 1.2604 1.0395 2 8981
-6.2002 5.5925 -0.77899 2 11975
-6.199 -7.1588 0.44161 0 7471
-6.1971 0.25432 0.144 0 8492
-6.1935 5.7876 0.39531 2 12141
-6.1927 5.7164 0.19567 0 12086
-6.1918 -0.014049 0.72408 0 8357
-6.1907 -0.2822 0.87095 1 8246
-6.1883 -7.4936 1.3658 2 7396
-6.1859 -6.2882 1.6619 2 7654
-6.185 -0.48134 0.72548 0 8173
-6.1804 6.6766 1.4948 2 12816
-6.1793 -5.4001 0.76562 2 7740
-6.1767 5.7378 0.98589 0 12120
-6.169 -0.22836 1.0142 2 8268
-6.1636 -7.4215 1.3558 2 7406
-6.1623 -4.3149 0.87973 2 7921
-6.1618 -5.4496 0.96196 1 7728
-6.161 0.12905 0.14307 0 8428
-6.159 1.8408 0.75173 0 9310
-6.1481 6.1567 0.60842 0 12460
-6.1447 4.1306 0.34528 0 10872
-6.144 1.8562 0.75057 2 9322
-6.1383 -5.0907 0.55763 1 7794
-6.1313 -0.38897 0.86343 0 8206
-6.1278 -5.3551 1.1437 0 7741
-6.1184 -4.155 1.3935 0 7941
-6.118 5.9184 1.6038 0 12302
-6.1145 -0.40398 1.0068 0 8198
-6.108 0.44533 1.1539 2 8592
-6.1044 5.7666 0.58721 2 12192
-6.0996 0.9116 0.86677 1 8832
-6.0973 -4.4838 0.88507 1 7883
-6.0973 0.03831 0.28435 1 8383
-6.095 6.2088 1.2228 1 12543
-6.0919 5.9594 1.6056 0 12358
-6.0916 7.8958 1.8789 0 13603
-6.0859 0.87375 -0.14275 0 8817
-6.081 -7.1074 0.43621 0 7450
-6.0792 0.534 1.1498 1 8639
-6.0785 -4.4422 0.88042 2 7887
-6.0749 6.2623 0.61009 0 12595
-6.0615 7.2316 1.7778 0 13256
-6.057 4.0963 1.0277 0 10897
-6.0494 -5.1941 0.37183 1 7755
-6.0459 5.985 0.59488 1 12406
-6.0235 -6.7583 1.2723 0 7524
-6.0167 -7.921 1.8741 1 7254
-6.0083 5.8123 0.58456 0 12294
-6.0081 1.1853 1.0061 0 8963
-6.0072 -6.5076 0.6193 1 7570
-6.0034 1.1116 0.56961 2 8928
-5.999 -4.3314 1.0399 0 7899
-5.9985 1.1486 0.5698 0 8943
-5.997 1.1483 0.85814 1 8944
-5.9962 7.9629 1.1657 1 13697
-5.9961 0.35098 0.13945 0 8543
-5.9901 -7.1717 1.3132 2 7415
-5.9884 1.1619 0.85731 1 8953
-5.9879 7.8546 1.155 0 13648
-5.9851 -6.7578 1.7008 2 7517
-5.985 -6.4836 1.4497 0 7574
-5.9814 -4.6715 1.0666 0 7837
-5.98 5.9571 1.3868 1 12441
-5.9791 -6.4433 1.4442 2 7583
-5.9788 0.1952 0 0 8463
-5.9735 6.0532 1.6023 2 12521
-5.9577 -3.8468 0.82932 0 7988
-5.9531 -4.4309 1.043 2 7875
-5.9524 2.768 1.2368 0 9934
-5.9447 -0.35838 0.83699 2 8216
-5.9436 -4.8113 1.0747 1 7814
-5.9421 -0.21996 0.55475 0 8266
-5.9226 -7.5182 1.1192 1 7318
-5.9224 -0.71984 0.98018 0 8094
-5.9208 -0.20262 0.55271 1 8275
-5.9108 -0.2374 0.41366 1 8257
-5.9091 -4.615 0.52429 1 7836
-5.9084 -5.1306 1.0997 1 7747
-5.9009 8.0272 0.92948 0 13799
-5.9007 -5.4336 0.93803 2 7699
-5.8911 -7.6608 0.90161 2 7271
-5.8891 -7.4757 0.88786 1 7317
-5.8863 -7.2561 0.8717 2 7361
-5.8834 -5.2622 -0.3681 0 7714
-5.8823 -0.71497 0.69296 0 8093
-5.8815 -7.6483 1.8178 2 7276
-5.8708 -7.1092 0.86018 2 7394
-5.8627 1.2088 0.55847 1 8992
-5.8546 -6.3091 0.60186 0 7579
-5.8513 1.0655 0.27736 1 8920
-5.8447 0.82142 1.112 0 8811
-5.8384 -5.0699 0.7214 1 7746
-5.8347 -7.7711 1.5966 2 7235
-5.8345 -4.6961 1.2305 2 7820
-5.8284 -7.1846 0.64692 1 7360
-5.8255 -6.4608 1.4293 0 7545
-5.8208 -6.4943 1.4328 1 7535
-5.8124 4.829 1.2415 0 11654
-5.8083 -0.742 0.96202 2 8084
-5.8061 -0.50287 0.95748 1 8153
-5.7985 5.8066 1.3482 0 12467
-5.7931 1.0726 0.27475 0 8927
-5.7877 -4.4394 1.1984 0 7852
-5.78 -0.48434 0.95294 2 8160
-5.7742 -6.9922 1.0605 0 7395
-5.773 1.1903 0.13685 0 8990
-5.7671 8.1361 0.93041 2 13959
-5.766 0.75911 0.40668 2 8782
-5.7551 8.0713 0.92483 2 13929
-5.7544 -0.97226 0 1 8029
-5.7528 0.45377 0.67484 2 8609
-5.7505 4.04 1.1546 0 11030
-5.746 0.48856 0.67437 2 8625
-5.7435 -4.7904 0.87461 0 7788
-5.7374 -7.0323 0.63464 2 7372
-5.7245 0.9077 1.092 1 8855
-5.7217 -4.7452 0.86927 2 7795
-5.7199 -0.42908 0.4011 0 8180
-5.7118 0.63362 0.67205 1 8716
-5.7017 5.7096 0.94361 1 12464
-5.7009 5.8419 1.3411 1 12574
-5.6982 0.93515 1.088 0 8874
-5.6938 1.4355 0.68668 2 9136
-5.6936 0.90279 0.67414 1 8853
-5.6867 1.3474 0.68343 1 9093
-5.6782 0.64795 0.66833 2 8725
-5.6755 0.91517 0.67228 1 8864
-5.6754 -5.0477 1.0675 2 7722
-5.6739 -0.21004 0.26478 0 8265
-5.6678 -5.1303 1.0744 2 7708
-5.6643 -3.6813 1.1099 2 7984
-5.6607 5.4455 1.2905 2 12275
-5.6561 0.92825 0.2673 1 8873
-5.6369 5.7764 0.94384 0 12571
-5.6367 -7.6009 0.88285 2 7214
-5.6343 -4.983 1.4172 1 7730
-5.6332 -3.682 1.1057 2 7977
-5.6328 -6.9858 1.2612 2 7353
-5.6314 -6.2455 0.58805 1 7543
-5.631 0.77535 0.39747 1 8802
-5.618 0.52611 0.79301 0 8657
-5.6135 0.75598 0.39608 2 8793
-5.6121 -4.9339 1.0502 1 7734
-5.6077 -4.9299 1.4068 1 7735
-5.6042 -4.7578 1.2078 2 7771
-5.6012 -7.5064 0.43677 1 7221
-5.5935 1.239 0.5345 1 9041
-5.5907 1.7778 0.54732 2 9386
-5.5882 5.9633 1.3427 2 12765
-5.5861 1.8107 0.8253 2 9414
-5.5787 5.7849 1.5142 1 12631
-5.5659 -5.2782 1.078 0 7685
-5.5523 0.63359 0.39078 2 8724
-5.5406 -7.4713 0.21595 0 7211
-5.5174 -6.4898 1.6049 2 7446
-5.5127 1.562 0.80526 1 9258
-5.5116 6.8919 1.6627 0 13449
-5.5114 4.0396 0.47783 0 11176
-5.5061 -4.5924 1.3509 2 7791
-5.5013 0.88708 0.38966 0 8863
-5.489 6.0323 1.1462 2 12891
-5.4854 -0.23662 -0.12747 0 8251
-5.4817 -7.6229 0.87597 0 7161
-5.4682 -6.209 0.96754 0 7504
-5.4682 3.5173 0.60658 0 10726
-5.4659 -8.1342 0.68529 1 7078
-5.4548 6.9442 0.61748 0 13522
-5.4545 2.0698 0 0 9620
-5.4435 5.8805 0.74759 2 12811
-5.4371 2.048 0 0 9607
-5.4324 5.9015 0.74834 0 12839
-5.4188 -6.4465 0.58888 0 7422
-5.3985 6.9123 0.6133 0 13548
-5.3971 1.646 0.79301 0 9335
-5.3754 6.4129 1.3748 0 13254
-5.3699 -6.5819 1.6005 2 7378
-5.3697 -7.6973 0.8756 2 7125
-5.3697 5.9344 1.5079 1 12917
-5.3638 -8.3454 1.3942 2 7002
-5.3571 1.1377 0.38296 1 9011
-5.3569 -6.8 0.40369 1 7315
-5.3548 1.6689 0.78828 0 9364
-5.3541 2.0167 0.93997 0 9612
-5.3477 -5.4973 0.53629 0 7646
-5.3338 -6.5376 0.78717 0 7373
-5.3313 -8.0822 1.5907 2 7050
-5.329 0.11163 1.0043 0 8432
-5.3161 1.1776 0.89458 1 9042
-5.3125 2.1238 0.93997 0 9700
-5.3063 5.9016 1.4953 2 12943
-5.3025 -6.3847 0.97056 1 7405
-5.2975 3.1304 0.57407 0 10468
-5.2898 0.85298 0.24987 0 8862
-5.2866 7.0207 0.61455 0 13694
-5.2855 3.2708 0.72687 0 10607
-5.2761 -5.4865 0.35497 0 7634
-5.2678 1.9319 0.78855 2 9571
-5.2531 -0.56232 0.36943 0 8119
-5.2494 -0.57769 0.36929 0 8115
-5.2463 -6.4303 -0.38702 0 7369
-5.2341 5.8849 0.73478 0 12990
-5.2332 0.72058 0.12265 1 8801
-5.2187 -6.5867 0.78401 0 7328
-5.2178 3.0834 0.99574 0 10472
-5.2072 -7.1514 1.6667 2 7186
-5.1953 -7.088 1.0277 2 7195
-5.193 -7.1739 1.6686 2 7177
-5.1752 -6.6527 0.98565 0 7295
-5.1744 -6.4564 0.77193 2 7344
-5.1737 8.2796 1.604 1 14485
-5.1435 5.8878 0.72939 0 13073
-5.1319 8.4272 1.1538 0 14592
-5.1175 8.5102 1.3956 2 14656
-5.1037 7.7608 1.7501 2 14285
-5.1016 2.3368 1.0572 1 9907
-5.1 -8.0301 0.6652 0 6981
-5.0934 6.3304 1.3349 0 13422
-5.0878 -6.4957 0.38478 0 7305
-5.075 -6.9239 0.40034 1 7192
-5.0748 3.5415 0.14367 0 11002
-5.0734 -7.4068 1.2617 2 7104
-5.0651 -6.6297 1.5719 1 7264
-5.0553 -8.1693 1.81 1 6949
-5.0546 1.8858 0.75822 2 9598
-5.0503 -7.1486 0.61204 0 7141
-5.0454 -8.3145 1.5979 2 6925
-5.0363 3.0357 -0.13653 1 10522
-5.0349 -8.2972 0.22533 1 6919
-5.032 -4.0734 1.2198 1 7816
-5.0246 8.5883 1.1636 0 14766
-5.0124 -7.0116 0.6027 0 7155
-5.0088 2.6196 0.7944 0 10158
-5.0053 -0.069892 0.35004 0 8327
-4.9984 3.0931 0 0 10602
-4.9977 -8.5662 1.8686 2 6879
-4.9975 -3.7645 0.43751 0 7866
-4.9938 4.3733 0 0 11861
-4.992 4.247 1.0768 0 11747
-4.9856 -6.7229 1.1763 2 7215
-4.9636 2.2047 0.89231 0 9854
-4.9522 -8.2712 1.8163 2 6908
-4.9432 -6.6246 0.96661 2 7222
-4.9351 -8.2951 1.8186 1 6903
-4.9313 -8.1265 0.44329 1 6920
-4.927 4.168 1.0603 1 11722
-4.9235 -7.0577 1.0063 1 7126
-4.9229 -6.6772 0.58009 1 7203
-4.9225 6.118 0.91829 0 13420
-4.9191 8.1352 0.66478 0 14619
-4.9071 7.0974 0.40239 0 14063
-4.9048 -8.0258 1.5453 2 6933
-4.8938 -7.1445 1.4228 0 7105
-4.8756 -8.5896 1.3881 0 6838
-4.8651 -6.9739 0.5946 0 7124
-4.8643 2.3651 1.0191 1 10014
-4.8642 -7.1924 0.60716 0 7087
-4.8611 -7.6098 0.63144 0 6992
-4.8541 8.2969 0.67217 0 14762
-4.8519 7.1932 -0.40462 0 14168
-4.8329 8.5387 1.3789 0 14893
-4.8309 1.9312 0.12079 0 9693
-4.8201 0.21213 0.225 0 8501
-4.8142 1.5921 -0.11773 0 9436
-4.8037 1.5423 0.95057 0 9404
-4.7985 -7.3217 1.6493 2 7039
-4.796 -8.2801 1.119 2 6867
-4.7948 2.4199 0.37557 0 10081
-4.7944 -5.5367 -0.34155 0 7470
-4.7873 -8.434 1.1341 2 6837
-4.7801 6.0461 0.90133 0 13499
-4.778 8.4969 1.37 0 14918
-4.7777 6.1173 1.2752 1 13554
-4.7764 6.0807 1.2704 1 13528
-4.7721 -0.74986 -0.11215 0 8044
-4.7718 -7.1469 1.2077 0 7071
-4.7709 6.6468 -0.18996 0 13899
-4.7671 -6.4659 0.93943 0 7205
-4.7458 8.6756 1.3898 1 15020
-4.7432 6.1481 0.90807 1 13600
-4.7404 -7.6099 0.20815 1 6953
-4.74 1.2816 0.80671 0 9209
-4.7395 3.8475 1.1502 0 11564
-4.7293 -8.0544 1.3127 2 6886
-4.7199 3.4595 0 0 11172
-4.7111 -7.2794 1.014 2 7013
-4.7061 -7.5548 1.4623 2 6958
-4.6982 0.66029 0.33176 0 8809
-4.6908 -5.5804 0.33997 0 7421
-4.6879 -8.0935 0.65404 0 6865
-4.6852 8.5047 1.1355 1 14993
-4.6824 0.54923 -0.32967 2 8730
-4.6696 -0.71956 -0.10969 2 8047
-4.6646 -8.7988 1.8763 2 6750
-4.6593 -8.7298 1.6257 2 6758
-4.656 -7.9805 0.64608 0 6874
-4.6495 -7.2341 1.0056 2 7001
-4.6439 -8.8228 1.6381 2 6740
-4.6439 -0.27996 0.54405 0 8215
-4.6399 8.1977 1.5476 1 14895
-4.6373 -6.5253 0.37332 1 7148
-4.635 -0.29405 0.54312 0 8205
-4.6267 8.2278 1.5508 2 14920
-4.6132 -8.6433 0.45689 2 6754
-4.6108 -8.0672 0.43332 0 6844
-4.6104 8.7259 1.387 2 15149
-4.6065 -3.6198 0.54658 0 7832
-4.6021 8.184 0.87597 0 14914
-4.5993 4.2219 0.29115 0 12057
-4.5964 -8.2649 1.3291 0 6810
-4.5882 -8.1894 0.65641 1 6816
-4.5846 -4.7675 0.15356 0 7633
-4.5802 -7.4537 0.40798 0 6935
-4.5673 -8.3217 1.3341 2 6791
-4.5656 8.8231 1.3962 2 15229
-4.5644 6.2091 1.083 2 13803
-4.5562 8.0498 0.86297 2 14889
-4.5532 -6.2532 0.90458 1 7184
-4.5503 -8.0164 1.7367 2 6840
-4.5449 -6.2418 0.53992 2 7182
-4.5362 2.6987 0.24615 0 10486
-4.533 -6.1484 0.71267 2 7204
-4.5242 -8.0193 0.64385 2 6826
-4.523 -7.4536 1.0196 2 6923
-4.5165 7.1804 0.39559 0 14450
-4.5072 -3.4573 0.13188 0 7849
-4.506 -7.1916 1.599 1 6965
-4.4987 -8.258 1.0997 1 6781
-4.4958 -8.0839 0.43136 1 6806
-4.4929 -7.5042 1.0228 2 6907
-4.4836 -7.1558 0.98751 2 6963
-4.4832 -7.5357 1.4406 1 6902
-4.4829 2.9023 0.8774 2 10753
-4.4828 -7.4873 0.61023 2 6905
-4.4823 4.702 -0.45425 2 12668
-4.4783 1.3385 0.6569 0 9312
-4.4769 8.2351 0.87448 0 15041
-4.4697 8.8217 1.6248 2 15304
-4.4653 1.9203 -0.11285 0 9800
-4.4622 8.7538 1.3809 2 15278
-4.4621 -6.3161 0.90435 1 7143
-4.4599 -7.6445 0.41273 2 6873
-4.4578 -6.5496 0.55401 0 7093
-4.4572 -6.633 1.1231 2 7080
-4.4515 -3.9592 0.69667 0 7721
-4.4463 -0.25559 0.83911 0 8224
-4.4456 -7.4723 0.608 2 6900
-4.4417 8.2907 1.3219 2 15097
-4.4378 -7.558 1.44 1 6887
-4.4345 -6.852 1.1471 2 7014
-4.4313 8.444 1.5667 2 15178
-4.426 -8.6566 1.3664 0 6698
-4.426 0.96664 0.42266 0 9030
-4.4223 -8.5169 1.1222 0 6717
-4.4163 -6.7386 1.1323 2 7037
-4.4152 -4.0189 0.13861 0 7704
-4.4033 8.3339 1.5486 1 15151
-4.4024 3.5739 0.13165 0 11556
-4.3929 3.5018 0.26199 0 11490
-4.3883 5.7918 0.84976 2 13672
-4.378 0.30844 -0.1019 0 8576
-4.3693 6.1641 0.52834 0 13957
-4.3685 0.98049 0.84355 2 9054
-4.3682 -8.723 0.91016 0 6672
-4.3627 0.93926 0.41634 2 9020
-4.3587 -0.35299 0.40798 2 8166
-4.3541 -0.27622 0.10129 0 8204
-4.3435 -7.4449 1.008 1 6876
-4.332 -0.33713 0.40538 0 8172
-4.3271 0.039272 0.2018 0 8394
-4.3257 1.7013 0.87577 2 9674
-4.3118 -7.7979 1.4639 1 6802
-4.3052 1.0854 0.83652 0 9140
-4.2989 5.8118 1.016 1 13775
-4.2934 -7.987 0.63409 1 6764
-4.2903 -3.6423 -0.26245 0 7768
-4.2509 0.54681 0.60234 0 8776
-4.2479 2.0207 0 0 9966
-4.2472 -7.431 0.59851 1 6845
-4.2429 0.81245 0.81393 0 8945
-4.2387 -7.7807 0.61958 0 6779
-4.2238 0.94799 -0.1005 0 9050
-4.2184 -7.3302 0.5914 0 6855
-4.2036 -6.414 0.71545 2 7035
-4.1985 -7.7069 1.4419 1 6783
-4.189 -3.9022 0.66949 1 7694
-4.1876 -3.9242 0.67112 1 7690
-4.1854 -7.9518 0.62837 2 6736
-4.1832 -7.8378 0.62125 1 6755
-4.1754 -8.9094 1.3828 1 6596
-4.1743 -7.9847 0.63004 1 6724
-4.1678 -7.6506 0.8128 2 6780
-4.1507 0.44944 -0.58675 2 8699
-4.1311 -0.29757 0.48435 2 8187
-4.127 -7.4209 0.59377 2 6807
-4.1265 -7.6254 0.8089 2 6774
-4.1194 8.8907 1.6099 0 15595
-4.1125 -4.561 -0.28639 0 7541
-4.1105 -7.6469 0.20156 0 6762
-4.1097 0.0014338 0.77431 0 8367
-4.1016 8.6496 1.1195 1 15522
-4.0925 1.1065 0.79875 0 9211
-4.0924 1.0828 0.6955 0 9184
-4.0757 1.8249 0.52221 0 9864
-4.0748 -7.9082 0.62209 0 6705
-4.0603 0.32026 -0.094561 0 8606
-4.0512 4.4011 0.98277 0 12844
-4.0496 0.69003 0.28726 0 8887
-4.0458 -7.6865 0.81039 1 6737
-4.0315 -7.7644 0.61176 2 6715
-4.0221 7.6125 -0.19989 0 15138
-4.0175 -7.4241 0.59028 0 6773
-4.016 -7.6299 1.6245 2 6741
-4.0023 -7.7676 0.81522 2 6706
-3.9999 -7.9323 1.6738 1 6684
-3.992 8.9495 0.91424 2 15713
-3.9754 -7.8257 1.6538 2 6690
-3.9734 -7.9346 1.6719 1 6676
-3.9673 -8.1595 1.2751 1 6641
-3.9613 3.9904 0.79022 0 12492
-3.9536 -8.7684 0.67259 2 6548
-3.9438 0.34643 0.46298 0 8636
-3.9381 8.8993 0.90793 1 15737
-3.9243 -8.906 0.68054 1 6520
-3.9181 4.015 0 0 12562
-3.9089 0.13855 0.4574 0 8474
-3.8991 -4.6107 0.14019 1 7431
-3.8988 -7.3543 0.77658 2 6746
-3.8985 8.4759 0.8704 2 15614
-3.8957 -9.05 1.1522 2 6496
-3.8895 0.88439 0.56059 2 9063
-3.8381 -0.44476 0.18018 0 8105
-3.8226 1.3379 0 0 9506
-3.8208 1.3756 0.094282 0 9543
-3.7581 1.1461 0.36655 0 9332
-3.7447 6.1061 0.66826 0 14563
-3.7294 7.4183 0.3872 0 15323
-3.7287 8.9094 1.1294 2 15909
-3.6979 -3.7368 0.36762 0 7658
-3.6713 -7.1252 0.93734 1 6707
-3.6597 1.6887 0.37603 2 9917
-3.6496 -2.7662 0.86281 0 7862
-3.61 -4.4247 0.13258 1 7370
-3.5841 -3.7271 0.60468 0 7636
-3.5815 -7.3659 0.76413 1 6639
-3.5689 8.8155 1.3366 1 16014
-3.5187 -7.3409 0.75948 2 6622
-3.5088 1.522 0.62838 0 9816
-3.4945 -0.23088 0.40955 1 8196
-3.487 1.2664 -0.34612 2 9553
-3.4788 4.6739 -0.13527 0 13740
-3.4757 0.43662 -0.081331 0 8761
-3.4744 0.44693 -0.081331 0 8771
-3.4725 8.7171 0.87541 2 16058
-3.4699 -4.5947 -0.26851 1 7241
-3.4688 2.2039 0.77431 0 10688
-3.4589 1.0661 0.59466 0 9351
-3.4286 -9.2736 0.92242 1 6318
-3.4097 6.9817 -1.2765 0 15409
-3.4039 -6.2902 1.3475 0 6777
-3.3981 3.6709 -1.0633 2 12815
-3.3846 1.2413 0.083698 0 9567
-3.3828 -0.38243 0.55932 0 8111
-3.375 -8.5899 1.0793 2 6391
-3.3498 -2.8762 0.30874 0 7756
-3.3442 -2.9224 -0.20711 1 7739
-3.3434 1.2142 0.082584 0 9555
-3.3293 4.4455 -0.259 0 13714
-3.3261 1.6172 0.60763 0 10012
-3.3239 -8.7547 1.5385 2 6352
-3.314 -8.5795 1.0756 2 6370
-3.3066 -2.7093 -0.099249 0 7804
-3.3031 0.74136 0.31583 0 9052
-3.2968 -8.7523 1.5366 1 6342
-3.2712 9.2994 0.68933 2 16397
-3.2685 -0.46576 0.464 0 8066
-3.2501 9.3173 0.69003 0 16422
-3.2379 1.2735 0.57164 0 9672
-3.2259 -8.4968 0.84792 1 6349
-3.2171 -8.7815 1.0937 0 6309
-3.2155 -3.6717 -0.11332 0 7491
-3.2111 -2.3761 0.37268 0 7879
-3.2089 6.3829 -0.16586 0 15317
-3.1961 -9.4751 0.69924 1 6223
-3.1961 9.1625 1.5943 1 16430
-3.1861 -7.1764 -0.1823 0 6527
-3.1856 9.1323 0.90235 2 16424
-3.1687 -4.4326 -0.38101 1 7151
-3.1412 6.7795 -0.34844 0 15582
-3.1342 -2.3328 0.36451 1 7874
-3.1124 9.3672 1.1543 0 16544
-3.1027 1.7856 -1.117 0 10389
-3.0886 5.1362 0.4191 0 14650
-3.0863 -2.5742 -0.093307 0 7787
-3.0641 -6.0319 0.95083 2 6689
-3.0633 9.4899 1.1662 0 16611
-3.0599 -6.482 1.3505 0 6607
-3.0417 -3.8391 -0.3425 0 7324
-3.015 5.6277 0.74662 0 15095
-3.0133 -2.5873 -0.18522 0 7754
-2.9886 4.5153 0.761 0 14255
-2.9722 -8.5736 1.0612 1 6254
-2.9451 1.2971 0.22503 0 9837
-2.9446 3.1073 0.50061 0 12709
-2.939 -3.2595 0.1019 0 7542
-2.9335 -3.4505 0.31669 0 7440
-2.9299 3.238 -1.1432 0 12913
-2.9259 3.8617 0.45201 0 13670
-2.9112 5.7111 0.14883 0 15269
-2.9097 1.5425 -0.94433 1 10189
-2.909 -3.4399 0.31502 2 7432
-2.9075 -3.2043 0.10046 1 7551
-2.8948 4.5126 -1.4035 0 14377
-2.8851 3.7844 0.11048 0 13643
-2.8764 -8.6167 1.0623 1 6216
-2.8757 3.9609 0.45666 0 13851
-2.8729 4.1552 0.35325 0 14065
-2.8626 -9.4756 1.1576 2 6116
-2.8611 -8.6511 1.0656 2 6207
-2.8085 1.9483 0.56159 0 10986
-2.806 2.1711 0.41489 0 11379
-2.7978 5.9483 -0.92383 0 15530
-2.7941 -2.1956 0.66951 0 7833
-2.7886 2.1708 0.41326 0 11402
-2.7866 2.3574 0 0 11714
-2.777 2.3626 0 0 11738
-2.7635 -2.3997 -0.17068 1 7745
-2.7367 4.1615 -1.0587 0 14283
-2.726 -4.8656 0.91631 1 6820
-2.7144 -8.9847 1.3191 0 6117
-2.6817 1.9534 -1.121 0 11152
-2.6787 -9.0491 1.3263 0 6098
-2.6751 -2.8646 0.64394 2 7592
-2.6662 2.3226 0.4135 0 11842
-2.6485 3.0661 -0.18894 2 13115
-2.6389 2.2843 0.40815 2 11818
-2.6255 1.8665 0.60693 0 11074
-2.5636 -5.9099 0 0 6501
-2.5514 -3.0896 -0.093029 2 7391
-2.5429 4.4329 0.23832 0 14836
-2.5363 2.0833 0.61841 0 11610
-2.4802 3.2937 -1.0794 0 13696
-2.4617 -6.3206 1.1144 2 6382
-2.4603 -2.9793 0.18018 0 7392
-2.454 -1.7614 0.14087 0 7901
-2.4435 3.9595 0.10802 0 14528
-2.4375 -2.9696 0.17916 1 7382
-2.4361 4.1639 -1.0254 1 14769
-2.4315 -2.1505 0.22699 0 7726
-2.4287 -2.3031 0.07771 0 7684
-2.4212 4.8162 0.12515 0 15321
-2.4121 2.4865 0.16155 0 12594
-2.4058 4.1386 -1.0175 2 14793
-2.4054 -7.7229 0.94593 0 6151
-2.3915 2.3674 0.078128 0 12403
-2.3864 4.2162 -0.22593 0 14880
-2.3701 4.8166 0.25034 0 15396
-2.3631 -2.4876 -0.079659 0 7613
-2.3519 2.3552 -0.15522 0 12454
-2.3511 -2.4603 -0.07901 1 7622
-2.348 3.1352 0.09094 2 13718
-2.3095 -7.8019 0.95151 0 6097
-2.3056 2.4185 -0.87473 0 12681
-2.3 -3.2174 -0.091822 0 7152
-2.293 3.3165 0 0 14060
-2.2914 4.558 -0.35673 2 15314
-2.2849 3.3245 0 0 14089
-2.2749 8.7585 1.2718 0 17037
-2.273 7.3293 -0.89738 0 16688
-2.2392 4.585 0.11847 0 15421
-2.2374 4.09 0 0 15010
-2.2291 2.8377 0.50715 0 13526
-2.204 5.5838 -0.84367 0 16068
-2.1972 -2.4215 0.30506 0 7552
-2.1952 4.5613 0 0 15469
-2.1487 3.8747 0.72792 0 14971
-2.1442 7.0575 0 0 16733
-2.1439 4.6979 0 1 15633
-2.1439 7.6118 0 0 16892
-2.1402 2.2711 0.14553 0 12733
-2.1322 3.9798 0.31572 0 15091
-2.1245 2.9071 -0.9426 0 13826
-2.1118 7.6721 -0.74239 0 16926
-2.1057 8.9497 0.85776 0 17168
-2.1001 8.9258 0.21289 0 17164
-2.0929 -3.0001 0.17059 1 7123
-2.0729 -6.7887 -0.1648 0 6123
-2.0715 4.2737 0.66747 2 15452
-2.0431 3.0291 0.6884 2 14182
-2.0263 -4.2274 0.65885 1 6624
-1.9506 7.2393 0.69948 1 16979
-1.9463 3.9853 -0.20683 0 15417
-1.9389 3.8837 0.10078 2 15347
-1.9328 -6.2711 -0.15236 2 6136
-1.9115 8.1243 1.3712 1 17173
-1.9101 -6.9773 0.16795 1 6027
-1.8907 9.5053 1.826 0 17361
-1.8638 -4.1011 -0.10459 1 6554
-1.8618 8.9588 -0.85368 0 17304
-1.8311 -5.5923 0.13662 1 6193
-1.821 3.2839 0.08718 0 14961
-1.8176 4.3113 -0.10863 0 15873
-1.787 3.012 -0.16332 0 14702
-1.7778 -6.0056 -0.29208 0 6093
-1.7747 3.1126 -0.083187 0 14858
-1.7565 3.1468 -1.2177 1 14938
-1.737 -4.102 0.4156 2 6476
-1.7219 -4.4578 -0.22286 0 6363
-1.7016 -3.8327 0.49039 1 6532
-1.6848 4.2683 -0.10654 0 16075
-1.4108 -3.683 0 0 6355
-1.392 -9.1184 0 0 5691
-1.391 -4.6045 0 0 6112
-1.3709 -5.248 0.25295 0 5995
-1.3431 6.5545 -0.31202 0 17321
-1.3392 2.8473 -1.3143 0 15538
-1.3089 6.4799 -0.30829 1 17337
-1.2866 9.2363 0.87003 0 17675
-1.2502 7.6597 0.54271 0 17544
-1.2363 -5.0257 0.48285 0 5954
-1.2311 7.4287 0 0 17526
-1.2197 -5.0224 0.24102 0 5944
-1.2178 6.3064 0.90268 0 17391
-1.2139 6.2862 0.4477 0 17387
-1.1979 -5.893 -0.28043 0 5814
-1.1975 6.8542 0 0 17478
-1.1883 6.8015 -0.32198 0 17475
-1.1858 -6.6104 1.1034 0 5761
-1.1608 6.3063 0.14887 0 17433
-1.1245 -5.4444 0.78132 0 5823
-1.0958 6.0601 -0.14298 0 17447
-1.0806 5.5128 0.65695 0 17374
-1.0564 -6.6621 1.2709 0 5708
-1.0504 9.5447 0.89585 0 17853
-1.0469 -5.7438 0.13555 0 5767
-1.0445 -7.4228 0.17403 0 5658
-1.0279 7.3797 -1.4038 1 17679
-1.025 7.0522 0.33233 0 17636
-1.0222 5.553 0.92765 0 17439
-0.98716 6.4062 0.60473 1 17594
-0.95956 5.5785 1.0665 0 17502
-0.95895 -5.9404 0.98861 2 5717
-0.95689 9.2124 0 0 17883
-0.87862 -8.5607 -0.1998 0 5536
-0.87349 8.4096 -0.39428 0 17880
-0.869 -4.1488 -0.098414 0 5829
-0.8494 -4.003 0.47854 0 5844
-0.84884 6.5001 0.76659 0 17730
-0.83662 -3.3184 -0.15959 0 5969
-0.83384 8.2664 -1.1677 0 17890
-0.82281 -3.3075 -0.15894 0 5960
-0.81203 4.8998 -0.93576 0 17534
-0.80628 9.6624 1.593 0 17997
-0.80437 -4.6375 -0.10928 1 5742
-0.79539 4.2584 -1.3518 1 17418
-0.76709 -7.952 1.3125 0 5518
-0.76511 -4.2651 0.40427 1 5760
-0.72485 -4.2539 0.40259 2 5737
-0.71743 -3.2849 -0.1568 0 5862
-0.71601 9.9644 1.6413 1 18052
-0.70825 -3.2869 -0.1568 0 5852
-0.70774 3.2596 -0.87321 0 17269
-0.69312 7.5 1.0586 0 17949
-0.68508 -6.3165 0.89293 0 5560
-0.68147 -8.9381 0 0 5448
-0.67818 5.7213 0.80971 0 17797
-0.66945 7.4863 1.0563 0 17966
-0.6308 3.9426 0.56115 0 17563
-0.61601 3.1427 0.14935 0 17370
-0.58108 9.6385 0 0 18090
-0.54546 -6.1973 -0.29012 0 5487
-0.52278 -5.4194 -0.12641 0 5514
-0.51671 -3.3224 -0.1568 0 5700
-0.49124 -4.3049 0.1006 0 5576
-0.47994 -4.1041 0.3855 0 5586
-0.45644 -9.6788 1.8256 0 5354
-0.45018 -6.9804 1.3179 1 5414
-0.43957 -7.4648 1.2285 0 5395
-0.42985 -4.8838 0.11383 0 5488
-0.40778 -5.5662 0.78438 2 5442
-0.40579 -5.7454 -0.2686 0 5428
-0.38699 8.4248 0.19581 0 18146
-0.3827 7.021 0.656 0 18117
-0.37742 -4.9502 0.23152 0 5450
-0.34463 -8.971 1.475 1 5319
-0.33698 8.4637 1.3916 0 18171
-0.32052 9.4626 0 0 18192
-0.32015 9.4518 1.5538 1 18201
-0.27854 -4.982 0.34892 0 5383
-0.26036 7.0332 0.82304 1 18181
-0.23575 -3.8326 0.17907 0 5402
-0.19005 9.8086 1.6118 0 18256
-0.17934 7.085 0.6612 2 18231
-0.17699 7.8599 0.73347 0 18242
-0.16381 9.7756 1.6063 0 18266
-0.12323 -3.7947 0.53359 0 5300
-0.11421 8.389 -0.19478 1 18272
-0.061726 4.5338 -0.85429 2 18280
-0.057923 -3.771 0.61962 0 5242
-0.0454 -3.7159 0.61055 1 5232
-0.02821 -7.6968 1.2645 1 5212
-0.022646 4.474 -0.95099 2 18313
-0.019889 -5.4265 0.12599 0 5210
-0.015944 7.0278 -1.1546 0 18315
-0.0039353 -7.5158 1.416 0 5205
0.019302 -8.5067 0.3967 0 5198
0.056111 -6.8401 0.63817 0 5186
0.069761 -6.3441 0.44365 0 5179
0.085979 -7.819 -0.36466 0 5177
0.095295 4.5118 -0.10477 0 18405
0.098297 -3.163 0.14758 0 5127
0.11801 -5.2407 0 0 5148
0.12872 -7.6816 0.71675 0 5164
0.1292 7.1171 -0.33195 0 18392
0.14338 -5.0384 0.70839 0 5134
0.16972 8.0355 -0.37481 0 18403
0.17822 9.8175 1.1483 0 18400
0.19952 3.2343 -0.15112 0 18527
0.20016 -5.4329 0.76406 0 5113
0.20116 -8.9328 1.0449 0 5151
0.20171 -5.4748 0.90009 0 5114
0.26132 9.7199 0.22575 0 18422
0.27258 7.6525 -1.2581 0 18442
0.30799 -7.1983 0.84256 0 5103
0.31407 -5.7619 1.0872 0 5079
0.33079 8.0263 0.74945 0 18467
0.33127 7.0246 0.32795 0 18484
0.33687 -5.5878 -0.26105 0 5069
0.34174 -3.3879 0.079056 0 5000
0.35845 -8.9637 1.0491 0 5108
0.36467 8.2532 1.3573 1 18478
0.37214 -5.4032 0 0 5059
0.38912 -5.402 0 2 5054
0.38921 -5.4034 0.89004 1 5055
0.43442 -5.5821 0.91987 0 5047
0.47747 -3.5038 0.16491 0 4939
0.48549 3.2446 -1.2811 0 18788
0.50338 -3.2072 0.53338 0 4892
0.5133 7.0234 -0.1635 0 18560
0.52916 3.2208 0 0 18822
0.55914 9.5237 1.7975 1 18525
0.6002 -4.4044 0.31083 0 4940
0.60119 7.0852 0.49722 0 18600
0.64083 7.8112 -0.36549 0 18588
0.66616 3.2801 -0.47041 1 18925
0.66731 7.5816 -0.71007 0 18606
0.68506 7.5421 -0.70654 0 18614
0.70484 9.2447 -0.21526 0 18570
0.70926 7.3258 -0.17088 0 18633
0.7098 7.3313 1.0352 0 18635
0.71882 8.4716 -1.3968 0 18596
0.72243 6.6827 0.47002 0 18666
0.76473 9.6737 -1.1348 0 18575
0.76581 3.4093 0.16295 0 18993
0.77984 3.3806 -1.2627 1 19008
0.78174 3.532 -0.59433 0 18978
0.80214 5.9562 0 0 18740
0.80809 3.4589 -1.2928 0 19015
0.82362 -5.3449 0 1 4897
0.82437 -3.455 0 0 4733
0.8309 6.4505 0.60677 0 18726
0.84421 7.586 -0.71211 0 18671
0.85887 7.3333 1.0377 0 18693
0.86229 -8.7944 1.6649 0 5005
0.86535 7.5716 -0.71099 0 18679
0.86753 6.1572 0 0 18763
0.87318 -5.7804 0 1 4906
0.91148 5.9775 -0.84979 0 18792
0.93107 6.7531 0.95807 0 18757
0.93451 -2.9229 0.1431 1 4562
0.93785 -5.1812 0.86508 0 4846
0.94322 -5.1241 0.856 0 4839
0.94723 6.7229 0.95417 0 18767
0.9572 9.8866 -0.92669 0 18631
0.96719 2.9245 -1.1211 2 19394
0.97044 3.0208 0.44591 2 19359
0.98281 3.4342 0.58688 0 19193
0.98866 5.3343 -1.4202 1 18875
0.99638 3.3338 -0.24331 0 19236
1.0027 8.3469 0.39205 0 18700
1.0059 -8.694 0 0 4972
1.0136 3.7882 -0.55113 1 19111
1.0151 5.1407 0 0 18910
1.0186 9.153 -0.21382 0 18673
1.0412 -3.0745 0 0 4523
1.0422 -3.4672 0.50882 0 4598
1.0614 -4.8925 0.46706 0 4774
1.0628 6.4689 0.92133 0 18826
1.0695 6.3844 -1.376 0 18830
1.0832 5.0313 -0.11949 0 18962
1.0837 4.8245 -0.1148 0 18990
1.085 6.9767 0.9923 0 18806
1.09 7.1481 -0.84558 1 18793
1.0919 6.7718 -0.80214 1 18812
1.0958 6.4309 0.76288 0 18839
1.1011 -5.4559 0.25956 0 4803
1.106 4.6716 -1.0204 0 19031
1.1088 5.2937 0.12557 0 18948
1.1101 4.4033 -0.74608 0 19068
1.1113 5.4722 0.653 0 18936
1.1152 7.1704 -0.8486 0 18801
1.1154 5.2523 0.62791 0 18959
1.1165 7.6252 0.71898 0 18783
1.1194 6.4673 -0.61234 0 18844
1.1389 -3.6388 0.62643 0 4575
1.1417 3.1747 0.23592 0 19519
1.1451 4.1375 -1.231 0 19156
1.1472 -2.9576 0.22183 0 4476
1.1524 3.4163 -0.42163 1 19411
1.1555 6.7814 -0.80446 0 18833
1.1567 4.8856 -0.11656 0 19025
1.1596 7.4559 -0.52764 0 18803
1.177 3.938 -0.38346 2 19235
1.1853 7.3507 0.69465 0 18817
1.1871 6.7325 0.6378 0 18855
1.1884 9.4472 -0.44403 0 18714
1.1992 3.6995 0.09029 0 19370
1.2204 3.7988 0 0 19352
1.226 5.7728 0.27521 0 18956
1.229 4.9961 -1.0936 0 19057
1.2367 6.0897 0 1 18928
1.2494 6.0544 0 0 18941
1.2829 3.6309 -1.2016 0 19492
1.2962 3.6322 -1.2034 0 19507
1.299 5.948 -0.85564 0 18970
1.3111 -4.4575 0.54335 0 4611
1.3134 -3.443 0.085555 0 4480
1.3241 -7.3149 0.69353 1 4845
1.3286 -3.3973 0.68728 0 4474
1.3288 -6.8811 0.81956 0 4821
1.331 7.4273 -0.52764 2 18860
1.3313 3.5364 -0.9892 1 19585
1.3316 3.045 0.54602 0 19848
1.3338 -3.4673 0.086251 0 4478
1.3346 7.5689 0.89877 0 18856
1.3363 7.9767 -0.18778 0 18828
1.3397 7.4759 0.70858 0 18863
1.3443 -5.0521 0.85891 2 4680
1.348 9.3891 -1.1092 0 18771
1.3709 3.1097 0.55834 0 19861
1.3851 6.7118 0.47923 0 18943
1.3871 6.1753 1.0398 0 18996
1.3958 8.4955 -1.21 1 18818
1.3989 6.3203 1.0635 0 18988
1.402 3.792 0.093864 0 19552
1.4072 3.8391 0.094932 0 19542
1.4165 7.287 -0.86811 1 18896
1.4197 -5.211 0.75905 0 4660
1.4254 -6.4723 1.2487 0 4766
1.4284 -7.2873 0.17241 0 4814
1.4378 3.0226 -1.2183 0 20009
1.4416 3.3491 0.51244 0 19813
1.4468 5.106 -0.3711 0 19172
1.4535 -4.644 0.34027 0 4574
1.4611 -8.9517 1.0607 0 4880
1.4681 2.7311 -0.65908 2 20276
1.4794 -5.3128 1.0391 0 4647
1.4828 3.4746 -1.0833 1 19795
1.4851 -5.3917 0.12984 0 4652
1.4899 -7.4902 1.0733 0 4808
1.4937 3.4157 0 0 19842
1.5034 -5.3991 0.13012 0 4643
1.5111 2.7924 -0.67488 0 20293
1.5122 8.3048 -0.78754 0 18867
1.5172 6.4941 -1.4175 0 19020
1.5186 -5.3917 1.0554 0 4638
1.5324 3.4761 -1.0893 2 19859
1.5327 -3.6337 0.18391 0 4438
1.5339 4.4221 0.3273 0 19464
1.5512 -7.4578 0.53266 0 4791
1.5549 3.4486 -0.08783 0 19902
1.557 3.426 -0.98515 2 19919
1.566 4.3119 -1.2009 0 19534
1.5681 2.8977 -0.78067 0 20291
1.5722 6.5589 -0.62925 0 19033
1.5768 -5.7875 1.1302 0 4661
1.5774 3.4185 -1.2721 0 19950
1.5866 -5.1668 1.0183 0 4586
1.5997 3.5745 -1.1229 0 19892
1.6022 -8.1743 0.77713 0 4815
1.6037 5.9229 -0.71758 0 19123
1.6086 4.0942 0.4104 0 19658
1.6212 2.6372 -0.8104 0 20589
1.6232 4.8122 -0.11791 0 19417
1.6307 3.1867 -1.0265 0 20165
1.6345 3.6832 -0.18792 0 19871
1.6355 3.8964 -1.2117 2 19770
1.6573 3.9138 0.59733 0 19785
1.6592 -6.7047 0.80771 0 4717
1.6744 3.3701 -0.98515 0 20103
1.6744 6.7307 -0.97477 0 19058
1.6804 -5.6511 0.41226 0 4604
1.6959 8.4719 0 0 18918
1.7122 4.8894 0.85113 1 19481
1.717 -8.2547 0.78661 0 4792
1.7186 4.8639 -0.11977 0 19488
1.7306 4.2577 0 1 19710
1.7327 3.0514 -0.08147 1 20404
1.7335 4.8575 0.48118 0 19509
1.7539 7.6031 -0.91248 0 19004
1.7591 -4.6114 0.69364 0 4481
1.7677 3.9498 -0.2018 1 19888
1.7775 4.4827 -1.025 0 19672
1.7866 -7.3068 1.0572 0 4723
1.7921 5.8726 -1.4548 0 19274
1.7926 5.168 -0.25509 0 19459
1.7971 2.8144 0.62915 0 20687
1.7974 -7.6332 0.73162 0 4738
1.8036 8.3772 1.4079 1 18968
1.8102 5.932 0 0 19268
1.8127 -8.4629 0.60521 0 4781
1.8312 -5.2058 0.38589 0 4507
1.835 3.4628 0.090986 0 20241
1.8482 5.4792 0.95003 0 19423
1.8539 4.6 0.81482 0 19699
1.8658 -2.3916 0.49836 0 3804
1.8692 5.4409 0.53673 0 19450
1.8695 4.381 0.66942 0 19796
1.8741 -7.0433 0.85231 0 4679
1.8763 -3.4529 -0.18326 0 4308
1.8799 -4.6811 -0.23525 0 4464
1.8906 7.0656 0.85533 0 19121
1.8996 3.7411 0.2934 1 20150
1.906 5.5988 0.55178 1 19434
1.9167 4.1236 0.63908 1 19965
1.9171 -3.4586 0.74505 2 4298
1.9488 -4.983 0.12422 0 4470
1.9512 -2.6718 0.15428 0 3940
1.9576 3.2904 -0.26773 1 20512
1.9663 4.5351 -0.93132 0 19832
1.9663 4.9186 -0.37041 2 19678
1.9792 2.8561 0.6547 1 20890
1.9805 7.5707 0.36493 0 19098
1.9892 4.1817 -0.32381 2 20005
1.9946 5.7503 0.99996 0 19470
2.0009 8.043 1.5616 0 19067
2.0011 3.5471 -1.4823 0 20386
2.005 6.8475 0.66566 0 19218
2.0091 5.6862 0.84756 0 19495
2.0528 -5.1117 0.64417 0 4465
2.0786 4.3696 -0.22565 0 20006
2.0921 -5.7889 0.28705 0 4494
2.0986 -5.1018 0.38575 0 4454
2.1124 6.8537 -1.1783 0 19276
2.1294 2.7541 0.57196 1 21205
2.1338 -3.0678 -0.26131 1 4028
2.1371 -4.3145 0.22453 0 4363
2.1388 -5.2858 0.39873 0 4459
2.1412 -3.4942 0.47924 0 4226
2.147 4.5134 0 1 20008
2.1522 6.7681 -0.16489 1 19330
2.1625 -4.7387 0.73205 0 4406
2.1688 -4.0213 -0.31948 2 4312
2.1711 3.5318 0.48481 0 20590
2.1712 3.3344 -0.092379 0 20727
2.1736 3.8529 -1.2685 0 20388
2.1758 -6.4841 0.79981 0 4530
2.1761 -5.1191 0.38896 0 4433
2.1767 -4.0057 -0.31879 1 4307
2.1774 -3.1516 -0.26786 0 4041
2.2095 9.3324 -0.89474 0 19022
2.2365 5.6923 0.85953 0 19659
2.2389 5.0453 0.77575 2 19878
2.2395 -4.4239 0.4626 0 4350
2.2544 6.4992 0.80446 0 19467
2.2713 4.6342 0.60352 0 20074
2.2744 -5.1812 0.79524 0 4421
2.277 3.984 0.32088 0 20422
2.3081 3.3696 0.38104 0 20855
2.3222 3.8283 -1.2839 0 20561
2.33 4.188 -1.2546 0 20356
2.3403 -4.8304 0.62768 0 4378
2.3403 5.6195 0.28388 0 19755
2.3447 -1.9969 0.58027 0 3116
2.3453 4.6834 0.98686 0 20124
2.3474 3.4078 0.38606 1 20870
2.3501 6.5852 0 0 19504
2.3633 4.2182 -1.2658 0 20373
2.3673 -2.414 0.078499 0 3310
2.396 4.8886 1.0257 0 20077
2.4004 3.1993 0.18652 0 21103
2.4013 3.6878 0.61849 0 20735
2.4023 5.2447 0.94776 0 19935
2.4072 3.7195 0.62266 0 20715
2.4209 -9.0984 0.65836 0 4678
2.4266 5.5043 -0.28053 0 19855
2.4308 7.2819 -1.4464 0 19410
2.4337 -3.2344 0.66502 1 3883
2.4424 7.0412 1.0474 0 19468
2.4511 -3.8005 0.42192 0 4174
2.4525 7.0704 -1.2295 0 19453
2.46 2.1377 -1.1012 0 22754
2.4736 8.2763 1.6275 0 19247
2.497 4.5197 0.48174 2 20339
2.5022 2.8917 0 0 21617
2.5041 3.8456 0.214 1 20731
2.5132 4.8777 -1.4364 2 20183
2.5211 2.0664 0.38121 1 22997
2.5575 2.1098 0.38771 0 22971
2.5792 -5.4416 -0.56181 1 4388
2.5967 -5.2426 0.13583 0 4362
2.631 8.8992 0 0 19227
2.633 -8.5747 1.2606 0 4585
2.6487 6.5164 0.16331 0 19711
2.6564 4.5531 0.86605 0 20476
2.6572 -6.0048 1.2372 0 4418
2.665 2.7568 0.53888 1 22049
2.6755 8.2539 -1.2194 0 19362
2.6919 3.4816 0.41058 1 21200
2.6985 3.8197 -0.10858 0 20926
2.7069 8.9601 1.3155 0 19258
2.746 3.5516 0.525 0 21202
2.7595 3.6553 0 0 21120
2.7657 -5.7958 1.0551 0 4386
2.7735 4.3686 -0.12014 0 20665
2.803 5.0735 0.9523 0 20342
2.8258 3.8356 0.78272 2 21056
2.8298 8.0089 1.3955 1 19497
2.8342 5.5386 0.72757 0 20167
2.8564 -5.3699 0.14121 0 4320
2.8597 3.4433 0 0 21460
2.883 3.889 0.79536 0 21073
2.8904 6.6665 -0.33885 0 19823
2.893 3.3433 0.20618 0 21620
2.927 -6.1338 1.2805 0 4387
2.9316 3.4495 0.31655 0 21550
2.9351 1.261 0.14897 0 25404
2.9487 5.8884 0.61439 0 20120
2.958 3.4585 0.31823 0 21574
2.9608 -3.107 0.60318 0 3368
2.9662 2.3611 0.62287 0 23118
2.9773 -7.1738 0.9083 0 4452
2.9873 -5.354 -0.42872 0 4291
2.9943 -7.9159 0.78958 1 4485
2.9982 8.8071 -0.216 0 19431
3.0442 -7.7838 1.1746 0 4473
3.0652 -2.8315 0.096882 0 3207
3.0683 1.3297 0 0 25378
3.0701 -3.3189 -0.52872 0 3414
3.0854 -3.3156 -0.52965 0 3403
3.0873 0.98945 0 0 26127
3.0921 4.9026 0.9523 0 20655
3.0954 -1.6327 0.49184 1 1938
3.103 6.4764 1.0093 0 20025
3.1066 -4.1017 -0.3598 2 3860
3.1275 -6.6493 -0.51383 0 4391
3.132 -1.2029 0.077895 0 1399
3.1334 9.2042 1.8319 1 19438
3.1439 0.32101 0.22099 0 27733
3.16 7.2883 0.92897 0 19830
3.1611 -0.60701 0.52884 0 923
3.1793 4.2638 0.87383 0 21089
3.183 0.55038 0.45398 0 27141
3.186 -0.48867 0.6073 0 825
3.1868 2.7218 0.0973 1 22821
3.2103 5.3281 1.172 0 20547
3.2231 5.3135 1.1709 0 20565
3.2241 6.9872 0.5381 0 19952
3.2248 -4.7846 0.40347 0 4093
3.2271 6.1284 1.305 2 20229
3.2515 -4.7934 1.0913 1 4086
3.255 3.8736 0.3538 0 21506
3.256 2.7977 0.099667 0 22798
3.2944 -2.3585 -0.18894 0 2718
3.2962 -4.4873 0.51945 0 3928
3.309 2.7296 -0.29995 2 22958
3.3194 5.4723 0.44756 0 20560
3.3201 6.4881 0.50964 0 20164
3.3225 -5.6002 0.76148 0 4256
3.3239 -6.7609 0.35133 0 4369
3.3356 -3.5845 0.80444 0 3411
3.3683 -5.7966 0.15565 0 4272
3.3761 -6.1717 -0.49192 0 4303
3.383 0.70674 0 0 26850
3.399 -2.6632 0.70944 1 2956
3.4025 0.72074 0 0 26828
3.42 2.4566 0.097764 1 23515
3.4389 -1.447 0.26089 0 1521
3.4402 -1.4475 0.70321 0 1525
3.4409 7.1816 -0.37136 0 20018
3.4484 6.8863 0.90063 0 20121
3.4641 -5.5784 1.2372 0 4214
3.4655 9.0469 1.1329 0 19617
3.4771 3.0763 0.32465 0 22687
3.4781 -6.2336 0.33289 0 4292
3.5004 0.55316 0.41443 0 27262
3.5028 -1.4854 0.26605 0 1536
3.5034 -1.2406 0.70025 0 1326
3.5277 -4.4668 0.26543 0 3771
3.5332 -1.357 0.53192 0 1403
3.5334 -0.66827 0 0 914
3.5455 -0.69238 0.68062 0 931
3.5603 0.087011 0.67099 0 103
3.5689 1.8761 0 0 24724
3.5781 1.1585 -0.087319 0 26106
3.6018 1.0294 0 0 26352
3.6224 3.1869 0.225 0 22708
3.6264 -5.1848 1.0395 0 4024
3.6318 1.0263 0 0 26373
3.6477 2.7348 0.21261 0 23346
3.6542 -8.0072 0.20435 0 4405
3.6581 1.1971 0.089362 0 26086
3.6605 -1.2733 0.45322 0 1308
3.6697 -5.6899 0.31574 0 4172
3.6804 -4.6905 0.97953 1 3790
3.6887 -7.668 0.79385 0 4382
3.6895 2.6678 0.53243 0 23495
3.7028 1.2224 -1.3176 1 26066
3.7168 2.9406 0.44217 0 23136
3.7242 3.2557 0.23068 0 22731
3.725 -3.3422 0.23338 1 3177
3.7599 5.4891 -1.4142 1 20857
3.7602 -3.9458 0.12655 0 3364
3.7641 -0.65559 0.62773 0 882
3.7672 -0.13616 0.35169 0 429
3.7762 6.0268 -0.16512 0 20632
3.86 -4.9477 0.73384 0 3800
3.8657 -7.5803 0.79385 0 4346
3.8729 1.8406 0 2 25084
3.8739 0.90433 0.7495 2 26693
3.8851 -7.9026 1.4468 0 4372
3.8946 -1.2294 0 0 1236
3.8971 3.4285 0.607 0 22712
3.9392 -3.0314 -0.2318 0 2910
3.9518 4.7888 1.1698 1 21449
3.9559 -2.3265 0.86466 0 2197
3.9938 1.155 0.19388 0 26332
3.9966 -6.0404 1.19 0 4132
4.0116 2.8656 0.34474 0 23544
4.0146 0.80292 0.47877 0 26926
4.0146 6.3235 1.4112 0 20672
4.0164 7.422 1.186 0 20292
4.0214 1.882 0 0 25134
4.0236 -5.5421 0.96252 0 3956
4.0365 -0.92225 0.68026 0 997
4.0385 1.9047 0.31223 0 25111
4.0452 3.2397 0.12032 0 23082
4.0512 -0.93752 0.68318 0 1003
4.0608 4.3016 -0.27587 1 21952
4.0613 2.3193 0.2181 0 24423
4.0662 1.4351 0 0 25917
4.0671 -8.2111 1.5055 0 4365
4.0717 0.87514 0.78467 0 26817
4.0721 1.3325 0.70393 0 26093
4.0904 1.4308 0.60902 0 25947
4.1056 -1.7563 0.84133 1 1553
4.1371 -7.215 0.38785 0 4279
4.1382 -5.7696 0.99787 0 3980
4.1451 -0.3204 0.19388 0 593
4.1452 1.5987 -0.10315 0 25707
4.1526 0.84335 0.19761 0 26898
4.1677 -6.7114 0.92386 0 4211
4.1782 -1.4796 0.62294 0 1323
4.1894 2.3443 0.11146 0 24500
4.1961 -5.4428 0.32049 0 3823
4.1984 -5.7829 1.1741 1 3958
4.2233 -5.8515 0.50462 1 3964
4.2487 -6.5027 1.0917 0 4154
4.2555 -4.0468 0.54788 2 3226
4.3275 -0.57434 0.71722 0 771
4.3568 0.94994 0.20795 0 26787
4.3595 -5.9696 1.3927 1 3947
4.3598 0.75386 -0.62183 1 27123
4.3707 -5.6346 0.66529 1 3812
4.3727 -3.9705 0.55103 0 3194
4.3917 -2.8826 -0.4901 1 2476
4.3964 1.8589 0.44532 1 25461
4.4179 0.15891 0.7263 1 32
4.4238 -1.2418 0.10668 0 1130
4.4297 1.2251 0.42879 0 26417
4.4403 4.1392 -0.14094 0 22467
4.4536 1.4997 0.8854 0 26033
4.5074 2.0456 0.34613 1 25235
4.5257 5.4184 1.3301 1 21494
4.549 0.57145 -0.10644 0 27528
4.5504 1.1312 0.21866 0 26588
4.5509 4.2677 0.58206 1 22452
4.5605 3.1779 0.12905 0 23640
4.5724 1.1502 0.21987 0 26569
4.593 0.52331 -0.10733 1 27628
4.5939 -7.3546 1.6338 0 4207
4.5943 6.9228 1.3651 0 20776
4.6084 0.059525 0.32227 0 164
4.6094 -6.4265 -0.55303 0 3973
4.6458 7.963 1.0781 1 20473
4.6466 1.3 0.45015 2 26398
4.6513 0.59832 0.43752 0 27512
4.6528 -5.9297 0.70319 1 3785
4.6582 1.7509 0.46427 0 25776
4.6719 6.9082 0.58316 0 20819
4.6744 -2.5001 0.49456 1 1967
4.6822 -0.94155 0.78466 0 943
4.6835 4.5212 0.60733 0 22325
4.7224 2.5523 0 2 24627
4.7301 3.8771 0 0 22989
4.7346 5.9757 0.17701 0 21280
4.74 3.8617 0 0 23012
4.7595 -6.3598 1.3051 0 3896
4.772 -0.9319 0.33999 0 929
4.7763 2.5998 0 0 24600
4.7849 1.6888 0.71312 2 25925
4.7886 -7.8666 1.2943 0 4234
4.7891 -2.3327 0.3725 0 1779
4.7972 7.2754 1.0191 0 20760
4.7984 -0.92142 0.34167 0 922
4.8239 -0.99986 0.57611 0 955
4.8448 6.9448 0.1966 0 20900
4.853 -8.4635 1.3711 0 4281
4.8669 -1.3068 0.94946 0 1092
4.8761 -1.9543 0.4901 0 1453
4.8973 -1.0597 -0.11633 0 974
4.9065 1.9268 0.99316 0 25678
4.9306 6.8541 0.78772 0 20977
4.9445 1.7296 0.24428 0 25942
4.9454 -5.0712 1.3346 1 3324
4.9481 -1.1916 0.3559 0 1017
4.9487 1.0935 0.83265 0 26772
4.96 6.3394 0.37537 0 21240
4.9616 -0.19494 0.81579 0 448
4.972 1.0986 0.47505 0 26768
4.9975 1.9114 -0.12422 0 25727
5.0123 -2.5341 0.1304 0 1846
5.0139 1.7206 0.87091 0 25991
5.0284 1.7089 0.87253 0 26012
5.0437 5.796 0.53726 0 21641
5.0448 1.7312 0.74959 0 25989
5.0538 -2.5717 0.13165 0 1860
5.0551 2.4372 0.26171 0 25034
5.0796 2.1311 0.12789 0 25482
5.0963 -5.9396 1.4746 0 3588
5.1066 1.7863 0 0 25939
5.1144 1.0834 0.85891 1 26836
5.1194 -0.23157 0.11898 0 470
5.1382 1.1043 0.86345 0 26815
5.1624 -7.2857 0.83305 1 3998
5.1889 1.2256 0.6235 0 26670
5.2162 -0.8626 0.49326 0 860
5.2566 1.9236 1.0546 0 25849
5.2774 1.7935 0.52001 1 26008
5.2826 -2.4041 1.0935 0 1656
5.2937 1.9194 1.0609 0 25869
5.2942 -7.6116 0.86501 0 4033
5.3067 -3.1209 0.14293 0 2186
5.3423 -2.4144 0.54695 0 1640
5.3445 6.8702 0.81206 0 21221
5.3661 1.1533 0.64185 1 26812
5.3931 -2.8845 1.0048 0 1969
5.4096 8.3587 1.6358 0 20717
5.4307 -4.4895 0.16359 0 3063
5.4562 8.0679 1.139 0 20821
5.4731 7.8456 1.3444 0 20902
5.4846 -0.29511 0.12752 0 504
5.4998 3.2461 0.14827 0 24292
5.5141 -2.766 0.43137 0 1833
5.5202 -1.8835 0.81973 0 1293
5.5232 -0.34459 0.25807 0 541
5.5296 2.2645 0.69876 0 25564
5.5343 -7.7645 1.115 0 3988
5.5372 -2.541 0.14145 0 1665
5.5436 1.9023 1.1042 0 25993
5.5641 1.8909 1.1072 0 26014
5.5909 -0.4626 0 0 614
5.6173 -1.5241 -0.13513 0 1095
5.6254 -0.66283 0.79607 0 725
5.6268 -0.31951 0.26282 0 518
5.6508 -0.69984 0 0 741
5.6622 5.2506 0 0 22495
5.7134 -1.9328 0.28127 0 1286
5.7215 2.2261 0.57277 0 25696
5.7498 -0.86445 0.13499 0 818
5.7851 7.6631 -0.44776 0 21118
5.7861 -2.9443 0.45398 0 1863
5.7989 -4.077 0.49569 0 2674
5.8097 -2.9144 0.76009 1 1834
5.814 3.3418 0 0 24395
5.836 3.7957 0.6495 1 23919
5.9246 1.0788 1.1346 1 27074
5.9308 -2.7618 1.0749 0 1697
5.9622 2.2994 0.59618 0 25713
5.9892 4.9971 0.72772 0 22919
5.9947 2.4135 0.15003 0 25599
5.9996 2.8926 0.93608 0 25041
6.0042 -2.8613 0.62052 0 1737
6.0159 6.1176 0 0 22112
6.0554 2.4171 0 0 25620
6.1127 -2.1263 0 0 1305
6.1348 1.227 -0.14525 0 26917
6.1354 -3.1221 0.64225 1 1864
6.1691 -6.2909 1.6601 0 3313
6.1991 2.6864 -0.15686 0 25376
6.2034 -1.1733 1.0372 0 916
6.2147 -1.3812 0.14781 0 985
6.2373 3.7315 -0.50825 1 24228
6.296 -2.2506 0.15523 0 1330
6.3152 1.8839 -0.15301 0 26265
6.3158 -0.43168 0.44267 0 564
6.3165 0.53485 0.29562 0 27872
6.3208 1.6112 -0.30419 1 26544
6.3374 -3.364 -0.66938 2 1944
6.3945 5.3353 0 0 22911
6.3978 -6.9942 1.5573 1 3445
6.4298 -6.5934 0.64399 0 3320
6.4308 -1.1768 0.60993 0 902
6.4442 -2.8894 0.32934 0 1626
6.4544 1.7452 0.15523 0 26454
6.4599 2.4487 1.3016 0 25759
6.4944 -6.2127 1.4766 0 3232
6.5077 0.063609 0.91465 0 184
6.5323 2.3905 0 0 25837
6.6068 -3.4334 0.69465 0 1907
6.6398 -6.8494 0.22148 0 3330
6.6452 -6.9733 -0.67357 2 3362
6.6852 -2.1104 0.32692 0 1237
6.7904 5.2463 1.6167 0 23238
6.8738 6.3363 1.5359 1 22534
6.8941 3.91 1.3022 1 24458
6.9382 -3.6334 0.73069 0 1922
7.0329 -2.3082 0.17185 0 1265
7.0402 -1.5879 1.0143 0 991
7.0472 -2.6348 0.5261 0 1373
7.0488 -3.0153 0.71527 0 1550
7.081 -2.4839 1.4138 1 1318
7.1214 -4.3555 0.19381 0 2286
7.1966 -1.3169 1.0282 0 903
7.2107 5.2139 -0.62223 0 23479
7.2153 -1.1492 0.8544 0 842
7.2561 -3.4331 0.37434 0 1722
7.2651 -1.1143 0.68573 0 824
7.2655 3.1215 0.73775 0 25408
7.2743 0.44746 0 0 28040
7.2994 1.2621 1.3957 0 27145
7.3052 -3.0738 0.73942 0 1522
7.3076 4.6322 1.4215 0 24017
7.3264 -3.362 0.75205 0 1668
7.3963 2.1839 0.17905 0 26289
7.41 2.1654 0.17923 0 26310
7.4159 -2.9212 0.55735 0 1431
7.4169 0.18126 1.0427 0 99
7.4411 1.8263 0.17789 0 26605
7.4421 3.3524 -0.95453 1 25247
7.4693 -0.16298 0.87369 0 356
7.4776 4.3836 -1.4241 0 24306
7.511 2.9723 1.3271 0 25654
7.5234 0.052524 1.4175 0 202
7.5418 -2.945 -1.1379 1 1416
7.5724 5.7124 0.22022 0 23322
7.5798 -2.4877 1.5031 0 1271
7.5944 -0.85185 0 0 705
7.6561 2.7262 1.3352 0 25903
7.6581 -1.2431 0.72381 0 851
7.6807 3.8966 0.80352 1 24858
7.7106 1.6812 0.73626 0 26790
7.717 5.3774 0.43863 0 23642
7.7199 -2.437 1.33 0 1241
7.7293 2.6765 1.1496 0 25967
7.7934 2.6987 1.355 0 25969
7.833 2.289 0.76134 0 26314
7.8526 3.6201 0.60465 0 25188
7.8697 0.27894 1.1067 0 28214
7.8936 3.4733 0 0 25330
7.9181 2.3379 0 0 26287
7.9518 2.4752 1.1704 0 26190
7.9524 -0.1277 0.74202 1 325
7.98 -1.9956 1.3514 1 1039
7.9921 -1.5116 0.18884 0 915
7.9929 -0.80203 1.129 0 670
8.043 5.8157 0.23044 0 23487
8.0668 -0.92909 0.56782 0 714
8.0728 0.17333 1.1348 0 119
8.1371 -1.5891 1.3621 0 930
8.1513 -3.4031 1.2414 0 1508
8.1638 -3.3782 1.2417 0 1497
8.1925 3.3249 1.4526 1 25585
8.1928 -5.4125 1.85 0 2508
8.2057 3.4983 0.41599 0 25431
8.2184 -0.29705 1.3511 0 433
8.2291 2.1727 0.79404 0 26496
8.2934 2.1897 1.0031 0 26498
8.3313 -4.0869 -0.86575 0 1786
8.3366 -4.0032 0.43127 0 1751
8.3665 -2.6943 0.20407 0 1251
8.4318 -3.4067 1.0635 0 1464
8.4762 2.6921 1.04 0 26152
8.4886 -4.3196 1.7945 0 1868
8.5396 4.7121 0.22644 0 24550
8.5417 3.7016 0.65097 0 25382
8.5469 -0.11188 1.6105 0 314
8.5868 -0.26235 1.6186 0 404
8.608 -1.3464 1.6416 0 834
8.6267 -4.5503 1.6024 1 1939
8.6412 -1.843 1.4516 1 968
8.6455 -3.7251 1.1009 0 1565
8.6605 -1.9533 0 0 990
8.6612 -2.8997 0.63869 0 1279
8.6655 -2.7905 0.6366 0 1252
8.7371 0.99546 1.2359 0 27638
8.7994 -3.2323 1.5401 0 1356
8.8112 1.2634 0.83045 0 27389
8.8899 -0.27161 0 0 398
8.9428 1.0442 0.20904 0 27606
8.947 1.9508 1.5045 0 26794
9.0213 1.967 -1.2977 0 26775
9.0221 1.7472 1.2915 0 26973
9.0691 -2.2393 0.87151 0 1031
9.126 2.0165 -1.3135 1 26753
9.1318 3.4926 1.6063 0 25739
9.1329 4.0186 -1.4023 1 25319
9.1407 3.8349 -1.3931 1 25471
9.1427 3.8658 -1.3951 0 25444
9.3287 3.1123 1.6157 2 26051
9.4437 2.5534 1.6073 0 26461
9.4479 -2.0703 -1.1311 1 976
9.5693 -2.0707 1.6086 1 975
9.5867 -1.9557 0.68417 0 949
9.605 -2.0486 -1.1485 2 962
9.6134 1.322 1.5943 0 27443
9.6159 -0.88019 0.90087 0 644
9.6187 1.2373 1.5933 0 27517
9.6404 -2.0562 -0.91963 2 963
9.6638 1.671 1.1469 0 27139
9.7038 1.7967 1.1541 1 27044
9.717 1.3933 1.6128 2 27395
9.7609 0.88144 1.6102 2 27831
9.7666 -1.5277 -0.22951 0 832
9.7869 -1.3546 1.8615 0 792
9.8496 -0.21492 -0.68891 2 349
9.8517 -0.81515 -0.22951 0 613
9.9236 -0.27199 -0.23048 0 383
9.9241 0.27027 -0.69422 2 73
9.9478 0.61193 1.8778 2 28052
9.9561 0.89907 0.93264 0 27825
-14.73 -1.3198 -1.7295 0 8143
-14.717 -1.88 2.0851 0 8083
-14.319 2.7782 -0.68021 2 8951
-13.777 5.8822 2.8225 0 9793
-13.728 -1.0684 2.2622 0 8174
-13.719 4.8933 2.7443 0 9536
-13.275 -2.1263 0 0 8040
-13.242 -2.0405 2.5244 0 8050
-12.886 4.9361 2.2671 0 9637
-12.809 1.5364 -0.29951 0 8741
-12.398 4.303 0.91772 1 9494
-12.206 3.4171 1.1825 0 9244
-11.953 0.14604 0 0 8403
-11.856 1.9117 0.27881 1 8861
-11.613 -0.46642 1.9095 0 8259
-11.468 2.2249 1.9192 0 8954
-11.438 2.8836 1.938 0 9138
-11.412 5.8851 0.59878 1 10125
-11.192 -1.3287 1.8517 0 8100
-10.876 4.1663 2.1944 0 9639
-10.857 0.7306 0.25263 0 8567
-10.847 6.1595 1.1638 0 10354
-10.787 0.037654 1.7723 1 8375
-10.691 0.59398 2.0174 0 8537
-10.606 6.393 0 0 10523
-10.516 4.7415 1.349 0 9877
-10.506 3.5419 1.8216 1 9462
-10.483 2.3221 0.24928 0 9040
-10.477 6.739 1.4568 0 10728
-10.39 7.8468 -0.3023 0 11283
-10.386 0.15772 -0.24116 0 8413
-10.347 -10.041 2.0264 0 7678
-10.229 2.735 1.7396 0 9197
-10.068 7.5156 0 0 11239
-10.019 7.8502 2.3981 0 11429
-9.8182 2.7191 0.95047 0 9231
-9.7981 4.1147 2.0022 0 9769
-9.7075 3.335 1.6864 0 9487
-9.634 5.073 0 0 10169
-9.6174 8.7727 2.1387 0 12039
-9.5638 3.4432 1.1887 0 9546
-9.3188 4.237 1.6818 0 9894
-9.2475 6.3723 2.1159 0 10964
-9.0019 4.7081 1.188 0 10156
-8.8668 5.3446 0.96589 0 10528
-8.8279 4.7137 0.6998 0 10205
-8.678 -7.8991 1.9279 0 7705
-8.412 -7.3512 2.1048 0 7742
-8.1533 10.015 1.5102 0 13373
-7.9961 6.8028 0.73412 0 11742
-7.8465 -8.8036 -0.27379 0 7521
-7.7326 8.2056 0.26177 0 12731
-7.6852 10.644 -0.3048 0 13872
-7.6102 -8.5926 1.0709 0 7513
-7.4188 12.269 2.3556 0 14626
-7.2937 -9.1007 2.1974 0 7347
-7.2273 11.868 2.6181 1 14597
-7.179 7.4444 0 0 12619
-6.9387 -7.261 0.23318 0 7623
-6.7643 12.706 0.33419 1 15115
-6.6215 -10.302 2.3074 1 7005
-6.5175 -11.252 1.2132 1 6866
-6.1482 -12.364 1.2882 0 6666
-6.1393 10.918 2.3599 2 14922
-6.0773 -13.068 2.7154 0 6588
-6.021 -13.454 1.7237 0 6541
-5.9671 10.832 -0.5767 0 14983
-5.8348 -13.673 1.0395 1 6485
-5.7077 -11.651 0.60503 1 6648
-5.6012 -11.865 1.844 0 6605
-5.3068 -11.324 0.87447 1 6593
-5.0728 10.309 2.1648 0 15407
-5.0684 11.194 0.85926 1 15664
-5.0568 -10.79 1.1117 0 6594
-4.9721 -9.929 1.2986 1 6673
-4.9098 -13.512 1.6812 0 6299
-4.8337 -10.475 0.26785 0 6571
-4.6736 -13.855 2.055 1 6226
-4.6418 10.737 1.9218 0 15814
-4.363 -14.289 0 0 6124
-4.2451 -13.903 2.7388 0 6132
-3.9371 -10.193 1.5356 1 6371
-3.7233 -11.038 2.1948 1 6228
-3.6028 5.5479 -1.7317 2 14327
-3.4802 -10.736 0.78922 0 6186
-3.4368 12.755 -1.5448 0 16967
-3.4055 9.5902 1.9174 2 16381
-3.3332 -9.518 1.6569 2 6264
-3.332 4.1665 -1.5298 0 13442
-3.3255 10.618 1.8281 2 16684
-2.8792 10.821 1.0447 0 16996
-2.6992 13.362 -0.3165 0 17339
-2.5096 11.395 1.3645 0 17256
-2.4327 10.462 -0.24938 0 17182
-2.3476 9.8391 -0.23485 0 17146
-2.2982 -12.025 1.4317 0 5792
-2.2887 12.253 2.0479 0 17422
-2.2798 -10.884 2.0952 0 5835
-2.2206 10.529 1.5123 0 17297
-2.1398 11.271 2.1615 0 17409
-2.1189 -14.74 2.8058 0 5670
-2.0999 10.105 1.9445 0 17314
-1.9375 -1.8156 0.50028 0 7691
-1.8424 10.354 0.98112 1 17465
-1.4621 -10.618 -0.49984 0 5650
-1.4112 -10.719 1.5195 0 5636
-1.2096 14.023 -0.65636 0 17974
-1.1451 -12.631 1.1833 1 5499
-1.0326 -10.382 -0.24223 1 5524
-0.93814 10.151 1.9208 0 17951
