VERSION .7
FIELDS x y z intensity index
SIZE 8 8 8 8 8
TYPE F F F F F
COUNT 1 1 1 1 1
WIDTH 1534
HEIGHT 1
VIEWPOINT 0 0 0 1 0 0 0
POINTS 1534
DATA ascii
-6.1511 3.6045 0.83373 0 15787
-6.1459 1.4472 0.88737 0 14537
-6.1437 2.8727 0.15746 1 15324
-6.1401 1.4458 0 0 14536
-6.1219 -6.51 0.41674 2 13157
-6.1044 -6.0874 0.60284 0 13266
-6.1025 6.6597 0.84272 0 17759
-6.1021 -5.6111 0.57968 0 13361
-6.0959 -7.2468 0.44161 2 12963
-6.0916 5.8846 -0.19664 0 17319
-6.0853 -7.3167 1.793 2 12951
-6.0777 -6.4993 0.41497 1 13148
-6.0742 -7.2595 1.7834 2 12959
-6.0722 -5.8149 0.58791 0 13313
-6.0679 -0.58855 0.14154 1 13878
-6.0669 -5.9495 0.59419 0 13289
-6.0624 -4.3675 1.2276 2 13675
-6.06 -0.42801 1.1446 0 13913
-6.0595 -4.5018 1.2402 2 13647
-6.0362 -0.67281 0.56664 0 13857
-6.0326 -4.7609 1.2626 1 13579
-6.0293 2.6705 0.1531 0 15248
-6.0226 -6.4404 0.20472 2 13147
-6.0189 2.9213 0.78239 0 15393
-6.0115 1.5267 -0.144 0 14591
-6.01 -6.6584 0.20825 2 13087
-6.005 0.06603 -0.41993 1 14046
-5.9935 4.1501 -0.33997 0 16239
-5.9875 -7.9197 1.161 2 12824
-5.9809 -3.9542 1.3509 1 13759
-5.9769 -0.40432 1.1287 0 13917
-5.9764 -7.0197 1.0781 0 12982
-5.967 -0.54304 0.9844 0 13886
-5.9642 2.9167 -0.6194 2 15400
-5.9516 -3.8842 1.339 1 13765
-5.9387 -5.1515 1.4812 2 13441
-5.9192 -6.0424 1.3897 2 13229
-5.9169 -4.5304 1.2243 1 13612
-5.9024 -5.8185 1.5616 0 13286
-5.8879 -4.3489 1.2026 2 13653
-5.8872 -6.7916 0.62851 0 13014
-5.8841 -7.3314 1.7712 1 12906
-5.8656 3.7903 0.65154 0 16051
-5.8636 -0.20989 0.96397 0 13967
-5.8634 3.8384 1.1514 0 16087
-5.8569 -6.802 0.62767 1 13001
-5.8524 -6.9944 1.0665 2 12956
-5.8341 1.3909 0.98537 1 14547
-5.8297 -6.9304 1.0591 2 12966
-5.8294 -5.6136 0.9464 2 13308
-5.8284 3.462 1.1138 0 15823
-5.8259 3.4605 -0.15732 1 15814
-5.8134 -5.5671 0.94129 0 13315
-5.7956 -5.55 1.3184 0 13317
-5.7938 -0.69804 0.27214 0 13846
-5.7795 -4.617 1.0396 1 13561
-5.7786 -5.5029 1.1215 2 13322
-5.7775 5.5812 -1.129 0 17311
-5.7735 -4.1106 1.3353 2 13689
-5.7728 5.5147 -0.93362 0 17266
-5.7634 -5.5501 0.74648 0 13307
-5.7625 -4.0785 1.3301 0 13696
-5.7592 -5.7111 0.7567 0 13276
-5.7482 4.8268 -0.17427 0 16844
-5.7395 5.1408 -0.5388 0 17058
-5.7069 2.9771 -1.2127 0 15524
-5.6777 -5.4676 1.295 1 13309
-5.6551 -7.3011 1.08 1 12858
-5.6454 -4.3225 0.99926 2 13611
-5.6444 1.4671 0 0 14610
-5.6332 0.76764 0.66485 0 14287
-5.6323 -5.2082 0.53643 0 13354
-5.6246 3.0374 1.0502 0 15601
-5.6171 -6.5235 1.4143 2 13005
-5.5865 -3.7838 1.2713 2 13734
-5.5783 -4.4023 0.99871 0 13578
-5.5733 3.9564 -0.96057 0 16303
-5.5699 5.0187 -0.69948 0 17077
-5.5624 -5.0863 0.70319 2 13371
-5.5623 0.64456 1.055 0 14246
-5.5608 -0.78449 0.26189 0 13823
-5.5566 -4.7896 1.031 2 13450
-5.555 -0.55348 -0.12961 0 13875
-5.5527 -3.7144 1.2587 0 13745
-5.5511 -5.1045 0.70356 2 13362
-5.5373 -0.5693 -0.12924 2 13869
-5.5325 5.3745 -0.53936 0 17338
-5.5279 -6.0137 0.95522 1 13120
-5.5251 7.9318 1.5881 0 18584
-5.5247 -6.2292 1.1702 0 13063
-5.5116 3.6758 0.93107 0 16139
-5.4823 -5.2208 1.2438 0 13323
-5.4796 2.2764 1.1179 0 15160
-5.4768 1.77 -0.26841 2 14820
-5.4731 -5.8201 0.74536 1 13159
-5.4587 4.8892 0.68368 1 17066
-5.4227 -5.5356 0.54187 0 13225
-5.4165 0.38921 0.50663 0 14158
-5.4112 2.2127 0.68366 0 15132
-5.3997 -5.323 0.88669 2 13285
-5.3849 1.1201 0.51314 0 14459
-5.3592 -4.4604 1.1455 2 13512
-5.3559 -3.6962 1.2261 0 13720
-5.3497 -4.3244 1.2961 0 13549
-5.3479 7.5364 1.0807 0 18538
-5.3438 3.0902 0.43165 0 15750
-5.3432 5.1043 -1.0385 0 17264
-5.3418 3.9556 1.092 1 16438
-5.3408 -5.2963 0.52596 0 13275
-5.3366 1.1763 0.89782 0 14496
-5.3364 -7.9294 1.8008 2 12677
-5.3356 0.64851 0.37585 0 14258
-5.3288 5.1173 1.392 0 17307
-5.3234 0.52196 0.37403 0 14211
-5.3174 0.7095 0.12455 0 14281
-5.3169 -5.2413 0.17334 1 13281
-5.3113 -5.6126 0.90365 1 13171
-5.2989 3.1051 0.86315 0 15789
-5.2938 6.6935 1.6079 0 18232
-5.286 -7.956 1.7997 1 12664
-5.2747 -5.6742 0.90598 2 13140
-5.2546 4.5437 -0.81236 0 16943
-5.2472 -4.1663 1.2624 1 13572
-5.2395 -5.603 1.2603 2 13150
-5.2322 0.75957 0.36971 0 14304
-5.2266 -6.3561 0.38375 0 12929
-5.2154 -6.3834 0.38441 0 12920
-5.2076 2.9728 0.13922 0 15715
-5.2056 -5.7672 0.90853 2 13091
-5.1968 -6.0697 0.55875 0 12991
-5.1904 -5.7808 0.90853 1 13080
-5.1769 -6.3747 0.57424 1 12914
-5.1762 -0.93041 0.49066 2 13799
-5.167 -4.9204 0.66566 2 13320
-5.1648 1.3425 0.87675 0 14613
-5.1646 1.1383 0.12279 2 14495
-5.1644 2.2531 -0.13082 2 15223
-5.16 2.7691 0.68482 0 15584
-5.1575 -6.1639 1.1295 1 12957
-5.1559 -5.6782 0.89692 2 13101
-5.1316 -5.1784 1.0246 0 13248
-5.1169 5.0283 0 0 17381
-5.1088 -6.7575 0.59237 1 12822
-5.1055 -0.25685 0 0 13942
-5.1042 -6.2073 0.56196 0 12930
-5.0983 -6.7854 0.59349 2 12812
-5.0968 5.8282 -0.72233 0 17914
-5.0845 2.9986 0.96981 0 15805
-5.0827 -5.405 1.3979 2 13163
-5.0796 -3.8208 1.1976 2 13634
-5.0762 1.8376 -0.12534 1 14965
-5.0758 -6.2125 0.56098 0 12921
-5.0693 -7.729 1.299 2 12648
-5.0678 -5.68 0.89018 1 13073
-5.0576 -5.3165 1.0313 2 13181
-5.0572 1.3145 0.36538 0 14611
-5.0564 -3.8255 1.1946 2 13627
-5.0504 -5.1555 1.0143 2 13228
-5.0472 -4.6673 0.96614 2 13357
-5.0458 4.8202 -0.16201 1 17273
-5.045 -6.322 0.56559 1 12895
-5.0406 3.3616 0.70852 1 16137
-5.0394 7.5563 0.84736 0 18700
-5.0288 7.1315 -1.2264 0 18541
-5.0258 -4.0873 1.2205 0 13542
-5.0101 4.3845 0.46555 0 16993
-5.0071 -7.401 -0.20746 0 12678
-4.997 1.8912 0.37362 1 15026
-4.996 -5.5021 0.51969 0 13099
-4.9937 2.5686 -0.52391 1 15487
-4.9736 -5.2558 -0.168 0 13167
-4.9698 1.4938 0.48415 0 14745
-4.9662 -6.3748 0.75391 2 12868
-4.9639 -5.8305 0.53545 0 12980
-4.9585 -5.1833 0.83884 2 13191
-4.9497 -4.0469 1.2046 2 13535
-4.9466 1.8889 0.494 1 15040
-4.9416 -6.5364 1.3462 1 12826
-4.9398 2.2564 0.37975 0 15291
-4.9282 -4.1528 1.2142 0 13496
-4.9225 5.6947 0.70226 0 17966
-4.8946 -4.7698 1.1228 1 13298
-4.8945 7.4341 -1.4623 0 18717
-4.8901 -7.1794 1.2208 1 12690
-4.8864 2.3527 0.89101 0 15381
-4.8844 3.7507 -0.14298 0 16548
-4.8841 2.1807 0.49902 0 15262
-4.8831 -7.2177 1.2247 2 12682
-4.8763 -5.1854 1.0004 2 13160
-4.8698 1.0734 -0.11578 0 14494
-4.862 -6.2411 0.36894 0 12867
-4.8614 -6.1667 0.91829 1 12883
-4.8613 2.0196 0.6156 0 15156
-4.8517 -4.8113 0.96029 1 13278
-4.8483 -6.2594 0.36922 2 12857
-4.8345 4.2787 -0.60231 2 17021
-4.8339 -5.3554 0.50448 0 13089
-4.8086 -6.5151 1.3304 2 12786
-4.8016 3.8924 0.57667 0 16730
-4.793 -6.188 1.1 1 12859
-4.7921 -6.3779 1.1212 2 12815
-4.7838 -7.3862 1.4458 0 12630
-4.7824 -5.1772 1.3279 2 13133
-4.7807 -5.9227 0.53224 0 12908
-4.7802 6.9918 -0.19664 0 18627
-4.7754 -5.95 0.5335 0 12902
-4.7716 1.4198 0.46446 0 14732
-4.7692 -6.3084 1.1114 2 12825
-4.7504 5.1228 1.1478 0 17721
-4.7486 1.7669 0.11763 0 15000
-4.7417 1.4869 0.81644 0 14793
-4.7412 -6.6224 0.75986 0 12747
-4.7383 3.8631 0.57036 0 16750
-4.7368 -0.85143 0.67638 1 13800
-4.7355 3.0203 -1.4704 1 16012
-4.725 5.938 -1.4297 0 18214
-4.7087 -5.2167 0.65563 2 13090
-4.7074 -5.9329 1.0644 0 12891
-4.7009 1.4588 0.80866 0 14781
-4.6961 1.3227 0.45517 0 14683
-4.6932 -4.906 0.95417 2 13192
-4.6895 -3.2363 -0.26571 0 13716
-4.688 6.857 -1.1674 0 18620
-4.6797 -4.8612 0.94833 2 13199
-4.6758 -5.8594 1.0535 0 12897
-4.667 -6.5188 1.1267 2 12749
-4.6588 0.17165 0.87836 0 14095
-4.6556 -6.7086 1.1476 2 12713
-4.6548 -0.90733 0.77915 0 13793
-4.6475 0.15823 0.87614 2 14089
-4.6425 0.4552 0.1083 0 14210
-4.6316 6.1396 1.449 0 18372
-4.6315 -7.2869 1.4186 1 12597
-4.6285 -6.427 1.1131 2 12757
-4.6267 -6.7069 1.1451 0 12706
-4.6153 -4.4726 1.2109 2 13304
-4.6129 -6.064 1.0708 1 12834
-4.6117 1.9159 -0.3492 1 15152
-4.6007 4.2932 0.58708 1 17201
-4.587 5.529 0.16679 0 18090
-4.5869 -4.4172 1.1998 0 13310
-4.5544 3.8912 0.13908 0 16912
-4.5391 -4.7966 -0.46179 1 13166
-4.5347 7.8925 -0.84922 0 19022
-4.5265 4.224 -0.28872 0 17194
-4.5175 -4.5587 1.0544 2 13249
-4.5144 1.9377 0.2291 1 15202
-4.4961 3.7981 -0.41156 2 16862
-4.4817 0.71784 0.10538 0 14337
-4.4805 -3.2684 -0.25863 0 13660
-4.4788 6.011 1.4123 0 18404
-4.4783 8.3521 1.557 0 19168
-4.4762 1.6798 0.67193 0 15017
-4.4741 2.5873 0.24102 0 15749
-4.4618 -5.461 0.82467 0 12923
-4.4594 -8.6473 0.22589 0 12319
-4.4591 0.26804 -0.20832 1 14139
-4.4494 -4.6772 1.0606 2 13182
-4.4423 -5.4024 0.81793 1 12932
-4.4344 -4.686 1.0599 1 13173
-4.432 -6.3484 0.72233 2 12718
-4.4225 6.1932 0.88995 0 18522
-4.4217 0.098025 0.41263 0 14067
-4.4187 0.51204 0.62517 0 14245
-4.4181 -7.0898 0.77936 0 12570
-4.4167 -3.0869 -0.12511 0 13703
-4.4092 2.0458 -0.11285 0 15311
-4.3994 3.2577 0.51072 0 16434
-4.3992 2.9897 0.49623 0 16193
-4.398 -2.9077 0.24587 0 13754
-4.3708 -6.5786 0.92363 0 12661
-4.3701 2.4095 0.46557 0 15642
-4.3641 -5.8422 1.1981 0 12803
-4.3609 5.1641 1.2735 0 18043
-4.3479 -6.796 1.3255 1 12607
-4.3458 -4.7576 1.0586 2 13112
-4.3413 -5.7779 1.1874 2 12816
-4.3408 0.084862 0.818 1 14062
-4.3371 -6.6127 0.92479 1 12647
-4.3294 -7.1769 0.78196 2 12531
-4.3091 -7.1914 0.78215 2 12524
-4.3022 5.1236 1.2605 1 18059
-4.3004 0.68881 0.61208 1 14339
-4.2999 0.10884 0.40129 2 14073
-4.2962 -6.0364 1.0413 2 12742
-4.2883 0.047154 0.808 2 14047
-4.2838 0.36951 0.60429 0 14187
-4.2749 -6.0467 1.0407 2 12734
-4.2562 -2.8471 0.11889 1 13739
-4.2536 1.9582 -0.10872 2 15301
-4.2471 -8.7934 0.4554 1 12239
-4.232 0.37844 -0.098646 0 14193
-4.223 3.443 -0.38101 2 16742
-4.2185 7.5481 0.60465 0 19085
-4.2023 1.577 0.41876 1 15014
-4.1948 -6.9539 1.3343 2 12534
-4.1942 1.5874 0.41839 1 15028
-4.1925 1.643 0.31488 0 15075
-4.1789 -5.8716 0.84279 2 12741
-4.1786 4.7782 0.8921 1 17929
-4.173 -5.6871 1.329 0 12780
-4.171 5.7345 1.165 0 18475
-4.1328 7.3947 0.79032 0 19086
-4.1315 -4.8803 0.59655 2 12972
-4.1287 4.2013 -0.54955 0 17497
-4.1252 0.29642 0.48365 0 14159
-4.1232 -4.5681 1.1594 2 13094
-4.0993 0.13957 0.57646 0 14088
-4.0986 3.0528 -0.11865 0 16450
-4.0631 3.3315 0.24503 0 16767
-4.0595 -5.742 0.82235 2 12733
-4.0562 -5.9955 0.84651 2 12681
-4.0557 3.1721 0.60213 0 16613
-4.0536 -0.014858 -0.18904 0 14015
-4.0528 -0.61944 0.77245 2 13815
-4.0524 -6.0626 0.85278 1 12668
-4.052 7.3981 1.1855 0 19128
-4.047 -4.6441 0.72037 1 13028
-4.0452 7.8174 -1.0293 1 19218
-4.0441 4.1893 -0.81834 0 17555
-4.0358 1.6224 0.71463 0 15114
-4.0276 -6.5035 -0.35674 0 12559
-4.0267 -3.0288 0.11698 0 13630
-4.0126 -2.9996 0.58586 0 13639
-3.9976 4.7895 -1.3261 0 18076
-3.9951 4.3844 1.1176 2 17786
-3.9947 -0.63484 0.76209 0 13812
-3.9743 8.2507 0 0 19338
-3.9611 9.1623 1.4029 0 19485
-3.9478 4.0426 -0.79412 2 17516
-3.9264 6.6129 -1.449 0 18968
-3.9254 3.6836 -0.75655 1 17209
-3.9149 6.4238 -0.87973 0 18906
-3.8923 3.0983 -1.0574 0 16677
-3.8856 1.0462 0 0 14640
-3.8558 -5.2548 0.60807 2 12778
-3.853 1.4852 0.77801 2 15055
-3.8503 1.0497 0.46669 0 14651
-3.8492 -5.3136 0.76729 2 12765
-3.8379 8.3327 0.42782 0 19415
-3.8226 3.8239 0.75989 0 17446
-3.8173 1.4837 0.19099 0 15062
-3.8152 4.3626 -1.3732 0 17928
-3.7684 1.5012 0.37844 1 15099
-3.7557 0.0072103 0.35039 0 14030
-3.7517 0.018334 0.35002 0 14037
-3.7424 4.6199 0.69528 0 18159
-3.7405 7.3825 0.77212 0 19261
-3.7228 -0.33881 0.70432 0 13887
-3.7117 -0.42486 0.17422 0 13852
-3.7036 2.3332 0.71917 0 15978
-3.702 0.65809 0 0 14380
-3.6905 -0.32547 0.69802 0 13891
-3.6683 -2.6427 -0.21084 2 13671
-3.6566 2.3475 -0.20264 0 16025
-3.6521 2.7882 0.3213 0 16532
-3.6366 6.2887 0.67774 0 19016
-3.6286 4.8984 0 1 18417
-3.6033 -2.6937 0.84763 1 13642
-3.5939 3.6572 0.35855 0 17507
-3.5925 6.2526 1.0135 1 19033
-3.5779 2.9673 0.87577 0 16812
-3.577 2.9507 0.21624 0 16787
-3.571 2.535 -0.71949 0 16302
-3.5648 1.0384 0.086205 2 14713
-3.5605 0.34911 0.41837 2 14212
-3.5595 0.33898 0.41814 2 14205
-3.5565 3.4357 0.93169 0 17330
-3.5185 4.0233 0.49864 1 17926
-3.4889 1.5454 0.17795 0 15249
-3.4854 2.7744 0.10343 0 16671
-3.4666 -0.1841 0.57034 0 13937
-3.4626 -0.053186 -0.32308 2 13994
-3.4535 -4.9763 -0.42356 2 12708
-3.4355 -2.3138 0.38643 0 13736
-3.4327 -0.50444 -0.24261 0 13817
-3.4327 0.57074 0.48905 0 14352
-3.4211 6.8467 -0.89506 0 19273
-3.4203 2.239 0.28586 0 16082
-3.4194 7.3162 0.1875 0 19388
-3.4154 1.9096 -0.36507 1 15662
-3.4138 8.64 0 0 19587
-3.405 -3.5982 0.34641 0 13169
-3.3874 2.231 0.28363 0 16100
-3.3852 1.2596 0 0 14999
-3.3819 2.2139 -0.28265 0 16075
-3.3797 0.55103 0.48126 1 14344
-3.3201 -5.3947 -0.59098 0 12551
-3.3196 2.6263 0.098275 0 16649
-3.3157 7.0943 0.54759 0 19390
-3.3096 -0.098806 -0.076874 0 13974
-3.3017 1.0246 0.32252 0 14777
-3.2701 0.16794 0.61693 0 14122
-3.2488 -3.9062 -0.11796 1 12947
-3.2308 6.4181 -1.0098 0 19263
-3.2272 0.60337 -0.076224 0 14403
-3.2211 -0.42578 0.075435 0 13833
-3.2186 3.5546 -0.56078 0 17790
-3.1988 -0.47007 0.60915 1 13819
-3.1859 -0.46818 0.22517 0 13818
-3.1795 -2.3768 0.18512 0 13636
-3.1654 0.23634 0.29614 0 14165
-3.1596 -0.54917 0.52689 0 13802
-3.1291 -8.1009 0.8102 0 11983
-3.117 2.6791 0.38346 1 16935
-3.0538 2.6575 -1.4734 0 16970
-3.0342 5.3564 0.7199 0 19059
-3.0176 3.1074 0.60874 0 17549
-3.0029 1.1467 0.45176 0 15043
-3.0004 3.0897 0.099992 0 17543
-2.9992 2.2209 0.17404 0 16432
-2.9936 2.9243 0.09716 1 17364
-2.9906 2.2275 0.086576 1 16453
-2.9902 2.9048 0.096789 1 17344
-2.9865 2.1587 -0.25768 0 16357
-2.9831 4.1776 -1.0911 0 18523
-2.9827 2.2363 -0.17385 0 16468
-2.9481 4.3396 -0.61351 0 18636
-2.9406 2.2191 -0.1718 0 16487
-2.9267 -6.147 -0.15807 0 12220
-2.9084 1.3705 -0.074646 0 15336
-2.8629 1.4827 -0.37703 1 15499
-2.8546 3.3211 -0.71949 0 17971
-2.854 -1.9578 0.32289 0 13722
-2.8497 -3.658 -0.21624 0 12866
-2.8437 -6.1572 -0.15746 0 12187
-2.8159 -3.1561 -0.29577 0 13069
-2.8145 7.9922 0.59251 0 19760
-2.8125 3.6852 -0.76164 0 18321
-2.8104 3.7066 -0.76424 0 18342
-2.8048 3.2243 0.29884 0 17945
-2.7962 2.9465 -0.57089 0 17620
-2.7697 -3.6863 0.86873 2 12818
-2.7669 -4.5562 0.12376 0 12538
-2.7592 -2.5372 0.43835 1 13363
-2.7395 -3.0888 0.67831 0 13064
-2.7336 2.6863 0.268 0 17385
-2.731 4.9512 -0.13128 1 19107
-2.7294 -3.5238 -0.20786 2 12856
-2.726 2.7576 0.45345 0 17487
-2.723 4.5861 -0.74959 0 18956
-2.7172 2.7334 0.54166 1 17467
-2.7151 2.8432 -0.55252 1 17599
-2.7052 4.6182 -0.24959 1 18987
-2.7023 -2.7118 0.53804 0 13260
-2.6782 8.2036 -0.20036 2 19894
-2.656 2.5946 -0.78923 2 17370
-2.6557 -8.1881 0 0 11793
-2.6405 8.2538 1.4237 0 19937
-2.6253 5.0734 0.13263 0 19225
-2.6149 1.6678 -0.43589 0 15999
-2.6044 -7.9542 1.1763 1 11808
-2.5812 4.8791 0.77575 0 19191
-2.5795 3.3605 -0.59538 2 18302
-2.5708 -3.0562 -0.18624 1 12962
-2.5634 1.6564 -0.42893 0 16038
-2.5537 1.6287 0.28258 0 16011
-2.5206 -2.4996 0.41512 2 13277
-2.5032 -2.5553 0.67395 1 13231
-2.4903 -7.2405 0.71434 0 11857
-2.485 3.3351 -0.58453 0 18391
-2.4777 3.4917 -1.0145 0 18539
-2.4718 5.4115 -1.4096 0 19426
-2.4618 4.9964 1.0494 0 19307
-2.4505 3.0079 0.73098 0 18144
-2.4245 6.5753 -1.1514 0 19674
-2.3968 -8.0143 0.97822 0 11719
-2.3941 4.5254 -0.71952 2 19180
-2.3869 7.2429 -0.89181 1 19873
-2.368 2.9579 0.087969 1 18190
-2.3607 7.6074 1.3086 0 19989
-2.3586 6.4557 -1.295 0 19706
-2.3405 2.9414 0.087273 2 18208
-2.3071 3.3319 -1.1621 1 18601
-2.2845 3.0839 0.44881 0 18423
-2.2679 4.7804 -0.86929 0 19355
-2.2626 5.5806 0.56181 0 19556
-2.2565 2.8185 -0.50743 0 18180
-2.2465 7.5549 -0.73533 0 20043
-2.2318 2.3942 0.075992 0 17693
-2.2308 3.8329 -0.10296 0 19000
-2.2287 6.7628 1.1699 2 19887
-2.2263 3.2563 -0.7432 1 18633
-2.2226 4.1158 -1.4596 0 19155
-2.2199 -9.2608 1.1137 0 11551
-2.2103 5.235 0.13193 0 19511
-2.2087 3.2919 0.7469 0 18686
-2.2041 3.7628 -0.10125 0 18989
-2.1966 -2.4767 -0.15438 1 13059
-2.1954 -4.7535 0 0 12188
-2.1869 5.2253 0.13151 0 19522
-2.1857 4.7454 0.1213 0 19414
-2.1724 4.7559 0.12139 0 19424
-2.1703 -8.6084 1.6727 0 11582
-2.1651 -6.242 -0.3081 0 11861
-2.1533 3.0537 0.43696 0 18551
-2.1476 2.9527 -0.42697 2 18459
-2.1389 5.7024 0.1414 0 19656
-2.1324 7.0898 -0.86579 1 20026
-2.1289 2.9442 -0.42488 1 18479
-2.1279 7.3819 -1.0797 0 20090
-2.0482 6.4025 -0.15607 0 19927
-2.047 5.4574 -0.54379 0 19649
-2.0257 7.5128 1.466 0 20187
-2.0179 4.1281 -0.64576 1 19309
-1.9969 3.0715 -0.69025 0 18767
-1.9957 5.4125 -0.6746 0 19675
-1.9876 5.119 -1.1672 0 19613
-1.9854 5.588 -0.55326 0 19738
-1.984 6.5964 0.96809 0 20039
-1.9823 3.8015 0.19994 0 19213
-1.9794 -6.1576 0.60343 1 11788
-1.9762 8.6077 0.20504 0 20403
-1.9708 -7.2788 1.2389 0 11638
-1.9662 -5.7168 -0.28192 2 11852
-1.9584 3.8073 0.39944 0 19236
-1.9526 3.0228 0.50576 1 18784
-1.9456 3.5522 -1.4741 0 19125
-1.9399 2.5272 0.60026 0 18319
-1.939 5.0329 -1.1464 0 19622
-1.938 3.7953 0.39758 0 19249
-1.931 4.5737 0.23152 0 19513
-1.9257 8.7366 -0.4172 0 20459
-1.9218 7.5671 -1.0972 0 20254
-1.9213 -7.0182 1.1955 1 11647
-1.9076 -3.8061 -0.19854 1 12281
-1.8887 2.4748 0.58656 0 18340
-1.8541 2.6618 -0.37935 0 18567
-1.8522 3.8178 0.79949 2 19329
-1.8348 3.5185 0.74764 0 19216
-1.812 -3.5394 0.27805 1 12311
-1.8102 -9.3125 1.3333 0 11435
-1.8096 8.5649 1.6493 1 20516
-1.802 3.5797 0.18689 0 19272
-1.8016 2.5701 -0.36704 0 18555
-1.8015 5.5777 0.963 1 19921
-1.7978 3.5482 0.1855 1 19260
-1.7747 4.4552 0.90354 0 19580
-1.7693 5.5911 0.13615 0 19946
-1.7471 -3.5615 0.0921 0 12255
-1.7416 2.4543 -0.35194 0 18525
-1.7338 3.325 -0.17487 2 19209
-1.7336 2.7701 -0.85548 0 18863
-1.7227 3.7403 0 0 19412
-1.716 3.7566 0 0 19422
-1.7074 5.5022 0.53747 1 19985
-1.7072 4.3969 0.10951 0 19610
-1.6978 3.5788 -0.55669 0 19357
-1.6966 6.8401 -0.65749 0 20297
-1.683 2.707 -0.91401 0 18876
-1.6736 2.8941 0.54926 0 19019
-1.6722 -8.4687 1.4182 0 11442
-1.6705 3.8956 -1.0043 0 19496
-1.6618 -9.4243 1.5722 0 11394
-1.6551 -5.7156 -0.13815 1 11685
-1.6466 3.9636 0 1 19528
-1.6433 3.3147 0.51995 0 19294
-1.6211 -9.0459 0 0 11399
-1.6093 4.6578 0.3446 0 19793
-1.5989 2.6928 -1.2229 0 18963
-1.5677 4.4919 -0.55636 0 19770
-1.55 -7.0972 0.84953 0 11495
-1.5317 3.204 0.24833 0 19353
-1.5226 -8.7782 1.0419 0 11387
-1.5205 6.4572 -1.4101 0 20374
-1.5174 4.7433 0.58238 0 19935
-1.5165 3.8737 -0.3881 0 19593
-1.5116 3.2343 0.58655 0 19392
-1.5111 -9.03 -0.21256 0 11375
-1.5002 9.3661 0.22022 0 20771
-1.4994 -5.2918 0.51314 2 11671
-1.4923 -5.3269 0.51611 0 11660
-1.4907 3.2158 0.58234 2 19403
-1.4598 3.4576 -0.52747 1 19506
-1.4569 -8.8775 -0.41953 0 11369
-1.4475 3.3757 0.085276 2 19493
-1.4326 5.6409 -1.2371 0 20270
-1.4282 5.5585 -0.94289 0 20236
-1.427 4.7989 -0.23348 0 20045
-1.405 -8.1004 1.549 0 11388
-1.3916 5.3541 0 0 20224
-1.3763 -4.5528 0.89614 0 11729
-1.3682 5.5161 -0.66461 1 20295
-1.3516 -8.3823 1.1933 0 11363
-1.3495 5.8084 -1.1235 0 20394
-1.3488 -6.0891 0.87651 0 11502
-1.3046 -6.3218 0.30102 0 11463
-1.3024 -4.9226 0.71563 0 11621
-1.2854 6.8818 -1.319 0 20652
-1.2745 -3.6743 0.36284 0 11866
-1.265 7.1087 0.5049 0 20689
-1.261 3.6853 -1.1169 1 19811
-1.2479 6.2621 -0.89739 0 20562
-1.2409 7.2141 1.0288 2 20716
-1.1956 7.4644 0.52861 0 20774
-1.1818 8.3041 0.19474 0 20858
-1.1652 8.5506 -0.20036 1 20882
-1.1446 -8.3124 0.98124 0 11311
-1.1315 -9.9157 0 0 11262
-1.1196 5.7121 -0.81806 1 20582
-1.0952 -4.9443 0.832 0 11503
-1.0922 -8.2962 0.19427 0 11294
-1.0897 3.0384 -0.68611 0 19735
-1.027 7.5365 -1.4331 1 20888
-1.0223 6.3822 -1.3739 0 20777
-1.0208 -5.6961 0.53989 1 11401
-1.0207 -8.5097 -0.39969 0 11274
-1.0185 5.1961 0.86994 1 20597
-1.0179 7.1519 0 0 20856
-1.014 7.125 0.67142 1 20860
-1.0101 6.9493 -0.32748 0 20843
-1.0005 4.9576 -0.59144 2 20548
-0.99877 5.2557 -1.4005 0 20629
-0.99085 -6.7672 0.79981 0 11331
-0.97455 7.6287 1.449 0 20916
-0.97407 -9.8109 1.3856 0 11238
-0.95057 6.9755 0 0 20883
-0.94671 -3.6686 0.26494 0 11598
-0.93529 5.3534 0.12617 0 20702
-0.92264 6.9148 0.16196 0 20896
-0.90583 6.1122 0.43207 0 20834
-0.89785 6.4374 -0.76009 1 20865
-0.89653 -4.1607 0.59817 0 11485
-0.89005 -6.0788 1.0094 0 11332
-0.86099 6.4528 -0.91492 1 20889
-0.85013 3.757 0 0 20421
-0.84703 8.3971 -0.19595 0 21019
-0.83074 6.0962 -1.3078 1 20887
-0.80305 -6.2429 -0.14614 0 11287
-0.78521 6.304 -0.7429 0 20917
-0.76904 6.318 -0.74429 0 20929
-0.76858 9.511 0 0 21090
-0.73749 6.2217 0.73268 0 20951
-0.71627 3.8347 0.36395 0 20646
-0.71562 5.1309 -0.85113 0 20863
-0.69108 -7.638 1.26 1 11223
-0.64331 8.285 -0.77528 0 21097
-0.64061 -7.8253 0.36615 0 11203
-0.62453 -4.7438 -0.11109 0 11293
-0.61845 9.3854 0.43863 0 21134
-0.59845 -4.3462 -0.20459 1 11307
-0.59428 -4.7241 0.44421 0 11282
-0.57964 9.6147 0.89864 0 21154
-0.57123 8.6689 0.2017 0 21133
-0.55153 -8.966 0.83807 0 11156
-0.51341 8.5162 -1.4017 0 21145
-0.51192 -8.7456 1.4393 0 11150
-0.51084 -7.5908 1.2499 0 11171
-0.48081 -4.709 0.66525 0 11244
-0.47809 -7.1042 0.33205 0 11170
-0.47714 -8.5881 1.0059 0 11143
-0.45435 -6.465 -0.30223 0 11177
-0.43401 -3.023 0 2 11324
-0.43225 -3.0717 0 0 11317
-0.42986 -5.6511 0.66276 0 11191
-0.41313 -8.826 0.20514 0 11128
-0.4131 -7.8301 1.102 0 11137
-0.40814 -6.9725 0.81677 0 11149
-0.40536 6.1516 0.4311 0 21135
-0.3864 -3.9983 0.093261 0 11233
-0.37264 3.8005 -0.81169 2 21039
-0.36065 9.6967 -0.22528 0 21220
-0.35673 -5.076 0.95872 0 11179
-0.33215 3.9889 0.56254 0 21085
-0.31615 -3.3823 -0.07887 0 11228
-0.31447 9.2362 0.21456 0 21230
-0.31186 -4.0997 -0.19174 0 11189
-0.2974 -3.9097 0.73876 0 11192
-0.28988 -7.0637 1.332 0 11113
-0.27904 -3.084 -0.14441 2 11220
-0.27854 -6.3542 0.14767 0 11120
-0.2727 -3.1107 -0.14562 1 11214
-0.25888 -4.0361 0.47297 1 11164
-0.24868 -4.0428 0.47366 2 11157
-0.2396 7.6669 0.71564 1 21243
-0.22844 -5.5666 0.78299 0 11112
-0.22416 3.2463 -0.45732 0 21120
-0.22394 -8.4951 1.3962 0 11079
-0.20671 -8.7068 1.4309 0 11073
-0.15574 4.9836 0 0 21240
-0.15281 4.4881 -1.1756 0 21231
-0.11133 -4.6894 -0.10891 2 11071
-0.1066 9.6937 0.67789 0 21304
-0.1061 -7.0684 1.1614 1 11053
-0.10493 7.7075 -1.0833 1 21290
-0.10387 -5.0426 0.35269 0 11065
-0.097381 -4.7277 -0.10979 0 11064
-0.092566 -5.1486 0.36008 0 11059
-0.072933 -6.1449 0.28658 0 11046
-0.04105 -4.523 0.52895 0 11040
-0.028663 -9.1238 1.067 0 11030
-0.019697 8.6816 -0.20156 0 21322
0 -8.8336 -0.20509 2 6202
0.012646 -5.1755 0.48285 0 11020
0.031027 -5.5553 0.78076 1 11015
0.044839 -5.5849 0.78494 0 11009
0.068784 -6.1577 0.72013 0 11003
0.08245 -7.381 1.0374 0 11004
0.10076 -5.9511 0 0 10991
0.11223 -3.9199 0.55113 0 10970
0.12227 -7.2216 0.67384 0 10992
0.13305 -5.8182 -0.2714 0 10981
0.13708 -4.7878 0.90243 0 10971
0.15188 -5.3048 0.49511 0 10969
0.18339 -3.0332 0.14171 0 10909
0.19382 -4.4932 0.52593 1 10942
0.20473 -5.9825 0 0 10956
0.21933 -4.2132 0.09795 0 10925
0.22014 -7.6888 0 2 10968
0.22135 -8.6847 1.4273 0 10975
0.2224 6.8117 0.47658 0 21431
0.2854 -5.8355 0.13564 1 10931
0.29396 6.2334 -0.14488 0 21465
0.29519 -3.7845 0 0 10871
0.30486 6.8994 0.16034 0 21457
0.32935 6.2016 0.14419 0 21478
0.34756 6.2166 -0.14456 0 21485
0.35249 -5.541 0.64928 0 10900
0.3586 6.0716 -0.8548 0 21491
0.38607 -6.3854 -0.29832 0 10906
0.38839 6.9469 0.64913 0 21489
0.39375 -6.5123 0.15147 0 10908
0.39891 4.2597 -1.4456 0 21558
0.44476 -6.4249 -0.14952 0 10891
0.44696 -3.5732 0.083605 0 10762
0.44709 -7.3945 0 0 10907
0.45595 6.2089 -0.72803 0 21516
0.46218 6.2936 -0.58875 0 21518
0.46336 4.3864 -0.41151 0 21580
0.46796 -3.4979 -0.081934 0 10744
0.50026 -5.0747 0.59632 0 10820
0.50233 -8.7121 1.0205 0 10914
0.50704 7.5149 -0.17487 0 21510
0.51391 -9.8719 -0.46099 0 10924
0.56964 -3.1947 -0.075342 0 10642
0.58448 4.2338 0 0 21647
0.60021 4.2599 0 0 21656
0.60625 4.2175 -0.098924 0 21664
0.60701 5.053 0.59516 0 21608
0.60931 -9.1978 0.42987 0 10895
0.61193 -4.5741 0.86947 0 10745
0.61276 6.5433 1.0797 0 21562
0.62471 6.0763 -0.14182 0 21574
0.62536 -5.6735 0.80219 1 10798
0.63377 -6.2502 0.88291 2 10814
0.63661 6.4006 -0.75219 1 21567
0.66396 5.1474 -1.1032 1 21629
0.69174 5.0108 -0.7109 1 21645
0.69568 -4.5094 -0.10593 0 10697
0.70256 -4.2255 0.29953 0 10670
0.7174 -6.6798 -0.15598 0 10803
0.72114 -3.7308 0.1772 0 10612
0.72268 -9.2653 1.5269 0 10873
0.74222 -3.7796 0.17963 0 10605
0.74829 9.4238 -0.21948 0 21531
0.74919 -3.4917 0.67284 2 10570
0.76172 -6.9106 0.32422 0 10796
0.76843 7.4743 -0.52541 0 21573
0.77794 -3.574 0.68914 0 10559
0.78367 -9.3521 1.7682 1 10859
0.79332 -5.8065 -0.13606 0 10738
0.80701 5.0838 0.96983 0 21696
0.81585 -8.8113 1.2437 0 10834
0.82083 4.1569 -1.1092 0 21767
0.82572 -4.3409 0.72598 0 10618
0.83431 -5.726 -0.13434 0 10719
0.84607 6.7162 1.1121 0 21623
0.85733 5.0315 -1.0849 0 21720
0.88403 7.359 -0.34565 0 21606
0.88855 -5.8614 0.13764 0 10707
0.88867 9.4895 1.1146 0 21561
0.89106 -9.9254 0.23137 0 10841
0.91207 -5.9121 0.55809 0 10698
0.93364 7.2381 -0.34034 0 21625
0.95042 7.5446 0.88925 0 21620
0.95786 7.2464 1.3772 0 21635
0.99678 9.4362 1.3336 0 21582
1.0045 -9.1128 0 0 10795
1.0209 6.6791 -0.31509 0 21681
1.0295 -9.8617 0.2302 0 10808
1.04 -4.2988 0.41263 0 10507
1.0424 -8.9821 1.0574 0 10782
1.0479 5.3067 -0.63256 0 21764
1.0503 -3.315 0.57131 0 10365
1.0515 7.1638 0.67551 0 21672
1.0521 -9.0652 0.42559 0 10780
1.0556 5.9741 0.99672 0 21730
1.0626 -6.4959 1.2401 0 10677
1.0936 -5.6577 0.13379 1 10611
1.1022 -7.7346 0.91364 0 10725
1.1151 -5.278 0.12525 0 10576
1.1254 3.8436 -0.092982 0 22045
1.127 5.9819 0.42565 0 21753
1.1314 5.478 -1.0539 0 21780
1.1329 4.8452 0.34795 0 21841
1.1353 -5.6919 0 0 10599
1.1426 -4.977 0.23813 0 10533
1.1428 5.4515 -1.0494 0 21788
1.1496 -6.7897 0.96781 0 10664
1.1632 5.0382 -0.84951 0 21827
1.1683 8.2917 0.78122 0 21658
1.1777 -9.9059 0.69756 0 10773
1.1781 6.7922 -1.1326 0 21721
1.2051 9.3426 0 0 21626
1.2224 -5.6971 0.81889 0 10568
1.2407 5.7578 0 0 21801
1.2457 -6.2453 -0.14785 0 10598
1.2766 -5.95 0.28379 0 10567
1.2806 -5.9685 0.14173 0 10566
1.2869 -5.247 -0.12543 2 10498
1.2905 -4.245 0.10301 0 10389
1.3005 7.2499 1.0352 0 21733
1.3256 6.7131 -0.96169 1 21763
1.3346 9.6675 1.6034 0 21653
1.3468 8.4845 -0.80147 0 21692
1.36 6.7813 1.3031 0 21772
1.3639 2.8646 -1.2389 0 22673
1.3743 7.0636 0.16707 0 21761
1.3785 -2.9697 0 0 10075
1.3986 3.4101 -0.96489 1 22417
1.4017 9.7511 0.45941 1 21666
1.4371 -6.0138 0.57686 0 10516
1.4388 -7.9327 1.519 2 10636
1.4458 4.3286 -0.85985 0 22188
1.4527 5.5531 0 0 21925
1.463 5.5256 0 2 21938
1.4816 3.1601 -0.16276 1 22639
1.4872 4.9166 0.11926 0 22083
1.4902 -5.5266 0.40026 0 10451
1.5043 4.8747 0.35673 0 22111
1.5177 -3.7117 0 0 10207
1.5217 4.8797 0.35743 0 22120
1.5419 -3.6787 0.56059 0 10192
1.5432 6.0366 0.87568 0 21907
1.5439 -5.5372 0.13346 0 10436
1.5627 5.7676 -0.27866 0 21965
1.5673 4.0178 -1.129 1 22349
1.5757 -6.9582 1.1721 0 10539
1.5758 -3.7015 0.0934 0 10172
1.604 4.0762 -1.1467 0 22363
1.6112 8.4144 1.6142 0 21759
1.614 7.1793 1.3864 0 21817
1.6336 -6.6608 0.63984 1 10500
1.6405 5.0042 0.74012 1 22170
1.6559 5.4263 0.5293 0 22098
1.6921 7.2372 -1.2211 1 21835
1.7138 6.7926 -1.4891 0 21899
1.7377 -4.7951 0.96094 0 10303
1.7457 3.1794 -0.25363 1 23006
1.7517 7.0258 -1.0176 0 21882
1.8111 6.118 1.0483 0 22059
1.8214 7.4944 1.2671 1 21872
1.851 -3.3559 0.72209 0 9901
1.8526 -2.7425 -0.30877 1 9624
1.8732 -5.8518 0.14265 0 10360
1.8801 3.1994 -0.97147 0 23179
1.9238 4.8074 0 0 22383
1.9393 -8.9091 1.498 1 10558
1.9469 -4.0708 0.42099 0 10049
1.9717 5.4261 0.81138 0 22282
1.9953 7.0324 -1.201 0 21997
1.9969 6.4709 0 0 22109
2.0172 -2.5053 0.15 0 9383
2.035 -4.2246 0.7704 0 10043
2.0356 7.1747 -0.34779 0 22005
2.0402 -3.2398 0.26773 0 9729
2.0578 6.3407 -0.15477 0 22159
2.0691 -2.5533 0.15326 0 9373
2.0808 6.1054 -0.14976 0 22208
2.0871 -6.4502 0.47407 0 10356
2.1077 -5.8162 0.14363 0 10302
2.1078 2.5652 -1.036 0 24079
2.1167 2.3632 0.14795 0 161
2.1205 7.8261 1.1395 0 21969
2.1428 -7.5075 1.0972 1 10426
2.1443 -6.6989 1.1556 1 10361
2.1516 -3.8482 0.41133 0 9881
2.1759 -5.4568 1.1068 0 10227
2.2188 -7.7738 0.56531 0 10425
2.2272 -6.7543 0.16512 0 10344
2.2277 6.7955 0.83629 0 22169
2.2436 8.1012 1.5838 0 21989
2.244 -5.7763 0.43333 0 10246
2.2447 -7.5346 0.73347 1 10402
2.2507 -9.3033 1.5726 0 10508
2.2715 -4.8936 1.0165 0 10080
2.3013 3.4664 0.78393 2 23477
2.3047 3.7699 -1.493 0 23273
2.3099 7.8031 0.18894 0 22057
2.3204 3.7704 0.30958 0 23291
2.3213 9.4222 1.5943 0 21881
2.3636 -3.612 -0.50479 1 9673
2.3704 -6.3197 0.9486 1 10272
2.3776 -5.0436 0.26003 0 10062
2.3878 2.6828 -1.3072 0 139
2.4253 4.0733 0.89317 2 23215
2.4341 -2.9517 0.17841 1 9348
2.4353 4.0627 0.89243 0 23232
2.4376 2.7215 -1.3298 0 159
2.4393 3.4515 0.59399 1 23636
2.4423 5.9049 0 0 22428
2.47 -7.8674 0 0 10370
2.4814 -3.8386 0.53453 0 9702
2.4875 4.2062 0.11345 1 23194
2.4927 3.9492 0.65634 0 23356
2.5147 7.1132 0.88228 0 22254
2.5173 6.5682 0.82258 0 22332
2.5209 -4.8324 0.76601 0 9962
2.5226 -3.5773 0.20413 0 9568
2.5331 2.4325 -1.4669 0 711
2.5361 3.2566 -1.1836 1 23903
2.5474 -3.7967 0.42656 0 9638
2.5758 1.9779 -1.182 2 1419
2.6017 -3.8514 0.43362 0 9628
2.6265 5.5613 0.14279 0 22658
2.6304 -3.5098 0.51292 0 9491
2.6305 8.1831 1.208 0 22152
2.653 7.7842 0.57507 0 22209
2.6585 1.7851 0.22392 0 1845
2.6601 3.9068 0.33051 0 23537
2.6828 -6.401 -0.32366 0 10188
2.7123 -6.2678 0.79865 0 10154
2.7144 -6.321 0.80446 0 10165
2.7156 2.6078 0.52914 0 721
2.7192 -9.3172 1.5946 0 10414
2.7229 1.3233 0.49739 0 2815
2.729 6.996 0.70059 1 22348
2.731 -2.0105 -0.31639 1 8547
2.7451 1.8314 0.23075 0 1866
2.7483 -1.3943 0.43311 0 7727
2.7525 -8.1086 0.59879 0 10332
2.7535 3.5794 -1.2949 0 23865
2.7582 3.6049 -1.3016 0 23843
2.7814 -3.6 0.63936 0 9448
2.7817 -6.8027 1.2075 1 10210
2.8153 3.3079 0.71365 1 24219
2.8158 2.377 0.25768 0 1132
2.8183 2.1783 0 0 1399
2.8245 -5.0851 0.8175 0 9891
2.8325 -1.4067 0.14748 0 7691
2.8388 -3.6983 0.65523 0 9457
2.8403 5.548 -1.3248 2 22846
2.8552 2.3984 0.26075 0 1149
2.8732 -1.4369 0.14981 0 7704
2.8782 7.3783 1.3012 0 22351
2.8893 -3.7181 0.10932 1 9438
2.8934 2.017 0.081888 1 1720
2.9129 -8.9279 0.65669 0 10350
2.9294 3.2137 -1.4693 0 226
2.9392 -2.8713 0.67507 2 9089
2.9477 -3.0354 0.4948 0 9159
2.9493 -3.7064 0.89243 1 9407
2.9554 3.2241 -1.2542 0 249
2.9686 -7.6416 -0.57326 0 10243
2.9873 -4.803 0.39552 0 9744
2.9923 6.3821 0.99063 0 22646
2.9981 2.6544 0.65789 2 996
2.9981 4.4298 -0.37403 0 23514
3.0341 -8.0125 0.19892 0 10263
3.0354 -4.2257 0.73122 0 9544
3.0378 2.5355 0.6501 1 1170
3.0453 -7.7707 1.3712 0 10240
3.0552 -7.9261 1.1938 0 10250
3.0675 -4.0442 0.83395 0 9475
3.0717 4.041 0.83395 0 23831
3.0719 -7.5124 1.1407 0 10209
3.077 -1.663 0.49156 0 7835
3.0822 1.7716 -0.082538 2 2308
3.0863 0.8235 0.37354 0 4192
3.1025 3.8449 -0.46093 0 24014
3.1303 -3.3959 0.5401 0 9212
3.1406 5.4904 1.0392 0 23116
3.1407 -0.51431 0.14841 0 6877
3.1496 5.5421 1.0473 0 23097
3.15 -4.8729 0.13472 0 9698
3.1646 -7.1955 1.2915 2 10140
3.1678 -0.50966 0.14963 0 6871
3.1729 2.3641 0.36915 0 1518
3.1759 7.7437 0.78085 0 22416
3.1776 -0.66268 0 0 6969
3.1801 1.5897 0.24861 0 2727
3.1802 6.483 1.3605 0 22739
3.1842 2.4904 -0.37714 1 1356
3.195 -0.65759 0 0 6964
3.2003 1.6117 0.25057 0 2707
3.2041 2.3176 0.74505 0 1615
3.2054 2.2889 -1.229 1 1646
3.2071 -0.40117 0.22601 0 6766
3.2215 -6.9943 0.71843 0 10088
3.2237 7.8603 -0.19725 0 22413
3.2376 -0.41474 0.22824 0 6776
3.2408 5.9416 0 0 22990
3.2466 -7.3263 0.9371 0 10129
3.2603 1.4455 -1.1129 1 3046
3.2664 -9.1883 0.90978 0 10308
3.2724 5.1485 0.7134 0 23372
3.2809 4.4745 0.38799 0 23726
3.2849 -6.0374 0.48062 0 9913
3.2916 -6.536 1.0285 0 10004
3.2917 -5.4012 1.0392 0 9775
3.2993 -0.31594 0.15456 0 6669
3.3067 -3.3861 0.22071 0 9149
3.3119 6.7514 0 0 22732
3.3153 4.6342 0 0 23662
3.3501 -1.8616 0.72209 0 7887
3.3505 0.34151 -1.2258 1 5482
3.3604 -3.3993 0.78531 0 9133
3.3626 -3.2654 0.77007 0 9080
3.363 1.2194 0.25015 0 3543
3.3658 0.29329 0.63655 1 5613
3.3696 5.3384 1.1894 0 23359
3.3706 1.2335 0.25098 0 3523
3.3734 -6.655 0.87252 0 9995
3.3867 8.9061 1.5654 0 22321
3.395 -0.6464 0 0 6932
3.4084 -6.3514 -0.33615 0 9928
3.4221 -1.5769 0.17571 1 7566
3.4336 0.86373 0.58169 2 4306
3.4352 -1.1554 0.33813 0 7195
3.4459 -1.4919 0.08718 0 7465
3.454 1.1731 -1.4244 0 3687
3.4569 0.31156 0.65396 0 5588
3.4616 6.8588 -1.4475 0 22810
3.5229 -8.4052 1.7171 0 10193
3.523 -8.4055 1.0658 0 10191
3.5397 6.1062 0 0 23146
3.5402 2.0079 0 0 2355
3.5649 0.60551 -1.3161 0 4938
3.5672 4.8085 0.84144 0 23763
3.571 5.6927 0 0 23337
3.5722 1.905 0.3777 0 2548
3.583 1.9228 0.37937 0 2528
3.5996 -1.3875 0.17991 0 7309
3.6328 -7.9495 1.6467 2 10098
3.6349 2.1317 0.79393 0 2260
3.6349 5.9061 1.1394 0 23294
3.6406 -3.5776 0.96168 0 9098
3.6544 -2.0575 0.29326 0 7908
3.6672 1.2456 0.089919 0 3689
3.6678 2.7679 0.21428 0 1478
3.6914 0.38603 0.52162 1 5468
3.6915 5.8079 1.1306 0 23375
3.6974 1.2436 0.090569 0 3710
3.7211 0.91261 0.35745 0 4347
3.7377 -1.7884 0.19323 0 7630
3.7402 1.6982 0.57729 1 2992
3.754 -0.19542 0.5283 0 6501
3.7673 -0.35015 0.35299 0 6659
3.7838 2.1609 0.82096 0 2342
3.8013 -0.82813 0.27205 0 6982
3.8021 -0.30925 0.26675 0 6618
3.8102 -0.89998 0.36525 0 7021
3.8224 -7.6432 0.99936 0 10011
3.8227 2.0661 0.61069 0 2508
3.8275 -0.40026 0.63227 0 6699
3.829 6.1852 1.0224 1 23310
3.8461 -2.0073 0.50735 2 7776
3.8497 -0.72254 -0.09094 0 6926
3.8606 -2.7233 -0.33037 2 8427
3.885 -1.8589 0.099992 0 7628
3.9001 -1.1508 0.37937 0 7120
3.9097 6.395 0.69929 0 23275
3.9137 5.4045 0.31118 0 23697
3.9147 3.847 0.12743 1 633
3.945 -5.5945 1.2898 0 9573
3.9535 2.7386 0.90613 1 1746
3.9629 4.0102 0.26292 0 524
3.9689 -4.9557 -0.29608 2 9392
3.97 1.6113 0.70393 0 3277
4.0015 1.0677 0.19313 0 4186
4.0498 1.4421 0.099806 0 3582
4.057 -1.6186 0 0 7346
4.0586 -4.036 0.26692 0 9108
4.0615 5.8896 0.33363 0 23567
4.0651 -6.8873 0.93525 0 9816
4.0679 -1.2514 0 0 7142
4.0705 0.65491 0.095721 0 5010
4.0727 -4.0275 0.26711 0 9101
4.0881 -3.535 0.50422 0 8913
4.0924 0.3458 0.67475 0 5637
4.102 -8.0298 -0.84123 0 9984
4.1044 -6.9099 1.1295 0 9808
4.1104 -1.1222 0.70004 2 7088
4.1508 -7.9566 0.41851 0 9961
4.1766 2.1336 0 1 2664
4.1824 5.8787 0.67309 0 23648
4.2151 4.0478 0 0 713
4.2447 0.23434 0.80097 0 5863
4.2467 2.1545 0 0 2684
4.2598 -1.2829 0.10329 0 7131
4.273 -0.57318 0.20105 1 6793
4.2865 -9.0315 0.46621 1 10054
4.298 -5.212 0.94944 0 9351
4.3007 2.5556 0.11615 0 2212
4.3047 2.5743 0.35074 0 2196
4.3173 -1.4521 0.74835 0 7197
4.3199 0.33923 0.40427 0 5678
4.3236 -2.8661 -0.36273 0 8273
4.3716 3.7588 0.81027 0 1081
4.3765 -0.65095 0.72695 0 6838
4.4325 -1.5055 0.7691 0 7203
4.4512 6.9602 0.57772 0 23385
4.4733 7.7168 0.20709 0 23148
4.4745 8.0325 1.5106 0 23049
4.4767 4.7456 0.91687 0 364
4.4804 3.8293 0.68924 0 1100
4.4865 1.509 0.44161 0 3714
4.4879 -1.1414 0.10751 0 7054
4.4962 -5.9602 1.2266 0 9484
4.4968 3.0377 0.76267 0 1828
4.5303 -4.9717 0.15616 0 9225
4.5305 4.375 0.88514 0 699
4.5641 -8.6896 1.8493 0 9956
4.5647 0.35845 0.53545 0 5680
4.5662 5.0094 -0.15737 1 223
4.5669 5.9366 0.1739 0 23862
4.5864 4.4539 0.8985 0 679
4.5885 4.2818 0 0 812
4.5894 -2.6561 0.12311 0 7967
4.6067 -1.1307 0.66664 0 7036
4.6205 2.6387 0.49641 0 2336
4.6348 2.4024 -0.61049 0 2614
4.6712 3.1757 0.13114 0 1802
4.6823 1.8218 0.46873 0 3376
4.7036 0.7433 0 0 5035
4.7083 8.6898 0.22946 0 22971
4.7102 -1.184 0.22649 0 7050
4.7144 -4.7975 0.15616 0 9139
4.7197 -5.6548 1.0352 0 9333
4.7341 -8.412 1.5859 0 9877
4.738 -8.243 0.44338 0 9848
4.7681 -0.55506 0.33567 0 6736
4.7768 3.3909 0 0 1662
4.7838 -2.7497 0.77547 0 7957
4.7913 -1.1893 0.11461 0 7043
4.8186 3.7002 -0.28332 0 1415
4.8218 -5.5156 0.51229 0 9270
4.8347 8.0145 0.43649 0 23242
4.8481 -1.3691 0.58912 0 7102
4.8829 -5.6132 0.52024 0 9278
4.9142 -7.5556 1.4808 0 9692
4.9171 -7.0564 1.6205 0 9591
4.9197 7.4103 1.4614 0 23475
4.9428 -6.8358 1.5893 0 9538
4.9472 2.6194 0.26105 0 2565
4.9714 4.2235 1.229 0 1120
4.9931 6.6866 0.9759 0 23781
5.0008 -7.5956 1.7134 0 9671
5.011 4.8391 0.16173 0 691
5.0231 -2.6596 0.93381 0 7801
5.0407 1.518 0.24549 0 3939
5.0468 -0.19035 0.70978 1 6433
5.0471 -1.1457 0.48285 0 7001
5.0517 -2.0667 0.25453 0 7381
5.0553 4.7705 1.142 1 778
5.0581 -6.9951 1.4182 0 9536
5.0698 3.9652 0.14943 0 1361
5.072 5.8988 1.0933 0 20
5.0768 7.272 1.2464 0 23605
5.0895 3.0243 0.55234 2 2217
5.093 4.6701 0 0 872
5.11 1.3951 0.49419 0 4144
5.1204 8.0561 0.44515 0 23370
5.1411 -7.4247 1.4837 0 9598
5.1605 -0.2542 0.84886 0 6487
5.1675 -1.0476 -0.12241 0 6958
5.2315 2.6346 0.96235 1 2712
5.2318 -1.6255 -0.1272 0 7147
5.2467 1.7494 1.042 0 3738
5.2518 -5.7636 1.2811 0 9227
5.296 -0.30629 0.87156 0 6528
5.2969 5.9514 1.309 0 150
5.3267 1.7246 0.91987 2 3801
5.3438 -5.1622 0.1725 0 9066
5.3583 2.2667 0 0 3165
5.3605 -0.89319 0.507 1 6884
5.3683 -6.8268 1.2205 0 9424
5.3803 -7.4903 1.5152 0 9546
5.3942 4.6104 0 0 1094
5.4 -0.64487 0.50738 2 6746
5.402 -6.3608 1.5723 0 9309
5.4037 2.03 0.13402 0 3459
5.4078 1.7508 0.79885 0 3799
5.4079 -5.6001 1.4668 0 9167
5.4218 3.0525 0 0 2375
5.4234 -0.616 0.50923 0 6725
5.4263 -5.1511 0.34891 0 9045
5.4309 2.6959 -0.42398 1 2742
5.4533 2.7261 1.1487 0 2734
5.4715 2.7555 1.1542 0 2714
5.5098 -2.5389 0.99672 1 7569
5.538 -0.079263 1.0435 0 6298
5.5626 -8.1361 1.6193 0 9614
5.5859 -2.9576 0.58968 0 7799
5.5964 1.9379 0.1375 0 3644
5.602 -3.2631 1.0651 0 7987
5.6352 -3.7582 0.95194 0 8294
5.6368 -2.7164 0.2918 0 7644
5.6527 -1.2832 0.67786 0 7002
5.6782 3.3088 1.0797 0 2278
5.6813 -2.7379 0.58838 0 7646
5.7074 -1.1208 0.68018 0 6947
5.7225 3.7461 1.2887 0 1930
5.7451 -6.0541 1.3712 0 9185
5.7782 1.9435 1.0016 0 3717
5.7999 0.81202 0.13597 0 5178
5.8121 -1.39 0 2 7026
5.8469 3.1601 0.15431 0 2500
5.8833 2.3092 0.14674 0 3352
5.9196 2.3426 0.14781 0 3332
5.9381 6.7854 0.84123 1 82
5.9681 -0.51899 1.1287 0 6641
5.9757 1.8956 0.29236 0 3833
5.9762 5.2576 1.1187 0 1014
5.985 -1.0144 0.85313 0 6893
5.9964 2.8499 0.6194 1 2871
6.0011 3.336 0 0 2415
6.015 3.3191 0 0 2438
6.0439 3.5672 0.16294 0 2233
6.052 -1.6704 0.88236 0 7093
6.0768 2.0841 0.75126 0 3671
6.1502 -4.1812 1.0452 0 8336
6.1506 2.8134 -0.47295 2 2961
6.2253 3.3646 0.33 0 2502
6.2269 -7.0333 1.3202 0 9259
6.2339 4.262 0.52806 0 1782
6.2366 5.7469 1.1919 0 860
6.2433 -3.9088 0.68721 0 8148
6.2593 7.3964 0.22496 0 24185
6.2604 1.2316 0.44616 0 4709
6.2682 5.4527 0 0 1043
6.2724 3.6053 1.3631 1 2318
6.2849 3.3277 0.83164 0 2569
6.2939 2.1377 1.2524 0 3697
6.3112 -1.664 0.30438 0 7069
6.3133 -3.2502 1.1666 0 7750
6.3231 2.0875 0.31053 0 3753
6.3669 3.636 1.0304 0 2339
6.3983 -0.2212 1.0518 1 6416
6.4168 1.9141 0.15547 0 3959
6.4184 5.049 1.5386 0 1351
6.4997 4.5562 0.74053 0 1705
6.5167 -3.0958 0.67309 0 7617
6.5351 3.6329 0.87438 0 2421
6.5419 2.1382 0.32096 0 3774
6.5599 0.020613 0.45872 0 6186
6.5676 6.454 0 0 631
6.6067 -0.2873 0.77333 0 6460
6.6261 0.09715 0.30903 0 6123
6.6526 -2.8582 0.67551 0 7453
6.6773 -3.5864 1.0652 0 7822
6.6784 -3.7861 1.4464 1 7926
6.6914 0.36942 0.46862 0 5857
6.7072 3.5994 0.17673 0 2524
6.711 2.0211 1.3205 1 3948
6.7128 0.021093 0.62628 0 6188
6.7348 -2.009 0.82188 0 7125
6.736 -3.5665 0.17696 0 7796
6.7398 1.5696 0.16067 0 4435
6.7531 -1.3078 0.32077 1 6939
6.7734 0.021283 0.95194 0 6191
6.7919 4.9419 0.78364 0 1593
6.7966 3.7241 0 1 2458
6.8084 2.8104 1.0352 0 3233
6.8531 6.5444 0 0 733
6.8654 0.16059 0.4802 0 6073
6.887 0.2393 0.48188 0 5998
6.8897 -0.52046 1.1352 1 6598
6.9659 0.99637 -0.98896 0 5145
6.9871 0.52659 -0.48997 0 5689
7.0085 7.0061 -0.69296 0 564
7.0087 2.8445 0.17561 0 3269
7.1804 2.9405 0.90737 0 3252
7.2215 -2.3603 0.53127 0 7178
7.2304 3.5641 -0.94268 0 2758
7.2495 -0.21009 0.67662 0 6380
7.3437 4.0824 1.5831 0 2425
7.3439 -5.6067 0.64608 0 8650
7.421 -2.4485 1.4723 1 7186
7.4486 -3.0473 0.18685 0 7379
7.4675 -1.1574 1.2415 0 6857
7.4698 -3.872 0.19534 0 7759
7.4925 1.5407 0.53489 0 4643
7.5048 2.9956 1.1357 0 3317
7.5197 -2.0304 -0.54466 0 7078
7.5307 2.0094 0.72716 0 4190
7.5563 4.3153 0.20203 0 2332
7.5609 3.8924 1.3972 1 2650
7.5662 3.2257 1.156 0 3151
7.581 6.5184 1.8837 0 1084
7.5964 4.6642 0 0 2113
7.5976 2.8542 0 0 3457
7.5997 -3.1619 1.5508 0 7407
7.6023 3.5855 1.1813 0 2893
7.6091 3.244 0.57842 0 3147
7.6243 1.9179 0.73347 0 4301
7.6312 -5.0261 0.63897 0 8262
7.6323 5.092 1.5074 1 1871
7.6641 2.8047 0.38059 0 3521
7.6683 -3.2946 1.3712 0 7455
7.6691 -2.8796 1.5434 0 7285
7.717 -5.276 -1.3138 0 8341
7.7701 -3.0497 1.5727 0 7331
7.8003 3.3771 0 0 3102
7.8285 3.0459 1.5827 0 3381
7.8345 4.9662 0.43257 0 2022
7.8372 -2.6894 0.5794 0 7209
7.8377 5.4941 0.44636 0 1702
7.8436 -4.9432 0.64832 0 8161
7.9352 3.2205 1.2036 0 3275
7.9389 1.513 0.18764 0 4759
7.9559 1.3028 -0.18717 0 4982
8.0212 -2.4922 0.58735 0 7149
8.0361 -1.2455 1.1429 0 6856
8.0628 -2.5329 1.5923 0 7157
8.0879 2.7471 -0.19831 0 3686
8.1037 1.3038 0.57396 0 5013
8.2185 -5.0107 0.44888 0 8086
8.2203 -3.3362 0.82767 0 7371
8.2235 5.2491 0 0 1998
8.2262 2.0175 0 0 4342
8.2977 -0.4581 1.1679 0 6514
8.3276 -4.7866 1.5781 0 7958
8.4127 0.34377 -0.19548 2 5955
8.4158 -2.2723 1.4322 0 7082
8.4276 -1.1305 0.7933 0 6794
8.4959 -0.39471 -0.79348 1 6467
8.5051 1.265 0.40099 0 5107
8.5066 -5.1579 1.1634 0 8077
8.5351 0.84439 0.80017 0 5510
8.5614 -0.49515 0.1991 1 6522
8.5616 -0.54615 -0.59991 1 6548
8.5803 3.9865 1.5544 0 2934
8.5996 4.0247 0.88582 0 2911
8.6154 -3.73 1.5424 0 7469
8.6277 -0.85203 -0.20128 1 6680
8.6284 -0.8521 -0.8089 2 6677
8.6759 0.20294 -0.80965 1 6063
8.6788 -0.17573 0.40481 0 6327
8.7024 0.051641 -0.40583 1 6167
8.7271 -0.63322 -0.81633 2 6582
8.728 0.86348 -0.6133 1 5498
8.7502 0.53519 -0.61302 1 5804
8.7519 0.5077 -0.61302 2 5827
8.7625 0.40863 0 2 5917
8.7847 0.17788 -0.61442 1 6083
8.8017 -4.3711 0.91684 0 7693
8.8074 0.103 0 2 6136
8.8238 3.1698 -1.3177 2 3550
8.833 2.6064 -1.2943 2 3969
8.8349 0.74655 -0.41347 0 5621
8.8703 3.0128 -1.3166 0 3677
8.8787 -0.36126 0 0 6442
8.8813 -3.5721 -1.1195 2 7355
8.8969 3.0513 -1.3219 2 3655
8.8988 0.69879 -0.62418 1 5667
8.9002 -0.67234 0.20723 2 6595
8.9213 -0.33648 0.20727 2 6428
8.9257 0.38815 -0.62474 2 5932
8.9271 3.5941 -0.22343 0 3289
8.9884 -0.679 0 2 6594
8.9985 0.36771 -0.62976 1 5952
9.0179 1.0785 0.42354 0 5343
9.0204 1.0262 -0.84699 2 5383
9.0859 0.63376 0 2 5741
9.0886 0.55588 0.2114 2 5810
9.1154 0.74302 -0.63953 2 5643
9.1306 1.5247 1.301 2 4969
9.1389 0.2904 0.21229 2 6015
9.1458 -0.26505 -0.63981 1 6373
9.1552 1.1744 1.5165 2 5281
9.1581 3.2611 -0.2257 0 3579
9.1623 1.0682 1.5155 1 5376
9.1689 -0.39872 -0.21308 1 6456
9.1731 1.0435 1.5168 1 5403
9.1751 1.2047 0.86334 0 5251
9.1926 1.9758 1.7715 0 4583
9.1975 0.24085 1.5116 1 6058
9.2 -1.3979 -0.86817 1 6842
9.2128 -0.4538 -0.43015 2 6480
9.2316 -3.4387 -0.91907 0 7270
9.251 1.0246 -0.86835 2 5408
9.2767 -0.56576 0.43341 2 6537
9.2966 2.0525 1.338 1 4532
9.311 2.2268 0.44646 0 4390
9.3314 1.3879 1.7775 0 5118
9.3361 1.8944 1.7949 1 4672
9.3363 -1.0027 1.0981 0 6706
9.34 1.6402 1.558 2 4898
9.3453 -0.2186 0.43593 1 6345
9.3541 -1.2814 -0.2192 2 6802
9.3592 -1.3353 0 2 6818
9.3608 -0.97891 -1.1006 2 6693
9.3786 -0.87168 -0.65864 2 6655
9.3814 1.4255 1.7878 0 5095
9.3832 0.10973 0.4376 2 6138
9.3878 0.81803 1.3244 2 5610
9.3904 1.8185 1.1185 2 4739
9.3946 1.4846 1.1123 2 5041
9.3947 -2.593 0 0 7092
9.3964 1.2054 -1.1078 1 5262
9.4083 1.851 1.1213 0 4712
9.4152 -1.7076 -1.119 2 6913
9.4179 1.6539 1.3439 2 4896
9.4247 0.13818 -0.43956 2 6118
9.4316 1.128 -0.66422 1 5335
9.4494 1.0466 1.1118 2 5421
9.4559 0.13864 -0.88229 2 6114
9.4671 -1.0452 -0.8886 2 6712
9.4759 -1.7511 -1.1269 0 6917
9.4786 1.6918 1.126 2 4872
9.4803 1.356 1.1199 0 5163
9.4929 -0.35804 0.44301 1 6429
9.4951 -0.57908 0.6652 2 6538
9.5002 1.3893 1.5774 2 5141
9.5006 1.641 1.355 0 4920
9.512 -1.1359 0.44674 1 6745
9.5188 0.82944 1.1174 0 5609
9.527 -0.32936 0.66659 1 6411
9.5361 0.85946 1.1197 1 5583
9.5471 -1.1114 0.44823 0 6735
9.5502 1.2539 -0.89864 2 5237
9.5519 -0.33022 0.44571 0 6410
9.5538 -0.30525 0.66841 0 6394
9.5622 1.1436 1.1262 0 5348
9.5623 0.99998 1.1243 0 5466
9.5626 1.5659 -0.90402 1 4976
9.5636 1.115 1.126 0 5372
9.5644 1.3987 1.1304 1 5137
9.5807 1.5414 1.5943 2 5021
9.5942 -0.44574 0.67162 0 6471
9.6145 -0.92069 1.5868 0 6671
9.6258 1.4626 1.3684 2 5091
9.6352 -0.055496 -0.22371 2 6241
9.6381 1.3786 -0.68082 2 5150
9.6451 1.8678 1.6141 1 4742
9.6513 -0.4197 0.67552 0 6458
9.653 -1.6639 -0.22742 2 6899
9.6593 1.6407 1.846 1 4950
9.6621 0.36442 1.3589 0 5982
9.6661 -0.16535 0.45083 1 6309
9.6902 -0.42139 0.22519 2 6457
9.6972 1.3577 1.3761 2 5185
9.7089 -1.3576 -0.45717 1 6810
9.7264 0.76378 1.8382 0 5684
9.7271 -0.084887 0.45363 2 6260
9.7294 -0.39587 0.4541 0 6443
9.7434 0.67962 1.6047 1 5752
9.7728 0.65425 1.6092 2 5773
9.7896 0.68284 1.8489 2 5754
9.8067 0.56889 1.8508 0 5842
9.8349 -0.027464 1.853 0 6232
9.955 -0.8097 1.4037 0 6620
-13.386 4.7165 1.9946 0 14931
-13.027 0.63027 1.8329 0 14116
-13.016 3.2261 1.8847 0 14574
-12.814 0.10064 0.29752 1 14042
-12.465 2.2968 2.3881 0 14396
-12.343 1.7919 0.58164 1 14303
-12.178 5.8635 2.5466 0 15383
-12.157 0.58817 -0.56757 0 14115
-12.144 3.0459 0.58388 1 14582
-12.046 2.2892 2.0145 0 14411
-12.01 1.3556 1.9857 0 14239
-11.845 4.0556 0.58388 1 14890
-11.743 5.6163 2.4525 0 15369
-11.624 -0.14609 0.54214 1 14002
-11.531 -1.7624 0.27082 0 13813
-11.492 -1.2159 1.0781 0 13865
-11.452 2.3153 1.09 0 14443
-11.239 -2.1908 2.1574 0 13794
-11.102 0.6032 1.3002 0 14128
-11.09 9.3684 2.0403 0 16874
-11.006 0.85459 -0.25629 0 14171
-10.774 1.6294 2.053 0 14317
-10.734 -0.47616 0.50105 1 13952
-10.721 -2.0218 1.7924 0 13796
-10.682 -0.69074 -0.74849 0 13920
-10.476 -7.8797 -0.30434 0 13629
-10.379 -0.55118 -0.2413 0 13936
-10.351 -0.1897 1.4549 0 13991
-10.306 6.3679 1.7026 0 15923
-10.217 0.37641 1.4368 0 14094
-10.199 1.6008 0 0 14330
-10.161 4.8926 0 0 15376
-10.146 2.9555 0 0 14712
-10.125 4.3774 -0.25611 0 15212
-10.122 2.0134 1.4505 0 14435
-10.084 4.5381 1.8167 0 15276
-10.014 -0.85498 0.93765 0 13895
-9.807 4.9003 2.0656 0 15443
-9.5923 6.4361 -0.53869 0 16150
-9.4497 5.1757 0.50245 1 15625
-9.4137 -7.5203 0.27974 1 13558
-9.4103 3.5315 0.46872 1 15012
-9.2818 6.5089 -1.5933 0 16269
-9.0024 -5.9518 1.5167 0 13757
-8.9946 7.5073 2.2074 0 16833
-8.9219 9.7912 0.30754 1 17778
-8.8502 -6.3011 -0.50664 0 13685
-8.5653 -5.6972 1.9382 0 13752
-8.5311 5.6188 -0.23717 0 16096
-8.5252 6.7449 2.0482 0 16657
-8.4724 8.9781 2.0281 0 17658
-8.3321 -8.8604 0.28238 1 13156
-8.1977 10.742 0.31372 1 18332
-7.9765 7.9793 0.78895 0 17442
-7.7579 8.0363 1.3062 0 17571
-7.7565 7.4097 1.2544 0 17280
-7.6593 -10.194 0.29603 1 12810
-7.6171 -7.2132 0.97871 2 13326
-7.5597 6.7284 1.6627 0 17050
-7.5504 9.2676 0 0 18140
-7.4622 -12.454 0.67704 1 12522
-7.2632 9.5171 1.1169 0 18335
-7.1515 -8.4001 -0.51447 0 12979
-7.1122 7.1946 -1.4218 0 17473
-6.6577 8.1225 0.7344 0 18126
-6.6325 -10.174 1.4203 2 12638
-6.614 -9.9549 1.9636 1 12663
-6.4557 -11.132 0.89986 1 12479
-6.3151 -11.108 2.4073 0 12458
-6.2912 -10.779 0.28976 2 12486
-6.1209 8.4154 0 0 18469
-5.9258 8.5071 1.9534 0 18585
-5.7556 -8.2935 0.47077 1 12709
-5.7329 9.1603 -1.2637 0 18849
-5.576 10.693 1.1251 0 19215
-5.4771 11.629 1.1992 0 19376
-4.8901 -10.511 1.9046 2 12200
-4.8538 8.862 1.9037 0 19129
-4.6559 9.6656 1.5078 0 19342
-4.4855 -9.0161 0.93951 2 12273
-4.3043 10.894 -1.0928 0 19583
