VERSION .7
FIELDS x y z intensity index
SIZE 8 8 8 8 8
TYPE F F F F F
COUNT 1 1 1 1 1
WIDTH 1536
HEIGHT 1
VIEWPOINT 0 0 0 1 0 0 0
POINTS 1536
DATA ascii
-6.4299 -4.8383 1.1309 2 13769
-6.4097 -4.0803 0.88855 2 13893
-6.4033 -4.2899 0.90133 2 13853
-6.3834 -5.7356 -0.19924 0 13622
-6.3737 -6.4701 1.7112 2 13543
-6.344 2.8113 1.14 0 15318
-6.3411 0.018814 -0.29571 0 14168
-6.3369 6.9471 0.87727 0 17905
-6.3342 5.3756 1.5653 1 17013
-6.3329 -0.41952 0.7422 0 14038
-6.3312 -7.607 0.92335 1 13252
-6.2939 4.5493 0.1803 0 16474
-6.2841 -6.0178 0.60842 0 13588
-6.2774 -7.4099 0.45288 0 13279
-6.2747 -7.3624 0.45111 2 13290
-6.2746 -4.0982 1.0533 1 13875
-6.2689 5.1055 0.94547 0 16867
-6.2653 -0.94754 0.44309 0 13934
-6.2597 4.0682 -0.6965 0 16155
-6.2544 -5.3645 0.57619 0 13651
-6.2371 4.1864 0.35031 0 16251
-6.1974 4.5875 0.71936 1 16545
-6.1973 4.9313 -0.18388 0 16782
-6.1814 -0.28286 0.72362 0 14071
-6.1731 -5.5778 -0.19316 0 13620
-6.1701 6.7642 -0.21256 0 17898
-6.1684 5.986 1.0052 0 17475
-6.1636 4.819 0.18165 0 16721
-6.1593 -4.8905 1.1053 1 13720
-6.1566 1.606 0.74406 1 14690
-6.132 -4.4209 0.52861 2 13796
-6.1265 4.9329 1.482 2 16832
-6.1091 0.78476 -0.28723 0 14395
-6.1065 -5.0248 0.92479 0 13689
-6.106 -4.1123 1.0346 2 13848
-6.0932 -4.1815 0.51676 1 13829
-6.0641 -4.7874 1.4557 1 13728
-6.0608 -7.6798 1.1441 0 13165
-6.0526 -4.0274 1.3698 2 13861
-6.0453 -5.9594 0.39587 0 13567
-6.0289 -6.8698 1.2846 2 13347
-6.0188 -7.3614 0.88712 0 13223
-6.0096 -4.3598 1.2198 2 13794
-6.0021 -5.1154 1.2957 2 13655
-5.9975 -7.9735 -0.23164 0 13076
-5.9809 -8.0007 0.46583 2 13065
-5.9618 -0.79759 0.84534 0 13951
-5.9547 -7.5889 1.1281 0 13155
-5.9542 -7.6347 1.1322 1 13145
-5.9336 -7.1293 -0.21535 0 13248
-5.9227 -7.4592 0.8886 2 13175
-5.9194 -7.8696 0.45922 0 13078
-5.9016 7.7638 1.3706 0 18540
-5.8899 -4.1981 1.0165 1 13807
-5.8815 1.0699 0.55772 1 14497
-5.8776 6.7495 0 0 18058
-5.8419 3.1996 1.0943 2 15727
-5.833 -6.6069 1.2386 0 13362
-5.805 2.8401 0.90824 0 15480
-5.7993 3.9382 0.16275 0 16290
-5.7938 -7.7026 1.816 2 13085
-5.7928 -5.0855 1.4523 1 13634
-5.769 4.6152 0.34453 0 16806
-5.767 4.5889 0.34369 2 16786
-5.7668 -3.9368 0.32562 1 13833
-5.7578 -0.33199 0.81054 0 14050
-5.7476 6.3766 0.40034 0 17943
-5.7473 -3.9441 0.32506 0 13828
-5.7391 -6.5395 1.0175 0 13346
-5.7252 0.61791 -0.13369 0 14357
-5.7221 -6.6385 1.0249 2 13313
-5.7181 1.0557 0.54249 0 14502
-5.7167 5.0863 0.89483 0 17168
-5.7139 -1.0528 0.95457 0 13921
-5.7059 -7.7223 1.3494 2 13048
-5.7048 0.88417 0.53859 0 14441
-5.6995 -7.9493 0.22709 1 12993
-5.6928 -7.8011 0.22422 1 13022
-5.6881 -3.8831 0.4816 0 13834
-5.6864 -3.8819 0.80516 1 13836
-5.6839 -4.0006 0.81282 2 13815
-5.6836 5.0002 0.17575 0 17124
-5.6786 7.1697 1.2854 1 18389
-5.678 5.6091 -0.74462 1 17527
-5.6639 -0.50648 0.13202 0 14001
-5.6611 -6.5677 1.2186 0 13314
-5.6518 0.067079 0.39524 0 14183
-5.6474 4.5471 0.67644 0 16827
-5.6245 4.6662 -0.51104 1 16919
-5.6092 -0.80031 0 0 13939
-5.5947 0.81817 0.39538 0 14423
-5.5715 -7.7707 0.4459 0 12994
-5.4922 2.8445 1.0162 0 15599
-5.4656 -6.2653 1.1685 2 13334
-5.4625 -3.7025 0.77171 2 13842
-5.4341 -0.63066 0.12701 0 13971
-5.4251 -6.5555 0.59502 1 13240
-5.415 -6.4305 0.9831 1 13270
-5.4129 -3.4684 0.90351 1 13889
-5.4112 -6.4648 0.98589 2 13260
-5.4076 -6.0907 1.3381 2 13378
-5.4048 4.7784 -0.33643 0 17141
-5.3815 -5.305 1.2415 0 13570
-5.3747 6.3533 -0.19321 0 18157
-5.3675 -3.894 0.61866 2 13792
-5.3546 0.65556 0.50329 0 14382
-5.351 3.6338 -0.4523 0 16283
-5.32 -3.583 1.0538 1 13849
-5.3007 -4.4921 -0.16132 0 13658
-5.2886 5.2244 -0.1726 0 17532
-5.2852 -6.3502 0.57772 0 13251
-5.2832 0.94394 0.37529 0 14488
-5.2829 -3.6936 0.75382 2 13820
-5.2692 -4.0842 1.2561 1 13745
-5.2626 1.3072 -0.1259 0 14656
-5.2533 1.0031 0.24941 0 14515
-5.2524 -4.0962 1.255 0 13740
-5.2491 -3.5352 0.44254 2 13846
-5.2471 6.096 0.37509 0 18099
-5.247 -6.1218 1.1331 2 13304
-5.2466 -6.3805 1.5564 2 13234
-5.2409 0.09331 0.9876 0 14195
-5.2402 -3.5519 0.44267 0 13840
-5.2352 3.2119 0 0 16003
-5.2345 -6.4387 0.77416 2 13212
-5.2328 -5.7933 1.4708 2 13414
-5.2314 -5.7573 1.4657 2 13425
-5.2269 -3.478 0.88236 0 13860
-5.2143 3.7455 0.59897 0 16456
-5.2069 -3.4437 0.87735 1 13865
-5.2026 0.28814 0.12097 1 14259
-5.1906 0.19668 -0.24223 1 14229
-5.187 -4.1185 0.61792 1 13718
-5.1837 -6.0822 1.1231 2 13293
-5.1825 4.0026 0.15203 0 16680
-5.1763 -4.1352 0.6181 0 13713
-5.1751 -6.5575 0.58414 1 13163
-5.1727 -3.7761 0.74894 2 13788
-5.1564 5.0937 0.16828 0 17535
-5.1494 0.0017966 0.36008 0 14161
-5.1484 -6.2212 0.37658 1 13239
-5.1376 6.0048 0.55261 0 18120
-5.1316 0.52487 -0.24056 0 14342
-5.1311 4.0829 -0.76683 0 16775
-5.1271 -3.5847 1.1787 2 13822
-5.1195 -3.4065 0.5737 2 13858
-5.1146 -3.5759 0.87707 0 13821
-5.1142 -3.5996 1.1783 2 13817
-5.1097 2.0738 -0.12803 0 15179
-5.0864 3.4984 -0.28789 1 16325
-5.0766 -5.8194 0.72047 2 13333
-5.064 -4.2658 0.61773 1 13664
-5.0619 0.63498 0.83816 0 14390
-5.0609 5.8445 -0.54061 2 18075
-5.056 0.619 0.83687 0 14383
-5.0362 -4.2184 0.6129 0 13669
-5.0193 3.4742 0.71386 0 16352
-5.0121 -3.2326 0.55642 1 13882
-4.9982 -6.0054 1.0981 2 13254
-4.9834 -5.7815 0.71211 2 13312
-4.9826 0.0017384 0.23236 0 14160
-4.9826 3.8956 1.1916 0 16730
-4.9747 4.1008 -0.30065 0 16899
-4.9722 2.8754 0.26785 0 15855
-4.9685 -4.0407 0.59748 1 13697
-4.9516 8.1568 1.5677 1 19307
-4.9504 -5.7758 0.70969 2 13303
-4.9504 -4.0736 0.90101 2 13690
-4.9424 -3.7856 0.72803 0 13754
-4.9399 -8.4469 0.22719 1 12739
-4.9397 4.395 -0.46235 0 17159
-4.925 -7.5463 1.4805 2 12880
-4.9179 5.6137 0.87276 0 18043
-4.9127 5.7419 1.2415 0 18125
-4.9054 0.058221 0.68946 1 14184
-4.9045 0.35672 0.9265 0 14288
-4.9043 -5.8241 1.2509 1 13272
-4.8986 -5.7824 1.2451 0 13284
-4.8942 -5.9859 1.0867 1 13225
-4.8731 -0.48039 0.45684 0 13989
-4.8709 -6.6358 1.3524 0 13037
-4.8666 4.2814 -0.60473 0 17118
-4.861 2.2061 0.24894 0 15352
-4.8567 -6.734 1.3641 0 13009
-4.8412 -3.708 0.85703 0 13755
-4.8407 0.36737 0.91465 0 14294
-4.837 1.1872 -0.23226 0 14645
-4.8355 5.7852 -0.17506 1 18194
-4.8351 2.4001 0 1 15507
-4.8333 2.16 0 0 15326
-4.8319 -4.7086 0.62944 0 13578
-4.8208 2.4109 0 0 15524
-4.819 2.0694 0.12176 0 15263
-4.8181 2.1351 0 0 15312
-4.8153 1.4054 0.46799 0 14776
-4.7991 4.0269 -0.58448 0 16958
-4.7988 -5.7332 1.4086 0 13263
-4.7837 -3.708 0.85063 0 13743
-4.7801 -8.3363 1.3505 0 12716
-4.7797 -3.9781 1.1716 0 13680
-4.7753 -5.6708 1.3968 0 13274
-4.7742 -6.3864 1.1206 0 13069
-4.7711 -4.3612 0.75591 1 13613
-4.771 6.2765 0 0 18532
-4.7679 5.9491 -0.17701 1 18341
-4.7654 -3.0912 0.7983 0 13879
-4.7587 0.27688 0.11067 0 14264
-4.751 -8.571 1.3773 2 12669
-4.7463 -7.5022 1.0382 0 12839
-4.7423 -3.947 0.72153 2 13678
-4.7296 -7.3812 -0.40882 0 12851
-4.729 -6.326 0.92363 0 13068
-4.7244 -6.9257 1.1782 0 12928
-4.7232 3.9408 0.57389 0 16947
-4.7196 -7.512 1.0375 2 12831
-4.7179 0.28856 0.10974 0 14269
-4.7123 -3.8776 1.1498 2 13691
-4.7093 -6.1086 -0.53936 0 13120
-4.7083 1.5992 0.93687 0 14943
-4.695 -7.1015 -0.5953 0 12890
-4.664 -8.3043 1.3386 1 12689
-4.663 -8.3571 1.345 0 12678
-4.6593 1.5825 0.11424 0 14936
-4.6517 -0.67696 -0.10914 0 13935
-4.6511 3.9028 0.56646 0 16969
-4.6308 -3.8323 0.84478 2 13684
-4.6306 0.18922 0.87318 0 14237
-4.6203 -2.9605 1.0339 1 13892
-4.6122 -3.3045 -0.26459 0 13801
-4.6083 -7.9275 0.6412 0 12732
-4.604 -0.15756 0.64743 0 14093
-4.6 -2.9668 1.0313 2 13887
-4.5948 -3.8939 0.84645 2 13660
-4.5946 5.466 -0.49932 0 18173
-4.5911 5.4929 -0.66789 0 18190
-4.5792 -3.6359 1.1017 2 13721
-4.5777 -8.4911 0.67455 0 12631
-4.5684 -3.6495 1.1017 0 13715
-4.5679 -7.3187 1.0089 1 12822
-4.5567 -7.5389 1.6597 0 12783
-4.5533 3.0921 0 0 16288
-4.5334 -0.71234 -0.214 0 13931
-4.5268 -6.847 0.95987 1 12893
-4.5236 -0.69706 -0.21345 0 13933
-4.52 1.012 0.76099 0 14589
-4.5088 -6.1786 1.075 0 13026
-4.5013 -0.48264 -0.21112 0 13981
-4.4962 -7.392 1.4215 1 12790
-4.4888 -3.1782 0.25649 0 13811
-4.4842 -3.4148 0.92603 1 13761
-4.4828 6.2293 -1.0786 1 18720
-4.4811 -6.1767 1.0725 0 13017
-4.4782 -4.2377 0.86649 2 13596
-4.4776 0.48326 0.73992 2 14359
-4.4693 -3.0511 0.88907 2 13837
-4.4557 -3.4749 0.79412 1 13738
-4.4448 -3.1845 1.0302 1 13804
-4.4431 -8.47 0.66883 0 12592
-4.4363 -4.3489 0.14423 0 13573
-4.4336 -7.1036 0.78122 1 12821
-4.4303 -5.5458 0.1648 1 13183
-4.4286 -4.241 0.86176 1 13589
-4.4271 -3.5366 0.79635 2 13714
-4.4266 -3.3905 1.0506 0 13757
-4.4207 5.9611 0.86788 0 18628
-4.416 -4.1309 0.99347 1 13601
-4.405 -0.77117 0 0 13922
-4.4031 -3.6439 0.939 2 13685
-4.4017 -3.352 1.0424 2 13762
-4.3856 -4.0796 0.98407 1 13606
-4.3835 2.176 0.92206 0 15515
-4.3773 -8.7146 0.68194 1 12535
-4.3587 1.1232 0.2099 0 14681
-4.3558 0.77824 0.41281 0 14489
-4.3533 -0.2251 0.40668 0 14060
-4.3443 8.4822 0 0 19816
-4.3288 5.2438 0.79517 0 18242
-4.3287 5.7319 0.67012 0 18560
-4.3269 5.8347 -0.16865 0 18621
-4.3224 -0.061866 0.10036 0 14133
-4.3111 0.038374 -0.20105 0 14177
-4.2993 -0.18621 0.40148 0 14076
-4.2801 8.1317 -1.0746 0 19731
-4.2799 -0.59693 -0.20152 0 13943
-4.2779 2.7274 0.5933 0 16110
-4.254 -7.1333 0.97125 1 12768
-4.2535 -3.8881 0.94678 0 13614
-4.2396 -3.8093 0.93641 0 13623
-4.2361 -5.1187 -0.15426 0 13237
-4.2249 -6.7691 -0.37211 0 12817
-4.2202 -4.3307 0.99347 1 13525
-4.2097 -3.0732 0.85632 0 13790
-4.201 -3.1052 0.98427 2 13782
-4.1944 -0.57307 -0.19742 1 13947
-4.177 -6.6022 1.472 0 12843
-4.1647 -5.6737 1.3261 0 13039
-4.1643 9.0829 1.6416 0 20076
-4.1579 -3.8234 1.0643 1 13610
-4.1456 6.0184 -1.2007 0 18864
-4.1443 4.4629 1.0006 0 17847
-4.1297 5.7386 0.16415 0 18730
-4.1238 6.0978 -1.2094 0 18929
-4.1218 5.4579 -0.79981 0 18547
-4.1198 0.52922 0.48574 0 14396
-4.1079 2.914 0.70783 2 16424
-4.0982 -6.4403 1.4383 0 12850
-4.0874 -8.3177 0.86464 2 12507
-4.0831 0.84112 -0.096789 0 14550
-4.0805 -8.3588 0.8678 2 12498
-4.0762 -5.5167 -0.47965 0 13042
-4.0613 5.5735 -0.9692 0 18679
-4.0507 -5.9382 -0.33521 0 12923
-4.0456 4.7285 0.58057 2 18122
-4.0445 4.4871 -0.70643 1 17934
-4.031 6.1859 -1.0377 0 19059
-4.0112 8.9546 0 0 20117
-4.0016 5.0815 0.60343 0 18410
-3.9842 1.1756 0 1 14786
-3.9802 3.1119 0.83006 0 16728
-3.9789 5.9168 0.33251 0 18965
-3.9746 2.7174 -0.11178 2 16307
-3.9589 6.9717 0.93757 0 19516
-3.951 6.5523 0.53503 0 19325
-3.9466 3.1035 0.82487 0 16749
-3.9014 7.3591 -0.97404 0 19711
-3.8985 5.1009 0.59897 0 18514
-3.8514 8.1513 -1.267 0 19990
-3.8234 5.1859 0.30046 0 18648
-3.8231 5.5501 1.2698 0 18884
-3.8089 8.8484 -0.22366 0 20184
-3.8063 6.7467 0.7227 0 19538
-3.7991 -2.4643 0.85318 1 13881
-3.7871 -0.27346 -0.088155 1 14030
-3.7835 7.2866 0.76599 0 19783
-3.7762 3.9049 0.25332 0 17696
-3.7669 8.6799 0 0 20172
-3.7584 3.2282 -0.46223 0 17040
-3.7464 1.3577 0.466 2 15026
-3.7361 6.116 0.66864 0 19281
-3.7359 0.0013034 0.61379 0 14163
-3.7231 0.7778 0.35485 0 14557
-3.722 3.9635 0.89328 0 17805
-3.7015 6.0975 0.66548 0 19303
-3.6842 6.9995 -0.18364 0 19738
-3.68 0.77952 0.35095 2 14564
-3.6681 1.2695 0.45392 0 14962
-3.6641 1.281 0.45392 0 14973
-3.6609 0.30999 -0.17133 0 14313
-3.6495 3.0808 0.78466 0 16990
-3.6439 -6.2684 0.8479 0 12734
-3.616 4.5918 -0.54528 0 18398
-3.6058 0.94058 0.7021 0 14693
-3.5759 2.8968 0.42935 0 16846
-3.5685 0.3122 -0.16705 0 14318
-3.5443 4.6932 0.96624 0 18564
-3.5431 6.4078 0.51201 0 19602
-3.5282 2.8734 0.42452 1 16865
-3.514 2.477 0.40111 0 16404
-3.5121 4.2019 -1.2976 0 18201
-3.5014 9.2174 0 0 20379
-3.4959 5.7227 0 0 19276
-3.4938 2.3451 -1.313 0 16252
-3.4924 1.2773 0.43487 2 15039
-3.4904 2.2116 -0.3855 0 16084
-3.4659 4.0266 0.87286 0 18104
-3.4603 4.1665 -1.2833 1 18221
-3.4541 5.0731 0.28621 0 18921
-3.4539 5.2321 0.73314 2 19034
-3.4486 2.6634 -0.3047 0 16673
-3.4398 3.4772 -1.2804 2 17620
-3.4025 5.3595 1.1961 0 19159
-3.3966 -0.32406 0 0 13992
-3.3964 3.2959 0.10988 0 17471
-3.3909 3.3102 0.11002 0 17492
-3.3679 7.9497 0.20045 0 20211
-3.3591 -2.8954 -0.10296 0 13646
-3.3526 -2.8755 -0.10255 0 13649
-3.3486 3.9583 -0.60631 1 18151
-3.3444 6.9771 0.90481 0 19970
-3.3404 3.2609 0.65606 0 17497
-3.3155 -2.465 0.58063 2 13777
-3.2871 -0.19875 0.076456 1 14045
-3.2822 0.50869 0.38841 0 14442
-3.2633 2.3588 -0.47087 0 16465
-3.2622 2.3433 -0.46971 0 16446
-3.2542 -5.2424 0.14326 0 12810
-3.2487 7.7967 0.98775 0 20244
-3.2376 -2.6171 0.58508 0 13704
-3.2363 5.8965 0.15616 0 19621
-3.2286 0.49116 0.3819 0 14434
-3.2237 -2.5901 0.58119 2 13709
-3.1914 2.4058 -0.37287 2 16590
-3.1805 -2.422 -0.18643 0 13759
-3.1703 -7.0609 1.0878 1 12409
-3.1693 2.0472 -0.087598 2 16141
-3.168 6.8093 -1.0555 0 20024
-3.1615 4.0147 -0.96279 0 18414
-3.1518 1.9725 -1.0662 1 16057
-3.149 -0.0082449 0.44257 0 14155
-3.146 3.4671 0.43678 0 17925
-3.1357 -6.8744 -0.35236 0 12419
-3.1321 4.9335 0.40863 0 19152
-3.1317 -6.0159 0.15746 0 12582
-3.1252 5.6519 -1.2168 1 19606
-3.118 3.5193 -0.66079 0 17987
-3.0932 5.4829 1.1861 0 19543
-3.0895 5.4407 0.43751 0 19513
-3.0867 1.4112 0 1 15365
-3.0737 1.4157 0 1 15381
-3.0669 4.6778 1.0539 0 19056
-3.0651 4.7652 -0.26422 2 19103
-3.0622 -5.3082 1.1546 0 12726
-3.0562 6.3276 -1.4936 0 19953
-3.0395 1.8415 0.41559 0 15972
-3.0206 5.6193 1.202 0 19689
-3.0024 2.7483 -0.47599 0 17261
-2.9691 6.2389 -1.1352 0 19973
-2.9624 4.2719 0.1207 0 18855
-2.9538 5.2017 -0.98277 1 19495
-2.9524 4.2305 0.60329 0 18838
-2.9471 -6.4134 -0.16387 0 12427
-2.9292 5.224 -0.70039 0 19546
-2.9282 -2.3814 0.44137 0 13698
-2.9268 -2.3106 0.26075 0 13724
-2.9265 7.3167 -0.92154 0 20303
-2.9241 3.2612 -0.93103 1 17964
-2.9163 5.3488 -0.85619 0 19629
-2.8768 -6.5071 1.1689 0 12393
-2.8642 4.1042 -0.70338 0 18823
-2.8553 1.8684 0.56061 0 16185
-2.8318 8.9923 1.5489 0 20651
-2.8069 4.174 0 0 18962
-2.7969 -2.1423 0.081795 0 13753
-2.796 9.2435 -1.3572 0 20695
-2.785 4.8374 0.52075 0 19469
-2.7532 1.9057 0.15615 0 16347
-2.741 2.3262 0.083466 0 17005
-2.7358 1.8816 0.15484 0 16330
-2.7338 3.1393 0.7843 0 18067
-2.7237 -2.4046 0.42488 0 13630
-2.717 2.7142 0.72357 0 17583
-2.7156 2.4435 0.4272 0 17211
-2.7139 -2.3826 0.42232 0 13633
-2.7108 -6.75 1.3705 2 12277
-2.7063 2.3393 -0.25015 0 17060
-2.698 3.1157 0.77653 1 18087
-2.695 2.4394 0.25419 0 17229
-2.6863 3.0481 -0.094329 0 18014
-2.6761 2.3953 0.42 1 17189
-2.6709 -8.9824 1.7656 0 11951
-2.6677 5.4818 0.71293 0 19935
-2.6476 7.1536 1.4372 0 20413
-2.6401 -6.6342 -0.33298 0 12258
-2.6347 4.1229 -1.403 1 19132
-2.6284 3.1648 -0.4811 1 18208
-2.6257 5.6852 -0.14539 0 20049
-2.6175 2.6925 0.52774 1 17679
-2.6156 3.0766 0.28237 0 18140
-2.6085 -4.4873 0.85275 0 12736
-2.5963 4.2501 0.93835 0 19286
-2.5941 2.308 -0.16192 0 17161
-2.5795 3.5634 0.72273 0 18715
-2.5753 3.3696 -1.1103 0 18515
-2.5663 3.7257 0 0 18875
-2.5661 -4.824 -0.25481 0 12610
-2.5168 -6.9563 0.86509 0 12146
-2.5076 8.2123 0.40043 0 20689
-2.4476 6.1694 0.61922 0 20328
-2.4397 7.5221 0.1836 0 20600
-2.4303 9.0701 -1.0981 0 20878
-2.4302 -7.6797 0.7515 0 12020
-2.3981 3.1548 0.36971 0 18537
-2.3768 8.2945 1.4176 1 20795
-2.3763 -2.0614 0.51684 1 13643
-2.3762 -6.6328 1.1575 0 12138
-2.3664 2.5943 0.24554 0 17903
-2.3632 3.1867 -1.238 1 18625
-2.3587 3.1621 0.09159 0 18602
-2.3412 2.4362 0.47486 0 17722
-2.3338 3.1083 0.090244 0 18579
-2.3122 -4.8805 -0.12538 0 12461
-2.3106 -5.7075 0.86538 0 12286
-2.3002 -9.5295 1.1464 0 11798
-2.296 3.4376 -0.48342 1 18977
-2.2769 9.3543 1.353 0 21007
-2.154 -2.399 0.22545 1 13397
-2.1437 -2.4002 0.22503 0 13386
-2.1362 -2.9793 -0.17096 0 12992
-2.1361 7.5288 0.73013 0 20807
-2.1211 -2.941 -0.1691 0 13002
-2.1183 3.4895 0.76912 0 19309
-2.093 3.9764 -1.0647 1 19747
-2.0594 4.5973 -1.0707 0 20123
-2.0457 -8.061 1.3664 0 11831
-1.9384 6.548 -0.95974 0 20731
-1.9362 4.0394 -0.52384 1 19956
-1.9247 6.9401 0.16721 0 20832
-1.9185 -8.7115 0.62376 0 11744
-1.9102 -8.6739 1.6734 1 11746
-1.9095 -2.5386 -0.14814 0 13075
-1.9003 -2.4954 -0.14627 0 13099
-1.8982 4.1404 0.10575 0 20071
-1.8757 -7.8675 0 0 11790
-1.8687 5.1849 -1.3059 0 20445
-1.8685 -8.3731 0.59991 0 11755
-1.8582 -9.7779 1.8752 0 11687
-1.8369 4.2327 0.75808 0 20178
-1.8209 6.0198 0.29329 0 20705
-1.8184 -5.1722 0.90074 0 12120
-1.8154 -9.4007 0.89325 0 11692
-1.8106 5.8023 -0.85424 0 20653
-1.81 -5.1918 0.90334 0 12111
-1.7511 4.2026 0.1057 2 20239
-1.7409 -8.1343 1.3667 0 11730
-1.7401 4.4244 -0.7811 0 20330
-1.7392 -5.9094 0.72037 0 11940
-1.7303 -2.9398 -0.31825 0 12747
-1.7091 -8.4532 1.6249 0 11709
-1.6779 -2.5709 0.57842 0 12881
-1.6726 -7.2972 1.0521 0 11772
-1.6651 5.1769 -0.2536 0 20614
-1.6643 2.6215 -0.072093 0 19146
-1.6621 9.7234 1.8586 0 21366
-1.6401 2.8883 0.5457 0 19519
-1.6388 6.116 -0.88987 0 20877
-1.6052 -6.1712 1.0476 0 11848
-1.596 6.0237 0.72873 0 20902
-1.5887 -6.1788 1.202 2 11837
-1.5701 -5.5118 0.53469 1 11915
-1.533 4.2934 0.749 0 20459
-1.5029 -9.0391 1.5055 0 11636
-1.5011 -6.5489 0.31332 0 11771
-1.4634 4.5497 -0.44588 0 20610
-1.4454 -9.7413 0 0 11596
-1.4252 4.5675 -0.11109 1 20658
-1.3936 6.1091 1.0295 0 21089
-1.3806 -4.958 -0.11949 0 11895
-1.3603 -7.158 0.33978 0 11684
-1.3295 -6.4884 1.0882 1 11715
-1.3148 -7.1359 -0.16846 0 11668
-1.3099 -7.1091 1.362 0 11672
-1.3033 5.4961 -0.13114 0 21033
-1.286 -6.7672 0.96809 0 11685
-1.2788 -7.1791 0.34006 0 11657
-1.2665 6.8134 -0.1609 0 21291
-1.2411 5.5119 0.26348 0 21099
-1.2272 -8.0953 -0.1901 0 11603
-1.2252 5.7495 -1.1076 0 21160
-1.2246 -6.8747 0.4883 0 11658
-1.2145 4.5839 -1.008 0 20905
-1.206 5.2869 -0.3792 2 21078
-1.1832 3.9514 0.67766 0 20728
-1.1824 5.4827 -1.3289 0 21143
-1.1635 -5.8387 0.41631 0 11703
-1.1586 -4.7386 0.9191 0 11806
-1.1346 8.3809 0.5914 0 21518
-1.1345 8.583 0.20101 0 21528
-1.1301 -7.1921 1.1961 0 11619
-1.1099 -3.2143 0.47792 0 12102
-1.0968 -7.1095 1.1819 0 11612
-1.0868 -8.9156 1.4756 1 11550
-1.0825 5.637 -0.40138 0 21257
-1.0817 3.6542 0.71802 0 20750
-1.0788 -4.1034 -0.098507 0 11851
-1.0766 7.7985 1.2934 0 21507
-1.0595 -4.333 0.41616 0 11805
-1.0429 -4.0095 -0.096186 0 11841
-1.0375 4.3755 0.1044 0 21036
-1.0236 -7.6611 0.54047 0 11569
-1.0144 -5.7941 0.82669 0 11651
-0.98706 6.4504 0.76311 0 21447
-0.95717 7.2411 1.2 0 21531
-0.9355 -4.6945 0.22323 0 11702
-0.92231 -2.9467 0.58175 0 12012
-0.90819 -5.991 -0.28258 0 11602
-0.90716 3.8256 0.18335 0 21038
-0.8993 6.3666 -1.0564 0 21486
-0.87432 7.0901 1.004 0 21567
-0.85874 7.8792 -0.18402 0 21619
-0.84664 -7.6934 1.4583 0 11529
-0.8351 9.761 1.6095 0 21713
-0.82836 -5.6991 0.53729 0 11590
-0.82275 -4.3294 0.72403 1 11686
-0.80965 -7.7685 1.4716 0 11518
-0.79955 -8.1107 0 0 11507
-0.77626 8.2581 -1.1657 1 21675
-0.76716 3.9951 -1.3746 0 21261
-0.75093 9.457 1.3333 0 21730
-0.73571 -6.3392 1.2024 0 11541
-0.73319 3.9444 0 0 21292
-0.7216 6.4536 -0.60584 0 21607
-0.71867 -6.3471 1.2035 0 11534
-0.71169 -6.4671 0.45495 0 11527
-0.68071 -6.1856 0.58057 1 11528
-0.65347 -4.1587 0.39275 0 11618
-0.65256 -4.23 0 0 11610
-0.64328 7.8077 -1.476 0 21721
-0.6319 -8.404 -0.19567 1 11461
-0.60286 -6.511 -0.30494 1 11497
-0.56939 -7.5726 0 0 11462
-0.56713 8.3404 0.77992 0 21768
-0.55967 7.8655 0.36773 0 21756
-0.55199 -8.677 0.40546 0 11437
-0.51189 6.6831 -0.31257 0 21735
-0.51008 -6.2848 1.036 1 11475
-0.4885 -8.4722 1.3942 0 11423
-0.47927 -6.6374 0.77821 0 11455
-0.43405 -5.0014 0.46836 0 11487
-0.41418 -4.9531 0.46372 0 11481
-0.41057 -7.9134 0.92665 0 11409
-0.40958 8.6212 -0.60353 0 21822
-0.40718 -8.2958 0.19284 1 11403
-0.39716 -5.2821 0.87026 0 11463
-0.39041 -9.6781 1.1327 0 11384
-0.38769 3.7709 0.53275 0 21654
-0.37948 -9.4074 0.65836 0 11383
-0.37056 4.1934 0.39275 0 21702
-0.33633 4.2357 0.69809 0 21731
-0.32663 -3.9061 -0.18279 0 11480
-0.31693 -3.9049 -0.1827 0 11474
-0.31113 -4.8907 0.57309 0 11439
-0.30999 -4.8728 0.11336 0 11436
-0.29745 7.6729 0.71638 0 21847
-0.28219 -6.5419 0 0 11390
-0.27705 -8.7673 -0.20365 0 11363
-0.25849 -8.1799 0.57228 0 11364
-0.2325 3.2675 -0.46038 0 21749
-0.22385 3.292 -0.46372 0 21760
-0.21543 -6.263 0.43821 0 11371
-0.11868 -8.2921 0.38674 0 11319
-0.11696 7.4453 1.2234 0 21909
-0.085603 8.7582 1.439 0 21927
-0.078082 -3.8897 0.27205 0 11333
-0.05917 3.7666 -0.98616 2 21908
-0.049252 3.8132 -0.99832 1 21915
-0.036625 -4.4646 0.10366 0 11308
-0.027963 -5.0068 0.8226 0 11302
-0.02706 3.7814 -0.80379 0 21939
-0.025978 5.9535 -0.27764 0 21942
-0.024902 -4.4587 0.10352 0 11301
-0.023179 -8.8536 0.20555 0 11295
0.0033786 -9.6775 -0.4513 0 11290
0.0082498 5.9088 0.97078 0 21966
0.029193 3.9826 -0.37157 1 21977
0.045048 -3.0725 0.50484 0 11263
0.052522 3.2355 0.3019 0 22010
0.053963 -3.0309 0.49803 0 11254
0.057206 -6.3029 0.29394 0 11276
0.06148 3.2613 0.30431 0 22019
0.067436 3.5772 -1.0259 0 22018
0.069994 -7.7119 1.0839 0 11277
0.073262 -6.2648 0.29217 0 11269
0.080131 -6.8521 -0.31956 0 11268
0.082954 -5.6578 0.79524 0 11262
0.10158 3.6826 -0.3437 0 22037
0.10375 3.7616 0.087365 1 22044
0.12534 5.6987 0.39859 0 22025
0.12561 7.7381 -0.54117 1 22006
0.1551 -8.7113 1.6416 0 11255
0.16333 5.9213 -0.41421 0 22039
0.16667 6.0427 -1.2849 0 22046
0.16793 6.088 -1.0006 0 22033
0.16817 3.3082 -0.94985 0 22103
0.17438 5.7074 -0.39929 2 22051
0.18668 -7.0818 -0.33037 0 11234
0.19499 5.8165 -0.40696 0 22062
0.19753 7.1612 -1.3498 0 22047
0.19762 -7.4968 0.69966 0 11235
0.20932 3.5128 -0.081702 0 22127
0.26227 -8.1641 1.539 0 11225
0.26343 5.1823 0.72927 0 22104
0.26615 5.9296 -0.2768 0 22088
0.27122 6.0425 -0.85007 0 22084
0.27226 8.1216 -1.1421 0 22059
0.27811 5.1855 0.72982 2 22112
0.28345 4.757 -1.487 0 22130
0.28365 5.0107 -0.82455 0 22115
0.30068 -4.9162 0.92798 0 11178
0.30169 5.063 0 0 22128
0.30608 -4.0424 0 0 11156
0.31983 -6.8327 -0.15881 0 11203
0.32552 9.7104 -0.90644 0 22061
0.34341 -3.9411 0 0 11128
0.35255 -3.9041 0 0 11118
0.38501 -4.5658 0 0 11137
0.38801 8.0779 -0.37714 0 22097
0.40018 5.87 0.41142 0 22151
0.45964 4.1043 -0.28879 1 22238
0.46323 -7.5738 0.17617 0 11177
0.47501 4.1306 -0.29074 1 22242
0.47834 -5.297 0.12348 0 11119
0.48639 4.8558 0.91947 0 22216
0.49512 4.6638 0 0 22225
0.52304 6.3348 0.59302 0 22178
0.53908 4.6878 0.10955 1 22244
0.54279 7.962 -0.55805 0 22149
0.59143 6.4488 -0.7573 0 22194
0.59708 -6.8522 0.15969 0 11129
0.60055 7.2735 0.85348 0 22179
0.60184 4.0031 0.28307 0 22306
0.60188 4.2556 0 0 22289
0.61307 4.2439 0 0 22296
0.6215 9.5077 0 0 22139
0.64244 6.2274 0.87985 0 22222
0.66846 3.097 -0.9085 0 22439
0.66907 4.3622 -0.3086 0 22309
0.67395 3.8066 0.18028 0 22349
0.67429 3.8755 0.18345 0 22344
0.69853 7.1628 -0.67142 0 22208
0.70696 -3.6001 0.60276 0 10876
0.71253 3.652 -0.7909 0 22387
0.71312 3.7137 -0.80379 1 22380
0.7366 -3.5821 0.084905 0 10857
0.75435 4.0543 -0.48226 0 22363
0.77072 -8.0189 -0.18703 0 11102
0.80079 -5.2701 -0.12376 0 10981
0.80826 7.8348 1.294 0 22223
0.8166 -5.9613 0.70364 0 11014
0.8507 3.9885 -0.76838 0 22431
0.86583 4.0114 -0.7732 0 22442
0.88868 9.4013 -1.3272 0 22200
0.9289 2.8863 -0.71842 0 22725
0.92975 8.302 -1.1741 0 22235
0.93094 2.8651 -0.71381 0 22735
0.95859 -6.8554 -0.16071 0 11007
0.97136 -6.0374 0.42761 0 10958
0.98268 -8.4415 1.6012 0 11055
0.98497 -5.5184 0.52298 0 10913
0.99672 -6.5595 0.77589 2 10984
1.0082 7.1284 1.3564 0 22293
1.0083 -6.3952 0.45272 0 10965
1.0172 -6.2116 -0.14614 1 10951
1.0454 3.0637 0.075157 0 22776
1.0578 8.5533 1.416 0 22257
1.0828 -2.9367 0 0 10569
1.0931 -6.5535 0 0 10944
1.1008 -4.3826 0.10491 0 10767
1.1113 -3.5417 -0.1731 1 10648
1.1208 7.1816 1.1942 2 22317
1.1224 -4.4164 0.10579 0 10761
1.1256 -3.6251 -0.17702 0 10653
1.136 -7.476 0.35264 0 10982
1.2051 3.1691 0.55705 1 22890
1.2191 -4.4655 0.21587 0 10725
1.2223 3.0794 -0.076921 0 22939
1.224 -6.63 0 0 10899
1.2512 -3.5531 0.087458 1 10593
1.2724 4.0777 0.2987 0 22698
1.2897 9.5015 -0.6705 0 22277
1.291 7.0547 -1.1783 0 22355
1.3072 -9.3487 1.1039 0 11008
1.3257 4.5719 0.89688 0 22644
1.3311 9.2145 1.7541 0 22299
1.333 3.4155 -0.95982 0 22919
1.3335 -7.1048 1.362 0 10892
1.3356 -5.3173 0.90074 0 10768
1.3357 4.3256 0.21112 0 22686
1.3362 -8.7936 1.2501 0 10985
1.3369 -8.0151 0.18866 0 10945
1.3426 4.3025 0.21018 0 22697
1.3653 4.7087 0.22863 2 22642
1.369 3.2552 -0.24694 1 23025
1.3762 6.0281 -0.57686 1 22472
1.4003 -7.8452 1.3093 0 10915
1.412 6.6203 1.1121 0 22430
1.4293 3.3189 0.59369 0 23078
1.4296 -4.133 0.20394 0 10601
1.4374 3.3089 0.59271 0 23091
1.4438 -3.4197 0 0 10477
1.4458 4.9861 0.48434 2 22643
1.4494 5.8787 0.70805 0 22530
1.451 7.3215 1.2263 1 22393
1.4673 5.0047 0.48657 0 22651
1.4678 3.666 -1.1323 0 22959
1.4689 -7.48 0.71118 0 10875
1.4724 -5.3345 0.25807 0 10718
1.4727 -4.182 0.5185 1 10595
1.4913 3.7899 -1.0662 0 22930
1.4982 6.5627 0.47072 0 22478
1.5036 8.2166 0.97683 0 22360
1.5103 -3.9927 0.70133 0 10556
1.5185 3.9579 -1.1097 0 22900
1.5211 3.8322 -1.0794 2 22944
1.5311 -5.3116 0.9082 0 10692
1.5414 -4.0009 0.29981 0 10543
1.5432 -4.8735 0 0 10643
1.5586 6.6554 0.79935 0 22496
1.5609 -4.8763 0 0 10639
1.5702 5.4688 -0.93479 0 22625
1.5815 -8.2984 -0.19613 0 10887
1.5902 -3.2777 -0.25475 1 10328
1.6409 -7.9798 1.3385 0 10859
1.6483 -4.1003 0.20609 0 10517
1.6515 3.0265 0.56645 0 23554
1.6587 -8.9845 0.85238 1 10900
1.6737 6.9608 -0.83721 1 22505
1.6917 6.3048 0.91743 2 22581
1.7117 6.6044 -0.31816 0 22558
1.7133 -3.027 0.1622 0 10154
1.7149 -4.0616 0.10236 1 10478
1.7159 -3.0094 0.16155 0 10146
1.7169 5.7923 -0.28174 0 22656
1.7246 -8.2694 0.7881 0 10850
1.7371 4.0982 0.31125 0 23046
1.7425 -4.0912 0.10324 0 10470
1.7598 2.8076 0.5444 0 23897
1.7678 3.0083 0.57326 0 23724
1.7703 -5.3718 0 0 10619
1.8136 3.6988 0.77616 0 23334
1.828 8.3418 0.19827 0 22451
1.8312 4.0557 0 0 23170
1.8364 6.3334 0.1531 0 22641
1.8646 2.4539 -1.2873 0 24532
1.8809 9.0826 0.6486 0 22412
1.8892 2.6426 -0.5337 0 24317
1.8975 -7.5543 1.4675 0 10769
1.9061 6.9436 0.5035 0 22598
1.908 3.5703 0.28307 0 23511
1.9085 8.2469 0.39475 0 22487
1.9123 3.3445 0.2694 0 23651
1.9448 -3.4109 -0.27456 0 10144
1.9576 -6.7911 1.3316 0 10693
1.9782 -6.3707 0.31108 0 10654
1.9827 -3.6471 0.58341 0 10204
2.0047 4.0278 0.20981 0 23359
2.0121 -2.5478 0.53338 0 9587
2.0136 3.0503 0.084859 0 24051
2.0382 -4.1132 0.75418 1 10313
2.0498 3.0309 0.60114 0 24139
2.0533 6.4455 -0.31546 0 22714
2.0628 5.523 0.41226 0 22864
2.0632 6.9609 1.3679 0 22659
2.0691 3.9261 0 1 23479
2.076 6.1438 1.0655 0 22767
2.0803 3.9225 0 0 23494
2.0828 6.4717 -0.31705 0 22723
2.0892 -3.3227 0.7395 0 10030
2.0941 2.5648 0.076874 1 24789
2.1037 3.8061 -1.247 1 23581
2.105 -7.4587 0 1 10704
2.1292 5.5496 0 0 22898
2.1334 3.8314 -1.2575 0 23595
2.1466 5.8501 0.72873 0 22845
2.1472 9.041 1.7508 0 22504
2.1477 2.6475 0.079149 0 24768
2.1564 -3.9144 -0.31251 1 10185
2.1597 2.8587 0.50353 1 24520
2.1731 2.5327 0.46901 2 81
2.1746 -6.5987 1.309 0 10622
2.1831 -6.1992 1.2383 0 10596
2.191 5.8663 -1.0288 0 22856
2.1968 7.1144 0.52066 0 22687
2.2087 2.6062 0.56126 0 52
2.2241 -6.3759 0.62999 0 10598
2.2292 6.5333 0.48271 0 22777
2.2369 3.8066 0.2059 0 23719
2.2569 4.0833 0.76651 2 23584
2.2716 -8.0492 0.58484 0 10705
2.2825 2.7797 0.67766 0 24819
2.2885 2.7722 0.67729 0 24841
2.3207 -6.1871 0 0 10561
2.3228 4.0625 0.43659 0 23652
2.3316 5.9742 -0.29907 0 22915
2.3319 4.0504 0.43603 0 23670
2.3341 -3.3559 0.57451 0 9836
2.3601 3.9654 -1.4399 0 23752
2.3673 7.5083 -1.1064 0 22701
2.3811 -5.3354 0.54509 0 10430
2.3951 -6.4957 1.1374 0 10573
2.3968 -2.6835 0.16779 0 9403
2.414 -8.6518 0.41888 0 10712
2.4214 4.1504 -0.4483 2 23696
2.4236 -3.3188 -0.19164 1 9736
2.4238 2.81 0.25949 0 96
2.437 5.843 0.74034 0 23018
2.4461 -7.2768 1.4464 0 10613
2.4572 7.4869 -0.73515 0 22741
2.4589 6.7631 -0.33559 0 22833
2.4611 2.5682 0.082584 0 401
2.4843 -2.2041 0.077106 1 9243
2.4922 -3.6977 -0.20795 0 9900
2.4987 5.578 1.0042 0 23159
2.5177 -2.7708 0.61509 0 9385
2.5243 -3.3341 0.68707 1 9672
2.5406 2.1394 0.46679 0 1061
2.5428 -2.519 0.25029 0 9299
2.5582 -6.763 0.84558 0 10554
2.5626 7.0484 0.34975 0 22836
2.6042 2.1806 0.47736 0 1080
2.6089 5.0223 0.66183 0 23450
2.6105 -2.4267 0.58558 0 9268
2.6242 5.6378 1.1716 0 23236
2.6325 1.6227 0.21625 0 2068
2.6524 -2.51 0.68803 0 9272
2.6527 6.0116 -0.30643 0 23117
2.6671 -1.9829 0.54602 2 9040
2.6728 1.6372 0.21917 0 2091
2.687 -2.5277 0.69506 0 9269
2.7209 -3.0983 0.7769 2 9423
2.7214 6.9158 -0.17255 0 22928
2.7371 -6.7542 1.3731 0 10512
2.7441 -7.5805 1.3245 0 10582
2.755 5.7837 0.44798 0 23279
2.7558 -2.3888 0.084673 0 9227
2.7559 -8.8754 1.5269 0 10655
2.7723 1.8671 0.15587 0 1780
2.7731 -8.2497 1.4299 0 10612
2.7734 6.097 1.262 0 23193
2.7749 8.2122 0.80872 0 22766
2.7759 2.6426 0.62968 0 685
2.7963 8.9613 0.21795 0 22696
2.8067 7.0102 -1.4227 1 22962
2.812 1.8832 0.15782 0 1799
2.8333 -2.8245 0.56226 0 9302
2.8356 -7.56 -0.56461 0 10559
2.8524 3.3068 0.40742 0 98
2.8608 2.5695 0.35875 0 850
2.8654 2.4699 0.08783 0 974
2.8669 2.5895 0.36042 0 831
2.8687 3.3059 0.40835 0 115
2.8832 7.5821 -0.18833 0 22884
2.89 -2.8629 0.57172 0 9300
2.9136 -2.4534 0.088433 2 9205
2.9284 4.301 0.36385 0 24155
2.9476 5.3684 0.14219 1 23565
2.9655 6.6202 0.16842 0 23154
2.9757 -9.2074 1.5898 0 10635
2.9765 2.3625 -1.3831 1 1241
2.9783 -5.4063 0.1433 0 10187
2.9881 7.8579 0.39205 0 22886
2.9933 3.1421 0.81763 0 393
3.0051 3.1359 0.20254 1 403
3.0069 3.1753 0.82393 0 375
3.013 -1.918 0.41768 1 8643
3.0134 0.061017 0 0 6204
3.0229 1.064 -1.4268 2 3831
3.0241 4.9175 0.53859 2 23837
3.0288 0.41436 0.50225 1 5416
3.0315 -2.5691 -0.18531 0 9211
3.0344 -1.9435 0.42139 0 8662
3.0483 1.0633 -1.4374 1 3857
3.0563 -5.1168 0.55605 0 10097
3.0714 2.2561 0.71802 0 1502
3.0737 3.0459 0.2018 0 554
3.0763 3.1196 0.30637 0 485
3.0835 -5.672 0.60231 1 10201
3.0938 3.3633 -1.3104 1 280
3.1069 3.2614 0.42024 0 387
3.1163 -0.9575 0.22796 0 7245
3.1566 6.4378 0 0 23328
3.1782 2.2221 0.63713 0 1662
3.1841 -3.9858 0.35673 0 9561
3.1875 3.5889 0 0 178
3.195 -3.9035 0.82876 0 9526
3.2078 7.3846 0.37546 0 23090
3.2125 -7.033 1.4568 0 10410
3.2293 4.8039 0.13439 0 24115
3.2384 4.1123 0.2441 0 24663
3.2476 7.0803 1.2798 0 23204
3.2505 -3.9474 0.84011 0 9516
3.2643 -4.1082 0.48954 1 9573
3.2675 0.066163 0.53694 0 6212
3.2935 0.61756 -1.2196 0 5039
3.3109 3.9069 0.59887 0 48
3.3445 -0.50701 0.47542 0 6928
3.3623 1.0331 0.24596 0 4179
3.3699 4.304 0.76824 1 24646
3.3909 6.3934 1.189 0 23499
3.3946 -2.8931 0.73278 0 9218
3.4065 1.8235 0.18018 0 2549
3.4114 -9.2519 1.1531 0 10572
3.4367 7.0089 0.72827 0 23330
3.4383 -2.9995 0.10593 0 9231
3.4583 -1.8265 0.36488 0 8155
3.4675 4.4286 0.92409 0 24648
3.4728 -1.2114 0.17152 1 7344
3.4879 8.5768 1.0828 0 22984
3.5004 1.2665 0.70136 1 3773
3.5045 4.1824 -0.12668 1 6
3.5083 -8.7271 1.5453 1 10519
3.5296 0.11277 -0.24694 1 6129
3.5364 -0.67206 0.59142 0 7026
3.5444 4.6108 0.27121 0 24579
3.545 0.42272 0.58655 0 5548
3.5538 0.56987 0.25168 0 5235
3.5601 0.54987 0.33608 0 5277
3.5681 0.51925 0.59239 1 5348
3.5789 1.0316 0.43557 1 4323
3.5803 -2.9107 0.75808 0 9169
3.5813 1.5231 0.18149 0 3308
3.5863 -0.97706 -0.086298 0 7176
3.5983 0.22954 0.59239 0 5943
3.6046 8.6424 0 0 23015
3.6048 -5.247 1.1994 0 9867
3.6102 -0.99577 -0.086948 0 7184
3.6121 0.47362 0.08458 0 5454
3.6397 -0.24303 0.68728 0 6656
3.6447 4.856 0.56646 1 24498
3.6452 -0.3061 0.17059 0 6717
3.6494 -3.6379 -0.60259 0 9301
3.6513 -5.0589 -0.58206 0 9756
3.6563 -3.8395 0.62001 1 9343
3.6641 0.5548 0.34574 0 5299
3.6698 5.3556 0.15073 0 24175
3.6708 3.2579 0.3432 0 884
3.6975 4.1631 0.65114 0 184
3.7093 2.6743 -0.31976 2 1549
3.7148 0.98983 0.63162 0 4483
3.7158 2.0033 0.69355 2 2529
3.7234 0.10856 0.086483 2 6152
3.7456 3.1541 0.45684 0 1058
3.7463 3.1749 0.45814 0 1038
3.7638 -8.706 0.88489 0 10458
3.7704 -0.8767 0.089872 0 7109
3.7769 -0.46107 0.08834 1 6837
3.7819 -7.5194 0.39251 0 10295
3.7834 -2.4862 0.52941 0 8732
3.7881 -2.2905 0.413 1 8507
3.8033 4.0885 0 0 310
3.8308 -8.6488 1.5541 0 10438
3.836 4.0268 0.91371 0 391
3.8532 6.0297 1.0057 0 23954
3.8708 0.96007 -1.4515 0 4611
3.8733 -2.9304 0.79796 0 9071
3.8815 -7.0926 0.37705 0 10194
3.9434 -7.1081 0.75837 1 10181
3.9444 4.096 -0.13202 0 417
3.9506 4.4231 0.97434 0 203
3.9706 3.1719 0 0 1224
3.9931 3.1694 0 0 1240
4.0581 -3.1637 0.48007 0 9115
4.0583 -3.977 0.39733 0 9293
4.0734 -5.3471 1.1044 0 9658
4.0817 4.3103 0.55382 0 369
4.0935 4.3485 0.55717 0 350
4.0981 -0.52425 0.19267 0 6855
4.1008 4.6433 1.0178 0 168
4.1068 -4.1183 0.95554 1 9306
4.1082 -4.0469 0.94743 0 9296
4.1138 3.2653 0.6142 0 1246
4.1335 0.96037 0.39591 0 4721
4.1436 -8.0661 0.42288 0 10269
4.1517 -1.4206 0 0 7321
4.1652 6.159 1.4009 0 24141
4.1731 4.5366 0.72083 0 283
4.1935 -0.048308 0.39126 0 6385
4.2079 -2.2223 0.11048 0 8150
4.2228 -5.347 0.47644 0 9582
4.2407 7.6725 -1.4403 0 23571
4.2509 -1.264 -0.10296 2 7226
4.2688 2.8588 0.47932 1 1802
4.2689 -8.2496 1.3054 0 10260
4.2811 3.1058 0.49344 0 1538
4.2823 -6.196 0.35124 0 9846
4.3117 -1.2014 0 0 7191
4.3158 2.8371 0.84854 0 1863
4.3183 4.6146 0 0 328
4.3222 -0.67992 0.30595 0 6943
4.3318 -0.6954 0.30679 0 6951
4.3494 5.1908 0.15723 1 8
4.359 6.0217 -0.51983 0 24367
4.396 7.1038 0 0 23851
4.4184 -6.5554 0.36866 0 9901
4.423 3.4086 0 0 1337
4.436 -3.3977 0.52131 1 9091
4.4394 -4.2011 1.0042 0 9271
4.4749 4.8937 0.61866 0 264
4.4923 -1.0446 0.75775 0 7111
4.4968 2.4762 0.35897 1 2452
4.5174 3.4401 1.0698 0 1386
4.6021 1.6198 0.45517 0 3844
4.6463 0.94023 0.77883 0 4941
4.6468 0.6357 0.54846 0 5413
4.6475 -7.584 1.4614 0 10068
4.6488 1.819 0.58377 0 3551
4.6506 2.811 0.25341 0 2134
4.6573 4.6965 0.15356 0 500
4.6593 0.7338 0.77494 0 5259
4.6744 4.0291 -0.57574 0 967
4.6786 0.95953 0.78466 1 4919
4.6909 4.0191 -0.5763 0 985
4.6911 0.8796 0.22258 0 5041
4.7023 -5.2335 1.1559 0 9397
4.715 7.5691 0.20704 0 23871
4.7432 8.2387 1.5619 0 23674
4.7666 -8.5322 1.1429 0 10174
4.7809 4.0717 1.0317 0 1019
4.7981 7.5547 0.20778 0 23926
4.8371 -7.3582 0.82154 0 9960
4.8751 -6.2488 0.73942 0 9607
4.88 8.5347 1.3817 0 23655
4.8831 4.5935 0.9422 0 718
4.9126 -0.67119 0.57982 0 6883
4.9283 8.4474 1.8426 1 23708
4.9451 6.433 0 0 24576
4.961 6.5667 0 0 24513
4.9612 0.75119 0.94539 0 5304
4.9984 -4.488 0.46974 0 9255
5.022 4.256 0.30698 0 1035
5.0302 1.5754 0.36859 0 4131
5.0563 3.492 0.4297 0 1699
5.0584 -0.72082 0.83946 1 6902
5.0612 0.55876 0.71563 0 5611
5.0801 7.7988 0.21609 0 24008
5.0998 8.1361 0.89585 1 23893
5.124 -4.8744 0.16419 0 9275
5.13 -1.1448 0.61467 0 7092
5.1358 -0.16409 0.23963 0 6494
5.1678 -0.28349 0.48285 0 6604
5.1833 5.869 1.4753 1 170
5.2193 4.5531 1.305 0 943
5.24 -0.19672 0.98797 0 6531
5.2413 -1.0606 0.62536 0 7055
5.2736 0.92514 0.24969 0 5128
5.2799 3.853 0.15175 0 1515
5.2839 -0.18267 0.49326 0 6511
5.3033 -6.2203 1.5401 0 9463
5.3062 -1.901 0.13086 0 7372
5.3616 4.1815 0.47546 0 1303
5.3619 4.6479 0 0 955
5.3655 -4.2572 0.47895 0 9140
5.3793 -2.8194 0.28323 1 8136
5.4009 4.2364 0.15937 0 1281
5.4172 1.5095 0.52465 0 4391
5.4263 -6.2554 1.3605 0 9441
5.4488 4.3016 0.16118 0 1262
5.4549 6.8064 0.40677 0 24728
5.47 0.92813 0.64882 0 5172
5.4734 -3.0539 1.1809 0 8302
5.4992 0.43087 0.51462 0 5837
5.5439 1.8787 0.9617 0 3943
5.549 -1.7219 0 0 7251
5.5641 6.98 0.41627 0 24705
5.5724 -5.0316 1.4146 0 9261
5.5735 -1.0431 0.79691 1 7018
5.575 5.0943 0 0 795
5.6373 -5.0902 1.0675 0 9260
5.6477 -0.4078 1.0668 0 6679
5.6769 2.9138 0.29757 0 2696
5.6917 0.81309 0.80804 0 5370
5.7038 3.1176 0.15092 0 2475
5.7111 0.099689 0 1 6224
5.7533 0.35088 0 0 5955
5.759 -2.8739 0.14943 0 8010
5.7725 -6.6125 0.20379 0 9429
5.8 6.844 0.83696 0 46
5.8006 -5.0282 1.0789 0 9228
5.8116 -4.8351 0.17552 0 9192
5.8128 6.5081 0.81411 0 199
5.8165 4.2977 0.16791 0 1475
5.8261 -4.5143 1.3886 0 9108
5.8284 4.9937 1.261 1 998
5.8317 -0.15169 0.27205 0 6461
5.8395 -3.7662 0.81259 0 8678
5.8497 4.8393 0.17626 0 1113
5.8559 6.9467 0.21094 0 26
5.8768 4.1857 1.3594 0 1605
5.8891 4.8167 0 0 1148
5.9129 -2.3542 0.14776 0 7524
5.9135 1.1238 0.98894 0 5026
5.9265 3.7019 0.65192 0 2024
5.9488 0.97308 0.56237 0 5214
5.952 -5.6958 0.76859 0 9279
5.953 3.4828 0.80655 1 2248
5.9614 2.2943 1.2035 0 3602
5.969 1.0643 0.42398 0 5106
5.9844 -5.2206 0.74091 0 9232
5.9878 0.38197 0 0 5935
6.018 -2.4143 0.15055 0 7537
6.0222 1.9451 0.44254 0 4061
6.0393 -1.5147 -0.14456 0 7138
6.0847 4.6069 0 0 1398
6.1021 1.931 0.44756 0 4106
6.1067 1.3281 0.73082 0 4831
6.1297 4.1564 0.17195 0 1760
6.1328 0.1788 0.5724 1 6156
6.139 3.8839 0.84953 0 1983
6.1433 -0.96641 0.87401 0 6944
6.151 1.7324 1.0499 0 4371
6.1554 0.69914 1.0178 0 5589
6.1568 6.0651 0.8063 0 575
6.1688 5.2537 0.75595 0 1015
6.1807 -2.0154 0.30316 0 7282
6.1863 5.6846 0.78382 2 782
6.1909 3.5269 0.66473 0 2344
6.1944 -1.6101 -0.1486 0 7154
6.2259 -1.0899 0.58968 0 6988
6.2406 -0.21574 1.0259 0 6515
6.2676 3.4031 1.0023 0 2504
6.2854 4.9621 0 0 1260
6.2989 -1.7161 1.0726 1 7180
6.332 -1.7049 0.61179 0 7171
6.4463 2.7615 0.49039 0 3283
6.4694 -5.1682 1.5601 0 9150
6.4821 4.3657 1.0984 0 1785
6.5088 0.31947 1.0706 0 6037
6.5776 4.5699 1.1256 0 1682
6.6094 -0.17192 1.2457 0 6467
6.6301 0.67346 0.15472 0 5669
6.6306 6.7662 0.21995 0 467
6.6308 -3.3553 0.86904 0 8052
6.6474 4.4249 1.5045 0 1826
6.6477 -6.8599 0.89121 0 9328
6.6507 7.0231 0.67636 0 367
6.6822 4.4179 1.3161 0 1845
6.6965 -0.77837 1.1076 0 6821
6.7095 -1.2557 0 0 7017
6.7281 3.3809 0.35115 0 2766
6.7347 7.1542 1.3809 0 353
6.738 5.9466 1.0509 0 905
6.7781 -1.535 0.97672 0 7097
6.8263 1.4622 1.3153 0 4857
6.8433 -1.1366 1.1397 2 6966
6.8735 5.588 0.4131 0 1170
6.8886 -1.8342 0.49848 0 7165
6.8924 -1.003 0.48704 0 6912
6.9676 2.0957 1.3709 0 4231
7.0041 2.0854 0 0 4245
7.0548 0.57381 -0.16433 0 5813
7.065 -1.6207 0.67625 0 7103
7.0775 -1.69 1.1955 1 7121
7.0898 -0.72015 -0.33233 1 6773
7.1011 0.22689 -1.1673 0 6124
7.1097 5.4792 1.6912 0 1346
7.1179 1.8077 1.0321 0 4571
7.1224 1.27 1.3631 0 5112
7.1374 -1.1228 1.187 0 6945
7.1442 -1.3164 0.67774 0 7009
7.162 4.3872 0.39167 0 2089
7.1854 -2.9089 0.17998 0 7554
7.2558 0.35613 0.84953 0 6034
7.2697 2.6072 0.54005 0 3792
7.29 1.0414 0.68703 0 5367
7.3099 -1.458 0.34761 0 7048
7.3129 6.3391 -0.90291 0 948
7.3143 -2.3371 0.71638 0 7270
7.4321 0.7104 0 0 5708
7.46 3.2483 -0.95151 0 3220
7.4817 1.334 0.35441 0 5104
7.4825 1.2454 0.53043 0 5192
7.4841 -1.7168 1.0791 0 7104
7.5063 2.7633 1.3141 1 3725
7.5078 -1.4512 0.71341 0 7034
7.6186 -0.9976 0.89854 0 6864
7.7162 -0.35714 1.2691 0 6569
7.7198 -2.4192 0 0 7258
7.8422 0.84363 0.36782 0 5628
7.8704 3.62 -1.0131 0 3055
7.8902 3.6575 -1.017 0 3032
7.9197 -3.0989 1.1952 0 7503
7.9567 -1.393 1.3271 0 6989
8.0066 2.9474 0.99773 0 3722
8.0122 4.6876 1.3046 0 2250
8.0278 4.2972 0.2114 0 2547
8.0396 3.0411 1.208 0 3649
8.0397 -4.3979 1.2879 0 8248
8.101 -3.1162 0.20152 0 7472
8.1466 -4.3938 1.5207 0 8213
8.2453 -5.3178 1.8486 0 8681
8.3095 0.26549 0.58135 0 6136
8.3307 -3.4269 0.6299 0 7588
8.3461 4.722 1.8067 0 2372
8.3583 4.1709 0.6532 0 2794
8.3612 -1.4909 0.79237 1 6996
8.3676 3.3875 1.2687 0 3460
8.4534 2.1218 -0.20235 1 4584
8.4652 2.5204 0.41189 1 4249
8.4901 3.1019 1.703 2 3751
8.5022 3.1299 0 2 3714
8.5148 2.0065 0 1 4692
8.5205 2.0346 0 2 4669
8.5254 5.153 0.69659 0 2136
8.5408 1.9592 -0.61274 1 4732
8.5803 3.2456 0.64148 0 3644
8.6116 1.3809 -0.20249 2 5229
8.6159 -1.7185 1.2347 0 7049
8.6301 2.9245 -0.42493 2 3928
8.6425 3.0996 -0.21317 1 3785
8.6618 -0.72735 0.81095 0 6718
8.6677 3.8954 1.7904 2 3145
8.669 3.2205 -0.86278 0 3682
8.6839 1.5234 -0.61651 2 5118
8.6898 3.2559 -0.86575 0 3659
8.6951 3.0059 -0.42903 1 3882
8.702 1.9962 0 0 4738
8.7061 4.7942 -0.92725 2 2441
8.7073 2.1049 -0.62641 2 4644
8.7081 2.0232 0 2 4714
8.7126 -1.7094 -1.2478 1 7035
8.7149 1.9736 0.20746 1 4761
8.7193 -3.0671 -1.0809 2 7353
8.7587 3.8777 -1.1202 1 3170
8.7713 -1.7495 -1.257 0 7042
8.7714 3.4322 -0.65864 2 3539
8.784 -2.8643 -1.2985 0 7281
8.7905 2.9788 -0.21549 2 3930
8.7909 1.2793 -1.0389 2 5329
8.7927 2.072 -0.20973 0 4690
8.8076 1.8063 -0.83881 1 4901
8.8108 -0.71509 -1.0337 1 6704
8.8115 0.84225 -1.0351 2 5698
8.8136 0.82071 -1.0351 0 5720
8.8154 -3.075 -1.0918 1 7341
8.8199 1.8892 0 1 4847
8.8262 -4.0577 -0.67929 0 7814
8.8296 1.9203 0 1 4824
8.8642 -0.92541 -1.2526 2 6780
8.8786 2.8404 -0.43472 1 4075
8.8864 3.2467 -0.66157 2 3735
8.8957 -2.9558 -1.3174 1 7294
8.9109 -2.9349 -1.3185 0 7287
8.9131 -0.026446 1.6793 0 6340
8.9371 2.746 0.21707 2 4175
8.9428 -3.0897 -1.1065 0 7332
8.9637 1.4117 -0.42316 2 5248
8.9866 -1.0684 0.63283 0 6829
8.9943 3.8847 -0.45689 1 3251
8.9988 2.232 0.21526 2 4612
9.0003 3.5835 0.45177 1 3501
9.0076 -3.6759 1.833 0 7578
9.0148 1.4456 0 2 5231
9.0193 3.6221 0.45326 0 3477
9.0219 3.7777 1.6069 0 3365
9.0303 3.8685 -0.68696 2 3274
9.0354 -0.39134 -0.63241 1 6550
9.0365 3.3266 -0.22357 2 3712
9.0453 1.8041 -0.64497 2 4949
9.0517 -0.60439 -0.63437 2 6649
9.0567 3.5438 0.22579 2 3546
9.0593 3.5777 -0.6811 1 3517
9.0721 2.3885 -0.87523 2 4489
9.0847 4.1134 1.8789 2 3120
9.0853 -3.6781 1.8467 0 7563
9.0931 3.1719 -0.67343 2 3856
9.1081 2.6255 1.5573 0 4326
9.1168 1.4913 0 1 5209
9.127 -2.9163 0.44683 0 7269
9.1276 0.42566 1.5012 0 6055
9.1321 2.5721 0.22027 2 4362
9.1396 1.5213 -0.6479 1 5182
9.1518 -0.21088 -0.85405 0 6439
9.1536 -0.39645 -0.85479 1 6548
9.1596 1.7407 0.21646 2 5019
9.1631 2.3271 0 2 4561
9.1912 3.086 0.45214 1 3961
9.1982 -0.26657 -0.85851 2 6471
9.2156 2.5125 0 2 4429
9.2163 -0.375 -0.86055 0 6535
9.2559 1.3784 0 0 5317
9.282 3.1165 1.145 0 3966
9.2889 1.8224 0 2 4975
9.2898 3.3317 -0.92074 2 3779
9.2908 -0.26925 1.3063 0 6482
9.2988 -0.83644 -1.0918 2 6731
9.3095 2.9156 -0.22649 2 4123
9.3488 2.5769 0.45223 2 4410
9.3503 1.6959 -0.6645 2 5074
9.3708 2.6393 0.454 2 4364
9.3747 1.8392 -0.2218 2 4973
9.3793 1.145 -0.88154 0 5509
9.3802 2.7039 0.68264 2 4320
9.3872 2.3562 0.67678 2 4591
9.3919 -3.1827 -1.3937 2 7312
9.3968 2.3307 -0.45149 2 4607
9.4034 2.4459 0.67943 0 4521
9.4064 0.79318 -0.44021 1 5790
9.448 1.9119 0.44953 0 4935
9.4565 0.76915 -0.44245 0 5811
9.4734 -0.57444 -0.88545 1 6624
9.4799 0.24659 1.7867 0 6176
9.4849 -0.54856 -0.88637 1 6612
9.4944 0.93763 -0.89009 1 5680
9.5096 1.3314 -0.89585 1 5377
9.5264 -0.44092 -0.88972 2 6561
9.5317 2.3924 0.45829 1 4589
9.5815 0.36306 -0.89455 1 6093
9.6023 2.3817 0.46136 2 4614
9.614 -0.6116 0.22366 0 6638
9.659 -0.95388 0 0 6765
9.6622 0.33573 -0.90198 0 6110
9.669 1.8375 0 2 5018
9.6779 -0.89779 0.45326 0 6745
9.6889 1.644 0.22816 2 5166
9.7007 1.646 0.45885 0 5168
9.7649 0.11249 -0.91108 1 6252
9.7906 0.53881 -0.9148 1 5985
9.8433 1.5203 0 2 5271
9.9161 0.57697 -0.92669 1 5967
9.9772 0.43387 -0.93171 0 6060
-14.959 0.43614 -1.0465 2 14212
-14.393 1.0923 -0.67313 0 14293
-14.272 -1.1533 2.6977 0 14014
-14.271 2.7637 2.7388 0 14524
-13.956 3.2964 2.3559 0 14620
-13.953 -1.4148 0.3256 1 13986
-13.484 -2.2419 2.2457 0 13928
-13.232 -1.6106 2.5114 0 13962
-13.003 1.8251 0.30485 1 14414
-12.98 0.49184 1.2119 0 14230
-12.98 4.8764 2.2781 0 15077
-12.826 4.6912 0.63689 1 15036
-12.69 -0.91629 1.187 0 14031
-12.521 -2.1178 1.7848 0 13926
-12.281 -1.1371 0.86247 1 13997
-12.08 0.0042145 1.127 0 14162
-11.618 4.1323 1.733 0 15000
-11.611 8.0371 2.6606 0 16356
-11.588 -1.3756 1.64 0 13965
-11.523 5.6376 2.417 0 15483
-11.404 4.4348 0 0 15119
-11.329 1.1588 1.0625 0 14344
-11.28 0.98685 2.1333 1 14319
-11.246 1.1503 -0.26247 0 14343
-11.156 6.5371 0.60298 1 15886
-11.132 -1.2919 0.78364 0 13972
-11.041 1.9112 1.3104 0 14475
-10.997 4.3873 1.664 0 15159
-10.995 -0.91938 -0.25615 1 14008
-10.967 1.7312 -0.25778 0 14447
-10.921 -1.7161 2.083 0 13932
-10.728 1.6933 1.7843 0 14448
-10.715 3.0583 0.25871 0 14758
-10.71 2.4647 1.5445 0 14604
-10.623 1.1128 1.5011 0 14351
-10.61 6.5529 -0.58155 0 16020
-10.575 -0.33232 1.2372 0 14098
-10.463 1.8392 0.24664 0 14481
-10.427 -1.1493 0.97871 1 13978
-10.297 -1.2224 1.9537 0 13966
-10.281 0.29974 -0.23879 0 14213
-10.275 1.7157 -0.24186 0 14464
-10.227 7.0789 1.1604 0 16350
-10.224 0.38739 1.6809 0 14231
-10.206 -9.6577 2.6473 0 13597
-10.2 5.8226 0.27268 0 15822
-10.194 -8.899 1.5824 0 13638
-10.177 4.6186 1.3069 0 15355
-10.044 8.5783 -1.2323 0 17020
-10.025 4.48 0.51205 1 15328
-10.009 -1.1316 1.4157 0 13975
-9.6163 -7.4995 1.4261 0 13737
-9.5787 7.2627 0.27909 1 16617
-9.4615 9.5644 1.2552 0 17619
-9.4556 5.1447 2.0282 0 15710
-9.4306 -8.7726 0.60065 1 13604
-9.399 5.8823 -0.51708 0 16052
-9.2711 7.4169 -0.27565 0 16802
-9.2081 8.4288 -1.7544 1 17259
-9.2073 -7.663 -0.55863 0 13675
-9.2034 6.8126 2.1574 0 16550
-9.1973 5.0375 0.97834 0 15723
-9.0749 -8.4417 1.7419 0 13605
-8.9433 5.0023 0.23791 0 15772
-8.92 -6.5118 -0.51503 0 13787
-8.6971 -7.3263 0.53031 1 13663
-8.6572 -7.5575 2.1652 0 13639
-8.6563 5.3797 0.95084 0 16040
-8.5447 -6.3899 0.99543 0 13772
-8.4756 6.5838 0.50049 1 16701
-8.2965 -7.1968 0.25499 0 13642
-8.1055 5.8933 1.4084 0 16495
-8.038 9.4546 2.3381 0 18146
-8.0372 -6.6892 0.48764 1 13677
-7.9151 6.2577 0 0 16762
-7.6781 6.4427 -0.46742 0 16962
-7.677 9.2437 1.6887 0 18222
-7.6747 7.6667 0 0 17575
-7.6092 -8.2778 0.52434 1 13439
-7.3732 -8.756 0.26576 1 13268
-7.1923 -13.159 2.8254 1 12653
-7.1131 -13.101 1.3908 2 12641
-7.0421 7.7609 1.9745 0 17929
-7.028 -7.1692 1.6494 2 13535
-7.0193 7.4748 0 0 17798
-6.9937 11.83 -1.9314 0 19373
-6.9328 7.2144 0.69966 0 17718
-6.8171 8.3497 -1.0056 0 18272
-6.6178 -9.0686 2.1152 2 13029
-6.257 11.802 0.31014 1 19722
-6.0414 8.9332 2.0319 0 18948
-5.6503 8.9001 1.2328 0 19155
-5.6382 -12.458 1.2758 2 12415
-5.6358 -11.388 2.394 0 12519
-5.6074 -13.851 2.8154 2 12288
-5.5679 9.9301 1.0621 0 19563
-5.3384 -9.0052 1.2242 0 12759
-5.3332 10.641 2.2426 0 19877
-5.1441 -11.107 2.3063 0 12442
-4.9039 12.578 -1.5787 0 20344
-4.8566 10.515 1.903 0 20058
-4.6399 9.8916 2.0585 0 20023
-4.4877 -10.151 2.0911 1 12394
-3.9693 -9.333 1.6663 0 12349
-3.9657 -14.242 1.0338 1 11899
-3.8327 9.5824 -1.9445 0 20317
-3.8005 9.2667 1.8871 0 20273
-3.7484 10.498 0.2588 0 20453
-3.696 10.351 0.76858 0 20455
-3.6314 -13.813 0.33159 1 11853
-3.619 -10.003 1.495 0 12147
-3.5005 10.572 1.8297 0 20575
-3.2593 9.7467 -1.9363 0 20560
-3.1136 -12.414 2.4114 0 11821
-3.0216 10.427 1.7837 0 20780
-2.795 -0.515 0.39943 0 13920
-2.7624 9.736 1.6627 0 20808
-2.6944 13.232 -1.8978 0 21192
-2.633 10.429 -1.7671 0 20951
-2.6178 11.04 0 0 21034
-2.5916 -11.613 0.27625 0 11753
-2.4101 -10.235 -0.24413 0 11785
-2.4032 -0.075524 0.33791 0 14099
-2.3931 13.09 1.5562 0 21310
-2.3828 11.516 0 0 21180
-1.8241 1.2546 -0.8058 0 16328
-1.7438 10.973 2.0933 0 21425
-1.6444 10.347 1.4725 0 21423
-1.6156 13.712 2.2684 0 21594
-1.528 -10.298 1.9615 0 11597
-1.5086 10.047 -1.9141 0 21465
-1.4519 2.5736 -0.41529 0 19522
-1.4264 9.8983 0.93301 0 21484
-1.3755 -11.851 0.55639 1 11540
-1.3602 10.047 -1.4249 0 21509
-1.3423 12.664 2.0923 0 21638
-1.2919 -2.4628 0.32522 0 12594
-1.072 2.125 0.44844 1 19861
-0.56426 11.877 -1.1093 0 21820
-0.54034 -11.719 1.0945 0 11397
-0.45603 10.926 2.0604 0 21839
-0.22721 -11.319 0.26284 0 11332
-0.076924 10.75 1.7661 0 21940
0.014613 10.467 -0.4881 0 21961
0.18513 3.1069 -1.7487 0 22122
0.20837 -10.291 1.9393 0 11248
0.26756 6.331 -1.9773 1 22082
