VERSION .7
FIELDS x y z intensity index
SIZE 8 8 8 8 8
TYPE F F F F F
COUNT 1 1 1 1 1
WIDTH 1550
HEIGHT 1
VIEWPOINT 0 0 0 1 0 0 0
POINTS 1550
DATA ascii
-6.9432 -5.5308 1.2475 1 7357
-6.9403 1.334 0.65935 0 8395
-6.9318 -0.63329 1.1436 0 7627
-6.9081 -5.2435 1.2189 0 7401
-6.8976 3.9759 0.74276 0 9963
-6.8933 -6.5782 1.7952 0 7133
-6.8576 5.9068 1.7053 1 11555
-6.8513 4.1902 1.1287 2 10155
-6.7992 0.36585 0.95695 0 8073
-6.7933 -0.79803 0 0 7579
-6.7843 5.7413 0.20634 0 11472
-6.7746 4.6752 1.5508 1 10616
-6.7681 0.42344 0.95306 2 8093
-6.7485 -4.9428 0.97822 0 7425
-6.7311 0.73599 1.1125 0 8210
-6.7299 -5.754 0.61916 2 7269
-6.7153 6.8838 1.8119 0 12281
-6.7147 -0.67021 0.78913 1 7609
-6.7142 5.2608 -0.19803 0 11128
-6.6913 -5.5552 1.017 0 7310
-6.6605 0.088353 0.62145 2 7954
-6.6577 2.9406 -0.50894 2 9314
-6.6492 1.3782 0.63352 0 8434
-6.6403 5.7196 0.81763 2 11549
-6.6315 -5.0628 0.97567 2 7395
-6.6312 -5.1251 0.39083 0 7385
-6.6288 -0.0080992 0.77519 0 7906
-6.6221 -5.2092 0.78605 0 7369
-6.619 5.9389 1.461 2 11722
-6.6157 2.517 0.33009 0 9037
-6.6141 5.1212 0.97822 2 11084
-6.6092 3.1964 1.2062 2 9512
-6.6081 4.2537 0.54954 2 10337
-6.6076 4.3091 -1.1087 2 10374
-6.6039 5.9587 1.4614 2 11745
-6.5849 -5.3686 0.99355 2 7331
-6.5828 -5.3995 0.99564 2 7323
-6.5511 4.2446 0 2 10359
-6.551 4.2445 -0.18123 0 10357
-6.5455 -4.7069 1.519 0 7435
-6.5408 5.2495 0.98078 0 11241
-6.5381 4.2087 0.36261 2 10336
-6.5329 -5.5188 -1.2019 0 7284
-6.5242 4.2271 0.18049 2 10361
-6.5172 0.23784 0.76265 2 8028
-6.5155 1.2523 0.30941 0 8394
-6.5079 0.57738 0.76404 0 8162
-6.5034 2.6699 -0.16322 0 9170
-6.5015 -5.0868 0.38497 0 7374
-6.4931 3.8938 0.70635 1 10089
-6.4885 6.0995 1.6778 2 11918
-6.4842 4.4166 -0.36587 2 10555
-6.4831 -1.2226 0.6155 0 7505
-6.4774 -4.2694 0.18012 0 7470
-6.4748 5.1337 0.38534 0 11186
-6.4745 0.59378 0.76032 0 8169
-6.4644 2.6539 0 0 9171
-6.4589 3.9503 0.70635 2 10151
-6.4484 6.2774 1.4785 2 12059
-6.4388 6.268 1.693 1 12061
-6.4367 4.3842 0 1 10558
-6.434 4.2489 1.4527 2 10441
-6.433 0.6455 1.0622 0 8188
-6.4316 4.8925 0.945 0 11005
-6.4244 -0.15589 0.44937 2 7829
-6.4192 -0.24997 0.59934 0 7784
-6.4184 3.1263 0.83489 0 9527
-6.4065 3.5453 1.029 2 9845
-6.4049 4.3088 0.90272 2 10513
-6.3865 3.8056 1.2214 0 10071
-6.3844 4.378 0.90528 2 10584
-6.3686 5.1719 0.9594 2 11292
-6.3585 5.6077 0 0 11643
-6.354 2.7615 0.16085 0 9280
-6.3449 3.7808 0.68907 1 10066
-6.3434 -6.4529 0.8442 0 7069
-6.342 -6.0226 0.81596 0 7136
-6.3281 2.5144 0.47616 0 9108
-6.3219 6.6363 1.0718 1 12380
-6.3144 -0.28011 0.44198 0 7763
-6.3133 -0.61235 1.0421 2 7613
-6.3088 4.0362 0.69873 0 10315
-6.3059 6.5026 0 0 12295
-6.3056 5.0283 0.94314 0 11214
-6.2979 -5.775 0.7972 2 7178
-6.2907 -5.1599 0.56893 2 7322
-6.2872 -0.26131 0.44002 0 7774
-6.2828 -0.574 -0.73779 0 7622
-6.2744 -5.0573 1.1326 1 7345
-6.2681 -0.58809 1.0343 1 7620
-6.2629 -6.6763 1.2865 0 6998
-6.2495 5.4135 0.77137 0 11573
-6.2479 2.5434 0.94805 0 9160
-6.2455 -0.46083 0.88013 0 7670
-6.2436 5.9706 0.60409 0 11981
-6.2412 -0.51531 0.88013 2 7646
-6.2335 -5.7481 0.79107 1 7172
-6.225 2.9652 0.48216 0 9474
-6.2224 -5.0731 0.5614 0 7329
-6.2186 3.9282 1.2084 0 10273
-6.2154 -0.47498 -0.72896 2 7656
-6.2145 -0.42148 -0.43556 2 7679
-6.2113 4.7816 0.91666 0 11058
-6.1934 6.0608 1.6327 2 12089
-6.1895 -0.4567 -0.14409 0 7668
-6.1878 -0.5109 -0.43416 2 7642
-6.1815 -5.7684 1.1883 0 7158
-6.1798 4.3175 0.88158 2 10660
-6.1757 4.4737 -1.4368 2 10809
-6.1681 -5.9565 0.39987 2 7120
-6.1619 2.5498 1.2564 2 9196
-6.1618 4.9737 1.492 0 11270
-6.1579 2.528 0.93552 2 9177
-6.1494 -4.7837 0.5448 0 7378
-6.1447 -6.0047 1.0047 2 7113
-6.1396 3.8783 0 0 10261
-6.1302 6.1796 1.2233 2 12204
-6.1248 4.5189 0.53224 1 10875
-6.1176 -0.37953 0.28584 2 7704
-6.1119 2.9349 0 0 9488
-6.1044 -0.36053 0.42761 2 7716
-6.0946 -4.2485 1.3997 2 7447
-6.0921 4.4948 1.4264 2 10885
-6.0857 1.5399 1.1828 1 8549
-6.0849 4.5158 0.52987 0 10900
-6.0738 1.555 1.1813 0 8560
-6.0691 4.3194 0.87113 0 10735
-6.0587 4.8038 1.0867 1 11191
-6.0566 -4.436 1.2334 0 7426
-6.0427 6.1599 0.60339 0 12250
-6.0425 -5.5079 1.5405 2 7190
-6.041 6.6389 0 0 12565
-6.0276 -5.5272 1.5408 0 7182
-6.0265 -4.0237 0.50671 0 7466
-6.0122 -4.1398 1.3753 0 7453
-6.0099 -5.5419 0.38124 2 7171
-6.0037 3.7924 0.66251 1 10267
-6.0026 -4.419 0.52122 2 7423
-6.0006 1.6472 1.0223 2 8620
-5.9988 6.4419 0.41049 0 12471
-5.9967 -4.4438 0.52192 2 7419
-5.9967 2.8564 0.15421 0 9472
-5.9943 -4.0508 1.3631 2 7461
-5.9923 -5.6904 0.96637 2 7137
-5.9867 6.8555 0.21131 1 12739
-5.9837 6.464 0.41077 1 12496
-5.979 3.3087 0.79912 1 9843
-5.9743 3.3499 0.80098 0 9885
-5.9735 -4.4266 1.0449 0 7420
-5.9732 6.489 -0.20477 0 12514
-5.9642 -4.5815 0.87949 0 7390
-5.9548 6.1042 1.401 2 12279
-5.9332 6.7942 0.42065 1 12741
-5.9256 3.369 0.63594 2 9923
-5.9243 5.9346 0.58637 0 12174
-5.9225 4.8389 0.89436 2 11320
-5.9225 5.8998 0.58456 0 12148
-5.9182 6.0667 0.59265 0 12274
-5.8901 4.9267 1.4468 2 11432
-5.8882 -7.8025 1.606 0 6778
-5.8807 -6.7246 0.83343 0 6913
-5.88 4.9461 0.89854 0 11453
-5.8742 -6.6747 0.82953 2 6920
-5.8696 6.0528 0.58958 2 12299
-5.8628 2.4669 0.74383 0 9220
-5.858 2.9169 0.4576 0 9571
-5.8434 -5.8434 0.57786 0 7091
-5.8427 6.1333 0.39503 0 12378
-5.834 1.674 0.28304 0 8660
-5.8337 3.4076 0.79006 0 10001
-5.8158 1.0643 -0.13727 0 8373
-5.8085 4.4974 0.51369 1 11080
-5.7998 4.5183 0.17069 1 11105
-5.7799 -5.5156 0.37257 1 7128
-5.7771 -5.5789 0.74927 2 7121
-5.7684 6.0195 0.97497 0 12355
-5.7677 5.8795 0.7684 0 12252
-5.7636 -4.4546 0.85185 2 7387
-5.7557 4.4839 0.5102 2 11106
-5.7543 -4.3677 0.33689 0 7398
-5.7539 -6.5796 0.61121 0 6912
-5.7523 0.29341 0.2686 1 8065
-5.7462 -4.1048 1.3305 2 7439
-5.7362 -1.0652 0.68227 0 7508
-5.7339 -6.5891 0.61079 1 6905
-5.7324 0.3918 0.26795 0 8106
-5.7305 -4.429 1.3646 0 7388
-5.72 -4.6105 1.3842 2 7346
-5.7143 -5.7805 0.56838 0 7078
-5.713 0.22446 1.0772 1 8039
-5.7076 3.4907 0.78239 0 10153
-5.7029 -4.9018 0.17459 2 7258
-5.7026 -5.801 0.95127 0 7070
-5.6981 -4.3502 0.66882 2 7394
-5.6971 5.0813 0.17724 0 11692
-5.6938 0.42313 1.0757 0 8121
-5.6912 -4.3198 0.66659 0 7400
-5.687 -0.32094 0.80052 1 7729
-5.6859 -5.7197 0.75242 2 7087
-5.6859 -4.3677 1.3509 0 7392
-5.6718 5.9831 0.76915 2 12406
-5.6704 0.47018 1.072 0 8147
-5.6657 3.6025 0.94359 1 10295
-5.6521 -0.46668 0.52911 2 7645
-5.647 3.4754 0.77542 0 10178
-5.6453 -6.8435 0.82767 2 6855
-5.6416 1.1191 0.80832 0 8411
-5.641 -0.071876 0.52633 0 7867
-5.6401 -0.071865 0.79273 0 7868
-5.6362 -6.869 0.82897 2 6847
-5.6358 7.007 -0.41934 0 13088
-5.6223 5.9683 1.1524 0 12429
-5.6141 0.090154 0.78911 0 7965
-5.6081 1.9321 0.69365 2 8890
-5.6072 -6.6001 0.80797 2 6884
-5.6007 -4.5662 0.33698 0 7328
-5.5938 4.7894 0.68703 0 11524
-5.5908 2.6225 0.86788 1 9445
-5.5856 -4.1649 1.3127 0 7416
-5.5832 3.5719 0 0 10309
-5.5829 0.15594 0.78494 0 8001
-5.5785 -0.08666 0.7841 0 7858
-5.575 4.8599 0.69 1 11597
-5.5597 -0.99834 1.0643 0 7512
-5.5596 -0.16792 1.048 0 7816
-5.5555 1.4751 0.40194 0 8583
-5.5546 -4.3211 0.65656 0 7379
-5.5532 4.3262 0.65675 2 11108
-5.5297 -4.9528 0.86811 0 7206
-5.5282 -7.3256 1.0732 0 6777
-5.5277 0.23361 1.0424 0 8045
-5.5153 -4.9122 0.8637 0 7212
-5.5094 -0.19913 1.0387 2 7796
-5.4965 -4.4542 0.49471 0 7336
-5.4819 2.1594 0.68901 2 9095
-5.4537 4.5876 0.49834 1 11450
-5.4461 -7.7118 0.8808 0 6726
-5.4447 2.253 0.54973 0 9189
-5.4443 5.6813 0.55024 0 12353
-5.4127 1.2198 0.38799 0 8476
-5.4106 -4.2838 0.48258 0 7362
-5.3932 -4.2961 0.48216 1 7355
-5.3921 5.7904 1.112 1 12474
-5.3721 5.8359 1.1148 2 12524
-5.3538 -0.020557 1.0087 2 7897
-5.3457 -7.0376 0.20518 0 6784
-5.3283 2.3157 1.0946 0 9292
-5.3233 4.1966 0.63241 2 11161
-5.312 6.968 1.6508 1 13327
-5.2926 3.4951 0.44351 2 10431
-5.2744 -4.4054 0.64114 1 7305
-5.2682 6.9104 1.4276 2 13325
-5.2539 4.1897 1.104 2 11218
-5.2381 -3.4973 0.14623 2 7465
-5.2366 1.3406 0.8881 0 8558
-5.2135 3.4664 0.43779 0 10457
-5.199 -4.1162 0.61866 2 7363
-5.1821 -4.8595 0.99843 0 7151
-5.1793 2.5227 0.53747 0 9525
-5.1723 -4.4458 0.63631 2 7261
-5.1713 -7.8487 0.8769 0 6668
-5.1656 -6.6022 -0.39093 0 6813
-5.1645 4.8278 1.332 0 11893
-5.1548 4.0158 1.0736 2 11113
-5.1525 3.3168 0.8612 0 10343
-5.1499 2.6387 0.67669 2 9641
-5.1342 -0.16942 0.60073 1 7803
-5.1279 -4.8391 0.99091 0 7145
-5.1128 2.3635 0.79162 2 9414
-5.1008 -7.0078 0.20124 0 6749
-5.0694 -5.404 1.396 0 7001
-5.0367 4.1152 0.45481 2 11316
-5.0317 -5.7537 1.2558 2 6914
-5.0215 3.9814 0.44812 0 11187
-5.02 3.4838 0.71456 0 10638
-5.0174 2.5532 0.65834 0 9625
-5.0142 2.1264 0.76545 0 9240
-5.013 2.1444 0.76629 2 9254
-5.0091 4.1174 0.45342 0 11341
-5.0039 4.9276 0.49109 0 12104
-5.0033 -4.1538 1.0684 1 7312
-4.997 3.2799 -0.69899 0 10398
-4.9911 1.7851 0.99871 2 8948
-4.9911 1.9832 0.50106 1 9110
-4.9873 2.014 0.5018 1 9142
-4.9867 5.0269 0.49513 0 12199
-4.9675 7.4569 0 0 13880
-4.9651 3.9849 0.44519 0 11238
-4.9573 3.9531 0.59154 1 11212
-4.9568 1.5791 0.8547 0 8788
-4.9562 5.0206 0.49332 0 12225
-4.9451 3.5195 0.56627 2 10733
-4.938 1.7817 0.98908 2 8961
-4.9319 3.6842 0.7199 1 10926
-4.9256 3.5918 0.85675 2 10829
-4.9254 4.6544 -0.31602 1 11930
-4.925 7.3044 0.20453 0 13834
-4.9195 2.0862 0.62489 1 9238
-4.902 4.5297 0.93803 2 11843
-4.8812 6.214 -0.18346 2 13189
-4.8686 1.1572 0.46687 0 8505
-4.8684 -7.0257 1.6105 0 6713
-4.8646 6.1552 -0.36587 0 13163
-4.8489 5.2382 0 0 12493
-4.8461 1.0186 0 0 8441
-4.8398 -5.0699 0.98507 0 7025
-4.8323 -3.7591 1.1535 0 7382
-4.8257 3.2281 1.0939 1 10491
-4.795 3.2076 0.53822 2 10484
-4.7864 3.2418 0.53933 2 10539
-4.7648 3.4113 0.68529 0 10758
-4.7631 4.6093 0.15389 0 12026
-4.7586 0.52031 0.67276 0 8209
-4.7558 0.063087 0.78142 1 7955
-4.7477 1.6813 0.11694 0 8928
-4.7408 4.559 0.76915 0 12007
-4.7184 -7.435 0.82154 0 6630
-4.6937 1.8319 0.70811 2 9081
-4.6933 2.9464 0.77881 2 10246
-4.685 7.3033 0.60674 0 14039
-4.6826 4.425 1.2139 2 11943
-4.6825 2.4698 0.61908 0 9712
-4.6712 0.89784 0.11044 0 8393
-4.6594 4.2308 1.034 2 11773
-4.6547 0.26513 0.54521 0 8079
-4.6429 -0.085907 0.76294 2 7849
-4.6374 4.4099 1.2057 1 11966
-4.6289 -5.6756 1.2033 0 6841
-4.6221 5.11 0.96837 2 12597
-4.6214 2.152 0.71646 2 9431
-4.6109 2.23 0.96501 2 9514
-4.6094 0.11587 0.86873 1 7993
-4.598 5.5521 0.84302 1 12970
-4.5957 2.9221 0 0 10287
-4.5909 4.1921 0.87373 2 11795
-4.5906 4.0944 0.57389 2 11693
-4.5822 5.5626 0.84279 0 12995
-4.5818 4.8097 0.93357 2 12382
-4.5808 1.0475 0.77202 1 8483
-4.5789 4.061 1.1531 2 11676
-4.5719 4.1982 0.87234 1 11820
-4.5677 2.1426 0.95057 1 9449
-4.5514 4.0594 1.1491 1 11700
-4.5456 -4.8711 0.77914 0 6990
-4.5437 5.2639 0.97727 1 12792
-4.5395 4.0261 0.56608 2 11669
-4.5297 6.3905 1.1009 2 13643
-4.5165 6.332 1.2778 0 13618
-4.489 2.692 0.61211 0 10091
-4.4874 7.3171 1.0038 0 14214
-4.4834 3.5983 1.0831 2 11247
-4.4715 6.3083 1.2704 2 13645
-4.4461 3.7188 0.9523 2 11430
-4.4352 1.911 -1.3848 0 9266
-4.4337 5.1076 0.95055 2 12768
-4.4261 4.2832 0.57463 1 12030
-4.4256 1.6988 0.77883 0 9056
-4.4213 -4.0048 0.83838 0 7195
-4.4187 4.2255 0.85925 0 11985
-4.4141 4.7402 1.0642 0 12476
-4.403 1.1272 0.53151 0 8556
-4.4013 1.4872 0.76326 1 8865
-4.3993 4.407 0.58095 2 12175
-4.3951 1.3027 0.42767 0 8693
-4.3906 4.2741 0.57166 2 12054
-4.3882 1.9226 0.67332 1 9305
-4.3835 5.5465 1.332 1 13176
-4.3798 4.4151 0.5802 2 12201
-4.3681 4.7719 1.0629 2 12549
-4.3644 6.2726 -1.4397 0 13718
-4.3524 3.0589 0.6221 1 10686
-4.3498 4.1829 0.84812 2 12009
-4.3391 0.46065 0.7169 1 8201
-4.3381 2.7925 0.97205 2 10346
-4.3282 -3.1863 0.12478 0 7422
-4.3167 4.01 0.68901 0 11864
-4.3064 1.902 0.66163 0 9322
-4.304 2.9514 0.73344 1 10586
-4.2952 3.6555 0.3944 0 11499
-4.2894 -4.9292 0.15171 0 6904
-4.2885 -8.5638 -0.44664 0 6384
-4.2872 3.6281 0.39273 1 11474
-4.2867 2.7774 0.71785 0 10368
-4.2826 -3.9037 0.54063 0 7188
-4.2781 3.081 0.61653 2 10781
-4.2731 4.5888 0.14558 0 12469
-4.2688 1.401 -0.10431 0 8819
-4.2671 7.6413 1.23 0 14534
-4.2479 1.3811 -0.10371 0 8807
-4.2398 4.5007 1.165 1 12432
-4.239 -5.8603 1.3627 1 6745
-4.2206 3.7223 0.52503 2 11646
-4.189 2.5943 0.92835 1 10206
-4.1815 3.8843 0.53246 2 11862
-4.1814 -2.705 0.58238 0 7474
-4.1771 4.4591 0.8587 2 12450
-4.1763 0.29789 -0.097207 0 8113
-4.1741 2.8806 -0.35464 2 10597
-4.171 -5.7304 0.82885 0 6751
-4.1607 4.9061 0.90407 0 12871
-4.1565 3.5374 1.0283 2 11508
-4.1508 5.8558 1.3524 2 13647
-4.1308 6.6936 1.482 2 14193
-4.1186 4.8002 0.73965 2 12817
-4.1082 2.6791 0.57355 0 10389
-4.0981 3.3483 0.74374 2 11322
-4.0908 2.7015 0.80541 1 10439
-4.0878 5.9478 1.0143 0 13764
-4.0768 5.2219 0.77473 1 13220
-4.0725 -0.51448 -0.095304 0 7563
-4.0683 -3.4968 -0.12455 1 7257
-4.067 2.8775 0.58261 1 10710
-4.0642 5.2985 0.46695 0 13291
-4.0634 5.9501 1.0126 0 13791
-4.0593 3.4756 1.0069 1 11531
-4.0579 3.199 0.72621 1 11165
-4.0576 6.2866 1.4097 1 14021
-4.0561 4.562 0.71386 2 12673
-4.0501 5.3126 0.93886 1 13323
-4.0415 5.2066 0.77078 1 13244
-4.0274 4.2993 0.96786 2 12452
-4.0214 6.6453 1.4634 2 14261
-4.0203 2.6218 0.78855 2 10393
-4.0147 4.6248 0.71619 2 12766
-4.0014 5.1549 0.60881 1 13243
-3.9811 6.713 1.4705 2 14332
-3.9775 3.0443 0.70394 2 11033
-3.9668 3.318 0.48248 1 11424
-3.966 -0.13087 0.74764 0 7806
-3.9618 5.1352 0.6051 2 13267
-3.9475 -2.6676 -0.33316 2 7460
-3.9416 2.4745 0 0 10238
-3.9382 3.4114 0.98168 2 11579
-3.9275 3.2284 0.71451 2 11346
-3.9165 -4.6379 0.14094 0 6878
-3.9136 5.1973 0.91437 2 13376
-3.8956 -5.9124 0.99509 0 6669
-3.8648 1.0262 0.56198 0 8585
-3.8581 1.0359 0.56142 0 8597
-3.8528 3.6638 0.87351 2 11964
-3.8499 4.5671 0.83949 2 12898
-3.834 1.2955 0.093957 0 8858
-3.833 7.9609 0.82432 0 14968
-3.8319 5.611 -0.31686 0 13778
-3.8257 4.5642 0.83699 0 12925
-3.8256 0.79295 -0.090708 0 8433
-3.8236 6.7996 0.5455 0 14508
-3.8154 3.6487 0.86734 1 11987
-3.8108 4.2621 0.93933 2 12650
-3.8041 -7.9969 -0.2056 1 6324
-3.8007 4.5087 0.96883 1 12900
-3.7925 5.4853 1.2564 2 13743
-3.7873 -4.458 0.96105 0 6886
-3.7836 7.11 -1.3232 0 14664
-3.7783 -7.3329 0.38469 0 6412
-3.7765 -8.7062 0 0 6203
-3.7762 4.4245 0.8175 2 12843
-3.7656 3.498 0.96835 0 11869
-3.7641 7.1181 1.3229 0 14708
-3.7609 1.1635 0.74172 0 8751
-3.7457 -0.52843 0.53164 0 7545
-3.7334 4.1521 1.052 1 12626
-3.7181 3.3761 0.46855 0 11767
-3.6995 3.2627 0.23003 2 11645
-3.698 3.901 0.75543 0 12408
-3.6953 3.4147 0.94798 2 11847
-3.6814 2.7661 0.64715 2 10953
-3.6786 3.7933 0.74263 0 12303
-3.6773 -2.8927 -0.10863 0 7367
-3.6699 3.3699 0.46483 1 11817
-3.6591 3.1696 0.56612 1 11575
-3.6497 3.3726 0.81644 1 11845
-3.645 3.8037 0.7404 0 12357
-3.6242 3.2324 0.6825 0 11697
-3.6176 4.834 0.5633 2 13399
-3.6023 -6.4773 1.3964 0 6493
-3.5982 3.1367 0.55822 2 11599
-3.5971 -4.6541 0.82669 0 6802
-3.581 3.0123 -1.3418 0 11451
-3.5711 7.3089 0.75893 0 14932
-3.5707 -3.4894 0.23282 0 7110
-3.5605 0.95602 0.60568 0 8599
-3.5529 -4.652 0.9617 0 6792
-3.55 5.0699 0.86983 1 13694
-3.5277 5.1023 0.87178 0 13740
-3.5249 1.0676 -0.085509 0 8718
-3.5083 0.34276 0.081841 0 8181
-3.4973 -4.3638 0.39105 0 6830
-3.4973 0.33183 0.081563 0 8174
-3.4902 1.1685 0.60471 1 8850
-3.4791 9.2756 1.3923 0 15662
-3.4658 3.4525 0.92169 1 12156
-3.4618 6.8324 1.2584 1 14849
-3.4575 2.842 -1.2834 1 11342
-3.4566 5.1576 1.0201 2 13865
-3.4543 -7.5973 0.77862 2 6264
-3.4294 1.2144 0.16966 0 8929
-3.4261 4.864 0.69574 0 13667
-3.4048 5.1755 1.1672 1 13946
-3.3968 0.51129 0.079752 0 8299
-3.393 -4.7184 1.095 0 6740
-3.3877 0.044939 0 1 7951
-3.3727 0.49683 0.079149 0 8291
-3.3461 3.0554 0.74446 1 11797
-3.3394 1.0229 0.65803 0 8737
-3.3165 3.5827 0.91984 0 12501
-3.3129 0.5176 -0.077849 1 8313
-3.3024 -2.6924 -0.098924 0 7327
-3.2827 -3.4798 0.78596 0 7009
-3.2765 -4.5297 -0.12979 0 6744
-3.2745 4.7948 -1.2342 2 13792
-3.2699 -5.796 0.31034 0 6506
-3.2582 -2.1208 0.73246 0 7473
-3.2373 0.49653 -0.076039 0 8307
-3.2357 8.3292 0.20746 0 15574
-3.2279 9.428 0.23137 0 15849
-3.2266 8.1702 1.4432 0 15540
-3.2244 -4.8604 0.54416 1 6675
-3.2185 2.5831 0.095814 2 11235
-3.211 5.2709 0.72176 0 14236
-3.2067 5.1639 0.71084 2 14164
-3.1892 5.2702 0.72037 0 14258
-3.1723 0.87082 0.46233 0 8618
-3.1718 4.9749 0.82919 2 14065
-3.1601 -3.9927 0.71563 0 6822
-3.1583 -5.0076 0.13745 0 6620
-3.1491 4.7867 0.80526 0 13942
-3.1349 3.8057 0.22994 0 12989
-3.1142 -6.0002 0.15695 0 6417
-3.1092 -3.7691 0.34167 0 6854
-3.1017 -3.3437 -0.10589 0 6977
-3.0832 -8.8836 -0.21832 0 5927
-3.0815 -5.0463 0.97143 1 6597
-3.0724 1.1286 0.075992 0 8983
-3.0587 -3.9333 0.11568 0 6807
-3.045 4.8693 0.94354 2 14140
-3.0443 9.1409 0.67371 0 15904
-3.038 4.8921 1.085 2 14170
-3.0188 3.7533 -0.11183 0 13090
-3.0056 -3.2583 -0.10292 0 6968
-3.0056 -3.204 0.72176 0 6999
-3.0004 1.0926 0.074135 0 8968
-2.9938 8.4261 1.4691 0 15782
-2.9806 8.5446 0.2101 0 15813
-2.9421 5.3385 0.56868 0 14576
-2.9182 5.6806 0.59581 0 14803
-2.9034 2.6512 0.18335 0 11790
-2.9019 1.2306 0 0 9231
-2.8861 6.1781 0.95835 2 15058
-2.8709 2.6068 0.18084 1 11764
-2.8643 8.2113 -1.2222 0 15805
-2.8499 5.9191 -0.92327 0 14957
-2.8466 5.8675 -0.76265 0 14939
-2.8416 7.9979 0.19706 1 15773
-2.829 8.1102 1.0045 0 15819
-2.8073 4.7 -0.89944 0 14286
-2.8027 6.8033 0 0 15431
-2.797 -5.2782 0.27857 0 6434
-2.7877 8.0595 1.6068 0 15840
-2.7845 7.9069 -0.39093 0 15791
-2.7775 -5.5465 0.57872 1 6388
-2.7696 5.7962 1.0554 1 14992
-2.7398 -1.9572 -0.078174 0 7437
-2.7321 -2.2021 0.08147 0 7341
-2.7306 6.3161 0.80469 0 15301
-2.7051 8.0568 0.39633 0 15884
-2.6957 5.3598 -0.27978 0 14859
-2.6923 -6.3059 0.96363 0 6189
-2.689 -3.6714 -0.10566 0 6755
-2.6882 -1.9331 -0.076874 2 7434
-2.6663 7.7085 -0.76097 2 15826
-2.6597 8.4769 0.41431 0 16002
-2.6441 -5.9528 0.76172 0 6235
-2.6266 -5.4431 0.56385 0 6345
-2.6172 8.8754 1.7434 0 16103
-2.6117 7.0264 1.4123 0 15683
-2.5863 8.5071 1.6753 0 16051
-2.5829 -5.4665 0 0 6312
-2.5607 -2.6666 0.085834 0 7029
-2.5501 8.2127 1.2086 0 16020
-2.5442 7.0282 1.0505 0 15740
-2.5395 -7.6744 1.3281 1 5885
-2.5371 -3.0571 0.6527 0 6863
-2.5292 -2.589 0.42325 0 7060
-2.527 -2.6022 0.42418 0 7050
-2.5148 3.483 0 0 13553
-2.4999 -1.8641 0.21806 0 7414
-2.4845 7.8463 0.76784 0 15987
-2.4823 -6.8948 0.85696 0 5973
-2.4632 -4.9884 0.91404 0 6372
-2.4383 4.166 0.56449 0 14375
-2.4123 -2.1988 0.22824 0 7187
-2.3979 -5.1166 1.0646 0 6306
-2.3885 2.7838 -0.17105 0 12806
-2.3831 -4.0863 0.33079 0 6547
-2.3699 -5.1361 1.0657 0 6284
-2.357 2.8961 0 0 13038
-2.3479 9.1246 1.1018 0 16292
-2.3143 7.0224 -0.34481 0 15918
-2.3046 2.2553 -0.15037 0 12073
-2.2982 3.0867 -0.72506 1 13429
-2.2924 -3.6587 0.60679 0 6617
-2.2885 7.0183 -0.34425 0 15934
-2.2658 -2.7781 0.67543 0 6843
-2.2523 -3.6184 0.599 0 6610
-2.2514 -2.7605 0.16612 0 6840
-2.2487 2.699 0.081563 0 12943
-2.2475 6.7484 1.3401 0 15910
-2.2466 3.3724 0.5695 2 13891
-2.2442 4.4933 -0.23422 0 14877
-2.2309 8.7714 -0.84439 0 16300
-2.2255 8.1517 0 0 16209
-2.2209 8.2368 0.7959 0 16228
-2.2204 -5.7934 -0.14405 0 6047
-2.2196 -4.3713 0.57332 1 6399
-2.2032 2.1561 0.50646 0 12087
-2.1694 8.234 0.79441 1 16258
-2.1618 7.5842 -0.92224 0 16140
-2.14 -2.4889 -0.15307 0 6894
-2.1381 3.933 0.41764 0 14617
-2.1206 5.7513 1.0071 0 15705
-2.1181 -3.9686 -0.41969 1 6439
-2.1066 5.7691 1.009 0 15724
-2.0779 7.8867 0.18935 0 16255
-2.0754 -4.6724 0.1187 0 6231
-2.0459 -3.8333 0.40538 0 6443
-2.0414 5.2143 0.52242 1 15556
-2.0197 -3.9486 -0.20683 0 6403
-2.0084 2.2463 -0.069957 2 12638
-2.0059 3.3823 0.27498 0 14326
-1.9801 5.573 0.55178 0 15778
-1.9361 5.3021 -0.79329 0 15708
-1.9019 -3.1765 0.60828 0 6571
-1.8997 2.9075 -0.080634 0 13959
-1.8985 -3.1509 0.60439 0 6579
-1.8862 5.2106 -0.77881 0 15727
-1.8797 -3.837 0.70198 0 6364
-1.8609 4.7903 -0.84432 0 15565
-1.8551 4.9458 -0.24633 0 15651
-1.84 2.3988 0.070189 0 13288
-1.8311 -4.3924 0.22192 0 6157
-1.8292 2.3995 0.07005 0 13315
-1.8247 3.6823 -0.57757 0 14888
-1.8051 6.4738 0.31341 0 16179
-1.7963 -5.3778 -0.26441 0 5887
-1.7724 -5.3562 -0.2631 0 5877
-1.7649 -6.2914 -0.15171 1 5709
-1.76 -4.0228 0.40965 1 6217
-1.7438 -7.4521 1.2574 0 5542
-1.7327 -3.5906 0.46623 0 6346
-1.7132 4.6916 -0.23292 0 15713
-1.702 5.4246 -0.53041 0 15996
-1.6873 -5.0517 0 0 5888
-1.6845 -5.0905 0 0 5878
-1.6729 -6.9681 -0.16637 0 5558
-1.651 2.8573 0.23075 0 14418
-1.6432 -3.3045 0.60633 2 6381
-1.6409 2.8216 0.22824 0 14396
-1.6108 3.8152 0.58202 0 15373
-1.6079 5.7012 0.27624 0 16164
-1.5937 -8.582 0.61037 0 5369
-1.5746 -3.0783 0.56807 0 6408
-1.5647 -8.0346 1.1504 1 5404
-1.5628 -9.1429 -0.21535 0 5314
-1.5463 4.1936 -0.52268 0 15688
-1.4813 -5.4672 1.0672 0 5680
-1.4535 -5.0161 0.61072 1 5743
-1.4478 3.9265 0.58815 0 15703
-1.4475 -2.8507 0.52527 1 6400
-1.4448 6.2933 -0.30112 0 16437
-1.444 3.5331 -0.62708 0 15442
-1.4397 5.879 0.70782 0 16368
-1.41 6.7671 -0.32236 0 16586
-1.4075 4.0351 0.29884 0 15816
-1.4012 6.1033 1.0288 0 16451
-1.3985 -6.3928 0 0 5479
-1.3954 -6.9516 -0.33065 0 5416
-1.393 -8.4511 1.4072 0 5299
-1.377 -3.3609 0.68432 1 6141
-1.3721 5.9765 0 0 16440
-1.3572 4.9239 0.35715 0 16196
-1.3569 -6.4669 1.245 0 5453
-1.3474 6.9706 -0.83025 0 16674
-1.3471 -9.3366 1.3258 0 5245
-1.3352 3.0649 -0.077617 0 15267
-1.3302 2.9806 -0.45871 0 15184
-1.3282 -6.0712 0.43458 0 5482
-1.3279 3.7374 0.27735 0 15776
-1.3051 4.0359 -0.2966 0 15949
-1.3004 3.4669 0.43301 0 15660
-1.2983 4.0582 0.098924 0 15968
-1.2783 7.4238 1.2376 0 16820
-1.2459 8.9214 0 0 16975
-1.1922 -9.6543 1.5982 0 5191
-1.19 7.1497 0.16828 0 16843
-1.1676 4.0478 -0.09781 0 16126
-1.1637 3.4302 0.33794 2 15869
-1.162 4.2562 0.51594 0 16213
-1.1517 3.4301 0.33757 2 15887
-1.1424 -7.0534 0.83559 0 5293
-1.1374 3.0846 0.38446 0 15701
-1.1301 3.4291 -0.50743 1 15913
-1.104 5.6218 1.0794 0 16670
-1.103 5.7065 0.95489 0 16687
-1.0939 -6.0917 1.1661 0 5352
-1.0888 -8.8167 1.6738 1 5192
-1.0865 9.3475 1.773 0 17095
-1.0786 -6.0984 1.1668 0 5340
-1.0738 -9.6185 1.5901 0 5170
-1.0648 9.3896 1.7804 2 17110
-1.0531 -6.161 0.14511 1 5316
-1.0504 -3.8767 0.56449 1 5678
-1.0186 -5.0748 0 0 5417
-0.96033 3.2566 -0.31676 0 16090
-0.94188 6.4721 1.0745 2 16953
-0.92384 7.0458 0.16498 0 17014
-0.91418 -6.6136 1.0969 0 5229
-0.8798 6.431 -0.3027 1 16986
-0.87827 -6.6442 0 0 5209
-0.85519 -8.801 1.666 0 5140
-0.83339 6.3559 0.74964 0 17019
-0.82661 6.6176 0.62219 0 17047
-0.81938 5.3051 -0.88194 0 16894
-0.81384 5.6969 -0.67298 1 16958
-0.81357 7.3811 0.69279 0 17123
-0.78727 6.449 1.0674 2 17067
-0.78636 7.3098 0.17069 1 17136
-0.78101 5.8301 0.82669 2 17005
-0.75567 -9.1523 1.0739 0 5115
-0.73882 -6.2798 -0.29487 0 5180
-0.73371 -3.6031 -0.085369 0 5426
-0.73089 -4.7764 0 0 5266
-0.70595 5.7828 0.40738 0 17062
-0.67723 -9.9597 0.93133 0 5069
-0.66792 -6.4744 1.0693 0 5152
-0.60135 -5.8291 0 0 5150
-0.58883 -7.9612 1.3116 0 5091
-0.58231 -3.5328 0.33404 1 5298
-0.5361 -3.3696 0.64285 0 5286
-0.52587 -8.4527 1.5956 0 5053
-0.50954 7.0395 0.82537 0 17270
-0.48833 3.2793 -0.46595 1 16924
-0.48765 -6.1009 0.1421 0 5108
-0.45905 -4.8744 0 1 5134
-0.42184 -7.8911 1.1106 0 5034
-0.40114 -3.1013 0.072603 1 5203
-0.38967 -9.2588 1.746 0 5004
-0.37688 -7.05 -0.16391 0 5032
-0.37246 3.2044 -0.68569 0 17092
-0.3618 -4.7236 0.44198 0 5101
-0.33265 7.6804 -0.35851 0 17367
-0.32957 -7.3426 -0.17065 0 5011
-0.28494 3.2833 0.46317 2 17220
-0.27101 -8.1695 0.57158 0 4980
-0.26811 9.3076 0.21619 0 17420
-0.26611 -7.3272 -0.17023 1 4988
-0.23396 -3.2881 -0.15373 0 5075
-0.23067 3.6259 -1.1337 0 17302
-0.22986 4.1768 -1.3053 1 17330
-0.22961 -7.5583 0.35264 0 4973
-0.19183 -8.8623 0.41338 0 4953
-0.17543 -5.2882 0.86929 0 4981
-0.16532 3.5718 0.41814 0 17363
-0.16468 -7.6082 0.17668 0 4952
-0.15562 -8.3323 -0.19349 0 4945
-0.11122 4.3048 0.70749 0 17433
-0.099826 4.3323 -0.60902 0 17435
-0.099655 4.3249 0.71074 1 17444
-0.091655 3.9777 0.3712 0 17441
-0.068869 -5.4051 0.8881 1 4932
-0.066674 -6.7018 1.2627 0 4924
-0.039721 4.6442 -0.54312 0 17478
-0.038314 4.4798 0.73603 0 17484
-0.035704 -4.8707 0.5696 0 4919
-0.013465 4.8213 0.79212 0 17506
0.0074061 -5.3042 -0.24736 1 4895
0.0082551 -5.9123 0.55159 0 4898
0.011516 -8.2478 0.19149 0 4897
0.026824 -3.7484 0.43835 0 4881
0.033331 -7.6388 0.71267 0 4889
0.033599 3.7748 -0.53053 1 17538
0.044168 3.8341 -0.53888 1 17548
0.06874 7.7228 -0.54005 0 17541
0.11646 -5.3373 0.12395 0 4850
0.12181 -9.4308 1.5495 0 4868
0.12184 8.3101 0.38757 0 17568
0.12479 3.8845 -0.27177 0 17625
0.12623 8.6096 1.6223 0 17572
0.13703 3.924 -0.27456 0 17634
0.1387 -5.5953 0.78661 0 4844
0.14363 9.7962 -1.1457 0 17560
0.1498 8.4972 -1.1944 0 17573
0.15037 -6.0661 0 0 4842
0.15416 -5.6246 0.79078 0 4837
0.16342 9.2699 0.64832 0 17582
0.17736 -3.9668 0.37045 2 4800
0.17845 -5.3512 0.24969 0 4825
0.19468 3.5263 -1.0127 0 17707
0.2033 3.9053 -0.83123 0 17697
0.2175 -7.1187 0 1 4831
0.24053 3.4572 -1.171 0 17751
0.24415 -4.1096 0.67637 0 4770
0.24731 -3.7934 0.35466 0 4757
0.24949 8.5064 0.99518 0 17623
0.24956 3.4394 -1.1652 0 17763
0.25208 3.9408 -1.1323 0 17734
0.26959 -7.4229 0.69297 0 4818
0.28576 -5.048 0.47171 0 4776
0.30611 -6.0637 -0.28313 0 4788
0.33102 -9.1144 1.2818 1 4819
0.33468 -5.9121 -0.27615 0 4775
0.35512 7.6437 0.17766 0 17676
0.35851 -8.5537 1.4066 0 4806
0.3847 -5.011 0.58772 0 4737
0.39771 -6.3927 0.90017 1 4765
0.42119 -5.4864 -0.12775 0 4736
0.44416 -6.813 0.79842 0 4758
0.44628 8.0835 0.18796 0 17704
0.44651 -4.5951 -0.10719 0 4691
0.4661 -8.2337 1.5538 0 4777
0.4687 -4.0821 0.095396 0 4658
0.48039 -8.957 1.2606 0 4783
0.53677 -6.4873 1.2264 1 4725
0.54551 -5.6139 0.92668 0 4692
0.56538 -4.8056 0.22565 0 4652
0.56849 -6.2346 0.87985 0 4703
0.59104 -7.1431 1.0073 0 4724
0.60415 -3.8016 0.35912 0 4566
0.6148 5.4213 1.028 0 17888
0.62161 3.1654 -1.3474 0 18112
0.63209 -7.3881 1.0421 1 4718
0.63427 8.4159 0.19595 0 17772
0.63877 -3.0443 0.14506 0 4457
0.64467 -4.213 0 0 4579
0.64576 -4.1379 0 0 4572
0.64934 -3.0523 0.14553 0 4450
0.66042 8.4291 1.1883 0 17785
0.68639 8.4389 1.1899 0 17798
0.69547 6.4649 0.15096 0 17869
0.70681 -8.2616 0.19251 0 4717
0.71876 5.1403 -1.2298 1 17965
0.74592 -5.5097 0 0 4616
0.75532 5.6309 0.53004 0 17947
0.76278 -3.9723 0.76209 2 4497
0.77536 -3.0687 0.073485 0 4371
0.77997 -3.051 0.073114 0 4364
0.783 -9.1521 -0.21326 0 4716
0.78689 -5.6854 0.80665 0 4612
0.78984 -5.4811 0.90982 0 4600
0.79229 -3.3859 0.57131 0 4401
0.80955 -3.326 -0.079474 0 4388
0.81619 -6.4428 -0.15078 0 4633
0.82075 -4.9793 0.23534 0 4553
0.83026 -3.2104 0 0 4358
0.84657 -9.5421 0.44674 0 4710
0.8571 3.7333 -0.81418 0 18205
0.85956 5.7791 -0.54509 0 17987
0.86708 -4.0172 0.77431 0 4444
0.86911 8.5266 0.79961 0 17855
0.87771 -4.883 0.69726 1 4523
0.89254 5.3566 1.0232 0 18032
0.89405 3.3135 0.56386 1 18333
0.8941 -5.1389 0.85697 0 4536
0.89908 -3.517 0.16928 0 4365
0.89964 3.2953 -0.64359 0 18347
0.9018 3.3032 0.56256 0 18346
0.90957 -5.6221 0.66601 0 4559
0.9114 -7.0463 1.3386 0 4627
0.92626 -2.8815 0.14115 0 4225
0.93358 5.4161 0 0 18042
0.94118 4.1527 0 0 18193
0.94997 4.243 0 0 18187
0.95392 7.4465 0.70041 0 17928
0.9679 5.4228 -0.12789 0 18062
0.96981 5.3471 1.0239 0 18076
0.99099 7.3878 0.17306 0 17946
0.99541 -4.4242 -0.10528 0 4419
1.0038 -9.2251 1.5246 0 4670
1.0075 -9.2588 -0.21623 2 4669
1.0173 -5.4728 0.12924 1 4509
1.0254 -3.7845 0.36581 1 4335
1.0279 4.1914 0.60652 0 18253
1.0354 -5.3921 0.64208 0 4496
1.0442 -5.2022 0 0 4477
1.048 7.4946 -0.52917 0 17961
1.049 7.1818 0 0 17981
1.0493 -8.112 1.1496 0 4625
1.0519 3.0395 0.45203 0 18637
1.0519 8.4092 -1.191 0 17913
1.0531 -3.9745 0.77468 0 4346
1.0618 -4.4193 0.53151 0 4393
1.0685 -9.5559 0.22324 0 4664
1.0692 3.7884 0.27526 0 18377
1.07 5.7064 1.0939 0 18092
1.0794 4.8888 -0.23348 0 18176
1.086 3.1115 0.46317 0 18650
1.0884 -7.3882 1.2269 1 4593
1.0906 4.2882 0.72695 0 18277
1.0947 3.7534 0.18233 2 18412
1.1027 6.994 -0.99509 0 18006
1.1032 3.1292 -1.4773 1 18660
1.1069 -7.2338 0.1699 0 4580
1.1087 3.7597 0.18279 1 18426
1.1283 -7.6591 1.4586 0 4594
1.1481 2.8822 -0.96809 0 18819
1.1507 6.782 -1.2961 2 18039
1.161 2.8882 0.36402 0 18832
1.1788 4.1274 0.80874 1 18395
1.18 -4.4068 0 0 4340
1.1851 4.1992 0.82208 0 18381
1.1861 7.2511 1.2071 1 18024
1.2002 -3.4272 0.5966 1 4171
1.2112 3.8601 -1.2624 1 18501
1.2194 9.2997 0.87504 0 17936
1.2291 -4.9297 0.11796 0 4377
1.245 9.089 -1.2893 0 17953
1.2559 -3.9857 0.097021 1 4239
1.2818 6.5275 -0.15444 0 18113
1.286 -8.924 0.42046 0 4599
1.2888 6.6611 -1.2783 0 18108
1.2983 -9.1915 1.3046 0 4606
1.2999 -6.1101 0.5828 0 4451
1.3054 3.1175 -0.23633 1 18890
1.3116 6.6789 -0.63501 0 18111
1.3228 4.8453 0.70589 0 18345
1.3274 5.1588 -0.49697 1 18280
1.3381 3.1708 -0.24066 1 18905
1.3476 7.1867 1.2013 0 18091
1.3677 -9.4912 1.8067 0 4601
1.3703 -6.9331 1.1611 0 4484
1.3896 2.7427 0.14338 0 19235
1.4044 6.6356 -0.3163 0 18151
1.4183 4.9201 -0.23879 0 18399
1.4206 7.3423 -1.051 0 18101
1.4214 -6.9737 0.66399 0 4470
1.4229 -8.9535 0.63395 0 4565
1.4268 5.8931 -1.1424 1 18242
1.4301 -4.9939 0.97871 0 4306
1.4343 5.7061 -0.41142 0 18265
1.4378 -6.9549 0 0 4463
1.4407 -7.0687 0 0 4469
1.4416 -4.4447 0.32674 0 4217
1.4464 7.0339 -0.83977 0 18136
1.4601 -7.8548 0.37257 0 4510
1.4754 4.3515 -1.3175 0 18608
1.4757 6.5111 -0.155 0 18192
1.4762 -7.243 1.3927 0 4471
1.486 -7.188 -0.17041 0 4462
1.4946 -6.8263 0 0 4433
1.5032 -4.6763 0 0 4223
1.5153 -3.8886 -0.19463 0 4133
1.5159 3.6204 0.7395 0 18899
1.526 5.9306 0.86065 0 18287
1.5319 6.3274 0.15115 0 18236
1.5359 7.9385 1.5234 0 18109
1.5531 6.3326 0.15138 0 18248
1.5652 6.5496 0 0 18225
1.569 5.0531 0.86929 0 18490
1.576 -7.0974 0.50839 0 4427
1.5818 -5.5237 -0.26795 0 4304
1.5832 -6.8468 0.65563 0 4408
1.5961 4.9385 -1.1032 0 18542
1.5981 6.7656 0.64857 1 18218
1.6144 7.5243 -0.89994 0 18159
1.6235 4.4801 0.6697 0 18702
1.6287 -7.239 0 0 4420
1.6294 -3.6978 0.093818 0 4087
1.6304 -3.6413 0.18605 0 4078
1.6372 4.365 0.87836 0 18744
1.6376 -3.4943 0.089594 0 4050
1.651 -4.2765 0.42767 2 4137
1.6522 -5.7017 0.55382 2 4299
1.6545 2.6304 0.43673 2 19638
1.6614 -7.5882 0.18035 0 4434
1.6647 -5.6856 0.55271 1 4289
1.6654 -4.3477 0.43436 0 4140
1.6668 -3.7542 -0.19155 1 4082
1.6834 -6.0742 0.29394 0 4322
1.6849 -7.8062 0 0 4442
1.6926 -6.1746 0.4477 0 4327
1.7002 4.9631 -0.24466 0 18616
1.7016 -5.5761 0 0 4260
1.7082 -3.2941 0.69913 0 3986
1.7103 -7.9237 0.56684 0 4443
1.7239 -6.1453 0.74638 0 4317
1.7319 -5.9769 0.43514 0 4298
1.738 5.8376 1.1476 0 18442
1.7443 9.7728 0.46295 0 18064
1.7474 -3.9959 0.82171 0 4092
1.7827 -3.6942 0.77282 0 4040
1.7899 -4.6363 0.34753 1 4136
1.8013 7.2623 1.4097 0 18262
1.8129 -5.4244 0.93965 1 4198
1.8157 4.0344 -0.83355 0 19036
1.8175 3.4855 0.36674 0 19286
1.82 6.3723 1.0888 2 18394
1.8562 4.0938 -0.84689 0 19047
1.8592 5.2735 1.0535 0 18667
1.8651 4.3141 0 0 18938
1.8677 7.0096 -0.33829 0 18312
1.899 -6.9272 0.67012 1 4328
1.9292 4.1619 0.86429 0 19084
1.9311 3.1724 0.1732 0 19569
1.942 4.3516 0.44458 2 19016
1.956 -3.9926 0 0 4028
1.9593 4.4614 0.11313 0 18967
1.9635 -5.6576 1.1283 0 4175
1.9706 -4.9318 0.49549 0 4124
2.0019 5.7358 -1.1446 0 18652
2.0029 8.1667 0.98333 1 18252
2.0108 -3.0892 -0.34389 1 3708
2.0117 6.1008 1.0554 1 18572
2.0187 6.7802 0.3299 0 18438
2.0291 -9.5379 0.2264 0 4449
2.0467 -4.1779 0.54405 0 4029
2.0481 -5.4866 0.13597 0 4149
2.0493 3.2988 0.45415 0 19611
2.0563 4.989 0.25164 0 18867
2.0574 3.1876 -0.17692 1 19687
2.0577 -4.2947 0.89725 1 4043
2.0613 -3.5359 0.095025 0 3879
2.0621 -3.8089 -0.20199 2 3945
2.078 4.1915 -1.2247 0 19199
2.079 7.2123 -0.17427 0 18401
2.0833 -9.5149 1.3689 0 4435
2.0839 4.4264 0.80379 1 19110
2.0883 3.2354 -1.1042 0 19689
2.0908 3.2183 -0.17897 0 19700
2.0916 3.2195 -1.1009 0 19704
2.1059 3.1625 -0.35448 1 19752
2.1186 9.0969 1.0923 0 18211
2.1193 -7.822 0 0 4334
2.1294 -3.8039 -0.30484 0 3915
2.1386 -3.6923 0.49898 0 3888
2.1396 6.5499 0.32133 0 18555
2.1402 -3.7189 0.50177 0 3897
2.1477 -3.8366 0.10208 0 3916
2.171 -6.9659 0.68071 0 4247
2.1827 8.0896 -0.39074 0 18325
2.1846 4.8541 -0.37222 2 19028
2.2168 5.9577 1.0444 0 18731
2.2237 -3.15 -0.17981 0 3554
2.2255 5.4452 0.13657 0 18854
2.2256 -5.4728 0 0 4118
2.2397 2.3234 -0.074924 0 20707
2.2407 -6.9706 1.2029 1 4226
2.2669 3.2386 0.55558 0 19862
2.2757 6.5755 -0.16155 0 18631
2.3025 -4.7715 0 0 4038
2.3041 5.4124 0.13657 0 18918
2.316 -5.0563 0.91371 0 4067
2.3194 -7.2896 0.35674 0 4232
2.3275 7.2018 1.2435 0 18543
2.3391 5.4104 0.54992 0 18941
2.3397 -5.189 -0.39803 1 4074
2.3408 3.6267 -1.13 1 19690
2.3886 -6.073 0.91715 0 4130
2.3996 4.3255 -0.46149 0 19394
2.4001 -7.5432 1.3005 0 4233
2.4011 -9.6301 1.6306 0 4378
2.4094 -5.8776 1.1968 0 4117
2.4235 -4.8736 0.63651 0 4020
2.4294 7.1651 -0.35282 0 18604
2.4331 2.7366 -1.1426 0 20468
2.4397 4.3086 0.69587 0 19442
2.4461 -4.5184 0 0 3946
2.4479 -6.2239 0 0 4129
2.451 -4.6272 -0.24419 0 3968
2.4769 2.8353 -1.2721 0 20418
2.4913 2.8378 -1.276 0 20435
2.5123 -6.0771 0.45983 0 4114
2.5124 -5.1696 -0.26804 0 4035
2.5274 -5.6927 1.0233 0 4084
2.5332 6.4113 1.1326 0 18811
2.5378 3.2894 -1.1913 0 20100
2.5525 2.9404 -0.18158 0 20398
2.5542 6.5716 -1.4986 1 18788
2.5663 -8.2343 0.60311 0 4246
2.5743 7.2375 0.89831 0 18679
2.5773 4.4587 0 2 19473
2.5845 6.7682 1.1903 0 18767
2.6075 -4.9919 0.26264 0 3979
2.6285 -6.3582 0.64188 0 4115
2.6338 -4.9347 1.0539 0 3965
2.6453 7.9428 1.3754 1 18585
2.6485 2.6383 -1.2632 0 20837
2.6613 2.4165 0.67729 0 21144
2.6623 2.3762 0.33292 0 21203
2.6727 2.3705 0.3333 0 21224
2.6784 -1.3618 0.14012 0 1782
2.684 3.9553 0 0 19793
2.6848 3.7891 0.43325 2 19885
2.6985 6.7128 1.0168 0 18833
2.7115 -5.3009 0.55549 1 3999
2.7212 5.6491 0.88124 0 19146
2.7274 -1.3765 0.50193 0 1770
2.7309 3.2568 0.59733 0 20315
2.7365 -8.188 1.2133 0 4197
2.7456 5.6169 -1.1779 1 19175
2.766 6.5544 0.99982 0 18911
2.7782 8.1936 1.6301 1 18610
2.7927 -5.6605 0.88709 0 4024
2.7957 2.6754 0.45252 0 20969
2.8011 -6.9505 0.52401 0 4121
2.804 1.8293 0 1 22319
2.8058 1.8193 0 0 22343
2.8108 -1.41 0.14664 0 1753
2.8141 -2.4497 0.086623 0 2740
2.8192 -5.7546 1.0528 0 4032
2.8287 7.3383 -1.2921 0 18769
2.8328 -7.3376 0.3668 0 4135
2.8366 6.5613 -0.33335 0 18936
2.8399 1.5304 0 0 23045
2.8419 -5.6776 -0.29608 0 4014
2.8495 2.8228 0.093122 0 20855
2.8583 2.798 -1.3515 1 20897
2.8586 5.3289 0.42286 0 19338
2.8621 5.3 0.2809 0 19352
2.864 -2.1763 0.083512 0 2513
2.8664 2.8227 0.0934 0 20874
2.8747 -4.68 0.90236 1 3814
2.879 -2.1995 0.084116 0 2523
2.8993 3.1332 0.09911 0 20587
2.9095 4.082 0.82357 0 19904
2.9101 -5.852 0.60974 0 4019
2.9105 -3.1941 0.40315 0 2998
2.9109 -8.5409 1.2681 0 4183
2.9218 5.0243 0.95489 0 19489
2.9269 -2.6539 0.091729 0 2781
2.9291 -1.4362 0.53597 0 1718
2.9371 -4.6875 0.77742 0 3783
2.9589 -4.3262 0.48898 0 3618
2.9775 2.6112 -0.27693 0 21255
2.9842 -6.5634 0 0 4070
2.9873 1.8638 0.081748 1 22495
3.0006 -3.8586 0.68696 2 3367
3.0141 -8.223 0.81708 0 4157
3.015 -1.5124 0.078313 0 1751
3.0338 -3.3494 0.21074 1 3008
3.0384 6.5546 0.67402 0 19082
3.0392 -3.5359 0.32604 0 3122
3.0778 -5.2126 1.1405 0 3866
3.079 -3.9595 0.94502 0 3370
3.0885 -1.0737 -0.45955 0 1132
3.1005 -4.0116 0.71257 2 3381
3.1056 2.8879 -0.09846 0 21059
3.151 4.9767 0.54955 0 19648
3.1626 4.3802 -0.12543 0 19925
3.1811 0.13667 0 0 26779
3.2053 0.92212 0.39003 1 24869
3.2086 0.14739 0 0 26756
3.2133 -2.326 0.37008 0 2432
3.2153 3.3741 0.10821 0 20674
3.22 -1.9043 0.086855 1 2051
3.2397 3.4199 0.10937 0 20656
3.2559 0.94717 0.39654 0 24847
3.2567 0.27176 0.22852 0 26454
3.267 -3.1385 0.85355 0 2808
3.2704 4.2636 1.0124 0 20087
3.2721 -2.4408 0.76912 0 2486
3.2877 -5.6761 0.92188 0 3890
3.2974 -1.5699 0.17031 0 1665
3.2979 -5.0997 0.42468 0 3723
3.2995 -6.5432 0 0 4009
3.303 4.1793 0.3725 0 20160
3.3255 -0.4514 0 0 658
3.326 -6.5475 1.0321 2 4004
3.3261 7.8818 -0.79813 0 18904
3.3367 1.4177 -1.4157 0 23856
3.3374 -1.4609 0.59855 0 1527
3.3385 1.3842 0.16854 0 23937
3.3406 -0.44454 0 0 651
3.3415 -7.7627 0.59098 0 4095
3.3417 -0.86548 0 1 895
3.3462 4.5255 0.39357 0 19986
3.3501 -6.1496 -0.48969 0 3940
3.3536 -1.7554 0.62189 0 1835
3.3575 7.0266 -0.36316 0 19130
3.3594 3.2521 0.43622 1 20933
3.3626 -1.7467 0.62254 0 1823
3.3733 3.8614 -1.4702 0 20420
3.3867 5.1148 0.14242 0 19743
3.394 7.7833 -0.79218 0 18948
3.3957 0.71557 0.16183 0 25443
3.4462 -4.8547 0.27764 0 3544
3.4662 2.9521 0.74802 0 21356
3.4671 -1.6389 0.089037 0 1653
3.47 -7.4652 0.76803 0 4056
3.4781 -8.8432 1.5612 0 4131
3.4817 -0.17759 0.40769 0 388
3.4899 2.7208 0.20636 1 21652
3.5052 2.7962 0.73668 0 21572
3.5214 3.6759 0.95909 0 20698
3.5242 -2.7091 0.2073 0 2532
3.5256 -2.3398 0.19733 0 2267
3.5496 -8.2461 1.475 0 4097
3.5545 -2.3589 0.59956 0 2271
3.5551 -2.3459 0.19863 0 2255
3.5572 -2.8022 0.42247 1 2565
3.5703 -0.16275 0 0 363
3.5708 -6.3788 0.68201 1 3918
3.5877 6.9809 1.1031 0 19261
3.6189 1.0981 0.17636 0 24752
3.6327 -1.1336 0.35503 0 1021
3.6444 -5.1625 1.0382 0 3560
3.6485 4.404 0.6688 0 20286
3.6668 4.2481 0.65625 1 20388
3.6705 -0.13459 0.085276 1 324
3.6729 3.4347 0.11675 0 21042
3.6847 4.293 0.66159 0 20373
3.686 0.85505 0.17646 1 25278
3.695 4.3324 0.39817 0 20356
3.6993 -2.2157 0.81245 0 2085
3.7034 6.1587 0.50253 0 19547
3.7169 -8.7778 1.796 2 4105
3.7202 -6.4229 1.2195 0 3892
3.722 -1.175 0.36414 0 1033
3.7238 -4.5691 1.1105 0 3254
3.7305 4.3463 0.80498 0 20375
3.737 3.5562 -0.11977 0 20982
3.7408 -8.7616 -0.66617 0 4100
3.7443 8.1369 0.83566 0 19069
3.747 0.085032 0.17478 1 26921
3.7561 -1.2575 0.46321 0 1092
3.7841 -0.61561 0.44834 0 725
3.7881 -7.0974 0.75057 0 3962
3.8172 7.3735 0.3872 0 19273
3.8204 1.8915 0.80319 2 23369
3.8243 -3.4277 0.9676 0 2770
3.8253 2.4173 0.21102 0 22446
3.8358 -5.7105 -0.48104 1 3644
3.849 8.3644 0.21377 0 19066
3.8558 -3.7904 0.75989 0 2830
3.8571 -3.9941 0.38826 0 2896
3.8793 -3.882 0.25593 0 2848
3.8873 7.0536 0.18699 0 19383
3.9005 -3.4752 0.98427 0 2764
3.9021 -0.10968 0.54862 1 276
3.9036 -3.5395 0.86572 0 2784
3.9103 -8.2873 0.21275 0 4047
3.9295 -4.678 0.2849 0 3176
3.9376 -2.6469 0.89391 0 2295
3.9425 -0.7115 0.28014 0 762
3.9441 5.3968 1.0982 0 19959
3.9561 -3.5248 0.12302 0 2762
3.9577 -6.4837 1.248 1 3824
3.967 2.7214 0.6761 0 22136
3.9734 7.4073 -0.19516 0 19335
3.9752 -0.52899 0.65886 0 652
3.9869 -3.5323 0.12367 0 2757
3.9977 -8.6638 -0.44496 1 4061
4.0062 8.081 -0.20941 0 19195
4.0414 -0.75268 -0.095443 0 775
4.0481 -0.54948 0.67118 0 659
4.0777 6.8703 0.74536 1 19521
4.0967 5.7475 -0.16387 0 19896
4.106 -1.0268 0.59483 0 881
4.1512 -1.8171 0.63686 1 1525
4.1691 -8.2071 1.0765 0 4003
4.1831 -0.71653 0 0 747
4.1883 -7.1846 1.1688 0 3884
4.2422 -2.7994 0.118 0 2253
4.2463 -4.3226 -0.28258 1 2866
4.2816 5.7213 0 0 20016
4.3327 -2.6302 0.23636 0 2106
4.3422 -1.0449 0.62767 0 863
4.3509 -2.606 0.35464 1 2081
4.3525 2.1549 -0.22649 2 23351
4.3553 0.45315 -0.10166 0 26293
4.3554 -0.49008 0.61598 0 599
4.4136 -4.7066 0.45118 0 2940
4.4196 -0.73007 0.52384 0 734
4.4562 -0.48725 -0.10408 0 590
4.467 -6.408 1.2833 2 3584
4.4704 -0.63304 0.31572 0 676
4.505 -2.6642 0.85989 0 2055
4.505 5.7723 0.68313 0 20130
4.5331 0.61774 0.21335 0 26042
4.5483 5.8954 0 0 20094
4.5754 -2.6886 0.87188 0 2042
4.5845 1.1057 0 1 25197
4.6077 2.4324 0.24298 1 23128
4.6105 4.3874 0.44505 0 20986
4.6181 -7.973 1.736 0 3893
4.619 2.3871 0.48508 1 23211
4.6907 -0.3634 -0.10923 0 484
4.6908 8.6863 0.69031 0 19353
4.6927 4.6487 1.0852 0 20863
4.6965 6.8335 -0.19251 0 19821
4.7075 3.6898 0.84061 1 21637
4.7348 1.0133 0 0 25417
4.7857 6.4322 -0.37388 0 19999
4.8069 4.0679 0.7364 0 21373
4.8092 -2.3415 0.37403 0 1704
4.8133 7.0455 -0.39792 0 19807
4.8145 8.3288 -0.89752 0 19471
4.8461 -4.6278 0.62516 0 2801
4.8647 7.3974 1.0354 0 19731
4.8767 7.3233 0.41031 0 19757
4.8978 0.91394 0.93872 0 25646
4.906 7.8483 0.21489 0 19622
4.9245 8.0297 0.21869 0 19582
4.9331 1.465 0 1 24793
4.9336 8.2598 1.5807 0 19537
4.9376 -3.3192 0.83615 0 2294
4.9476 7.5694 1.7038 0 19720
4.9735 8.5522 -0.46136 0 19485
4.9857 -4.9892 0.65805 0 2849
5.0032 5.04 0.83048 0 20802
5.0271 3.2596 -0.41896 2 22338
5.0353 3.5402 0.57426 0 22042
5.0433 -4.8754 1.3216 1 2813
5.0468 0.703 -0.35632 0 26012
5.0475 5.6137 1.4223 0 20506
5.0524 3.5747 0.57742 0 22018
5.0626 3.6045 1.1709 0 22005
5.0875 4.2058 0.30782 0 21445
5.0921 4.4656 1.2761 2 21266
5.0987 -3.2796 0.14075 0 2209
5.1044 2.7508 0.13462 0 23047
5.1534 -2.2024 -0.39189 1 1473
5.1675 -7.8399 1.3196 0 3688
5.1939 6.1942 1.3281 0 20317
5.1966 0.66201 -0.12162 0 26110
5.2136 -1.3038 0.25062 1 880
5.2146 -3.5705 0.8882 0 2329
5.2315 -2.529 0.54212 1 1691
5.2579 1.3823 0.12622 0 25037
5.2972 2.1241 0.53246 2 24043
5.3117 -0.73705 0.1245 0 668
5.3899 -2.5111 0.55475 0 1632
5.3969 2.1838 0 0 24011
5.4026 -0.76506 0.12668 0 675
5.4117 1.9718 0.2686 0 24314
5.4306 4.1806 1.2913 2 21707
5.4524 -4.9163 1.2062 0 2776
5.4665 5.2605 1.4294 0 20956
5.4858 -5.3928 1.4494 0 2832
5.5022 7.0072 1.6786 0 20150
5.5231 5.7293 1.4994 0 20718
5.5674 -4.4111 1.3383 0 2577
5.5683 4.0873 1.1348 0 21889
5.5728 1.6212 0.40584 0 24843
5.5852 -3.9224 0.95918 1 2374
5.5979 7.6178 -0.21948 0 19969
5.662 6.1899 0.39121 0 20552
5.6722 4.5006 1.0176 1 21593
5.6725 4.2901 0.16512 1 21765
5.745 4.1924 0.16512 0 21904
5.7537 -0.73094 1.0928 0 638
5.7949 5.0516 0.35851 0 21281
5.797 -6.1818 1.191 0 2943
5.8131 -6.4561 1.4273 1 3027
5.8356 1.5888 0 0 24970
5.8504 5.3123 1.1106 0 21140
5.8715 -5.2626 0.55136 0 2769
5.8823 -0.0462 0.54881 2 144
5.8843 6.0678 0.98844 0 20733
5.9005 -3.5118 0.32021 0 2066
5.9147 -6.8401 0.84364 0 3111
5.9409 -2.4184 0.7501 0 1393
5.9442 0.63525 0 0 26270
5.9649 1.7714 0.14446 0 24795
5.9721 -6.7076 0.83789 0 3048
5.9793 1.683 -0.72641 2 24897
5.9813 -5.7118 1.5582 0 2802
5.9954 1.5941 0.72548 0 25020
5.9969 6.9083 1.2857 0 20405
6.0291 -6.8531 0.63827 0 3070
6.0505 7.8426 0.22997 1 20096
6.0678 -0.71709 0 0 614
6.0773 5.5805 1.5545 0 21107
6.1002 7.1932 1.5495 0 20345
6.1059 -4.1558 0.51648 0 2316
6.1078 5.1688 1.1245 2 21375
6.1279 4.8032 0 0 21628
6.1325 7.3579 0.89362 1 20299
6.1415 0.076112 0 2 8
6.1588 -1.1115 0.1453 0 761
6.1872 3.0633 0 0 23355
6.1973 0.19368 -0.14395 0 26859
6.1977 0.059497 0 0 30
6.2139 -2.5498 0.31323 0 1403
6.2303 6.6137 -0.42372 0 20637
6.2498 -0.64695 0.29301 0 574
6.25 -1.6187 0.1499 0 896
6.2563 0.2141 0 0 26838
6.2573 -0.81379 0 0 644
6.2588 -4.1536 0.52527 0 2269
6.2708 -2.7019 0.15853 1 1491
6.2931 -6.1134 1.653 0 2820
6.3118 5.4713 1.5738 0 21305
6.3403 -6.7235 0.21456 0 2932
6.3505 -6.5395 0.21164 0 2884
6.3809 -1.7924 0.46346 0 943
6.3892 6.1485 -1.4568 0 20939
6.4181 -7.2493 1.5907 0 3062
6.4221 5.7319 0 0 21196
6.429 1.6113 0.46346 0 25130
6.4569 -5.5226 1.6008 0 2722
6.5435 -5.2142 -0.39018 0 2583
6.55 3.1466 1.0213 0 23462
6.5558 1.3028 0 0 25535
6.5567 2.0109 -0.15923 0 24724
6.5582 7.5072 1.6377 0 20424
6.5777 -4.0704 0.90458 0 2144
6.5801 4.4853 0.74295 2 22155
6.5963 -2.1445 0.16104 0 1060
6.6303 0.32312 -0.15412 0 26734
6.6389 5.1422 1.3796 0 21682
6.6621 -2.2304 0.65545 1 1091
6.6909 -0.67373 0.3136 0 564
6.7036 -4.7658 0.38357 0 2396
6.7108 2.4028 0 0 24360
6.7422 -0.61952 0.31574 0 538
6.746 -0.57952 1.2757 0 523
6.7461 7.3312 1.8771 0 20576
6.7534 4.243 1.5027 1 22481
6.7544 2.8005 0 0 23934
6.7928 5.9929 1.4883 0 21247
6.8108 -2.842 0.34416 0 1434
6.8123 2.0892 0.83327 0 24733
6.8201 -4.9062 0.58749 0 2421
6.8428 5.5928 0.20518 0 21483
6.8448 -0.78834 0.64281 1 606
6.8512 -2.3591 0 0 1121
6.8677 -5.4726 1.6545 0 2587
6.8718 6.6872 0.6705 0 20916
6.8748 -2.9622 0.3491 0 1493
6.8808 -3.4727 0.90133 0 1768
6.8834 -3.474 1.4527 2 1772
6.8845 6.3596 1.5398 0 21087
6.8987 -3.0917 0.35254 0 1564
6.903 -3.6134 0.36335 0 1833
6.9091 5.0419 0.59809 0 21907
6.9111 -5.0656 0.79943 0 2452
6.9354 -2.7529 0.52178 0 1345
6.9505 -5.5724 1.252 0 2595
6.9508 1.8274 0.84047 0 25044
6.9632 2.1581 0 0 24705
6.9775 6.2627 1.3177 0 21183
6.9905 -3.5067 0.91457 0 1755
7.0669 -4.5177 1.378 0 2200
7.0848 -6.6485 0.90644 0 2794
7.1108 -3.6686 1.1245 0 1809
7.1183 -5.6723 1.4954 0 2585
7.161 2.8483 1.2662 0 24076
7.1983 -4.1996 0.19349 0 2026
7.2092 2.0972 0 0 24839
7.2183 -5.4177 1.2684 0 2495
7.2281 1.242 0.34202 0 25759
7.2294 -1.8078 0.17301 0 879
7.2584 -5.3201 1.4785 0 2453
7.3017 -1.4272 0.34695 0 791
7.3123 1.8544 -0.3518 1 25099
7.3191 5.7368 0.21591 0 21630
7.3202 1.8564 0.17533 0 25103
7.3318 -3.8902 1.5638 0 1859
7.3328 1.88 0.17575 0 25081
7.3366 5.2564 1.2684 0 21981
7.354 0.89254 0 0 26155
7.3674 2.9065 0 0 24090
7.3726 -3.8037 0.77398 2 1808
7.3774 -1.7317 0.17594 0 851
7.3891 0.20898 0.17162 0 26882
7.4002 1.83 1.0714 0 25158
7.4095 -1.3586 1.2376 0 770
7.41 -5.596 0.86631 0 2505
7.4155 2.7269 1.4886 0 24298
7.441 2.9596 0 0 24063
7.4678 2.8711 1.3145 0 24175
7.4709 -1.9349 0.90249 0 898
7.4734 5.3544 0.21345 0 21974
7.559 -1.7507 0.90737 1 845
7.5659 2.4408 1.1173 0 24625
7.5881 -3.1664 0.7671 0 1437
7.6078 2.0713 0.55136 0 24974
7.6153 -4.8983 -1.4876 0 2202
7.6254 -5.4211 1.3149 1 2399
7.6279 -1.6269 1.2814 0 815
7.6335 -5.4913 0.21832 0 2418
7.6498 6.324 1.87 0 21452
7.6635 2.5196 0.94338 0 24578
7.6775 -2.9964 1.354 1 1321
7.688 0.91129 1.4586 0 26191
7.7377 -1.2117 0.73069 0 710
7.758 4.7802 0.85015 0 22550
7.793 -1.2204 0 0 709
7.8032 -6.1075 1.628 0 2555
7.8291 -2.1007 0 0 917
7.8391 -3.7609 1.2219 0 1679
7.8394 -3.1403 1.1869 1 1362
7.8404 2.035 0.56642 0 25063
7.8716 0.36158 0.18295 0 26757
7.8754 -4.387 0.84104 0 1943
7.9278 -3.4454 1.4202 0 1511
7.9429 -5.2096 1.7897 0 2245
8.0026 -0.90047 0.94175 1 598
8.0367 -2.4081 0.19478 1 985
8.0571 -4.8259 0.43798 0 2079
8.0689 -0.13098 0 0 191
8.0857 1.8757 1.1665 0 25286
8.1761 -0.39415 1.1504 0 379
8.2044 3.5691 0.83473 0 23791
8.2405 0.23306 -0.1914 0 26881
8.2453 3.142 0.20486 0 24192
8.2473 5.3109 0.22774 0 22371
8.26 3.0653 0.41087 0 24262
8.2617 -1.3647 0.78122 0 733
8.2745 2.1754 -0.19864 0 25034
8.2921 2.8876 0.40947 1 24440
8.3472 2.2444 0.20068 0 24993
8.4734 1.9127 0.40509 0 25326
8.4976 -3.6315 1.0807 0 1480
8.5013 2.6348 0.62237 0 24709
8.535 0.58934 1.4056 1 26579
8.5839 0.22028 0.8011 0 26905
8.6329 -2.0264 0.8273 0 852
8.704 2.6694 0.42456 0 24729
8.7284 -2.9765 0 0 1109
8.7647 0.63133 1.6556 2 26555
8.7798 -0.70332 1.4471 1 499
8.7845 -1.4779 0 0 740
8.7953 1.9064 0.20894 0 25393
8.8234 -3.0675 0.87151 0 1138
8.858 1.8958 1.4883 2 25429
8.8626 -3.0516 0.87448 0 1126
8.8756 1.9514 -0.21099 0 25365
8.8806 3.4731 0.44469 0 24119
8.9041 1.7163 0 0 25587
8.9081 0.82324 1.4698 2 26395
8.9089 1.9588 1.4986 1 25377
8.9127 -3.3927 0.88972 0 1277
8.9423 2.2927 -0.21433 0 25078
8.9507 0.95655 1.696 2 26283
8.9539 -0.17349 -0.20792 0 212
8.9661 2.2471 -0.64636 2 25121
8.9676 1.1949 1.7045 1 26076
8.9907 2.7281 0.21814 0 24750
8.9922 1.8949 1.2915 0 25451
8.9932 0.90874 1.703 2 26329
8.9963 2.7025 0.21809 0 24772
9.0077 0.75165 1.703 2 26462
9.0165 1.1231 1.4928 2 26144
9.0174 1.1776 1.7134 2 26100
9.0421 1.4726 1.5051 1 25841
9.0557 3.0054 -0.22152 0 24546
9.0734 0.44218 1.4925 2 26745
9.0808 0.31076 1.7119 2 26851
9.0863 1.9695 0.65013 0 25396
