VERSION .7
FIELDS x y z intensity index
SIZE 8 8 8 8 8
TYPE F F F F F
COUNT 1 1 1 1 1
WIDTH 1544
HEIGHT 1
VIEWPOINT 0 0 0 1 0 0 0
POINTS 1544
DATA ascii
-6.0573 -5.2156 1.506 1 10642
-6.0482 6.7385 1.706 2 13917
-6.0476 7.5838 0.90495 1 14350
-6.0324 7.5162 0.44944 1 14326
-6.0071 6.8909 1.0691 1 14021
-6.0063 2.4903 -0.91381 0 11655
-6.0042 6.9682 1.733 0 14073
-5.9992 6.6069 0.62404 0 13866
-5.9934 7 1.0776 1 14092
-5.9931 2.4849 0.7587 0 11660
-5.9683 -5.083 -0.36559 1 10647
-5.9682 0.60097 0.13926 0 11076
-5.959 -6.7902 0.4213 0 10465
-5.958 7.5144 1.3478 0 14375
-5.948 7.6819 0.45307 0 14460
-5.9435 7.4961 0.89251 2 14372
-5.9351 1.8577 0.5802 0 11406
-5.9306 -5.4802 0.75335 0 10590
-5.9297 1.9313 -0.14479 0 11436
-5.9293 6.7611 1.0516 0 14000
-5.9206 0.33827 -0.55326 0 11012
-5.9128 -0.67786 0.27754 0 10830
-5.9069 7.7623 0.68208 1 14523
-5.9019 0.07829 0.13704 0 10959
-5.9011 7.6683 1.1315 0 14483
-5.8979 3.6369 1.1384 0 12246
-5.8918 7.471 0.88768 1 14397
-5.8862 7.5097 0.44496 1 14416
-5.8792 2.8055 -0.15124 1 11803
-5.864 2.3514 0.88792 0 11629
-5.8591 6.1979 0.79571 0 13715
-5.8548 7.8863 0.68682 2 14612
-5.8374 7.909 0.68738 2 14636
-5.8343 6.5002 1.0214 2 13912
-5.8217 -0.34282 0.95813 0 10880
-5.8098 8.02 0.46183 2 14709
-5.8095 8.067 0.4636 2 14733
-5.805 3.3488 0.46862 0 12111
-5.8027 6.7343 1.0395 2 14067
-5.8024 -4.0508 0.99453 0 10737
-5.7814 5.6359 1.5212 0 13439
-5.7806 2.4955 -0.14618 0 11700
-5.7748 0.31073 0.81277 0 11010
-5.7675 1.1096 0.96494 0 11196
-5.7476 6.8716 1.6878 2 14189
-5.7455 -3.9399 1.1446 0 10744
-5.7263 2.5507 0.43835 0 11738
-5.7002 0.54083 -0.26702 0 11068
-5.6754 0.73912 1.0783 0 11112
-5.6601 3.8163 1.1215 0 12430
-5.652 -4.0959 -0.16206 0 10712
-5.6369 1.0508 0 0 11183
-5.6359 6.9374 0.62502 0 14287
-5.6101 -4.2168 0.82072 0 10704
-5.5942 0.14063 0 0 10973
-5.5901 4.5203 0.8407 0 12874
-5.579 4.5924 -0.16777 0 12914
-5.5695 7.0623 0.41944 1 14393
-5.5478 6.9571 0.41497 2 14348
-5.5254 -5.6012 0.18267 0 10554
-5.5213 7.3457 1.0746 0 14570
-5.5202 0.13877 0.90723 0 10974
-5.4729 0.40671 0 0 11037
-5.4725 -8.2775 1.6303 0 10292
-5.4436 7.2872 1.7138 1 14597
-5.4187 -4.4005 1.1468 0 10673
-5.3571 1.0471 0.12673 0 11200
-5.343 2.2515 1.0924 0 11679
-5.3387 -0.34617 1.008 0 10874
-5.3215 -5.6175 0.17965 0 10525
-5.282 0.82713 0.87837 0 11148
-5.2701 1.4824 0.38282 0 11335
-5.2647 1.5475 1.0339 0 11362
-5.2618 1.1405 0 0 11232
-5.2607 5.404 0.3517 0 13615
-5.25 -3.6204 0.89627 0 10742
-5.2276 6.2123 1.3339 2 14164
-5.2206 -3.924 0.30456 0 10702
-5.2019 2.8433 0.55308 0 12014
-5.1983 6.916 1.6301 0 14574
-5.1766 2.8107 0.13676 0 11998
-5.1742 -7.8711 -0.21869 0 10290
-5.1737 3.3367 0.14293 0 12332
-5.1569 -4.2374 0.78053 0 10668
-5.1476 -0.71155 0.6077 0 10810
-5.1426 -0.020644 -0.1194 0 10939
-5.1311 2.2503 0.92052 0 11719
-5.1297 2.4478 0.93381 0 11806
-5.1291 1.5564 0 0 11383
-5.1191 -0.5254 0 0 10844
-5.1169 2.7391 -1.0935 0 11979
-5.1009 -4.5002 1.2816 0 10624
-5.0979 3.8151 0.89488 1 12676
-5.0975 0.96686 0.24195 0 11189
-5.097 -4.47 0.95278 0 10630
-5.0877 -4.4618 1.275 0 10631
-5.0745 2.403 0.92247 2 11796
-5.0656 0.71914 -0.2386 0 11125
-5.0596 7.199 1.6579 2 14841
-5.0584 8.2159 1.1283 1 15291
-5.0502 2.2495 0.12836 0 11737
-5.0373 1.1843 0.85016 0 11265
-5.0362 7.7729 0.86408 1 15117
-5.0265 -6.1042 0.36875 1 10415
-5.004 -4.2123 1.2324 0 10655
-5.0005 8.1792 1.1211 2 15312
-4.9966 7.3358 1.6723 2 14954
-4.9826 0.63298 0.11661 0 11106
-4.9683 -4.3571 -0.15342 0 10628
-4.9526 -0.87596 0.94761 0 10787
-4.9463 -6.6504 1.5616 0 10346
-4.9373 7.3837 0.41422 0 15011
-4.9239 -6.2729 -0.55763 2 10383
-4.9195 6.2382 0.55554 0 14395
-4.9116 7.1625 0.6073 0 14923
-4.9047 6.4875 1.5323 2 14553
-4.8839 4.3133 0.91576 0 13114
-4.883 1.6357 0.48044 0 11460
-4.8815 0.63572 0.11429 0 11110
-4.8802 3.8763 0.1447 0 12820
-4.8416 -8.2788 1.1216 1 10247
-4.8409 1.0927 0.11522 0 11249
-4.8407 1.0183 -0.23068 0 11221
-4.833 8.4457 1.8334 1 15547
-4.8229 -3.8021 -0.28639 0 10688
-4.8207 0.20542 0.56426 0 10992
-4.7928 7.3465 1.6527 0 15102
-4.7922 -0.46566 -0.22453 0 10849
-4.7887 6.6912 0.76766 2 14759
-4.7844 6.2555 1.4838 2 14509
-4.7838 6.2164 1.4779 1 14488
-4.783 7.199 1.2147 2 15038
-4.777 -5.8011 0.8788 0 10418
-4.7668 6.4585 0.74889 0 14637
-4.7585 4.3011 -0.14892 0 13179
-4.7421 1.0852 0.11294 1 11255
-4.7379 -0.44537 -0.22192 1 10851
-4.7184 3.2392 1.0783 0 12474
-4.6973 -4.2652 0.74197 0 10604
-4.6741 1.7179 -0.34822 0 11537
-4.6731 -0.61855 0.55125 1 10818
-4.6642 7.1113 1.1952 2 15076
-4.643 -6.4353 -0.37006 0 10324
-4.6428 6.4468 0.55554 0 14734
-4.6382 3.3243 0.13249 0 12567
-4.6239 7.2247 1.2055 2 15164
-4.6233 6.3821 0.55108 2 14710
-4.5938 0.93963 -0.21866 0 11211
-4.5881 -5.4447 1.0007 0 10434
-4.5877 2.1725 0.7134 1 11794
-4.5775 0.94961 -0.21801 1 11216
-4.5741 6.3913 0.36652 0 14756
-4.5681 0.36674 0.1064 0 11046
-4.5649 2.3591 0.23963 0 11920
-4.5571 0.35305 0.10612 0 11041
-4.5511 6.8916 1.556 2 15061
-4.5506 -7.3308 1.4176 0 10272
-4.5494 7.1082 0.59014 0 15159
-4.5399 6.2257 0.5388 1 14685
-4.5177 7.7404 1.6886 2 15479
-4.5124 7.1878 0.39577 0 15220
-4.4931 2.8978 -0.12413 2 12330
-4.489 7.9505 1.2832 1 15586
-4.4879 2.2552 0.11661 0 11879
-4.4689 2.7182 0.12144 0 12212
-4.4668 -5.8636 1.211 0 10363
-4.4599 -8.8753 0.92669 0 10178
-4.4591 2.9302 -0.62396 1 12367
-4.4575 8.2234 0.43621 1 15720
-4.4537 7.576 1.0277 1 15449
-4.4347 1.7782 0.90021 0 11632
-4.4282 0.58848 -0.31237 0 11115
-4.428 0.38117 0.73019 0 11054
-4.4253 1.9564 0.68 0 11728
-4.4159 7.5659 1.0244 0 15473
-4.4078 8.9184 1.1634 2 16018
-4.4065 7.1125 0.39018 0 15264
-4.4058 0.7959 -0.31307 1 11176
-4.3994 8.0658 0.64246 1 15698
-4.3983 0.14744 -0.61849 0 10980
-4.393 -4.326 0.86649 0 10565
-4.3912 -2.9552 0.86961 0 10752
-4.3853 3.9416 0.55011 0 13165
-4.3749 6.5848 0.73756 2 15034
-4.3744 8.2408 0.43509 0 15789
-4.3599 0.31176 -0.61431 1 11030
-4.3534 -5.9635 1.0377 0 10333
-4.3369 7.9511 1.2729 0 15703
-4.3044 5.6279 0.66102 1 14502
-4.3033 3.1231 -1.1302 0 12598
-4.2994 5.5169 0.81793 0 14441
-4.2803 3.9387 0.54267 0 13241
-4.2799 -3.6852 0.26338 1 10640
-4.2599 2.6084 0.82065 0 12232
-4.2499 -0.65032 0.2005 0 10804
-4.247 -6.9359 1.5323 0 10267
-4.237 1.5438 0.74089 1 11531
-4.2167 8.0556 0.84829 1 15836
-4.2125 6.7993 0.55931 1 15265
-4.2108 4.5314 -1.3148 2 13786
-4.2053 -4.6248 0.58318 1 10493
-4.1766 6.6995 0.55205 0 15243
-4.1755 -5.4495 1.2935 0 10369
-4.1734 2.5385 0.45573 1 12213
-4.1679 2.7922 0.82422 0 12417
-4.1678 0.77698 0.29647 0 11184
-4.1583 1.0022 -0.19947 1 11273
-4.1556 0.78821 0.29577 0 11190
-4.1457 1.747 -0.10445 0 11676
-4.1277 1.7538 -0.10412 1 11684
-4.118 6.9576 0.75428 1 15425
-4.1162 8.974 1.3876 1 16246
-4.1102 2.4853 0.44811 0 12199
-4.1049 3.9793 0.66856 0 13415
-4.1023 3.9767 0.93868 1 13418
-4.1011 7.671 1.2225 2 15773
-4.0858 7.9775 1.0481 2 15910
-4.0855 -3.7965 0.78382 1 10585
-4.0853 1.163 0.29702 0 11341
-4.0793 6.939 0.37537 0 15444
-4.0746 7.366 1.586 0 15659
-4.0716 8.0048 1.0502 2 15932
-4.0715 -2.7401 0.92465 0 10753
-4.071 3.9685 0.66485 0 13434
-4.0685 3.9661 0.93349 1 13437
-4.0674 7.0592 0.37993 0 15513
-4.0669 8.4129 1.0927 0 16090
-4.0657 2.2853 0.87873 1 12065
-4.0622 2.5869 -1.3809 0 12305
-4.0585 3.6684 0.8988 0 13187
-4.0473 -8.1142 -0.21052 0 10174
-4.0278 0.20545 0.75986 0 11006
-4.0188 6.9273 1.3158 2 15499
-4.0132 7.4037 0.58888 0 15721
-4.0111 3.3018 0.36329 0 12917
-4.0102 3.359 -1.1119 1 12969
-4.0054 -3.722 1.0302 0 10586
-3.9999 -3.6962 1.0261 0 10592
-3.9837 -2.6308 0.89947 1 10757
-3.975 6.135 1.0274 0 15121
-3.9729 -3.4842 -0.24643 0 10627
-3.9669 8.0264 0.83528 2 16016
-3.9632 7.0651 0.94733 1 15609
-3.9628 6.8776 0.74053 2 15516
-3.9346 -7.5582 0.79497 0 10189
-3.9337 5.9567 1.1728 2 15059
-3.929 6.2586 0.86416 2 15224
-3.9265 6.8616 0.73756 0 15539
-3.9263 7.344 0.58233 2 15767
-3.9246 -6.125 1.0224 0 10282
-3.9243 -5.1217 0.1498 0 10367
-3.9208 -7.424 0.19492 1 10195
-3.9152 1.0162 -0.093911 0 11303
-3.9089 2.0348 0.10231 0 11930
-3.8988 7.2469 1.1565 1 15751
-3.8981 4.6325 -0.14056 0 14153
-3.885 -3.6534 0.37292 0 10579
-3.8772 1.0906 -0.18782 0 11334
-3.8597 6.4363 0.87763 1 15378
-3.8557 -0.49804 -0.1813 0 10820
-3.8503 1.3033 -0.094375 0 11469
-3.8439 1.3506 -0.47645 1 11497
-3.8349 6.8871 0.55122 0 15630
-3.8249 1.1352 0.75172 0 11369
-3.821 -4.9242 0.87596 1 10376
-3.8189 6.8583 1.479 1 15638
-3.8173 3.7657 0.88096 0 13478
-3.8108 6.6593 1.0783 2 15543
-3.807 0.20485 -0.53582 1 11007
-3.807 7.5959 1.1941 1 15978
-3.7988 0.58333 0.35856 2 11143
-3.7957 0.19361 -0.53415 2 11001
-3.7926 7.405 0.58177 1 15906
-3.7897 2.5861 0 0 12454
-3.7866 8.4492 1.0828 1 16306
-3.7852 7.7163 0.80184 2 16040
-3.7848 -6.4305 0.69613 0 10250
-3.7839 6.7456 0.72158 2 15607
-3.774 -0.70151 0.26842 0 10785
-3.7738 2.7047 0.21652 0 12568
-3.7725 2.4331 0.84577 0 12339
-3.7696 6.6304 1.0719 0 15565
-3.7612 -3.8368 0.37571 0 10550
-3.7566 7.9508 1.2359 0 16153
-3.7511 -3.9848 0.89912 0 10520
-3.7415 2.5686 -0.4234 2 12463
-3.74 -3.4151 0.11759 0 10600
-3.7125 -5.0208 0.14497 0 10341
-3.7071 -5.3001 0.60343 0 10310
-3.7003 1.8055 -1.0778 0 11839
-3.6947 6.8162 0.90667 2 15725
-3.686 7.3002 0.57186 0 15951
-3.6819 -3.3809 0.11605 2 10596
-3.6805 6.9336 0.18225 0 15788
-3.6799 -0.48708 -0.1731 0 10817
-3.6606 6.1456 0.83652 0 15402
-3.6588 6.4354 1.2162 1 15567
-3.6556 8.0288 1.0317 1 16264
-3.6551 6.0187 1.1569 1 15337
-3.652 3.8176 0.36943 0 13678
-3.6488 -0.49334 -0.17171 1 10812
-3.6358 4.8091 0.84729 0 14549
-3.6274 -6.7735 -0.35832 0 10204
-3.6256 7.6116 1.3852 2 16130
-3.6251 -6.0763 1.3331 2 10257
-3.6242 6.1234 0.8321 1 15427
-3.6134 -0.0044149 -0.42256 2 10941
-3.5949 2.8391 -0.10635 0 12803
-3.5914 6.0294 1.153 1 15406
-3.5868 -8.0486 -0.20458 0 10113
-3.5865 2.8142 -0.10584 0 12787
-3.5861 7.4182 -1.3537 0 16072
-3.5855 8.7336 0.66018 0 16563
-3.5823 7.6963 0.792 2 16197
-3.5818 3.9447 0.24848 0 13865
-3.5747 1.3025 0.5347 0 11529
-3.5563 -3.2863 0.3386 0 10589
-3.5517 -3.7492 0.24084 2 10526
-3.5339 -0.044411 0.16481 0 10929
-3.5302 1.2974 0.52858 0 11540
-3.5289 -4.4958 0.939 0 10384
-3.5247 6.6908 0.88437 0 15817
-3.524 -0.034444 0.16435 0 10933
-3.5007 6.9846 0.91364 0 15976
-3.4993 8.2518 0.83621 0 16472
-3.4861 6.3465 1.1896 2 15682
-3.4855 9.2485 1.6238 2 16807
-3.4754 8.2597 0.83603 1 16495
-3.4701 3.8879 0.36441 0 13932
-3.4677 -3.2044 0.66358 1 10591
-3.4592 8.0244 1.6464 2 16439
-3.4577 -7.1942 0 0 10162
-3.4575 8.4977 0.85591 2 16587
-3.4481 0.055371 0.40328 0 10963
-3.4409 -8.0321 1.2281 0 10084
-3.4334 2.9962 0.74867 1 13080
-3.4323 0.045531 0.40142 0 10960
-3.4236 2.5002 0.1977 0 12610
-3.4175 7.7448 0.59195 1 16351
-3.4145 6.6668 1.0527 2 15912
-3.4116 3.5046 -1.4024 0 13616
-3.405 7.2557 1.5101 1 16180
-3.4007 9.3535 1.6351 2 16907
-3.395 9.1632 1.3734 1 16853
-3.3922 1.1258 0.16668 0 11452
-3.391 -0.36958 -0.079195 0 10838
-3.3873 7.7385 0.5907 2 16378
-3.3848 2.9197 0.73441 0 13045
-3.3829 9.381 1.6384 2 16931
-3.3808 3.5551 0 2 13694
-3.3741 6.8269 1.0702 2 16020
-3.3704 9.0192 1.126 1 16825
-3.3654 3.6216 0.34571 0 13782
-3.3569 1.8227 0.17814 0 11999
-3.3548 9.0545 0 0 16843
-3.3417 -2.9131 0.20674 0 10634
-3.3304 9.2354 1.3798 1 16929
-3.3301 -2.3543 0.38049 0 10729
-3.3204 1.2986 0.67173 0 11604
-3.316 2.4663 0.67896 1 12662
-3.3128 2.4936 0.68123 0 12693
-3.3113 2.5372 -1.3017 1 12732
-3.2992 -3.0852 0.31586 0 10582
-3.2871 0.60329 0 1 11180
-3.2794 6.5861 1.2088 1 16000
-3.2791 8.9365 1.1132 0 16878
-3.2735 -2.203 0.184 0 10750
-3.2709 0.16684 -0.076039 0 11005
-3.2606 0.22285 0.53694 0 11029
-3.2591 9.2084 1.8404 0 16975
-3.2472 8.9313 1.1113 2 16903
-3.247 2.8008 -1.3381 1 13040
-3.2389 8.7417 1.0902 0 16851
-3.2374 9.4073 0.92818 2 17037
-3.2359 5.7686 0.15356 0 15603
-3.2325 9.3033 1.1518 0 17015
-3.2192 0.91641 0.63063 1 11343
-3.2189 9.2641 0.91499 1 17013
-3.2151 2.7421 0.29549 0 13007
-3.2145 -0.52007 0.535 0 10799
-3.2075 -3.2903 0.21428 0 10545
-3.1957 0.21842 -0.074367 1 11027
-3.1895 -2.8638 0.70425 0 10614
-3.1858 6.5902 1.2026 2 16093
-3.183 7.6959 1.1704 2 16547
-3.182 2.2538 -0.73468 0 12545
-3.1779 -0.087103 -0.07381 0 10913
-3.1709 5.2524 -0.28612 0 15348
-3.1637 9.3628 1.3889 0 17084
-3.1602 -3.5783 0.89947 0 10473
-3.1498 -3.6711 0.79471 0 10445
-3.1484 7.669 1.5619 2 16571
-3.1391 9.3818 0.92297 2 17103
-3.1389 9.1213 1.1281 0 17039
-3.1374 -3.8345 0.46223 0 10410
-3.1317 -3.8031 0.45963 0 10417
-3.1252 0.0054536 0.072557 0 10945
-3.113 0.68331 -0.073996 0 11239
-3.1103 -3.2085 0.4169 0 10542
-3.1054 7.6976 1.1665 2 16614
-3.0927 -3.0637 0.61181 0 10561
-3.0916 -4.394 0.50124 0 10314
-3.0906 -4.887 1.0894 0 10277
-3.0884 2.9939 0.40129 0 13413
-3.0519 -5.9872 0.15602 0 10184
-3.0458 7.6733 0.96544 0 16661
-3.0446 1.4961 0.63915 0 11852
-3.042 5.0388 0.68831 0 15355
-3.024 0.27786 -0.14161 0 11062
-2.9748 -5.5925 -0.59098 1 10199
-2.9673 -5.2086 1.1294 0 10235
-2.9457 2.2173 0.25782 0 12688
-2.9451 -7.936 1.1897 0 9917
-2.9361 -5.5595 -0.2932 0 10194
-2.9315 3.1724 -0.30205 2 13797
-2.9301 -4.6011 0.8962 0 10279
-2.9208 1.2015 0.22085 0 11651
-2.912 2.5412 0.089733 0 13074
-2.9069 -7.6244 -0.18945 0 9941
-2.8904 -8.002 0 0 9886
-2.8798 -5.8603 0.60919 1 10170
-2.8709 1.1228 0.28759 0 11600
-2.8659 1.1301 0.28741 0 11611
-2.8619 1.4163 0.074135 0 11858
-2.8554 9.2472 1.1318 0 17286
-2.8507 -2.9592 0.095396 0 10537
-2.8453 2.3977 -0.7909 1 12984
-2.8355 -2.9599 0.095164 0 10533
-2.8348 -9.4368 -0.22877 0 9707
-2.8255 -8.1871 1.0128 0 9847
-2.8198 4.0361 -1.4118 0 14858
-2.8173 1.7251 0.46428 0 12230
-2.8035 -6.1945 0.47546 0 10127
-2.7971 2.2217 0.58688 0 12827
-2.7706 2.2548 0.58688 0 12891
-2.7703 2.577 0.35299 0 13278
-2.7669 -3.1886 0.29521 1 10455
-2.7624 -8.0045 0.1966 0 9843
-2.7473 -1.9661 0.15755 0 10718
-2.7342 -4.6753 0.25258 1 10246
-2.7106 -5.3567 0.27997 0 10180
-2.7042 -3.4266 0.61348 0 10389
-2.6987 -5.5282 1.1591 0 10168
-2.6914 -7.7286 -0.19 0 9852
-2.6803 -9.2197 0.22292 0 9678
-2.6778 8.8471 0.21461 0 17326
-2.6668 -3.5007 -0.10217 0 10361
-2.6628 -2.8937 0.27498 0 10501
-2.6616 2.9654 0.37175 0 13910
-2.6569 1.8819 0.38074 0 12542
-2.6464 4.6246 0.24848 0 15537
-2.6422 -2.573 0.34407 0 10568
-2.6289 3.3952 0 0 14458
-2.6077 2.888 0.36302 0 13887
-2.5905 3.1887 -1.4953 0 14286
-2.5828 1.8294 -1.322 0 12537
-2.5764 7.0862 -0.17506 0 16894
-2.5757 -2.935 -0.090661 0 10464
-2.5671 1.8291 -1.3166 0 12552
-2.5604 3.172 -1.4837 0 14305
-2.5601 -3.777 0.74965 0 10299
-2.5431 2.9173 0.63584 0 14025
-2.5107 -1.775 0.50517 1 10731
-2.4953 3.2426 -0.19081 0 14478
-2.4867 -3.4264 0.29605 0 10328
-2.4798 -3.5245 0.30135 0 10313
-2.4765 -1.7619 0.49933 2 10724
-2.4729 8.0085 -1.178 0 17271
-2.4637 2.2671 -1.1313 0 13239
-2.4625 4.8081 0 0 15903
-2.4543 -2.9125 0.26633 0 10433
-2.4397 -4.2825 0.11443 1 10234
-2.4341 2.7119 -1.4229 1 13905
-2.4312 1.9436 0.14515 0 12840
-2.4107 1.9148 0.14357 0 12822
-2.3843 -8.5685 0 0 9640
-2.3709 3.4574 -0.78986 2 14929
-2.3681 5.0119 -1.4511 0 16150
-2.3391 -2.8085 0.60049 0 10425
-2.3254 4.0083 0 0 15490
-2.3145 3.6163 -1.4508 1 15157
-2.3099 2.1745 0.37099 0 13318
-2.3018 -3.373 0.19043 0 10301
-2.3007 3.4629 0.19388 0 15033
-2.2983 -6.8571 0 2 9817
-2.2948 2.1731 0.36959 0 13339
-2.2824 3.4132 0 1 15009
-2.2689 -6.2815 -0.31146 0 9885
-2.2682 7.12 -1.0502 0 17200
-2.2545 3.3933 0 0 15031
-2.2463 -4.4391 0.69921 0 10181
-2.2341 4.3303 -0.80055 0 15868
-2.2188 -5.6705 0.42579 0 9976
-2.1466 -5.3024 0.13281 0 10016
-2.096 -4.5972 0.23562 0 10133
-2.0875 5.4867 0.13629 0 16771
-2.0825 -3.8887 0.30846 1 10205
-2.0726 -3.9814 -0.41876 0 10188
-1.9862 -9.1709 0.21786 0 9468
-1.9671 -2.3888 0.21638 0 10416
-1.9497 -6.7772 -0.16373 0 9665
-1.9445 -3.437 0.091683 0 10230
-1.9241 7.7057 1.4964 1 17702
-1.8968 -8.1702 0.58651 0 9509
-1.8922 -3.0685 0.083698 0 10269
-1.8617 5.9624 0.14502 0 17256
-1.8335 -4.5678 0.80866 1 10010
-1.8298 2.8778 -0.15904 0 15176
-1.8238 3.1023 -0.67803 0 15454
-1.7925 -3.5164 -0.091636 0 10183
-1.7684 -3.9385 0.40278 0 10121
-1.7631 -9.1558 0 0 9406
-1.7519 -3.5123 -0.36618 1 10173
-1.7466 -7.1539 0.17097 0 9544
-1.7157 3.0386 0.24401 0 15581
-1.6835 -5.791 0.84756 0 9682
-1.6803 2.661 0.073068 0 15200
-1.5762 -2.6253 0.57693 2 10261
-1.5745 -4.7861 0.82779 1 9804
-1.5731 -4.8302 0.8346 0 9796
-1.5503 -5.3888 1.0565 0 9673
-1.5439 -3.1627 0.2461 0 10167
-1.5366 -2.8501 0.30208 0 10209
-1.5248 5.7549 -0.69621 0 17569
-1.514 -3.1262 0.24289 0 10164
-1.498 -9.5553 0.90235 0 9338
-1.4885 3.2213 0.33107 2 16220
-1.4771 -5.8246 0.8445 0 9576
-1.472 -3.2525 -0.16649 0 10124
-1.4713 4.1943 -1.2745 0 16990
-1.4624 -3.3876 0.51856 0 10091
-1.4576 9.5253 0.89901 0 18325
-1.4234 -5.6127 0.95132 0 9577
-1.4016 -3.6763 0.27512 0 9945
-1.3677 -8.4072 0.19776 0 9348
-1.3546 -7.8997 1.5101 0 9365
-1.3301 -7.4898 0.70969 0 9376
-1.2873 -3.8407 0.7632 0 9824
-1.2327 -5.5328 -0.13161 0 9486
-1.2174 -6.6266 0.47114 0 9389
-1.1933 6.1332 1.0265 1 18074
-1.152 2.7852 0 0 16538
-1.1413 3.447 -1.4179 0 17117
-1.1341 3.145 -0.95867 1 16924
-1.1328 -5.2306 1.0083 0 9472
-1.1264 -7.7686 -0.18225 0 9318
-1.1077 -5.7524 0.68506 0 9408
-1.0836 -5.7186 0.68064 0 9402
-1.0664 -5.056 0.72621 0 9452
-1.0593 3.7336 0.090104 0 17452
-1.0018 5.4797 0.12933 0 18139
-0.97435 3.4341 -0.41745 0 17442
-0.9663 -7.7801 -0.18202 0 9286
-0.94381 -7.9742 0.18643 0 9278
-0.92976 -4.6069 0.66052 0 9430
-0.91943 -3.7659 0.27107 0 9546
-0.91824 -7.3931 0.34742 0 9287
-0.91432 -3.7938 0.27289 0 9538
-0.88883 5.4939 0.78215 0 18268
-0.86049 -7.8571 1.2986 1 9264
-0.82634 8.7909 -0.205 0 18694
-0.81405 -8.0702 -0.37826 0 9246
-0.76097 -6.27 0 0 9282
-0.76096 -7.9906 1.5123 0 9235
-0.74171 6.2949 -1.1942 0 18561
-0.73725 -7.3089 0.85905 0 9248
-0.7322 -5.2699 -0.12353 0 9310
-0.72986 3.9265 0.75246 0 18127
-0.72148 6.2933 0.44295 0 18572
-0.69913 -5.4879 0.64696 0 9291
-0.64981 -9.8878 1.628 0 9176
-0.64652 8.1422 0.18963 0 18771
-0.64036 -4.6991 0.89354 0 9305
-0.6397 5.0495 0.47486 0 18502
-0.62715 -8.7492 0.20365 0 9187
-0.61912 -6.1378 0.43137 0 9247
-0.59622 -6.6937 -0.15602 0 9224
-0.56952 3.6494 -0.96691 0 18304
-0.56413 -7.0114 0.16331 0 9204
-0.56103 3.6663 -0.97097 1 18326
-0.56049 3.3422 -1.0575 0 18232
-0.55755 5.1157 0 1 18608
-0.54406 5.1332 0 0 18628
-0.54388 -6.5315 1.0768 0 9211
-0.53824 -5.1908 -0.12116 0 9253
-0.53283 -6.3989 1.2098 1 9212
-0.52388 -5.3526 -0.25081 0 9240
-0.51268 -5.2381 0.49103 0 9241
-0.49411 -9.6538 1.5881 1 9150
-0.48963 -4.5968 -0.10733 0 9258
-0.48595 -6.2583 0.29273 0 9198
-0.45762 -6.9634 -0.32543 0 9175
-0.45569 -3.0238 0.42977 0 9328
-0.40296 -5.4098 0.37934 0 9192
-0.39295 -3.6891 0 0 9259
-0.3923 -8.6391 0 0 9137
-0.31323 -5.4992 0.90496 0 9160
-0.28085 -9.992 1.6423 0 9098
-0.27683 -4.0194 0.09354 0 9182
-0.20293 9.5289 1.1146 0 19083
-0.10254 -3.6483 0.68765 0 9099
-0.1021 -5.2693 0.24577 1 9082
-0.099405 -3.2351 0.53176 0 9107
-0.095946 -7.0474 0.16364 0 9070
-0.081751 5.204 -1.3625 0 19112
-0.076352 -7.0557 0.16382 0 9062
-0.069054 -8.992 -0.41934 0 9056
-0.050099 -4.6296 0.43195 0 9063
-0.048433 -4.4757 0 0 9061
0 -9.1659 -1.2882 0 4683
0.013578 -3.3823 0.15773 0 9036
0.025355 -3.8229 0.088758 0 9031
0.034005 -3.6079 0.16826 0 9025
0.044837 -3.5678 0.1664 0 9018
0.052274 -5.5463 -0.12877 0 9024
0.064962 8.459 0.78921 0 19210
0.067895 -4.3706 0.82356 0 9013
0.074986 -4.0913 0 0 9007
0.078018 -8.2777 0.7723 0 9026
0.089806 8.5752 0.1991 0 19218
0.11056 -8.7977 -0.41031 0 9017
0.12555 -8.0819 0.94523 0 9012
0.13368 8.1477 1.3388 0 19246
0.16631 8.8223 1.0319 0 19259
0.17257 3.2072 -1.169 0 19395
0.17635 -9.6218 -0.22343 0 9006
0.19163 -3.4169 0.15959 0 8943
0.19313 -8.9949 0.83937 0 9001
0.21248 -7.8526 -0.36633 0 8992
0.22273 -6.2225 1.1731 0 8978
0.22649 -4.0385 0.76209 0 8945
0.23694 -7.2185 0.50504 0 8983
0.23833 9.4807 0.44226 0 19278
0.25456 9.2287 1.5168 0 19294
0.29521 3.9725 -1.1422 1 19461
0.2971 -7.6988 0.7188 0 8973
0.33827 -5.7445 0.1336 2 8938
0.36132 -3.8511 0.54361 0 8882
0.37026 -3.8244 0.53999 0 8873
0.37496 -5.106 0.47765 0 8918
0.38126 9.7037 1.8297 0 19344
0.38159 -7.209 1.0146 0 8950
0.3856 -3.2052 0.4537 0 8824
0.38858 -3.0083 0.35472 0 8803
0.39164 3.1533 -1.0737 0 19601
0.39393 4.4401 -0.83985 0 19507
0.40879 9.0369 -0.42186 0 19361
0.42545 -4.1382 0 0 8862
0.44174 -4.1888 0 0 8855
0.46993 3.9824 0 0 19579
0.47037 -4.4603 0.31363 0 8856
0.47906 -7.388 0.86579 0 8930
0.52114 3.2645 0.62285 0 19696
0.53435 3.2883 0.62767 0 19703
0.54 -8.7538 1.4409 1 8934
0.56452 4.5452 0.4273 0 19603
0.57581 -3.2099 -0.075714 0 8701
0.58033 4.4622 -0.6324 1 19613
0.59737 -6.1701 1.1679 0 8874
0.60456 3.1904 -0.9311 1 19778
0.61416 -4.4488 0.84615 0 8786
0.61866 -7.0149 -0.1635 1 8891
0.62379 3.2454 -0.94764 0 19789
0.63544 -4.4206 0 0 8774
0.63871 -8.3772 0.58749 0 8912
0.66149 -3.7439 0.1773 0 8709
0.66342 7.2477 -0.16897 0 19511
0.70134 -7.4751 -0.17431 1 8881
0.71123 -9.6851 1.8297 0 8919
0.71212 7.0969 0.49876 0 19533
0.72791 -8.8537 0.20625 0 8900
0.77081 8.9545 -0.20867 0 19497
0.7913 -3.0597 0.59545 0 8551
0.80419 4.7698 -0.79471 0 19710
0.80876 -2.9849 0.28852 1 8526
0.81395 -7.1218 0.33428 0 8837
0.81492 -7.5137 0.35245 0 8849
0.81971 -2.9902 0.28927 0 8520
0.84485 -7.2027 0.3382 0 8831
0.848 -5.6674 -0.13304 0 8760
0.86492 -4.5169 0.21447 0 8677
0.87853 4.4247 0.21037 0 19809
0.88972 7.9196 -0.74351 0 19560
0.89771 3.6357 0.26187 0 19891
0.90926 -3.3958 0.24582 1 8533
0.91175 7.3409 -1.0396 0 19593
0.93343 3.8262 0.2754 0 19885
0.93819 3.6173 0.086762 0 19908
0.94806 -4.3998 0.848 0 8630
0.95294 -4.2354 0.20245 0 8607
0.95603 3.6861 -0.44532 0 19905
0.95715 4.4195 0 0 19838
0.96584 7.7764 1.4764 0 19605
0.97055 6.8538 -0.16071 0 19650
0.97186 8.4382 0 0 19572
0.97456 -3.5165 0.59952 1 8517
0.97884 4.4558 0 0 19844
0.98122 -3.5406 0.17133 0 8515
0.9863 4.9675 -0.23618 0 19807
0.99147 6.5869 0.62145 1 19675
0.99343 -3.6239 0.61735 0 8521
1 4.5522 -0.10821 0 19843
1.0012 -4.4498 -0.2127 0 8606
1.0082 -5.1769 0.74124 0 8670
1.0095 -9.3079 1.5382 0 8850
1.0157 -3.8361 0.27749 0 8540
1.016 -3.6659 0.44486 0 8516
1.0231 -3.6495 0.44323 0 8510
1.0272 5.8915 0.13885 0 19731
1.0453 6.5479 0.9319 0 19695
1.0564 -5.6071 0.26608 0 8684
1.0753 -7.9637 0 0 8791
1.0879 -8.822 1.4604 0 8815
1.0915 6.0484 0.71874 0 19753
1.0947 -8.4747 0.59753 0 8802
1.0975 -3.0484 0.30227 0 8422
1.0977 5.6211 1.0791 0 19802
1.1017 -3.0871 0.3058 0 8424
1.1108 -6.7535 0.63854 0 8730
1.1111 4.7298 -0.91539 0 19869
1.1226 3.9514 0.77394 0 19965
1.1428 -2.9832 0.44897 0 8392
1.1449 -3.2366 0.32029 0 8429
1.1466 3.7409 -1.3221 0 20013
1.1753 3.8014 0.092379 0 20020
1.1784 -4.8489 0 0 8576
1.2064 6.2763 0.89822 0 19792
1.2366 -9.5739 0.22412 0 8801
1.2387 2.8271 0.28797 0 20334
1.2404 2.8983 0.59397 0 20308
1.2409 3.2892 -0.49406 1 20162
1.2418 -7.8227 1.4923 0 8741
1.2501 -3.9288 0.095721 0 8463
1.2781 2.8925 0.29502 0 20346
1.2929 6.823 0.32385 0 19777
1.2946 -6.5503 0.62293 0 8665
1.302 6.1837 1.0382 0 19832
1.3078 3.9064 0.77616 0 20067
1.3107 7.3883 -0.52471 0 19739
1.3349 -5.6296 0.26981 0 8586
1.3377 -6.6703 0.95612 0 8659
1.344 -3.6353 0.73024 0 8410
1.3453 4.4897 0.21857 1 19999
1.3622 3.8107 0.76246 2 20124
1.369 9.2708 -0.8743 0 19665
1.3762 2.8866 -0.99788 0 20447
1.3779 -8.6799 0.61455 0 8740
1.3944 8.4413 -0.19864 0 19707
1.3949 -3.3216 0.67877 0 8348
1.4172 3.8581 -0.87365 0 20143
1.4266 3.0371 0.31305 0 20427
1.4333 3.0295 0.31267 0 20436
1.4356 3.3286 -0.084162 0 20315
1.4461 2.9875 0.07706 0 20471
1.45 4.2887 0.52941 0 20072
1.4548 -3.6706 0.2761 0 8378
1.4576 -5.0335 -0.24438 0 8497
1.4932 3.7579 -1.2618 0 20222
1.5066 3.16 0.32661 0 20448
1.5095 7.6027 -0.54201 0 19806
1.5137 6.2903 -0.60361 0 19876
1.5218 8.4326 0.79943 0 19752
1.5433 -9.3834 0.22078 0 8729
1.5484 3.2726 0.50882 0 20437
1.5529 3.1393 0.65988 0 20502
1.5746 3.2777 0.51104 0 20463
1.5829 -8.9588 0.21122 0 8708
1.5888 6.9428 0.33214 0 19860
1.5942 6.2955 0.9127 0 19901
1.6016 7.7269 -1.4868 0 19828
1.6177 -7.5076 0.17831 0 8628
1.6246 2.914 -1.4854 1 20707
1.6263 3.311 0.43138 0 20490
1.6329 3.3011 0.43069 0 20500
1.6484 -2.9018 0.62878 0 8059
1.6615 3.9778 -0.10008 0 20277
1.6928 -5.4889 0 1 8480
1.7105 -8.7836 1.686 0 8671
1.7193 -9.1254 0 0 8683
1.7194 -3.3599 0.44137 0 8193
1.7215 3.7793 -0.78245 0 20389
1.7262 4.8292 0.23916 0 20121
1.738 -8.5272 1.2231 0 8653
1.7415 8.6603 -0.20509 0 19814
1.744 4.3166 0.76488 0 20241
1.776 -8.3553 0 0 8636
1.7882 3.9864 0.82319 0 20371
1.7887 8.4954 0.20156 0 19831
1.8243 -4.8432 -0.3619 0 8397
1.8359 5.1787 -0.12757 0 20108
1.8385 5.4915 0.81388 0 20065
1.8439 3.4004 0.63551 0 20669
1.8501 5.4723 0.94905 0 20073
1.851 4.6584 -0.11638 0 20219
1.8636 3.2111 0.43417 0 20781
1.8818 -8.256 0.1966 0 8601
1.9101 -5.1664 0.90496 0 8409
1.912 4.0103 0.10315 0 20446
1.9263 -3.4145 -0.27414 0 8060
1.9351 -5.3253 0 1 8417
1.9492 -7.7258 0.18499 0 8561
1.9509 -7.6371 1.295 0 8557
1.9605 3.6395 0.28907 0 20658
1.966 3.6497 -0.19332 2 20655
1.9704 5.7127 0.99283 0 20090
1.9872 4.3625 0.78758 1 20388
1.9911 -5.0626 -0.25369 1 8381
2.0017 -2.6031 0.30636 0 7633
2.0034 -3.8063 0.40129 0 8156
2.0063 4.7242 0.11916 0 20297
2.013 -2.7983 0.080031 0 7723
2.0157 6.8663 1.1757 1 19986
2.0318 -2.8068 0.080449 0 7716
2.0393 9.4162 -0.67371 0 19837
2.0432 -6.4215 0.62869 1 8464
2.0517 -8.894 1.4996 0 8595
2.0545 -2.6881 0.31565 0 7643
2.0629 2.8466 -0.92032 2 21371
2.0783 5.3224 -1.3538 0 20204
2.0903 3.1641 0.44346 0 21097
2.0994 3.1985 0.44741 0 21079
2.1017 -3.0127 0.6921 2 7772
2.1036 5.5758 0.41673 0 20168
2.133 3.9334 0.41746 0 20667
2.1352 3.5818 0.38903 0 20833
2.1515 7.919 -0.95964 0 19926
2.1562 -7.0657 1.0382 0 8484
2.1578 -7.6103 1.1117 0 8506
2.1634 -6.7301 0.65953 2 8459
2.1722 -4.5994 0.95835 0 8265
2.1768 -3.9367 0.41969 0 8092
2.1788 -3.1232 0.44532 0 7768
2.183 -6.4754 0.79912 0 8442
2.1953 -5.3079 -0.40166 0 8356
2.1973 3.6861 0.20012 0 20832
2.1997 -4.8742 0.62536 0 8296
2.2049 -8.4224 0.81225 0 8546
2.2098 3.5405 0.48807 0 20940
2.2098 5.335 0.94873 0 20269
2.2187 4.4519 0.58168 0 20510
2.2256 5.8992 1.1879 0 20170
2.2545 4.0174 0.64743 0 20720
2.2917 -4.3228 -0.22817 1 8142
2.3064 2.6768 -0.24708 1 21967
2.3091 5.6667 -0.42789 0 20249
2.3109 3.3474 0.18969 0 21225
2.3132 6.9094 1.1971 0 20066
2.3368 -3.2688 0.66015 0 7733
2.3432 3.1736 -0.09159 2 21419
2.3603 4.5052 0 0 20587
2.362 2.7724 0.3398 2 21928
2.3685 5.8126 0.43891 0 20251
2.3845 -5.5393 0.84756 0 8329
2.3899 -5.2127 0.13314 0 8288
2.3955 -3.4544 0.39219 0 7778
2.3975 2.8311 0.34612 0 21904
2.4115 -6.2399 0.46779 0 8388
2.4194 -5.2409 0.13402 0 8280
2.4254 3.0944 -1.3285 0 21629
2.4352 -4.6266 0.24382 0 8154
2.4392 -3.9914 0.88132 0 7971
2.4457 3.7488 0.73538 0 21060
2.4611 -4.6423 0.24503 0 8144
2.4742 1.8208 0.57879 0 159
2.4879 -8.235 1.6208 0 8488
2.4944 3.3784 0.19584 0 21421
2.4971 2.5217 -1.1992 0 22499
2.4984 5.4847 0.7048 0 20387
2.515 -4.8107 1.0228 0 8168
2.5223 3.6116 -0.20543 0 21255
2.5831 -4.3144 0.82617 0 7996
2.585 -4.097 0.68083 2 7926
2.5868 9.6271 1.8782 1 19924
2.5881 -2.9038 0.54667 0 7423
2.5999 -4.1462 0.68779 0 7934
2.602 6.4401 0.64801 0 20240
2.6123 -3.5021 0.82319 1 7683
2.6154 -1.7324 0.4409 0 6569
2.6218 9.1194 1.559 0 19973
2.6478 -5.961 1.0716 0 8311
2.6588 -2.6412 0.34965 1 7284
2.6731 -1.404 0.3531 2 6130
2.6867 -3.3704 0.81208 2 7581
2.6881 3.0652 0.094654 0 22039
2.693 2.3106 0.58299 2 23147
2.6975 -2.6956 0.35578 0 7292
2.698 2.3018 0.58266 0 23168
2.7188 -3.39 0.81874 0 7571
2.7286 -1.4222 0.35983 0 6119
2.7428 6.1662 0.62962 0 20359
2.7674 1.2548 0.57249 0 1499
2.7754 -6.0121 0.46304 0 8282
2.7998 9.056 1.5573 0 20022
2.8086 -6.6296 0 0 8342
2.8131 1.8641 0.63581 1 483
2.8201 -1.5229 0.52657 0 6176
2.8685 3.3669 0.20627 1 21925
2.8707 -6.7206 0 0 8335
2.8842 4.1022 0.11643 0 21274
2.8873 3.7263 -1.3517 0 21591
2.8906 5.4434 -0.28742 0 20618
2.8976 6.9371 0.17455 0 20279
2.9001 1.8862 0.24192 0 540
2.9042 -3.7766 0.89762 0 7637
2.921 -1.7802 0.40002 0 6405
2.9232 -1.7689 0.39956 0 6390
2.9532 6.9003 0.52485 0 20307
2.9647 -3.8317 0.9128 0 7627
2.9734 1.1557 -1.4203 1 1838
2.9789 -0.61256 0.49966 0 5334
2.981 -3.5665 0.87577 0 7509
2.9844 2.2099 0.5219 1 136
2.9851 1.1507 -1.4244 1 1857
2.9856 -5.7109 -0.45063 0 8161
2.9867 -0.99471 0 0 5537
2.9877 1.9798 0.16714 0 476
2.9991 0.78121 -0.071953 0 2690
3.0373 0.97282 0.52397 0 2259
3.0449 7.1698 1.2798 0 20299
3.0644 8.2619 1.4477 0 20153
3.0803 -4.9124 0.95262 0 7936
3.0813 6.4631 1.349 0 20452
3.1264 9.4259 1.6316 0 20058
3.1268 -1.5624 0.24443 0 6047
3.1367 3.8377 -0.46242 0 21767
3.1421 6.5404 -0.16846 0 20459
3.1498 4.9844 1.1109 0 20974
3.151 -1.5855 0.24666 0 6061
3.1555 1.1019 -0.15587 2 2072
3.1624 -3.5908 -0.22313 0 7436
3.1717 -5.898 0.3123 0 8126
3.183 4.879 1.0976 0 21062
3.1852 -4.3712 0.12557 0 7709
3.1933 -3.6043 0.79115 0 7431
3.1976 6.8636 -0.1758 0 20414
3.2031 4.88 1.0998 0 21084
3.2075 -0.81519 0.38701 2 5429
3.224 3.8999 0 0 21811
3.2375 -3.9879 0.11926 0 7550
3.2474 -4.655 0.26469 0 7766
3.2511 -0.83715 0.39259 1 5433
3.2633 2.0415 0.35912 0 658
3.2651 -3.4179 0.89058 0 7347
3.2776 4.8065 1.0961 0 21199
3.2842 2.0682 0.36209 0 637
3.2854 -5.412 1.0402 0 7979
3.2874 -2.4326 0.19071 0 6824
3.2918 9.0344 0.22324 0 20136
3.2995 0.30666 0.62433 0 4070
3.3042 -8.5497 0 0 8387
3.3066 -6.1926 0.16299 0 8134
3.3081 2.3035 0.75949 0 325
3.3104 3.7747 0.70561 1 22047
3.3123 3.7983 0.58935 0 22023
3.3263 -8.4572 -0.63548 0 8380
3.333 -6.3755 0.33549 0 8164
3.3382 1.1658 -1.4769 0 2073
3.3443 -1.7932 0.26535 0 6163
3.3469 -0.22289 0.15643 1 4984
3.3605 -8.9215 0.22134 0 8399
3.3657 1.9073 0.27052 1 918
3.3735 1.7847 0.53637 0 1114
3.3759 -5.5985 0.60993 0 7984
3.3807 6.5444 0.68721 1 20564
3.3932 -0.27539 0.55932 0 5032
3.4234 -0.26883 0.56418 0 5023
3.425 -2.4134 0.68836 0 6714
3.4337 -5.3403 1.0431 0 7902
3.4419 -4.2187 0.38073 2 7540
3.443 1.9368 0.27624 0 939
3.4432 -7.6937 1.3848 0 8304
3.4453 -6.6353 1.4086 0 8177
3.482 -6.9051 0.90435 0 8211
3.4828 -5.28 1.0392 0 7858
3.4838 -7.3768 -0.57047 0 8262
3.509 -6.5718 -0.34742 0 8133
3.5097 -0.050846 0.41048 1 4769
3.5098 -3.4659 0.11452 0 7276
3.5175 -8.4378 -0.63925 0 8351
3.5279 -7.2525 0.75242 0 8249
3.5331 1.6776 0.73691 0 1397
3.5534 7.2342 -0.18713 0 20487
3.5577 0.15471 0.082677 1 4418
3.5615 -0.041027 0.41652 0 4751
3.5652 8.0682 1.6619 0 20348
3.5769 7.7306 0 0 20406
3.5818 -4.8886 0.1407 0 7702
3.5901 5.6072 0 0 21002
3.6023 5.8899 -0.16029 0 20889
3.6143 -2.2462 0.19845 0 6438
3.616 -8.7427 1.3297 0 8358
3.6191 0.16877 0.084116 0 4398
3.6193 1.068 0.71098 1 2441
3.638 -7.0065 -0.55205 0 8171
3.6482 -3.5009 0.83071 1 7244
3.6685 -6.7286 0.35739 0 8111
3.7005 -1.6136 0.7606 0 5832
3.7077 -2.2155 0.40297 0 6365
3.7291 -4.9666 1.0204 0 7674
3.7345 -6.5314 0.5261 0 8045
3.7373 9.25 1.8797 1 20242
3.746 -4.6144 0.69505 0 7552
3.7473 4.9854 0.87651 0 21489
3.7671 3.1565 0.22919 0 23233
3.7754 -0.91407 0.27163 0 5409
3.7779 -5.0025 0.58485 0 7661
3.7825 2.2307 0.30707 0 815
3.7866 1.9194 0.79986 0 1232
3.7869 -3.4277 0.71785 1 7183
3.7881 2.416 0.84652 0 606
3.8023 -2.3787 0.84503 0 6454
3.8026 -0.5094 -0.63032 0 5171
3.8173 1.8396 0.79838 0 1363
3.8449 -0.6517 0.18186 0 5264
3.8558 -0.84987 0.2761 0 5366
3.8666 -4.8505 0.87178 0 7579
3.8813 -4.4854 0.41477 0 7458
3.8889 -0.82164 0.65302 0 5347
3.9039 -0.65048 0.18456 0 5257
3.9375 -0.83192 0.5656 0 5346
3.9457 -2.4047 0.32311 0 6403
3.955 1.2409 0.78097 2 2306
3.9749 -8.6105 0.44226 0 8281
3.9962 1.2669 0.78986 0 2283
4.0018 -1.1173 0.096464 0 5470
4.0042 -5.3331 -0.62219 2 7667
4.0127 -4.1742 1.0909 1 7341
4.0206 -1.9376 0.31209 0 5984
4.0224 2.3883 0.65745 0 802
4.0274 2.9293 0.58238 0 191
4.0527 -3.977 1.0698 0 7272
4.0535 -1.0679 0.39108 0 5442
4.054 -5.846 0.16517 0 7777
4.0545 -2.2354 0.76067 0 6217
4.0546 -0.91896 0.19388 0 5378
4.0585 2.3935 0.66219 0 819
4.0717 3.1063 0.84141 0 50
4.0755 3.3168 0.122 1 23343
4.0765 -0.18868 0.094746 0 4906
4.0962 -1.6467 -0.41188 1 5711
4.1107 2.0254 0.75289 0 1305
4.1161 5.9245 0 0 21241
4.1391 -0.38397 0.78319 0 5069
4.1454 -1.433 0.51292 0 5560
4.1539 -0.37292 0.78579 0 5060
4.2006 -7.756 0.61679 0 8119
4.2741 -6.4404 0.36046 0 7845
4.2756 -7.7901 -0.41441 0 8099
4.3002 5.1102 0.31146 0 21881
4.3021 -6.7322 1.5053 0 7915
4.3043 -6.7356 1.1234 0 7912
4.3289 -4.3259 0.86009 0 7293
4.3798 -0.65065 0.5178 0 5215
4.3803 5.2668 0.6391 0 21840
4.3848 -0.78185 0 0 5281
4.3959 -1.2274 0 1 5469
4.4301 -6.7571 1.5223 0 7869
4.5347 -0.91847 -0.10742 0 5327
4.5397 6.1485 0.71304 0 21424
4.5432 -5.9444 1.2292 0 7647
4.5455 2.5571 0.48657 1 941
4.5747 -6.8054 1.3472 0 7827
4.5845 2.2251 0 0 1333
4.5864 -0.22672 0 0 4917
4.6405 -0.74577 0 0 5243
4.6583 3.0669 0.91631 0 506
4.6587 -1.3148 -0.11239 0 5475
4.6619 -0.83126 0.66553 1 5283
4.6651 -6.6427 1.5294 0 7760
4.6662 3.132 0.26208 0 436
4.6666 7.1097 1.1952 0 21081
4.6947 -0.42146 0.43975 0 5057
4.6988 -6.2582 0.18169 0 7670
4.7037 2.774 0.89718 0 821
4.7055 3.3169 0.5371 0 280
4.7065 2.0056 0.9639 0 1636
4.7084 8.3323 0.66924 0 20730
4.7211 2.0264 0.96798 0 1616
4.7231 -0.28639 0.55334 0 4963
4.7261 -0.30148 0.55381 0 4974
4.7261 3.3117 0.5384 0 300
4.7644 -6.623 1.3404 0 7726
4.7683 -1.3754 0.11522 0 5483
4.7916 -5.3441 1.3524 2 7416
4.8078 -1.2219 -0.11517 0 5428
4.8219 1.6679 0.96131 0 2103
4.8271 1.2871 0.34934 0 2646
4.8304 -1.4538 0.70895 0 5500
4.8353 -1.3047 0.46725 0 5452
4.8356 3.5586 0.56014 0 154
4.8605 3.5353 1.1324 0 195
4.8711 1.7011 0.48137 0 2079
4.8796 3.7877 1.0149 0 23519
4.936 -3.4588 0.99023 0 6699
4.9573 7.0982 1.4224 0 21261
4.9611 0.97603 0.83071 1 3222
4.9661 1.7032 0 0 2114
4.9852 -1.3601 0.36134 0 5457
4.9924 -2.1418 1.0235 0 5809
5.0009 3.7918 1.0311 0 68
5.014 5.4261 0 0 22237
5.0296 3.1258 0.83226 0 680
5.0407 -0.77854 0.23786 0 5229
5.0453 8.4636 -0.4595 0 20828
5.0706 5.52 0.69929 0 22220
5.0868 -0.13143 0.95872 0 4828
5.2259 -0.54557 0.24503 0 5101
5.2262 -4.8412 1.0012 0 7210
5.2409 -5.1161 0.17004 0 7261
5.2549 -2.9767 0.28164 0 6262
5.2707 7.7295 0.21721 0 21189
5.3224 -0.15425 0.8748 0 4842
5.3508 1.6789 0 0 2294
5.3736 7.9339 0.89399 0 21171
5.3776 -2.9246 0.5711 0 6188
5.4024 2.1542 0.95554 0 1789
5.4352 4.6094 1.3427 0 23194
5.4436 -6.873 0.20356 0 7587
5.4493 -5.1965 0.35115 0 7234
5.4656 1.5096 0.79691 0 2581
5.4787 -0.73394 0.77686 0 5178
5.4896 1.6532 0.53487 0 2391
5.5352 3.7363 -0.15505 2 411
5.5428 4.0523 0.15941 0 170
5.5909 5.4502 0.18128 0 22639
5.6054 -6.2167 1.5771 0 7408
5.6103 -5.1068 1.4294 0 7191
5.6407 -1.5051 0 0 5447
5.6472 -6.6004 0.40509 0 7474
5.6558 3.9632 0.97059 0 303
5.6597 -3.0999 0.30093 0 6201
5.6598 1.7412 0.27615 0 2341
5.7273 5.3314 0.91504 0 22830
5.7346 2.1156 -0.14191 0 1958
5.7435 4.278 1.0065 0 118
5.7887 -1.242 0.13745 0 5353
5.7996 -1.0529 -0.13685 0 5289
5.8055 -0.43754 0.95651 0 5014
5.809 -7.5079 0.88563 0 7623
5.8101 -1.2276 0.13787 0 5345
5.8127 -1.6043 0 0 5463
5.8455 2.0219 0.28844 0 2096
5.8707 -0.08505 0.96462 2 4772
5.8851 -2.5858 0.59971 0 5842
5.8978 0.75762 0.97694 2 3800
5.9188 0.96818 -0.27969 0 3490
5.9371 -0.58633 0.98018 0 5086
5.9605 -2.7642 0.15254 0 5925
5.9632 -2.6201 1.2272 0 5846
5.9647 4.8543 1.0808 0 23352
5.9693 3.1579 1.2724 1 1117
5.9801 1.7828 1.1757 1 2420
6.016 -3.295 0.47965 0 6203
6.0499 7.856 1.8682 0 21577
6.0542 -5.8098 0.3913 0 7241
6.06 -6.5648 1.4678 0 7382
6.0799 -4.2841 0.6939 0 6711
6.1372 -1.4666 0 0 5402
6.1383 -7.0068 0.65139 0 7443
6.1398 3.2949 0 0 1072
6.1495 5.8234 -0.79014 0 22751
6.1931 -4.4732 1.2551 0 6772
6.1935 -6.5954 0.21006 0 7365
6.2046 4.3996 1.4331 0 265
6.2121 3.0151 0.48285 0 1338
6.2385 3.7292 0.33894 0 780
6.2497 2.5149 0.62851 0 1768
6.2715 -7.4608 1.8363 0 7500
6.2743 4.4491 0.35869 0 258
6.2776 2.1102 0.30885 0 2157
6.283 2.6968 0.47811 0 1609
6.3169 2.6918 0.32021 0 1629
6.3417 2.7443 0 0 1588
6.3885 3.2846 1.0096 0 1193
6.4155 3.3468 0.168 0 1145
6.4254 2.4549 0.9667 0 1889
6.4309 -0.3179 1.2131 0 4923
6.4328 3.3787 1.369 0 1136
6.4556 3.3434 0.16879 0 1166
6.467 4.7888 0.75075 0 133
6.5272 3.4051 0.68684 0 1149
6.5312 1.7415 1.1105 2 2654
6.5313 4.2204 0.72549 0 565
6.5516 0.45698 0.61272 0 4238
6.5654 -1.7101 -1.4421 0 5438
6.5742 3.4048 0.86579 0 1172
6.5961 2.1763 0.64801 1 2197
6.5968 3.2503 0.51424 0 1300
6.6098 2.613 0.83117 0 1806
6.6099 -6.7995 0.66311 0 7326
6.6164 1.9085 0.15988 0 2477
6.6288 -3.858 0.89692 0 6315
6.631 -3.0752 1.3772 2 5931
6.6374 2.0635 1.142 2 2326
6.6561 -3.569 0.88321 0 6164
6.6729 -2.136 0.32674 0 5522
6.694 -6.7645 -0.66548 0 7304
6.7002 -5.8904 0.83231 0 7135
6.7007 5.0219 1.3758 0 103
6.7141 4.6162 1.1451 0 361
6.7223 3.4326 0.17524 0 1206
6.734 -7.2568 0.69226 0 7376
6.7357 3.246 0.87438 0 1358
6.7363 -4.3213 0.74667 0 6498
6.7591 1.699 1.3131 0 2774
6.774 4.4598 1.1398 0 504
6.7761 0.29467 0.63278 0 4423
6.7806 -2.3666 1.1799 0 5571
6.7864 3.7417 0.36139 0 998
6.8322 2.8636 0 0 1665
6.8596 3.1348 0.1751 0 1477
6.8857 4.4785 0.96057 1 543
6.8927 0.079402 0.48202 0 4625
6.9175 -3.9457 0.9313 0 6276
6.9436 -1.9165 1.3572 0 5467
6.9641 -2.8221 1.056 0 5726
6.9734 2.2779 0.17032 0 2212
6.9755 -0.4841 -1.1488 0 4989
7.043 -3.5438 1.2953 0 6063
7.0553 -0.36605 0.49402 0 4931
7.0649 -2.7219 0.70635 0 5666
7.0848 2.5437 1.4183 0 2025
7.0924 3.1934 0.72567 0 1512
7.1109 -3.3507 1.1048 0 5951
7.1196 5.463 0 0 25
7.1403 -1.4878 1.3742 0 5341
7.1514 3.7562 -0.18754 0 1126
7.1632 6.0022 0.21697 0 23231
7.1786 3.0812 -0.18137 0 1604
7.256 -2.5325 0.5374 0 5569
7.2587 -3.3663 0.37313 0 5927
7.2853 4.5276 1.0031 0 678
7.3019 -2.1546 1.07 0 5491
7.3254 -1.7047 1.2357 0 5391
7.326 0.020459 0 0 4673
7.3433 -4.4175 1.0021 0 6377
7.3702 -5.4876 1.5097 0 6843
7.381 -2.7949 1.1092 0 5647
7.4284 -3.0103 0.74778 0 5725
7.4368 -1.4375 1.2444 0 5312
7.4798 -0.95818 1.2389 2 5163
7.4827 3.5787 1.1657 0 1379
7.5362 -2.6303 0 0 5567
7.5468 -0.21871 -0.17529 0 4837
7.64 -2.5208 0.75057 0 5533
7.645 -1.7327 0.54815 0 5379
7.648 -2.1109 0.92781 0 5464
7.6512 -4.5141 0.20625 0 6337
7.6631 4.794 1.2704 0 661
7.6753 1.8342 0.36801 0 2861
7.6779 5.9213 0 0 23529
7.7525 1.5942 1.4912 1 3147
7.7747 6.2153 0.69603 0 23414
7.7759 -5.3823 0.66129 0 6667
7.7909 5.1294 1.7575 1 508
7.8248 4.2574 0 0 1034
7.8701 -1.2155 0.74295 1 5230
7.9014 -5.4691 0.44813 0 6665
7.9517 0.439 -0.1849 0 4336
7.9592 3.8356 1.2417 0 1360
7.9872 -4.3439 1.0632 0 6189
8.0559 -3.2941 -1.4299 1 5731
8.0787 2.8719 0 0 2037
8.0806 -1.4408 0.95987 0 5282
8.0907 4.0145 0.63158 0 1280
8.1171 1.4006 1.1576 0 3429
8.1198 0.68613 1.3388 0 4132
8.1654 1.1912 0.57703 0 3650
8.1705 0.47397 0.95708 0 4322
8.1713 -5.4126 0.45708 0 6565
8.1736 4.0272 -1.0656 0 1290
8.1814 -3.6238 1.4701 0 5857
8.2479 -3.5384 1.0495 0 5806
8.2638 -3.0192 1.0289 0 5609
8.2769 -1.2296 1.176 0 5216
8.331 -4.0148 0.43127 0 5982
8.3565 1.8449 0.19868 0 3009
8.3583 -4.5458 1.3372 0 6190
8.4276 -1.707 1.4127 0 5328
8.472 4.2037 1.7819 2 1286
8.4753 3.0129 0.83919 0 2042
8.4808 3.0449 0.84067 0 2020
8.4814 -1.7441 0.60549 0 5333
8.4911 -4.1506 1.5528 0 6011
8.4959 -2.3721 1.6619 0 5473
8.5256 0.29624 0.39782 0 4479
8.5651 4.5964 1.3661 0 1079
8.6048 -0.22232 -0.19984 0 4822
8.6273 -1.2555 0.81336 1 5206
8.6301 -4.8252 1.6244 0 6240
8.6409 -2.9046 0 0 5542
8.6547 3.1364 -0.21373 0 1996
8.6601 -0.95608 0.60925 0 5118
8.6623 -0.98082 0.2024 0 5126
8.7209 -3.0148 1.2968 0 5561
8.7449 -3.4571 0.21832 0 5693
8.7828 -0.66193 0.82172 0 5011
8.8039 -2.6497 0 0 5499
8.8298 3.1389 1.7656 0 2047
8.875 2.9282 1.7608 0 2202
8.8837 0.82568 0 0 4059
8.8996 -0.7223 1.6823 0 5034
8.9343 -1.0653 0.2089 0 5140
8.9526 2.9539 -1.3249 0 2183
9.0858 1.9213 1.086 1 3093
9.0881 2.0348 1.5301 1 2993
9.1602 1.528 1.086 1 3476
9.1633 1.9377 1.3163 1 3095
9.1648 -0.23679 -1.2885 2 4814
9.178 2.3071 -1.1067 2 2754
9.1829 2.2793 -1.1065 1 2777
9.214 1.7827 1.7682 2 3250
9.231 2.0938 1.7834 1 2970
9.2468 -1.9267 1.5518 1 5340
9.2622 2.0178 1.1085 0 3042
9.2665 2.1871 1.1134 2 2892
9.272 2.0471 1.1104 1 3017
9.2875 1.6309 1.5492 0 3405
9.2892 2.1651 1.7971 0 2923
9.3016 0.75655 -1.3116 1 4135
9.3039 1.6054 1.5512 2 3431
9.309 1.8584 1.5596 2 3196
9.3271 0.86689 0.87393 0 4065
9.3271 2.2289 1.3478 2 2868
9.3532 2.2645 -0.22343 0 2832
9.361 1.5312 1.1092 2 3500
9.3777 -2.9118 0.22798 0 5511
9.3933 2.16 0.67399 1 2939
9.4303 1.656 0.66952 0 3399
9.4501 2.173 1.3628 2 2944
9.4799 1.8926 1.3586 0 3194
9.4996 -0.32841 -1.1116 1 4860
9.5123 2.4211 1.3795 2 2747
9.5483 2.7867 1.6342 2 2463
9.5533 2.313 0.45838 1 2837
9.5543 1.7639 1.1362 2 3326
9.5569 2.3403 0.45885 0 2812
9.5659 2.6133 1.1596 2 2603
9.5982 -0.55511 0.89696 0 4952
9.6029 1.5158 1.1369 2 3551
9.6096 2.2398 0.92056 2 2917
9.6122 1.6292 1.6018 2 3455
9.6262 1.6057 1.6034 2 3480
9.6431 2.3936 0.69477 1 2791
9.6758 0.92827 0.67971 2 4041
9.6895 2.2869 0.69617 0 2888
9.6949 0.95913 0.68124 2 4019
9.744 1.3053 1.1497 2 3750
9.7456 1.1052 0.68585 2 3906
9.7462 1.1346 0.68612 2 3884
9.7493 1.1349 1.1478 1 3888
9.7944 1.3992 0.69184 2 3677
9.803 1.5158 1.8689 0 3581
9.8388 1.6676 0.46537 1 3446
9.8686 -0.48784 -1.1555 2 4915
9.8917 -0.43015 -0.92372 2 4895
9.9058 -0.45848 -1.1596 1 4902
9.9494 -0.5162 -0.92948 2 4927
-14.432 1.3693 2.7314 0 11069
-14.079 0.024568 0.65655 1 10946
-14.034 0.84117 0.98315 1 11015
-13.447 -1.1079 2.5421 0 10857
-12.943 5.5445 2.6529 0 11695
-12.695 3.2525 2.4692 0 11298
-12.638 6.0795 1.971 0 11818
-12.417 8.3188 -1.7478 1 12407
-12.078 7.8915 1.346 0 12360
-12.035 -0.048312 1.9772 0 10940
-12.016 1.0344 -0.56245 0 11053
-11.947 0.71606 1.3996 0 11016
-11.888 4.6062 1.4909 0 11590
-11.816 -0.59652 1.9438 0 10888
-11.777 2.1954 1.9681 0 11185
-11.762 3.7537 2.0285 0 11421
-11.655 4.5956 2.0583 0 11613
-11.625 -8.2186 0.66391 1 10727
-11.505 5.49 2.4018 0 11808
-11.504 -8.233 1.3198 0 10719
-11.434 -0.44523 1.0675 0 10898
-11.378 2.8475 -0.54698 0 11289
-11.273 -0.60261 1.8547 0 10885
-11.223 1.8901 0.26423 0 11160
-11.14 -7.7313 0.31483 1 10739
-11.052 7.0381 1.5323 0 12307
-10.863 4.7638 2.2348 0 11721
-10.861 -7.4006 2.4762 0 10746
-10.823 0.99447 1.7856 0 11064
-10.68 2.2468 0.50897 1 11223
-10.59 -0.31985 0.49406 1 10909
-10.421 0.95758 1.4708 0 11063
-10.403 9.4557 1.9757 0 13204
-10.182 -1.3152 0.47878 1 10822
-10.101 1.8246 0 0 11177
-10.096 3.9485 1.7811 0 11602
-10.036 3.7244 -1.5045 0 11544
-9.8361 4.7317 0.25342 0 11815
-9.7346 -7.0105 1.4029 0 10715
-9.7323 4.2337 1.9996 0 11711
-9.7083 -8.9148 -0.30601 0 10595
-9.6903 3.033 -0.94731 0 11404
-9.6239 -8.6837 0.30095 1 10608
-9.3119 -9.6058 0.31061 1 10541
-9.2513 7.7024 0 0 12948
-9.2503 -7.6444 1.4033 0 10664
-8.8608 -8.6741 2.0372 1 10566
-8.8508 -10.2 0.31353 1 10454
-8.5047 -5.7235 1.4407 0 10751
-8.4591 3.5368 -1.7275 2 11669
-8.3415 -8.2632 2.2122 0 10563
-8.3345 6.3102 -1.7175 2 12695
-8.2895 -7.5694 1.8443 0 10601
-8.2312 -9.3201 -0.57987 0 10471
-8.228 -9.1542 1.1483 0 10485
-7.955 -6.6161 -0.48251 0 10660
-7.9192 -11.111 2.5707 0 10319
-7.6012 12.193 -0.33359 0 15241
-7.5861 -7.7386 1.7804 0 10551
-7.5547 7.4943 1.7483 0 13500
-7.4731 -8.2677 1.831 0 10489
-7.3916 -9.8196 0.57316 1 10354
-7.014 12.09 1.304 1 15494
-6.9814 8.9069 1.3234 2 14419
-6.8701 12.338 -1.6514 2 15619
-6.6574 -8.1367 -0.24408 0 10409
-6.6337 8.5675 1.5228 1 14465
-6.6267 9.0874 0.26112 0 14683
-6.5595 8.8357 2.0733 2 14621
-6.5416 -13.115 2.4078 0 10176
-6.5334 11.339 2.15 2 15522
-6.4661 3.1105 -1.7001 0 11817
-6.4256 -8.0897 0.96385 1 10393
-6.3979 -8.5492 2.0119 0 10351
-6.1756 12.775 0.99222 1 16086
-6.1398 12.611 2.3044 1 16069
-6.0942 9.7755 1.3471 0 15247
-6.0093 11.086 1.7722 2 15727
-5.9852 2.2401 -1.673 0 11557
-5.9044 -9.2147 -0.51037 0 10281
-5.8216 12.405 1.9259 0 16176
-5.7674 -9.1726 0.25156 0 10276
-5.6815 13.294 -1.6907 2 16441
-5.4541 4.3322 -1.9973 1 12823
-5.429 8.4825 0.46965 1 15158
-5.3659 10.186 0.2673 0 15810
-5.268 -9.5038 0.50673 1 10221
-5.1855 3.1355 -1.7376 0 12198
-5.1755 -14.059 1.0476 1 9904
-5.1733 11.115 1.723 2 16201
-4.9877 10.244 1.6013 2 16068
-4.9357 -8.9632 1.1966 0 10217
-4.8451 13.204 1.3122 1 16876
-4.7861 -9.7396 1.2691 0 10171
-4.7816 -11.913 0.29803 1 10007
-4.7494 4.2211 -1.5056 0 13130
-4.6994 13.525 0.66773 1 17010
-4.5507 9.2767 0.48186 1 16037
-4.5231 -9.3398 1.9552 2 10165
-4.2952 10.129 1.5462 2 16476
-4.0033 4.2097 -1.963 0 13697
-3.8508 11.292 1.6768 2 17061
-3.7956 -9.9554 -0.49686 0 9940
-3.6229 4.2554 -1.6026 0 14113
-3.562 1.8543 -1.6774 0 11929
-3.529 -14.282 2.7717 0 9558
-3.5067 5.3466 -1.9952 0 15073
-3.251 10.741 0.52332 1 17328
-3.1336 -13.329 0 0 9516
-2.9569 -14.019 2.6995 0 9453
-2.8023 9.7729 1.1889 0 17435
-2.7506 12.563 1.5039 1 17916
-2.6859 1.8219 -1.6302 1 12435
-2.6588 -9.7726 1.9082 0 9628
-2.6117 2.4889 -1.9183 2 13347
-2.5903 3.5969 -1.9735 0 14726
-2.3602 -11.877 0.56468 1 9423
-2.35 -11.825 1.9808 0 9424
-2.342 11.85 -0.56329 0 18045
-2.2797 2.9807 -1.9953 0 14493
-2.272 11.831 1.6932 0 18091
-2.189 -11.015 2.1159 0 9425
-2.0525 1.9897 -1.194 0 13407
-2.0242 -12.912 1.8368 0 9339
-1.8366 0.10493 0.3466 1 11013
-1.7643 3.1894 -1.5224 0 15649
-1.6407 1.4318 0.10155 0 13075
-1.5475 -10.673 2.0319 0 9319
-1.4836 2.8756 -1.919 1 15867
-1.4715 -13.078 1.539 0 9269
-1.2238 -14.216 1.6686 0 9218
-1.0397 -11.673 1.647 0 9225
-0.96254 -11.559 0.54093 1 9210
-0.91164 -10.59 1.7464 0 9219
-0.68049 0.99235 -0.50259 0 14921
-0.59126 -13.02 1.8318 0 9138
-0.46055 -11.618 2.1907 0 9126
-0.42934 -10.831 1.5234 0 9125
-0.34764 -11.314 -0.26279 0 9106
-0.27334 9.1025 -1.9357 0 19043
-0.18517 -13.601 2.5629 0 9071
-0.02603 -13.558 0 0 9045
0 -10.6 -0.74123 1 4686
0 -4.562 -1.9055 0 4689
0 -3.4605 -1.5407 1 4687
0.055309 12.189 1.1372 0 19199
0.36141 13.103 0.61127 1 19291
0.59672 -14.418 -0.33502 0 8968
0.83546 -12.318 0.28665 1 8926
0.83825 -10.557 0.988 1 8906
0.92252 8.2116 -1.9579 0 19566
1.2733 -10.108 0.95047 0 8809
1.4077 9.3522 -1.7819 0 19677
1.5034 -12.192 2.3144 0 8816
1.5409 -12.808 -0.29951 0 8822
1.562 -10.642 0 0 8767
1.6015 10.846 2.0656 0 19670
1.6296 3.9013 -1.766 0 20276
2.0721 -12.148 2.3218 0 8719
2.1622 11.804 -0.27862 0 19761
2.1743 -14.226 2.3644 0 8754
2.2449 6.0012 -1.9993 0 20160
2.2723 1.8375 -1.6419 0 23358
2.2935 -10.644 0.50776 1 8629
2.3633 -12.342 1.7661 0 8678
2.3931 4.2926 -1.9191 0 20708
2.438 7.141 -1.9754 0 20082
2.4541 0.58646 -1.1234 2 2856
2.6343 8.1803 -1.8267 0 20041
2.666 13.258 1.9005 0 19817
2.8186 -0.43533 0 0 5228
2.8876 0.71674 0.069075 0 2788
2.9724 9.698 -0.2355 0 20009
3.1822 1.4215 -1.6497 0 1522
3.269 4.9165 -1.995 0 21111
3.3063 11.5 1.1164 0 19971
3.3476 9.8054 -1.7023 0 20074
3.3513 10.407 0.25383 0 20040
3.3551 7.6578 -1.981 0 20335
3.415 6.7547 -1.9814 0 20533
3.6081 9.4784 0.9462 0 20177
3.6697 3.241 -1.9118 0 23029
3.8743 -9.2936 1.8971 0 8353
4.1313 -10.246 1.5526 0 8369
4.1325 -9.234 1.4218 0 8302
4.1597 -10.576 0.26386 0 8382
