VERSION .7
FIELDS x y z intensity index
SIZE 8 8 8 8 8
TYPE F F F F F
COUNT 1 1 1 1 1
WIDTH 1203
HEIGHT 1
VIEWPOINT 0 0 0 1 0 0 0
POINTS 1203
DATA ascii
-9.4174 1.3487 -0.22087 0 5715
-9.1301 -1.0612 -0.2134 0 5145
-8.9374 1.0705 1.4789 0 5672
-8.9319 1.2792 1.4824 0 5716
-8.8975 2.4307 -0.21414 0 6023
-8.8703 2.3403 1.2893 0 5990
-8.8378 -0.79498 1.0377 0 5195
-8.6493 1.8085 0.41208 0 5845
-8.6377 3.862 -0.44124 0 6771
-8.5247 -0.41693 0.79627 0 5290
-8.459 4.9629 0.91499 0 7313
-8.3246 3.4345 1.4795 0 6632
-8.2656 0.050492 -0.19191 0 5430
-8.1662 0.6427 -1.1512 0 5586
-8.1057 1.3782 0 0 5766
-8.0781 -0.63151 0.94756 0 5221
-8.0076 4.1543 1.4821 0 7053
-8.0028 0.79314 0 0 5629
-7.9736 5.9066 1.6303 0 7985
-7.9514 1.8796 0.76227 0 5913
-7.8697 -0.75361 0.73756 2 5184
-7.7622 -0.71871 1.0956 1 5189
-7.7034 5.404 1.1004 0 7818
-7.6916 -1.3466 1.4712 0 5039
-7.6432 3.7146 0.99379 0 6933
-7.6359 -0.12929 1.0733 0 5376
-7.6174 1.6845 1.2817 0 5873
-7.4843 0.13325 0.69836 0 5461
-7.4571 5.2643 0.42568 0 7835
-7.4284 -1.3473 0.52792 0 5025
-7.4082 -1.3891 0.70319 1 5017
-7.3751 5.1737 0.84049 0 7816
-7.3697 1.541 1.237 0 5847
-7.3457 -1.4199 1.2292 1 5011
-7.2449 5.4337 0.42233 0 8015
-7.2288 -1.0327 1.0263 1 5095
-7.2151 3.53 1.3197 0 6949
-7.165 5.6707 1.5012 0 8180
-7.1282 1.5099 1.024 0 5854
-7.0728 -5.0449 0.2017 0 4860
-7.0474 -0.52989 1.1611 2 5229
-7.0471 4.9749 1.6253 0 7842
-7.0389 1.2792 0.33363 0 5788
-7.0309 5.833 1.5009 0 8319
-7.0242 0.16308 -0.16313 0 5475
-6.9081 1.1523 0.6534 0 5760
-6.8911 6.657 -0.22245 0 8745
-6.8684 3.5359 0.54019 0 7031
-6.8471 0.12191 1.1251 0 5463
-6.8444 3.3991 0.89366 1 6974
-6.836 3.5465 0.53852 0 7047
-6.8325 3.3694 0.89088 2 6962
-6.7508 0.15674 -0.3149 0 5474
-6.675 3.3382 0.87276 1 6986
-6.6716 6.0813 1.2687 0 8546
-6.6695 6.148 1.2748 0 8592
-6.6451 6.0572 1.4772 0 8548
-6.5884 5.1234 0 0 8132
-6.5612 -6.7446 1.3224 1 4521
-6.5248 3.9035 -1.0686 2 7350
-6.518 6.8278 1.5508 1 9032
-6.5057 6.5811 1.5204 0 8914
-6.5023 -6.8449 0.8808 1 4496
-6.5003 3.8888 -1.4272 2 7365
-6.4681 3.1645 0.67179 0 6944
-6.435 0.67407 -0.45244 1 5638
-6.4127 -6.0812 0.82451 0 4571
-6.4078 3.3243 0.84418 2 7050
-6.3853 6.8858 1.7693 1 9149
-6.379 6.8406 0.87263 0 9119
-6.3742 4.4715 -0.72641 2 7809
-6.366 6.1498 1.4542 0 8751
-6.3624 5.9351 1.6393 1 8637
-6.3559 5.8959 1.6334 1 8616
-6.3269 7.0218 1.7808 0 9274
-6.3264 -5.9994 0.60967 1 4570
-6.3264 1.5914 0.76288 0 5954
-6.3217 6.1756 1.452 0 8788
-6.2918 2.0164 0.77263 1 6208
-6.2894 1.9975 0.77171 1 6192
-6.2587 2.2904 1.095 1 6435
-6.2499 -4.8514 -0.18369 0 4767
-6.2281 -6.1826 1.2334 2 4544
-6.2247 6.7907 0.85944 1 9195
-6.2087 1.7932 0.90824 1 6074
-6.1981 7.1251 0.4404 1 9401
-6.1802 -6.3908 0.62167 1 4513
-6.1612 -0.78708 -0.28966 0 5123
-6.1595 7.3797 1.1241 1 9565
-6.154 -6.5511 0.41916 1 4484
-6.1529 -5.9709 1.205 0 4556
-6.1503 7.4107 1.1262 2 9588
-6.1385 1.3003 0.43877 0 5853
-6.1309 -6.3024 0.61483 1 4519
-6.1248 6.642 1.4844 1 9173
-6.1156 -4.1515 0.86439 0 4923
-6.1146 1.7869 0.59432 0 6083
-6.114 -4.2557 0.87113 2 4894
-6.0736 1.6422 1.0337 2 6015
-6.07 -6.4617 1.0368 0 4485
-6.0672 6.6188 1.05 1 9197
-6.0563 -3.8598 1.1799 1 4985
-6.0505 6.6378 1.4756 2 9223
-6.0429 1.6895 0.43877 0 6042
-6.0345 7.4043 1.7997 0 9663
-6.014 -6.2932 0.6087 1 4501
-6.0105 7.4622 1.3466 0 9713
-6.0046 -0.92634 0.56683 1 5070
-5.9988 -7.056 -0.64762 2 4380
-5.9872 6.727 1.2656 2 9314
-5.9826 1.5227 1.1631 0 5965
-5.9768 -1.1023 0.56701 0 5021
-5.9742 -4.3151 1.0357 2 4850
-5.9733 -4.3399 1.0377 2 4844
-5.9585 7.3976 1.7897 0 9716
-5.9513 7.5222 1.348 0 9798
-5.9426 -5.0737 0.18142 0 4675
-5.9405 -6.6651 1.2548 0 4440
-5.9303 6.3594 1.4286 2 9123
-5.9241 -6.5288 1.031 1 4456
-5.908 -7.1111 1.2993 0 4360
-5.8979 -6.8934 0.42307 2 4389
-5.8975 -6.8929 0.21061 2 4388
-5.8911 -6.7246 1.4688 2 4421
-5.887 -6.6845 1.6782 1 4428
-5.8836 -6.7564 0.83584 1 4417
-5.8527 -7.0022 0.42559 0 4366
-5.8507 -6.6433 0.61902 1 4424
-5.8488 -6.5209 0.20337 2 4443
-5.8443 -4.3515 1.024 1 4819
-5.8405 -4.1399 0.66789 2 4870
-5.838 -6.587 0.82116 1 4432
-5.8348 -6.8972 0.4213 2 4376
-5.8347 -4.1618 0.66864 0 4862
-5.8258 -6.7302 1.6771 0 4413
-5.8193 -6.7608 1.2537 2 4400
-5.8183 -6.8438 1.0505 0 4383
-5.8118 6.3759 1.2125 2 9221
-5.7942 1.3505 0.69574 0 5903
-5.7902 1.3325 0.69481 0 5895
-5.7564 -4.363 1.0151 0 4797
-5.7535 -0.13258 0.53692 0 5363
-5.728 2.602 1.1853 0 6814
-5.6904 0.88295 -0.13369 0 5738
-5.6879 -0.24635 0.53116 2 5306
-5.663 -6.6188 1.6412 2 4393
-5.663 0.6272 0.93608 0 5652
-5.6414 -0.046278 0.65974 0 5398
-5.6292 -6.6213 0.60772 1 4382
-5.6272 0.83798 0.53078 0 5727
-5.6165 6.3439 1.5964 1 9341
-5.6128 -0.17737 0.52391 0 5340
-5.6116 -3.9777 0.9667 2 4872
-5.6098 -0.32346 1.0587 1 5269
-5.6089 6.4478 1.2011 0 9404
-5.6081 -1.1349 0.80414 0 5001
-5.5978 -0.031264 0.65463 2 5404
-5.5942 -0.40395 0.92149 0 5235
-5.5827 1.2684 0.66949 0 5886
-5.5814 -0.33746 1.0535 1 5263
-5.5765 -0.19181 0.52057 2 5331
-5.5574 -6.5693 0.80277 0 4377
-5.5574 -0.25625 -0.78187 0 5293
-5.5297 7.6446 0.65976 0 10110
-5.5164 6.4156 1.5942 2 9452
-5.5022 7.9937 0.67859 0 10283
-5.4998 -4.5321 0.49834 0 4710
-5.4695 7.7563 0.66366 0 10194
-5.4687 -4.5322 0.49667 0 4705
-5.4183 -0.53318 0.76517 0 5181
-5.4103 1.2789 0.78132 0 5914
-5.4087 2.0675 0.95132 1 6512
-5.3931 -5.8057 1.1137 2 4478
-5.3754 -0.54412 0.75933 1 5176
-5.3678 7.38 0.63813 1 10089
-5.363 1.9987 1.0783 0 6468
-5.3521 7.6778 0.65446 0 10238
-5.3491 1.2645 0.12761 0 5912
-5.3266 -0.60406 0.50013 2 5152
-5.2978 2.134 0.93835 2 6589
-5.2812 -8.1045 -0.22459 0 4174
-5.2651 -6.6811 1.1955 1 4316
-5.255 2.4415 0.67762 0 6849
-5.2183 7.875 0.88136 0 10429
-5.2038 -4.1127 0.93218 1 4753
-5.1981 -4.3079 1.272 0 4708
-5.1908 7.4023 1.7034 2 10221
-5.1784 -4.6578 0.48704 1 4621
-5.1674 -0.37312 0.97612 0 5236
-5.1635 4.1367 -1.4063 0 8209
-5.1545 -0.38757 0.9739 0 5230
-5.1198 -4.8551 1.3294 0 4574
-5.111 -3.2573 0.70875 1 4983
-5.0992 -4.1263 0.92188 0 4729
-5.0806 1.3566 -0.12209 0 6000
-5.0758 6.8948 1.0012 0 10052
-5.0552 4.5549 -0.31733 0 8512
-5.0521 1.0564 0.36092 0 5846
-5.0495 6.8993 0.99983 0 10072
-5.0435 6.3747 0.95058 2 9797
-5.012 -0.69993 -0.11749 0 5099
-5.0108 -0.92417 0.59585 0 5022
-5.0077 3.1572 -0.83198 0 7486
-5.0054 -0.68477 0.47133 2 5107
-5.0048 -4.1241 1.0655 0 4713
-4.9625 4.5745 -1.4346 0 8593
-4.961 -4.9248 0.81747 0 4543
-4.9568 -6.2584 1.122 1 4321
-4.9471 7.6063 -0.21066 0 10495
-4.9424 -6.5827 1.3524 0 4280
-4.9424 -0.82175 0.46743 0 5049
-4.9394 -6.6171 1.3566 1 4275
-4.9185 -0.70263 0.46353 2 5093
-4.8994 -6.5635 0.76413 0 4273
-4.8983 -6.6829 0.5794 2 4258
-4.8913 7.7164 -0.42605 0 10596
-4.8902 2.4809 1.0331 0 7013
-4.8716 1.8486 0.12097 0 6490
-4.8568 -6.8747 1.183 0 4228
-4.8488 -0.5199 0.8012 2 5165
-4.8431 -3.5824 1.135 0 4826
-4.8389 -0.53422 0.91724 1 5161
-4.8354 -0.53383 0.79925 0 5160
-4.8076 5.2742 -0.49904 2 9210
-4.8068 4.5646 0.30913 0 8689
-4.7989 -6.4288 0.56098 0 4272
-4.7937 -0.51399 0.90836 2 5166
-4.7884 -0.20739 -0.6736 0 5301
-4.7862 -3.992 1.024 2 4701
-4.7643 6.794 0.77416 2 10217
-4.7641 6.5863 0.75837 1 10112
-4.7601 6.8285 0.77658 0 10240
-4.7529 -4.3766 0.3013 0 4595
-4.7517 -4.4032 0.453 2 4589
-4.7404 6.3992 0.9313 0 10029
-4.7235 1.9334 0.7173 0 6617
-4.718 -0.60271 0.89614 0 5126
-4.7099 -4.2887 1.2002 0 4611
-4.6759 -3.3353 0.8072 1 4864
-4.6548 -0.16011 0.76521 1 5332
-4.6461 -3.3361 0.80386 0 4856
-4.6387 -4.3196 1.1942 2 4586
-4.621 -3.8982 1.1391 2 4692
-4.6189 -5.6917 0.34183 0 4336
-4.5725 -4.1388 1.162 2 4618
-4.561 -3.2943 0.39343 2 4848
-4.5324 -3.293 0.39175 2 4842
-4.522 -3.8826 0.55605 2 4671
-4.4808 -0.84018 0.749 1 5019
-4.4759 -4.3435 0.58188 2 4554
-4.4749 -6.3742 0.7266 2 4224
-4.4704 -3.976 1.1272 2 4640
-4.4592 -0.88942 0.74705 0 5003
-4.4493 -0.79414 0.63519 2 5033
-4.449 -0.80691 0.63546 2 5028
-4.43 5.6641 0.67087 0 9846
-4.4161 -4.2113 1.0026 1 4568
-4.4117 -3.9473 1.1154 2 4635
-4.4082 -4.3501 0.87039 1 4547
-4.4071 -0.21554 0.83133 0 5292
-4.4012 -6.3491 0.90342 1 4216
-4.3961 -3.7321 0.94743 2 4684
-4.3959 -0.75694 0.41616 2 5040
-4.39 -0.20242 0.828 0 5300
-4.3723 -5.653 0.49974 0 4303
-4.3677 -3.5571 1.0613 0 4724
-4.3598 -4.3537 1.0123 2 4541
-4.3427 -6.2228 1.2467 0 4220
-4.3409 -2.8754 0.73177 0 4954
-4.3255 -4.079 1.1202 0 4579
-4.2987 -2.8098 0.72175 2 4966
-4.2883 -0.72685 0.81948 0 5047
-4.2806 -7.1923 1.1763 0 4163
-4.2585 -6.7493 0.55805 1 4169
-4.2505 2.5258 0.5782 0 7345
-4.2495 4.9423 0 0 9443
-4.229 -4.3231 1.1394 0 4528
-4.2156 -4.3334 1.1391 0 4522
-4.2144 -2.8266 0.23664 1 4935
-4.2082 -2.8034 0.23581 0 4943
-4.1966 -0.047612 0.097439 0 5390
-4.1953 -3.3949 0.37738 0 4726
-4.1812 -2.8931 0.95798 1 4903
-4.1794 -2.7318 0.82033 2 4967
-4.1738 1.2976 -0.10148 0 6160
-4.1722 -4.0487 1.0954 0 4557
-4.1716 4.9981 -0.15115 0 9559
-4.1466 -2.799 0.7031 2 4930
-4.1439 4.8194 -1.351 0 9449
-4.14 -2.8104 0.3499 2 4921
-4.1374 -2.7928 0.34906 0 4929
-4.1268 -3.8916 0.79718 1 4577
-4.1144 1.6423 0.83467 0 6575
-4.1115 8.6511 -0.89362 0 11572
-4.1103 -6.8164 0.93083 0 4167
-4.1101 -0.78255 0.68739 1 5015
-4.1021 -7.2683 1.173 0 4149
-4.0992 1.3406 0.10013 2 6237
-4.0846 -3.3851 0.49493 2 4706
-4.0844 -0.65494 0.67961 2 5063
-4.0786 -0.67813 0.67928 1 5052
-4.0773 -2.8212 0.57982 1 4900
-4.0604 -3.2857 0.48731 1 4727
-4.06 -2.8778 0.93761 0 4874
-4.0592 -2.6381 0.79536 0 4973
-4.0392 -3.1739 0.60073 0 4757
-4.0178 1.938 -0.10357 0 6914
-4.004 -5.1433 0.45579 0 4307
-3.9922 -2.8476 0.92391 0 4866
-3.9384 7.9339 -1.0358 1 11446
-3.9317 -3.2793 0.47765 1 4698
-3.9312 0.90471 0 0 5894
-3.9075 -7.9166 0.4117 0 4052
-3.9058 -3.1057 0.58354 1 4746
-3.8999 -2.6157 0.65996 1 4938
-3.8909 -3.4206 0.60584 0 4650
-3.885 -3.3558 0.96723 0 4669
-3.8658 0.0020243 -0.18028 0 5417
-3.8601 -3.3935 0.47951 2 4649
-3.8309 -2.4585 0.85762 0 4982
-3.82 3.078 0.68946 0 8228
-3.8059 -3.0797 0.92243 1 4731
-3.7916 -3.0879 0.68724 2 4722
-3.7866 -3.1004 0.68779 0 4718
-3.7741 3.3614 0 2 8486
-3.7678 4.7317 0.85007 0 9768
-3.7661 1.207 0.36897 0 6206
-3.7449 -3.086 0.91428 0 4714
-3.7398 -2.9387 0.89614 1 4759
-3.7147 -3.1536 0.45461 1 4681
-3.7075 -2.4866 0.73343 2 4939
-3.7013 -2.7219 0.75483 2 4832
-3.6982 -2.8552 0.65662 0 4776
-3.691 -3.0221 0.33358 1 4716
-3.6886 -2.7634 0.86836 1 4813
-3.6405 7.1264 -0.55959 0 11362
-3.6313 -2.419 0.82208 2 4948
-3.6145 -6.6738 -0.35394 2 4134
-3.6121 -3.1924 0.67749 0 4644
-3.6097 -3.045 0.33023 2 4687
-3.5938 -2.7407 0.63519 1 4791
-3.5825 -3.6826 0.47932 2 4520
-3.5703 -2.4391 0.81467 0 4918
-3.5406 0.58044 0.58947 0 5754
-3.5396 8.575 -1.0848 0 11920
-3.5306 3.2935 -1.144 0 8633
-3.5185 2.7847 -1.2867 0 8178
-3.4843 -3.6884 0.47338 1 4489
-3.4787 3.5399 -1.0549 0 8934
-3.4782 -0.0091068 0.1622 0 5410
-3.4571 8.1761 1.4584 1 11882
-3.4351 -2.4811 0.79838 2 4852
-3.4243 0.70539 0.40885 0 5838
-3.4146 -8.4007 0.42288 0 3924
-3.4102 2.7962 0 0 8279
-3.4088 -4.2763 0.89847 0 4325
-3.398 -2.4688 0.79134 0 4846
-3.3895 0.68713 0.40444 1 5831
-3.387 2.7614 0 1 8262
-3.3866 1.4431 0.69358 0 6691
-3.3861 0.34515 0.23801 0 5634
-3.3324 1.3974 0.59369 0 6660
-3.3026 9.2748 1.3837 0 12216
-3.2886 2.5573 0.38866 0 8135
-3.2827 0.24798 0.62026 0 5585
-3.2641 6.868 -0.88925 0 11570
-3.2602 0.039264 0.15205 0 5446
-3.2439 8.9465 1.5635 0 12184
-3.2438 -3.3543 0.54568 0 4515
-3.2386 -2.9822 0.82948 1 4600
-3.2328 -3.4031 0.65968 1 4497
-3.2244 2.5228 0.47877 0 8154
-3.2206 -3.349 0.54335 1 4509
-3.2194 -2.8303 0.80763 2 4651
-3.2129 -5.972 0.95306 0 4132
-3.2085 -4.2209 0.74513 0 4290
-3.1604 2.7502 0.19537 0 8432
-3.1575 0.82363 0.07576 0 5980
-3.1567 -3.0462 0.82652 0 4562
-3.1295 1.3014 -0.3162 1 6637
-3.1173 3.3034 0 0 9068
-3.1101 2.1018 0.3502 0 7699
-3.1006 1.2176 0.077338 1 6543
-3.0962 -5.9629 -0.62683 0 4102
-3.046 1.0453 0.45259 0 6320
-3.0053 2.1867 0.70025 0 7938
-2.9843 1.6474 0.39863 0 7184
-2.983 -3.6536 -0.10951 0 4341
-2.9675 -4.9859 0.95327 0 4164
-2.9672 1.6495 0.397 0 7201
-2.9371 -4.1837 0.71841 1 4225
-2.922 -4.9765 0.5384 0 4159
-2.9067 3.0802 0.69582 0 9075
-2.801 -6.0205 -0.15417 0 3997
-2.7885 2.8714 -0.85077 1 8972
-2.786 -5.3656 0.56404 0 4106
-2.7633 2.4046 -0.25615 0 8428
-2.7163 -6.3101 1.1287 0 3961
-2.6728 -7.7054 -0.18935 0 3860
-2.6552 5.8507 -0.29962 0 11699
-2.6381 6.0469 -0.6155 0 11795
-2.626 -5.0574 0.1323 0 4104
-2.5532 3.6208 0.62266 0 10198
-2.5206 -8.3381 1.6412 0 3799
-2.4885 -4.3788 0.23487 0 4151
-2.4787 -3.711 0.41634 2 4185
-2.4331 -1.7795 0.42364 0 4838
-2.4094 -3.8936 0.53545 0 4168
-2.3677 4.2313 -0.11257 0 11045
-2.3195 -6.1061 0.91799 0 3904
-2.2989 -4.3956 0.46279 1 4113
-2.2942 -3.2474 0.74913 0 4229
-2.2924 -8.2773 1.4111 1 3775
-2.2867 6.8621 1.1883 0 12327
-2.2846 -8.7331 1.4831 0 3755
-2.2629 -6.1737 0.92411 0 3886
-2.2598 -2.3789 -0.076178 0 4494
-2.2245 5.2611 0.39943 0 11876
-2.2028 -8.1301 1.1838 0 3766
-2.1967 -9.3953 1.5852 0 3716
-2.186 -7.803 1.3313 0 3777
-2.157 -4.5652 0.95131 0 4012
-2.1543 -2.9392 0.33998 0 4259
-2.1285 9.762 -0.23197 0 12843
-2.1114 -6.9148 0 0 3801
-2.0999 6.1826 0.76357 0 12291
-2.0922 -6.0866 0.75266 0 3859
-2.0681 -3.0765 0.086066 0 4188
-2.0462 -6.3013 1.0885 0 3834
-2.0373 -7.6139 0.73533 0 3762
-1.9974 -4.8726 0.61583 0 3929
-1.9893 6.5311 0.47741 0 12487
-1.9793 4.2954 -0.44124 0 11652
-1.9515 8.1475 0 0 12766
-1.9199 -3.723 0.097253 0 4095
-1.9165 5.8017 1.0039 0 12346
-1.9005 5.5956 -0.41324 0 12284
-1.8998 3.8271 -1.4437 0 11456
-1.8972 -3.1463 -0.34277 0 4166
-1.8827 -3.6791 0.095953 0 4087
-1.8813 7.4734 0.71898 0 12725
-1.8769 4.3023 -0.65968 1 11793
-1.8768 -5.6715 0.98148 0 3843
-1.8716 3.3918 -0.54445 0 11085
-1.8624 -5.6845 0.98277 0 3840
-1.8493 4.2389 -0.32339 1 11796
-1.8383 6.2904 0.61141 0 12556
-1.8369 2.5724 0.44424 0 10155
-1.8329 -5.881 0 0 3810
-1.8318 2.5493 0.44118 0 10136
-1.8306 4.3655 -0.55357 0 11885
-1.8026 -4.4349 0.44662 0 3925
-1.7913 -6.1859 0.60083 2 3785
-1.7742 3.2152 -0.96134 0 11103
-1.7148 2.9834 0.079892 0 10956
-1.7128 -3.5716 0.55669 0 4027
-1.7071 2.9509 0.079149 1 10930
-1.6633 -4.6607 0.23077 0 3874
-1.6454 -4.6543 0.23022 0 3870
-1.6309 7.3689 -0.70412 0 12829
-1.6138 -5.0174 0.12237 0 3829
-1.6035 -5.0396 0.12279 0 3823
-1.5643 -3.287 0.33961 1 4017
-1.4714 3.0506 -0.39607 0 11527
-1.4155 -6.8472 0 0 3663
-1.4107 -3.3298 0.33738 0 3951
-1.3809 -5.8278 0.84172 0 3719
-1.35 -6.8366 1.1449 0 3653
-1.3205 -4.7679 0.69531 1 3774
-1.2312 -4.7608 0.9265 0 3750
-1.2247 8.3743 0.59181 0 13031
-1.1593 -4.0033 0.29144 0 3784
-1.1557 7.7518 0.36549 0 13023
-1.1297 -3.0541 0.535 0 3890
-1.1296 8.2252 -1.1668 0 13048
-1.1169 9.8333 1.1573 0 13106
-1.0808 -5.3125 0.89069 0 3661
-1.0258 -6.5807 -0.15463 0 3591
-1.0238 -5.0319 0.6005 0 3659
-1.0069 -8.5717 0.40248 0 3536
-0.98234 -4.4274 -0.21149 0 3689
-0.97887 6.3085 0 0 13010
-0.97509 -7.5594 0.89134 0 3552
-0.91189 8.2203 1.1624 0 13111
-0.90889 -7.5438 1.4316 0 3541
-0.90783 -3.7297 0.26842 1 3728
-0.89295 -3.5814 0.69543 0 3737
-0.8732 -3.6372 0.43742 0 3723
-0.86016 6.4125 -0.60361 0 13058
-0.8328 -3.3009 -0.15876 0 3739
-0.83216 -6.4513 1.0687 0 3553
-0.83106 -3.4143 0 0 3725
-0.82908 3.7459 0.63032 1 12835
-0.77647 6.1899 -1.0249 0 13079
-0.77505 3.5547 -0.33943 2 12841
-0.7438 -4.2794 0.81837 0 3623
-0.71888 -4.366 -0.10273 0 3607
-0.70097 -7.0104 0.6573 0 3516
-0.68818 -8.3705 0.98217 0 3502
-0.68523 4.1753 0.4948 0 12988
-0.683 -7.9996 1.5127 0 3505
-0.68261 -3.0389 -0.14525 0 3696
-0.65859 6.2765 0.73802 0 13118
-0.65647 4.1542 -0.29409 0 13002
-0.63296 -2.935 0.42197 0 3682
-0.613 7.5203 -1.4216 0 13156
-0.61224 -4.6379 0.54707 0 3558
-0.60902 -3.3916 0.56612 0 3629
-0.6043 -8.2094 1.3524 0 3496
-0.55912 -4.4259 0.31195 0 3547
-0.54872 -4.4433 0.31307 0 3544
-0.54433 -3.492 -0.16481 0 3590
-0.52389 3.3763 0.39956 0 13012
-0.4342 -8.149 0.76134 0 3482
-0.42692 3.2472 -0.076039 0 13069
-0.41915 3.4285 -0.48544 0 13086
-0.37128 -3.1606 0.37215 0 3538
-0.36165 -5.8625 -0.27391 1 3489
-0.33341 -4.2082 0.69355 0 3500
-0.30539 -8.5317 0.59698 0 3470
-0.30256 -5.138 0.60189 0 3487
-0.26093 -7.2896 0.85301 0 3471
-0.25736 8.0112 -0.93734 0 13225
-0.25349 -4.7574 0.78272 1 3483
-0.23191 3.6156 -0.084116 0 13180
-0.19925 5.7057 0.53264 0 13224
-0.19149 -6.4141 0.90184 0 3462
-0.14955 -6.1634 0.57519 1 3454
-0.14744 3.6082 -0.25252 0 13214
-0.14612 6.2465 1.0265 0 13240
-0.14088 7.9126 1.3002 0 13248
-0.13978 5.9756 -0.69899 1 13237
-0.13835 -5.7015 0.66694 0 3455
-0.13779 3.6365 -0.25447 0 13218
-0.10175 5.7149 -0.80331 1 13246
-0.082952 -8.6413 0.20063 0 3441
-0.054615 6.0173 -1.2791 0 13261
-0.037325 -9.2983 1.7519 0 3433
-0.033209 5.4363 -0.50719 0 13263
-0.029859 -3.1105 0.14506 1 3442
-0.027476 4.4977 0.63212 0 13268
-0.025975 -3.9164 0.27386 0 3437
-0.025604 8.1504 -0.95313 0 13269
-0.022255 3.643 0.25475 1 13265
-0.020697 -3.1205 0.14553 0 3436
-0.013262 -3.3037 0.54278 0 3432
-0.011507 3.663 0.25615 0 13271
-0.0089948 -8.5896 1.2072 0 3429
-0.0033604 -3.209 0.52722 0 3430
-0.0027503 5.2532 0.4901 0 13274
0.017582 3.1479 -0.82408 0 13282
0.027864 -3.6282 0.50993 1 3423
0.035021 6.2703 -0.88124 1 13278
0.074017 -9.638 1.1271 0 3422
0.074778 -9.7372 1.5998 0 3424
0.097237 -3.1645 0 0 3405
0.11512 4.4257 0.30958 0 13309
0.12601 6.2774 0.43905 0 13296
0.16802 6.4595 -1.3735 0 13311
0.20114 8.7958 1.4455 0 13303
0.20736 -3.4597 0.48711 2 3391
0.21996 8.4564 -0.78921 0 13305
0.22248 -8.9124 1.6797 0 3412
0.23016 -3.8401 0.089315 1 3390
0.24366 -5.7181 1.0783 0 3400
0.29864 -3.8723 0.54584 1 3383
0.31539 -4.4107 0 0 3386
0.32295 8.6426 0.40332 0 13327
0.39343 8.0156 0.37425 0 13344
0.41094 4.1612 0.195 0 13405
0.43767 3.9707 -0.56142 0 13422
0.44384 6.9769 -1.3172 0 13359
0.4497 -4.1128 0.58147 1 3365
0.50104 5.4113 -0.507 0 13394
0.50201 5.7845 -1.2342 2 13387
0.52268 4.0915 -0.67766 0 13445
0.54708 4.2825 -0.40278 1 13447
0.56491 -5.6101 0.13091 0 3371
0.58129 8.07 -0.75484 0 13368
0.58324 3.5078 0 0 13488
0.58615 5.3178 0 0 13426
0.58721 8.8176 1.242 0 13362
0.60333 7.1849 -0.33624 2 13382
0.61107 -4.6921 0.55334 0 3356
0.61561 5.4454 0.25556 0 13430
0.62092 -8.6835 0.20212 0 3387
0.64393 3.0451 0.29038 0 13578
0.66316 5.4403 0.90042 0 13442
0.66819 -7.7623 0.5448 0 3378
0.67017 8.913 1.2562 0 13375
0.68484 3.7168 -0.62092 0 13516
0.69992 6.7043 0.62888 1 13416
0.70754 5.2957 0.49846 0 13453
0.73296 5.3646 0.50515 0 13456
0.74913 5.0427 0 0 13466
0.75301 5.168 -0.12125 0 13462
0.75876 -9.8385 1.6212 0 3384
0.76918 3.5397 0.33794 0 13587
0.77388 -5.5771 0.92506 0 3352
0.77692 -4.3793 0.52012 0 3331
0.77853 3.0632 -0.9063 0 13632
0.78522 3.0516 -0.90354 2 13639
0.80017 5.2784 -1.1348 0 13471
0.81232 -8.8404 -0.20611 0 3375
0.81914 4.9267 0.46595 0 13490
0.8336 3.2396 0.47013 0 13641
0.84131 -7.6944 1.2717 0 3366
0.84383 -4.0711 0.48621 0 3316
0.84702 4.0055 0.47877 0 13579
0.84837 5.1977 -1.3787 0 13486
0.87482 -3.8724 0 0 3303
0.88672 -3.4636 0.25001 0 3287
0.91718 7.8907 -0.18443 0 13435
0.94068 -3.9577 0 0 3295
1.0009 -6.9201 -0.16234 0 3346
1.0018 3.1334 -0.46233 0 13714
1.0114 -3.1389 0.54181 2 3256
1.016 3.1455 -0.46456 2 13717
1.0374 -3.2507 0.56061 0 3259
1.0572 3.2383 -0.47876 0 13721
1.0733 -6.5973 0 0 3339
1.1045 -9.1007 1.0721 0 3360
1.2089 3.5308 0 2 13761
1.2112 3.5722 0 0 13753
1.2408 5.551 0 0 13592
1.2454 -6.0886 1.021 0 3318
1.2455 -4.1071 0.60318 0 3265
1.2513 5.6818 -0.95586 0 13589
1.2678 3.3234 0.49991 0 13846
1.2714 8.0822 -1.1498 0 13475
1.2807 -4.3126 0.10445 0 3268
1.339 3.6988 -0.18345 1 13803
1.345 -7.5815 0.17877 0 3330
1.3668 -5.7506 0.9711 0 3296
1.3976 8.2543 -0.19437 0 13493
1.4336 -3.6375 -0.18233 0 3244
1.4443 -4.9201 0.47839 0 3270
1.4705 -5.601 0.54026 0 3283
1.4726 -2.6242 0.069864 0 3153
1.4744 6.021 1.1679 0 13624
1.4848 -4.1513 0.41133 1 3252
1.4891 -3.912 0.39052 0 3250
1.4943 -3.8887 0.38866 0 3249
1.4999 -7.1238 0.16902 0 3314
1.5128 4.6838 0.80866 1 13720
1.5156 -6.5389 0.78495 0 3299
1.5293 -6.1843 1.0467 0 3291
1.5612 3.244 0.16789 0 14056
1.579 -7.4996 0 0 3313
1.5793 -3.9425 0.69777 0 3243
1.5835 3.1733 -0.92842 0 14098
1.6421 8.3701 1.4014 0 13549
1.6534 -3.7736 0.48179 1 3237
1.7215 -9.2346 1.3202 0 3326
1.7303 -5.6527 0.41338 0 3262
1.7336 6.8211 0 0 13631
1.7534 -7.9814 1.1485 0 3306
1.7756 -5.5635 0 0 3257
1.8124 -7.8191 1.3187 0 3300
1.8189 -3.0525 0.24847 0 3123
1.8362 -3.0608 0.24959 0 3118
1.8499 6.2774 1.0752 0 13688
1.8526 8.1808 0 0 13598
1.8625 9.4934 -0.6765 0 13543
1.8759 -2.948 0.40862 0 3084
1.8923 -2.3858 0.0707 0 2806
1.8955 8.0435 -0.57786 0 13610
1.9143 4.6102 -0.34906 0 13918
1.9294 -2.4457 0.072325 0 2815
1.9604 -5.0646 -0.37975 0 3247
1.9887 7.825 1.3265 0 13633
2.0137 -9.2903 0 0 3309
2.0345 -6.6464 1.142 0 3263
2.037 4.8246 -1.1132 1 13929
2.0497 -2.2828 0.57804 0 2647
2.0512 4.8207 -1.1136 0 13935
2.0664 -2.4987 0.15121 0 2746
2.0777 -6.5777 0.64356 0 3260
2.0909 8.9923 1.5168 0 13609
2.0981 7.3607 -0.89506 0 13668
2.1274 4.1681 -0.43659 0 14122
2.1284 3.8635 -1.4905 0 14202
2.1302 3.4304 0 0 14334
2.1316 3.4554 0 0 14326
2.1406 3.8586 0.62016 0 14213
2.1476 5.0059 -1.2907 0 13941
2.1922 -3.6056 0.29507 0 3110
2.2094 2.8804 -0.68395 0 14598
2.2095 -2.6889 0.40699 0 2756
2.2136 3.3444 -0.46902 0 14397
2.2523 4.7156 -1.3681 0 14047
2.286 -2.3352 0.30487 0 2572
2.2869 -2.3361 0.075899 0 2570
2.2979 8.9303 -1.0783 0 13634
2.3258 -6.5606 1.1436 0 3253
2.3282 2.0295 0.28815 0 15544
2.3365 -2.3994 0.077756 0 2577
2.3516 3.239 0.56254 0 14517
2.3788 7.8247 -0.95638 0 13695
2.3896 2.4359 -1.4253 0 15112
2.4111 6.0039 0.75661 0 13892
2.4253 2.4577 -1.4423 0 15130
2.4299 4.5355 0.3598 0 14171
2.4328 2.6887 0 1 14877
2.4385 2.6808 0 2 14892
2.4582 4.145 -0.4496 0 14282
2.4665 7.4844 1.2947 1 13732
2.4686 8.5584 1.6782 0 13680
2.4851 -2.3674 0.16006 1 2506
2.5135 3.5684 0.10134 0 14480
2.5253 2.729 0.61087 0 14935
2.5264 -4.9264 0.38715 0 3198
2.5311 5.6743 -0.28975 0 13978
2.5476 -7.3904 1.0986 0 3255
2.575 -5.9705 0.91381 0 3238
2.6048 3.3557 -1.3255 0 14616
2.6123 5.4694 -0.42384 0 14046
2.6156 -2.351 0.5778 2 2436
2.6167 -2.7344 0.26466 0 2594
2.6193 2.6257 0.69876 0 15176
2.6441 3.3855 -1.3404 0 14625
2.6492 7.7375 -0.76301 0 13760
2.6607 -4.0002 0.33595 0 3049
2.664 -5.7999 -0.4463 0 3230
2.7111 -2.6586 0.62384 0 2536
2.7119 -2.6743 0.26633 0 2542
2.7731 -3.2377 0.80319 0 2700
2.7898 8.3815 0.82414 0 13738
2.838 -3.5577 0.7477 0 2800
2.844 5.9095 -0.15226 0 14055
2.8602 4.4314 -1.3807 0 14371
2.8686 5.8271 -0.30289 0 14077
2.8816 7.1142 -0.35795 0 13899
2.9441 1.2207 0.073996 1 17534
2.9633 1.2371 0.074553 0 17513
2.9841 1.9849 0.58882 1 16308
2.9977 -0.3426 -0.07005 0 21078
3.0229 -3.9739 0.70171 0 2866
3.04 4.6813 -0.52075 0 14377
3.0496 2.0147 0.60049 0 16324
3.0853 -6.7701 0 0 3233
3.0952 -2.9485 0.80541 0 2511
3.0952 -0.35976 0 0 22
3.1201 -0.35274 0 0 7
3.1429 1.4542 0.65248 0 17274
3.169 8.4488 -0.2095 0 13833
3.1861 0.96618 0.54699 1 18214
3.2267 2.4403 -0.18866 2 15911
3.2385 -0.56695 0.30673 0 232
3.25 7.1183 1.2856 0 14002
3.275 -1.027 0.48237 0 550
3.2918 4.822 -0.13555 1 14442
3.2927 -3.2847 0.21689 0 2549
3.3091 4.7861 0.54286 0 14461
3.3174 -8.5705 0.85739 0 3248
3.3525 -1.0828 0.081795 1 575
3.3596 4.4877 -0.26143 0 14552
3.3926 -3.3269 0.55567 0 2535
3.3939 1.0714 0.50019 0 18128
3.4034 -7.4098 0.57019 0 3231
3.4093 4.392 0.25928 0 14615
3.4304 -3.9351 -0.61049 1 2672
3.4323 8.6868 1.0923 0 13876
3.4362 5.9468 -0.64077 0 14253
3.4375 3.9129 0.98131 0 14822
3.4378 -0.033002 0 0 20463
3.4551 -8.4791 1.2868 0 3242
3.4606 -0.83529 0 1 363
3.4724 -0.82916 0 0 356
3.4862 3.946 0.99204 0 14835
3.4923 -1.0717 0.084812 2 527
3.5272 -8.3097 1.2687 0 3240
3.529 -5.2419 -0.29469 0 3035
3.559 1.4026 0.35689 0 17654
3.5753 -1.2116 -0.087644 0 622
3.5903 -0.34697 0.083745 0 20992
3.615 1.8531 0.47506 0 17021
3.6299 -5.2286 -0.29683 0 2998
3.6435 1.9487 0.48319 0 16915
3.6487 4.8737 -0.85564 0 14549
3.6516 3.6174 0 0 15198
3.6559 0.52878 0.17227 0 19301
3.6705 -5.8445 1.1339 0 3093
3.7016 1.4469 0.27791 0 17672
3.7145 -3.7287 -0.49103 0 2553
3.7324 -0.28457 0.52607 0 20899
3.7742 0.43469 0.7158 2 19540
3.7872 1.4288 0.66502 0 17756
3.8131 -1.3048 0.28182 0 635
3.8708 -4.0932 0.65881 0 2604
3.9162 5.3606 -0.93302 1 14519
3.942 -0.19762 -0.091636 0 20747
3.9441 7.5189 1.1933 0 14153
3.9578 4.2028 -1.2271 0 14983
3.9658 7.3469 0.38934 0 14179
3.9762 1.5807 0.50038 0 17635
3.9848 0.4364 0.37398 0 19582
3.9866 -3.7319 0.89718 0 2490
3.9948 7.2515 1.3602 0 14205
4.0427 0.30185 0 0 19867
4.0551 -0.72232 0.095628 0 239
4.0625 -0.61585 0.67507 0 168
4.0692 -0.25031 -0.094654 0 20815
4.114 1.4053 0.304 0 17964
4.118 -0.74539 0.09716 0 245
4.1341 -4.5258 0.86148 0 2631
4.165 -0.58165 0.19612 0 119
4.2168 -2.7541 0.23487 0 1981
4.2382 -0.23695 -0.098553 0 20780
4.2409 -2.9684 0.85048 1 2109
4.247 8.2073 -1.0807 0 14135
4.2492 0.11943 0.098692 1 20207
4.2609 4.1465 -0.41575 0 15245
4.2658 5.6671 0.66176 0 14566
4.2794 -3.5654 0.65137 0 2347
4.3134 -0.25399 -0.10032 0 20797
4.3139 6.0838 1.2253 0 14493
4.3152 -3.7446 0.93868 1 2394
4.3748 -3.0622 1.0061 0 2111
4.3909 -0.58744 0.83467 0 101
4.4128 2.3602 0.46687 0 16913
4.461 -3.2375 0.25705 0 2171
4.4676 3.8482 0.55011 0 15579
4.471 -1.0388 0.42823 0 346
4.4744 6.3523 -0.18039 0 14479
4.5043 8.289 -0.43993 0 14185
4.5149 7.1778 -0.19687 0 14345
4.5563 -1.0998 0.77007 0 367
4.5663 -1.1174 0.77234 0 374
4.5672 6.1007 -0.71099 1 14551
4.58 -1.1055 0.43956 0 364
4.6088 7.0055 1.3777 0 14395
4.6243 1.5797 0.11345 0 17961
4.6489 6.2098 0.90714 0 14556
4.6636 8.2362 0.88303 0 14235
4.6877 5.9335 0.35264 0 14644
4.7188 2.0186 0.23935 0 17457
4.7345 4.5054 0.60974 0 15308
4.7424 -3.1964 0.6688 0 2044
4.7456 -0.94481 0.11234 0 290
4.7829 -4.5293 0.77031 0 2501
4.8103 1.1744 0.81352 0 18603
4.8106 5.911 1.0711 1 14690
4.818 4.5307 1.2461 0 15347
4.8201 2.6696 -0.25695 0 16799
4.8457 1.6393 0.35771 0 17984
4.8941 7.121 -0.40295 0 14451
4.9102 2.43 -0.3831 1 17099
5.0351 -5.0229 0.16512 0 2548
5.0562 1.8583 0.37668 0 17808
5.0804 2.4757 0.52725 0 17142
5.1009 3.0601 -0.1381 0 16592
5.1152 3.509 0.57872 0 16217
5.1297 -5.2401 1.3816 0 2573
5.1307 0.71286 0 0 19342
5.1358 5.7481 1.0833 0 14858
5.1386 -5.691 0.35757 0 2641
5.1972 2.572 0.541 0 17106
5.2444 6.0756 0 0 14778
5.271 -0.34086 0 2 20832
5.2834 -6.5806 -1.186 1 2784
5.2985 2.3039 -0.26944 2 17413
5.3373 7.4882 -1.2924 0 14495
5.3554 2.074 0.94354 0 17696
5.3788 -5.2746 1.4194 0 2537
5.3806 3.314 1.0382 0 16522
5.382 7.8308 0 0 14452
5.3881 3.6962 0.4569 1 16215
5.3941 0.79846 0.89588 0 19285
5.3979 1.6699 0.9283 0 18172
5.4387 -6.2389 1.1632 0 2679
5.4541 -6.7113 1.4208 0 2775
5.4752 4.8016 1.0235 0 15530
5.4828 5.8529 0.1862 0 14957
5.4843 -3.2953 0.59692 2 1800
5.4886 0.81245 0.38799 2 19277
5.5676 -1.5692 0.95035 0 466
5.5914 2.1095 0.55754 0 17752
5.6237 4.3293 1.3372 0 15871
5.6332 6.9639 0.83566 0 14679
5.6503 -6.4816 0.40099 0 2677
5.6532 -1.3135 0.40584 0 345
5.6583 0.53786 -0.26506 2 19692
5.6786 0.78898 1.0802 0 19354
5.6818 -0.0049583 0.26497 0 20406
5.7247 -3.555 0.62869 0 1876
5.7274 1.4333 0 0 18553
5.7286 0.076994 0.5345 0 20310
5.7516 3.3154 -0.93302 0 16691
5.7695 7.3502 1.3132 0 14638
5.7794 1.5876 0.2795 0 18393
5.7832 4.1909 0.16582 0 16035
5.7936 7.9305 -0.45801 0 14523
5.8151 1.6159 0.28146 0 18370
5.8252 3.6104 0.47923 0 16499
5.9182 -7.8738 1.6183 0 2885
5.9602 5.5057 0 0 15386
5.9703 7.8343 -0.68878 0 14582
6.0035 4.7362 0.71341 0 15806
6.0394 -5.1508 1.3041 0 2375
6.0532 5.0023 1.2902 0 15691
6.0559 4.4177 -0.17403 0 16012
6.0692 1.0592 0.43082 0 19080
6.081 1.6898 1.0369 0 18376
6.0898 0.27654 0.85675 0 20091
6.1019 -5.2949 0.94477 0 2392
6.1384 1.3462 -0.1459 0 18756
6.1636 0.85637 0.87456 0 19351
6.1722 3.9276 1.202 1 16430
6.1751 1.3747 -0.14688 0 18735
6.2324 -7.4038 1.8234 0 2724
6.2552 -0.40451 -0.14553 0 20831
6.2669 3.3758 0.33195 0 16888
6.2702 -4.0704 0.69743 0 1970
6.2806 -0.040559 0.58596 0 20448
6.2932 0.10326 0 0 20286
6.3243 -2.2682 0.31332 0 687
6.3365 -2.6506 -1.46 0 950
6.3557 -5.6767 1.4001 1 2426
6.361 2.1111 0.94192 0 18026
6.3811 -0.68983 -0.14901 0 21048
6.3953 2.4128 0.47797 0 17750
6.4066 -1.3922 1.0771 0 321
6.5243 0.80918 1.2387 0 19468
6.5448 -6.6856 0.4363 0 2571
6.5527 -0.042316 0.30559 0 20444
6.5672 4.5882 0.74741 1 16164
6.5985 1.1516 0.15551 0 19076
6.6484 -0.9474 0.4696 0 132
6.6539 3.6338 1.0655 0 16852
6.7251 2.0394 0.65563 0 18210
6.7743 5.404 -0.20119 0 15769
6.7936 -2.7738 0.3422 0 899
6.7949 -0.76817 0.15876 0 8
6.8076 -3.2997 0.70579 1 1289
6.8558 -7.2498 -1.1668 0 2600
7.0361 -1.9831 0.68201 0 462
7.0505 4.5699 0 0 16370
7.0618 3.3426 0.54633 0 17216
7.0856 -1.9079 0 0 432
7.1966 3.4558 -0.37229 1 17172
7.2029 2.161 1.0569 0 18235
7.3108 -5.1457 1.4688 0 2122
7.3359 -1.1527 0.3463 0 184
7.3361 0.80343 0.51606 0 19580
7.371 4.84 0 0 16334
7.4295 2.3454 0.91109 0 18126
7.4441 2.1627 0.17998 0 18290
7.5374 -1.9816 1.2804 0 420
7.5446 1.0254 0.17677 0 19367
7.5777 2.6849 0.3749 0 17884
7.6003 -2.1421 1.1098 0 464
7.6313 4.609 1.6797 0 16584
7.686 4.857 1.713 0 16449
7.7286 5.3018 1.5398 0 16222
7.7373 3.5522 -0.19766 0 17283
7.7538 -5.5614 1.5677 0 2153
7.7667 -2.8084 -1.1607 0 697
7.7851 5.2748 0.43854 0 16249
7.7878 0.96588 0.36596 0 19458
7.8275 2.4215 1.1515 0 18170
7.8414 4.3109 0.41729 0 16825
7.9405 0.98482 -1.1245 0 19446
7.9429 -1.6999 0.75781 0 316
7.9635 3.2434 0.80221 0 17576
7.9913 1.2743 0.56586 0 19186
8.0389 -1.2905 0.18903 0 193
8.1379 3.8225 0.83881 0 17235
8.1506 3.9138 -0.20992 0 17174
8.2739 0.73697 1.3647 1 19753
8.2882 4.8433 -0.44767 0 16661
8.3042 0.66668 0.38851 0 19820
8.3185 -1.3354 1.3842 0 195
8.4417 3.8151 0.86427 0 17325
8.4829 -2.3111 1.4445 0 444
8.4981 0.73303 -0.19803 0 19765
8.5774 2.9836 0.21085 0 17922
8.6171 -0.78118 0.80723 2 20965
8.6634 3.7382 -0.21906 0 17434
8.701 -0.64049 1.6438 0 20887
8.79 1.9021 1.4776 0 18785
8.799 -1.8575 0.839 0 312
8.8472 -0.23785 0.41273 0 20589
8.9124 -0.96347 1.689 0 21056
8.9132 -0.18826 1.6797 0 20556
8.9217 -0.96448 1.4743 2 21054
8.9421 -0.0078035 1.4691 2 20414
9.0191 -4.1483 1.8704 1 1173
9.0537 -0.24341 1.2729 0 20595
9.0568 1.3099 1.7241 0 19310
9.0664 -1.0618 0.85163 0 21097
9.0681 -0.48 1.2762 1 20770
9.0811 -0.95926 1.5003 0 21039
9.0832 -0.45537 1.2782 1 20754
9.0858 2.3853 1.3202 0 18479
9.1045 -0.036548 1.2796 2 20430
9.1386 -0.69676 1.5058 1 20900
9.1786 0.1506 1.2901 2 20294
9.1827 1.3593 1.0855 1 19281
9.1986 -0.56583 0.85981 1 20817
9.2052 -0.70184 0.86129 1 20896
9.2176 -0.97369 1.7464 0 21041
9.2372 0.74158 1.3024 2 19828
9.2513 0.18087 1.3004 2 20273
9.2616 1.1782 -1.3121 1 19424
9.2659 1.2067 -1.3132 2 19400
9.269 -0.33016 1.3035 0 20656
9.2743 -0.65503 1.5275 2 20871
9.2937 -0.92599 1.7597 0 21012
9.3129 -0.4115 1.7564 1 20720
9.3578 1.1076 0.87913 0 19506
9.3625 -0.33349 1.5392 1 20658
9.3713 3.291 -1.1615 1 17893
9.3729 0.45185 1.3188 0 20071
9.3746 2.3148 1.8193 0 18583
9.3814 0.48017 1.3202 0 20051
9.3999 -0.63588 1.3241 1 20855
9.4038 -0.11818 1.7719 1 20495
9.4205 2.5878 -1.1425 2 18381
9.4657 -0.41825 1.5567 1 20718
9.4859 0.43075 0.44282 0 20085
9.4926 0.79044 -0.22115 0 19791
9.4946 -0.77726 1.7949 0 20931
9.5022 -0.97358 1.7997 1 21026
9.504 -0.55965 1.338 1 20804
9.5141 -0.75546 1.7982 0 20915
9.5279 1.295 1.3514 0 19375
9.5336 -1.9847 0 0 306
9.5354 0.65508 1.8008 0 19927
9.5374 0.68198 1.8015 1 19903
9.5407 -0.6454 0.89213 1 20851
9.5458 0.99151 1.8082 0 19634
9.551 0.32352 0.89158 1 20170
9.5573 0.85129 1.8078 2 19755
9.5647 -0.20202 1.1188 1 20550
9.58 -0.22911 1.1206 2 20572
9.5821 0.96487 1.8145 0 19660
9.5836 -0.61974 1.3497 2 20838
9.5859 0.65855 0.67189 0 19918
9.6015 -0.53681 1.1246 0 20786
9.6089 -1.0863 1.1308 1 11
9.6158 0.49217 1.126 2 20049
9.6217 0.96886 0.67622 1 19650
9.6223 1.0266 1.36 0 19608
9.6277 -0.37154 1.5829 1 20678
9.645 1.3109 1.1383 0 19373
9.6603 1.0034 0.67915 0 19625
9.6626 0.18891 1.5878 1 20275
9.6726 1.4318 1.8423 2 19287
9.6953 0.35721 0.90514 0 20151
9.6987 1.5465 1.8504 1 19195
9.716 -0.68623 0.6811 0 20866
9.7215 0.46866 1.8337 2 20074
9.7233 -1.1388 1.8445 2 21102
9.7233 -0.74134 1.1404 1 20897
9.7346 -1.3594 1.1494 0 121
9.7423 -1.2757 1.3809 1 88
9.7539 0.16004 1.6027 1 20296
9.7774 -0.91735 1.6134 0 20983
9.7907 0.30256 0.4568 0 20186
9.8042 -0.8026 1.1504 1 20926
9.8441 -1.2 0.9252 2 53
9.8484 -1.1134 1.6283 2 14
9.8616 -1.2318 1.1622 0 65
9.8806 -0.49534 0.92297 1 20750
9.8958 -0.66942 1.1599 0 20853
9.8968 0.42 1.8663 1 20118
9.9113 -1.152 1.1668 0 25
9.9114 0.47782 0.92576 2 20067
9.9156 -1.1525 1.8808 0 30
9.9306 0.45095 0.92743 2 20088
9.9573 -0.12513 1.3995 0 20491
9.9831 0.51097 1.8834 1 20055
9.9839 0.3975 1.4043 1 20135
-12.451 2.3797 -0.29431 0 5807
-12.077 3.2655 1.7583 0 6013
-11.945 6.5479 0 0 7166
-11.862 0.93359 0.5549 1 5591
-10.901 9.992 -1.7293 0 8555
-10.295 -0.65491 1.2063 0 5254
-10.107 2.5125 0.48568 1 5944
-9.8245 2.6564 -0.23629 0 6011
-9.5661 4.7507 1.7548 0 6977
-9.5612 7.4808 0 0 8149
-9.1765 3.1777 -1.8297 1 6342
-9.029 4.547 -0.23471 0 6994
-8.9344 8.144 -1.699 0 8533
-8.4769 -5.971 0.48354 1 4877
-7.6319 -6.8285 0.47757 1 4629
-7.5169 7.8743 0.50767 1 9026
-7.429 8.347 1.8359 0 9316
-7.342 7.0506 0.7118 0 8728
-7.1916 -9.185 0.81573 0 4310
-7.09 12.335 -0.99487 0 10949
-6.8022 6.2004 -1.7341 1 8549
-6.3484 12.427 -1.6319 0 11359
-6.117 5.6743 -1.7735 2 8613
-5.4174 7.4894 -1.7415 0 10117
-5.3166 -13.525 0.6777 1 3913
-4.6492 11.943 2.1056 0 12056
-4.3498 -9.7151 0.49639 1 3975
-4.2674 -10.242 1.8229 0 3942
-4.1972 -9.096 1.6458 0 3996
-3.8209 10.346 1.2897 0 12154
-3.5667 -13.02 1.8972 0 3771
-3.5384 9.937 0.9841 0 12213
-3.5253 11.445 1.9675 0 12474
-3.4368 -11.617 1.7026 0 3793
-3.4167 -9.6647 -0.47804 0 3867
-3.373 7.6656 -1.7801 0 11790
-3.1467 -9.7832 0.47925 1 3830
-2.7855 -9.727 0 0 3780
-2.7368 -10.228 1.488 0 3763
-2.6236 5.0613 -1.7789 1 11328
-2.6126 13.491 2.2577 0 12914
-2.2677 -1.9588 0.42114 0 4667
-2.1952 1.9102 -0.76178 0 8433
-1.7317 10.371 0.98094 0 12980
-1.5289 -1.2083 0.22789 1 4752
-1.5135 2.5818 -0.20927 0 10881
-1.3985 1.0875 -0.04113 1 8130
-1.27 10.124 -0.23689 0 13082
-1.1142 10.044 0.70663 0 13109
-0.31396 11.91 2.2448 0 13236
-0.16393 9.2071 -1.5129 0 13244
0.3883 10.392 -0.97016 0 13325
0.39896 -14.283 1.6709 0 3408
0.52661 5.1934 -1.7638 0 13408
0.57743 11.13 1.5663 0 13348
0.59014 12.023 1.1231 0 13345
0.72183 -11.473 1.8887 0 3389
0.79861 -9.9694 -0.2322 0 3381
0.93474 8.7178 -1.6519 0 13421
1.1638 -1.6449 -0.4283 1 2979
1.2965 -12.172 0.57083 1 3368
1.5488 8.6859 -1.8754 0 13510
2.0194 -0.85886 -0.20473 0 975
2.0234 10.627 0 0 13530
2.1573 3.8887 -1.5026 0 14211
2.2977 -1.2574 0.060812 0 1566
2.3587 -11.05 1.8563 0 3311
2.4004 3.189 -1.8893 0 14562
2.4858 4.2762 -1.9315 0 14262
2.7906 11.553 2.2392 0 13620
2.8607 -0.69048 -0.20578 1 360
2.9385 9.6658 1.6598 0 13699
3.116 -12.014 2.0392 0 3285
4.1514 9.2329 -0.23503 0 13986
4.6528 11.02 1.116 0 13928
4.666 5.8723 -1.7772 2 14655
4.8249 2.545 -1.8432 2 16947
5.0415 10.318 1.8868 0 14071
5.1432 -9.2253 0.9854 0 3157
5.1522 8.6257 1.6507 0 14295
5.4887 -3.6757 -1.8942 0 2033
5.6105 11.155 0.2899 1 14106
5.7086 4.9484 -1.7901 2 15563
5.7612 1.2994 -1.9956 2 18718
5.802 -9.2996 1.8008 0 3095
6.0633 8.4504 -1.7088 0 14502
6.5786 -9.5898 -0.54232 0 3015
6.6983 7.673 -1.6734 0 14799
7.1384 7.8011 1.7373 0 14910
7.7339 9.3354 0.56534 1 14709
7.8366 -10.491 2.1513 0 2896
8.4811 7.6983 1.3394 0 15439
8.57 -8.603 1.9951 0 2557
8.6146 5.6566 1.2052 0 16341
8.7792 -4.0065 -1.8182 2 1154
8.8154 5.7138 -1.9793 2 16381
8.8703 -5.2605 0.72114 0 1768
9.0188 5.2364 0.97295 0 16685
9.0367 -4.6742 1.4299 1 1440
9.2544 -1.5669 -1.5421 2 213
9.3687 -8.9717 -1.5169 0 2512
9.4231 4.0973 -0.95864 2 17409
9.5388 4.3471 -0.48885 0 17301
9.6391 -2.8699 0.2335 0 501
9.6583 3.0193 0.23494 0 18144
9.7944 4.0891 1.7438 0 17520
9.8147 2.3636 0.23438 0 18618
9.8818 -4.7176 0.51065 1 1253
10.103 6.3847 1.9636 0 16447
10.181 -5.5716 2.1866 2 1576
10.296 8.3171 -1.8602 2 15737
10.32 -0.12969 0.4813 1 20484
10.538 7.0469 -1.7817 2 16274
10.645 -0.93878 2.0133 0 20956
10.671 -0.84734 1.5045 0 20911
10.689 2.1223 -1.2744 1 18895
10.846 5.9234 2.0304 0 16854
10.872 2.0917 1.819 0 18955
11.643 2.6988 -1.1151 1 18670
12.028 -3.3516 2.0515 0 457
12.142 3.0769 -1.1686 2 18526
12.294 -3.5416 1.1937 0 476
12.331 4.2893 -0.60885 2 17917
12.766 -3.7184 2.5051 0 488
12.873 -5.4747 1.966 0 986
12.918 1.7167 2.141 0 19397
13.09 -4.3977 2.6018 0 619
13.119 -1.8695 -0.61798 2 131
13.546 -4.0717 -0.65962 0 509
