VERSION .7
FIELDS x y z intensity index
SIZE 8 8 8 8 8
TYPE F F F F F
COUNT 1 1 1 1 1
WIDTH 1342
HEIGHT 1
VIEWPOINT 0 0 0 1 0 0 0
POINTS 1342
DATA ascii
-9.708 0.75721 1.5998 0 7972
-9.6052 -0.36732 0.89678 0 7703
-9.3115 -0.76391 1.535 0 7607
-9.2772 -1.691 1.7767 0 7456
-9.2058 -0.86048 0.43118 0 7588
-9.1415 -0.50789 1.0707 0 7658
-9.1087 2.0377 0.43528 0 8368
-9.0857 -0.71666 1.0658 0 7613
-8.6811 4.4347 -1.37 0 9732
-8.6244 -1.4169 0.81541 0 7478
-8.5646 -0.10315 1.4072 0 7769
-8.4252 2.7782 0.82767 0 8821
-8.3675 -1.3747 0.19687 0 7477
-8.3124 -0.85167 1.1743 0 7576
-8.2826 1.7756 0.39503 0 8334
-8.211 -1.1774 -0.38683 0 7508
-7.8848 0.088077 1.4857 0 7821
-7.808 0.79173 0 0 8022
-7.7991 1.3429 -0.18374 0 8203
-7.714 1.0992 -0.1809 0 8119
-7.7011 -0.56283 0.36009 0 7625
-7.6367 -5.7735 1.8038 1 7347
-7.6287 -5.7319 1.7978 1 7351
-7.5898 2.2857 1.4934 2 8690
-7.5779 -0.025129 0.17594 0 7788
-7.5766 -5.9387 1.8138 0 7316
-7.514 3.73 0.39121 0 9663
-7.4885 0.82541 0.35133 0 8039
-7.4096 3.1819 1.3248 2 9316
-7.3886 2.7522 1.1081 2 9040
-7.3643 2.3333 0.54019 0 8757
-7.3538 2.6142 1.4705 2 8959
-7.341 2.7549 1.102 0 9055
-7.3314 2.5832 1.4646 1 8942
-7.3207 3.58 0.38003 0 9627
-7.304 -6.7093 0.69352 0 7138
-7.3019 5.3129 0.42111 0 10923
-7.295 -5.9964 1.3272 1 7273
-7.2835 -6.8493 1.8837 2 7110
-7.2792 1.4955 1.4001 0 8307
-7.2689 2.1201 0.3531 0 8639
-7.2397 -5.4397 -0.21024 0 7350
-7.2079 1.5006 1.3872 2 8317
-7.1611 3.1003 1.282 1 9331
-7.1534 0.97863 0.16763 0 8105
-7.1519 -6.1974 1.783 2 7216
-7.1295 1.7696 1.0324 0 8459
-7.0931 3.9691 1.1423 0 9997
-7.0791 1.0731 1.349 2 8146
-7.0772 1.4734 1.016 1 8314
-7.04 1.1932 1.3453 0 8197
-7.0331 2.3642 0.69223 2 8852
-7.0269 2.8006 0.8846 1 9169
-7.025 2.4285 1.0446 0 8905
-7.0173 3.5601 1.1059 1 9726
-7.0159 -1.0711 0.66213 0 7497
-7.0129 -0.16649 0.49053 0 7738
-7.0047 3.0545 0.35636 0 9340
-6.9933 4.3784 1.5545 0 10370
-6.989 2.7179 0.87694 2 9119
-6.9731 -6.3718 1.7797 0 7151
-6.9526 6.2998 1.5414 0 11842
-6.9449 2.3575 0.68424 2 8868
-6.9407 2.5139 0.6887 0 8987
-6.9177 2.8048 1.0491 0 9201
-6.8854 1.0008 0.64913 0 8126
-6.8852 3.0023 1.2341 2 9348
-6.8771 4.5605 0.96498 2 10562
-6.8745 3.6923 1.0967 0 9878
-6.8718 3.714 1.0978 1 9899
-6.8705 7.0774 1.6206 2 12398
-6.8607 4.2687 0.56503 0 10340
-6.8606 1.0192 0.64709 1 8136
-6.8568 0.63487 0.64244 0 8003
-6.8532 0.85604 1.3012 2 8075
-6.8524 0.43472 0.64058 0 7940
-6.8326 1.2812 1.3098 1 8252
-6.8325 -6.3115 0.21595 0 7129
-6.8257 4.3837 0.56726 0 10445
-6.8211 7.066 1.8504 2 12426
-6.8139 0.47289 0.63724 0 7952
-6.8115 -6.0412 1.2796 2 7190
-6.8069 1.3564 0.81166 1 8288
-6.7959 5.0067 1.1863 1 10981
-6.7956 4.9773 0.58902 0 10950
-6.7874 1.5995 1.3138 0 8414
-6.7785 4.9939 0.58874 0 10975
-6.7498 -5.7486 1.6704 2 7238
-6.7446 3.6453 0.71527 1 9896
-6.7367 0.21171 0.7882 0 7868
-6.7338 4.6055 0.57047 1 10680
-6.7336 -6.9098 0.90012 1 7002
-6.725 0.97748 0.7947 0 8127
-6.7216 1.6063 0.80818 2 8422
-6.7129 -5.6809 1.0284 0 7245
-6.7125 2.4538 0.66678 1 9004
-6.7092 -5.1018 0.98565 0 7341
-6.6975 -6.0114 1.6956 0 7175
-6.6966 -6.5992 0.43844 0 7056
-6.6884 2.4914 0.83466 2 9038
-6.6867 3.4898 0.88205 0 9799
-6.6752 -0.080393 0.46681 0 7768
-6.673 2.5268 0.83443 2 9070
-6.6693 0.96938 1.2698 0 8129
-6.669 -6.3797 1.0793 2 7092
-6.6563 -0.10108 0.62108 0 7760
-6.644 0.82991 0.46821 0 8074
-6.6293 0.98485 1.2627 2 8138
-6.6271 7.446 1.4009 1 12784
-6.6256 -5.7758 1.2353 0 7210
-6.6204 4.5026 0.55987 2 10657
-6.6148 1.6419 0.79703 0 8458
-6.6099 1.6996 0.95918 1 8498
-6.6094 2.6128 0.66306 0 9149
-6.601 -5.2038 0.78419 0 7308
-6.5914 0.244 0.46123 0 7882
-6.5853 -0.75263 -0.15389 0 7556
-6.5607 -6.3489 0.63841 1 7075
-6.5604 4.1875 0.91016 1 10425
-6.5568 -6.2724 0.6345 0 7090
-6.5512 1.8476 1.1183 2 8605
-6.5454 -7.2873 1.1455 1 6861
-6.5347 5.36 0.19622 0 11414
-6.5303 4.6392 0.56014 0 10825
-6.5157 1.2006 1.2483 1 8242
-6.5096 -5.7068 1.2167 0 7204
-6.5059 -6.8725 1.1067 0 6953
-6.505 3.8394 0.5282 0 10163
-6.4985 3.8111 0.5268 0 10139
-6.4971 1.1374 1.2427 0 8212
-6.4768 -0.51087 1.0674 1 7614
-6.4747 5.1557 1.1632 1 11298
-6.4694 -6.3752 1.2765 0 7059
-6.4639 -6.4033 1.2787 0 7053
-6.4487 6.5645 0.85851 2 12340
-6.438 -6.7582 0.43528 1 6961
-6.4214 5.1464 1.5505 2 11325
-6.4172 -6.8169 1.0948 0 6942
-6.3895 -7.3218 1.5966 2 6804
-6.3836 -6.7434 0.86631 1 6952
-6.3824 -6.7421 0.43295 0 6950
-6.3709 -6.0584 1.2356 2 7100
-6.3689 -6.9237 0.21841 0 6896
-6.3641 2.4099 0.9564 2 9072
-6.3622 4.8573 0.55973 0 11123
-6.3454 2.4256 0.95473 1 9088
-6.3167 6.5069 0.84606 0 12393
-6.3144 2.4138 0 0 9082
-6.3104 -7.1051 1.7904 1 6845
-6.3026 7.3795 1.3639 0 12974
-6.2961 -6.8445 0.43369 1 6897
-6.2959 6.7918 1.3015 0 12606
-6.2911 -6.2692 1.0386 2 7047
-6.2824 -7.458 0.45475 1 6738
-6.2803 0.21602 0 0 7874
-6.2794 -5.0686 1.3258 2 7289
-6.2748 3.4853 1.1793 1 9979
-6.2661 6.4144 0.83658 0 12367
-6.258 6.2624 1.4545 2 12271
-6.2535 -6.3792 1.0447 1 7014
-6.2442 -6.7502 1.0753 0 6911
-6.2361 3.5124 0.83698 1 10016
-6.2353 4.2934 1.2438 2 10711
-6.2344 -7.488 1.1394 1 6717
-6.2318 -6.6992 0.21243 0 6919
-6.2174 -4.3148 0.17571 0 7387
-6.2167 -7.333 0.44832 2 6747
-6.2133 -6.3381 0.20607 0 7011
-6.211 3.4983 1.1712 2 10020
-6.2042 -6.3666 0.20639 0 7001
-6.2037 3.3069 0.82211 2 9856
-6.2035 6.7723 0.85684 0 12655
-6.2015 1.4443 0.89488 0 8398
-6.1973 4.621 0.72121 2 11028
-6.1954 4.8771 0.55136 0 11240
-6.1865 -6.8467 1.7386 0 6873
-6.1674 3.4738 0.99481 0 10018
-6.1638 3.0812 0.80585 2 9685
-6.1625 -6.0348 1.2122 0 7066
-6.1579 -4.6555 0.36 0 7346
-6.1572 4.9029 0.55038 0 11293
-6.1538 -0.72182 0 0 7552
-6.1516 1.188 0.73268 1 8268
-6.1487 6.1896 1.6438 1 12295
-6.1478 1.042 0.72919 1 8194
-6.1435 -6.2278 1.2295 1 7023
-6.1422 3.4822 0.9923 0 10038
-6.1383 6.6613 1.0593 2 12630
-6.136 1.446 0.88598 2 8410
-6.1334 5.7899 0.98635 0 12014
-6.1287 -6.4335 0.82897 1 6963
-6.1284 1.2035 0.73036 0 8279
-6.1279 -6.3236 -0.20444 0 6992
-6.1264 -5.0358 1.4942 1 7274
-6.1237 -6.1752 1.017 0 7031
-6.1196 0.3175 1.0068 0 7917
-6.1186 2.4188 0.92467 1 9153
-6.1175 6.7966 0.85312 1 12729
-6.116 -4.2968 1.0505 0 7382
-6.1105 0.44015 -0.14224 0 7958
-6.1 5.032 0.73775 1 11439
-6.0926 -7.0633 -0.435 1 6778
-6.0921 4.7085 0.9004 1 11172
-6.0913 5.7141 1.1738 1 11991
-6.0818 -6.6885 0.42158 0 6877
-6.0612 -6.3272 0.81745 2 6974
-6.0487 -6.3896 0.61525 0 6951
-6.0392 4.3941 1.0496 2 10930
-6.0384 1.1322 0.86343 0 8251
-6.0363 -6.4123 0.61581 1 6940
-6.0333 3.5383 0.81793 2 10143
-6.0331 -5.7714 1.5731 0 7095
-6.0279 5.9964 1.1949 1 12245
-6.0131 -5.7866 1.5723 0 7088
-6.0059 -6.6468 0.41776 1 6866
-6.0037 3.4747 0.8112 1 10097
-5.9893 6.349 1.2267 1 12525
-5.9798 5.547 0.95383 1 11940
-5.9671 1.1361 0.85369 1 8259
-5.9446 5.8765 1.5749 1 12225
-5.9441 5.1708 1.2944 0 11671
-5.9428 5.6751 1.1549 2 12066
-5.9409 -6.3865 0.40677 2 6920
-5.9389 -0.29566 0.97694 0 7675
-5.9305 0.25582 0 0 7896
-5.9286 7.632 -1.1301 2 13381
-5.9271 0.96741 0.98667 0 8179
-5.9195 3.1104 0.62386 2 9816
-5.9163 -6.5064 1.0284 0 6879
-5.9143 -4.3908 0.68721 0 7357
-5.9081 7.2959 1.0979 0 13217
-5.9072 -5.524 1.3287 0 7116
-5.9045 6.4076 1.4315 0 12633
-5.9006 7.3704 1.5512 2 13270
-5.9004 -5.4849 1.3236 2 7124
-5.8919 5.4331 1.3167 2 11918
-5.8882 1.6241 1.0035 1 8578
-5.8866 -7.1971 0.4336 0 6689
-5.8806 3.6589 0.64616 1 10342
-5.8756 -5.5875 0.56698 0 7097
-5.8659 7.5951 -0.67106 2 13411
-5.8657 -7.7503 1.1367 2 6558
-5.8657 2.106 1.1742 1 8977
-5.8592 5.4695 0.93734 1 11965
-5.854 1.0438 0.97694 1 8221
-5.8338 0.96996 0.83114 0 8187
-5.8292 -1.15 0.69481 2 7444
-5.8236 5.8952 1.1646 2 12317
-5.8226 7.4098 1.102 2 13348
-5.8174 -0.30793 1.0976 0 7667
-5.816 7.6734 1.126 0 13502
-5.8127 2.4578 0.73802 0 9279
-5.7972 0.9296 0.96462 2 8170
-5.7959 3.003 0.609 1 9778
-5.7878 0.981 0.82502 1 8195
-5.7848 2.4234 1.0304 0 9266
-5.7806 0.7559 0.95781 2 8088
-5.7804 7.5768 0 2 13468
-5.7748 4.8525 1.2392 1 11522
-5.7724 -5.1196 0.35981 0 7188
-5.7687 -5.0894 1.2639 0 7197
-5.7674 5.6716 0.94593 1 12194
-5.7558 1.8236 1.1376 2 8765
-5.7548 -6.1476 0.3927 1 6930
-5.7511 5.6853 0.9457 0 12220
-5.7394 7.5724 0.4431 1 13498
-5.7176 1.9765 1.1398 0 8909
-5.7145 7.7171 -0.67148 1 13606
-5.7069 1.4324 0.68808 1 8470
-5.706 -6.9318 0.41869 0 6699
-5.7032 0.87984 0.94808 2 8154
-5.7006 -6.1626 0.39149 2 6908
-5.6989 -4.4413 1.187 0 7323
-5.6965 -0.53246 0.93997 1 7589
-5.696 -5.0821 1.2542 1 7182
-5.6888 -5.0189 0.88716 1 7196
-5.6848 2.8418 0.89321 2 9687
-5.6818 -7.5978 1.1095 2 6540
-5.6816 5.3634 1.2837 1 12018
-5.6792 3.1119 0.60417 2 9934
-5.6782 1.3905 0 0 8444
-5.6777 7.718 -0.22245 2 13639
-5.6711 3.4143 1.2472 2 10238
-5.6699 1.0631 0.6746 0 8250
-5.6697 3.503 0.77937 2 10320
-5.6664 -6.9701 1.0505 2 6683
-5.6618 5.0145 0.70561 0 11740
-5.6614 4.2445 0.82746 2 11054
-5.6566 5.3698 1.2814 2 12043
-5.652 3.2935 0.6103 2 10117
-5.6515 -0.14996 0.52744 0 7730
-5.6488 0.90581 0.66903 1 8168
-5.6448 4.7131 1.0335 0 11492
-5.6396 6.4149 1.4033 2 12839
-5.6365 0.91998 0.66787 1 8178
-5.6293 6.9096 1.2526 0 13192
-5.6229 6.034 0.96452 0 12578
-5.6134 -7.8291 0.44925 0 6479
-5.6067 3.2881 0.6064 2 10141
-5.6031 7.2131 0.63869 1 13394
-5.5966 0.68222 0 0 8066
-5.5882 -7.2932 0.42847 0 6577
-5.5849 3.4291 0.92105 2 10299
-5.584 -7.652 0.88377 0 6507
-5.58 7.7683 0.66883 1 13763
-5.5798 -7.3298 0.42959 0 6565
-5.5787 6.0181 0.95964 0 12604
-5.5754 4.389 0.82978 2 11244
-5.5743 1.4874 0.81082 0 8538
-5.5704 3.7164 0.78309 0 10585
-5.5569 -7.3422 1.7349 2 6562
-5.5543 -0.13186 0.51834 1 7739
-5.5502 6.8539 1.2395 2 13218
-5.5497 7.3594 1.2954 1 13536
-5.5495 -7.8903 0.67455 0 6460
-5.5466 3.296 0.75451 0 10190
-5.5464 3.678 0.62089 2 10560
-5.5451 4.2595 1.1488 2 11152
-5.5391 1.478 0.67042 0 8536
-5.5326 7.9456 1.1322 0 13904
-5.527 -7.4802 1.3071 0 6526
-5.524 -7.662 1.1046 2 6491
-5.5214 6.6176 1.416 1 13088
-5.5167 -6.8247 1.6534 2 6678
-5.5157 4.4985 0.83234 0 11392
-5.5081 -7.8314 0.89325 0 6461
-5.5081 -7.1446 1.2679 1 6591
-5.5078 -7.0168 0.62376 1 6624
-5.5071 0.50991 1.042 0 8004
-5.5062 -7.7767 0.88898 1 6469
-5.4964 6.5503 0.79776 2 13056
-5.4948 3.286 0.74871 0 10211
-5.4798 -7.3277 1.286 2 6541
-5.4789 -0.29002 0.38366 1 7666
-5.4784 1.4434 0.66252 1 8522
-5.4746 3.2312 0.29646 0 10161
-5.4726 6.7173 0.80835 0 13189
-5.4666 3.7641 1.2505 0 10713
-5.4642 1.3381 0.65788 0 8445
-5.4626 0.52118 1.0339 0 8011
-5.4602 6.2835 1.3676 1 12894
-5.4576 -5.5673 0.72734 1 7013
-5.4569 3.031 1.1761 2 9981
-5.4523 3.9179 1.1031 1 10883
-5.4454 -7.6908 0.21878 0 6466
-5.4439 3.4963 0.60361 2 10447
-5.4395 -5.7101 1.2957 2 6966
-5.429 -7.0854 0.62418 0 6578
-5.4199 3.2207 0.58819 0 10188
-5.4188 1.7002 0.66415 2 8744
-5.4153 5.8768 1.5057 1 12635
-5.4138 6.6855 0.80259 2 13215
-5.4104 -5.6478 1.285 2 6977
-5.4081 7.9637 1.1257 2 14010
-5.4043 -6.3008 0.38711 1 6769
-5.4042 -6.2322 0.38469 0 6790
-5.3993 -6.3689 0.58386 2 6748
-5.3869 0.48267 0.50459 0 7997
-5.3792 1.3831 0.64951 2 8497
-5.3777 -7.4591 0.64302 1 6489
-5.3672 3.2313 0.58448 2 10232
-5.3635 3.7152 1.0719 0 10736
-5.3596 7.8422 0.88619 1 13981
-5.3528 -5.8868 0.55638 0 6878
-5.3478 6.3372 1.5623 1 13036
-5.3438 -0.56354 1.0124 0 7571
-5.3396 -0.20419 0.75098 2 7704
-5.3395 -6.7247 0.8011 1 6644
-5.3382 5.2771 1.0549 2 12222
-5.3317 3.6932 1.222 2 10738
-5.3311 0.64985 0.12469 0 8067
-5.3181 7.0959 1.037 2 13564
-5.311 3.4109 0.88709 2 10451
-5.2995 1.7148 0.65137 1 8791
-5.2686 3.696 1.0574 1 10784
-5.2655 3.6013 0.89655 2 10686
-5.2647 6.3459 1.3547 1 13115
-5.2565 -6.3495 1.1585 2 6710
-5.2519 -5.8781 1.1078 1 6853
-5.2458 1.6459 0.77269 2 8746
-5.2431 -6.3694 0.96475 0 6702
-5.2375 4.6386 0.81817 2 11742
-5.2348 6.9417 0.81113 2 13532
-5.2331 -5.4001 1.4168 2 6999
-5.2302 -5.8537 0.73236 1 6851
-5.225 -5.1489 1.2052 2 7060
-5.2244 -5.0557 1.3698 2 7080
-5.2143 3.7469 0.9024 2 10881
-5.2115 -5.903 0.92084 0 6827
-5.211 3.2625 0.71897 2 10365
-5.2071 2.6807 0.54639 0 9761
-5.2037 -6.3622 1.1551 2 6693
-5.2033 3.7624 1.2098 2 10907
-5.2024 -6.7482 0.39736 0 6588
-5.2019 -6.7111 0.79218 1 6600
-5.1831 2.7051 0.82168 2 9801
-5.182 2.7623 0.8253 2 9858
-5.1583 5.5647 0.35385 0 12601
-5.1511 3.3528 0.71874 1 10493
-5.1425 -6.6705 0.98496 1 6590
-5.1311 4.2842 0.78169 0 11490
-5.1261 3.315 1.1502 2 10476
-5.1208 -5.7657 0.90179 1 6841
-5.1167 -5.5956 0.88669 1 6889
-5.1081 2.3355 0.92279 2 9461
-5.1042 4.9033 0.82769 0 12089
-5.098 3.1106 0.55717 0 10275
-5.0958 1.6145 0.75126 2 8761
-5.0929 -5.5366 0.87973 0 6900
-5.085 -5.6912 0.8925 1 6852
-5.0836 3.905 0.74964 1 11148
-5.0753 -3.3085 0.85146 0 7413
-5.0713 3.6899 1.1816 0 10934
-5.063 4.8944 0.82351 2 12115
-5.0607 3.0685 0.55215 2 10252
-5.0569 1.3948 0.98834 2 8580
-5.0526 -8.5811 1.1645 0 6262
-5.0293 1.6906 0.74569 1 8856
-5.0277 3.5717 0.57537 2 10827
-5.0206 5.8103 1.4468 2 12922
-5.0169 3.6745 1.1716 2 10958
-5.0099 3.6453 0.72455 2 10928
-5.0074 5.728 1.4334 1 12870
-5.0056 0.89253 0.95798 2 8222
-5.0003 4.507 1.106 2 11819
-4.9991 4.4792 0.78495 2 11791
-4.9943 5.6451 0.70319 1 12807
-4.9909 5.7091 0.70747 2 12862
-4.9878 3.4114 0.70666 2 10684
-4.9876 2.7329 0.66508 1 9936
-4.9856 3.6516 0.72269 2 10953
-4.9782 1.0982 0.71646 0 8357
-4.975 -0.61261 0.23376 0 7545
-4.9704 -0.21962 0.81741 0 7689
-4.9702 1.3392 0.96983 2 8553
-4.9655 -8.494 1.1506 0 6255
-4.9598 6.9508 0.79664 1 13792
-4.9577 -8.4807 1.3806 2 6256
-4.9509 -8.4691 0.68599 1 6253
-4.949 2.5282 0.78104 2 9746
-4.9406 -6.6866 0.77565 1 6524
-4.937 -8.5065 1.3823 1 6247
-4.9346 -5.7899 0.53196 2 6760
-4.9302 4.0439 0.74569 2 11416
-4.9269 4.491 1.0953 1 11866
-4.9265 6.9476 0.7946 2 13819
-4.9183 -5.4432 0.68443 1 6868
-4.9071 3.9075 0.58522 2 11295
-4.9055 3.3151 0.97272 1 10640
-4.9045 2.5412 0.77631 2 9781
-4.9008 -3.4011 0.83838 0 7388
-4.8991 3.2083 0.68482 0 10517
-4.8951 1.3806 0.71479 2 8603
-4.8896 1.3634 0.7134 1 8590
-4.8881 1.197 0.82681 2 8448
-4.884 -0.70032 -0.34502 0 7507
-4.8831 1.8015 0.73149 0 9022
-4.8828 1.8014 0.60863 1 9020
-4.8786 4.0503 0.74151 1 11465
-4.8744 -7.4206 0.62083 0 6381
-4.869 -5.7801 0.52848 0 6739
-4.8619 -8.6603 0.6945 0 6203
-4.8607 -6.6194 0.76617 1 6516
-4.8581 1.3254 0.58888 1 8562
-4.8546 1.7746 0.60445 1 9006
-4.8544 3.3201 0.96624 2 10688
-4.8443 8.2141 1.5667 2 14607
-4.8423 -5.3591 0.84465 2 6869
-4.8308 -6.3459 0.74406 2 6567
-4.8171 -8.6974 1.1627 0 6187
-4.8167 -6.5189 1.3317 0 6527
-4.8162 4.6819 0.62665 0 12140
-4.8116 2.0345 0.98427 2 9284
-4.8094 0.17803 0.67638 2 7883
-4.8033 2.6878 0.90431 0 9999
-4.8027 2.9882 0.79496 1 10345
-4.7974 4.6898 0.62591 2 12166
-4.7968 4.6892 1.1021 2 12171
-4.793 -8.5937 0.68808 2 6193
-4.7893 2.1564 -0.73817 0 9406
-4.7889 -6.3275 0.37006 0 6555
-4.7884 2.139 -0.73706 0 9389
-4.7872 4.0426 1.1805 0 11550
-4.7853 2.0233 0.48471 2 9277
-4.7852 3.417 0.68761 1 10853
-4.7799 -8.4587 1.1362 1 6213
-4.773 4.0107 1.1746 0 11524
-4.7699 -6.3368 0.36987 0 6546
-4.7659 3.9793 1.0201 1 11494
-4.7622 3.0024 0.65834 2 10384
-4.7588 -7.2007 1.0093 2 6387
-4.7583 6.9208 0.98217 0 13955
-4.756 6.7495 1.1604 2 13850
-4.7541 2.7139 0.76935 1 10058
-4.7525 -5.3831 0.66994 1 6826
-4.75 2.9947 1.058 0 10389
-4.7487 2.8793 0.78048 2 10256
-4.7459 6.7728 0.77156 1 13876
-4.7444 -8.2774 0.66715 1 6227
-4.7333 -7.7331 0.84587 1 6303
-4.7304 1.2022 0.57076 1 8483
-4.7272 0.2312 0.22071 1 7909
-4.7186 4.179 1.1876 2 11748
-4.7144 -6.4984 0.5614 0 6498
-4.7123 -5.3999 0.66864 2 6802
-4.7123 -3.4149 1.0965 0 7370
-4.7103 -7.7471 0.84587 0 6295
-4.7067 -3.962 0.14284 0 7250
-4.7061 1.109 0.56542 1 8409
-4.706 3.4861 0.54639 2 11002
-4.7028 -8.7305 1.3937 0 6156
-4.6908 3.4558 0.68134 0 10979
-4.6868 6.7737 1.1576 0 13932
-4.6862 4.8817 1.275 2 12452
-4.6808 8.1501 1.7708 1 14722
-4.677 -7.12 0.39726 0 6380
-4.6704 -4.8482 0.9461 2 6986
-4.6634 4.0083 0.5737 0 11617
-4.6606 -5.9056 1.236 1 6635
-4.6598 6.6921 0.76079 1 13902
-4.6425 -4.6816 0.92661 2 7032
-4.641 7.0976 1.3933 2 14178
-4.6266 6.0645 1.4372 1 13480
-4.6253 -3.9142 0.4237 0 7244
-4.6171 -4.8197 0.93803 2 6976
-4.6131 3.0394 0.64603 2 10539
-4.6087 7.0482 1.1835 2 14176
-4.6084 -5.1888 0.97533 0 6842
-4.6078 -5.342 0.99147 2 6782
-4.6045 -5.4972 0.66901 2 6729
-4.6027 -5.5283 1.1819 2 6719
-4.5999 -8.4754 1.3553 0 6163
-4.5957 2.2653 0.72008 2 9649
-4.5897 -8.1221 0.65236 0 6211
-4.5891 3.3995 0.66787 1 11004
-4.5872 4.0842 1.1572 0 11773
-4.5811 -6.5522 1.3135 2 6456
-4.578 3.7125 0.82836 1 11371
-4.5752 -8.8605 1.4015 2 6113
-4.5742 5.7505 0.85928 1 13293
-4.5716 3.9545 0.84951 2 11644
-4.57 4.5177 0.59952 0 12218
-4.5676 -6.4942 1.3044 1 6464
-4.5647 -6.6516 0.37621 1 6427
-4.5615 4.5376 0.60027 0 12242
-4.5602 4.2051 0.87178 2 11916
-4.5565 -8.8813 1.4029 2 6106
-4.5546 3.962 0.8484 2 11669
-4.548 3.6645 0.82084 0 11347
-4.5419 3.1274 0.12803 0 10703
-4.5313 8.1613 1.5337 2 14860
-4.5155 6.6071 1.3148 2 13987
-4.51 6.9848 1.1685 1 14228
-4.5027 7.2962 1.205 0 14417
-4.5016 0.22017 0.31516 0 7910
-4.4972 7.4758 1.2261 2 14524
-4.4931 -6.5916 0.37202 0 6420
-4.4928 3.2284 0.38687 0 10875
-4.4927 1.5531 0.5559 2 8903
-4.4916 -5.6914 0.50699 0 6632
-4.4912 -6.3856 0.91294 1 6462
-4.489 8.1419 1.5275 2 14888
-4.4879 7.4162 0.80872 2 14494
-4.4871 2.6484 0.98168 1 10171
-4.4844 4.0634 1.1402 2 11844
-4.4835 7.0785 0.97985 2 14308
-4.4804 7.4951 1.2272 0 14552
-4.4797 2.4546 0.96242 1 9942
-4.4789 6.4323 1.4768 1 13908
-4.4764 -4.3592 1.0265 2 7072
-4.4719 6.67 1.3193 1 14068
-4.471 3.0971 0.63604 1 10732
-4.4677 6.457 0.73255 1 13929
-4.4673 -8.1733 1.3091 0 6172
-4.467 8.3309 0.66101 0 14990
-4.457 1.5704 0.66413 0 8939
-4.4531 -5.8498 0.85975 0 6568
-4.4525 -7.7214 1.6793 1 6240
-4.4494 -8.6725 1.6014 1 6107
-4.4477 8.067 1.7356 0 14889
-4.4418 -7.0726 0.77918 1 6329
-4.4378 -3.6673 0.5371 0 7268
-4.4309 -7.9445 1.2784 2 6196
-4.4305 2.2312 0.11517 1 9699
-4.429 6.7734 0.9464 0 14174
-4.429 7.1768 0.78679 2 14415
-4.4267 -7.1842 0.98682 0 6310
-4.4225 -4.7809 1.07 2 6913
-4.421 -7.0833 0.77899 0 6323
-4.4197 3.3136 0.90755 0 11058
-4.4153 1.5696 0.65857 2 8955
-4.4152 2.3043 0.93835 2 9805
-4.414 -6.3132 0.53866 0 6452
-4.4092 1.4967 0.54451 1 8870
-4.396 -6.4058 0.90853 2 6430
-4.3929 5.1762 1.1154 2 13004
-4.387 7.9568 1.0625 0 14885
-4.3847 2.6055 0.23786 0 10185
-4.379 -5.6149 0.49792 2 6610
-4.3762 -6.7054 1.5086 2 6377
-4.3755 -6.6611 1.1201 2 6383
-4.3682 8.5582 1.1236 0 15182
-4.3667 -4.9723 1.2468 2 6817
-4.3663 -6.3625 1.2678 2 6432
-4.3656 -8.2696 0.6539 2 6132
-4.3632 4.142 1.1335 2 12045
-4.3629 2.7677 0.84886 2 10407
-4.3563 -6.7184 1.5086 1 6368
-4.3532 8.5881 1.126 0 15208
-4.3522 -6.1468 0.52666 0 6468
-4.351 5.8758 1.3775 2 13626
-4.3482 2.6178 0.59353 0 10234
-4.343 7.5163 1.0152 1 14687
-4.3404 3.54 0.78716 1 11394
-4.34 -7.0906 0.97218 2 6304
-4.3355 -8.1026 0.6426 0 6145
-4.3318 3.2892 0.89361 2 11105
-4.3315 2.6263 0.59237 0 10254
-4.3276 6.4548 1.4642 2 14070
-4.3265 -0.64815 0.10157 0 7501
-4.3215 6.4044 1.4557 2 14041
-4.3175 -8.1303 0.64371 2 6138
-4.3174 -7.1485 0.9766 2 6289
-4.3146 -6.8224 0.56447 0 6336
-4.3116 2.4613 0.93539 1 10061
-4.3082 6.8865 1.5305 1 14368
-4.3069 1.8344 0.7691 2 9299
-4.3067 -5.9364 0.34202 1 6497
-4.2983 5.9839 1.0354 1 13767
-4.2969 -4.8928 0.60751 0 6813
-4.2933 5.8725 1.0224 1 13683
-4.2896 -6.9158 0.56907 2 6316
-4.2882 -6.2909 0.53238 2 6421
-4.2853 2.2517 0.91206 2 9823
-4.2818 -7.2285 0.58749 2 6268
-4.275 -5.9297 0.3409 0 6488
-4.2711 6.4504 1.271 0 14122
-4.2697 6.7854 1.5105 2 14341
-4.2573 -6.821 1.5149 0 6326
-4.2522 6.1846 1.2331 2 13959
-4.2368 3.1973 0.74597 1 11080
-4.2355 -3.5427 0.77603 0 7258
-4.2322 4.1618 0.8342 2 12196
-4.2315 6.5534 0.91225 0 14227
-4.2289 3.5535 0.77631 0 11520
-4.2263 3.6972 1.058 0 11696
-4.2166 -7.7145 0.20412 1 6167
-4.2164 -6.2984 0.53001 2 6401
-4.215 -6.5806 0.91387 1 6349
-4.2078 1.8497 0.75516 1 9366
-4.2006 3.5472 0.77269 2 11547
-4.1934 3.3788 0.62977 1 11345
-4.1914 -8.2296 0.64581 2 6097
-4.1841 -8.1031 0.21173 0 6109
-4.1809 -7.8731 1.2528 0 6141
-4.1797 7.3786 0.99169 1 14772
-4.1775 3.348 0.62605 1 11320
-4.1754 3.9168 0.66949 0 11989
-4.1736 -5.1965 0.62182 2 6663
-4.1708 2.7147 0.93761 0 10499
-4.1606 -8.2295 0.64483 2 6090
-4.159 6.4808 0.71843 1 14252
-4.1565 3.4094 0.88323 0 11420
-4.1508 3.3853 0.87999 1 11396
-4.1494 -6.7791 1.4975 2 6307
-4.1354 -4.9371 0.45035 0 6728
-4.1334 -6.844 1.5064 2 6291
-4.1325 3.5121 0.89101 0 11573
-4.1317 -6.0933 0.68684 0 6414
-4.1248 -6.2037 0.52094 0 6393
-4.124 -6.2401 0.52303 0 6386
-4.1121 -7.9026 1.252 2 6121
-4.1081 -4.5738 1.1583 2 6864
-4.1 -7.2555 0.77751 2 6212
-4.0899 -4.2933 0.41463 0 6962
-4.0869 -6.0682 1.0282 0 6410
-4.0843 6.7044 0.91806 1 14469
-4.079 -6.3683 1.2425 1 6351
-4.0747 -6.9703 1.5212 1 6258
-4.0639 -3.0724 -0.11828 0 7345
-4.0624 6.456 1.2532 2 14339
-4.0567 -5.8368 0.99898 1 6447
-4.0522 -3.0813 -0.11819 0 7339
-4.0499 2.7544 0.9228 2 10667
-4.0494 3.6283 0.89328 1 11795
-4.0483 0.32856 0.18941 0 7978
-4.0475 4.2682 0.82669 1 12499
-4.0414 0.33866 0.18913 0 7985
-4.035 -6.2229 1.2185 1 6366
-4.0166 -6.6061 0.90412 2 6296
-4.0097 4.0818 0.80414 0 12344
-4.0088 6.534 0.89645 2 14442
-4.0066 4.1014 0.80581 2 12371
-3.9971 -7.1199 0.38077 2 6202
-3.9913 -6.7381 0.36521 0 6267
-3.9908 -7.1554 0.38208 2 6192
-3.9789 5.7871 0.98702 1 13957
-3.9759 0.46214 0.56254 0 8053
-3.9701 -7.4761 0.39475 0 6137
-3.9644 -5.9624 1.349 0 6398
-3.954 -4.6939 0.57259 0 6740
-3.953 5.2155 1.0752 2 13506
-3.9484 4.3605 1.1083 2 12711
-3.938 -5.9586 1.3457 2 6391
-3.9293 8.4111 0.86612 1 15500
-3.9288 -4.6344 0.56683 2 6749
-3.9278 6.1206 1.0221 2 14255
-3.9208 8.5205 0.87504 2 15556
-3.9203 8.4533 1.7556 2 15535
-3.92 3.3694 0.9739 2 11623
-3.9184 6.4751 0.88507 0 14496
-3.9176 -7.9197 0.82432 2 6069
-3.9115 -0.20705 0.09094 0 7665
-3.8991 4.1842 -1.4972 0 12577
-3.8933 8.395 0.86334 0 15528
-3.8908 3.7155 0.88388 0 12068
-3.8902 -7.1174 0.37826 2 6168
-3.8857 -6.8764 1.11 0 6214
-3.8839 3.1127 0.81774 1 11323
-3.8796 -7.1482 0.37928 2 6159
-3.867 -0.21484 0.089919 0 7657
-3.8567 3.6612 0.74736 1 12041
-3.8519 3.0673 0.80898 1 11300
-3.85 -8.6471 1.7834 0 5947
-3.8359 7.7408 1.0103 2 15290
-3.8151 3.6014 0.73734 2 12016
-3.8032 -3.4136 -0.23832 1 7171
-3.7985 0.50818 0.5386 0 8097
-3.7762 3.9571 1.0306 2 12477
-3.7686 8.6465 1.7771 1 15755
-3.7683 7.7674 1.0096 1 15372
-3.7631 -8.6545 1.3263 0 5915
-3.7612 -6.1042 1.178 1 6312
-3.7604 -6.6983 0.89831 2 6204
-3.7414 -4.6285 0.83643 0 6675
-3.7398 -6.5699 0.35254 2 6219
-3.7369 -5.9502 1.3238 1 6333
-3.7346 -5.8307 1.3046 0 6353
-3.7322 1.3902 0.37157 0 9036
-3.7309 -6.47 1.0496 1 6238
-3.7134 8.4513 1.0795 1 15724
-3.7024 -7.2164 0.7567 2 6104
-3.6926 6.6506 0.70969 2 14855
-3.6843 8.4531 1.0783 2 15749
-3.6783 -7.5483 0.98194 1 6055
-3.6539 -7.3867 0.38431 2 6067
-3.6513 6.7165 0.71322 2 14936
-3.6481 -8.1325 0.83157 1 5954
-3.6467 -4.9049 0.85898 1 6531
-3.6381 -9.1513 0.68864 0 5810
-3.6379 0.20912 0.68654 1 7930
-3.6355 -0.63057 0.51856 0 7465
-3.6333 -7.3969 0.38431 0 6061
-3.6112 3.0345 0.21997 0 11513
-3.6106 -3.0393 0.44031 0 7251
-3.6059 -8.099 0.82711 2 5943
-3.6022 -7.4416 0.96684 0 6046
-3.5976 6.0182 0.65415 2 14549
-3.5872 -7.3031 0.95151 2 6063
-3.5594 8.1009 0.41264 0 15718
-3.5593 5.9543 1.1397 1 14553
-3.5592 7.5568 0.97683 2 15477
-3.5549 3.002 0.21699 0 11541
-3.5228 7.541 0.97334 1 15502
-3.4999 -3.849 -0.24261 1 6876
-3.4875 -7.0502 1.482 1 6074
-3.4687 7.3648 1.5338 2 15480
-3.4576 -8.2778 1.0491 2 5871
-3.4571 6.7296 1.0633 0 15156
-3.4505 -4.4244 0.92182 1 6614
-3.4368 -2.9426 0.85244 0 7230
-3.4203 -7.9916 1.0166 2 5898
-3.4184 6.2464 1.1699 1 14914
-3.4132 6.2785 1.3464 1 14942
-3.4119 -8.034 1.0207 2 5888
-3.4106 8.1454 1.6638 2 15888
-3.4102 -6.5538 0.51662 0 6118
-3.4083 6.1009 0.81724 0 14828
-3.4061 -5.9426 1.2905 1 6231
-3.3952 -7.3378 0.37705 1 5993
-3.3853 6.542 0.68721 2 15126
-3.3794 -7.8355 0.5967 2 5903
-3.3669 -7.5621 0.57884 1 5942
-3.3654 -9.3272 0.69338 2 5719
-3.3604 6.5414 0.6861 0 15152
-3.3578 -4.8929 0.55364 2 6429
-3.3567 -8.2335 1.0398 2 5841
-3.3442 6.1928 0.82304 1 14966
-3.3387 6.1825 1.3238 0 14970
-3.3283 7.3474 1.5197 2 15618
-3.3143 6.7356 0.87787 2 15315
-3.3016 -2.573 0.2927 0 7321
-3.2992 -7.5876 0.57856 1 5912
-3.2979 -7.2365 0.5561 2 5974
-3.2873 6.7311 0.87601 0 15343
-3.284 7.0298 0.54257 0 15498
-3.2462 7.5087 1.344 2 15780
-3.237 6.0803 0.96809 0 15023
-3.2263 -7.1923 0.55122 0 5953
-3.2255 -7.6582 0.58107 2 5879
-3.2214 5.7265 1.2379 2 14804
-3.2073 7.5375 1.1512 2 15832
-3.1767 7.348 1.1251 2 15778
-3.1718 7.3933 1.1306 2 15806
-3.1598 6.9755 0.89552 1 15612
-3.1477 9.0236 1.1176 2 16467
-3.1311 5.8812 1.2553 0 15025
-3.1283 9.0493 1.1197 0 16492
-3.1007 3.7614 0.22733 0 13135
-3.0958 6.7837 1.048 1 15587
-3.0892 5.9698 1.2664 2 15132
-3.083 7.1312 0.90853 1 15776
-3.071 7.582 1.344 2 15993
-3.0568 1.7691 -1.1934 0 10093
-3.0489 0.83179 0.22099 0 8561
-3.0243 -9.3859 1.3859 0 5617
-3.0124 1.4407 0.46929 0 9583
-2.9842 3.0378 -1.2211 0 12339
-2.9838 8.8866 1.0962 2 16572
-2.9714 -1.9862 0.5872 0 7403
-2.9674 -5.0095 0.13518 0 6266
-2.9607 7.0192 0.89088 1 15856
-2.9443 -6.3634 0.65415 2 5995
-2.9393 -5.0645 0.27307 0 6243
-2.9392 1.9007 0.16323 0 10466
-2.9224 -3.1045 -0.29814 2 6938
-2.9169 -5.2666 0.13978 0 6183
-2.9015 -4.3637 0.24438 0 6392
-2.9003 -2.2603 -0.085369 0 7320
-2.8959 -5.1248 0.13667 0 6210
-2.8889 -6.2925 0.64597 1 5985
-2.885 1.8778 0.16053 0 10490
-2.8798 -2.2572 -0.084952 1 7313
-2.8757 7.2818 1.2863 2 16080
-2.8723 -6.5556 0.83698 1 5924
-2.8647 7.4434 1.1209 1 16161
-2.8264 -2.5218 0.17664 0 7179
-2.8073 3.0831 -1.3011 0 12680
-2.8072 6.7638 1.3798 1 15914
-2.7926 4.9642 0.26562 0 14794
-2.7696 6.9001 1.4009 2 16026
-2.7683 6.9493 1.4094 0 16054
-2.7624 8.7294 1.2868 1 16719
-2.7146 3.8525 0.21978 0 13844
-2.6917 -3.7792 0.76229 0 6477
-2.684 -3.7435 0.75678 2 6483
-2.6703 7.0002 1.4116 1 16194
-2.6266 -2.3027 -0.081099 0 7202
-2.6193 -3.4797 -0.30456 0 6545
-2.5997 -4.5357 0.85891 2 6230
-2.5819 3.8264 0 0 14031
-2.5605 3.8191 0 0 14057
-2.5239 -4.1511 0.33971 0 6294
-2.4827 7.4677 1.4827 0 16601
-2.4767 -7.2546 0.89645 1 5667
-2.445 4.3163 -0.93465 0 14775
-2.4289 9.6842 1.6403 0 17177
-2.4275 7.9053 -0.96707 0 16776
-2.4061 -3.5726 0.20087 0 6407
-2.4044 -1.7954 0.13994 0 7354
-2.3894 -2.035 0.14637 0 7235
-2.3499 8.2495 -1.2055 0 16930
-2.3379 3.7619 0.20655 0 14387
-2.3081 2.7025 0 0 12964
-2.3037 -2.091 0.072232 0 7155
-2.282 -2.0852 0.071768 0 7147
-2.2411 -4.2778 0.79342 0 6129
-2.2101 3.6971 -0.20087 0 14540
-2.2019 4.5387 0.11712 0 15365
-2.1438 -3.1239 -0.26494 0 6426
-2.1121 -2.8943 0.083187 0 6504
-2.0861 -2.4764 -0.37865 0 6734
-2.0797 -2.4532 -0.22489 1 6744
-2.0754 3.9264 0.20711 0 15044
-2.028 2.4601 0.22294 0 13137
-2.0166 2.4307 0.22085 0 13109
-1.9709 -2.8548 -0.080541 0 6435
-1.9032 3.9529 -0.72079 0 15378
-1.8966 7.6581 0.36792 0 17192
-1.8821 -3.9495 0.40817 1 6030
-1.86 3.3295 0.17786 0 14823
-1.7702 3.3251 0.087458 0 15016
-1.7154 4.3437 -0.65634 0 16058
-1.7001 -4.3138 -0.10765 1 5798
-1.6965 9.5337 0.45158 0 17673
-1.6937 -4.4493 -0.11053 0 5762
-1.6879 -4.6349 -0.11452 1 5725
-1.675 -3.6485 0.46948 2 5986
-1.667 -3.4981 0.089965 0 6027
-1.665 2.6461 0.21862 0 14331
-1.6574 -4.3154 -0.10733 0 5771
-1.6483 2.6024 0.21541 0 14304
-1.6058 3.9309 -0.59677 0 15945
-1.5971 3.943 -0.59789 1 15971
-1.5749 -5.8045 -0.13964 0 5465
-1.5477 8.1521 -0.19265 0 17589
-1.5259 4.5055 0.22183 0 16541
-1.5109 4.4156 0.21764 0 16513
-1.4907 -5.247 0.38143 1 5507
-1.4897 -2.9465 0.30803 0 6091
-1.4625 -3.0883 -0.079335 1 6022
-1.454 -3.54 0.088851 2 5848
-1.4341 -4.4086 0 0 5621
-1.4281 -3.0404 -0.077988 0 6012
-1.41 -5.3142 0.51295 1 5446
-1.4003 3.0195 0.15522 0 15524
-1.398 3.0381 0.15596 0 15552
-1.3934 -9.6456 0.90923 0 5115
-1.331 3.7484 0.1855 0 16409
-1.33 4.7188 0.22863 0 16966
-1.3206 3.7542 0.18559 0 16435
-1.3199 -5.5574 0 0 5356
-1.3146 -4.9544 0.96575 0 5450
-1.3054 4.8514 0 0 17048
-1.2915 -9.7441 0.91703 1 5090
-1.2816 6.443 -0.76822 0 17521
-1.2599 4.9646 0 0 17149
-1.2046 -3.5608 -0.087273 0 5654
-1.1788 -9.5185 1.8071 0 5078
-1.1439 -5.2203 0.24922 1 5302
-1.1316 3.9726 0.67864 0 16948
-1.1251 7.1768 -0.67774 0 17806
-1.0829 -4.4455 0.86207 0 5382
-1.0671 -7.1145 -0.16702 0 5127
-1.0549 -3.1184 0 0 5655
-1.0536 9.8592 -0.2302 0 18109
-0.99725 -6.2681 1.0428 1 5149
-0.95639 4.8793 -0.58145 2 17543
-0.95343 9.1947 0 0 18126
-0.9404 5.1088 0.97871 0 17641
-0.92929 -5.0783 0.11986 0 5200
-0.91934 -3.9196 0 1 5349
-0.91365 -6.4682 1.0732 0 5109
-0.89234 5.5773 0.39496 0 17795
-0.86997 3.3834 0.24429 0 17133
-0.85567 -9.0859 0.42559 0 5012
-0.84837 -7.2109 1.1929 0 5062
-0.8288 6.082 0.71781 0 17949
-0.82755 -7.2074 1.1919 0 5056
-0.80521 -5.9477 0.55995 2 5097
-0.8025 5.6457 -0.13239 0 17909
-0.79124 -3.9924 0.28461 0 5242
-0.78398 -4.0182 0.28628 0 5234
-0.76355 7.1447 1.0098 0 18118
-0.74846 -4.9902 0 1 5128
-0.74588 3.0528 0.14655 0 17212
-0.7415 4.3198 -0.40891 0 17708
-0.72169 -4.1436 0.79245 0 5186
-0.66714 -6.8657 0.64356 0 5020
-0.65021 -4.1569 0.19621 0 5140
-0.6439 -7.0616 1.165 0 5006
-0.61732 -9.4946 0.88768 0 4963
-0.61267 -6.5056 1.0736 0 5013
-0.60498 -5.0139 0.82973 0 5069
-0.59872 -7.0125 0.82304 0 4994
-0.59265 -6.0991 1.0068 0 5021
-0.58754 -5.7049 0.94224 0 5034
-0.56975 -4.2085 -0.098599 0 5096
-0.54398 3.7471 -0.99123 0 17896
-0.51187 -4.9703 0.23301 0 5033
-0.49569 -3.4314 0.65322 1 5117
-0.49465 -3.5693 0.42139 0 5102
-0.49276 -3.6398 0.42953 0 5098
-0.48369 -9.048 1.2734 0 4939
-0.45955 -3.8087 0.53916 0 5068
-0.41421 -9.8827 1.6251 0 4914
-0.40324 -3.4274 0.080124 0 5061
-0.35611 -4.0219 0.18829 0 5000
-0.35049 7.7185 1.2694 0 18474
-0.34865 -5.8857 0.82864 0 4952
-0.32917 -7.8539 1.1048 0 4913
-0.31604 -5.5828 0.52168 0 4945
-0.31095 -5.2494 -0.12209 0 4951
-0.30491 -4.4841 0.41931 0 4968
-0.30174 -6.3512 0.59321 0 4929
-0.29201 -5.4624 0.51035 1 4938
-0.27281 -3.5535 0 0 4981
-0.23488 -9.6107 0.44832 0 4875
-0.22886 -5.1187 0.96538 0 4922
-0.22131 -5.2804 0.99575 0 4915
-0.20823 -5.3714 1.0128 0 4904
-0.15206 -3.6279 0.25391 0 4912
-0.12872 -6.9568 0 0 4862
-0.11792 7.1111 0.16512 0 18620
-0.11329 -5.234 0.48843 0 4868
-0.062028 -6.3462 0.44379 0 4840
-0.046348 4.3531 -1.1396 0 18653
-0.03793 -5.3004 0.12306 0 4834
-0.022342 4.4141 -1.2657 0 18684
-0.0062385 -5.9574 0.83727 0 4822
0.0071333 8.1745 0.76264 0 18713
0.013633 -8.6783 0.80965 0 4816
0.015059 3.7516 -1.1706 0 18728
0.060863 3.3208 -0.46679 0 18791
0.081381 3.8214 -1.1927 0 18816
0.082516 -3.7221 -0.086437 0 4777
0.091646 9.547 0.22166 0 18753
0.1024 -6.3082 1.1887 1 4790
0.12274 -6.3923 1.2046 0 4784
0.12443 -5.6129 0.39259 0 4779
0.13907 3.8853 -0.54639 0 18878
0.14309 9.2114 1.5136 0 18788
0.14935 3.1436 -0.90244 0 18923
0.18368 3.265 -0.53727 1 18946
0.18888 4.2579 -0.599 1 18908
0.19054 3.8007 -0.35503 0 18929
0.20148 3.2569 -0.69359 0 18975
0.21222 6.4655 -0.30167 0 18868
0.22112 -7.9661 1.3093 1 4766
0.23051 6.4399 0 0 18883
0.24238 -7.8882 0.18323 0 4760
0.25416 -5.6405 0.39482 0 4735
0.26032 3.2857 0 0 19033
0.26659 -5.5501 0.12901 0 4728
0.2674 3.9427 -0.83996 0 18997
0.27082 -3.0405 0.21345 0 4662
0.27258 -5.6748 0.53004 2 4729
0.27665 7.729 -0.17956 0 18882
0.27673 9.2695 1.5236 0 18863
0.28334 -3.0895 0.21694 0 4655
0.28599 -8.576 0.80054 0 4755
0.29289 3.9789 0.18605 0 19015
0.29471 -4.3119 0 0 4698
0.29623 3.1573 -0.67405 0 19092
0.30014 -4.5792 0.214 0 4702
0.30371 3.9651 -0.37101 2 19020
0.31716 -7.5046 1.2341 1 4741
0.32924 7.9549 0.93106 0 18905
0.35567 -8.9725 0.20848 0 4746
0.39893 8.9928 1.696 0 18916
0.40736 3.1494 -1.073 0 19192
0.43861 8.7489 1.6504 0 18938
0.48791 -5.3201 0.87772 1 4656
0.4953 -3.3542 0.55705 0 4548
0.49846 -7.6051 0.53294 0 4703
0.50222 3.2218 -1.1868 1 19259
0.50522 9.513 1.3388 0 18944
0.51027 3.2072 -1.182 1 19267
0.52047 9.2513 -0.43211 2 18950
0.52509 3.2492 -0.94378 1 19275
0.55707 -4.2775 0.60624 1 4584
0.56225 3.1789 0.4537 0 19318
0.57661 3.1081 -0.073393 0 19341
0.5964 -3.8794 0.091126 0 4533
0.61184 4.432 0.73505 0 19219
0.65142 -6.2822 0.88765 0 4631
0.6597 4.4037 0.10338 0 19245
0.68046 3.919 -0.1855 1 19306
0.68063 -5.1284 0.36176 0 4577
0.6952 3.9307 -0.18615 0 19314
0.70789 -5.2083 0.61467 0 4571
0.70877 3.8204 -0.73209 0 19347
0.71337 -4.2357 0.40074 0 4502
0.72843 -4.0323 0.19109 0 4469
0.74159 -4.0446 0 0 4461
0.7483 -6.1656 0.4343 0 4599
0.75135 -4.6186 0.76878 0 4516
0.75669 -5.5673 -0.13044 0 4570
0.76752 -4.2487 0.30191 0 4470
0.77013 -7.032 -0.16424 0 4618
0.77244 -4.4259 -0.10431 2 4484
0.80148 3.1352 0 0 19546
0.84291 3.0748 0.37284 0 19598
0.87127 -5.2629 -0.12385 0 4509
0.88377 -5.8714 0.69435 0 4541
0.89589 -8.9127 -0.20797 0 4637
0.90475 7.9163 0.18499 0 19143
0.92341 -4.7197 0.5624 0 4440
0.92892 3.7733 0 0 19516
0.9298 3.7237 0 1 19527
0.95445 -6.3409 0.44839 0 4539
0.96826 -4.6673 0.11067 0 4418
1.0044 6.313 -0.447 0 19266
1.0056 3.983 -0.28726 0 19535
1.0235 3.567 0.25949 0 19636
1.0462 -5.8911 0.69969 0 4476
1.0519 -8.6673 1.4344 1 4600
1.0552 -4.736 0.3393 0 4388
1.1021 -8.675 1.4367 1 4590
1.1091 -5.7648 0.54769 1 4445
1.1141 4.8219 -1.1726 1 19470
1.1335 -5.1595 0.12265 1 4394
1.1836 -6.665 1.1121 0 4478
1.1863 -5.1101 0 0 4368
1.1956 -4.835 -0.11564 0 4342
1.2084 -3.9451 0 0 4240
1.2474 -5.0444 0.85373 0 4344
1.2525 8.7023 0 0 19231
1.2716 4.3855 -1.1953 0 19647
1.297 -8.4367 1.6082 0 4534
1.3078 5.1156 -0.74207 0 19541
1.3118 -7.5161 1.2535 0 4487
1.3127 -5.7361 0.13662 0 4377
1.3207 4.7048 -0.11345 0 19615
1.3212 -5.4073 0.38924 1 4349
1.3294 3.5274 -0.35169 0 19881
1.3318 4.2264 -1.05 1 19713
1.3409 4.3426 0.31781 0 19693
1.3526 4.6166 -0.11169 0 19651
1.3666 6.9146 -0.32869 0 19379
1.3789 8.6668 -1.2334 0 19264
1.3962 2.9983 -0.46484 1 20171
1.4278 -4.4312 0.76488 0 4194
1.4304 -8.3334 1.593 0 4495
1.4304 4.9332 0.23953 0 19646
1.4491 8.4957 1.6238 0 19303
1.4499 -7.3023 1.0463 0 4433
1.4754 -3.1157 0.64951 0 3867
1.4857 -3.7015 0.65529 0 3995
1.4972 6.2269 0.44784 0 19497
1.4992 -4.837 0.47245 0 4235
1.5012 -5.5138 0.13267 0 4295
1.5052 4.8208 -0.70978 1 19698
1.5153 -8.8279 1.0474 0 4494
1.5203 -4.0577 0.40427 0 4055
1.5227 9.0704 -1.0756 0 19288
1.523 9.0717 1.5113 1 19294
1.5345 -8.7923 0.83268 0 4485
1.5435 7.0497 -0.67328 0 19435
1.5447 4.169 0 1 19862
1.547 -3.2405 0.67655 0 3861
1.5627 5.4462 0 0 19634
1.563 4.4186 -0.21857 0 19804
1.5654 4.1912 0 0 19875
1.5677 4.1226 0.61988 2 19900
1.575 4.1792 0.62767 0 19890
1.5848 -5.6952 0.27568 0 4284
1.609 -3.7851 0.67572 0 3950
1.6136 5.5648 0 0 19644
1.6243 4.6776 -0.81352 0 19788
1.6249 4.9537 -0.48638 0 19743
1.6372 -5.5734 0.81639 0 4257
1.6447 4.6914 -0.81676 1 19796
1.6452 -7.2943 0.69762 0 4382
1.6558 8.1311 -0.77416 1 19397
1.6657 -2.9645 0.55867 0 3781
1.6942 8.3199 1.5997 0 19404
1.7016 6.6561 0.1595 0 19548
1.7062 7.0958 -0.34034 0 19493
1.7444 2.9876 -0.56839 0 20909
1.7535 7.0225 -0.33754 0 19524
1.7632 8.6587 -0.41208 0 19399
1.764 5.4354 -0.13267 0 19731
1.7681 9.5308 1.8263 0 19348
1.7688 -7.068 0 0 4336
1.7733 5.6796 0 0 19700
1.7829 5.4937 -0.26935 0 19730
1.8083 4.7157 -1.4482 1 19909
1.8305 -7.6954 0.92502 0 4357
1.8343 5.0837 0.50422 1 19829
1.8394 4.9249 0.36762 0 19878
1.8503 3.1475 -0.59985 0 20938
1.8549 2.9172 -0.32252 0 21270
1.8611 2.8913 -1.0729 2 21313
1.8679 2.6905 -0.77606 1 21568
1.8902 2.5003 -0.82053 0 21851
1.8988 2.4962 -0.82104 0 21869
1.9174 -4.777 0.35994 2 3991
1.9179 -4.7445 0.35785 2 3985
1.9243 4.1627 0 0 20163
1.9486 -4.6606 0.59074 0 3963
1.9493 -4.779 0.72537 0 3981
2.0172 -6.9389 -0.33698 0 4262
2.0288 7.6572 -0.36941 0 19570
2.033 -3.6677 0.19556 0 3785
2.0556 -3.6826 0.19668 0 3782
2.0619 -7.0195 -0.34118 0 4256
2.08 -8.9593 1.2926 0 4370
2.1745 6.3803 -0.62888 0 19768
2.1877 -9.4234 0.90254 0 4369
2.228 6.2986 0.6233 0 19808
2.238 6.2026 0 0 19826
2.2579 6.2578 0.77798 0 19831
2.4269 -8.8288 0.85423 0 4290
2.4443 -4.9719 0.64789 0 3843
2.4485 -4.9455 0.64533 0 3838
2.543 9.3791 1.5966 0 19592
2.5609 -8.3607 1.6475 0 4241
2.6284 3.1048 -0.57172 0 22188
2.6338 7.7279 -0.95476 0 19766
2.6542 8.0918 -0.99588 1 19741
2.6645 -8.8756 1.746 0 4247
2.7214 -8.7807 1.5103 0 4236
2.7588 -9.2898 1.3619 0 4252
3.275 8.7686 -1.0946 0 19870
3.287 8.6441 0.43127 0 19898
3.3081 8.9285 -0.44403 0 19859
3.3315 7.6728 1.576 0 20074
3.352 2.2883 -0.76468 0 23791
3.3527 2.2733 -0.7632 0 23807
3.5687 8.5522 1.3024 0 20006
3.7945 0.96226 -1.3227 0 225
4.1703 1.0189 -1.231 0 265
4.1808 1.0084 -1.2332 0 277
4.381 -0.13002 -0.82578 0 1337
4.4461 -0.11953 -0.838 0 1318
-14.815 -2.3465 2.8262 0 7490
-13.865 -1.7835 0.65189 1 7536
-13.864 -1.5404 2.2917 0 7560
-13.816 0.47522 1.9429 0 7875
-13.101 -2.2723 1.2405 0 7464
-12.951 1.3498 2.1393 0 8029
-12.329 0.49517 2.0272 0 7889
-12.259 -0.43452 1.1444 0 7711
-11.866 0.96302 2.2429 0 7979
-11.864 1.5873 1.1167 0 8096
-11.814 -1.2772 1.6701 1 7565
-11.503 2.9577 0.83052 0 8496
-11.365 1.8896 0.26748 0 8186
-11.32 -1.5265 1.0657 0 7527
-11.187 -1.2094 2.12 0 7566
-11.034 -1.8465 0.52173 1 7472
-10.922 5.9033 0.86819 1 9894
-10.852 0.12123 0.25198 0 7820
-10.676 -0.62493 0.49872 1 7650
-10.423 1.733 1.736 0 8188
-10.389 -7.432 2.4066 0 7375
-10.357 1.1708 0.48605 1 8046
-10.17 -6.7544 0.56934 1 7407
-10.036 -0.44342 0.23322 0 7688
-10.035 -1.439 1.6656 0 7511
-9.9381 6.0639 0 0 10270
-9.4406 7.8824 0.28554 1 11485
-9.3801 9.9993 0.31831 1 12546
-9.2822 4.7418 0.242 0 9739
-9.19 -11.164 0.33572 1 6698
-9.1195 -7.7175 0.27737 0 7243
-8.8475 -7.5752 1.0867 0 7227
-8.837 11.934 -1.3854 2 13604
-8.7283 -7.2567 0.26354 0 7264
-8.624 -5.9849 1.7246 0 7389
-8.4257 8.777 0.28248 1 12443
-8.3477 -10.895 -0.64006 0 6574
-8.1572 9.6664 0.58984 1 13024
-7.591 9.1499 0.27602 0 13106
-7.5387 -6.7665 0.94508 1 7172
-7.5338 6.9107 0.23735 0 11884
-7.5236 -10.825 1.2299 0 6445
-7.3441 -7.758 1.7551 1 6955
-7.0004 7.3358 0 0 12467
-6.9223 8.9628 2.1337 2 13428
-6.7847 7.9946 1.9756 2 13006
-6.7817 -9.348 0.26813 0 6496
-6.6814 -7.5228 0.70356 1 6839
-6.6521 8.7195 1.2825 1 13474
-6.4528 -7.7038 -0.23331 0 6725
-6.4356 8.5341 1.7561 1 13538
-6.4294 -11.378 2.1471 1 6215
-6.3204 -7.7745 1.4082 1 6684
-6.3187 9.4781 1.8715 2 14096
-6.2067 7.8986 0.70245 0 13345
-6.0666 7.952 1.6433 2 13478
-5.8047 -9.9296 1.8897 0 6257
-5.7743 -10.495 1.4008 0 6178
-5.6862 -9.4709 1.2918 0 6282
-5.6169 -12.82 1.9671 0 5925
-5.6034 -9.7171 0.26043 0 6234
-5.4826 -10.465 2.2259 2 6130
-5.4099 -13.383 1.3467 0 5829
-5.3967 8.4678 1.8919 2 14285
-5.2097 11.581 1.7848 1 15643
-5.2047 11.845 0.30039 1 15716
-5.1252 -8.8308 1.9237 2 6250
-5.0361 -9.2139 1.2279 1 6171
-5.0215 -9.8595 1.2939 1 6099
-4.8584 9.7274 1.5281 0 15265
-4.8301 -11.759 1.186 1 5851
-4.8044 -12.85 2.5847 1 5753
-4.658 9.8274 0.76049 0 15447
-4.5331 -12.235 1.8337 1 5745
-4.4362 -9.5876 1.4847 1 5997
-4.3049 -10.393 1.3155 0 5861
-4.1245 -11.641 1.4442 1 5705
-4.0438 11.94 1.7717 0 16548
-3.9699 -12.583 1.231 1 5597
-3.943 13.554 0.32774 1 16901
-3.5125 -13.72 1.3213 0 5420
-3.296 9.8166 1.7013 0 16575
-2.9263 -0.39461 0.1377 1 7526
-2.9092 -14.048 0.33307 2 5263
-2.4396 9.8504 0 0 17189
-2.3922 -14.497 2.7684 0 5163
-2.3737 -1.7622 0.48571 0 7358
-2.1115 0.27012 0.1986 0 8081
-2.0414 9.9627 1.6708 0 17497
-2.0413 13.529 2.248 0 17857
-2.0155 13.6 -0.31919 0 17871
-1.991 1.7727 0.31175 1 11767
-1.9835 10.447 -0.99209 0 17583
-1.9616 -9.898 1.9011 0 5244
-1.7714 11.953 2.2766 0 17881
-1.7148 -11.193 0 0 5133
-1.657 11.414 1.8949 0 17899
-1.328 13.165 1.5474 0 18147
-1.2703 11.562 2.1915 0 18102
-1.2359 14.299 -0.33321 0 18234
-0.93097 -11.699 2.2111 0 4986
-0.64791 0.68323 0.11011 1 12497
-0.59071 2.6492 0.51139 0 17366
-0.56562 12.456 2.3492 0 18476
-0.4219 -0.78849 -0.16849 2 6149
-0.36663 -12.139 2.2881 0 4886
-0.045301 -10.815 0.25109 0 4827
-0.0211 4.1685 -1.9732 0 18679
0.11871 12.366 1.738 0 18758
0.33145 10.098 -0.23457 0 18870
0.38715 3.218 -1.5342 0 19157
0.62427 11.096 0 0 18951
0.7887 -13.804 2.6051 0 4716
0.85212 -11.049 1.0339 0 4685
1.0126 5.0447 -1.6055 0 19391
1.0537 12.816 2.1128 0 19049
1.7349 -9.9406 1.4182 0 4486
1.8884 10.517 1.7554 0 19327
2.0167 11.402 -1.3541 0 19312
2.0399 10.816 0.25555 0 19355
2.0805 -9.8725 0.70552 0 4412
2.1205 12.431 2.0719 0 19301
2.1255 10.273 0.97871 1 19409
2.2999 9.954 1.9248 0 19473
2.318 12.692 -1.2037 0 19330
2.3518 -10.859 1.5615 0 4401
2.4683 11.764 -1.4057 0 19414
2.5509 -10.066 0.72616 0 4330
2.573 9.9419 0.95809 0 19553
2.5881 10.365 -0.24803 0 19526
2.5976 12.045 1.441 0 19433
2.8064 -11.937 1.434 0 4362
2.8693 12.932 0.30754 1 19443
2.8969 9.7797 1.4335 0 19665
2.9535 -11.116 0.53636 1 4307
2.9672 12.842 -0.30601 0 19465
3.0109 13.031 -1.8797 0 19460
3.2336 10.577 1.0318 0 19685
3.2648 12.176 2.3751 0 19585
3.5015 10.886 1.6072 0 19726
3.5307 -14.277 2.067 0 4343
3.8504 10.488 0 0 19849
4.0429 11.755 -0.2886 0 19780
5.3499 11.573 2.4022 0 20167
5.6419 11.331 1.4802 0 20313
6.3969 12.847 2.3579 0 20316
