VERSION .7
FIELDS x y z intensity index
SIZE 8 8 8 8 8
TYPE F F F F F
COUNT 1 1 1 1 1
WIDTH 1541
HEIGHT 1
VIEWPOINT 0 0 0 1 0 0 0
POINTS 1541
DATA ascii
-7.3558 2.1398 0.71471 0 11218
-7.3322 2.5763 -1.0922 0 11378
-7.3085 -5.5173 1.5045 0 10445
-7.2969 -0.36709 0.5109 0 10636
-7.2901 3.3747 0.37462 0 11748
-7.2876 -0.1972 1.1977 2 10668
-7.2374 3.9263 -0.19116 0 12037
-7.2343 -5.9043 -0.43546 0 10408
-7.1895 3.354 0.36997 0 11762
-7.1389 -6.3248 0.44478 0 10365
-7.1335 -5.5833 0.84513 0 10431
-7.1205 1.6282 0.68146 0 11070
-7.0855 3.6602 1.3103 0 11950
-7.0447 6.7887 1.1441 0 13711
-7.0402 -0.045466 -0.32832 0 10693
-7.0236 5.7426 1.4905 0 13084
-7.0162 6.2644 1.5453 1 13417
-6.9994 -5.6096 1.2606 0 10417
-6.9548 2.4219 -1.3875 0 11377
-6.9195 -4.9465 -0.19748 0 10459
-6.8984 6.9588 1.6099 2 13920
-6.874 3.5784 1.4601 1 11964
-6.8727 -0.36379 0.96725 0 10631
-6.8474 3.4394 1.0769 0 11894
-6.8334 3.6303 0.17965 0 11996
-6.8228 2.0911 0.16568 0 11260
-6.8081 6.2604 1.0816 1 13525
-6.7851 1.9507 0 0 11211
-6.767 -7.0936 1.3778 0 10300
-6.7546 6.8568 1.5813 1 13948
-6.7422 6.7635 1.7993 2 13896
-6.7396 -0.29897 0.15663 0 10642
-6.7186 1.152 1.1199 0 10945
-6.6947 -0.14257 1.1001 0 10677
-6.6886 0.14828 1.2605 0 10737
-6.6776 -6.0889 1.4847 1 10347
-6.6737 3.5246 1.422 0 11989
-6.6603 -4.8479 0.96335 0 10453
-6.6226 5.4826 1.2083 0 13126
-6.6032 -4.4943 1.1226 0 10476
-6.585 1.2466 0 0 10984
-6.584 5.1644 1.3748 2 12945
-6.5777 3.8468 0.17691 0 12189
-6.5576 -6.4464 0.64302 0 10326
-6.5518 6.8036 1.5518 2 14044
-6.544 5.3505 1.188 2 13082
-6.529 5.434 1.1938 0 13147
-6.5144 -5.5051 0.79571 0 10390
-6.4918 2.2607 -0.1596 0 11372
-6.4882 2.1974 1.1254 0 11347
-6.4755 1.5009 0.62015 0 11078
-6.4567 -7.3443 1.6066 1 10252
-6.4301 5.0437 1.5397 0 12947
-6.4299 6.8352 1.5418 1 14142
-6.4283 6.156 1.2509 0 13691
-6.4155 6.5125 1.0691 2 13944
-6.4089 -6.955 1.7819 0 10282
-6.3999 -7.5385 1.3898 0 10228
-6.3958 6.272 1.4717 1 13791
-6.3756 5.1537 0.95871 0 13037
-6.3646 1.3204 0.91353 0 11022
-6.3645 6.8036 1.3093 2 14162
-6.362 -6.5903 -0.42717 0 10307
-6.3491 -0.22615 0.29627 0 10655
-6.3346 5.3361 1.164 2 13188
-6.325 6.4566 1.057 1 13967
-6.3203 6.8348 1.5294 1 14216
-6.3195 6.9548 -0.65711 2 14272
-6.3163 4.3899 0 0 12583
-6.2768 6.4817 0.84179 1 14015
-6.2697 5.4062 1.1635 0 13274
-6.2501 2.2971 -1.2546 0 11438
-6.2351 0.71812 0.14572 0 10860
-6.2254 -1.0239 0.73779 0 10520
-6.2238 5.3025 0.95615 0 13227
-6.2167 3.3264 0.99091 1 12015
-6.2164 1.0659 0.29413 0 10943
-6.2002 6.9443 -0.21614 2 14345
-6.1518 5.3345 0.9522 1 13296
-6.1499 6.9683 0 1 14394
-6.1365 0.79917 0.14367 0 10882
-6.1226 2.6864 0 0 11661
-6.1077 6.7642 1.7171 0 14311
-6.1011 6.952 0.21475 0 14419
-6.0907 0.91787 0.86566 0 10910
-6.0799 6.7334 0.42307 0 14300
-6.0778 6.3868 0.61651 0 14087
-6.0262 3.7146 1.1631 0 12309
-6.0149 7.0625 1.7478 1 14551
-6.0098 2.9533 1.1001 0 11853
-6.0078 3.1729 -0.15774 0 11981
-6.0002 -0.49225 0.13978 0 10591
-5.9941 -4.6629 0.88809 0 10434
-5.984 0.62155 1.1335 0 10846
-5.9647 -5.1016 -0.54884 0 10382
-5.9646 1.3092 1.1505 0 11048
-5.953 -5.0306 0.18095 0 10389
-5.9511 6.7812 0.42074 1 14420
-5.9487 6.2861 0.4036 1 14110
-5.9418 -0.87211 0.28006 0 10532
-5.9409 -0.53962 -0.6976 0 10575
-5.9409 6.4246 1.0233 1 14212
-5.9394 1.2495 0.28304 0 11030
-5.9341 6.4578 1.0256 0 14236
-5.9336 -0.48679 0.27764 0 10592
-5.9311 2.201 0.14688 0 11445
-5.9286 2.1789 0.14665 0 11433
-5.9072 7.621 1.8167 0 14907
-5.8981 -7.7789 0.68264 0 10149
-5.8885 -0.6054 -0.41393 0 10566
-5.8684 -5.2285 1.4808 2 10361
-5.8611 6.6411 1.0358 0 14400
-5.8482 4.7544 1.2383 0 13060
-5.8456 7.8653 1.3773 0 15062
-5.8363 -4.1984 1.3546 0 10457
-5.8223 6.5211 1.2286 2 14355
-5.7892 -6.32 -0.39969 0 10277
-5.7878 -0.69733 0.27186 0 10557
-5.7867 -5.0659 1.2636 1 10372
-5.7808 -0.037333 0.53933 0 10696
-5.7373 1.2782 0 0 11054
-5.7352 6.0605 1.1727 0 14117
-5.7338 -0.70707 0.81194 0 10554
-5.7305 -4.1987 0.16494 1 10451
-5.7189 2.668 0.44128 0 11764
-5.7164 5.9715 1.5575 1 14071
-5.7125 -0.61957 0 0 10563
-5.7104 2.2517 -0.14251 0 11517
-5.6836 2.4149 -1.1635 0 11620
-5.6659 -0.48276 0.13202 0 10584
-5.6532 6.598 1.2211 2 14524
-5.6357 6.1654 1.5738 2 14264
-5.6328 7.9585 1.3703 2 15256
-5.6298 1.7783 0 0 11287
-5.6262 5.8772 1.1434 2 14067
-5.6161 6.7911 0.61623 2 14655
-5.6158 2.5794 0.72269 0 11738
-5.6136 3.1955 1.0612 0 12139
-5.5655 -0.16712 0 1 10663
-5.5515 4.5681 1.0104 0 13104
-5.5475 6.2133 1.5693 0 14359
-5.5293 0.89951 0 0 10927
-5.5248 5.3241 1.0783 2 13713
-5.5237 0.05881 0.51536 0 10721
-5.5204 0.12238 0.77603 0 10736
-5.4994 4.8279 1.2023 1 13347
-5.4851 -8.2215 -0.4609 0 10087
-5.481 -0.87006 0.91177 0 10526
-5.4731 -6.7975 1.4338 1 10192
-5.4466 3.6023 0.45663 0 12466
-5.4305 4.0375 1.275 0 12779
-5.4219 3.1291 0 0 12160
-5.41 -6.6404 1.4072 0 10200
-5.399 4.6817 1.1741 2 13300
-5.3601 -5.9886 1.1295 1 10264
-5.3539 -0.76865 -0.37822 0 10535
-5.3516 5.8896 0.9306 1 14283
-5.337 5.2009 1.2243 2 13765
-5.3344 6.2634 1.1563 0 14548
-5.3266 7.9598 -0.44664 0 15455
-5.3234 5.13 1.2146 2 13715
-5.3212 6.1343 0.94965 1 14471
-5.3203 5.494 0.89436 0 14017
-5.3194 6.8626 0.60716 1 14897
-5.2899 4.0767 1.0972 2 12885
-5.279 5.5145 0.89273 2 14065
-5.2786 4.8812 1.3546 1 13553
-5.277 6.8474 0.60451 2 14922
-5.2714 0.95228 0.49976 0 10964
-5.2711 1.9907 0.92571 0 11472
-5.2605 0.024789 0.12214 0 10713
-5.2482 5.4824 0.53071 0 14062
-5.2396 -0.44643 -0.12209 0 10583
-5.2377 -6.2776 1.149 0 10216
-5.2291 0.31433 0.73623 0 10787
-5.2266 5.7885 0.54536 2 14302
-5.2164 -0.52066 -0.24447 0 10569
-5.215 6.0502 0.93408 2 14496
-5.2004 -0.45864 -0.12121 0 10578
-5.1514 0.18889 0.84692 0 10758
-5.1469 2.134 0.51982 0 11581
-5.146 7.1404 1.237 0 15183
-5.1375 2.147 0.65114 0 11594
-5.135 0.62232 0.12009 0 10870
-5.1215 6.302 0.94965 2 14718
-5.1197 7.0596 1.0198 1 15154
-5.0617 2.0471 0 0 11547
-5.0546 7.0135 1.011 1 15181
-5.0475 0.71567 0 0 10900
-5.0404 -7.236 -0.41124 0 10105
-5.0318 0.98356 -0.59957 1 10995
-5.0308 7.6122 0.85126 2 15506
-5.0243 0.34429 0.46985 1 10799
-5.0218 1.6511 0.24652 0 11321
-5.0183 8.4183 1.6102 0 15879
-5.0169 -4.4449 -0.31257 0 10364
-5.0154 0.9949 -0.59794 1 11002
-5.0126 7.781 0.86352 2 15594
-4.9997 8.275 1.1306 0 15831
-4.9942 5.4349 1.2127 0 14240
-4.9886 -0.11931 0.58354 2 10673
-4.9559 5.4217 1.2068 2 14262
-4.9556 6.2435 1.3096 2 14811
-4.949 0.96736 -0.11708 0 10998
-4.9265 8.4884 1.6125 2 15977
-4.9215 8.2038 1.1188 2 15854
-4.9154 7.483 1.047 2 15528
-4.914 7.7732 1.7327 2 15672
-4.8984 7.9498 1.7593 2 15766
-4.8952 1.9947 0.61815 1 11559
-4.8913 2.1614 0.62536 0 11675
-4.8871 6.619 1.3518 2 15090
-4.8775 2.7968 -0.13054 0 12147
-4.8632 5.5748 0.69019 1 14446
-4.8604 4.3932 0.92077 2 13460
-4.8518 0.64651 0.22826 0 10886
-4.8483 0.34668 -0.11285 0 10803
-4.8388 4.8812 0.80376 1 13916
-4.8334 4.4695 0.76985 0 13548
-4.8274 4.2875 0.90741 2 13390
-4.8197 1.2214 0 0 11134
-4.8172 -4.3405 -0.15055 0 10353
-4.8148 4.5851 0.77751 0 13666
-4.812 4.4779 0.76869 1 13570
-4.8009 4.2385 0.59748 0 13365
-4.7887 5.5891 0.68666 2 14520
-4.7868 4.6941 0.78402 2 13787
-4.7832 1.1378 0.4587 0 11096
-4.7772 -0.21192 0.90095 0 10643
-4.7756 -0.82918 0.79634 0 10518
-4.7611 6.522 0.75335 2 15127
-4.7605 1.6262 -0.707 0 11350
-4.758 2.3042 0.12274 0 11826
-4.7542 -4.1386 0.29394 0 10375
-4.7534 7.6189 0.62795 0 15713
-4.7209 5.7391 1.4001 2 14684
-4.6959 4.6828 0.46374 1 13860
-4.6937 4.4417 0.45188 1 13637
-4.6916 5.8771 1.0569 1 14786
-4.6868 4.8669 0.63036 0 14038
-4.683 -0.16681 0.65857 0 10656
-4.6716 -3.5912 0.1368 0 10438
-4.6692 3.5776 0.82669 0 12864
-4.6566 4.4345 0.44965 0 13662
-4.6488 -4.239 1.1853 0 10348
-4.6475 6.6103 1.1357 1 15279
-4.641 6.1723 0.72047 1 15011
-4.6226 5.9982 1.4268 2 14930
-4.6104 -0.67669 0.43473 0 10533
-4.6102 0.54565 -0.65244 0 10862
-4.5978 2.4601 -0.12107 0 12010
-4.5922 7.7526 1.0537 1 15900
-4.5839 8.0593 1.5233 0 16050
-4.583 -0.8643 0.43511 0 10512
-4.5812 4.9283 0.31379 0 14180
-4.5668 6.6175 0.56224 0 15344
-4.5619 4.4177 0.59246 1 13735
-4.5513 7.4856 0.6126 2 15804
-4.5478 4.1107 -1.4525 1 13459
-4.5317 4.9006 0.31127 1 14206
-4.5284 0.89829 0.64883 0 11006
-4.5209 4.4057 0.58893 1 13760
-4.5168 -4.7051 0.15143 0 10303
-4.5159 6.5023 0.55359 0 15319
-4.4747 8.0263 1.0746 1 16118
-4.4735 6.0191 0.69966 2 15059
-4.4695 7.7507 1.0463 2 15998
-4.4685 6.6348 1.5071 2 15446
-4.4561 8.441 1.1162 1 16327
-4.4437 6.3557 0.54229 1 15298
-4.4322 -2.9225 0.4953 0 10483
-4.4257 -3.7613 0.95424 0 10386
-4.4106 6.591 0.55456 2 15461
-4.4022 5.8909 0.51424 1 15034
-4.4011 5.9218 1.3901 2 15066
-4.3993 6.0662 0.6991 0 15152
-4.3986 8.1113 1.079 1 16218
-4.3977 6.4881 1.4768 0 15424
-4.3959 -6.8895 1.3427 0 10062
-4.3878 6.8112 0.56656 0 15592
-4.3815 6.6702 0.55805 1 15524
-4.3749 0.75017 0.41411 2 10944
-4.3731 0.54393 -0.10231 2 10875
-4.3659 1.1609 0.63491 0 11160
-4.3623 6.7716 0.94198 1 15596
-4.361 4.2231 0.70991 1 13737
-4.3569 7.3553 0.79757 1 15898
-4.3527 -5.878 1.0279 0 10134
-4.346 2.5928 0.11749 0 12230
-4.3389 -0.7012 -0.20497 0 10522
-4.3313 6.7622 0.56154 0 15615
-4.2981 -5.4016 0.80725 0 10184
-4.2765 0.15681 0.39925 0 10757
-4.2764 -7.8045 -0.83027 0 9994
-4.2683 4.0647 0.82836 0 13668
-4.2594 5.3664 0.80121 2 14807
-4.2499 5.3852 0.64003 2 14830
-4.2482 7.564 1.6345 0 16099
-4.2452 4.2585 0.70318 0 13891
-4.2406 7.6628 1.2308 2 16143
-4.2281 5.3923 0.63928 0 14853
-4.2184 -7.5914 1.2205 0 10002
-4.2161 4.2044 0.97824 1 13868
-4.213 -3.0486 0.24251 0 10455
-4.2074 2.1447 -1.0038 0 11923
-4.1963 2.6028 0 0 12317
-4.1864 -6.5612 1.4664 0 10064
-4.1772 1.2939 -0.61459 0 11264
-4.1759 1.7169 0.21056 0 11569
-4.167 6.7628 1.3051 2 15764
-4.1665 1.4509 0.51594 0 11374
-4.1657 -3.2022 0.24503 0 10439
-4.1636 7.5673 1.2139 2 16169
-4.1538 6.875 0.56168 2 15827
-4.1535 1.8649 0.74802 0 11700
-4.151 0.63815 0.29367 0 10915
-4.1447 6.7742 1.3047 2 15786
-4.143 6.0758 0.85998 1 15395
-4.1383 6.5893 0.90992 2 15694
-4.1316 7.7248 1.0244 2 16272
-4.1292 8.0518 1.7049 2 16436
-4.1262 7.9332 -1.4691 0 16359
-4.1125 -7.251 1.1716 0 10014
-4.1069 8.1799 1.7245 2 16516
-4.0873 2.5679 0.45034 1 12351
-4.0863 0.46051 0.38364 0 10857
-4.0833 -0.14545 -0.57423 1 10651
-4.0726 7.0625 0.7606 2 15996
-4.0725 0.68662 0 0 10937
-4.0633 5.1821 0.77008 2 14855
-4.0603 2.5837 0.11174 1 12380
-4.0522 8.1309 1.2768 2 16540
-4.0359 0.76404 0.19155 0 10985
-4.0312 0.69123 0 0 10942
-4.0286 7.7455 1.021 2 16377
-4.0249 1.2845 0.098089 0 11296
-4.0227 -8.2845 1.2943 0 9937
-4.0173 6.3156 0.87531 2 15644
-4.0145 7.1479 1.3469 1 16098
-4.0047 1.4989 0.60095 0 11459
-3.9955 6.1619 0.85882 2 15572
-3.9929 4.7417 1.0184 1 14598
-3.9923 7.4082 0.58847 0 16240
-3.9886 0.69612 0.094004 2 10951
-3.9828 0.32045 -0.18633 0 10815
-3.9754 1.4753 0.59594 0 11448
-3.9735 7.8051 1.0242 1 16458
-3.9706 7.175 0.76506 2 16140
-3.9667 0.76387 0.18838 0 10992
-3.9567 5.3903 -1.4213 0 15110
-3.949 6.9431 0.93408 0 16047
-3.9483 7.382 0.5854 1 16268
-3.9186 7.9253 1.2425 0 16570
-3.8892 5.0466 0.89544 2 14927
-3.8888 7.7455 1.0135 2 16510
-3.8656 2.7027 -0.10951 0 12599
-3.8619 1.3079 -0.66988 0 11340
-3.8615 8.221 1.2765 2 16752
-3.8583 5.2852 0.91966 2 15131
-3.8566 1.3174 -0.66956 0 11349
-3.8307 7.7988 1.0161 2 16597
-3.8251 -5.259 0.30326 0 10124
-3.8151 -6.8657 0.91852 1 10001
-3.813 -6.6336 1.4416 0 10021
-3.8047 7.0161 0.74462 2 16216
-3.8002 6.6813 1.0803 2 16048
-3.7917 2.3822 0.62934 0 12354
-3.7716 0.70311 0.63032 0 10979
-3.7612 1.9032 0.49294 0 11908
-3.7564 6.0585 1.3431 1 15745
-3.7527 7.2151 0.75874 1 16375
-3.7521 0.667 0.71802 0 10958
-3.7517 1.1743 0.45972 0 11278
-3.7313 7.5964 0.59181 1 16593
-3.7219 -4.384 0.67251 0 10227
-3.7167 7.5169 0.58637 2 16564
-3.7138 1.6295 0.18913 0 11662
-3.7116 1.6146 0.18876 0 11649
-3.7027 1.714 -0.76875 0 11754
-3.7021 1.1467 0.45322 2 11269
-3.6938 6.9062 0.73069 1 16270
-3.6913 -3.8238 0.87318 1 10308
-3.6891 4.7049 1.1265 2 14861
-3.6878 -3.5439 0.11875 0 10328
-3.6602 4.8117 1.1391 0 14972
-3.6362 -3.0199 0.10974 0 10398
-3.6292 7.4442 0.57912 2 16621
-3.6285 1.8744 0 2 11944
-3.617 6.9989 0.92131 2 16404
-3.5964 7.1631 1.1265 2 16512
-3.5929 5.9467 0.6482 2 15829
-3.5902 0.94255 -0.3463 1 11152
-3.5797 4.7298 0.83365 2 14991
-3.5727 4.8673 0.5633 1 15106
-3.5625 0.11009 0.58558 0 10748
-3.5556 -7.3225 0.56921 0 9936
-3.5498 0.72609 0.42372 0 11016
-3.5495 1.5191 0.08964 0 11627
-3.5468 0.94307 -0.3424 1 11158
-3.5459 4.5747 0 0 14893
-3.5445 6.0222 -1.4853 0 15927
-3.5379 -3.1344 0.77656 1 10366
-3.5292 -3.4105 0.68974 2 10327
-3.5108 0.67607 -0.25001 0 10990
-3.4974 1.0273 0.59887 0 11230
-3.4806 0.43292 -0.24526 0 10874
-3.4754 1.0209 0.68247 1 11232
-3.4618 -6.9222 0.36093 0 9948
-3.4614 -0.10394 0.32308 1 10664
-3.4582 5.9156 0.63928 0 15948
-3.4482 1.0463 0.42139 1 11251
-3.4412 -3.269 0.3319 0 10331
-3.432 -4.3896 0.25984 0 10171
-3.4254 0.87821 0.16491 0 11143
-3.4029 6.3146 0.83884 0 16244
-3.3637 -5.1718 1.1624 0 10074
-3.3562 7.3071 1.1301 0 16817
-3.3452 -5.4868 0.59952 0 10048
-3.3353 -0.0029109 0.62841 0 10705
-3.3335 6.2774 0.83117 0 16299
-3.3246 -4.8301 0.41003 0 10099
-3.3159 0.62774 0.55445 0 10986
-3.3126 2.3594 -1.4803 0 12649
-3.3055 0.3807 0.3891 0 10861
-3.3035 8.6013 1.736 2 17337
-3.3017 -0.57327 0.077803 0 10517
-3.299 -0.078898 0.62174 0 10674
-3.2918 1.5701 0.5992 0 11807
-3.2892 -6.1267 0.64876 0 9983
-3.2808 -7.3966 1.3294 0 9914
-3.2767 3.5659 0.22584 0 14231
-3.2751 0.63069 0.54797 1 10993
-3.2703 8.5866 1.7312 1 17359
-3.2671 -4.0102 -0.12009 1 10199
-3.264 -8.5386 1.7223 1 9815
-3.2614 2.1293 -0.090429 1 12434
-3.2432 6.7994 0.70282 2 16700
-3.2303 5.1776 1.1498 2 15721
-3.2242 6.9175 0.8925 1 16774
-3.2198 -5.4552 1.1935 0 10034
-3.2125 2.0183 0.17692 0 12348
-3.1995 7.073 0.54284 0 16860
-3.1977 -3.4303 0.43752 0 10288
-3.1817 0.29292 0.52495 0 10831
-3.1714 -0.54039 0.074692 1 10519
-3.1606 1.5993 0.16518 0 11904
-3.1504 -2.2117 0.35912 0 10468
-3.1482 -5.1636 1.1394 0 10050
-3.1343 8.9252 1.1062 0 17563
-3.1281 6.8641 0.70375 2 16838
-3.1276 0.565 0.22224 0 10963
-3.114 6.298 1.1543 2 16572
-3.1042 6.92 0.88693 2 16886
-3.0967 1.1492 -0.076688 0 11444
-3.0956 -0.17307 0.50938 0 10626
-3.0913 -0.18203 -0.14441 0 10620
-3.083 0.014528 0.36053 1 10714
-3.0804 7.9542 0.9975 2 17310
-3.077 0.0059074 0.35983 0 10709
-3.0729 0.63749 -0.2928 0 11020
-3.0671 0.56346 0.21806 0 10972
-3.0662 -6.2204 1.1394 0 9941
-3.0405 -0.011145 0.57286 0 10701
-3.0208 -3.2576 0.41448 0 10285
-3.0074 -3.8939 0.80833 0 10163
-2.9899 -2.1232 0.25642 0 10463
-2.9897 -6.9587 -0.3532 0 9897
-2.9792 -5.9572 0.77891 0 9950
-2.9769 -4.4925 0.63023 0 10084
-2.9762 -5.7862 1.069 0 9964
-2.9762 -3.9711 -0.23143 0 10140
-2.9674 1.6782 -0.079149 1 12120
-2.9653 -2.1198 0.25489 0 10460
-2.9347 4.0467 0.70255 0 15156
-2.9252 2.5366 -0.18056 0 13286
-2.9178 -3.3376 0.20674 0 10247
-2.8665 2.3993 -1.3606 0 13160
-2.8548 3.9612 0.11336 0 15174
-2.8232 -3.3838 0.41114 0 10215
-2.821 -2.1436 -0.082259 0 10442
-2.8182 -2.1275 -0.081981 0 10444
-2.8165 -5.5134 -0.5776 0 9958
-2.8142 -7.7613 -0.19167 0 9762
-2.8103 8.3846 1.2428 2 17684
-2.8037 2.1089 0.66099 1 12814
-2.7885 1.411 0.072557 0 11903
-2.7774 4.3362 0.7237 0 15621
-2.7768 -9.5019 -0.22983 0 9539
-2.7382 3.4697 0 0 14825
-2.7218 -5.3651 0 0 9956
-2.7063 -6.1505 0.46988 0 9910
-2.6899 3.0479 -1.4796 0 14395
-2.6716 -2.3803 -0.16686 0 10360
-2.6597 3.6905 0.74738 0 15184
-2.6485 -4.5197 0.73623 1 10030
-2.6065 -2.3362 -0.16323 0 10356
-2.5913 2.8348 -1.2978 2 14253
-2.5448 -5.2783 0.40975 0 9933
-2.5121 1.9825 0.29855 0 12960
-2.4943 -4.5521 0.607 0 9995
-2.4907 -3.6185 0.61737 0 10100
-2.4868 -4.5086 0.60213 0 9999
-2.46 1.9295 0.29168 0 12940
-2.4562 -2.7938 -0.17348 0 10251
-2.439 -9.6959 1.6426 0 9416
-2.4357 3.0143 -0.82375 2 14743
-2.4228 2.1519 0.15112 0 13385
-2.42 -5.0965 -0.2631 0 9930
-2.4164 3.0098 -0.82042 1 14765
-2.4033 -4.5409 0.47932 0 9977
-2.3912 -4.9597 0.51369 0 9934
-2.3885 -4.5766 -0.24074 0 9970
-2.3808 -4.9758 0.51462 0 9932
-2.3718 -1.9124 0.28425 0 10414
-2.353 -7.7985 -0.18912 1 9571
-2.3402 8.2372 -1.4069 2 18025
-2.3137 -6.8042 0.67049 0 9694
-2.2937 -4.6882 0.36497 0 9939
-2.2913 -4.3606 0.80931 0 9974
-2.2799 -2.7161 -0.16537 0 10220
-2.2717 -3.0311 0.17664 2 10142
-2.2344 -3.8624 0.62711 0 10025
-2.1792 -7.5451 -0.36624 0 9527
-2.1734 -6.5184 0.48048 0 9671
-2.1605 -4.3201 0.33776 0 9949
-2.1128 -3.8021 0.71463 0 10003
-2.0934 -3.3671 0.3699 0 10054
-2.0631 -2.721 0.39933 0 10150
-2.038 3.0639 -1.3394 2 15480
-2.0154 -3.06 0.34184 0 10079
-1.9931 -3.0079 0.33664 0 10083
-1.993 -4.5682 0.58284 0 9906
-1.9905 -4.5953 0.58563 0 9903
-1.9812 -5.009 -0.12506 0 9836
-1.9796 -3.3102 0.089547 0 10039
-1.9745 -5.1653 0.90852 0 9814
-1.9724 2.7018 -0.95922 1 15126
-1.9664 -5.2761 0.79134 0 9790
-1.9029 -7.0477 -0.16949 0 9465
-1.8915 6.3046 0.15282 0 17927
-1.8902 -4.104 0.42154 0 9924
-1.887 2.7486 -1.2135 0 15367
-1.881 -7.957 0.95615 0 9377
-1.8783 -2.888 0.079984 0 10073
-1.8769 -5.4172 1.0802 0 9715
-1.8529 -2.8663 0.079242 0 10069
-1.8324 2.4088 -1.2642 0 14960
-1.803 -3.6052 -0.093586 0 9947
-1.7372 -5.2102 0.51239 1 9672
-1.7268 3.2517 -1.34 0 16291
-1.6888 5.3465 -0.788 0 17807
-1.6792 -7.4938 0.89808 0 9339
-1.6527 3.1546 0.24903 0 16351
-1.619 -3.711 0.76283 0 9907
-1.5642 -3.5264 0.45113 1 9913
-1.5444 7.5574 -0.35972 0 18605
-1.5405 -3.7654 0.37956 0 9868
-1.5362 8.5122 0.20082 0 18764
-1.5131 -7.8061 1.3064 0 9252
-1.5099 -2.9982 0.63248 2 9954
-1.4378 5.8938 -0.70945 1 18331
-1.366 -9.538 1.3542 0 9142
-1.3499 -7.7988 1.4912 0 9200
-1.3243 2.737 -0.57286 0 16657
-1.2834 -5.2288 0 0 9394
-1.2233 3.4526 0.60179 1 17542
-1.1967 -7.1668 -0.1687 0 9187
-1.1958 -5.9843 1.1498 0 9269
-1.1823 -2.9365 0.52008 0 9856
-1.1768 3.5457 0.61379 1 17708
-1.1722 3.6014 0.71358 2 17756
-1.1678 7.7586 0 0 18977
-1.1528 -6.337 0.30037 0 9218
-1.1401 3.0755 -0.53889 0 17406
-1.1283 -9.2158 1.7493 0 9110
-1.1225 -6.4853 1.0813 1 9199
-1.1111 -5.3137 0.76295 1 9293
-1.0826 3.1693 -0.47068 0 17619
-1.0767 -3.9878 0.67864 2 9468
-1.0765 3.0083 -0.074182 1 17509
-1.0682 3.1595 -0.46874 0 17642
-1.0201 -6.1092 0.72432 0 9188
-1.0016 -9.2651 1.5311 1 9084
-0.98026 -5.2942 0.25108 0 9225
-0.92405 -5.8541 0.9737 0 9172
-0.90091 -5.8061 0.274 0 9165
-0.8452 -3.5755 0 0 9372
-0.82433 -4.3879 0.41653 0 9234
-0.81085 -4.6079 -0.10863 0 9204
-0.81054 -5.4364 -0.12761 0 9152
-0.7852 -4.3859 0.52105 0 9211
-0.74835 -5.3316 0.88453 1 9136
-0.72361 -6.0504 0.5685 0 9105
-0.7014 -5.729 0.26916 0 9109
-0.69653 -8.8306 0 0 9034
-0.69315 -8.186 1.1546 0 9042
-0.69155 -7.6581 0.53768 0 9051
-0.68481 -4.8788 0.11438 0 9135
-0.65144 -6.369 0.14864 0 9071
-0.64724 -6.1581 0 0 9077
-0.61824 -6.2159 0.8779 0 9066
-0.61359 -5.5401 0.25994 0 9089
-0.59377 3.1851 0.30227 0 18728
-0.59192 -8.7957 0.20467 0 9010
-0.59147 -5.6275 -0.13137 0 9076
-0.57234 -7.559 1.4283 1 9028
-0.55771 -7.6494 0.35767 0 9021
-0.46918 -6.4352 0.45118 0 9022
-0.46749 -7.6216 0.17728 0 8997
-0.46113 -7.5178 1.0586 0 8998
-0.44537 -5.6463 -0.26413 0 9033
-0.44344 -8.4052 -0.39251 0 8980
-0.4389 -9.9727 1.8808 0 8966
-0.41862 -7.9348 -0.18448 1 8981
-0.38602 -9.4064 1.7738 0 8959
-0.38416 -5.9892 0.98602 0 9004
-0.37201 -6.065 -0.14108 0 8996
-0.34866 -4.7822 0.67388 0 9023
-0.33896 -8.9456 1.2581 0 8952
-0.33656 -4.789 0.67471 0 9016
-0.33102 -4.9188 0.80995 0 9011
-0.32336 8.1574 0.18954 0 19672
-0.31629 9.3378 -0.65334 0 19702
-0.27059 -4.0209 0 0 9009
-0.24648 8.0215 -0.37425 0 19714
-0.2139 -5.2122 0.12111 0 8958
-0.1328 -6.4472 1.215 0 8915
-0.082358 7.8641 -1.2921 0 19806
-0.082117 3.2667 -1.276 0 19743
-0.076029 3.9596 0.74616 0 19779
-0.041148 8.4196 -0.19548 0 19840
-0.030224 3.9356 -0.18354 2 19825
-0.028619 -9.1099 1.0653 0 8888
-0.027996 -8.9116 0.2069 0 8887
-0.019439 3.9776 -0.1855 0 19838
-0.0039663 -5.6813 0.53004 0 8882
0.013723 3.2764 0.15279 0 19885
0.036049 8.6066 0.80296 0 19886
0.059706 3.8871 0.45461 0 19947
0.063092 4.1075 -0.4804 1 19937
0.074015 4.8186 0.90799 0 19949
0.11237 -3.2837 0.38423 0 8824
0.11298 -3.5949 0.67766 0 8832
0.11829 -5.2127 0 0 8845
0.12474 -7.4442 0.87067 0 8854
0.13761 3.8259 -0.53804 0 20022
0.18975 -5.5448 0 0 8823
0.21305 -4.6559 -0.10821 0 8805
0.224 4.4681 -1.2828 0 20087
0.2281 -5.7039 0.13253 0 8814
0.23081 -7.3445 0.68554 0 8830
0.23593 -4.5627 0.31948 0 8795
0.24985 4.0387 -0.37751 0 20117
0.25391 3.4411 -0.40351 0 20163
0.26122 3.4183 0.15987 0 20181
0.26667 3.3658 0.15745 0 20191
0.27513 4.2546 0.39776 0 20138
0.29339 4.7426 0.55567 0 20125
0.3029 3.1285 -0.072975 0 20254
0.3274 9.9745 1.4026 0 20018
0.33523 -6.1502 0.28723 0 8789
0.35079 4.9667 0.69976 0 20159
0.36011 4.0832 0.67345 1 20228
0.37733 3.8973 -0.55029 0 20250
0.37898 -5.0639 0.71368 0 8764
0.39128 4.7491 -0.6697 1 20197
0.39508 -5.0766 0.71563 0 8759
0.39535 -3.7933 0.17786 0 8711
0.39999 -3.2909 0.076967 0 8676
0.41786 -4.2464 0.49898 0 8724
0.43332 -4.2808 0.50316 0 8718
0.44464 7.9282 0.55526 0 20106
0.4539 3.7729 0.44439 0 20323
0.45641 -8.8267 1.6653 0 8797
0.45699 3.7005 0.43603 1 20331
0.46232 -6.979 0.81793 0 8776
0.47238 4.6025 0.32353 0 20276
0.47991 -9.2812 0.86705 0 8796
0.49057 4.6363 0.65523 0 20288
0.49523 4.6804 -0.32911 0 20282
0.49874 -6.9239 0.64764 0 8768
0.51228 -6.845 0.15937 0 8763
0.51231 -6.5829 0.30792 0 8758
0.5234 3.7101 0.26201 0 20386
0.52367 -9.6072 1.3522 0 8790
0.52923 4.8716 0.80509 0 20297
0.54602 -5.239 0.8654 0 8712
0.54675 9.7489 1.8397 0 20107
0.55318 3.8483 0.63875 1 20401
0.58009 -3.2599 -0.076874 0 8570
0.58107 -4.0828 0.28837 0 8637
0.58598 8.2967 -0.97265 0 20149
0.59371 3.3097 -0.96418 0 20506
0.5999 4.2523 0.80911 0 20392
0.60027 4.0848 0.67831 1 20412
0.62296 9.6334 -0.45018 0 20132
0.63541 7.473 0 0 20210
0.64157 -4.0099 0.094282 0 8603
0.64956 -7.0287 0.99203 0 8733
0.65976 4.1562 -1.422 0 20447
0.66941 4.6569 0.10923 0 20397
0.67267 -7.0504 0.99537 0 8729
0.68112 4.635 0.10877 0 20408
0.7018 -4.4663 0.21084 0 8612
0.70268 -5.7812 0.40724 0 8677
0.72442 -5.7995 0.8214 0 8669
0.73341 -3.863 0 0 8548
0.73341 5.1987 0.61397 0 20388
0.73986 3.0817 -0.98894 0 20639
0.74452 4.0847 -0.38736 0 20509
0.74657 8.4652 -0.99379 0 20219
0.75101 -3.8963 0 0 8539
0.75529 4.6788 0.44217 2 20456
0.76124 -4.8446 0 0 8611
0.76212 -7.3124 0.17069 0 8710
0.77309 -8.9262 -0.20802 0 8743
0.77525 -5.4472 0.51332 0 8638
0.78423 4.7629 0.45034 0 20463
0.81606 -7.053 -0.16484 0 8689
0.82371 4.9118 0.93835 0 20476
0.82397 4.1728 -0.19835 0 20549
0.83314 -3.6879 0.53136 1 8473
0.86309 -4.4778 0.42545 0 8542
0.88898 4.4328 -0.21084 0 20558
0.89665 8.7364 -1.4429 0 20268
0.89916 -4.736 0.67749 1 8549
0.91805 -3.7546 0.36061 0 8437
0.99905 6.2935 -0.59451 0 20442
1.0014 -5.1088 0 0 8532
1.0145 5.8431 0.97434 0 20491
1.0252 -3.2756 0.16006 0 8331
1.0388 -5.2997 -0.12538 0 8531
1.0515 7.0189 -0.66213 0 20416
1.0689 -5.2917 0.50366 2 8520
1.0992 6.221 1.0379 1 20498
1.1113 -6.6909 0.63278 1 8592
1.1155 -9.4111 1.557 0 8683
1.1214 -4.4744 0.10709 0 8422
1.1241 8.336 -0.58819 0 20364
1.1293 4.77 0.68891 0 20634
1.1333 -9.0726 1.7227 0 8670
1.145 5.0236 -0.24028 0 20608
1.1457 6.387 0.30261 0 20505
1.1482 -5.2136 0.12395 2 8483
1.1635 4.7228 0 0 20647
1.1639 -6.0382 0.28677 0 8540
1.1778 4.2528 0.725 2 20710
1.1784 4.6707 0.44941 0 20655
1.1846 4.1807 0.61069 0 20723
1.1857 -6.3482 0.6025 0 8555
1.1976 -6.2134 0.88932 0 8543
1.1999 -3.9518 0 0 8342
1.2005 3.6666 0.72691 1 20831
1.2097 -3.8249 0.18708 2 8328
1.2297 5.6256 -0.13369 0 20590
1.2508 -8.9678 1.4876 0 8645
1.2606 -3.336 0.5859 0 8263
1.2679 -5.1235 0.61722 0 8429
1.2757 3.817 -0.95359 1 20845
1.276 3.8972 -1.1759 0 20827
1.2819 5.6976 0 0 20601
1.2872 -3.4356 0.60276 0 8270
1.2984 3.8492 -0.47506 0 20848
1.3033 3.3446 0.41977 0 20985
1.3076 -5.7884 0.55364 0 8472
1.3143 3.2876 0.33032 0 21015
1.3246 6.4074 -0.30512 0 20570
1.345 3.9128 -0.87947 0 20874
1.3486 3.9592 -0.88903 0 20862
1.3662 4.9873 0.97427 0 20701
1.3713 -4.9246 0 0 8375
1.3772 -9.8744 1.4012 0 8644
1.3775 3.5961 -1.2016 0 20965
1.3797 -3.9978 0.49457 0 8292
1.3969 5.8184 0.9831 1 20642
1.4023 -3.7787 0.47134 0 8271
1.4114 -6.8817 0.98729 0 8515
1.4134 2.9486 0.45955 1 21257
1.4262 4.5316 -0.1103 0 20794
1.4314 -3.5661 -0.2687 0 8240
1.4321 3.4953 -0.6206 0 21036
1.4333 -3.6018 -0.27107 0 8246
1.4395 3.0261 0.47096 0 21247
1.4404 5.6345 -0.27121 0 20661
1.4446 3.3034 0.42163 0 21136
1.445 4.9384 0.72314 0 20743
1.4777 4.5997 0.79374 0 20812
1.4918 -4.5778 -0.22453 1 8316
1.5045 6.4296 -0.61606 0 20624
1.5148 3.2813 -1.3154 0 21206
1.521 3.2722 -1.3134 1 21213
1.5348 5.867 0.8523 0 20677
1.5404 -7.1008 0 0 8491
1.5576 3.7363 -0.95913 0 21064
1.5582 -3.1007 -0.16183 0 8067
1.5609 4.1837 -0.84133 0 20946
1.5727 4.6171 -1.2769 0 20861
1.5955 -6.6868 0.32059 0 8450
1.6099 6.2976 -0.91353 0 20660
1.6103 -5.1449 0.75766 0 8332
1.6119 4.8739 0.72147 0 20837
1.6147 4.9314 0.72927 0 20829
1.6202 3.8263 -0.58397 0 21082
1.6241 4.8596 0.96538 0 20847
1.6327 -2.5988 0.35891 0 7820
1.6361 -3.7611 0.19127 0 8191
1.6381 -5.0747 0.8761 0 8321
1.6428 -4.1283 0.2072 0 8248
1.6565 -6.2298 0.14966 0 8397
1.6621 7.0203 -0.50448 0 20631
1.6626 -8.3585 1.1977 0 8526
1.6719 4.2532 0 0 20993
1.6761 4.6151 0.34334 0 20923
1.6833 -9.1537 1.5291 0 8560
1.6903 -2.5732 -0.14357 0 7767
1.6977 4.7155 -0.94428 0 20913
1.7047 5.0047 -0.36971 2 20857
1.7099 -2.62 -0.1459 0 7777
1.7099 6.2419 -0.75684 1 20693
1.7113 -4.0571 0.20534 0 8214
1.7137 -3.4371 0.26856 1 8077
1.72 5.5807 0.40835 0 20780
1.7268 3.8262 0.39163 0 21179
1.7621 -3.5066 0.27442 0 8069
1.7641 4.4467 0.90132 0 21004
1.7655 -8.3634 0.19845 0 8504
1.7702 -3.376 0 0 8014
1.7738 4.2258 0.21372 0 21076
1.7745 4.7562 0.23674 0 20942
1.7778 4.8061 0.23897 0 20936
1.7823 4.2753 0.76099 0 21065
1.7875 4.2585 -1.4411 1 21077
1.7941 -5.0552 0.88129 0 8286
1.8065 6.9055 -1.0032 0 20673
1.8072 -2.8955 0.31843 0 7825
1.8272 -7.1998 0.17246 0 8418
1.83 2.5769 -0.14739 1 22031
1.8315 -3.809 0.59399 0 8109
1.8315 2.6588 -1.2607 0 21931
1.8377 5.7204 0.1395 0 20810
1.8593 -4.7935 -0.35952 0 8252
1.8652 3.7231 -0.68415 0 21302
1.8689 4.8383 0.97723 0 20978
1.874 -3.8422 0.099249 0 8093
1.877 6.4819 0.15667 0 20736
1.8789 -6.188 0.30158 0 8343
1.8832 -6.8415 0 0 8380
1.8864 -6.6223 1.1313 1 8365
1.9018 -3.601 0.76727 0 8011
1.9279 4.1477 -1.1974 2 21215
1.9328 2.8059 -0.89195 0 21938
1.9683 5.6746 -1.1316 0 20881
1.9776 -8.9796 1.5106 1 8484
1.9807 -6.3908 -0.31202 0 8335
1.9827 2.8443 -0.90765 0 21979
1.9911 6.9574 -1.3635 0 20730
2.0108 6.1411 0.75568 0 20828
2.0122 2.9028 -1.1021 0 21954
2.0178 -6.5713 0.64133 0 8339
2.0315 -6.9788 0.84999 0 8359
2.0383 2.7839 -1.1659 0 22132
2.0485 -4.1376 -0.21531 0 8081
2.0608 3.9689 0.73473 1 21357
2.0727 4.0227 0.74348 0 21346
2.0788 3.4955 -1.0647 0 21583
2.1066 6.1284 -0.91075 1 20864
2.1144 -5.0127 0.50756 0 8215
2.116 8.387 1.6297 0 20658
2.1357 3.4539 -0.094282 0 21665
2.1418 6.6035 0.16118 0 20817
2.15 -4.6065 0.35548 0 8135
2.1908 -4.2084 0.89391 0 8032
2.2041 6.3543 -1.4296 0 20880
2.2081 6.0273 0.29935 0 20929
2.2211 2.2087 -0.29224 0 23270
2.2313 7.7968 0.18829 1 20728
2.2625 4.0968 0.65773 0 21450
2.2707 -7.7202 -0.37528 0 8354
2.2856 7.893 -1.1549 0 20731
2.2891 2.1473 0.14637 0 23501
2.3066 6.7103 -0.82978 0 20865
2.321 7.0885 -1.4053 0 20830
2.3259 -6.5535 0 0 8285
2.347 -9.1476 1.7793 0 8414
2.3487 -5.0323 0.78048 1 8136
2.3622 7.8985 -0.76915 0 20752
2.3647 5.0481 -0.12942 0 21223
2.3723 -9.5859 0.9213 0 8428
2.3728 5.0266 -0.12905 1 21234
2.374 5.3472 0.82223 1 21158
2.38 -6.5855 0.32655 0 8279
2.3985 7.9343 1.3618 0 20765
2.4012 -3.52 0.49829 0 7713
2.4108 4.3925 0.23366 0 21436
2.4213 5.1689 0.80219 0 21226
2.4649 -7.1424 1.0619 0 8293
2.4886 4.1582 0 0 21600
2.4913 9.4092 -0.22598 0 20680
2.5072 7.2937 -1.2671 0 20863
2.5073 7.3609 -0.72549 0 20855
2.5076 -3.7233 -0.3139 2 7728
2.5106 4.7357 0 0 21385
2.5356 9.5766 1.3923 0 20684
2.5559 4.353 -1.3215 0 21549
2.5598 4.5096 0.48378 0 21493
2.5976 -7.8914 0.77509 0 8310
2.598 6.9009 -0.8623 1 20948
2.6065 -7.1497 0.17668 0 8275
2.6183 -4.8912 0.51759 0 7985
2.6203 -2.1188 -0.23564 1 6871
2.6257 7.8564 0.9687 0 20844
2.6265 -1.7266 0.072975 0 6488
2.6517 -3.1872 0.3868 0 7440
2.6598 -4.3149 0.95501 0 7844
2.6615 -3.7604 0.21484 0 7657
2.6807 5.9398 1.0706 2 21180
2.683 -5.9784 0.30559 0 8172
2.6833 4.7582 0.38199 0 21482
2.6875 4.0757 0.68612 2 21820
2.7043 -1.4695 0.43255 0 6146
2.7296 9.221 0.67245 0 20750
2.7485 -2.2225 0.58072 0 6876
2.7499 -2.2364 0.58234 0 6887
2.7585 -1.7344 0.15196 0 6408
2.7605 -7.3677 0.18267 0 8267
2.7675 -6.8947 0.86881 0 8242
2.8 -1.5951 0.15028 0 6227
2.804 7.0141 -1.0616 0 21007
2.8114 -8.7095 0 0 8320
2.8257 -6.6506 0 0 8207
2.8329 7.0864 -1.2538 0 21005
2.8365 -8.1361 1.6234 0 8290
2.8409 -6.426 0 0 8185
2.8433 1.6416 -0.076224 1 815
2.8442 8.5103 0.83714 0 20843
2.8546 1.2329 -0.437 0 1575
2.8564 6.5318 0.66511 0 21135
2.8679 4.1634 0.59121 0 21939
2.8728 -1.1636 0.58397 0 5693
2.8806 -4.7998 0.65463 0 7863
2.8929 -1.1818 0.58878 0 5705
2.9034 1.884 0.080356 0 478
2.9178 1.0846 -1.4735 0 1928
2.9194 -3.8588 0.22565 0 7574
2.9458 7.3688 -0.18425 0 21013
2.9585 8.2177 0 0 20908
2.9589 -7.897 1.1852 0 8269
2.9612 -4.3967 0.87091 0 7735
2.967 -2.1923 0.69506 0 6718
2.9721 0.99792 0.44062 2 2144
2.9722 -6.3248 1.1481 0 8129
2.9839 -2.1927 0.69765 2 6705
2.9978 -6.9442 1.063 0 8197
3.0051 0.9991 0.44508 0 2161
3.0154 8.1518 -0.20179 0 20934
3.0291 4.1891 0.48229 0 22096
3.0319 -0.53079 0 0 5287
3.0445 -6.3316 0.65545 0 8108
3.0526 -5.0167 0.13634 0 7854
3.0609 -2.3032 0.62935 1 6751
3.0721 -5.6183 1.2065 0 7965
3.0794 2.1538 0.17525 0 242
3.0984 4.4981 1.0291 0 21942
3.1019 -8.1402 1.4312 0 8258
3.1048 -0.099742 0.21722 0 4739
3.107 1.1858 0.31026 0 1878
3.1225 1.4033 -1.4299 0 1482
3.1234 1.6622 0.165 0 1068
3.1234 4.3983 0.12525 0 22034
3.1495 1.6641 0.16612 0 1089
3.1557 -6.9728 -0.35692 0 8164
3.1593 -7.5563 1.3456 1 8220
3.1933 4.1812 0.49084 0 22260
3.2061 -5.3422 1.0236 1 7866
3.2068 2.4937 0.47506 0 24277
3.2108 -1.7805 0.69173 0 6184
3.2108 2.3174 0.18466 0 143
3.2108 3.2868 0.10668 0 23164
3.2145 -4.2227 0.3711 1 7565
3.223 -2.56 0.48133 0 6842
3.2436 -0.046424 0.30264 0 4627
3.2453 0.26339 0 0 3909
3.2462 1.4372 0.16556 0 1528
3.2495 -0.47289 0.4615 0 5216
3.2555 2.1393 0.73394 0 445
3.2718 -7.3418 0.18661 1 8179
3.3009 7.8641 -0.39773 0 21073
3.3021 7.3786 1.5231 0 21168
3.3097 -2.536 0.4876 0 6784
3.3155 -3.3657 0.33037 0 7183
3.3227 1.4815 0.16966 0 1506
3.326 -1.4145 0.3372 0 5756
3.3379 -1.8754 0.62903 0 6205
3.3411 -1.2412 0.58558 0 5594
3.3494 -0.39939 0.078313 0 5138
3.3539 4.8691 0.13727 0 21934
3.358 -2.0853 0.36878 1 6384
3.372 8.0334 -1.2244 1 21068
3.3906 -1.2495 0.59369 0 5584
3.3931 0.0094757 0.078777 0 4509
3.4078 -0.41601 0.079706 0 5150
3.4079 -2.1295 0.37491 0 6398
3.4106 -5.0641 0.56961 2 7731
3.4136 -2.8776 0.41653 0 6940
3.4235 -0.22859 0.079659 1 4921
3.4329 -0.92498 0.24861 0 5433
3.4363 7.2238 0.93548 0 21246
3.4376 1.4394 -1.3565 2 1660
3.4442 3.6909 0.82941 0 23003
3.448 0.38067 0.65359 0 3685
3.4491 8.2171 0.2069 0 21075
3.4499 0.52237 0.57326 2 3363
3.4518 2.915 0 0 23920
3.4534 -0.42158 -0.080774 1 5149
3.4731 6.3755 -0.33857 0 21424
3.5042 -2.3922 0.098507 0 6561
3.5159 -0.22428 0.081795 0 4907
3.52 0.18324 -0.57909 0 4135
3.5201 -0.41975 -0.082305 0 5137
3.5383 1.4209 0.71839 0 1768
3.5481 5.5224 0 0 21749
3.5592 5.2001 -1.4931 1 21919
3.5762 -5.2112 0.14674 1 7701
3.5763 5.5281 0 0 21766
3.5916 7.2226 0.56405 0 21299
3.5966 -0.19793 0 0 4862
3.6262 3.7986 0.86281 0 23093
3.6391 -0.18944 0 0 4848
3.6446 -2.1323 0.59343 0 6279
3.6639 7.7617 1.6171 0 21238
3.6665 2.0601 0.69096 0 906
3.6905 1.9359 0.19435 0 1113
3.7012 3.9222 0.3771 0 23042
3.7082 4.0681 0.38492 0 22910
3.7411 5.8229 0.48397 0 21752
3.7427 -5.4193 1.2409 0 7696
3.7568 -6.5096 0.35049 0 7894
3.7697 -5.6652 1.118 0 7752
3.7715 -0.92358 -0.090151 2 5397
3.7748 7.1204 0.94245 0 21387
3.7798 1.2209 0.74838 0 2222
3.8024 1.2406 0.75357 0 2201
3.8245 -0.95922 0.091543 0 5404
3.8256 2.4522 0.85614 0 525
3.8604 -1.1004 0.2807 0 5455
3.8635 -2.4292 0.85985 0 6412
3.884 1.406 0.67864 0 2001
3.8976 -8.4779 1.533 0 8154
3.9008 8.5162 0.65501 0 21197
3.9195 -0.27202 -0.091218 0 4935
3.9307 -1.1086 0.28558 0 5451
3.9632 3.9164 0.51982 0 23305
3.9685 -0.28725 -0.092379 1 4947
3.9819 -3.4541 0.86605 0 6986
3.9823 -1.0247 0 0 5415
3.999 4.6215 0.57017 0 22723
4.0019 4.0967 0.66972 0 23171
4.009 -3.2603 0.36134 0 6884
4.0103 3.6325 0.76044 1 23647
4.0163 -2.0926 0.10514 2 6073
4.0165 1.3486 -0.098367 0 2135
4.0262 2.6127 0.78855 1 486
4.0265 -7.9024 1.4571 1 8057
4.0322 -7.9136 0.2062 0 8052
4.0371 2.4566 0.55265 0 672
4.0413 -0.50624 0.094561 2 5159
4.0423 -2.1811 0.8654 0 6134
4.0455 -2.5279 0.33358 0 6396
4.0463 -0.58885 -0.094932 1 5215
4.0505 -0.84398 0.19295 0 5339
4.0606 -2.7887 0.34446 0 6576
4.061 -1.2091 0.69615 0 5471
4.0826 -5.4277 0.79424 0 7585
4.0865 -0.81434 -0.096743 0 5328
4.0957 2.5583 0.45053 0 597
4.1019 -0.60937 -0.096278 0 5225
4.1166 -6.3877 1.068 0 7796
4.1188 -4.8912 0.74778 0 7423
4.1322 -0.20427 0.77949 1 4841
4.1425 -6.2682 0.70096 0 7759
4.1579 -7.5539 -0.40211 0 7948
4.1737 -2.1588 0.77202 0 6063
4.2375 8.589 -0.22236 0 21289
4.2812 -0.7896 0.30442 0 5301
4.3165 -0.89941 -0.30832 0 5337
4.3263 0.61803 0.51106 0 3433
4.3635 -8.1516 1.5191 1 7990
4.3697 -6.0276 1.0463 0 7630
4.3741 -8.7044 1.1392 0 8071
4.3901 -7.075 1.368 0 7835
4.4149 1.2868 0.53778 0 2418
4.4361 1.3065 0.5408 0 2395
4.4594 -0.33608 0 0 4962
4.4655 -5.3331 0.64894 0 7432
4.475 -1.5182 0.44087 0 5517
4.4843 1.0981 0.86984 0 2719
4.4868 -5.3283 0.64987 0 7421
4.4969 6.2191 1.0786 0 22100
4.5058 5.3966 1.3246 0 22592
4.523 1.1218 0.87799 0 2697
4.5265 0.49973 0 1 3672
4.5283 1.0255 0.21652 0 2827
4.5449 -0.97435 0.87577 0 5349
4.5921 1.4691 0.79212 0 2242
4.6026 0.4935 0.21587 0 3698
4.6609 -2.5666 0.49641 0 6169
4.677 6.1595 0 0 22237
4.6951 -3.1848 0.66345 0 6552
4.7788 -2.2988 0.49474 0 5945
4.7869 2.953 0.13058 0 630
4.7891 1.8106 0.96464 0 1902
4.8092 1.9793 -0.12074 0 1700
4.8227 -2.9368 0.79357 2 6346
4.8536 -2.6915 0.25882 0 6180
4.8667 -4.9403 0.81096 0 7185
4.8783 1.9108 0.36636 0 1820
4.8928 1.108 0.11647 0 2825
4.9006 -2.254 0.25155 0 5870
4.9064 -5.5907 1.2221 0 7368
4.9145 0.48447 0.5775 0 3775
4.9159 1.0844 0.46966 0 2869
4.9253 2.8253 1.0698 0 844
4.9366 2.8135 1.0705 0 865
4.9397 -8.2832 1.8171 0 7872
4.9407 -6.8959 0.79144 0 7641
4.9435 0.47426 0.58075 0 3798
4.9462 4.7218 0.15876 0 23434
4.9479 2.4165 -0.64394 0 1280
4.9588 5.5676 0.52136 0 22824
4.9644 2.335 0.51183 0 1381
4.9733 6.5119 1.5438 1 22267
4.9758 5.2123 0.1673 0 23082
5.0136 -7.6324 1.0679 0 7769
5.0324 1.2323 0.72815 0 2716
5.0443 0.6015 0.71396 0 3611
5.0863 6.2721 -0.37658 2 22460
5.0975 1.3573 0.49214 0 2570
5.1066 -1.0019 0 0 5326
5.1119 -7.3114 1.0433 0 7675
5.1274 3.4131 0.86566 0 404
5.1514 -3.2793 1.1505 0 6436
5.1614 2.6333 0.95197 0 1193
5.1657 3.7051 0.29646 0 162
5.1789 -4.6256 0.64783 0 7023
5.1822 3.2169 0.56906 0 614
5.1848 3.4735 0.4364 0 382
5.2408 5.5536 0 0 23036
5.2517 1.6136 0 0 2313
5.2736 -3.5104 -1.0408 1 6506
5.2898 -5.8236 0.36689 0 7319
5.3101 7.0366 1.2389 0 22226
5.3188 2.8903 0.2823 0 1002
5.3487 -3.6514 0.45286 0 6564
5.4491 -0.94025 0.77714 0 5280
5.4579 -3.3656 0.59822 0 6371
5.4746 -4.8045 1.3723 0 6999
5.5072 -2.3992 0.70248 0 5790
5.5271 6.5451 0.3995 0 22627
5.5466 -0.14427 -0.12882 0 4702
5.5672 0.67962 0.13021 0 3579
5.5779 -7.9278 1.8263 0 7670
5.5963 -6.4174 -0.39708 0 7374
5.6063 -1.0158 0.93608 0 5296
5.6153 -6.2518 1.3806 0 7339
5.6542 3.8109 0.31798 0 360
5.6691 5.5053 1.1106 0 23378
5.6774 4.8233 -0.69502 0 23892
5.6844 -4.1028 0.32692 0 6666
5.6848 5.1222 0 0 23663
5.7032 -6.7728 1.6682 0 7426
5.7114 -1.2777 0.54602 0 5364
5.7333 5.5676 0.18555 0 23369
5.7474 -6.9474 1.0544 0 7450
5.7783 -2.7586 0.2986 0 5933
5.8035 3.0443 0.61141 0 1116
5.8116 7.5193 -0.22064 0 22299
5.8124 3.491 0.15742 0 707
5.8179 2.1822 0.72664 0 1918
5.8262 3.0783 0.61476 0 1092
5.8565 -7.2945 1.5369 0 7494
5.8689 5.1651 0.72939 1 23769
5.8993 1.0519 0.13913 0 3146
5.918 4.1917 0.3382 0 203
5.9213 -7.2862 1.7689 0 7477
5.9237 -5.9072 0.19423 0 7155
5.9384 -0.97139 0.98861 0 5260
5.9678 1.5712 0.57574 0 2589
5.9686 2.8931 0.77565 0 1308
5.9746 2.6851 0.15208 0 1485
5.9796 3.4774 1.1365 0 807
6.0192 4.9372 1.4668 0 24056
6.0247 -6.5175 1.0379 0 7292
6.0312 -6.6796 0.20894 0 7327
6.0871 -2.4866 0.92411 0 5702
6.1056 7.056 1.533 0 22728
6.116 -0.23068 0.1421 0 4774
6.1327 -6.1156 1.2172 1 7158
6.1421 2.5718 1.2546 1 1669
6.1455 -3.3632 0.65359 0 6157
6.1696 0.84294 0.58095 0 3477
6.1825 2.8227 1.2805 1 1455
6.1922 3.7679 1.3657 0 676
6.1947 7.4193 0.2244 0 22579
6.2539 -1.2077 0.89516 0 5320
6.2751 -1.4222 0.44993 0 5369
6.2909 4.5405 0.72381 1 146
6.3309 1.1482 0.75242 0 3128
6.3717 -3.3893 1.0143 0 6109
6.4107 -1.0866 0.45467 0 5272
6.4628 -4.3298 1.4657 2 6529
6.4975 -3.6507 1.4042 1 6207
6.5047 -4.1153 0.53824 0 6422
6.5127 2.3975 0 0 1952
6.5473 -2.3908 0.16183 0 5573
6.5656 -2.4196 0.9834 0 5582
6.6139 3.6903 0.3532 0 923
6.6174 6.7315 1.5508 1 23197
6.6474 -2.9194 1.3679 0 5804
6.6826 -3.7058 0.53433 0 6182
6.7141 4.3038 1.3103 0 523
6.7214 -3.6525 0.35674 0 6144
6.7253 2.724 -0.16846 0 1739
6.7278 -5.1886 0.99355 0 6793
6.7838 -1.0078 0.63984 0 5226
6.793 -2.0859 -0.16498 1 5480
6.8086 1.0723 0.32143 0 3304
6.8112 -4.7357 0.1926 0 6597
6.815 -6.796 1.1255 1 7157
6.8176 -3.182 1.4175 0 5899
6.8329 3.945 0 0 817
6.8433 -2.5872 0.34118 0 5612
6.8475 4.359 1.5294 0 543
6.8547 -6.9973 0.4568 0 7192
6.8776 6.8393 0.22519 0 23275
6.9044 -3.3466 0.71583 0 5957
6.9069 -4.5698 0.57912 0 6502
6.9284 3.7384 1.1064 0 1029
6.9306 0.50287 1.1417 0 3990
6.953 2.0266 0.50643 0 2415
6.9927 3.9289 1.5112 0 908
6.9956 0.75008 1.1559 2 3707
6.9994 -4.7176 1.3868 0 6540
7.0016 1.2484 0 0 3144
7.0175 0.26468 1.3231 1 4269
7.0535 0.63447 0 0 3837
7.0741 2.2849 0.34667 0 2214
7.0742 -4.0564 1.3398 0 6241
7.0873 -3.9593 1.1409 1 6194
7.1003 -3.1925 0.91039 0 5838
7.1103 4.6723 0.99495 0 441
7.1554 2.4262 0.52834 0 2119
7.1791 3.742 -0.18796 1 1129
7.211 -6.6681 1.3803 0 7067
7.2291 -3.7905 1.3411 0 6086
7.2389 -2.8121 1.2759 1 5641
7.2447 3.4587 0 0 1339
7.3163 -2.1561 0.53336 0 5465
7.3179 -4.254 1.3907 1 6267
7.3641 2.8845 1.4901 0 1826
7.3932 -5.3361 1.498 0 6672
7.4056 3.3018 1.1395 0 1511
7.4064 1.4075 1.2386 0 3072
7.4102 -1.0784 1.4109 0 5218
7.419 2.906 0.18499 0 1817
7.4202 -4.0037 0.78661 0 6131
7.468 2.2946 1.472 0 2322
7.472 4.1983 0.39969 0 900
7.4737 1.4446 1.4342 0 3052
7.5557 1.7333 0 0 2805
7.5661 -3.2178 0.57493 0 5755
7.5693 2.7401 0 0 1991
7.5761 3.9489 1.4036 0 1139
7.5771 -0.37456 0.88716 0 4835
7.5855 -1.697 0.54354 0 5363
7.5916 -3.5175 0.39018 0 5881
7.5957 0.066285 0 0 4475
7.5977 -1.084 0.71601 0 5207
7.5993 3.1539 -0.19102 0 1680
7.6745 3.3147 0.77992 0 1588
7.6823 1.3021 0.1809 1 3212
7.7102 -0.35821 1.2681 0 4824
7.7144 3.308 -0.19488 0 1602
7.7244 -1.3329 0.91666 0 5279
7.7725 2.4119 0.56907 0 2296
7.8055 1.5569 1.3077 0 3010
7.811 -2.7262 1.3592 0 5537
7.834 1.7741 0.56168 0 2829
7.9015 2.8338 1.5816 0 2021
7.9241 3.5879 0.40565 0 1467
8.0096 -1.2614 1.1395 0 5250
8.0185 1.6693 0.76413 0 2946
8.0482 -3.3947 1.4351 0 5744
8.0533 -3.0447 0.19989 0 5610
8.1497 -1.3565 0.57772 0 5266
8.1596 0.92391 0.19065 0 3650
8.1616 -4.1013 0.42596 0 6013
8.1708 2.6139 -0.40006 0 2231
8.1741 -0.35403 0.18996 0 4804
8.1839 -3.879 1.7064 0 5924
8.1857 0.45049 -1.3469 0 4112
8.1919 -4.3575 1.0851 0 6108
8.2038 -0.40554 0.1907 0 4831
8.2123 2.7574 -1.2175 1 2126
8.2397 2.4517 1.4124 0 2376
8.2503 -5.4918 0.92465 0 6516
8.2766 0.50187 0.19251 0 4076
8.2919 2.1305 1.4066 0 2633
8.3477 -2.6176 0.40798 0 5486
8.3747 -4.3633 -1.3272 0 6066
8.3843 -2.2858 0.81076 0 5439
8.3924 5.0746 0.2277 0 687
8.4499 4.248 1.7819 0 1229
8.496 -4.9072 0.22779 0 6251
8.4984 0.27153 -0.39652 1 4299
8.5051 -4.5891 1.1301 0 6132
8.515 -3.5044 1.7349 0 5717
8.5181 0.83971 1.6127 1 3779
8.542 -2.4898 1.6764 0 5464
8.5558 -2.413 -0.20639 0 5450
8.5625 0.86975 1.6216 0 3757
8.62 -1.3822 -0.81448 0 5254
8.6333 -0.4011 0.40304 0 4818
8.6356 3.1261 0.42829 0 1994
8.6551 -2.3321 1.4727 0 5435
8.7043 -3.0653 1.5162 0 5544
8.7114 2.925 1.0746 0 2142
8.7382 -2.6582 -0.21205 0 5476
8.7956 3.1545 1.3132 0 2018
8.8482 -1.9227 0.84476 0 5354
9.05 -2.0246 1.5236 0 5366
9.1455 -0.3961 -1.2865 1 4801
9.16 -0.42557 -1.2887 1 4814
9.4228 0.13651 1.102 2 4443
9.4481 0.65571 0.66227 1 4007
9.4677 0.38192 1.1081 2 4237
9.4822 0.85293 1.338 2 3849
9.4825 2.8539 -1.3917 0 2341
9.4987 0.85442 1.1153 0 3847
9.5131 1.0772 1.3455 0 3659
9.5218 0.99407 0.44646 0 3722
9.535 1.1944 1.3505 0 3564
9.5444 0.52526 1.1178 2 4129
9.5864 0.69557 0.44823 2 3982
9.5942 0.69614 1.3519 1 3988
9.595 -0.61207 1.1243 1 4910
9.6246 0.61396 0.89975 1 4058
9.6262 0.72549 0.45018 2 3959
9.638 1.3477 0.90793 0 3454
9.67 0.98225 1.1367 2 3752
9.6708 -0.64572 0.67775 2 4922
9.6761 -0.47832 0.90384 0 4833
9.6784 1.0959 0.6811 2 3653
9.6811 1.0107 0.90811 1 3726
9.6829 1.2971 1.1425 2 3500
9.6875 0.56367 0.90532 2 4106
9.7059 0.39152 1.5959 2 4241
9.7264 -0.62046 0.68152 0 4908
9.729 -1.1877 -1.1462 1 5146
9.7335 0.48116 1.6011 2 4176
9.7347 0.36716 1.1392 2 4263
9.7416 -0.39637 0.9096 1 4792
9.7487 0.93526 0.91369 0 3796
9.7519 0.70758 0.9122 2 3985
9.7784 -0.36881 1.1443 0 4779
9.7794 1.251 1.3856 1 3542
9.7825 1.7443 1.6326 2 3154
9.7952 1.1958 0.69003 1 3582
9.7968 0.99513 0.9187 2 3750
9.7969 1.1405 1.3862 1 3634
9.8183 1.4604 1.1608 0 3383
9.829 1.2312 0.69268 0 3559
9.8487 0.45584 0.45978 2 4190
9.8792 1.4694 1.4037 0 3385
9.9302 -0.22882 0.92669 2 4688
9.9315 -0.46141 1.1627 1 4821
9.9469 -0.34388 1.8752 0 4767
-13.25 -0.51132 0.61835 1 10650
-12.965 3.8083 -0.31372 0 11227
-12.817 6.0202 2.3264 0 11782
-12.734 6.2988 1.3254 0 11863
-12.733 0.20669 1.1881 0 10729
-12.138 0.51723 1.996 0 10766
-11.957 4.7946 0.29909 1 11537
-11.866 -0.35631 -0.5536 0 10662
-11.841 -1.6663 1.1156 0 10539
-11.782 -0.38675 0.2737 0 10659
-11.678 6.7393 2.5403 0 12168
-11.659 5.7672 2.4507 0 11869
-11.468 3.8838 1.1296 0 11344
-11.13 2.4797 1.8735 0 11056
-11.122 -0.68607 -0.77918 0 10617
-10.999 -0.5822 2.0752 0 10632
-10.957 -0.26205 1.0226 0 10672
-10.811 3.0062 -0.26052 0 11190
-10.783 3.4061 -1.8579 0 11281
-10.728 -1.4486 2.0396 0 10544
-10.714 6.2659 1.7444 0 12194
-10.696 3.5166 -0.2614 0 11320
-10.609 1.44 0 0 10892
-10.552 -1.8643 0.24877 0 10514
-10.536 -7.1709 1.189 0 10475
-10.505 2.9866 1.7944 0 11205
-10.504 5.2762 1.0967 0 11891
-10.455 -8.2778 2.5125 0 10424
-10.362 0.53034 0.24088 0 10777
-10.287 3.6813 0 0 11400
-10.143 4.1704 2.0663 0 11574
-10.138 0.96546 0.9501 0 10835
-10.089 -1.1549 -0.23578 0 10559
-10.069 -0.065025 0.46956 1 10694
-10.056 -8.2516 -0.30202 0 10405
-9.9385 3.1393 0.72882 0 11289
-9.8645 1.8122 1.8897 0 10974
-9.7547 3.5852 -1.7075 0 11427
-9.1806 -8.7212 0.29399 1 10330
-9.0034 4.6211 0.94415 0 11934
-8.839 -9.8168 0.92372 1 10268
-8.652 -7.1398 1.3118 0 10402
-8.5422 -10.296 1.8802 0 10211
-8.4639 8.0095 -0.27055 0 13631
-8.4398 -5.5989 0.9449 0 10481
-8.3096 -8.4117 2.2278 0 10320
-8.2898 5.0443 -1.5943 1 12266
-8.2831 -8.2398 0.81699 0 10324
-8.0414 -6.5211 0.24037 0 10411
-7.8674 -9.3231 1.1381 0 10224
-7.8207 -10.435 -0.30276 0 10141
-7.3825 10.961 0.92413 1 15438
-7.1338 -9.935 1.1411 0 10117
-7.0486 -9.2359 1.9088 0 10154
-6.757 -8.2437 1.7512 0 10204
-6.6842 -8.2044 -0.4935 0 10198
-6.5499 11.904 0.63363 1 16162
-6.5465 6.9178 -1.5648 1 14098
-6.4327 -11.818 2.5351 0 9992
-6.3522 -9.9556 1.381 0 10061
-6.3028 8.7455 0 0 15172
-6.194 -8.0198 0.70859 0 10162
-6.0521 9.1577 1.8034 1 15511
-5.9534 9.662 0.26349 0 15755
-5.8743 -12.754 2.307 0 9926
-5.8524 11.086 2.0596 1 16331
-5.8067 -9.0448 0.50124 1 10066
-5.7525 12.623 1.9495 0 16842
-5.4795 -10.726 -0.5617 0 9959
-5.4722 2.2499 -1.5489 0 11570
-5.4594 -9.0075 1.7305 0 10045
-5.4074 8.4423 1.8889 2 15625
-5.2647 12.5 0.63251 2 17065
-5.2465 11.789 0.60176 1 16904
-5.2222 -9.2754 0.49639 1 10010
-5.0652 11.829 1.5048 1 17025
-4.8054 10.623 1.6386 1 16865
-4.6016 13.471 -1.6647 2 17620
-4.5269 -10.618 0.26799 0 9894
-4.4453 12.903 1.5959 0 17610
-4.3819 14.017 -1.7174 0 17830
-4.1966 -9.1114 1.4098 0 9925
-4.1364 9.821 2.0078 2 17077
-4.0567 -9.2986 0.4731 1 9905
-4.0074 -10.3 1.8158 0 9825
-3.9417 2.1553 -1.518 0 12053
-3.7697 10.257 1.7953 1 17452
-3.7179 10.204 1.27 1 17473
-3.561 -10.383 2.0681 0 9706
-3.3212 13.781 1.6577 0 18365
-3.312 2.4624 -1.9535 0 12767
-3.0249 -11.465 2.234 0 9450
-2.9192 0.24257 -0.27329 1 10817
-2.919 10.275 -0.24798 0 18032
-2.8873 -10.103 1.9796 0 9523
-2.295 -11.301 1.8945 0 9278
-2.1983 -9.9488 1.9197 1 9328
-2.0879 -10.613 0.50441 1 9260
-2.0403 2.1313 0.48474 0 14069
-1.7429 -9.9049 0.469 1 9206
-1.7116 10.943 -1.0333 0 18933
-1.6516 1.8933 -0.84895 0 14441
-1.5195 -11.05 -0.52015 0 9131
-1.2989 -11.4 2.1618 0 9095
-1.1015 -10.189 1.1984 0 9083
-1.0942 -11.363 0 0 9061
-0.61208 0.72226 -0.39544 0 14561
-0.58962 14.874 2.8047 0 19682
-0.4008 -10.578 -0.24576 0 8951
-0.1002 -10.631 0.24682 0 8897
-0.095281 12.407 1.451 0 19830
0.10213 -12.19 0.28303 1 8868
0.17406 -10.387 1.7068 0 8855
0.22812 6.3421 -1.9803 0 20030
0.44175 11.395 -1.6027 1 20035
0.47009 10.556 1.2356 0 20067
0.55181 12.39 0.28795 1 20064
0.60591 8.2117 -1.951 0 20173
0.85673 1.0445 -0.71829 2 22502
0.89751 11.745 0.27347 0 20179
1.1511 11.532 1.0813 0 20266
1.3012 -12.135 0.28336 1 8704
1.6103 6.7074 -1.978 1 20640
1.6489 11.688 1.9393 0 20390
1.8975 1.3857 -1.0461 1 96
1.9089 -11.931 0.56347 1 8604
1.9406 11.377 0.53822 1 20481
2.0049 -10.56 2.0252 0 8550
2.0747 -10.43 0.49593 1 8525
2.1817 9.3238 -1.5732 0 20622
2.1824 4.3888 -1.784 0 21298
2.2167 14.537 2.4159 0 20430
2.5544 -1.2752 0.19964 0 6003
2.72 -10.991 2.1333 1 8430
2.9385 3.7558 -1.9919 0 22336
3.0041 -9.6926 1.9119 0 8336
3.0571 5.0399 -1.9918 0 21632
3.1857 13.614 2.6343 0 20627
3.1955 0.36182 -1.5222 0 3643
3.1961 -12.457 0.8993 1 8413
3.2263 10.043 1.2335 0 20811
3.2614 -11.449 2.2429 0 8366
3.2887 9.8404 -1.9548 0 20846
3.5424 -9.3747 1.8882 0 8264
3.5908 3.3298 -1.5281 0 23548
3.6157 11.255 -1.9422 0 20804
3.6529 12.484 2.4507 0 20744
3.7038 5.1222 -1.6547 0 22097
3.7443 9.4377 -0.23573 0 21002
3.8861 10.061 1.0062 0 20977
3.8948 14.063 1.3614 0 20708
4.0277 10.427 0 0 20974
4.1424 11.506 1.1409 0 20912
4.4083 -9.3089 1.6922 0 8122
4.66 10.496 0 0 21155
4.9079 13.753 0 0 20897
4.9492 9.6716 1.7849 1 21337
5.0305 13.973 2.798 0 20914
5.1837 8.8923 0.71975 0 21537
5.325 -11.503 2.0826 0 8145
5.3762 -12.064 2.4884 0 8181
5.4433 10.946 2.3033 0 21301
5.4834 11.358 0.29283 1 21266
5.7938 0.21853 -1.9591 2 4256
5.8882 -8.849 2.0026 0 7754
