VERSION .7
FIELDS x y z intensity index
SIZE 8 8 8 8 8
TYPE F F F F F
COUNT 1 1 1 1 1
WIDTH 1364
HEIGHT 1
VIEWPOINT 0 0 0 1 0 0 0
POINTS 1364
DATA ascii
-9.348 -0.31991 -0.21716 0 5327
-9.1255 -1.3801 1.2971 0 5134
-8.9733 -1.3315 -0.21061 0 5137
-8.844 1.2666 1.2556 0 5655
-8.7025 1.22 1.235 0 5648
-8.6843 0.080334 1.2205 0 5405
-8.4673 -0.83471 1.1958 0 5202
-8.2342 -1.0738 0.77472 0 5159
-8.1975 -1.3116 0.19274 0 5126
-8.1899 5.464 0.45913 0 7610
-8.0083 -0.11182 1.509 0 5363
-8.0069 3.1153 1.2075 0 6559
-7.8568 3.2672 0.79385 0 6655
-7.7911 -0.10879 -0.1809 0 5362
-7.7268 1.2224 0.54703 0 5683
-7.6501 4.6367 -0.20769 0 7344
-7.464 2.9041 1.509 0 6562
-7.4045 6.4004 0.45642 0 8289
-7.3655 -0.5758 -0.34453 0 5234
-7.3173 -5.4741 0.85256 0 4898
-7.3064 -0.22961 1.201 0 5334
-7.2616 -1.1852 1.0341 1 5124
-7.2493 1.3174 -0.17106 0 5740
-7.1669 2.0267 -0.17292 0 6098
-7.1209 -0.3271 1.1712 0 5308
-7.0952 -1.03 1.0076 0 5143
-7.085 6.96 0.6945 0 8769
-7.0707 6.7877 0.91443 1 8674
-7.0547 -1.0053 1.0015 0 5148
-6.9102 5.2129 1.4221 0 7906
-6.9049 7.2281 1.8834 1 9032
-6.895 1.607 0.82792 2 5903
-6.8851 0.68237 0.80911 0 5567
-6.8428 0.879 0.80678 0 5622
-6.829 -0.73223 0.64077 0 5187
-6.7961 3.5983 -0.17854 0 7057
-6.7905 4.7336 0.968 0 7706
-6.7658 7.2911 1.6342 2 9147
-6.7522 -0.5848 0.47393 0 5219
-6.7262 0.0046945 0.15616 0 5386
-6.7237 -0.05633 0.94499 1 5370
-6.6181 3.3329 0.34556 0 6953
-6.5895 -0.72399 1.0891 0 5183
-6.5711 -1.288 0.94109 0 5082
-6.5708 -1.2689 0.94053 0 5084
-6.5678 -0.70422 1.0852 1 5188
-6.5479 1.0359 1.249 0 5685
-6.5474 -7.4214 1.3909 0 4458
-6.5447 -0.3957 1.2353 1 5281
-6.5415 -0.415 1.235 0 5275
-6.5154 2.8452 0.83141 0 6740
-6.5068 6.2836 -0.21001 2 8691
-6.5045 -4.3036 1.0961 0 5034
-6.5021 1.143 1.2439 0 5728
-6.5009 -7.5021 0.92613 1 4439
-6.4856 6.3004 0 2 8717
-6.4845 -4.8793 1.529 0 4894
-6.4823 2.6533 0.81909 2 6629
-6.4777 5.6968 1.4173 1 8363
-6.4522 1.0971 1.2331 0 5712
-6.4358 2.6566 0.81422 0 6642
-6.4276 6.3142 0.42018 2 8768
-6.427 6.2435 1.6882 0 8727
-6.4259 6.2751 0.20853 1 8743
-6.4213 -1.0676 1.2264 0 5121
-6.4065 6.2562 1.6871 0 8751
-6.3952 -5.0815 1.539 2 4835
-6.3873 5.3615 1.5712 0 8197
-6.3848 -7.4572 1.148 0 4426
-6.3833 5.6813 1.404 1 8405
-6.3736 5.2241 1.5527 0 8127
-6.3702 6.1517 1.0356 2 8697
-6.3659 -7.472 0.6864 0 4416
-6.3635 6.1452 1.6667 0 8702
-6.3332 6.3664 1.6919 1 8869
-6.3172 1.1105 1.0538 1 5727
-6.3054 -4.3029 1.2542 2 5002
-6.2964 5.3473 1.5564 2 8236
-6.2847 1.0303 1.0463 0 5699
-6.2637 -4.9468 1.5038 0 4840
-6.2597 -7.5238 0.45642 0 4388
-6.2563 -4.6803 1.2837 1 4901
-6.2225 1.5838 0.9024 0 5999
-6.2201 -1.0342 1.036 1 5120
-6.2141 1.4118 0.4456 0 5880
-6.1852 1.5743 0.4463 0 5997
-6.1803 1.557 0.89572 1 5987
-6.173 1.2514 0.44044 2 5792
-6.1659 6.27 0.82042 0 8910
-6.1553 -0.19344 -0.14298 0 5333
-6.1537 5.3193 1.1432 1 8293
-6.1536 5.9073 1.1988 1 8677
-6.1468 4.9829 1.4908 0 8090
-6.1427 5.4022 0.95662 0 8360
-6.1272 1.7512 1.047 1 6114
-6.1224 -7.5795 0.22621 0 4356
-6.1224 -4.9208 0.54926 0 4820
-6.115 -4.8886 0.54745 0 4825
-6.0913 -4.369 1.4123 1 4952
-6.0814 -4.4135 1.056 0 4936
-6.0694 -5.3003 1.3239 2 4741
-6.0567 -4.3699 1.4072 1 4945
-6.0551 -4.4495 1.056 1 4921
-6.054 -5.3149 1.3236 1 4735
-6.0374 -7.6092 -0.22552 1 4334
-6.0372 5.5632 1.5468 1 8526
-6.0286 1.0598 0.42803 1 5725
-6.0268 -7.3294 1.7878 1 4378
-6.0248 -0.13777 0.13991 0 5348
-6.0209 -7.1122 1.0897 0 4410
-6.0122 1.2735 1.0097 2 5827
-6.0115 -4.9186 1.4634 0 4803
-6.0053 5.5688 1.5431 0 8545
-6.0008 5.7284 1.5631 0 8658
-5.991 0.8943 1.1413 0 5668
-5.9907 1.1612 1.0026 1 5768
-5.9878 0.87567 1.1402 0 5661
-5.9731 5.6662 1.1571 1 8632
-5.9702 6.779 1.2695 0 9354
-5.9666 5.4026 0.94129 0 8463
-5.965 -3.7986 0.82699 0 5063
-5.9634 6.7712 0.84179 1 9351
-5.9588 1.5355 1.011 2 6013
-5.9468 -7.1097 1.3027 1 4397
-5.9346 1.4204 1.0026 2 5930
-5.9283 -7.1712 1.753 2 4384
-5.9219 1.0591 0.56125 1 5734
-5.9193 -7.1146 1.3007 1 4390
-5.9154 -7.5932 -0.22347 0 4311
-5.9074 1.5223 0.7134 0 6011
-5.8965 1.5008 0.71154 1 5998
-5.8831 5.7151 1.3475 1 8725
-5.8749 5.9742 0.97985 1 8912
-5.8686 6.0054 0.98194 2 8936
-5.8681 5.7305 1.3475 1 8749
-5.8619 -1.096 0.2781 0 5089
-5.8565 -4.8226 1.4294 0 4798
-5.8246 1.2881 0.6976 1 5855
-5.8227 6.0952 0.58944 0 9025
-5.8181 3.257 0.46625 0 7170
-5.8166 1.4459 0.98472 1 5974
-5.8124 0.69721 0.68459 0 5603
-5.8073 1.3899 0.6983 0 5927
-5.7953 0.9854 0.54843 2 5711
-5.7745 -4.2433 1.3501 2 4922
-5.7711 3.0119 0.60733 2 7029
-5.7688 2.885 0.60175 0 6944
-5.7679 2.8645 0.60083 2 6932
-5.7648 -3.7408 0.64114 1 5052
-5.763 6.0666 0.58512 0 9048
-5.7617 1.2921 0.97013 2 5869
-5.7593 0.70614 0.67855 2 5609
-5.7527 6.7284 0.61902 1 9459
-5.7396 -6.3946 0.40071 0 4476
-5.7326 -4.2636 1.3461 0 4908
-5.7316 -5.0052 0.5321 0 4737
-5.7256 2.9048 0.44895 0 6967
-5.7206 -1.0365 1.0954 1 5105
-5.7194 6.1269 0.78196 1 9119
-5.7161 6.1599 0.78401 0 9144
-5.7128 5.4193 0.92084 2 8631
-5.6977 1.9374 1.1339 1 6360
-5.6925 2.7237 0.58875 0 6869
-5.6905 0.98394 0.53877 0 5719
-5.6883 -0.96109 0.53822 2 5116
-5.6878 -4.1796 0.32916 1 4917
-5.6851 -5.1387 0.53587 0 4693
-5.6712 0.08513 -0.2645 0 5413
-5.6648 1.3558 0.81862 1 5928
-5.6584 6.2426 0.78605 1 9234
-5.6582 -4.7411 0.5162 2 4778
-5.657 0.5786 -0.13202 0 5573
-5.646 -0.81964 0.53227 0 5142
-5.6455 1.6306 0.82585 0 6125
-5.6412 1.4023 0.81695 1 5972
-5.6349 3.0265 0.59674 2 7090
-5.6293 -3.9887 0.48244 2 4961
-5.6261 6.2396 0.78382 0 9257
-5.625 0.98879 0.53283 0 5726
-5.6225 1.1398 0.67089 0 5793
-5.6132 -0.013716 1.0576 0 5381
-5.5954 6.464 1.4046 0 9419
-5.5929 -3.963 0.96336 0 4962
-5.5925 6.777 0.61442 2 9596
-5.5732 -4.5357 1.3538 0 4811
-5.5725 -7.5007 1.3132 0 4268
-5.5666 -4.0906 0.64448 2 4919
-5.5632 1.5032 0.94678 0 6058
-5.559 -7.6234 0.65976 0 4248
-5.5459 -0.85656 0.52354 2 5131
-5.5421 -7.2409 1.2815 2 4294
-5.5328 -3.8943 0.79122 0 4968
-5.5282 -7.6285 0.65878 1 4242
-5.523 -7.5739 0.43714 0 4247
-5.5174 3.1292 1.0421 2 7205
-5.5 1.2334 0.79217 1 5868
-5.496 -7.3547 1.0737 0 4273
-5.4954 -4.0634 0.31872 2 4910
-5.4902 -4.9347 0.5162 2 4702
-5.4883 -0.81436 1.0454 1 5139
-5.4723 1.4612 0.93057 2 6046
-5.4712 4.3286 0.81584 0 8026
-5.4627 -0.82615 1.0409 1 5136
-5.4486 -7.3339 0.85238 2 4266
-5.4415 -1.1002 0.91209 0 5080
-5.4367 -4.2415 1.1329 2 4850
-5.433 5.927 0.56224 0 9189
-5.4329 -7.5413 1.7512 0 4239
-5.4311 -4.0394 0.63148 2 4904
-5.4263 6.2357 0.77119 0 9395
-5.4252 -4.2082 1.128 1 4859
-5.4183 4.6293 1.3427 0 8255
-5.412 2.7457 0.70968 0 6970
-5.4068 -7.2776 1.0602 0 4267
-5.4068 -6.6153 0.99913 2 4369
-5.4031 2.8019 -0.99996 1 7004
-5.3961 -0.78336 0.38129 0 5141
-5.3886 -4.7307 0.50141 1 4733
-5.3854 -4.0054 0.46932 0 4903
-5.3844 6.3356 -1.366 0 9464
-5.367 -4.74 0.50071 0 4725
-5.3644 -0.77876 1.0213 0 5145
-5.3503 -5.1236 0.51801 2 4628
-5.3471 -5.1528 0.51927 0 4622
-5.3368 -3.9461 1.2505 0 4915
-5.3272 4.7131 1.3401 0 8384
-5.3258 6.605 1.5986 0 9703
-5.2976 6.6101 1.596 2 9728
-5.2918 1.4298 1.0328 0 6060
-5.2887 -3.9564 0.30801 0 4897
-5.2747 2.8711 0.98667 0 7121
-5.2629 -3.8915 0.76543 2 4912
-5.2612 5.4767 1.4309 0 9009
-5.2487 -6.6556 0.99123 0 4331
-5.2357 3.3407 1.1702 0 7490
-5.2267 5.5368 0.89041 1 9074
-5.2266 5.5697 0.8932 1 9097
-5.2242 1.4606 1.022 0 6091
-5.1731 1.0817 0.99575 0 5817
-5.1646 -5.4595 1.2347 2 4544
-5.1639 -5.0923 1.3664 0 4610
-5.1628 -4.9752 1.3509 1 4627
-5.1551 6.2848 0.95058 0 9623
-5.146 -7.6958 0.86371 2 4183
-5.1439 -4.9019 0.83094 1 4635
-5.1421 6.2312 0.94477 1 9599
-5.1126 2.8996 0.2741 0 7200
-5.0975 -4.0503 1.0697 2 4834
-5.088 3.7677 1.0402 0 7859
-5.0836 -5.0711 0.50211 0 4596
-5.0825 1.2015 0.12125 1 5912
-5.0799 -4.0611 0.76055 0 4827
-5.0711 0.37062 0.11805 0 5516
-5.0687 -3.7699 0.73872 2 4905
-5.053 -4.8389 0.81817 2 4630
-5.0162 -5.4589 1.3968 0 4508
-4.9706 -4.8185 0.80957 0 4619
-4.9345 -6.8899 1.191 0 4233
-4.9342 -3.7589 0.43375 2 4880
-4.9245 -5.0007 0.3273 0 4581
-4.8904 -5.1696 0.33186 1 4540
-4.8898 -4.2701 0.60566 1 4738
-4.8876 -4.9893 0.32571 0 4576
-4.8875 -7.8368 0.43071 0 4145
-4.8836 -4.2378 0.60324 2 4744
-4.858 5.9927 0.71973 0 9672
-4.8571 0.65238 -0.11378 0 5634
-4.8437 -5.09 0.32767 0 4547
-4.8387 -5.357 0.84418 2 4484
-4.8318 -7.5961 1.0528 1 4153
-4.8264 -3.4822 0.69598 2 4943
-4.8221 -0.19368 0 2 5318
-4.8108 -4.2757 0.45007 2 4718
-4.8037 -5.2003 1.3338 0 4515
-4.8011 -3.4436 0.55122 2 4949
-4.7825 -4.9993 0.32264 0 4553
-4.7781 -3.4676 0.6904 2 4935
-4.7606 -3.6476 0.41938 2 4871
-4.7354 -5.0639 0.48481 0 4527
-4.7208 -5.0202 0.48188 2 4535
-4.7132 -3.4005 0.4064 0 4942
-4.7128 -3.0781 1.0606 0 5050
-4.7037 -7.5922 1.0444 2 4142
-4.6949 3.1323 -1.1997 1 7616
-4.694 -3.5539 0.4117 2 4886
-4.6897 -4.3641 1.0525 0 4663
-4.6762 -3.3937 0.40403 1 4933
-4.6719 -5.1451 1.3094 1 4493
-4.6613 6.767 -0.3832 0 10305
-4.6593 -5.1008 1.3016 2 4500
-4.6515 0.055207 -0.43399 1 5408
-4.6431 -0.78448 0.77364 0 5117
-4.623 -3.7826 0.83949 2 4802
-4.6227 -3.6508 0.54955 1 4838
-4.6195 6.2315 -0.54243 0 10016
-4.618 -3.0752 0.64882 2 5027
-4.6141 -3.0529 1.0424 1 5036
-4.6096 -3.7958 0.83921 1 4797
-4.6017 -3.5694 0.40724 1 4855
-4.5979 -4.643 1.0736 2 4588
-4.5934 -3.0762 0.64649 0 5020
-4.5467 -3.3816 0.79635 0 4906
-4.5414 0.89346 0.54126 0 5775
-4.5268 -3.4273 0.93284 0 4889
-4.5236 1.041 0.43306 2 5890
-4.5114 -4.7407 1.0752 2 4550
-4.5079 -5.0223 -0.31472 0 4475
-4.4993 -0.73438 0.749 2 5125
-4.4641 -5.0052 -0.31276 0 4468
-4.456 3.0477 -0.50366 0 7657
-4.4474 0.41571 0.10371 0 5556
-4.447 -0.69956 0.73959 1 5129
-4.4261 -3.3718 0.65068 0 4881
-4.4237 -0.88153 0.84985 0 5081
-4.4192 0.43797 0.1031 0 5566
-4.4129 -3.1651 0.76323 0 4951
-4.4105 -5.2395 0.96252 0 4404
-4.4015 -4.8729 1.2372 0 4487
-4.3985 -0.31761 0 0 5250
-4.3698 -7.0068 0.19172 0 4144
-4.3698 -5.2522 0.63742 2 4389
-4.3578 0.54743 0.51362 2 5615
-4.3526 -3.5423 0.26171 0 4805
-4.3334 -3.1265 0.75098 2 4944
-4.289 0.32475 0.20059 0 5523
-4.2879 0.31338 0.2005 0 5517
-4.264 6.5062 -0.54396 0 10495
-4.2552 -3.2604 0.50013 1 4872
-4.2439 -0.21944 0.39646 0 5297
-4.2309 -7.4357 0.59823 0 4115
-4.2174 -0.22988 0.39405 0 5292
-4.2125 -3.3858 0.50422 1 4821
-4.2099 -3.5051 0.25546 1 4784
-4.2099 2.2611 -0.11095 0 7088
-4.1887 -3.3871 0.37668 0 4813
-4.1641 -3.3889 0.37543 2 4806
-4.1611 -8.9931 1.628 0 4003
-4.1574 4.3006 -0.27894 0 8975
-4.1534 -3.1072 0.72899 2 4900
-4.1171 -4.2783 0.69435 2 4560
-4.1052 -4.1196 0.40668 0 4590
-4.0993 -3.2177 0.36441 0 4842
-4.0846 -3.8924 0.39454 2 4633
-4.0827 -3.6057 0.89491 0 4729
-4.0789 -3.7311 0.51574 2 4679
-4.0768 -3.0498 0.59539 1 4899
-4.0759 -4.2608 0.55011 2 4554
-4.0703 -4.2772 0.55085 1 4549
-4.0688 -6.9601 1.519 0 4123
-4.068 -3.428 0.6221 2 4772
-4.0662 -3.2113 0.36232 0 4837
-4.0661 -4.3757 0.69853 0 4522
-4.0628 -4.1027 0.40375 1 4585
-4.0534 -4.2121 0.40877 0 4558
-4.0448 -3.5949 0.88907 2 4721
-4.033 -3.753 1.038 1 4664
-4.0136 -0.28981 0.66113 0 5254
-4.0134 -3.6494 1.022 0 4688
-4.0094 -3.5823 0.50162 1 4711
-4.0081 -3.8382 0.77993 0 4631
-3.9955 -4.4003 0.83532 2 4491
-3.9869 -0.078641 -0.18596 1 5353
-3.9826 -4.4092 0.83504 1 4485
-3.9813 1.0757 0.38476 0 6055
-3.967 -5.4044 1.2631 0 4257
-3.9554 -3.3747 0.48508 2 4760
-3.9401 -2.7579 0.90613 1 4976
-3.9236 -3.0798 0.58331 1 4843
-3.9114 -3.4158 0.72982 0 4740
-3.9094 -4.207 0.5358 1 4521
-3.8982 3.8523 0.90042 0 8798
-3.8829 -3.7002 1.0106 0 4637
-3.8828 -4.0349 0.52242 1 4559
-3.8825 -4.2504 0.67321 2 4498
-3.8802 -3.4064 0.72565 2 4734
-3.8795 -3.6738 0.37362 1 4638
-3.8749 0.012173 0.089965 0 5392
-3.8627 -2.6025 0.76521 1 5014
-3.8603 -2.6521 0.88243 1 4996
-3.8443 3.5029 0.73094 1 8483
-3.8219 -4.1592 0.79384 1 4506
-3.8197 1.6419 0.48621 0 6714
-3.8136 -2.5869 0.7571 2 5009
-3.81 1.6511 0.6822 1 6729
-3.8062 -6.7826 0.3627 0 4110
-3.799 -4.0626 1.048 0 4532
-3.7889 -2.8687 0.8954 2 4890
-3.7805 -3.5402 0.36218 2 4652
-3.7734 -7.6821 0.7985 0 4052
-3.7583 -3.7269 0.99723 2 4605
-3.7567 -3.5364 0.36078 1 4644
-3.7514 -2.6258 0.64354 1 4974
-3.7481 -2.4322 0.73408 2 5055
-3.7462 1.3458 0.65399 0 6448
-3.7343 -2.439 0.73278 2 5049
-3.728 -2.8051 0.76651 0 4893
-3.7118 3.5002 0.47598 2 8607
-3.7081 -3.3717 0.5861 2 4687
-3.6951 -3.38 0.58563 0 4680
-3.6756 1.3088 0.64102 0 6433
-3.6722 -3.1687 0.68167 2 4752
-3.6542 -0.22094 0.60147 1 5280
-3.6469 -0.18857 0.68803 0 5298
-3.6347 -3.8423 0.36985 0 4541
-3.6312 -5.6002 0.93803 0 4164
-3.6037 -4.3314 0.92571 2 4391
-3.5958 -3.4051 0.57913 0 4640
-3.5957 -3.6082 0.71591 1 4593
-3.5951 -4.3488 0.92701 1 4383
-3.5842 -3.2982 0.5696 2 4675
-3.582 -0.0087525 0 0 5379
-3.5625 -3.2954 0.56751 0 4669
-3.5565 1.1179 0.61249 0 6241
-3.5472 -3.0608 0.76975 2 4753
-3.5284 -4.3681 1.058 0 4360
-3.5258 0.26696 0.4135 0 5524
-3.5253 -4.6902 0.96397 0 4281
-3.5186 -5.6794 0.6233 0 4141
-3.5168 -9.2386 -0.22951 0 3876
-3.4822 -3.7473 0.35771 2 4520
-3.4795 -3.1828 0.66274 1 4681
-3.4624 -3.9732 0.74068 2 4446
-3.4484 -4.3995 0.6537 2 4321
-3.4482 2.9985 0.86096 0 8320
-3.4149 1.432 0.25894 0 6669
-3.4135 -6.5656 0.51745 0 4084
-3.4101 8.2571 0.20741 0 11840
-3.3845 -2.4725 0.49016 1 4927
-3.3776 -2.482 0.49016 2 4920
-3.3712 -3.383 0.78466 1 4594
-3.3676 -5.6136 1.0755 0 4130
-3.3453 -5.9176 0.79494 0 4113
-3.3286 -5.9315 0.7954 0 4111
-3.324 1.4288 -0.16873 0 6710
-3.2997 -3.5909 -0.11322 0 4503
-3.2876 -2.8528 0.10106 0 4743
-3.2835 -0.25669 0.38516 0 5237
-3.2552 0.4274 -0.076224 0 5628
-3.2502 -3.4357 0.44124 0 4542
-3.2502 -3.3586 0.88058 0 4568
-3.242 -3.5097 0.78499 2 4514
-3.2241 -6.7142 1.2237 0 4036
-3.22 0.11357 0 0 5450
-3.2142 -3.6884 0.80379 1 4447
-3.1933 -3.5168 0.78045 2 4492
-3.1908 0.44731 0.37679 1 5647
-3.1714 4.0768 -0.97316 0 9844
-3.1665 -2.0305 0.618 1 5061
-3.1465 8.2183 -1.4458 0 11968
-3.1433 -3.648 0.79115 2 4433
-3.1411 3.0514 0.20422 0 8719
-3.131 4.9661 -1.1061 0 10659
-3.1255 0.40149 -0.07316 0 5621
-3.1209 -8.2723 1.4526 0 3875
-3.1196 0.70876 -0.074275 0 5878
-3.1188 1.1204 -0.23173 1 6439
-3.1175 -2.209 0.62773 2 4963
-3.1086 -3.7364 0.91576 0 4392
-3.0855 1.4107 0.47681 0 6806
-3.0848 -3.5399 0.88466 1 4448
-3.0755 -2.048 0.69617 1 5030
-3.0723 6.1783 0 0 11427
-3.0543 -2.3828 0.72987 0 4851
-3.0493 -2.213 0.70987 0 4938
-3.0371 7.4756 0.94361 0 11873
-3.0336 -9.4091 1.8626 0 3817
-3.0241 -4.8811 0.40152 0 4140
-2.9988 0.90368 0 0 6175
-2.9846 0.90908 0 2 6192
-2.9808 0.87053 0.58508 2 6142
-2.9792 -2.3385 0.71358 2 4845
-2.9148 3.5956 0.32367 0 9671
-2.911 -6.1085 -0.31556 0 4026
-2.8617 5.286 -0.84478 0 11188
-2.7723 -8.8735 1.7515 0 3804
-2.7575 -8.4718 1.6786 0 3823
-2.7523 -5.4086 0.99704 0 4075
-2.7236 2.4241 0.51244 1 8403
-2.7164 -5.5302 -0.28733 0 4049
-2.7035 -6.4189 0.48704 0 3943
-2.653 1.8145 -0.22476 0 7659
-2.6441 4.4443 -0.36162 0 10889
-2.6262 4.9538 -0.788 0 11246
-2.5904 -9.1119 1.5564 1 3763
-2.5791 1.6775 0.14348 1 7548
-2.5766 -3.4897 0.71268 1 4262
-2.5614 -7.0951 0.70375 0 3859
-2.5458 5.5198 -0.71084 0 11622
-2.5423 -3.4635 0.70587 1 4256
-2.5274 8.451 1.6619 0 12433
-2.5064 5.5562 -0.28425 0 11675
-2.4254 6.4423 1.131 0 12016
-2.4245 -9.6955 1.642 0 3744
-2.4167 3.7356 -0.20748 0 10546
-2.3331 -7.7767 1.5297 0 3782
-2.3256 -3.4991 -0.19593 0 4180
-2.2886 -2.5804 -0.080077 0 4462
-2.2269 9.5245 0.45614 0 12669
-2.1987 -3.0893 -0.17683 0 4226
-2.1877 -5.5509 0.13852 0 3896
-2.139 -5.5695 0.55661 1 3883
-2.1271 3.1452 -0.088155 0 10379
-2.1185 6.2231 1.08 0 12197
-2.1121 -6.072 1.2113 0 3848
-2.0845 -5.0724 0.25574 0 3924
-2.032 -3.6946 0.5926 0 4104
-2.0269 3.907 -1.4873 1 11307
-2.0228 3.9241 -1.4917 1 11328
-1.9713 4.7312 -1.4697 1 11829
-1.971 4.9355 -1.0013 1 11908
-1.969 3.3095 -0.089408 0 10892
-1.9391 -3.7298 0.39219 0 4085
-1.9337 -4.0269 0.20832 1 4034
-1.9238 3.0692 -0.33794 0 10666
-1.92 -3.8831 0.81615 0 4063
-1.9152 -4.82 -0.12042 0 3900
-1.9123 -5.7119 -0.2809 0 3833
-1.8984 3.4376 0.091172 0 11135
-1.8982 7.2511 -0.69929 0 12572
-1.8901 -4.9653 0.49567 0 3878
-1.8472 3.5835 -0.18801 0 11324
-1.8377 9.3152 1.5599 0 12778
-1.8376 3.7229 -0.48551 0 11441
-1.8282 -8.336 1.1994 0 3706
-1.8038 -3.6195 0.28279 0 4066
-1.7908 -8.1655 0.58456 0 3705
-1.783 -3.0722 0.16565 0 4120
-1.7473 3.4908 0.64135 1 11417
-1.743 -3.0238 0.16276 1 4118
-1.7361 -4.405 -0.10993 0 3894
-1.6968 -4.3431 -0.10826 0 3889
-1.6871 -4.7615 0.59074 0 3853
-1.687 6.2306 0.30102 0 12545
-1.6827 7.0089 -0.16735 0 12645
-1.6298 2.8713 -1.379 1 11048
-1.6251 4.4383 0.33051 0 12060
-1.6008 -3.6536 -0.092611 0 3965
-1.5962 4.9244 -0.12019 0 12287
-1.5865 3.5734 -0.18233 0 11711
-1.5859 -5.3989 1.0602 0 3771
-1.583 -5.2235 0.25453 0 3785
-1.56 -3.6733 0.46669 0 3949
-1.5553 7.5236 0.71675 0 12753
-1.5373 -4.0386 0.20152 0 3877
-1.5119 -2.7299 0.14553 0 4106
-1.4928 -5.427 0.92474 0 3760
-1.4615 8.8765 -0.62906 0 12850
-1.3907 -3.2495 0.58072 0 3955
-1.3877 -5.2897 0.63953 0 3752
-1.3832 -3.257 0.58136 0 3950
-1.364 -4.6918 0.34167 0 3769
-1.3573 -3.8307 0 2 3850
-1.2999 -3.5676 0.62384 0 3863
-1.2984 -4.9491 -0.11879 0 3749
-1.2922 8.9892 -0.21085 0 12897
-1.2785 -4.1354 0.50618 0 3797
-1.2509 -7.0511 0.83745 2 3644
-1.2326 -5.2469 0.8855 0 3727
-1.2268 -5.7469 -0.13643 0 3694
-1.219 -7.3634 0.69632 0 3624
-1.1527 -3.0814 0.54051 1 3873
-1.1367 3.0746 0 0 12040
-1.1214 7.9491 0.18638 0 12904
-1.1011 -4.098 0.19789 0 3755
-1.0947 7.6156 0.17863 0 12898
-1.0793 -5.4358 0.51704 0 3675
-1.0727 3.444 0.25224 0 12359
-1.0675 4.5658 -0.21866 0 12668
-1.05 3.6689 -1.0943 1 12482
-1.0225 9.6958 1.1401 0 12969
-1.0217 5.9959 0.14121 0 12837
-1.0173 -7.8224 0.92247 0 3567
-1.0067 9.2971 0.21711 0 12965
-0.99553 -3.3565 -0.081284 0 3772
-0.96643 7.837 1.1098 0 12940
-0.96516 -4.0608 0.3894 0 3729
-0.94227 -4.2328 0.50711 2 3711
-0.93043 3.1777 -0.076874 0 12456
-0.92287 8.2797 0.38851 0 12960
-0.90469 6.4129 0.91019 0 12906
-0.89274 -3.9582 0.18922 0 3715
-0.88879 -4.4159 0.42024 1 3679
-0.85267 -5.5593 0.39329 0 3603
-0.85251 -4.4353 0.85096 1 3663
-0.83153 3.5094 0.50687 0 12661
-0.82745 -4.5173 0.75451 0 3652
-0.8239 3.3875 0.40769 0 12636
-0.82081 -7.7188 0.72419 0 3534
-0.80875 3.3687 0.40513 0 12649
-0.79651 9.3483 1.5414 0 13005
-0.79642 5.0171 -0.8346 0 12863
-0.78199 -9.411 1.5515 1 3513
-0.78166 6.0599 -1.0039 0 12927
-0.78009 -4.7952 0.68278 0 3619
-0.76821 -5.6521 0.39887 0 3575
-0.70609 -3.6123 0.60471 0 3672
-0.69179 -4.1788 0.29619 0 3623
-0.65588 -3.6343 -0.085741 0 3647
-0.63838 3.5622 -1.2228 0 12815
-0.62787 -4.9423 0.58261 0 3560
-0.6164 -5.3519 0.63 0 3546
-0.58979 -4.3394 0.71949 0 3577
-0.58905 4.6693 -1.3495 0 12934
-0.57268 6.3049 0.74034 0 12993
-0.55479 -3.9982 0.47204 0 3579
-0.54685 -7.6665 0 0 3506
-0.54455 3.567 0.33664 0 12879
-0.53853 -4.6758 0.10928 0 3544
-0.52226 3.3542 0.47709 0 12875
-0.52169 -8.704 0.20244 0 3496
-0.50944 -7.1421 -0.33391 0 3505
-0.48555 3.5217 -0.49963 2 12907
-0.48278 3.5801 -0.5077 1 12915
-0.45923 -4.8311 0.45276 0 3522
-0.45307 -3.653 -0.085462 0 3554
-0.44787 3.1747 -0.37493 1 12900
-0.39769 -3.6313 0.084812 0 3536
-0.35884 3.6996 -0.25991 0 12980
-0.35656 -3.5472 0.08277 0 3527
-0.3444 -8.7269 0.20277 1 3484
-0.32335 4.2411 0.19835 0 13019
-0.30203 5.4021 -0.12562 0 13053
-0.29182 5.4948 -0.12775 0 13058
-0.28407 -3.675 0.34389 0 3510
-0.28005 -4.2728 0.60178 0 3501
-0.27162 -8.8396 1.0342 0 3476
-0.26575 -8.6488 0.60507 0 3475
-0.26057 6.2957 1.1872 0 13074
-0.2485 6.4103 1.2087 0 13080
-0.24155 -8.6475 0.60493 0 3470
-0.23931 3.1388 -0.82408 0 13020
-0.21361 3.3032 -0.70357 0 13041
-0.20305 3.2823 -0.699 1 13045
-0.17958 9.7978 0.91424 0 13111
-0.17134 -3.5542 0.58461 0 3491
-0.16267 5.3857 0.25127 0 13090
-0.15811 4.0785 0.19034 0 13077
-0.14435 5.3345 -0.87675 0 13094
-0.13041 -7.9484 0.74165 0 3459
-0.087943 -4.5801 0.64381 0 3463
-0.082575 5.3759 -0.12483 0 13114
-0.07749 8.0719 0.56447 0 13122
-0.064821 9.7733 0.91183 0 13128
-0.03406 5.1353 -0.35911 1 13125
-0.015196 -7.9147 1.4912 0 3450
-0.011102 9.0878 0.63548 0 13135
-0.0062447 5.1117 -1.3382 1 13136
-0.0061255 -3.1905 0.14879 0 3448
0.003898 -3.1905 0.14879 0 3446
0.0081544 4.2476 0.29702 0 13140
0.015712 -4.0921 0.47854 0 3444
0.048484 -4.9604 -0.23133 2 3439
0.051207 -5.239 0.4888 0 3441
0.053052 -4.1637 0 0 3437
0.059682 -6.1061 0.14177 0 3440
0.06418 -4.0855 0 0 3435
0.072116 5.297 -1.3868 0 13154
0.086455 -3.1951 0.37377 0 3429
0.086609 6.3615 -1.1987 0 13155
0.10285 5.3084 -1.1285 2 13167
0.12788 3.795 -0.71543 0 13195
0.14009 -3.158 0.073393 0 3418
0.14292 3.6214 0.33813 1 13202
0.15313 4.9835 -0.34864 1 13187
0.15675 3.6787 0.34351 0 13206
0.16961 -6.268 0.14558 0 3428
0.21973 -3.7315 0.17432 1 3409
0.25466 5.2824 -0.12279 0 13213
0.28282 7.713 -1.0847 0 13196
0.28453 8.4436 0.98798 0 13194
0.30065 -5.3441 0.12427 0 3412
0.30122 3.1689 -1.0756 0 13267
0.31485 3.2285 -1.0961 0 13273
0.32951 7.7328 1.4583 0 13208
0.35133 5.1271 -0.84432 0 13234
0.3547 -4.467 0.31335 0 3402
0.35688 8.3753 -0.98031 0 13203
0.38182 4.0168 -0.093679 0 13265
0.39466 -5.3614 0.88323 0 3406
0.4207 -5.5178 0.90917 0 3404
0.44476 3.0788 -0.36378 0 13332
0.49755 4.4218 0.83837 1 13294
0.52064 8.3218 1.1718 0 13231
0.52089 3.2019 0 0 13357
0.53751 4.3215 -0.10111 0 13308
0.56328 4.4339 0.52268 0 13314
0.58591 4.5051 0.53127 0 13320
0.58635 -9.9574 0.93059 0 3410
0.63065 4.8491 -0.68724 0 13316
0.63416 7.9165 -0.18439 0 13242
0.63448 4.2967 0.20254 1 13337
0.66383 -3.5199 0.5885 2 3350
0.67138 -3.6189 0.60471 0 3352
0.6783 6.9553 1.1481 1 13274
0.68861 -9.7497 1.8415 0 3408
0.69429 4.1224 0.78764 0 13369
0.70203 3.4911 0.50047 0 13438
0.70456 -6.1647 0.43389 0 3384
0.71354 4.8321 0.8025 0 13339
0.73057 8.7736 1.4464 0 13248
0.73428 4.8782 -1.4146 1 13342
0.8186 -3.9668 0.47366 0 3342
0.84414 4.8467 0.69141 1 13382
0.85066 3.3227 -1.2484 0 13527
0.85244 5.6632 -1.4992 0 13344
0.85492 5.4594 0.90788 0 13349
0.85898 -4.8566 0 0 3356
0.86238 -4.4283 0.74122 1 3347
0.8834 4.079 0.48807 0 13462
0.89176 -5.6177 0 0 3364
0.91203 -3.4446 0.24917 0 3309
0.9935 3.4196 0.082677 2 13568
0.99446 -8.7013 1.2308 0 3385
0.9966 3.4687 0.083791 0 13562
1.0002 -9.7117 1.604 0 3392
1.0049 -4.5327 0.10779 0 3330
1.0225 7.5329 0.17649 0 13327
1.0299 3.3313 0.32531 0 13593
1.0594 -9.5047 0.44599 0 3387
1.0803 -3.0022 0.44842 0 3282
1.1032 -4.123 0 0 3307
1.1035 -8.9482 0 0 3380
1.1227 8.0808 1.5371 0 13330
1.1253 -5.3679 0.64138 0 3339
1.1319 -2.983 0.14879 0 3276
1.1494 3.4654 0.59985 0 13627
1.2401 -4.1894 0.61403 1 3296
1.2542 -3.139 -0.15764 0 3275
1.2768 7.8482 -1.3064 0 13354
1.2785 7.4483 -0.70505 0 13370
1.3184 -6.1184 0.58392 0 3335
1.3345 -9.883 0.93041 0 3374
1.3457 8.1373 -0.57675 0 13359
1.3881 6.1544 -0.73779 0 13474
1.3934 8.0002 -0.94965 1 13376
1.4143 4.4342 0.65411 0 13604
1.4493 9.0887 0.64357 0 13351
1.4858 8.8218 -1.2573 0 13364
1.5302 -7.2993 0 0 3338
1.5324 5.5107 -0.80386 1 13550
1.5386 -4.8859 -0.23888 1 3293
1.5487 5.056 -1.124 0 13588
1.5498 6.0536 0.58299 0 13530
1.5877 4.4415 -0.10951 0 13672
1.5946 -4.4684 0.77948 0 3284
1.6059 -3.4803 0.08899 0 3249
1.6099 5.1529 0.50366 0 13598
1.6204 -2.9341 0.23438 1 3176
1.6314 -2.9736 0.23717 0 3181
1.6437 -3.8818 0.69258 0 3267
1.6449 3.8789 0.49271 0 13797
1.672 -2.5677 0.5773 0 3099
1.6866 3.5139 0.64038 0 13926
1.6874 7.0941 0.34006 0 13499
1.73 -4.6817 0.82001 0 3280
1.7323 -6.8661 0.66065 0 3316
1.736 -4.7362 0.82876 0 3281
1.7646 -5.4961 0.13402 0 3291
1.7859 -4.3959 -0.22127 0 3272
1.7876 7.8115 -0.9371 0 13480
1.7891 4.2853 0.76294 0 13783
1.8029 -7.1459 0.86184 0 3317
1.804 4.8691 -0.12056 0 13696
1.8118 6.1758 0.60045 0 13573
1.8171 4.3142 0.7691 0 13790
1.826 -3.1099 0.33645 1 3151
1.8332 4.7757 0.84043 2 13720
1.8391 6.2009 0.60343 1 13580
1.8484 -3.6927 -0.19258 0 3226
1.8508 2.5871 -0.67613 1 14401
1.8543 2.5749 -0.67447 2 14412
1.8548 2.7049 0.46094 0 14337
1.8559 5.763 -0.8509 0 13605
1.8565 3.3562 -1.0998 0 14076
1.8656 -4.1358 0.21158 0 3254
1.8664 4.4704 0.68083 0 13781
1.8739 -4.4951 0 0 3268
1.8804 3.8316 -1.1173 0 13950
1.8828 8.4579 1.0133 0 13473
1.8897 4.7558 0.35785 0 13742
1.8929 7.7533 -1.3112 0 13505
1.8959 2.3912 -1.1916 0 14523
1.9042 2.387 -1.1923 1 14534
1.9272 8.3212 1.4033 0 13490
1.9307 3.0576 -0.94665 0 14243
1.9334 4.3122 0.55265 0 13851
1.9355 -8.8474 0.84495 0 3332
1.9405 -2.7325 0.31267 1 2980
1.946 3.0617 -0.94969 0 14251
1.9486 -2.7268 0.31267 1 2972
1.9486 3.3133 0.17925 0 14155
1.9564 -9.4802 0.9031 0 3341
1.9856 7.3898 0.17766 0 13543
1.9882 -5.7288 0 0 3285
1.9961 4.5195 0.11471 0 13829
2.0262 2.4527 0.52268 0 14585
2.0317 -3.4602 0.56393 0 3152
2.0359 3.3976 0.65075 1 14180
2.0404 3.3811 0.64881 1 14189
2.0415 2.3287 0.36216 0 14672
2.0471 -8.0251 0.77268 0 3314
2.0679 -3.0223 -0.17077 0 3040
2.0822 -2.1797 0.42364 0 2606
2.0958 8.4879 1.4364 0 13513
2.1076 -2.4512 0.53111 0 2721
2.1191 -6.3479 1.0995 0 3289
2.1512 3.7592 -0.40408 0 14119
2.1769 3.2347 -0.090522 0 14310
2.1884 6.7233 0.9937 0 13614
2.2268 -2.4566 0.6247 0 2664
2.2273 -2.7154 0.41071 0 2786
2.253 -4.3408 -0.22807 1 3213
2.2544 -2.7652 0.41721 0 2795
2.2654 -2.7453 0.24889 0 2775
2.3253 2.045 -0.14441 0 15319
2.3274 4.5073 -1.0782 1 14001
2.3332 2.039 -0.1445 0 15339
2.3374 -8.4399 0.20333 0 3303
2.3643 -5.1594 0.66369 0 3251
2.3814 4.8141 -0.37557 0 13957
2.3885 2.9078 -0.52886 0 14573
2.4075 -5.9259 0.1485 0 3273
2.4188 3.2204 0.18782 0 14447
2.4673 7.8973 -0.19209 0 13596
2.4675 -7.2483 0.71434 0 3286
2.5348 2.8591 -0.088712 0 14689
2.538 3.5048 0.2018 0 14414
2.5433 -3.6923 0.5243 0 3034
2.5826 3.0174 0.18522 0 14628
2.5868 2.5244 0.68099 1 14997
2.6156 2.8495 -0.72876 0 14761
2.6209 -7.6987 0.95104 0 3287
2.6236 7.91 0.19349 0 13624
2.6332 4.9607 -0.39273 1 14029
2.647 3.7 -0.63936 0 14394
2.6515 5.8208 1.0509 0 13870
2.6547 5.5731 -1.4627 0 13917
2.6564 2.9783 0.46669 0 14704
2.6623 -3.0964 0.19043 0 2718
2.6688 -5.6103 1.0207 0 3244
2.6719 4.8303 0.51499 0 14077
2.6761 2.898 -0.7432 1 14773
2.7116 4.8359 0.64835 0 14097
2.7232 2.004 -0.078499 0 15828
2.7565 -6.6124 1.177 0 3269
2.7945 -2.4889 0.70506 0 2447
2.7945 2.8062 0.27693 0 14917
2.817 2.1243 0.16453 0 15756
2.8278 -4.6038 0.75933 0 3129
2.8287 6.8358 0.345 0 13775
2.8348 -7.8782 1.5775 1 3283
2.846 2.1322 0.16584 0 15774
2.8588 -2.3183 0.60471 2 2372
2.8769 -3.7438 0.44049 0 2877
2.8839 1.8757 0.48349 0 16203
2.8871 2.8511 0.18922 0 14957
2.8902 -1.8102 0.56029 1 1883
2.8914 -3.3415 0.10259 0 2711
2.9179 -3.3343 0.41337 0 2699
2.9789 -7.1457 1.4586 0 3270
2.9792 -4.5457 0.63558 1 3090
2.9852 -3.9788 0.58168 0 2913
3.0046 -0.46728 0.1418 1 159
3.0203 0.20379 0.070282 0 19706
3.0256 -5.2237 0.8484 0 3157
3.0333 3.1908 0.82948 0 14824
3.0375 -3.5326 -0.21727 0 2717
3.0421 3.0041 -0.19938 1 14954
3.0445 -1.3301 0.15494 0 995
3.0697 6.95 0.35431 0 13831
3.0704 5.3655 0.72292 0 14122
3.0898 8.9633 1.5577 0 13646
3.0904 1.413 -1.3269 0 17157
3.1451 -3.8577 0.81774 2 2798
3.1638 -1.1284 0.47208 0 653
3.1673 -1.1185 0.47208 0 643
3.1893 3.9766 0.35646 0 14544
3.212 0.18858 -1.4325 1 19769
3.2414 -5.5581 0.75242 0 3154
3.2498 3.7292 0.46149 0 14660
3.2558 7.4345 -0.56754 0 13822
3.2565 2.2828 0.46507 0 15976
3.2648 -7.3537 0.1868 0 3259
3.2751 2.8621 0.81948 0 15354
3.3359 -7.4504 0.38068 0 3257
3.3452 -1.8849 -1.4993 0 1606
3.3593 -4.5052 -0.65718 1 2917
3.3797 7.1466 0.36866 0 13908
3.3887 -3.1789 0.54335 0 2476
3.4035 -4.029 0.74124 2 2743
3.4462 -0.39691 0.32364 1 20857
3.4516 5.5733 0.6116 0 14217
3.4818 3.0256 0.64827 0 15373
3.4845 7.3153 0.75595 1 13916
3.4989 3.0771 0.76553 0 15330
3.4993 0.36903 0.32828 0 19423
3.5474 -8.6538 1.5366 0 3271
3.5747 0.59819 0.50937 0 18984
3.582 -4.1396 0.76935 0 2713
3.5991 -4.7125 0.83337 0 2888
3.6115 0.594 0.51438 1 19005
3.6257 1.3506 -1.3074 1 17627
3.6593 6.3076 -0.50992 1 14136
3.6635 -2.8829 0.43492 0 2338
3.6757 -1.1329 -0.72469 2 542
3.6925 5.1615 -1.1957 0 14403
3.7009 4.1016 -0.12826 0 14723
3.7409 -4.0569 0.64533 0 2644
3.7551 -4.5505 -0.68994 1 2771
3.7625 4.2918 -1.0754 1 14675
3.7742 4.9922 0.1453 0 14455
3.7948 4.9922 0.58503 0 14467
3.8027 -1.4681 -0.3803 2 756
3.8045 -0.10693 0 0 20363
3.8066 4.6908 -0.9925 0 14557
3.809 -3.331 0.47208 0 2435
3.8098 -7.1381 0.37733 0 3198
3.8186 2.4685 0.74705 0 16223
3.8602 -0.11861 0 0 20384
3.8641 3.7263 0.25034 0 15020
3.8989 0.30959 0.73691 0 19627
3.9081 -6.9813 1.3145 0 3172
3.9229 -1.5548 -0.89693 2 801
3.923 5.1274 0.75498 0 14478
3.944 1.5219 -0.19714 0 17545
3.9593 4.2652 1.0965 0 14782
3.9595 -7.852 0.82042 1 3224
3.9726 4.1556 -0.94451 0 14825
4.0016 1.6119 0 0 17459
4.0095 0.62285 0.18922 0 19060
4.012 3.9152 0.65555 0 14993
4.0179 -0.63709 0.28447 0 172
4.0225 0.79355 0 0 18775
4.0284 1.436 0.70263 0 17734
4.033 1.7754 -1.375 1 17253
4.0383 -6.3634 0.88135 0 3114
4.0541 -4.3965 0.13885 0 2643
4.0572 -5.3123 1.2594 0 2890
4.0843 -3.4895 0.88258 0 2428
4.0897 -1.0554 0.29535 0 444
4.1129 -4.1345 0.95813 0 2557
4.1197 -4.4912 0.7127 0 2651
4.1407 -1.9388 -0.42656 0 1154
4.1703 -0.97431 0.80689 0 392
4.1759 -1.6812 0.73959 0 831
4.1901 -1.7588 0.42396 0 905
4.1918 -4.7363 0.73965 0 2687
4.2101 -4.4334 -0.85925 1 2607
4.2597 -6.6275 1.2944 0 3110
4.2729 7.4159 0.7985 0 14130
4.2978 -1.2308 0.41708 2 490
4.3043 4.6078 1.036 0 14794
4.33 -0.57082 0.71755 0 61
4.3735 -0.41495 0.72176 2 20748
4.4359 5.9405 0.34574 0 14439
4.4466 1.4405 0.6569 0 17929
4.4559 -0.52581 -0.10417 0 20869
4.4565 5.2998 0.32292 0 14603
4.533 1.3109 0.77526 0 18157
4.533 3.3152 -0.26189 0 15843
4.5474 5.3735 0.65675 0 14612
4.5518 5.3484 -1.4928 0 14623
4.638 3.5166 -0.13513 0 15736
4.6397 -2.7768 0.63232 0 1768
4.6431 2.7756 0.88874 0 16452
4.6558 8.4166 0.67259 0 14075
4.67 4.8851 -0.1569 0 14829
4.6841 0.85379 0.44421 2 18881
4.6849 4.9282 0.79517 0 14820
4.6855 6.792 1.3557 0 14349
4.6856 3.4482 -0.2713 0 15826
4.7176 7.7165 1.0577 0 14200
4.718 0.84551 0.44718 2 18902
4.7615 0.57199 0.78791 0 19316
4.7656 0.58684 0.78888 0 19295
4.7738 0.68451 0.67777 0 19149
4.7791 -0.55043 -0.11169 0 20853
4.781 -1.3691 0.69893 0 491
4.7816 -6.647 0.95755 0 2964
4.8015 3.0237 0.79746 0 16296
4.8429 8.5703 1.6173 0 14107
4.8551 -4.1247 1.0467 0 2422
4.8561 -6.6716 0.19158 0 2949
4.857 -4.2475 0.1498 0 2434
4.8766 6.5306 0.95313 0 14443
4.8771 3.0523 0.8086 0 16314
4.912 -4.2474 0.75939 0 2433
4.9601 -3.166 0.13662 0 1926
4.9686 0.75853 0.46892 0 19085
5.0083 -1.6719 0.61746 0 594
5.0129 1.05 0.7198 0 18698
5.0346 1.8754 0.12473 0 17626
5.0419 3.2981 0.84673 0 16187
5.0924 -4.4801 0.3163 0 2438
5.0929 2.242 -0.12919 0 17249
5.1172 2.5782 0.40068 0 16924
5.1259 6.4257 0.19084 0 14535
5.1658 5.8615 0.54633 0 14681
5.1803 1.9296 0.51574 0 17630
5.2097 2.5669 0.27084 0 16978
5.2117 2.2748 -0.13202 0 17266
5.2198 4.9499 1.1819 0 15072
5.2246 2.1045 0.13077 0 17461
5.2305 -4.3163 0.4742 0 2389
5.2623 -3.0676 0.42593 0 1692
5.2914 3.8699 0.92133 0 15852
5.3109 2.6549 0.41519 0 16942
5.3413 -4.671 0.82978 0 2436
5.3604 -5.2347 1.053 1 2515
5.3821 2.7684 -0.14052 0 16859
5.3996 -4.8092 0.84558 0 2444
5.4257 -1.468 0.78995 0 461
5.4752 1.6011 0.13244 0 18130
5.5168 4.8518 1.3842 0 15332
5.5272 2.6446 -0.28574 0 17047
5.5475 0.27908 0.12896 0 19834
5.6301 1.126 0.80693 0 18760
5.6341 3.9495 -0.32087 0 15970
5.6448 1.4746 0.68227 0 18346
5.6535 4.1864 0.49192 0 15812
5.6963 1.0732 0.67786 0 18842
5.7325 1.5876 0.97726 0 18239
5.7797 -4.795 0.35021 0 2396
5.8354 4.1916 0.67031 1 15905
5.8445 6.2565 0.19878 0 14787
5.9013 1.5768 0.71433 0 18302
5.9053 4.3729 0.68554 0 15814
5.9069 -5.3523 1.3096 0 2460
5.923 1.5649 0.71642 0 18323
5.9449 6.2537 0.805 0 14818
5.9475 2.455 0.14938 0 17402
5.9639 1.4671 1.009 1 18454
5.9817 -3.036 1.1021 1 1355
5.9852 1.4878 1.0133 0 18432
5.992 1.0221 0.71084 0 18963
6.0444 -0.86778 -0.14177 0 107
6.0509 -0.25678 0.14061 0 20454
6.0613 1.231 1.0162 0 18741
6.106 3.5083 0.1635 0 16564
6.1246 -1.6755 0.89238 0 467
6.1368 -5.8562 1.1922 0 2492
6.1706 7.2096 -0.44254 0 14626
6.1935 -2.0076 1.0697 0 572
6.2207 2.526 1.1031 0 17446
6.2237 5.7976 -0.19748 0 15113
6.2815 1.4294 0.75335 0 18577
6.2988 -0.68871 -0.14711 0 20827
6.3059 3.5286 -0.16777 0 16636
6.3576 -1.7798 0 0 476
6.3825 2.9181 1.153 0 17168
6.3831 7.4578 1.6128 0 14634
6.3927 1.4547 1.0771 1 18580
6.4473 2.9043 1.1618 0 17204
6.4593 -7.5977 1.6384 0 2736
6.4668 2.6483 0 0 17420
6.4925 -1.6573 0.31248 0 438
6.5105 -1.1667 -0.15356 0 254
6.5221 2.2827 0.97115 0 17773
6.536 5.3879 -1.3916 0 15514
6.6325 5.6627 1.4328 0 15427
6.6485 3.6929 1.0688 0 16660
6.6623 2.0942 0.65154 0 17989
6.6816 -2.85 0.16865 0 935
6.7607 1.6806 0.32487 0 18426
6.7937 -1.776 0 0 448
6.8593 0.78516 -0.16029 0 19351
6.8785 -7.0782 0.69017 0 2583
6.9144 2.7153 1.2204 0 17519
6.9261 -2.0463 -0.16767 0 510
6.9521 -2.4332 1.0352 0 634
6.9605 1.477 0.8321 0 18677
6.9779 -4.1762 0.56865 0 1765
6.9861 3.7475 1.3025 0 16748
7.0036 -1.3183 0.49834 0 286
7.0093 -1.7893 0.16795 0 437
7.0286 0.35359 0.65656 0 19838
7.0635 3.6598 0.37099 0 16841
7.0811 0.29431 0.6612 0 19894
7.0909 1.462 0 0 18713
7.1118 -5.9739 0.43313 0 2410
7.1561 5.7598 0.85702 0 15583
7.1909 1.0978 0.50866 0 19083
7.1919 4.2736 1.3745 0 16473
7.2123 -1.7288 1.2185 0 406
7.2159 4.0909 1.3628 0 16609
7.2365 2.9149 -0.36382 0 17456
7.2365 3.9389 1.1579 0 16711
7.2602 -6.6551 1.1518 0 2462
7.3313 -5.3344 0.84587 0 2229
7.3588 0.41142 -1.3886 1 19805
7.373 -2.7963 0.36773 0 735
7.382 -4.1595 -0.79051 2 1603
7.3822 -4.9252 -0.41385 0 2031
7.386 -2.5605 1.2843 0 626
7.4101 -2.2839 1.2739 0 541
7.4991 1.1649 0.70802 0 19063
7.5217 1.7808 0.36046 0 18511
7.7376 -3.1435 0.1939 0 840
7.7508 -0.28421 1.2743 0 20430
7.7644 2.7404 0.19116 0 17747
7.7716 1.9118 0.74667 0 18450
7.8456 -1.5706 0.74648 0 325
7.8826 4.1139 1.6753 0 16829
7.8989 4.0073 1.4552 0 16910
8.0576 0.49706 0.75317 0 19754
8.0593 -5.3445 1.5888 0 2023
8.0694 3.72 0.2063 0 17142
8.1708 -0.4654 0 0 20539
8.1748 2.5165 1.4053 0 18035
8.1895 3.2689 -1.4487 0 17469
8.219 3.0893 0.40947 0 17606
8.2973 1.3142 0.9824 0 19044
8.3592 0.6124 1.178 0 19670
8.5249 1.2771 0 0 19103
8.5861 -1.0816 0 0 32
8.5974 -1.2343 1.427 1 113
8.5985 -3.9658 1.3308 0 1130
8.6097 2.7064 1.4828 1 17993
8.6252 -2.0675 1.0372 0 404
8.7338 4.4655 1.1471 0 16889
8.868 1.6708 0 0 18835
8.8782 -0.78923 1.6793 1 20716
8.9228 -0.81989 1.6882 0 20733
8.9635 -1.2103 1.7041 1 75
8.9959 -0.61801 1.4815 0 20606
8.9993 2.0198 1.0786 0 18599
9.052 -0.85885 1.2779 2 20746
9.0755 -0.64736 1.2787 1 20621
9.0991 -0.67778 1.2823 2 20635
9.113 -0.49195 1.2826 0 20527
9.2345 0.11766 1.2979 2 20103
9.2547 3.2391 1.1466 0 17771
9.2794 -0.93439 1.3107 2 20782
9.3158 3.5016 -1.3987 2 17594
9.3183 -0.90874 1.5382 1 20766
9.335 -0.93999 1.5414 1 20784
9.3396 3.5403 1.641 0 17590
9.3625 2.8249 -1.1436 0 18061
9.417 0.037803 0.87857 1 20156
9.4216 -0.18255 1.3244 0 20311
9.4341 2.2041 1.5917 0 18538
9.4775 -1.0915 1.5674 2 20861
9.4882 -2.0722 0.90607 0 369
9.4985 0.39479 1.7912 0 19902
9.5027 -1.2258 1.8052 0 50
9.5038 -1.0694 1.5713 2 20844
9.5126 0.20093 0.88768 0 20043
9.532 -1.8805 1.5962 1 319
9.537 0.1748 0.8899 2 20063
9.558 0.67507 1.3466 0 19691
9.5586 0.038371 0.66841 0 20154
9.5644 0.37077 1.8034 0 19923
9.5779 -2.0638 1.377 0 362
9.5815 -0.4351 1.5758 1 20477
9.5924 0.22941 1.8078 2 20031
9.595 0.063636 1.8078 1 20143
9.5995 -2.0387 1.3792 2 355
9.6191 0.3998 1.353 1 19898
9.6216 -1.166 1.1334 0 20888
9.6261 -1.927 1.148 1 326
9.6414 -0.13294 1.1276 0 20270
9.6516 -1.6741 1.3767 2 237
9.6611 0.37452 0.67608 0 19913
9.6621 0.70785 1.1329 0 19668
9.6626 -0.18722 1.5878 1 20313
9.6782 0.34474 0.6772 1 19935
9.6799 -1.476 1.3761 0 150
9.6809 -1.938 1.3876 2 327
9.6878 0.82543 1.8319 1 19583
9.6914 0.9383 1.8345 0 19498
9.6992 -1.8537 1.1548 1 297
9.7 0.79749 1.8337 1 19604
9.7078 -1.7397 1.8582 0 259
9.7203 -0.75135 1.6018 2 20654
9.7256 1.3392 0.22793 0 19183
9.7371 -1.3979 1.1504 0 111
9.7603 -1.2019 0.68766 0 22
9.7772 -1.6361 1.6287 2 212
9.795 -0.84145 1.8523 2 20700
9.803 -0.47259 1.6125 1 20495
9.8062 -1.178 1.155 0 9
9.8147 0.094219 1.1478 0 20120
9.8236 -1.4717 1.8715 1 139
9.8371 0.065242 0.91777 1 20136
9.8413 0.0085906 0.91814 1 20175
9.8477 -0.075626 1.618 1 20236
9.8622 -0.13599 0.92019 2 20268
9.8682 -1.593 1.6423 2 188
9.9263 -0.10568 0.92613 0 20250
9.9274 -0.682 0.92836 0 20600
9.9525 -0.68373 1.402 0 20604
9.9814 -0.22128 1.4031 1 20330
-12.653 5.5254 0.64388 1 6737
-11.865 5.7613 0.61509 1 6893
-10.994 1.2176 2.0841 0 5587
-10.924 -0.31277 1.5359 0 5339
-10.901 9.7605 1.7111 0 8424
-10.862 -1.513 1.8018 0 5151
-10.778 3.4876 1.5921 0 6283
-10.627 1.5863 1.51 0 5667
-10.209 5.2941 1.0729 0 7015
-10.172 -1.7497 0.96292 0 5113
-10.006 3.3073 1.9856 0 6314
-9.7612 3.9299 -0.49071 0 6603
-9.2467 -9.4953 1.8627 0 4574
-9.0887 -6.9238 0.53282 1 4879
-8.5429 9.5917 0.29821 1 9302
-8.4192 -9.4395 0.29366 1 4469
-7.9521 8.5186 -1.6378 2 9105
-7.7171 -9.9631 2.3744 0 4307
-7.4007 7.6183 -0.24659 0 8952
-7.1084 -9.6841 0.56021 1 4252
-6.7384 7.434 1.6484 0 9238
-6.6172 12.223 -1.6254 1 11189
-5.9126 -9.7283 1.5999 0 4134
-5.034 7.6373 -1.7234 0 10486
-4.339 -11.204 -0.27895 0 3886
-4.2099 -9.6087 0.97871 0 3969
-4.016 9.7968 1.488 0 11858
-3.6769 -9.6593 1.6981 0 3880
-3.4955 -12.024 1.1682 0 3770
-3.346 -11.153 1.913 0 3781
-3.2503 11.224 1.6422 0 12474
-3.127 9.5502 -0.46863 0 12270
-2.8695 11.517 -1.6681 2 12613
-2.8108 8.6714 -1.7175 2 12294
-2.7246 0.93443 0.33684 1 6371
-2.6631 -10.649 1.2837 0 3743
-2.6481 9.6732 0.4677 1 12532
-2.6101 -10.571 0 0 3738
-2.5939 1.0522 -0.19574 0 6615
-2.5364 -11.711 0.55881 1 3698
-2.5222 1.4691 0.47955 0 7260
-2.4784 11.179 2.1574 0 12718
-2.446 -12.514 -0.29603 0 3666
-2.3162 13.123 2.1893 0 12826
-1.8255 -10.827 1.5432 0 3630
-1.4162 0.49982 0.17562 1 6413
-1.2994 -9.9911 0.23392 0 3564
-1.2007 11.089 -1.0406 0 12963
-1.1925 -10.889 0.51083 1 3537
-1.1647 1.6395 -0.42747 0 10202
-1.1257 6.6067 -1.9217 0 12838
-1.0777 3.3587 -1.9819 0 12296
-0.96334 10.268 1.4493 0 12987
-0.92153 4.1025 -1.9903 0 12700
-0.8462 -2.6806 -0.13109 0 3805
-0.75849 4.6987 -1.988 0 12858
-0.60708 -10.129 1.1866 0 3497
-0.48802 1.2861 0.226 1 11999
-0.42032 11.8 1.9399 0 13084
-0.39486 10.186 1.6747 0 13079
-0.31161 -10.141 0 0 3474
-0.29751 10.995 1.807 0 13099
-0.032796 4.9447 -1.543 1 13127
-0.023052 -12.007 0.83959 1 3449
0.23388 14.408 1.3443 0 13159
0.30482 -10.092 1.419 0 3426
0.35101 10.416 -1.7123 0 13191
0.41975 10.636 0.49639 1 13201
0.42988 -1.8876 0.090279 1 3327
0.46656 -12.035 1.9788 0 3421
1.0507 -10.526 0.49332 1 3394
1.2896 -11.57 1.9127 0 3388
1.4082 11.934 -0.84029 0 13300
1.4455 12.551 1.4774 0 13297
1.7049 11.116 0.52444 1 13346
1.7869 4.3874 -1.9788 0 13761
1.803 3.4431 -1.8397 0 14015
1.8984 5.8952 -1.6213 0 13608
2.2282 3.6204 -1.5473 0 14208
2.3178 4.1591 -1.9888 0 14085
2.5783 10.182 -0.24385 0 13522
2.748 -11.03 0.26391 0 3319
2.8084 4.745 -1.5811 0 14164
2.9389 2.5091 -1.7205 0 15415
3.0788 0.57062 -1.5728 1 18849
3.0799 12.163 1.7633 0 13524
3.0865 6.8326 -1.9627 0 13859
3.1358 12.384 -1.7953 0 13518
3.1637 -9.7543 1.6848 0 3290
3.3328 12.561 1.2124 0 13540
3.3626 1.7296 -1.5795 0 16858
3.4771 12.231 2.0891 0 13558
3.5292 -10.572 1.0398 0 3288
3.8695 11.551 0.85187 1 13633
4.0511 -13.276 2.2804 0 3294
4.2262 1.4362 -1.9873 1 17821
4.5753 11.515 0.57782 1 13741
4.9737 1.9192 -1.5287 1 17551
4.987 -13.142 2.6484 0 3277
5.0575 1.1036 -1.7491 0 18636
5.254 -9.844 1.8333 0 3201
5.3968 -0.13472 -1.548 0 20345
5.5017 8.7704 -1.701 2 14230
5.5216 -12.537 0.63885 1 3263
5.5279 5.0318 -1.7712 2 15211
5.5786 1.5597 -1.8075 0 18214
7.0932 3.5211 -1.6833 0 16964
7.1109 8.9685 -1.6086 0 14520
7.2721 9.3955 -1.3894 0 14488
7.4355 3.9652 -1.9966 2 16767
7.522 -6.6995 1.6549 0 2446
7.8968 -9.5118 0.57652 1 2766
8.2693 8.955 1.1372 0 14769
8.3052 7.2578 -1.5501 2 15334
8.6066 5.4535 0.47515 1 16272
8.8632 5.8353 1.241 0 16168
8.9071 -11.05 1.6598 0 2813
8.9257 -11.828 -1.3824 0 2901
8.953 5.2822 -1.9585 1 16496
9.0044 5.8901 -1.7678 2 16173
9.2869 6.2335 0.25968 0 16110
9.3056 -5.0673 -1.4892 1 1523
9.3979 7.8328 0.85549 1 15491
9.4447 3.6747 1.4243 0 17536
9.447 3.459 -0.93858 2 17660
9.4768 5.1905 1.7752 0 16695
9.6031 5.9727 -0.26256 0 16325
9.6227 -7.6597 2.0207 0 2352
9.8182 5.6799 1.0582 0 16549
9.8231 -2.3547 0.70635 0 403
9.9868 4.3964 -1.276 2 17243
10.087 -3.7253 2.0259 0 705
10.146 1.4296 1.6835 1 19169
10.188 7.0096 2.0317 0 16040
10.209 4.6677 1.5777 0 17166
10.227 -6.3212 1.9753 2 1850
10.284 -5.8752 2.2315 2 1648
10.335 7.9823 2.1455 0 15694
10.346 2.5105 0 0 18468
10.385 5.2688 -1.0865 2 16897
10.395 -3.1404 -0.25212 0 523
10.413 7.8952 -1.8365 2 15730
10.596 -2.9663 1.2867 0 478
10.751 1.1983 2.0382 0 19385
10.783 3.844 0 0 17726
10.869 5.9529 1.7416 0 16693
11.011 -5.8719 2.0502 1 1486
11.073 -9.7999 2.0781 0 2442
11.075 3.7638 -1.0913 2 17819
11.253 8.131 -1.6236 2 15875
11.335 -7.1462 0.62487 1 1894
11.601 -0.99656 0.54298 1 20694
11.666 5.5818 -0.30025 0 17049
11.781 -5.5562 1.5232 1 1180
11.963 6.7824 -1.6082 2 16593
11.98 -0.091999 1.1177 0 20231
12.16 -1.4005 0.85591 1 20856
12.276 6.1367 -1.605 2 16933
12.335 0.295 1.7341 1 20027
12.41 0.33579 1.1582 1 20002
12.479 -3.77 0.91158 1 525
12.489 -7.1352 1.3419 1 1644
12.581 -3.5649 0.3036 1 483
12.586 -2.369 -0.89553 2 283
12.827 -6.8404 1.7 0 1484
12.89 -5.4983 2.3024 0 942
13.004 -0.065818 0.60642 1 20211
13.023 -6.6583 0.68207 1 1368
13.058 -7.0665 -1.0383 1 1508
13.155 -4.9893 0.98385 1 736
13.33 -6.6696 -0.69512 0 1309
13.415 -6.4244 2.0904 0 1216
