VERSION .7
FIELDS x y z intensity index
SIZE 8 8 8 8 8
TYPE F F F F F
COUNT 1 1 1 1 1
WIDTH 1534
HEIGHT 1
VIEWPOINT 0 0 0 1 0 0 0
POINTS 1534
DATA ascii
-8.7788 -0.23295 0.81931 0 13003
-8.6755 2.747 -1.0642 0 13513
-8.4985 3.0212 0.20941 0 13606
-8.4958 3.386 0.63953 0 13719
-8.4663 3.6042 0.64343 0 13810
-8.4352 4.4606 0 0 14084
-8.4204 0.45898 1.3855 0 13133
-8.4189 1.5771 1.6138 0 13343
-8.3588 4.6735 0.66966 0 14134
-8.3554 3.9961 1.5217 0 13980
-8.3346 2.3757 -0.40416 0 13461
-8.2669 0.69129 -0.1926 0 13188
-8.2652 1.3994 -0.98031 1 13314
-8.2604 5.4737 0.23007 0 14292
-8.2514 -0.41222 0.96614 0 12960
-8.177 0.27983 -0.18996 0 13100
-8.1727 -0.14694 0.57158 0 13015
-8.1347 -5.7853 1.64 0 12769
-8.0996 1.2278 1.3459 0 13289
-8.0804 -0.44894 0.75503 0 12953
-8.0673 -1.4457 1.5442 0 12826
-8.0371 4.8368 1.5411 0 14193
-8.0339 4.0424 -0.2088 0 14033
-8.0272 4.6738 1.0862 0 14165
-7.9625 3.0693 1.402 0 13682
-7.9558 -0.026382 -0.18471 0 13040
-7.8884 4.6522 1.2871 0 14175
-7.8852 4.5911 0.85126 0 14164
-7.8443 4.1796 -0.62153 0 14093
-7.824 0.15433 0.36493 0 13074
-7.8223 4.1103 -0.41208 0 14076
-7.7858 3.7772 -0.20091 0 13993
-7.743 -6.2881 0.93059 0 12711
-7.7267 0.91725 0.90992 1 13245
-7.7209 6.0019 0.22705 0 14526
-7.7198 4.5528 1.6886 0 14177
-7.7084 -5.6873 0.22241 0 12753
-7.6821 4.9964 0 0 14265
-7.68 5.4498 0.87857 0 14372
-7.6678 4.3772 1.2409 0 14151
-7.6543 0.90865 0 0 13243
-7.6415 -1.3021 1.4605 0 12830
-7.6348 0.59551 0 0 13176
-7.6308 5.3154 0.86761 0 14343
-7.5996 3.6346 0 1 13975
-7.5925 5.7588 0.22125 0 14491
-7.5514 -5.7402 0.22022 0 12742
-7.5199 5.3718 0.21456 0 14380
-7.4588 2.2932 -1.282 0 13492
-7.4535 4.2238 -0.59907 0 14143
-7.4179 1.4769 -0.52889 0 13361
-7.3706 1.1384 1.2253 0 13294
-7.3702 3.4462 0.56893 0 13948
-7.3338 -1.2036 -0.34658 0 12834
-7.312 5.856 -1.3166 0 14571
-7.306 1.279 -1.0424 0 13322
-7.2818 1.5159 -0.34686 0 13373
-7.274 4.6091 1.2102 0 14240
-7.261 1.9334 0.17445 0 13439
-7.2463 3.8887 0.19093 0 14101
-7.2413 1.3984 1.2117 0 13353
-7.2007 2.6793 1.2623 0 13647
-7.198 2.9918 0.54508 0 13771
-7.195 1.9859 0 0 13449
-7.1899 -5.7314 1.5106 1 12722
-7.1549 -0.90007 1.1848 0 12867
-7.1421 -6.5974 1.8319 0 12645
-7.1337 5.2517 0.61944 0 14437
-7.1253 -6.6584 0.68194 0 12637
-7.1204 5.1128 -1.232 2 14386
-7.0495 -1.2418 -0.16619 0 12827
-7.0442 -0.90613 0.99815 0 12864
-7.0244 4.199 -0.19 0 14184
-7.0231 -5.5645 1.6882 1 12727
-7.0034 2.1974 -0.17041 0 13508
-6.9736 6.1329 1.3052 0 14754
-6.9147 2.4799 -0.85905 0 13610
-6.8764 5.8048 0.83956 0 14675
-6.8711 -0.20393 -0.1596 0 12995
-6.8452 2.4793 1.1961 1 13621
-6.8093 2.4207 -0.84511 1 13603
-6.806 -6.3201 -0.43313 0 12641
-6.716 5.2528 1.1983 0 14543
-6.6448 1.1048 0 0 13309
-6.6287 0.94458 -0.46821 0 13278
-6.5733 3.9809 -1.4479 0 14197
-6.5499 -0.3639 0 1 12951
-6.4939 5.9152 1.0272 0 14843
-6.4594 1.2287 -0.76892 0 13345
-6.4588 0.14657 -0.90797 1 13076
-6.4288 3.0747 -0.33233 0 13974
-6.4288 3.5709 0.34295 0 14129
-6.4063 5.736 0.6013 0 14801
-6.3772 -0.46719 0.14846 0 12928
-6.3675 0.88697 -0.29981 0 13273
-6.3503 5.0242 1.3304 0 14561
-6.3234 3.5587 -0.16846 0 14139
-6.3106 4.844 -0.37099 0 14505
-6.2899 -0.9019 1.1972 0 12845
-6.2518 -6.191 0.41031 0 12623
-6.2184 5.8661 0.39866 0 14910
-6.2154 0.1226 1.0214 0 13075
-6.1823 2.0962 0 0 13567
-6.1767 -6.0108 0.40192 0 12626
-6.1754 4.4637 0.35534 0 14402
-6.1611 -4.0394 1.2104 1 12788
-6.1607 4.7581 0.72623 0 14516
-6.1308 -4.0195 1.3812 0 12789
-6.1293 4.7647 1.4627 0 14531
-6.0401 1.3324 -0.28844 1 13383
-6.0361 0.52278 0.70852 0 13194
-6.0221 0.39788 0.42203 0 13153
-6.0207 -5.0951 1.486 0 12687
-6.005 -7.9718 1.8804 2 12349
-5.9967 4.9768 1.4683 0 14646
-5.9902 3.3273 0.63928 0 14130
-5.9548 4.0226 -0.33512 1 14310
-5.9526 3.35 -0.31854 0 14138
-5.9498 1.9046 -0.29133 2 13522
-5.949 4.5122 -1.0494 0 14484
-5.9444 7.5567 0.67231 0 15602
-5.9402 3.5284 0.48313 0 14182
-5.9007 2.0977 -0.88013 0 13602
-5.8854 -5.2788 -0.18355 0 12659
-5.8734 -7.8941 0.22844 0 12329
-5.8638 -6.3679 0.8076 0 12562
-5.8506 3.0938 0.15366 0 14085
-5.8479 -0.25839 0.27298 0 12969
-5.8385 2.8767 1.0693 0 14013
-5.8076 -0.40916 0.95651 0 12932
-5.8003 -0.90208 0.68645 0 12839
-5.8003 -0.72966 0 0 12866
-5.7746 2.4393 -0.43835 0 13794
-5.7665 -0.74177 0 0 12861
-5.7641 6.4377 1.2144 0 15301
-5.7475 1.0238 0 0 13328
-5.7097 -4.3654 1.0101 0 12740
-5.6972 5.9681 1.5545 0 15156
-5.6945 -5.2879 -0.5434 1 12640
-5.6859 4.8579 -1.051 0 14689
-5.6805 0.75895 -0.67019 0 13263
-5.6621 -8.1893 1.3992 2 12221
-5.6515 4.5261 0.67551 0 14579
-5.6495 0.85642 0 0 13288
-5.6134 0.867 0 0 13293
-5.6022 3.8072 0.95194 0 14322
-5.5998 2.5202 -1.3053 1 13896
-5.5785 -8.0684 1.1471 1 12220
-5.5773 2.432 0.71154 0 13849
-5.5498 -8.081 1.1464 1 12210
-5.542 -7.9649 1.8282 0 12233
-5.5276 -8.0487 1.3722 2 12211
-5.5247 0.14081 -0.12831 0 13085
-5.5105 -5.1494 0.1751 0 12636
-5.4973 -8.1532 1.382 1 12183
-5.4769 4.1542 0.64133 0 14492
-5.4679 -8.0096 1.5933 1 12204
-5.4454 2.4131 0.55568 0 13874
-5.4401 -0.16146 0.7649 0 12996
-5.4325 -7.9578 1.3542 2 12203
-5.4302 7.6523 0.87541 0 15871
-5.4117 0.26373 -0.25267 0 13122
-5.3987 -0.79048 0.50905 0 12843
-5.3979 3.1002 -0.87484 1 14153
-5.3972 -8.0046 1.129 2 12182
-5.3936 -8.0477 1.1329 2 12171
-5.3832 -0.45677 0.50403 2 12909
-5.3786 -0.44031 0.50347 0 12913
-5.3678 -7.9133 1.3439 2 12194
-5.3434 -4.8502 -0.50462 1 12653
-5.3408 4.5922 1.1572 0 14709
-5.3313 -4.4846 1.1446 0 12690
-5.324 -8.1484 1.5992 1 12129
-5.3231 1.1237 -0.50756 0 13375
-5.3228 -0.56039 0.87934 2 12886
-5.3219 4.2362 -1.4458 0 14569
-5.3123 2.2988 0.951 1 13839
-5.3037 -8.4353 1.1652 1 12086
-5.2966 3.5538 0.59507 1 14306
-5.2811 2.7927 0.55735 2 14088
-5.2445 -0.24641 -0.24484 0 12964
-5.2426 2.2861 0.93965 0 13852
-5.2376 3.7415 -1.2127 0 14385
-5.2297 -5.616 -0.17817 0 12575
-5.2202 -7.7422 1.7593 2 12186
-5.2069 -8.2237 1.5992 2 12094
-5.1935 7.011 -1.4335 0 15746
-5.1862 8.1848 1.8256 0 16139
-5.1816 -6.037 0.93037 0 12504
-5.173 -4.2235 -0.15505 0 12706
-5.165 -5.2322 0.68591 0 12611
-5.1387 -8.5489 1.8793 0 12031
-5.1372 -7.7174 1.7467 0 12164
-5.1358 6.6498 1.5831 0 15652
-5.1224 -0.65892 0.11991 0 12862
-5.1057 0.51592 0.96686 1 13217
-5.0783 2.4823 1.065 0 14004
-5.0699 -8.0074 1.1083 0 12092
-5.0347 7.3145 1.673 1 15940
-5.0073 -0.70373 0.23581 0 12848
-5.0059 7.0544 -1.4211 0 15857
-4.9981 -4.6169 0.15797 0 12644
-4.9955 1.4089 0.85275 0 13457
-4.988 4.6255 0.31723 0 14874
-4.9754 -0.37847 0.34892 0 12922
-4.9725 -0.75913 0.46929 0 12841
-4.9719 1.4341 0.85016 0 13466
-4.9625 3.3928 0.28034 0 14328
-4.9618 1.7795 0.99316 0 13614
-4.957 4.7337 0.15913 0 14938
-4.9552 0.839 0.35143 0 13317
-4.9122 -7.8612 1.523 2 12079
-4.9044 -4.633 0.31462 0 12632
-4.8878 0.84251 0.34683 0 13321
-4.8875 2.8824 -1.0691 0 14176
-4.8703 1.9411 -1.1144 1 13722
-4.8693 4.0887 0.14762 0 14663
-4.8412 -4.9334 0.64486 1 12608
-4.8281 1.7649 0.11935 0 13626
-4.8263 0.56013 0.22658 0 13239
-4.8207 0.24926 0.56449 0 13128
-4.8153 2.8784 0 0 14185
-4.8139 0.053774 0.33664 0 13063
-4.7934 -0.26631 0.22388 0 12952
-4.7765 4.5059 -1.2372 0 14913
-4.7719 -5.3072 0.66585 0 12537
-4.7656 3.0794 0.93219 0 14259
-4.7515 4.6693 -0.46583 0 15007
-4.748 4.1303 -0.73593 1 14724
-4.7319 -3.4912 0.54862 1 12754
-4.729 -0.15357 0.44142 2 12990
-4.7274 0.78601 0.33511 0 13311
-4.7075 -5.027 0.80539 0 12580
-4.6809 4.1428 -1.4811 0 14768
-4.6554 3.2646 -1.0713 0 14356
-4.6471 2.2897 -0.85113 0 14005
-4.6462 -0.1379 0.87577 2 12998
-4.6432 4.1574 1.024 0 14804
-4.6103 1.9002 0.23254 0 13757
-4.5677 -5.6791 -0.33987 0 12436
-4.5554 4.2973 0.88013 0 14911
-4.5411 1.7943 0.11336 1 13709
-4.5368 1.7488 -1.2728 0 13680
-4.5207 -4.9093 0.46667 0 12561
-4.5154 3.5316 -0.13309 0 14538
-4.5125 1.8756 0.45591 0 13773
-4.5113 1.8889 0.45629 0 13785
-4.5066 1.767 0.11239 2 13699
-4.5042 0.45514 0.52941 0 13216
-4.4944 -6.9633 -0.19242 0 12109
-4.4783 1.1382 0.32311 0 13422
-4.4523 -4.6461 0.30009 0 12596
-4.4463 6.9259 0.76784 0 16103
-4.4406 3.9759 0.13838 0 14799
-4.4389 2.3652 -0.58819 0 14091
-4.4229 1.0423 0.85614 0 13404
-4.4196 1.6877 0.22062 0 13672
-4.409 -0.323 -0.10264 0 12926
-4.4024 3.241 -0.63929 1 14432
-4.3974 1.6363 0 0 13644
-4.3874 6.5786 0.36875 1 16008
-4.3845 -4.0008 0.69412 0 12650
-4.358 1.093 0.31418 0 13417
-4.3452 8.3934 0.21943 0 16550
-4.3425 2.6475 -0.47449 0 14199
-4.3401 5.3883 -0.80911 0 15526
-4.3195 3.6697 0.26431 0 14684
-4.3098 2.2178 0.56682 1 14054
-4.2957 5.2709 -0.79517 0 15495
-4.2887 -7.9484 -0.20969 0 11884
-4.2819 2.394 0.92428 0 14135
-4.2753 3.4448 0.90204 1 14592
-4.2725 3.223 -1.2681 0 14482
-4.2521 -5.9634 0.34155 0 12261
-4.2487 -4.7253 -0.44435 0 12536
-4.2347 0.69194 0.099621 0 13303
-4.2222 1.8131 0.21428 0 13822
-4.2207 2.3127 -0.22444 0 14118
-4.2187 -3.426 0.76378 0 12712
-4.2071 0.6995 0.099017 0 13310
-4.2044 -8.6089 1.1204 2 11762
-4.188 1.6972 0.10491 0 13740
-4.175 0.23927 -0.39015 2 13136
-4.1687 -4.9453 0.60343 0 12491
-4.163 1.2529 -0.81911 0 13485
-4.1593 7.6989 0.6119 0 16464
-4.1478 4.0519 -1.2325 0 14999
-4.1344 6.4822 1.0805 0 16121
-4.1292 -3.1388 0.97723 0 12743
-4.1271 -3.8567 1.0643 1 12638
-4.1225 9.0922 -0.46555 0 16853
-4.1192 7.6758 1.4312 0 16482
-4.1142 1.2649 0.81097 0 13499
-4.107 -0.6998 0.68447 0 12829
-4.0964 -2.7371 0.22975 0 12784
-4.0869 4.0162 -1.2179 1 15013
-4.0791 2.2806 -0.7678 1 14132
-4.0383 -2.8879 0.11526 0 12766
-4.0322 0.2085 -0.18829 0 13127
-4.0302 -0.17808 -0.2821 2 12968
-4.0244 -8.6856 0.66938 0 11706
-4.0093 1.4656 0.70133 2 13628
-4.0062 -8.7181 0.67092 1 11694
-4.0059 2.4906 0.88873 0 14222
-3.9872 -2.8356 0.11359 0 12768
-3.9626 6.543 -1.4412 0 16238
-3.9613 4.3964 -1.2579 0 15289
-3.9611 2.3361 0.53778 0 14174
-3.9565 -3.7375 0.38059 0 12633
-3.949 3.1054 0.58749 0 14553
-3.9428 -0.035785 0.091543 0 13033
-3.9143 0.70923 0.7495 0 13334
-3.9016 0.54348 0.55363 0 13274
-3.8934 1.123 -0.28335 0 13465
-3.8869 -3.2893 0.47505 0 12686
-3.8839 0.46107 0.73691 2 13246
-3.8736 0.63293 0.7395 0 13305
-3.8661 -3.2892 0.47356 0 12683
-3.8369 2.6727 0 2 14340
-3.8349 -4.4965 0.6911 1 12499
-3.8337 5.3707 -1.4026 0 15855
-3.8279 -0.52708 0 0 12852
-3.8267 7.7157 -1.415 0 16635
-3.8249 -4.5374 0.97499 0 12492
-3.8215 -7.136 -0.75521 0 11873
-3.8215 6.6083 0.35599 0 16329
-3.8156 0.54372 0.54166 0 13279
-3.8067 -0.046509 0.088387 1 13027
-3.7998 5.3886 1.0833 0 15884
-3.7887 -3.7728 0.49883 0 12620
-3.777 1.2572 0.37138 0 13550
-3.7402 0.59976 0 1 13300
-3.718 -4.1119 0.77909 0 12544
-3.7047 2.9851 -1.2455 0 14590
-3.7039 -3.8854 0.88194 0 12592
-3.6964 1.7544 0.19081 0 13968
-3.6891 8.1363 -0.20741 0 16855
-3.6702 4.3216 0.26441 0 15408
-3.6614 0.48919 -0.34463 1 13264
-3.6598 -0.37497 0.43022 0 12890
-3.651 -0.36313 0.42906 2 12893
-3.6476 -6.19 -0.67031 0 11998
-3.6472 -9.1649 0.68975 1 11515
-3.6333 1.0131 0.1759 1 13453
-3.6267 6.6188 0.70412 0 16438
-3.623 -0.12842 0.42395 0 12985
-3.6153 -7.5728 1.3787 1 11743
-3.6085 3.4243 0.1155 0 14925
-3.5893 -3.5743 0.59237 0 12621
-3.5883 5.663 1.1014 0 16138
-3.578 1.4747 0.54389 2 13760
-3.5575 5.5053 -1.235 0 16088
-3.5458 3.7575 0.24093 0 15180
-3.5275 -3.8536 -0.24363 2 12554
-3.508 0.45873 0.41373 0 13260
-3.4911 -0.47078 0.32865 0 12856
-3.488 -3.7693 0.72175 0 12569
-3.4868 3.3683 0 0 14967
-3.4721 -3.4989 0.92872 0 12617
-3.4539 -6.6775 -0.35059 0 11830
-3.4461 1.4324 -0.17404 0 13769
-3.4413 -8.5005 1.7278 0 11541
-3.4387 1.2679 0.085091 0 13635
-3.4352 4.2149 -1.2884 0 15505
-3.4135 1.7566 -0.089129 0 14051
-3.4021 4.274 -0.8975 0 15558
-3.3972 8.4507 1.0651 0 17164
-3.3958 0.78897 -0.16258 0 13398
-3.3781 -3.586 0.45963 0 12585
-3.3734 1.7471 -0.088201 1 14060
-3.3497 9.4173 0.23206 0 17452
-3.3345 6.5783 -1.2117 0 16588
-3.3303 5.9151 0.1576 0 16387
-3.3149 -2.4297 0.2874 0 12756
-3.3142 0.24803 0.54602 2 13171
-3.3057 -2.699 0.29842 0 12707
-3.2944 4.5846 0.5267 0 15839
-3.2869 1.0408 0.56645 0 13516
-3.2792 6.1959 0.16275 0 16507
-3.2789 0.71252 -0.31305 0 13379
-3.2776 1.5788 0.16966 0 13986
-3.2738 5.5489 0.90546 0 16292
-3.2559 8.8303 0.21851 0 17371
-3.2494 1.5764 -0.59336 1 13990
-3.2426 1.5731 0.16807 0 13995
-3.221 4.8923 -0.96235 0 16027
-3.2122 4.8457 -0.27112 0 16020
-3.1929 1.2939 -0.079984 0 13739
-3.1808 -3.6436 -0.11229 0 12518
-3.1596 -3.7244 -0.34153 0 12495
-3.1595 1.5219 -0.57618 1 13981
-3.1419 -4.0012 0.59492 0 12402
-3.1204 6.9367 -1.4331 0 16882
-3.1157 -3.066 0.20385 0 12624
-3.1147 -0.40066 0.21959 0 12863
-3.0946 8.7777 1.5291 0 17478
-3.0868 -2.4186 0.64427 0 12731
-3.0679 -6.7757 -0.34686 0 11667
-3.0658 1.845 0.16686 0 14191
-3.0657 1.4003 0.15717 0 13915
-3.0609 5.4013 0.14414 0 16373
-3.0594 3.1307 0.71917 0 15103
-3.0461 0.20125 0.28481 0 13154
-3.0431 -5.5239 -0.58838 0 11913
-3.0415 -0.3288 0.071025 0 12880
-3.0384 -0.31988 0.070932 0 12885
-3.0325 -3.4934 0.76002 0 12512
-3.0315 5.2044 0.70434 0 16319
-3.0154 3.7437 0.44848 0 15537
-2.9852 7.1856 0.5441 0 17077
-2.9822 -0.56134 0.57175 1 12821
-2.9715 1.4525 0.46484 1 14002
-2.957 -5.3324 0.28435 0 11919
-2.9462 1.9287 -0.4949 0 14271
-2.9425 6.1997 -0.96447 0 16743
-2.9415 2.3006 0.70358 0 14545
-2.9271 0.80791 0.57212 2 13450
-2.9142 1.4881 -0.53759 0 14043
-2.908 1.6701 -0.31286 1 14155
-2.9039 7.475 -1.127 0 17235
-2.903 3.7117 -1.3512 0 15619
-2.8965 4.3432 0.61049 0 16010
-2.8845 -4.5558 -0.25146 2 12089
-2.8621 4.5733 -1.0165 1 16172
-2.8497 -6.4918 0.82908 0 11635
-2.8446 -3.146 0.19779 0 12542
-2.8399 5.5615 -0.87763 0 16576
-2.83 1.3944 -0.90464 0 14010
-2.8281 1.4026 -0.90519 1 14018
-2.8273 4.2943 0.72259 0 16041
-2.8149 3.0356 0.28949 0 15222
-2.8123 2.503 -1.2721 0 14783
-2.8064 7.6771 0 0 17389
-2.7996 -8.673 1.7171 0 11313
-2.7967 -2.0252 0.32215 0 12760
-2.7743 4.0822 -1.2921 0 15969
-2.7735 2.6793 -0.63357 0 14956
-2.7632 4.8131 0.51778 0 16346
-2.7385 1.637 -0.14879 0 14183
-2.7152 2.2003 0.32605 0 14603
-2.6948 -3.5774 -0.10398 0 12342
-2.6854 2.3901 0.083466 0 14782
-2.6848 5.7394 -0.14711 0 16784
-2.6721 3.6296 0.21018 0 15776
-2.6673 5.5347 1.1576 0 16721
-2.6583 -1.9974 0.077199 0 12747
-2.6475 -2.2788 0.57391 0 12677
-2.6273 1.9569 -0.93937 0 14461
-2.6249 -1.9587 0.076039 0 12749
-2.622 4.7851 -0.76684 0 16426
-2.6211 6.9882 0.69632 1 17330
-2.6153 3.1896 0.67766 0 15491
-2.6074 -3.1295 0.66923 0 12480
-2.6065 1.9301 -0.93 0 14450
-2.603 3.5999 0.72987 0 15824
-2.5979 5.8624 0.14887 0 16911
-2.597 3.4425 -1.2365 1 15715
-2.5902 -6.5656 -0.16387 0 11500
-2.5892 2.4571 -1.3938 0 14922
-2.5844 -5.1051 0 1 11801
-2.5766 1.7721 0.072603 0 14333
-2.5694 -2.0607 0.46289 0 12719
-2.5594 -4.9842 0.78744 2 11825
-2.559 2.1488 -1.2162 0 14662
-2.5456 -2.7644 0.17525 0 12560
-2.5438 4.3393 0 0 16302
-2.5372 3.1132 0.65983 2 15507
-2.5261 -4.1498 -0.33971 0 12043
-2.525 2.8691 0.44695 0 15340
-2.5086 1.962 -0.44758 0 14532
-2.5032 3.8738 -0.75775 0 16073
-2.4973 -6.2755 -0.15681 0 11511
-2.4634 3.5788 -1.4681 0 15935
-2.4461 2.4325 0.56677 1 15038
-2.4282 2.125 -0.53013 0 14733
-2.4256 2.11 -0.52819 0 14722
-2.4181 2.9313 -0.99477 0 15475
-2.4169 2.4034 0.47903 0 15037
-2.4144 7.4661 1.2892 2 17657
-2.4076 3.847 0.4234 0 16169
-2.388 -7.2547 1.439 2 11332
-2.3848 2.824 -1.4433 0 15421
-2.381 -3.8596 0.31711 0 12064
-2.3803 -2.2628 0.61878 0 12631
-2.3697 2.822 -0.25768 1 15432
-2.3658 -9.6754 1.6364 0 11091
-2.3525 2.9906 0.62514 0 15604
-2.3517 -4.6116 -0.12019 1 11811
-2.3511 2.7841 0 0 15422
-2.3429 4.7552 -0.37069 2 16660
-2.3257 -2.2232 0.60619 0 12629
-2.325 4.1028 -1.4715 1 16374
-2.3249 2.7531 -0.42139 1 15415
-2.3137 2.3967 0.46818 0 15128
-2.3098 -9.3333 1.8115 0 11100
-2.3083 3.8115 0 0 16234
-2.2991 2.7702 0 1 15459
-2.2876 2.4816 0.07836 0 15236
-2.2849 3.1599 -1.3176 0 15822
-2.2774 2.1749 -1.0641 0 14939
-2.2737 4.3921 0.81255 0 16556
-2.2712 3.24 0.36915 0 15896
-2.2593 -8.7993 1.2768 0 11126
-2.2475 -4.5735 -0.47542 1 11766
-2.2416 3.9046 -1.1786 0 16347
-2.2413 3.8757 -1.172 0 16332
-2.2107 5.8381 0.87735 0 17310
-2.1822 -7.7478 0.37537 0 11186
-2.147 -4.369 0 0 11767
-2.1463 2.1841 -1.3634 1 15083
-2.1439 3.4685 -0.19015 1 16196
-2.1365 -5.4155 0.27149 0 11503
-2.1337 6.1758 -1.3889 0 17516
-2.1164 -8.7749 1.0556 0 11080
-2.1127 5.7796 -1.4581 0 17398
-2.0844 5.4104 0 0 17265
-2.0377 2.4702 -0.22392 1 15470
-2.0244 3.4754 0 1 16315
-2.0027 5.6303 0.9818 1 17460
-1.9318 7.0086 0 0 17914
-1.9269 2.9068 0.24387 0 16025
-1.9062 2.8583 0.24024 0 16009
-1.8751 3.4708 0.09159 0 16461
-1.8171 -3.023 0.081888 0 12025
-1.7939 -3.7847 0.78912 0 11735
-1.7803 5.1008 -0.12543 0 17487
-1.7777 -9.223 1.7697 0 10963
-1.7662 -6.0674 1.0382 0 11215
-1.7515 2.7461 -1.1006 0 16118
-1.747 2.4474 -1.0945 0 15851
-1.7352 2.7385 -1.0954 1 16135
-1.7335 -3.3993 0.17795 1 11812
-1.7224 6.777 -0.32608 0 18033
-1.7174 6.2907 0.3041 0 17935
-1.7117 5.9341 -1.3128 0 17853
-1.7107 -5.406 0.79691 0 11292
-1.6702 -4.197 0.21065 0 11514
-1.6613 -6.8878 1.3349 0 11082
-1.6385 4.1468 0.10352 0 17202
-1.5366 2.9034 -1.3721 0 16505
-1.5312 2.8749 -1.3605 0 16492
-1.5136 -4.5527 0.78823 0 11344
-1.5103 2.777 0.073393 0 16448
-1.4988 2.7354 0.072418 0 16436
-1.4967 5.7499 0.41547 1 18005
-1.4772 3.8342 -0.095396 0 17264
-1.4755 3.1087 0.079892 0 16752
-1.4555 3.8436 0.2874 0 17306
-1.451 -5.794 1.1254 0 11110
-1.4451 -6.4755 -0.30941 0 11031
-1.4435 5.1772 -0.50143 0 17892
-1.4383 8.5036 1.4169 0 18592
-1.4365 5.6521 -0.95813 0 18028
-1.4304 5.3646 0 0 17971
-1.3869 -5.8947 0.56497 0 11067
-1.3857 -7.7873 0.73793 0 10931
-1.3491 2.9521 -1.0967 0 16839
-1.296 9.2923 1.5414 1 18746
-1.2942 5.2178 -0.88323 0 18063
-1.293 3.8824 -0.77097 0 17596
-1.2701 -5.0047 0.36106 0 11117
-1.2636 -9.6894 1.1427 0 10831
-1.2404 5.6277 -0.94678 0 18238
-1.236 3.5059 -1.353 2 17470
-1.2316 5.6579 -0.95132 0 18257
-1.2148 4.4497 -1.2075 1 17940
-1.205 3.5155 -1.0656 1 17532
-1.1988 -8.8088 0 0 10841
-1.1911 7.58 1.4457 2 18661
-1.1898 5.0489 -1.3579 0 18146
-1.1884 6.5655 -0.15491 0 18505
-1.1867 6.7713 -0.32059 0 18543
-1.1796 3.6478 0.17879 0 17649
-1.1218 -4.2699 0.41188 1 11139
-1.1065 -3.3953 0.082909 1 11316
-1.0963 5.3454 0.38157 0 18346
-1.0896 -7.6751 1.2736 0 10857
-1.0801 -3.451 0.16863 0 11277
-1.0721 9.7264 1.1443 0 18881
-1.072 -3.321 0.49045 1 11311
-1.0666 3.269 -0.40211 0 17618
-1.0621 6.7592 -0.15885 0 18654
-1.0452 -5.1055 0.4862 1 10989
-1.0358 6.2296 0.2945 0 18602
-1.0266 3.2718 0.079613 1 17703
-1.0136 -9.2252 1.0853 0 10796
-0.98937 -4.6229 0.66441 0 11010
-0.98162 -4.8639 0 0 10981
-0.96309 -4.1518 0 0 11057
-0.95642 -2.9933 0.29317 0 11300
-0.94054 4.9398 0.82617 0 18451
-0.90632 7.8093 -1.4812 0 18847
-0.89493 -4.7227 0.22416 0 10956
-0.88954 -5.456 0.51574 0 10898
-0.88799 -4.5387 0.10737 0 10967
-0.86015 -7.8287 0.73478 0 10795
-0.85313 -4.9649 0.58912 0 10917
-0.82426 -5.5617 -0.13054 0 10868
-0.82353 5.1357 -0.36371 0 18637
-0.8188 9.4539 -1.1097 0 18973
-0.81584 -5.004 0.83298 0 10900
-0.78892 7.3699 0.17208 0 18892
-0.78552 4.1256 0.39182 0 18445
-0.77584 -7.6914 0.72121 0 10777
-0.76218 9.7937 0.91647 0 19009
-0.7616 -6.7473 0.15765 0 10803
-0.74826 2.9079 -0.20997 0 18015
-0.74707 -6.9906 0.32785 0 10788
-0.73991 8.5431 1.4088 0 18982
-0.7338 -4.5864 -0.10784 0 10891
-0.72803 -5.7148 0.53747 0 10826
-0.72679 -4.5426 0.75581 0 10892
-0.70267 -4.482 -0.10533 0 10886
-0.70175 -5.0378 -0.2372 0 10848
-0.70023 -5.7695 0.4064 0 10817
-0.68739 -7.2181 1.019 1 10766
-0.67452 -5.4308 0.12706 0 10822
-0.67449 -7.0826 1.1689 0 10767
-0.66286 6.7241 0.31509 0 18933
-0.6587 -3.7703 0.35708 1 10923
-0.65373 -7.325 0.6861 0 10756
-0.63751 -9.2797 0.8678 0 10712
-0.60978 5.0097 -0.11717 0 18812
-0.5861 -7.2686 1.1981 0 10737
-0.57539 -4.1307 0.78579 0 10851
-0.56557 -4.888 -0.22947 0 10808
-0.55566 -5.0574 0.83589 0 10797
-0.53076 -7.7258 0 0 10710
-0.50243 4.028 -1.0626 0 18802
-0.49762 -6.4087 0 0 10731
-0.4846 -7.0539 0.9937 2 10713
-0.4457 8.6197 -1.0093 0 19106
-0.44149 8.5383 0.1985 0 19112
-0.41701 7.2542 1.369 0 19097
-0.40295 -5.8654 0.96591 0 10714
-0.39302 -4.8741 0.92132 0 10738
-0.39246 9.098 0.84959 0 19152
-0.37852 -3.6504 0 0 10783
-0.35929 -8.4317 0.78735 0 10653
-0.34288 -5.6875 -0.26571 2 10688
-0.33333 -3.119 0.59101 1 10789
-0.32545 -4.9259 -0.11461 0 10703
-0.32162 -4.6815 0.32813 0 10711
-0.31285 -8.4915 0.59419 0 10640
-0.3111 7.7458 0 0 19162
-0.30457 -5.6056 0.2618 0 10677
-0.30234 -3.3876 0.078963 1 10755
-0.29412 -6.4275 -0.14938 0 10661
-0.294 -3.4084 0.079427 0 10749
-0.29018 -5.9545 0.27801 0 10667
-0.28244 -4.4644 0.84281 0 10698
-0.2738 -4.5417 0.85725 0 10689
-0.26802 -4.0567 0.66794 0 10704
-0.25047 8.0146 -1.3174 1 19183
-0.24047 9.3707 0.43714 0 19210
-0.24013 -6.5176 0 0 10639
-0.23768 -4.6437 0.43381 0 10673
-0.22352 -4.5866 0.42842 0 10668
-0.20369 -3.5542 0 0 10683
-0.19426 -3.0706 0.50549 0 10697
-0.17653 3.071 -0.88204 0 19092
-0.16361 -7.3802 0 0 10605
-0.15335 -9.248 1.7427 0 10594
-0.14557 -3.6402 0.59855 0 10647
-0.13123 -4.64 0.43306 0 10620
-0.1094 -3.8684 0.72913 0 10621
-0.090949 3.2158 0.074692 2 19201
-0.089632 6.5002 1.0681 1 19244
-0.082846 -3.737 0.61411 1 10606
-0.081199 3.1642 -1.236 0 19206
-0.07164 -9.1214 1.4986 0 10576
-0.071091 3.157 -1.2331 0 19219
-0.062035 -4.5566 0.21251 0 10588
-0.022577 -9.9509 1.8749 0 10565
-0.0086893 -3.8298 -0.1786 0 10564
0.0068174 -7.812 0 0 10558
0.025498 -6.6407 -0.30969 0 10551
0.02968 8.503 0.7933 1 19295
0.045263 -7.009 0.98507 0 10546
0.066779 3.1881 -0.67779 2 19350
0.076935 3.2407 -0.68902 0 19357
0.089123 9.6344 1.5829 0 19312
0.093452 6.2257 1.1731 0 19330
0.11166 6.1508 1.1591 0 19340
0.11229 9.1907 -1.0749 0 19314
0.13088 -8.5207 -0.19785 0 10528
0.1317 -7.2548 0.16846 0 10522
0.14683 -4.9184 0.45907 0 10501
0.15622 3.3374 -0.07757 0 19417
0.16422 3.2873 -0.94378 0 19431
0.17685 8.443 0.39382 1 19347
0.20235 -3.4363 0.16053 2 10446
0.20535 4.1104 -0.5784 0 19422
0.21055 6.4836 1.0658 0 19381
0.21624 -3.4955 0.16332 0 10441
0.22683 -5.4576 0.76768 0 10480
0.23411 -5.6327 0.52595 0 10479
0.23722 -7.2269 1.3623 1 10495
0.24489 -4.394 0.10217 0 10452
0.27442 7.7806 -1.0942 0 19383
0.29652 -4.0379 0.76283 0 10423
0.30016 3.0233 -0.64577 0 19555
0.32112 -7.2389 0.16823 0 10473
0.36435 4.4507 0.52221 0 19510
0.38112 -5.6486 0.52818 0 10433
0.39722 -5.638 0 0 10427
0.4428 -3.2793 0.076828 2 10285
0.47776 -4.795 0.11188 0 10364
0.48933 -4.7677 0.11127 1 10356
0.49122 -5.2356 -0.12209 0 10378
0.49504 -8.4069 0.78568 0 10447
0.51099 -4.062 0.28628 0 10308
0.51163 -9.1798 0.85776 0 10453
0.53203 -5.3397 0.25025 0 10365
0.53605 -8.6651 -0.20156 0 10440
0.54065 -4.004 0.56783 0 10287
0.54771 -6.2353 0.73198 1 10392
0.56286 3.6913 0.61346 0 19659
0.56496 -6.6308 1.0933 0 10399
0.56739 -6.2466 0.14562 0 10384
0.57117 4.2412 -1.014 0 19624
0.57496 -3.2019 -0.075528 0 10191
0.58082 -3.1834 0.3019 1 10185
0.58851 -3.0734 0.43979 1 10163
0.59735 3.3299 -0.078545 0 19701
0.59784 -3.0756 0.44034 1 10157
0.60053 -5.546 0.39008 1 10345
0.60654 3.4364 0.24401 0 19698
0.60881 -3.6303 -0.085462 1 10216
0.61775 -5.2745 1.0006 0 10328
0.62627 -8.8892 1.679 1 10428
0.63224 3.7781 0.62935 0 19685
0.63527 -5.2883 1.0035 0 10321
0.64364 9.5642 1.3472 0 19472
0.64543 3.7879 0.6313 0 19690
0.68812 -6.7045 0.94721 0 10358
0.70358 -3.9182 0.46553 0 10193
0.70719 -4.0025 0.76579 0 10199
0.71917 -7.6651 1.2649 0 10379
0.74476 3.1045 0.44869 0 19821
0.75322 5.138 -0.72982 0 19647
0.76099 3.1312 0.45287 0 19827
0.76166 -6.1942 0.58225 0 10315
0.76291 3.1391 0.15065 2 19826
0.77443 -4.9738 0.35199 0 10245
0.77931 4.4152 -0.5243 1 19695
0.78297 3.8553 0 0 19747
0.78321 3.1815 0.15279 0 19832
0.79262 -6.3008 0.59246 0 10309
0.79384 -9.0373 0.42307 0 10391
0.79534 -4.4292 0 0 10192
0.80294 4.011 -0.86949 1 19745
0.8083 3.023 -1.4812 0 19880
0.80924 -5.1974 0 0 10244
0.81497 4.3972 -0.73473 0 19708
0.82058 -6.3616 0.7501 0 10301
0.83462 6.4883 0.91938 1 19612
0.8405 6.367 0.14911 0 19617
0.84638 -3.2751 0.55575 2 10022
0.86282 -8.6596 1.2231 0 10366
0.88176 4.1555 0 0 19764
0.88982 -6.7498 0.15807 0 10294
0.89939 -4.4847 0 1 10145
0.91139 6.0983 -0.72106 0 19652
0.92163 -3.1497 0.30617 0 9934
0.93254 -4.1515 0.69906 0 10094
0.94584 -7.0048 0.32962 0 10286
0.95001 -7.365 0 0 10300
0.97052 -7.1875 1.1916 1 10288
0.97965 3.383 -0.41187 0 19935
1.007 -4.8036 0.3432 0 10125
1.0102 -8.0305 -0.18791 0 10307
1.0313 -7.3197 0 0 10274
1.0314 -5.0693 0.72704 0 10139
1.0536 -4.6264 0.22127 0 10086
1.0634 3.0095 0.60137 0 20132
1.0652 9.6022 1.3578 0 19575
1.0685 3.1989 0.63544 1 20060
1.0732 -5.9767 0.85341 0 10194
1.0849 3.2162 0.63952 1 20071
1.1171 -4.487 0 0 10043
1.1175 5.9372 -0.28174 0 19715
1.1224 -6.0561 0.57463 1 10178
1.1259 6.8607 -0.32422 0 19674
1.1347 -4.3908 0.21149 0 10021
1.1711 6.5286 0.30931 0 19702
1.1793 -6.9283 0 0 10209
1.181 -4.6297 0.78499 0 10029
1.2223 7.7173 0.36438 0 19667
1.2232 -3.7337 0.091218 0 9873
1.2417 -4.8679 0.35129 0 10028
1.2449 -4.5413 0.21959 0 9981
1.2679 6.7358 1.1261 0 19720
1.2864 6.7182 1.1238 1 19725
1.3464 3.1278 -0.89145 0 20378
1.3631 8.4442 1.6116 0 19672
1.3636 -2.9566 0.30376 1 9656
1.3644 3.3302 -1.123 0 20316
1.3659 -6.6131 0.3149 0 10132
1.3749 -5.7314 0 0 10059
1.3888 -5.9399 0.85731 1 10073
1.39 2.9646 -1.0217 0 20499
1.3914 -7.6261 0 0 10184
1.4036 -2.9296 0.15149 0 9619
1.4063 3.6071 -0.82291 0 20259
1.4142 2.7039 -1.4444 0 20684
1.4176 3.1179 0.07952 0 20452
1.4179 3.4282 -1.3503 0 20324
1.4221 6.7836 0.48467 0 19762
1.4255 3.1121 0.079474 0 20463
1.4337 3.7097 -0.84537 0 20251
1.4758 3.4285 -0.79339 0 20380
1.4823 -2.7211 0.1445 0 9499
1.4862 -6.9981 0.33363 0 10119
1.4871 6.5295 -0.3123 0 19791
1.4964 3.4764 -0.26466 1 20373
1.5105 7.7783 -0.73923 0 19727
1.5221 -8.9422 1.2748 0 10210
1.5306 -3.3664 0 0 9673
1.5447 -3.3709 0 0 9663
1.5449 -8.1916 0 0 10170
1.551 4.9281 0.24093 0 19998
1.5528 -4.0221 0.30149 0 9801
1.5776 4.1532 0.41448 0 20223
1.5798 4.2345 0.63519 0 20201
1.5876 -3.8424 0.19388 0 9762
1.6139 3.4689 0 0 20485
1.6221 9.3518 -0.22036 0 19693
1.6418 3.9383 0.099064 0 20335
1.6514 3.6866 -1.365 0 20430
1.6538 -4.139 0.20786 0 9780
1.6891 -8.562 1.4338 2 10151
1.6998 -9.0133 0.85572 0 10171
1.7033 8.0274 0.95964 0 19767
1.708 -4.0991 0.4143 1 9756
1.7145 4.4362 0 0 20247
1.7185 -8.1975 1.3761 1 10126
1.7716 -8.7079 0.62139 0 10138
1.7772 -4.3011 0.43418 0 9763
1.7778 -3.3534 0.3541 1 9526
1.7809 3.265 -1.1605 0 20783
1.817 -3.4521 0.36395 0 9532
1.8425 -3.4521 0.36507 0 9519
1.8569 -2.7991 0.47208 0 9343
1.8744 8.4688 1.425 0 19784
1.8785 8.7179 0 0 19771
1.8798 6.9428 0.67105 0 19893
1.8885 3.7176 0.29158 0 20633
1.8924 6.6788 0.9756 0 19924
1.8927 6.0138 0.58819 0 19999
1.8968 -8.3288 1.2005 0 10087
1.9059 3.778 0.79726 0 20621
1.9165 3.2627 0.17646 0 20981
1.9307 3.9992 -0.1031 0 20544
1.9394 -4.891 0.86443 0 9787
1.9488 -2.7596 0.15755 1 9217
1.9536 -2.5879 0.15121 1 9078
1.9608 -6.9991 1.0215 0 9966
1.9668 6.5806 0.64077 0 19960
1.9701 -5.8983 1.1716 0 9866
1.9717 -7.1924 0.5215 0 9982
1.9722 -7.922 -0.18954 0 10042
1.9757 -8.2357 0.59223 1 10060
1.9775 -2.924 0.66507 0 9311
2.0114 8.8319 0 0 19792
2.0371 3.2702 -1.1048 0 21161
2.0444 -3.4804 0.37658 0 9452
2.0535 3.2321 -1.2939 0 21219
2.0616 -4.6435 0.95724 0 9701
2.0713 9.6127 -0.45857 0 19770
2.0871 9.4299 0.90105 0 19783
2.0998 -3.3075 0.1827 0 9396
2.1084 -5.6997 0.42496 0 9829
2.1102 -4.338 0 0 9606
2.1102 6.7708 0 0 19990
2.1206 -9.7014 1.3956 0 10107
2.1384 6.221 -1.2394 0 20094
2.1456 8.7155 1.4746 0 19834
2.1569 3.2489 0.6407 1 21370
2.1686 8.0096 -0.77416 0 19888
2.235 -3.7567 0.20385 0 9444
2.2361 9.0831 -1.0939 0 19829
2.2461 -5.307 0.94678 0 9743
2.2472 8.4041 1.4293 0 19886
2.2492 2.296 0.37586 0 93
2.2894 -5.6353 0.71131 0 9769
2.3076 -3.3715 0.19053 0 9277
2.366 -3.5223 0.69712 1 9322
2.3669 -6.1309 1.0797 0 9803
2.3749 -3.426 0.78542 0 9260
2.3783 -3.4093 0.78319 0 9249
2.3822 8.4075 -1.0219 0 19916
2.3986 -4.494 0 0 9518
2.4008 7.4065 0.18077 0 20025
2.4322 -3.955 0.21652 0 9420
2.4816 3.5113 0.60429 0 21567
2.4988 3.9849 0.43882 1 21180
2.5495 -4.4625 0.35939 0 9464
2.5682 -4.1762 0.4574 0 9421
2.5831 -5.9548 0.3027 0 9721
2.5839 7.9713 1.3767 0 20026
2.6005 -9.6044 1.1636 0 9992
2.6051 6.7409 0.84511 0 20249
2.6126 -7.1936 0.53517 0 9837
2.6175 2.5374 -1.2318 0 236
2.6313 -9.5987 0.92855 1 9983
2.6422 8.3952 1.6582 0 20002
2.7092 -2.7386 0.7258 0 8478
2.7114 3.8366 0 0 21559
2.7139 1.6197 0.36959 1 2036
2.7283 6.5964 -1.1728 0 20317
2.7606 -9.4344 0.68738 0 9933
2.7662 -8.5339 0.83696 0 9878
2.7782 -6.308 1.2987 0 9709
2.7844 -6.5788 1.004 0 9741
2.8038 1.609 0.53111 0 2181
2.8039 -8.9969 1.5483 0 9897
2.8118 -7.406 1.3015 1 9814
2.8305 5.6108 -0.1459 0 20613
2.8488 4.2379 0.23813 0 21401
2.8501 4.9847 -0.40152 0 20904
2.8517 2.0206 -0.081145 0 1412
2.872 7.1228 0 0 20293
2.8979 -4.0537 0.70032 0 9198
2.9067 9.2356 1.5907 0 20001
2.9073 -4.3527 -0.2441 1 9327
2.9236 8.7529 1.5162 0 20059
2.9267 6.0623 1.106 0 20548
2.934 -4.0073 0.23161 1 9147
2.9354 8.4625 0.83566 0 20106
2.9432 1.6107 -1.4014 2 2325
2.9809 6.4073 -0.49415 1 20483
2.9842 7.2151 0.18128 0 20325
2.9862 1.5892 0.47542 0 2419
3.0017 1.6305 -1.4268 0 2348
3.0124 -1.5835 0.3175 0 7520
3.0137 -1.9474 0.16733 0 7901
3.023 -6.7046 1.3857 0 9685
3.0357 -3.901 0.93132 0 9012
3.0581 -3.2944 0.31432 0 8585
3.066 -0.92393 0.37447 2 6727
3.08 -0.91877 0.37586 1 6717
3.0834 -4.8269 0.80498 0 9393
3.092 -4.4888 0.38115 0 9267
3.1186 1.2209 0.077756 0 3219
3.1307 0.053008 -0.072696 0 5562
3.1399 1.0953 0.54635 0 3483
3.1467 1.0878 0.54699 0 3505
3.1736 0.71812 0.30357 0 4268
3.1803 3.2876 0.42675 0 22526
3.182 8.4478 1.7008 0 20212
3.1859 -7.3446 0.18587 0 9720
3.1887 -4.9573 1.1105 0 9388
3.2034 -0.31749 -0.074739 0 6063
3.2058 6.0039 0.15802 0 20738
3.2064 -6.448 1.0121 1 9588
3.2086 -0.61207 0.15233 0 6378
3.2164 -0.32841 -0.075064 0 6073
3.2172 -2.5145 0.67085 0 8232
3.2205 0.47843 0.38074 0 4770
3.2215 9.4575 0.46593 1 20079
3.2256 1.4388 0 0 2897
3.2309 1.613 0.25252 0 2602
3.2322 8.7379 1.0895 0 20190
3.2359 2.0607 0.53916 0 1803
3.2367 9.416 0.92892 0 20089
3.2373 -2.9313 0.82282 0 8379
3.2786 5.5483 1.2142 0 21009
3.2817 3.5965 0.7999 0 22355
3.2963 0.10474 0 0 5477
3.3064 -0.24048 -0.076967 0 5977
3.3069 1.6618 0.2588 0 2580
3.3229 0.14276 0 0 5410
3.325 5.3026 -0.58392 2 21173
3.3293 -1.5334 0.69062 0 7271
3.3321 -5.9063 0.4742 0 9470
3.3439 -7.7682 0.5914 0 9728
3.3469 -0.23404 0.077895 0 5966
3.3496 0.48747 0.39584 0 4788
3.3532 0.8516 0.56839 1 4095
3.3661 3.0791 0 0 434
3.3669 3.0604 0 0 455
3.4069 7.2663 0.37425 0 20498
3.422 1.7837 0.089594 0 2475
3.4436 4.2707 0.77102 0 21986
3.4527 0.05846 0.65062 0 5570
3.4636 2.4234 0.49434 0 1470
3.4735 1.5727 0.71839 0 2865
3.4831 7.2633 -0.37565 0 20528
3.4837 -2.9067 0.21158 0 8306
3.4967 2.729 -1.4988 0 1043
3.4992 6.373 0.85022 0 20804
3.5007 -6.0028 0.48592 0 9456
3.5176 -1.9266 -1.4597 0 7591
3.5362 7.374 0.57186 0 20531
3.5454 1.6187 0.73431 0 2844
3.5527 -5.319 0.74801 0 9330
3.5887 5.4055 0.15064 1 21361
3.5981 1.4808 0.090336 0 3097
3.6003 1.1172 -0.35169 0 3717
3.6031 1.1057 -0.087505 1 3746
3.604 -0.011322 0 0 5666
3.6073 -6.5726 0.69948 0 9493
3.6199 -6.9273 0.7292 0 9540
3.6271 -8.1009 1.6723 0 9693
3.6286 1.5067 0.091218 1 3077
3.6449 0.60603 0.25838 0 4650
3.6549 3.0096 0.77785 0 845
3.6602 8.7801 1.5628 1 20337
3.688 0.60261 0.26131 0 4672
3.6881 -7.4166 1.3608 0 9590
3.6884 1.444 -0.091961 0 3216
3.6988 -2.2996 0.82059 0 7833
3.7141 1.466 -0.092704 0 3196
3.7207 1.1064 0.73135 0 3816
3.7499 -7.8267 1.2197 0 9620
3.7499 -0.5698 0.088062 1 6251
3.752 8.7923 0.22194 0 20364
3.7533 -0.24008 -0.087319 0 5944
3.8031 -2.3042 -0.41486 1 7777
3.8088 -0.56854 0.089408 1 6241
3.8418 4.8194 0.28742 0 21947
3.8508 -2.6644 0.10872 0 8026
3.8512 -6.8265 0.18197 0 9469
3.8676 6.9032 1.4908 0 20863
3.8858 3.7225 0.75627 0 277
3.9129 -4.0013 0.12993 0 8495
3.9204 4.0996 0.1317 0 22489
3.9274 6.7778 0.36531 0 20947
3.9356 7.4741 1.1871 0 20709
3.947 0.75007 0.18736 0 4495
3.9475 -2.8523 -0.34055 0 8105
3.9646 -2.1715 0.42173 0 7595
3.9667 0.74236 0.1882 0 4514
3.9757 1.0341 0.4804 0 4054
3.9914 -5.4795 1.1138 1 9163
4.0161 -1.837 0.83207 2 7257
4.0452 4.1787 0 1 56
4.0456 -2.9426 0.23329 0 8118
4.0556 1.8091 -0.1031 0 2895
4.0727 4.1575 0.95619 0 96
4.0731 1.5132 0.40538 1 3345
4.1042 -2.5517 -0.22537 1 7826
4.1123 1.0063 0.39498 0 4147
4.1228 -0.39553 0.48435 1 6053
4.1302 2.907 0.11726 0 1441
4.1409 0.86206 0.29577 0 4379
4.1905 3.0234 0.36134 0 1351
4.2072 -2.771 0.35227 0 7935
4.2264 0.14464 -0.098182 0 5460
4.2417 -0.88614 0.20208 0 6425
4.2806 -3.7632 0.93641 1 8351
4.2876 1.6074 0.21354 0 3321
4.295 -6.2751 1.4327 0 9283
4.3009 1.8888 0.88503 0 2949
4.3183 0.31105 0.60846 0 5245
4.3246 -2.8483 0.24149 1 7933
4.3298 1.6085 0.2154 0 3342
4.33 -8.0015 1.7141 0 9508
4.3331 1.6824 0.87577 0 3244
4.3613 -5.1573 0.15681 0 8789
4.365 4.5122 0 0 22522
4.3752 1.7429 0.43938 0 3180
4.3816 0.2143 0.82652 0 5385
4.3849 -6.3658 0.17947 0 9265
4.4061 0.30501 0.62071 0 5263
4.4174 -0.69727 0.73473 1 6273
4.4317 2.4586 0 0 2283
4.472 5.0158 1.104 0 22288
4.4897 -2.8625 0.8748 0 7878
4.5393 8.2128 1.3188 0 20825
4.5414 -6.7609 -0.75986 0 9313
4.5505 -3.8183 0.55419 0 8314
4.5687 -6.8015 1.1515 0 9320
4.5784 2.5925 0.86443 0 2224
4.611 -4.0323 0.57147 0 8347
4.6328 -2.5207 0.74124 0 7582
4.6415 1.1203 0.22267 0 4166
4.6441 4.8819 0 0 7
4.6537 7.7696 1.7064 0 21053
4.6775 0.63825 0.22015 0 4844
4.7044 5.4004 0.16628 0 22211
4.7085 5.8 1.0499 0 22005
4.7183 -0.11119 0.6633 1 5772
4.7291 2.2597 0.3665 0 2719
4.7342 7.4513 0 0 21217
4.7544 -2.6408 0.76434 0 7620
4.7723 4.8175 1.1141 0 129
4.7806 -2.6751 0.76991 0 7633
4.7837 6.145 1.0945 0 21882
4.7937 -0.65836 0.11234 0 6201
4.798 -3.2192 -0.40403 1 7965
4.7998 -4.4229 0.30438 1 8387
4.8097 -0.67424 0.11276 0 6213
4.8287 -7.6531 1.2718 0 9403
4.8409 4.8578 1.1267 0 147
4.8707 8.63 1.8671 0 20882
4.873 5.793 0.17575 0 22106
4.8782 2.2437 -0.62791 1 2809
4.9009 -0.2577 0.92465 0 5905
4.9015 3.1636 0.40794 0 1753
4.9579 -0.18786 0.81514 0 5847
4.9826 7.897 0.21679 0 21198
4.9907 -7.759 0.64511 0 9383
4.9916 3.0805 -0.27354 0 1905
4.9948 4.113 0.15022 0 834
5.0379 2.058 0 0 3115
5.0431 6.2544 1.32 0 21988
5.0592 -8.3372 1.3706 0 9432
5.0725 -3.2141 0.70225 0 7864
5.096 1.597 0.8774 0 3710
5.1043 7.0513 1.6401 0 21655
5.106 -6.41 0.38217 0 8943
5.1061 1.5845 0.87837 0 3734
5.1091 2.4775 1.0698 0 2685
5.1161 -6.4227 1.154 0 8948
5.1421 -8.1497 1.1269 0 9401
5.1488 1.7448 0.50719 0 3542
5.1498 -3.1818 0.2823 0 7818
5.1524 -3.1834 0.85118 0 7821
5.1898 -0.39205 0.12084 0 5989
5.1951 1.3039 0.87999 0 4113
5.2108 2.2885 0.66554 0 2945
5.2315 2.9202 0.41896 0 2263
5.2332 -7.9365 1.3361 0 9352
5.2388 -4.1941 0.62609 0 8261
5.2553 1.6308 0.64347 1 3731
5.3005 -0.96326 0.63 0 6351
5.3136 3.341 0.43891 0 1843
5.3674 2.4506 0.13699 0 2837
5.395 2.1852 0.54305 1 3139
5.4516 2.3377 0.83365 0 3003
5.454 6.2234 1.3595 0 22235
5.4588 -5.4569 1.2681 0 8461
5.4737 -4.1502 1.2942 0 8194
5.4776 -6.4044 0.5893 0 8764
5.4858 0.15707 -0.7713 2 5488
5.502 3.5038 0.30419 0 1796
5.5213 1.5219 1.0791 0 3956
5.5252 3.497 0.30494 0 1817
5.5357 -0.27461 -0.12868 0 5890
5.5567 0.59483 0.12975 0 5023
5.557 0.12708 -0.12905 0 5528
5.5812 -0.00097409 0.78438 2 5654
5.5978 -2.7181 0.87456 0 7371
5.6334 0.52061 0.52781 0 5115
5.6672 5.0369 0 0 535
5.6939 1.4461 1.1068 0 4097
5.7545 0.16476 0.94581 0 5502
5.8289 7.3122 0.6539 0 21949
5.8337 4.9456 0 0 716
5.8444 -5.8424 0.19186 0 8457
5.8693 -5.043 1.2713 0 8339
5.9059 2.6542 0.30195 0 2879
5.9649 5.0568 0.18155 0 718
5.9684 -3.8567 0.16498 0 7899
5.9723 5.7212 1.5582 0 280
6.0023 7.3491 1.559 0 22024
6.0318 3.1869 1.2853 0 2443
6.0461 -4.4234 0.69892 0 8131
6.0469 0.52478 0.56627 0 5152
6.068 -2.6058 0.46179 0 7154
6.078 -2.0644 0.29935 1 6840
6.0797 -3.3548 0.64783 1 7608
6.0812 1.8662 0.29664 0 3750
6.0973 2.2857 0.76148 0 3325
6.1152 3.9214 0.84953 0 1779
6.1154 -3.2352 0.32264 0 7532
6.1249 1.9007 0.29907 0 3726
6.1286 0.94547 0.57853 0 4730
6.1658 -5.2031 1.3255 0 8323
6.1693 2.7933 0.15723 0 2857
6.2263 -4.8663 1.1106 0 8231
6.2603 -5.6685 0.78791 0 8378
6.2634 6.6676 0.42661 0 22437
6.3154 7.6885 -0.69575 0 22031
6.3715 -2.0616 0.3123 0 6791
6.3793 -5.3833 0.97613 0 8322
6.3858 -1.3341 0.60863 1 6427
6.392 4.4475 1.4671 0 1496
6.4268 -1.0905 1.071 0 6314
6.432 7.0885 1.5726 0 22338
6.4331 2.3072 0.63761 0 3420
6.4412 -7.2702 1.83 0 8690
6.473 -5.7228 1.6279 0 8356
6.4741 0.75252 0.60807 0 4976
6.5172 4.56 1.4986 0 1475
6.5607 -3.4488 0.34565 0 7518
6.5749 -3.9568 -0.35785 0 7768
6.6028 -1.6806 0.47644 0 6576
6.6358 -3.9416 1.0847 0 7749
6.6463 -3.4672 1.0535 0 7506
6.6558 -6.4207 0.43127 0 8414
6.6791 2.6606 1.3546 0 3185
6.6935 -1.85 0.32385 0 6652
6.7126 1.0356 0 0 4725
6.7133 2.2098 1.3316 0 3608
6.7661 -3.2621 0.70078 0 7355
6.7773 0.58817 1.1177 0 5156
6.7983 -3.1802 0.70022 0 7295
6.8167 -2.8333 1.3909 0 7102
6.8317 -4.1914 1.5101 0 7808
6.8358 1.402 0.16201 1 4395
6.8476 -4.6799 1.5627 0 8007
6.868 -0.83963 0.48383 0 6148
6.8751 0.21846 0.32077 0 5479
6.8966 1.5201 0.16396 0 4305
6.9107 6.1033 0.42997 0 558
6.9273 -5.1578 0.40276 0 8161
6.9284 0.84457 0.65117 0 4941
6.9298 -2.9045 0.3504 0 7112
6.96 -4.1342 0.37751 0 7746
6.9952 2.7866 0.35115 0 3177
7.0049 5.8362 -0.21168 0 784
7.0449 3.1189 1.4516 0 2928
7.064 -5.2941 1.4503 0 8174
7.0643 -3.8165 0.37444 0 7568
7.0712 -3.5859 1.4938 0 7455
7.1002 0.69868 1.3442 0 5083
7.1266 3.4053 1.11 0 2723
7.165 -2.7403 1.2603 1 6982
7.1773 6.7589 1.1529 0 333
7.1928 3.4092 -0.1848 0 2736
7.1955 0.91921 0 0 4897
7.1985 4.8244 -0.20119 0 1624
7.1996 -5.5946 1.498 0 8222
7.2201 -5.7431 1.7382 0 8255
7.2357 -5.1345 0.62041 0 8076
7.2809 0.44277 0.68053 0 5315
7.3021 1.6309 -0.17371 0 4282
7.3205 1.7022 1.416 0 4232
7.3811 1.2484 0.1738 0 4629
7.4239 -4.3504 0.40127 0 7720
7.4377 3.0383 1.32 0 3122
7.445 -4.5106 1.6401 0 7785
7.4593 -0.28265 1.0491 0 5845
7.4637 -5.4927 1.746 0 8143
7.4655 4.1946 1.4069 1 2247
7.4857 -5.312 1.508 0 8078
7.4943 0.91355 0.35208 0 4938
7.5421 -4.2758 1.4244 0 7656
7.5695 1.1475 0.17775 0 4744
7.586 1.15 0.71583 0 4748
7.59 1.832 0 0 4163
7.6851 5.1798 -0.86464 0 1596
7.7054 1.1681 1.0953 0 4751
7.7524 2.934 0.38655 0 3299
7.7555 -4.9446 1.2926 0 7877
7.7573 3.062 0.77806 0 3202
7.7942 2.617 -0.19089 0 3556
7.819 -1.4915 1.4997 0 6382
7.8538 -5.4342 0.89102 0 8030
7.8563 -4.6963 1.7245 0 7762
7.8721 -5.4468 1.1195 0 8031
7.8804 1.0305 1.3057 1 4883
7.9401 0.34112 1.3057 1 5417
7.9474 0.59757 0.18504 0 5222
8.0182 -0.074172 1.3174 0 5701
8.0315 -2.119 1.1674 0 6611
8.051 4.2844 0 0 2412
8.0536 4.9701 0.44133 0 1911
8.1341 4.5404 0.8691 0 2265
8.1388 -2.7929 0.80277 0 6851
8.1434 1.9927 1.1782 0 4150
8.1566 4.3096 1.0788 0 2438
8.1656 -0.12115 1.3417 0 5730
8.1864 1.4082 1.3647 2 4615
8.244 -0.22164 1.159 0 5788
8.2689 -1.4298 0.78289 0 6323
8.2891 -1.6293 0.19613 0 6394
8.2905 4.7576 0.66841 0 2175
8.2959 -4.176 0.8665 0 7439
8.4176 1.4737 1.6101 0 4594
8.4452 2.5659 0.41161 0 3772
8.4759 -0.12575 1.5971 0 5732
8.4868 2.4721 1.4523 0 3854
8.5128 -2.2206 0.20425 0 6598
8.5329 -4.871 -0.45819 1 7663
8.5682 -4.8575 -0.45931 2 7650
8.5688 -4.0687 -0.44236 0 7318
8.6018 -0.25079 -1.2094 1 5793
8.6163 -4.5294 -0.68068 1 7512
8.6261 -1.2092 -1.2242 1 6206
8.6367 -4.1306 -0.44646 0 7332
8.6932 -4.8645 -0.69659 2 7626
8.7226 -4.8809 0.23206 2 7630
8.7326 1.4269 0.41264 0 4670
8.7383 -4.7861 -0.46462 2 7589
8.7622 -4.4761 0.22844 2 7464
8.7752 -4.4828 -0.68905 2 7460
8.7911 0.88986 0 0 5056
8.7916 -4.4911 1.86 0 7469
8.7923 -4.4915 -0.92112 2 7459
8.8063 -3.6333 1.3388 0 7088
8.9241 1.1147 1.4776 0 4923
8.945 1.3289 -1.2709 1 4755
8.9464 0.25615 1.2578 0 5500
8.9551 -3.4519 1.5768 0 6993
8.956 1.222 1.703 0 4851
8.958 1.4637 -1.2757 1 4657
8.9732 3.1301 -0.22064 0 3474
8.9817 -3.6745 -0.67859 0 7070
8.9836 1.3346 -1.4922 1 4754
8.9894 1.3627 -1.4938 2 4735
8.9972 2.9912 -1.1088 2 3570
9.0099 -3.9307 -0.68738 2 7173
9.0132 -4.1838 -0.92706 2 7275
9.017 1.2592 -1.2796 0 4812
9.0454 1.5299 -1.2893 0 4618
9.047 -2.0521 -1.0848 0 6470
9.0898 -3.5038 -0.90885 0 6987
9.145 -2.0509 -1.096 0 6461
9.1866 -3.4219 -1.1464 1 6940
9.2142 -3.5241 -0.92037 0 6973
9.2328 0.29338 1.7404 0 5486
9.2439 -3.4102 -1.1522 1 6928
9.25 0.18568 0.86315 0 5547
9.2525 -3.3238 1.3817 2 6902
9.253 -2.4413 1.803 2 6615
9.2728 -3.1206 1.375 0 6831
9.2747 -2.4765 1.3491 2 6623
9.2975 -2.0238 -1.1127 0 6446
9.3384 -3.2045 -1.3876 2 6847
9.3578 -3.1784 1.3889 0 6842
9.3864 0.89884 1.3252 0 5100
9.4006 -2.6282 1.6037 2 6663
9.4128 -0.13965 1.1009 0 5727
9.4215 -2.8697 1.1518 0 6735
9.4397 -3.2393 1.1671 0 6852
9.4473 -1.7748 0.67217 0 6370
9.4682 -2.6756 1.1506 0 6671
9.5392 -2.3413 1.6137 2 6548
9.5668 0.80166 0.89566 0 5172
9.582 -2.0612 -1.1462 1 6437
9.8003 -0.65781 1.6137 0 5958
9.809 1.7172 1.3995 0 4590
9.8611 0.65498 1.3889 0 5283
-14.327 -1.261 0 0 12905
-14.08 0.35885 2.6536 0 13087
-13.942 -2.3331 1.6531 0 12832
-13.628 5.7567 -0.34347 0 13796
-13.534 0.85621 -1.9058 1 13144
-12.448 0.39119 0 0 13096
-12.386 3.6876 1.8162 0 13478
-12.373 1.3616 1.1613 0 13230
-12.02 -1.2655 -0.56366 0 12884
-11.964 6.1964 -1.8936 0 14056
-11.905 1.2744 1.9672 0 13225
-11.848 -1.9104 0.83917 1 12837
-11.778 -8.4787 0.33693 1 12763
-11.75 5.8277 0 0 14015
-11.65 -0.14234 -0.2705 0 13026
-11.603 2.3101 0.27468 0 13363
-11.551 2.7901 2.2389 0 13409
-11.386 7.6394 -1.927 0 14299
-11.378 -7.6976 0.64062 1 12781
-10.942 2.5141 0.26066 0 13393
-10.74 -7.7773 2.1786 0 12761
-10.682 2.0957 -0.76118 1 13356
-10.617 0.76661 0.49639 1 13165
-10.596 1.1998 0.99487 0 13234
-10.518 3.1656 1.5437 0 13484
-10.479 6.8156 0.29023 1 14267
-10.464 3.4182 1.027 0 13536
-10.38 3.2569 0.25258 0 13509
-10.336 8.781 0.31488 1 14683
-10.305 4.1425 1.2988 0 13730
-10.283 5.6343 0.5468 1 14119
-10.038 10.578 2.3958 0 15168
-10.037 -8.899 1.8852 0 12666
-9.9306 1.7689 1.4176 0 13329
-9.8321 -7.0781 0.56496 1 12764
-9.747 7.0453 0.84098 1 14404
-9.6736 3.16 1.1901 0 13537
-9.6697 3.6597 0.96459 0 13663
-9.6297 5.5687 -0.51875 0 14159
-9.5445 -7.9804 1.4549 0 12693
-9.4303 4.179 -0.48102 0 13870
-9.3904 -7.6668 2.284 0 12708
-9.3691 6.1707 2.1137 0 14287
-9.2115 -10.485 -0.65086 0 12522
-9.1674 -6.0517 1.8047 0 12786
-8.8454 -7.5707 0.27031 0 12680
-8.6519 7.8809 -1.9227 0 14834
-8.4938 9.1021 -1.7497 2 15201
-8.4119 6.9367 -0.25314 0 14628
-8.3344 -6.1806 1.4583 0 12751
-8.3092 -8.9794 0.85549 1 12568
-8.3045 -7.3627 1.2979 0 12665
-8.3041 -6.051 -0.47916 0 12758
-8.2961 9.6519 -1.4884 2 15379
-8.2839 12.497 -1.3988 2 16018
-8.2271 -6.5184 0.97927 0 12726
-7.9323 8.217 2.1518 0 15130
-7.818 -6.4952 1.4285 0 12696
-7.8078 7.7211 2.0689 0 15028
-7.8047 8.7629 -1.9279 0 15303
-7.7319 9.7728 1.7514 0 15586
-7.6221 -8.4296 1.0603 0 12543
-7.5577 -11.071 1.5676 0 12202
-7.3383 -10.357 1.1842 2 12254
-7.3335 7.9975 1.0123 0 15252
-7.274 8.8713 1.0703 0 15489
-7.2451 -8.5947 0.26098 0 12490
-7.0547 9.1343 0.53822 1 15650
-6.8853 -11.236 0.61453 2 12054
-6.8528 8.5599 2.0659 0 15556
-6.7304 9.8442 0.55611 1 15954
-6.681 -10.902 0.29687 1 12053
-6.4799 -9.5529 1.8965 2 12195
-6.4242 10.747 -0.29069 0 16260
-6.1357 -8.4482 -0.24241 0 12289
-5.9944 -13.656 2.0959 1 11636
-5.9428 -11.909 0.93069 1 11787
-5.3988 3.3357 -1.9803 0 14212
-5.281 8.8906 -0.48223 0 16271
-4.9561 4.4656 -1.7464 0 14817
-4.896 12.821 1.605 2 17289
-4.6277 9.6761 0.75002 0 16733
-4.607 4.0077 -1.5985 0 14730
-4.536 -11.998 1.5 0 11453
-4.4869 11.646 2.0505 0 17274
-3.9245 9.6793 0.48708 1 17142
-3.6707 -10.058 1.5047 1 11417
-3.6436 10.63 0.26089 0 17528
-3.1589 -10.41 1.529 0 11251
-3.0837 -10.712 -0.2588 0 11200
-3.0728 6.5212 -1.5323 0 16773
-2.8188 -14.184 1.3492 0 10975
-2.7428 10.792 -0.25852 0 18034
-2.6138 -12.577 2.4203 0 10997
-2.5326 -9.9796 1.6916 0 11119
-2.4744 2.5022 -1.5667 1 15068
-2.2979 -0.24842 0.43548 0 12881
-2.2611 14.101 0.99863 1 18642
-2.0501 10.288 0 0 18382
-1.9816 -12.154 0.28591 1 10897
-1.7704 2.794 -1.8584 1 16123
-1.6669 -2.3815 -0.20327 0 12234
-1.6236 2.3588 0.47047 0 15938
-1.5934 10.976 -1.8222 0 18707
-1.5706 9.9953 -1.9063 0 18660
-1.3616 -10.005 0.23443 0 10842
-1.3453 11.316 1.8722 0 18829
-1.2788 3.2647 -1.5611 1 17219
-1.2184 6.9524 -1.5003 0 18555
-1.1644 2.5681 0.26307 0 16860
-1.1275 11.158 0.7842 0 18921
-1.0548 -14.127 -0.3289 0 10726
-0.98838 10.026 -1.8982 0 18936
-0.96681 2.6943 -1.6976 1 17423
-0.90972 13.175 -1.856 0 19032
-0.81915 10.137 0.9488 0 18997
-0.7823 10.834 1.7846 0 19031
-0.64605 -10.212 1.1966 0 10696
-0.43259 -10.152 1.9145 1 10655
-0.38295 -13.541 0 0 10619
-0.25568 8.1814 -1.9395 0 19192
-0.13872 10.06 -1.8956 0 19245
-0.12799 11.457 1.3399 0 19251
-0.086606 10.558 0 0 19258
0.032659 9.3565 -1.5372 0 19285
0.056228 -14.644 0 0 10552
0.41617 10.098 -1.4204 0 19399
0.55165 -11.042 0 0 10462
0.57196 10.295 1.9426 0 19445
1.06 -1.3543 0.32402 2 8996
1.0735 -10.459 0.73523 0 10357
1.0818 -13.655 1.925 0 10412
1.09 -13.757 0.3204 1 10411
1.2029 -14.118 0.99082 1 10398
1.3323 10.357 -0.97425 0 19609
1.3727 -12.677 2.0949 0 10346
1.501 4.536 -1.9957 0 20047
1.5773 6.6619 -1.9631 0 19814
1.5803 -10.78 -0.25295 0 10263
1.6278 11.352 1.8842 0 19646
1.793 -2.3174 0.34264 0 9023
1.8546 -12.38 2.3585 0 10257
1.8588 3.2273 -1.9802 0 20918
2.093 -12.726 0.29942 1 10224
2.2192 14.012 1.3235 0 19668
2.3901 10.361 0.24687 0 19801
2.423 -0.66239 -0.17565 0 6638
2.4548 12.087 1.4424 0 19752
2.4725 -10.575 1.27 0 10072
2.5646 10.047 -0.72505 0 19852
2.6192 14.132 2.02 0 19713
2.7147 -9.903 1.687 0 9984
2.7319 12.875 2.1624 0 19768
2.7496 1.6093 -1.8894 1 2091
3.1374 13.6 -1.3022 0 19799
3.163 6.0478 -1.957 0 20689
3.1779 11.475 2.2433 0 19908
3.3077 -10.296 -0.50431 0 9883
3.3613 3.0021 -1.6403 0 515
3.4364 -10.919 0.26576 0 9892
3.4396 1.0885 -1.9183 0 3671
3.4604 10.772 -0.5276 0 20015
3.512 9.4134 1.893 0 20202
3.6186 10.432 0 0 20102
3.7319 -9.4982 -0.71361 0 9789
3.7786 -13.956 2.3754 0 9993
3.7899 -2.1635 -1.5883 1 7665
3.8924 -11.33 1.1177 0 9853
3.9172 -11.728 0.28707 1 9865
3.9559 11.085 1.3764 0 20144
4.0288 10.425 1.5707 0 20250
4.5132 11.015 0 0 20313
4.5615 -8.9835 0.23392 0 9569
4.749 10.129 0.25973 0 20497
4.7534 -13.446 2.6869 0 9846
5.0225 -9.0945 1.9574 0 9488
5.0457 -11.533 1.7692 0 9715
5.1216 8.6671 0.23373 0 21001
5.3232 -10.114 2.1533 0 9535
5.4344 4.1911 -1.7966 2 1091
5.4405 -10.117 0.26669 0 9512
5.448 -8.4182 0.2328 0 9375
5.4815 8.1053 -1.6076 0 21412
5.6955 -8.916 1.2372 0 9391
5.748 3.499 -1.7616 1 1962
5.9056 0.22068 -1.9969 2 5444
5.9178 -8.2781 0.94936 0 9195
5.9566 11.072 -1.7669 2 20746
6.5496 -9.8059 1.6573 0 9332
6.5846 10.105 -0.28002 0 21300
6.6417 9.6963 0.27287 0 21460
6.7293 -7.8678 0.96589 0 8765
6.8694 8.5621 1.2837 0 21968
6.8951 -10.131 2.3088 0 9296
7.1099 -7.2705 1.916 1 8498
7.1181 7.4409 0.96069 0 27
7.2808 -7.8433 2.0163 0 8590
