VERSION .7
FIELDS x y z intensity index
SIZE 8 8 8 8 8
TYPE F F F F F
COUNT 1 1 1 1 1
WIDTH 1536
HEIGHT 1
VIEWPOINT 0 0 0 1 0 0 0
POINTS 1536
DATA ascii
-6.906 -5.3995 1.0251 0 10188
-6.8635 0.72865 0.64393 0 10726
-6.8513 6.3112 1.5304 2 14779
-6.8181 -5.9311 1.4847 0 10135
-6.8168 -0.56643 0.63817 0 10346
-6.7988 -1.3117 1.3046 0 10279
-6.7858 -4.697 1.5549 0 10239
-6.7826 5.9293 0.84049 0 14520
-6.7765 7.0124 0.90978 0 15323
-6.7643 5.7752 0.41478 2 14406
-6.7417 1.6646 0.16122 1 11198
-6.7343 -5.6188 0.409 0 10158
-6.7101 1.0292 1.279 2 10863
-6.7088 -5.3059 1.4053 2 10182
-6.7005 7.1779 0.9161 0 15487
-6.6932 0.24309 -0.46834 1 10545
-6.6859 -0.77122 0.15626 0 10317
-6.6752 1.1242 1.1121 0 10912
-6.6697 6.2896 0.64106 1 14879
-6.6541 1.7879 -0.15997 0 11290
-6.6406 -0.18433 1.2516 0 10415
-6.6245 -0.59005 -0.77775 0 10336
-6.6115 6.2675 0.42484 0 14904
-6.6087 6.3797 0.64232 0 14991
-6.5971 6.7062 0.87764 2 15243
-6.594 -5.8359 -0.20444 0 10124
-6.5877 6.467 0.64553 2 15073
-6.585 0.8915 1.252 2 10802
-6.5841 6.1333 0.41962 2 14825
-6.584 0.85395 1.2509 0 10783
-6.5804 1.7472 0.6352 0 11277
-6.5656 7.4106 1.3915 2 15723
-6.5609 6.9476 1.8004 0 15440
-6.5578 -1.0093 1.0901 0 10295
-6.5431 6.2789 1.7086 0 14971
-6.5382 6.8418 1.1067 0 15378
-6.5305 7.502 1.1631 2 15802
-6.5233 4.7674 1.3274 0 13747
-6.5231 0.61432 0 0 10691
-6.5155 -1.3161 1.2524 1 10278
-6.5098 6.2842 0.42195 1 14989
-6.5041 1.7476 0.62832 2 11292
-6.493 6.2987 0.42186 1 15019
-6.4876 -5.0723 1.1574 1 10189
-6.4737 -0.46177 -0.45384 0 10361
-6.4728 1.0507 0.9216 0 10892
-6.4647 1.8184 0.4696 2 11348
-6.457 0.85696 0.76172 0 10790
-6.4529 -0.49993 0.15027 0 10353
-6.4381 7.1028 0.89436 0 15615
-6.4272 0.87013 0.75846 1 10799
-6.4206 2.2158 0.15769 0 11646
-6.4171 1.06 0.91409 1 10901
-6.4122 6.2204 -0.20741 0 15015
-6.3939 7.2576 0.67636 0 15745
-6.381 2.7336 -0.64764 1 12048
-6.3805 2.4941 0.9628 2 11874
-6.3773 6.4828 0.6359 2 15241
-6.3689 2.7495 -0.48509 1 12065
-6.3661 0.73208 1.0528 2 10746
-6.359 -1.0915 0.75451 0 10287
-6.3584 1.7669 0.61569 0 11333
-6.3564 7.2609 0.90031 1 15774
-6.3476 -4.1522 0.70765 1 10248
-6.3301 6.0387 0.40798 0 14932
-6.3258 1.4639 0.30279 0 11139
-6.3242 6.3529 0.62683 1 15185
-6.3179 1.8367 0.61383 1 11392
-6.3161 1.2908 0.90602 0 11045
-6.3124 2.5529 0.95695 2 11943
-6.2989 1.5378 1.2216 0 11191
-6.2915 6.0017 1.6382 2 14944
-6.2821 7.2625 0.67148 1 15827
-6.2803 7.6105 0.46015 1 16039
-6.2792 0.5008 1.1868 0 10656
-6.2748 2.5581 0.15732 0 11954
-6.2661 6.0131 0.405 0 14961
-6.2618 1.9396 0.76659 1 11483
-6.2086 2.0798 0.92021 0 11603
-6.2055 -6.6151 1.0607 0 10030
-6.2023 2.8948 -0.31919 2 12260
-6.1978 6.0124 0.60381 0 15020
-6.194 5.841 0.19766 1 14878
-6.1913 7.5027 -0.45363 0 16033
-6.1865 7.4968 0.90681 2 16042
-6.1799 6.5054 1.0493 1 15407
-6.1793 2.7318 0.15686 0 12123
-6.1768 6.8505 0 0 15637
-6.1731 3.3531 0.98729 0 12667
-6.1602 1.222 0.88264 0 11019
-6.1601 1.7118 1.2046 0 11340
-6.1499 7.4525 -0.67566 0 16031
-6.1455 2.3627 0 0 11834
-6.1429 -3.9938 1.3805 0 10251
-6.1315 7.4302 0.22366 0 16037
-6.1312 6.5314 0.41776 0 15458
-6.1307 1.879 0.59822 2 11468
-6.1291 2.2139 1.0706 2 11729
-6.1225 1.4744 1.0347 0 11175
-6.1208 1.0309 0.87234 0 10911
-6.1168 3.3447 0.97978 0 12687
-6.112 -5.7315 0.97985 0 10090
-6.1055 5.6875 1.3709 1 14834
-6.103 1.9278 0.59711 2 11511
-6.0978 3.2888 -0.16085 1 12640
-6.0939 6.528 0.41646 1 15485
-6.0932 2.2201 1.0655 0 11744
-6.0755 6.621 0.62837 0 15564
-6.0703 0.84125 0.14228 0 10808
-6.0686 0.53734 1.0009 0 10678
-6.068 1.593 1.182 1 11270
-6.06 -0.0095208 0 0 10465
-6.0517 6.7117 1.2701 2 15645
-6.051 2.5922 0.30698 2 12051
-6.0405 2.0235 0.44546 0 11598
-6.0383 2.2408 0.90518 0 11775
-6.0273 5.5852 1.1549 2 14805
-6.0221 -7.7497 1.6125 0 9884
-6.0191 -7.4729 0.44748 0 9912
-6.0178 -0.29011 0.84673 0 10384
-6.01 6.6654 1.0495 2 15643
-5.9996 0.58298 0.56237 0 10703
-5.9947 5.9199 1.3842 0 15109
-5.9884 2.5852 1.0716 0 12074
-5.9629 1.0396 0.99445 2 10934
-5.9581 2.0748 1.1887 2 11668
-5.9574 0.87865 0.56181 0 10839
-5.9542 3.2558 0.15755 1 12680
-5.9538 -5.3009 1.1203 0 10119
-5.9502 2.0337 0.88375 2 11635
-5.9364 7.6808 0.4527 2 16340
-5.9363 -7.7784 1.6076 0 9867
-5.924 0.50578 0.27726 0 10669
-5.9008 1.7322 1.1587 0 11414
-5.8967 7.488 1.1146 1 16264
-5.8959 -5.2181 -0.36717 0 10123
-5.8937 1.5473 0.28416 0 11263
-5.8858 0.83244 0.13801 0 10817
-5.8683 3.7616 0.32506 0 13214
-5.8645 6.6567 1.0375 0 15748
-5.8624 6.3888 1.014 1 15567
-5.8449 2.2847 1.1824 2 11878
-5.8371 -4.9292 -0.17738 0 10150
-5.8222 -0.50119 -0.40863 0 10342
-5.8162 6.1226 1.3874 0 15410
-5.815 0.58349 0.68343 1 10711
-5.8018 2.9168 0.75939 0 12456
-5.7877 6.4959 0.81169 0 15695
-5.7863 6.7653 0.62251 0 15877
-5.7601 6.2051 1.391 2 15519
-5.7577 0.79793 0.5423 2 10809
-5.7426 -0.25876 0.13346 2 10388
-5.741 5.6358 1.1306 1 15079
-5.7282 -7.1576 -0.21284 0 9907
-5.7219 6.6523 0.61358 1 15852
-5.7208 3.0226 0.15022 0 12582
-5.6984 7.2831 0.64664 0 16289
-5.6961 6.2075 0.39288 1 15563
-5.6951 5.624 0 0 15097
-5.682 6.9668 0.62865 2 16094
-5.6798 3.5726 0 1 13144
-5.6788 8.0442 1.8552 0 16752
-5.6776 6.8387 0.62153 2 16012
-5.6676 -5.5347 1.3015 1 10079
-5.6656 6.1033 0.58233 0 15512
-5.6442 6.1899 0.39065 0 15589
-5.6382 7.3825 0.64957 2 16392
-5.6201 8.2635 0.69882 0 16908
-5.6115 2.3854 0.56887 2 12039
-5.6062 3.0023 0.89377 2 12628
-5.5977 -5.8291 1.3278 0 10049
-5.5964 7.8837 1.1306 2 16720
-5.5925 0.31658 1.0554 0 10594
-5.5815 -5.2966 0.71787 0 10084
-5.5619 1.7943 0.68343 0 11541
-5.5553 5.4231 1.4627 1 15055
-5.5404 7.1684 0.63353 1 16341
-5.519 6.5703 0.40015 0 15958
-5.5182 8.2648 0.69491 0 16990
-5.5171 6.6031 0.40127 1 15987
-5.5059 1.7932 0.67716 2 11556
-5.5058 5.437 1.4579 1 15111
-5.4961 5.8877 0.56321 2 15486
-5.4788 -0.13581 -0.12724 0 10420
-5.477 0.54958 -0.1278 0 10709
-5.456 2.4498 1.1268 0 12172
-5.4472 -0.95265 0.90852 0 10284
-5.4455 6.0076 1.1395 0 15619
-5.4376 5.3379 -0.35534 0 15067
-5.4344 6.027 1.529 0 15649
-5.4122 1.1376 0.1284 0 11062
-5.4074 -5.101 0.69353 0 10086
-5.3968 3.0958 -1.4742 1 12828
-5.3922 8.3927 0.69756 2 17143
-5.3682 3.1006 0.2891 0 12847
-5.3651 8.4053 0.69729 0 17171
-5.3561 -4.5487 0.98757 0 10147
-5.354 6.843 1.2211 2 16294
-5.3521 2.4222 1.1068 1 12195
-5.35 -7.7815 1.3272 0 9799
-5.3495 6.6748 1.2022 0 16183
-5.3468 -3.7676 -0.30503 0 10232
-5.3302 6.8964 0.81318 1 16343
-5.325 7.6845 0.65376 0 16826
-5.3191 -7.3131 1.7038 0 9830
-5.3158 6.7117 1.2033 1 16240
-5.3112 7.6163 0.64929 0 16798
-5.3105 6.5485 1.1849 1 16126
-5.3094 1.3267 0.38268 0 11213
-5.3092 1.3109 0.3824 2 11199
-5.2887 7.5839 0.86259 1 16800
-5.2806 6.0661 1.5153 1 15807
-5.2741 1.7014 0.91047 0 11545
-5.274 0.14363 0 0 10530
-5.2647 5.575 0.17803 0 15429
-5.2567 1.7121 0.38659 0 11553
-5.2557 1.4447 0.38115 0 11320
-5.244 1.4572 0.38059 1 11332
-5.2385 -6.9897 1.4351 1 9850
-5.2342 6.7723 1.4062 2 16347
-5.2275 5.5028 0.17622 0 15401
-5.2217 6.9597 0.60842 0 16475
-5.2149 6.1362 1.1318 2 15910
-5.2115 2.7326 0.54899 0 12567
-5.2106 -8.2264 0.90848 0 9764
-5.2103 5.9517 0.92502 0 15775
-5.1928 -7.8873 1.3272 0 9779
-5.1862 5.5557 0.88879 0 15489
-5.178 8.3806 0.91907 2 17305
-5.1758 5.3559 1.2237 2 15328
-5.1719 -6.0192 0.92804 0 9959
-5.1694 3.2933 0.28584 0 13192
-5.1656 3.2078 0.71107 1 13105
-5.1606 7.8295 -0.87486 1 17030
-5.157 -3.4615 0.57946 0 10244
-5.1437 5.9464 0.91945 0 15830
-5.1412 6.8925 1.4127 1 16508
-5.1385 -4.6267 0.32245 0 10112
-5.1335 -0.75897 0.36287 0 10297
-5.1297 -4.7005 1.3109 0 10103
-5.1294 5.6589 1.439 0 15623
-5.1241 -4.7251 0.16183 0 10100
-5.1166 2.7034 0.53989 1 12586
-5.1107 2.6798 0.67484 0 12569
-5.0924 5.3607 -1.3931 1 15411
-5.0918 2.6517 0.67135 0 12547
-5.0893 -3.7221 -0.29403 1 10221
-5.0806 -3.5166 0.43207 0 10237
-5.0804 -6.5379 0.19223 0 9882
-5.0735 5.5973 0.88344 1 15617
-5.069 3.2492 0.70411 0 13218
-5.0638 0.40387 0.8346 2 10655
-5.0606 0.41961 0.83427 2 10662
-5.0577 4.9945 0.16503 0 15099
-5.054 1.358 0.36594 2 11291
-5.0533 1.2796 0.73261 2 11227
-5.0463 1.371 0.36566 0 11305
-5.0421 2.1934 0.3845 0 12085
-5.0274 -6.2417 1.3167 0 9913
-5.0144 1.5044 0.36608 2 11437
-5.0142 7.3286 1.673 0 16888
-5.0107 4.9794 0.16401 0 15128
-5.002 2.2302 0.38296 1 12145
-4.9971 7.3474 1.6741 1 16915
-4.9966 2.1923 0.76684 1 12110
-4.9917 1.3413 0.60445 0 11293
-4.9886 -5.6049 0.70003 2 9991
-4.9813 6.7663 1.5831 2 16567
-4.9784 3.4652 0.5659 2 13543
-4.976 1.6524 0.36664 0 11583
-4.9732 1.8121 0.37013 0 11737
-4.9708 3.2293 1.1168 1 13270
-4.9676 1.6333 0.36566 2 11568
-4.9655 -3.6542 0.57519 0 10219
-4.9521 2.2767 0.50849 1 12229
-4.9494 7.8051 1.5184 2 17206
-4.9491 3.0734 0.40738 1 13102
-4.949 5.7864 0.89041 2 15881
-4.9466 -8.554 0.4608 0 9723
-4.9458 -3.5304 0.71061 0 10230
-4.9406 2.1165 0.37585 0 12052
-4.9383 -7.6951 1.5022 0 9766
-4.9381 1.3417 0.59841 2 11307
-4.9283 6.8535 1.5905 2 16668
-4.928 3.4712 0.56237 2 13593
-4.9246 -0.75797 0.23236 0 10294
-4.9175 -6.3671 1.1306 0 9877
-4.9113 0.049718 0.92539 0 10493
-4.9022 -4.4403 0.15356 0 10109
-4.8908 2.3338 0.63372 1 12326
-4.887 0.99871 0.58331 0 11044
-4.8869 2.2117 0.88129 2 12193
-4.8851 2.5441 0.77408 2 12549
-4.8745 7.9388 0.43444 0 17330
-4.8717 0.63186 0.57448 1 10781
-4.8677 0.31819 0.68557 0 10618
-4.8677 2.2029 0.37362 0 12185
-4.8545 0.020334 0.91465 1 10479
-4.8528 0.30191 0.68334 2 10608
-4.8415 7.2514 1.4325 1 16996
-4.8408 -7.9931 1.5353 0 9748
-4.8392 4.0362 1.0353 1 14307
-4.8341 2.0869 0.99204 1 12076
-4.828 -3.5948 0.98894 2 10210
-4.8259 -3.5101 0.83866 0 10224
-4.8241 6.1657 0.9155 2 16292
-4.8164 7.1756 1.4199 1 16969
-4.8158 6.7841 1.5675 1 16725
-4.8129 -0.37287 0.79309 1 10354
-4.8077 -3.5796 0.55921 0 10209
-4.8045 8.5861 1.1506 0 17713
-4.7948 6.835 1.5731 0 16779
-4.7907 6.8292 1.1724 1 16776
-4.7858 0.1178 0.44662 2 10522
-4.7804 2.0637 0.73177 2 12072
-4.7766 6.6842 1.5479 2 16697
-4.7756 2.4702 0.50162 2 12525
-4.7709 -4.2224 0.29711 0 10125
-4.7699 -6.4415 -0.37379 0 9840
-4.7589 7.5542 0.62432 0 17226
-4.7569 2.0693 0.48397 2 12087
-4.7464 7.937 0.43127 0 17435
-4.7431 2.3493 0.49381 0 12416
-4.7428 1.6972 0.94909 2 11715
-4.7419 -5.3278 1.1718 0 9992
-4.73 -5.3463 1.1728 0 9985
-4.727 2.0563 0.84692 2 12093
-4.7256 8.6818 1.1559 1 17817
-4.7201 6.6862 0.76357 1 16747
-4.719 2.1865 0.73094 1 12251
-4.7183 6.4091 0.55652 0 16557
-4.7097 6.4303 0.55735 1 16586
-4.7012 -6.1601 -0.54187 0 9866
-4.6996 8.7501 1.1615 1 17869
-4.6932 -3.4324 -0.13499 0 10222
-4.684 0.59421 0.44049 1 10774
-4.6813 1.1429 0.22472 0 11183
-4.6799 0.12745 0.43678 1 10531
-4.677 2.2831 0.60863 1 12378
-4.6719 6.8283 0.96754 2 16883
-4.6692 2.2945 0.6084 0 12399
-4.6579 5.6444 0.8558 1 16044
-4.6546 -3.3632 -0.13332 0 10227
-4.6457 6.79 1.1563 2 16884
-4.6237 -6.9382 -0.19358 0 9783
-4.6186 6.5424 0.56001 2 16745
-4.614 2.3358 0.48248 1 12474
-4.6044 6.7297 0.57019 2 16879
-4.6015 6.5594 0.56028 0 16772
-4.6014 6.0249 0.70728 2 16394
-4.6013 7.0719 1.1858 1 17096
-4.6008 0.56899 0.4325 1 10766
-4.5908 6.349 0.54787 0 16637
-4.5865 5.9001 0.87392 2 16317
-4.5762 0.78304 0.32465 2 10920
-4.5681 6.3176 0.72734 0 16639
-4.5662 6.2756 0.54271 2 16611
-4.5643 6.7112 1.1407 0 16911
-4.5623 6.2702 0.72344 2 16612
-4.5566 6.7428 1.1437 2 16940
-4.5546 0.76708 0.32297 2 10909
-4.5513 6.8632 1.5516 2 17022
-4.548 7.3096 0.602 1 17275
-4.5333 6.5861 0.93501 1 16855
-4.5168 2.1728 0.46762 2 12340
-4.5164 2.0137 0.93169 1 12153
-4.5125 7.3035 0.60032 1 17303
-4.503 1.6997 0.44904 2 11802
-4.5026 6.076 0.88437 0 16532
-4.5025 -0.30932 0.21046 0 10365
-4.502 0.34483 0.52802 0 10646
-4.4978 8.091 1.7441 2 17743
-4.4909 0.59603 0.42266 1 10789
-4.482 4.9447 -0.46667 0 15607
-4.4737 8.8181 0 0 18068
-4.4573 0.41977 0.31307 0 10693
-4.4487 8.1156 1.0823 1 17791
-4.4417 -4.7349 -0.45398 2 10029
-4.4374 6.6915 1.1284 2 17018
-4.437 6.1363 0.88553 1 16640
-4.4368 -8.9497 0.46583 1 9647
-4.4343 8.6804 0.45456 0 18043
-4.4314 -6.3618 0.54215 0 9806
-4.4166 3.0162 0.87869 2 13471
-4.4159 5.9201 0.8637 2 16505
-4.4145 2.9776 0.49679 2 13413
-4.4064 1.6791 0.43994 1 11819
-4.4003 8.6734 1.1373 1 18077
-4.3838 1.2869 0.75062 1 11412
-4.3703 6.3068 1.4457 0 16834
-4.3617 1.4071 0.21372 0 11537
-4.3554 1.5586 0.43158 2 11708
-4.354 6.3636 0.71936 1 16881
-4.3423 8.7513 1.1425 0 18157
-4.3406 1.1112 0.41801 0 11239
-4.3388 7.0664 1.5623 0 17341
-4.3343 7.2912 0.99193 0 17465
-4.3291 1.0569 0.62628 2 11187
-4.3274 -5.1865 0.63018 0 9936
-4.3204 -3.1217 -0.24857 1 10226
-4.3202 8.3953 1.1041 2 18022
-4.3174 -4.1693 0.55995 0 10081
-4.3119 3.7036 0.79885 2 14442
-4.3096 6.2192 0.88484 0 16829
-4.3051 -3.592 0.92117 1 10159
-4.297 8.4116 1.1046 2 18049
-4.2957 3.56 0.7841 2 14279
-4.2834 -5.1649 1.2642 0 9933
-4.2758 -6.0659 1.3983 0 9813
-4.2732 6.1277 1.4075 2 16806
-4.2732 6.7387 0.74444 2 17201
-4.2608 3.3098 0.63093 2 14002
-4.2464 0.93129 0.61097 0 11096
-4.2373 6.555 1.097 0 17122
-4.2341 7.3131 0.98821 2 17577
-4.2316 6.4201 0.53768 1 17042
-4.231 3.7856 0.66392 2 14630
-4.2189 5.4902 0.9731 2 16370
-4.2119 1.7601 0.31921 0 12006
-4.209 8.9284 1.1543 2 18342
-4.2067 3.4444 0.63581 2 14227
-4.2014 6.2594 0.88158 2 16965
-4.1925 1.433 0.72792 0 11637
-4.1905 6.2762 0.88251 1 16993
-4.1881 6.731 0.73961 1 17277
-4.1877 0.98298 0.30079 1 11150
-4.1841 -8.8236 0.22672 0 9631
-4.1775 3.4424 0.63302 2 14252
-4.1697 -6.7989 1.5027 0 9754
-4.167 -0.37116 0.19509 0 10338
-4.165 6.918 0.94431 2 17412
-4.1646 4.3322 0.42021 0 15348
-4.1597 6.9559 0.94779 1 17440
-4.1525 1.541 0.30972 1 11770
-4.1464 1.2054 0.81356 2 11399
-4.1382 -0.44151 0.48667 0 10324
-4.1375 8.6511 0.4472 0 18282
-4.1167 1.4336 0.61264 2 11664
-4.1163 1.6514 0.31014 1 11921
-4.1065 1.5386 0.30665 2 11786
-4.0982 1.3728 0.71009 2 11605
-4.098 7.5287 1.2047 0 17818
-4.0937 3.7499 0.91209 2 14749
-4.0846 5.6802 0.81817 0 16663
-4.0817 -5.3794 0.62999 2 9862
-4.0782 8.7856 1.1327 1 18396
-4.0737 3.6028 1.0246 1 14580
-4.0662 7.5234 1.2019 1 17844
-4.0654 -2.7103 0.68668 0 10245
-4.0602 6.1976 1.0413 0 17070
-4.0579 3.4232 0.4953 0 14354
-4.0483 -2.8357 -0.11475 0 10233
-4.0403 -8.0931 0.21001 0 9649
-4.0386 7.9605 1.4665 2 18080
-4.0356 6.0856 1.1997 0 17020
-4.0346 1.0329 0.78467 1 11242
-4.0326 -0.6922 0.19081 0 10286
-4.0291 -3.3832 0.3679 0 10155
-4.0194 -3.1983 0.11926 0 10178
-4.0147 3.2314 0.48081 1 14149
-4.0147 6.6212 0.90551 0 17387
-4.0072 -5.0978 -0.15055 0 9895
-4.0064 6.3991 1.0611 0 17254
-4.0037 8.6887 1.1188 2 18423
-4.0013 -4.193 0.40529 0 10043
-3.9908 6.5818 0.53824 0 17384
-3.9896 -4.1545 0.40277 0 10048
-3.9848 5.6804 0.81143 0 16775
-3.984 -3.6931 1.0235 0 10097
-3.9784 3.2193 0.47746 2 14176
-3.978 7.9578 1.4617 0 18132
-3.9682 7.4978 0.79144 2 17918
-3.9555 -4.4709 -0.27838 0 9984
-3.9555 6.119 0.5095 0 17117
-3.953 6.0755 0.50685 0 17093
-3.9524 6.1921 0.85905 1 17175
-3.9496 6.3924 1.056 2 17308
-3.9493 3.4307 0.48805 2 14492
-3.9336 -2.7065 0.22267 0 10240
-3.9325 7.4807 0.59098 1 17943
-3.9304 3.3557 0 0 14403
-3.9264 1.3673 0.48621 2 11662
-3.9263 1.3796 0.48667 0 11679
-3.9223 6.1853 0.8565 1 17203
-3.917 6.9064 0.92851 2 17660
-3.9046 -0.31278 0.73802 0 10350
-3.8984 -0.15453 -0.45624 2 10393
-3.8934 5.9429 0.49681 0 17066
-3.8933 8.7118 1.3411 2 18535
-3.8902 8.8454 1.3581 2 18588
-3.8884 3.645 0.62326 2 14857
-3.8854 6.8036 0.54787 0 17629
-3.8837 3.163 0.70394 2 14203
-3.8765 3.6111 0.61955 2 14830
-3.8655 7.5669 0.79274 0 18047
-3.8569 0.69535 0.73839 0 10952
-3.8555 -0.67428 0 0 10283
-3.8517 5.4906 0.62572 1 16774
-3.8515 4.4778 0.55103 1 15854
-3.8508 3.6314 0.49381 2 14880
-3.8478 7.069 1.5164 2 17821
-3.8475 7.3721 0.58149 1 17968
-3.8467 -3.3462 -0.23776 0 10134
-3.8439 -5.0077 1.1894 2 9872
-3.8392 -5.0911 0.44588 0 9856
-3.8186 6.6435 0.7149 1 17603
-3.8164 6.7291 1.0872 2 17661
-3.8101 4.5601 0.97629 1 15992
-3.7985 -4.6624 0.56107 0 9922
-3.7947 3.4131 0.47616 0 14658
-3.7875 6.7272 1.085 0 17688
-3.7783 3.7955 0.62628 2 15189
-3.7689 6.9733 0.55428 0 17839
-3.7638 1.3968 0.46948 1 11773
-3.7414 -3.3687 0.82714 0 10113
-3.7235 3.3315 0.46613 0 14628
-3.7108 -0.59304 0.70802 0 10292
-3.7026 6.2732 0.6796 1 17492
-3.6772 3.7603 0.99093 0 15277
-3.6696 8.8942 1.3522 0 18802
-3.6587 -4.5717 0.96202 0 9908
-3.6558 -5.0914 1.0298 0 9823
-3.6471 5.6766 1.2713 1 17152
-3.6421 7.7892 0.80221 0 18368
-3.6272 9.0138 0.67943 2 18873
-3.6197 3.2949 0.45666 1 14717
-3.6166 3.3513 0.46 1 14802
-3.6038 -4.6076 0.96105 0 9890
-3.5978 0.77919 0.69358 1 11087
-3.5897 -2.4377 0.40482 0 10243
-3.5862 0.7865 0.69173 1 11099
-3.5732 5.7072 1.2687 0 17258
-3.5629 -3.4599 0.46335 0 10080
-3.5513 6.0579 0.82119 2 17521
-3.523 6.1292 1.332 0 17609
-3.5018 -0.20007 0.49295 0 10376
-3.4922 -2.586 0.30386 0 10214
-3.4781 7.0096 1.2856 2 18159
-3.4746 -3.9746 0.86734 1 9974
-3.4588 2.6694 0.61403 2 13977
-3.457 -5.3152 0.44337 0 9773
-3.4497 9.3559 0.69729 0 19130
-3.443 3.6677 0.707 0 15463
-3.439 -2.2788 0.5798 0 10246
-3.4346 -0.35614 0.32215 0 10328
-3.4276 -0.3657 0.32159 0 10323
-3.4185 2.7182 0.71755 1 14102
-3.3954 3.2939 -1.2384 1 15022
-3.3804 4.1212 1.0043 0 16077
-3.3797 3.2626 0.43826 2 14993
-3.3637 8.0926 1.6512 0 18778
-3.3572 -2.8693 0.83207 0 10144
-3.3408 -5.8192 1.1024 0 9719
-3.3263 3.5224 0.22593 0 15431
-3.3262 7.1135 1.2902 0 18374
-3.324 -6.8031 0.3531 0 9640
-3.3226 0.26499 0.077385 0 10653
-3.3225 6.3662 0.83977 1 17971
-3.3212 -6.7466 0.35068 0 9644
-3.3197 6.8367 1.2487 0 18239
-3.3086 -7.968 0.20031 0 9593
-3.308 2.5219 0.48644 2 13924
-3.3057 2.5347 0.48714 1 13950
-3.2919 -4.8457 0.68506 0 9793
-3.2919 6.3508 0.83652 2 17996
-3.2907 3.4847 0.6736 1 15436
-3.2818 6.614 1.0377 1 18158
-3.2788 6.6516 0.69186 2 18180
-3.2686 6.681 0.6939 0 18207
-3.2477 -0.36544 0.53694 0 10321
-3.2476 9.2119 0.91127 0 19249
-3.2419 8.4102 1.6982 2 19016
-3.2375 4.3151 0.12525 0 16471
-3.2281 1.6228 0.083884 0 12451
-3.2117 6.8688 1.4286 2 18375
-3.2106 6.7615 0.87531 1 18315
-3.2022 2.3982 0.56226 0 13846
-3.2022 3.744 -0.11438 1 15873
-3.2012 9.1669 0.90588 0 19274
-3.1861 -6.9238 -0.35543 0 9624
-3.186 3.2969 0.53615 2 15324
-3.1795 1.5521 0.165 0 12373
-3.1756 7.697 1.368 2 18804
-3.1738 -7.7117 1.5712 1 9589
-3.1718 3.2995 0.53522 2 15351
-3.1614 7.1882 1.2902 1 18590
-3.1505 7.5797 0.7658 2 18773
-3.1352 -2.8558 -0.09846 0 10106
-3.1319 -5.4907 0.29478 0 9712
-3.1318 -6.5571 1.0213 0 9634
-3.1256 4.0675 0.96649 1 16373
-3.1134 -5.4231 0.29161 0 9717
-3.1035 -7.0667 1.4542 0 9610
-3.0904 -3.276 0.73992 1 10035
-3.0818 4.0352 -1.4559 1 16393
-3.0585 -3.9359 0.23245 0 9883
-3.0531 -2.4146 0.27219 0 10181
-3.0442 6.9811 1.4349 1 18617
-3.0311 4.78 0 0 17195
-3.0252 -2.2524 0.71061 0 10211
-3.0153 6.3502 1.1549 0 18319
-3.0143 -4.5784 1.0328 0 9780
-3.0049 -5.234 0.42203 0 9718
-2.9916 -2.2153 0.70136 1 10217
-2.9915 5.1669 -0.13861 1 17567
-2.9897 -3.3995 0.52941 0 9979
-2.9881 -2.0683 -0.16947 0 10235
-2.9806 3.193 0 0 15482
-2.9637 -2.6387 0.74764 1 10120
-2.9537 9.0423 1.3369 1 19436
-2.9457 -2.2882 0.61282 0 10192
-2.9418 -6.6417 0 0 9612
-2.9257 4.526 0.63023 0 17121
-2.922 -2.7086 0.27861 0 10096
-2.91 -2.7136 -0.092379 0 10093
-2.8822 3.4495 -0.20963 0 15981
-2.874 -6.6479 0.6757 0 9607
-2.8386 -7.0081 0.70542 0 9581
-2.8385 -1.9882 0.56937 0 10234
-2.8258 -2.0418 0.16258 0 10228
-2.7926 -8.3173 0.2037 0 9533
-2.7859 -3.3189 0.40427 0 9941
-2.7844 -7.2348 1.2736 0 9565
-2.7772 4.7659 0.51462 0 17546
-2.7639 -2.8611 0.7495 0 10055
-2.717 1.6984 0.3747 0 13129
-2.7104 4.0381 -1.0337 1 16968
-2.7045 9.2665 -1.3567 0 19668
-2.7008 7.884 -0.19349 0 19310
-2.6879 2.7001 0.17767 0 15183
-2.685 3.5787 0.73505 1 16481
-2.6776 -9.3996 0.91183 0 9458
-2.6456 7.4419 0.92363 0 19227
-2.6319 -3.0447 0.47064 0 9965
-2.6273 -7.1293 -0.1764 0 9551
-2.6113 -2.8991 -0.18195 0 10000
-2.6028 -2.4407 -0.1664 0 10089
-2.597 -2.4498 0.58655 1 10087
-2.539 1.8447 0.21945 0 13714
-2.533 -7.4068 0.73032 1 9537
-2.5189 -8.2082 0 0 9498
-2.499 -7.6638 0.75205 0 9524
-2.4968 -6.3191 1.2801 0 9571
-2.4899 -7.138 0.35254 0 9542
-2.4872 -5.5291 0.99607 0 9617
-2.469 -4.7368 0.62466 1 9672
-2.467 3.6506 0.51524 0 16938
-2.4645 -3.4962 0.29912 0 9811
-2.4627 -4.9676 -0.12873 0 9646
-2.4585 -4.9942 -0.12924 0 9643
-2.4519 -7.3026 0.53866 0 9534
-2.4276 3.6831 0.20571 0 17040
-2.4239 -3.4171 0.19537 0 9815
-2.3899 -4.6144 0.6077 0 9667
-2.3423 -4.4938 0.35436 0 9671
-2.3398 -4.6867 0.24428 0 9650
-2.3372 -9.3325 1.8126 0 9373
-2.3287 -4.4964 0.35408 0 9666
-2.3277 -3.7954 0.73149 0 9752
-2.3211 -5.4523 0.83281 0 9603
-2.3034 -4.5442 0.11828 1 9657
-2.3014 -3.1079 0.36079 0 9841
-2.2992 -6.2389 1.2527 0 9552
-2.2961 4.3679 0.23012 0 17941
-2.272 -3.3232 -0.18773 0 9795
-2.2501 -2.3703 0.53694 0 10039
-2.1694 -4.1024 0.32451 0 9680
-2.1505 -2.2261 0.071861 0 10053
-2.1383 -3.9614 0.73959 0 9688
-2.1171 2.3218 -0.82256 0 15592
-2.0954 -2.182 0.070236 0 10047
-2.0832 -4.4573 0.80833 0 9627
-2.0796 -8.5116 0.81745 1 9349
-2.0766 -4.0388 0.63825 0 9661
-2.064 -4.66 0.11833 0 9613
-2.0565 -7.0648 0.34313 0 9470
-2.0192 -6.7133 0.32692 0 9489
-2.0021 -6.1398 0 0 9523
-1.9822 -2.9554 0.332 0 9787
-1.9557 -2.9347 0.32902 0 9784
-1.927 -2.4951 -0.14702 0 9876
-1.9138 3.8825 0.50618 0 18182
-1.911 -4.4543 0.4522 0 9605
-1.9005 4.2887 -1.3451 1 18559
-1.8976 -3.2188 0.43696 0 9735
-1.8734 -6.8015 0.49332 0 9436
-1.861 -3.1758 0.43045 1 9731
-1.8532 -2.728 0.23061 0 9792
-1.8523 3.3103 -0.71469 0 17716
-1.8371 3.012 0 0 17356
-1.7918 -4.9553 0.99279 0 9548
-1.7786 -8.5658 0.40798 0 9231
-1.7704 2.7919 0.23117 0 17199
-1.7269 -4.8178 0.96427 1 9546
-1.7256 -4.1557 0.73927 1 9594
-1.6961 -3.4961 -0.18121 1 9637
-1.6901 -3.731 0 0 9619
-1.6889 9.3118 -0.44133 0 20560
-1.6862 -3.9609 0.099946 0 9602
-1.6608 -5.6429 0.82669 0 9476
-1.6312 -7.9677 1.3362 2 9222
-1.6284 6.9049 -0.99704 0 20117
-1.6217 2.8397 0.53727 0 17634
-1.6123 -4.2625 0.64047 2 9561
-1.6113 -2.8248 0.22741 0 9713
-1.608 2.8157 0.15121 0 17627
-1.5928 -4.5662 0 2 9541
-1.5711 -3.0557 0.5645 0 9662
-1.5404 -5.1213 1.0076 0 9490
-1.5292 6.8413 0.16275 0 20231
-1.4978 -2.6977 0.43366 1 9700
-1.4929 -3.7156 0.65789 1 9577
-1.4868 -6.4917 0.46569 0 9303
-1.4819 -3.8165 0.47877 0 9567
-1.4702 -4.1794 0.62266 0 9543
-1.4655 -3.8079 0.47715 0 9564
-1.4158 8.5151 0 0 20673
-1.4148 -2.834 0.52041 0 9651
-1.4014 -8.1644 0.19232 0 9127
-1.3682 3.5183 0.087644 1 18977
-1.3427 3.0791 0.077988 1 18605
-1.3408 -4.9213 0.11842 0 9425
-1.3144 -7.2762 0 0 9149
-1.3135 -2.8997 0.523 0 9620
-1.2979 -2.8439 0.5136 1 9622
-1.2873 -4.068 0.099064 0 9515
-1.2744 -4.4241 0 0 9462
-1.2722 -3.1129 0.63359 0 9585
-1.2549 -3.2898 0.081748 0 9562
-1.2454 -3.3523 -0.16677 0 9555
-1.2205 2.8878 -0.072789 0 18711
-1.1996 -9.43 0 0 9016
-1.1601 -6.3144 0.59897 0 9159
-1.156 3.682 0.36005 1 19522
-1.1281 3.5606 -0.086716 0 19491
-1.1152 3.1077 -0.54246 2 19186
-1.1114 -5.9446 1.1394 0 9168
-1.0631 -4.0931 0.098182 0 9396
-1.0513 -5.0632 0.72676 0 9233
-0.99338 5.3913 0.25565 0 20542
-0.992 -6.0911 0.86733 0 9105
-0.9809 -4.7913 -0.11355 0 9215
-0.96995 -9.928 -0.2316 0 8967
-0.96878 3.0857 -0.45454 0 19506
-0.90905 7.2775 -0.51285 1 20983
-0.87284 5.2497 -0.62234 0 20666
-0.86455 -4.706 -0.11109 0 9158
-0.86424 -6.6362 -0.15537 1 9020
-0.84489 -6.3491 0.29869 0 9027
-0.82122 -6.7763 1.2861 0 9010
-0.80909 -3.0408 -0.14674 0 9410
-0.80105 -7.3143 0.68647 0 8991
-0.72988 7.198 1.0168 0 21182
-0.71026 -7.9898 0.37406 1 8951
-0.67875 -5.8933 0.55345 0 9001
-0.67108 -3.6528 -0.1732 0 9157
-0.66498 9.6305 -0.22412 0 21413
-0.64506 -5.7238 0 0 8996
-0.62089 -4.379 -0.10268 0 9046
-0.60934 -8.1804 -0.38254 0 8925
-0.59114 4.2384 0.39925 0 20878
-0.58718 -3.5392 0.41954 0 9113
-0.57699 -3.5429 0.41977 0 9104
-0.57218 -4.2998 0.81726 0 9028
-0.56906 -7.6396 0.71471 0 8926
-0.53139 -6.8747 0.48216 0 8932
-0.51486 -6.9119 1.1387 0 8927
-0.49235 9.0037 1.4815 0 21522
-0.45513 -3.3443 -0.07836 0 9034
-0.45205 4.3373 -0.10125 0 21151
-0.43987 -4.6361 0.21717 0 8961
-0.43471 -4.5817 0.75613 0 8962
-0.43448 -6.0911 1.1505 0 8919
-0.39351 -4.9123 0 0 8937
-0.39294 -5.9791 0 0 8908
-0.3929 -3.7827 0.62481 0 8981
-0.36779 4.9029 0.11415 0 21373
-0.34836 -9.5917 0 0 8842
-0.32847 8.8315 0.82451 0 21627
-0.31523 -5.8395 0 0 8882
-0.31285 -4.7604 0.11076 0 8909
-0.29942 4.1467 0.19388 0 21394
-0.29877 -4.7754 0.11109 0 8901
-0.29832 -5.8485 0.68482 0 8876
-0.29373 9.3989 -0.21832 0 21660
-0.25286 4.8901 -0.22835 2 21531
-0.24177 -8.7098 1.4315 0 8823
-0.22903 3.7771 0 0 21478
-0.21748 -7.8351 1.4768 0 8824
-0.19746 -5.4369 0.12631 0 8843
-0.18537 9.398 -0.43835 0 21735
-0.17872 6.9642 0.81468 0 21704
-0.17124 -3.7709 0.26396 0 8863
-0.16118 3.7364 0.61444 1 21595
-0.16109 -3.7805 0.17646 0 8855
-0.14504 8.6554 0.40369 0 21758
-0.14287 -3.6202 -0.084116 2 8849
-0.14237 -4.2469 0.8006 0 8836
-0.13554 8.0887 0.18782 0 21756
-0.098975 5.0177 -0.82455 0 21730
-0.096674 -7.2877 1.0243 0 8795
-0.083119 -7.9369 -0.37015 0 8785
-0.071838 -6.8598 0.15927 0 8786
-0.071815 -3.7402 0.26159 0 8807
-0.068655 8.3693 0.58526 0 21815
-0.067439 4.0246 -0.75838 0 21764
-0.065453 -4.9342 -0.23012 2 8792
-0.05501 3.9894 -0.75172 2 21783
-0.054668 -4.1212 0.1922 0 8793
-0.053245 6.4908 1.0664 0 21819
-0.05191 4.7207 -0.88947 0 21802
-0.038965 -5.0738 0.47338 0 8777
-0.019157 3.7847 0.26466 0 21833
-0.0092296 3.7768 0.2641 0 21849
-0.0063511 -3.639 0.084487 1 8767
0.017451 -4.1661 0.68447 0 8758
0.024102 6.5763 1.239 0 21892
0.024579 -3.5206 0.32847 0 8752
0.031131 8.4941 1.3955 0 21890
0.0408 -5.844 0.68343 0 8753
0.048695 7.3419 0.51341 0 21903
0.051487 3.3905 0.39654 0 21952
0.061944 3.4122 0.39909 1 21966
0.066777 7.2187 -1.0146 0 21910
0.083537 3.9551 0 1 21974
0.095966 -4.4335 0.72857 0 8726
0.10259 8.3969 -0.58721 0 21930
0.12376 3.8109 0.62643 0 22044
0.13405 6.3469 -1.1961 0 21981
0.13678 3.8401 0.6313 0 22063
0.14127 -3.6117 0.50798 0 8689
0.1476 5.526 0 0 22002
0.148 -3.546 0.4988 0 8678
0.15572 -3.731 0.70358 0 8679
0.15837 -7.3163 -0.1699 0 8723
0.16275 3.9491 0.74468 0 22090
0.17102 3.8858 0.73283 1 22104
0.17584 -6.4155 1.0544 1 8710
0.18393 3.1329 -0.82155 0 22172
0.18428 -5.1233 -0.11902 0 8694
0.19975 -5.1067 -0.11865 0 8685
0.20538 -5.7098 1.0765 0 8695
0.21817 -4.5754 0.75256 0 8666
0.22977 -5.5052 -0.25695 2 8675
0.23328 3.7709 -1.2766 0 22182
0.2339 3.6367 0.33998 0 22197
0.25068 3.7154 0.34742 0 22206
0.25659 7.2035 0.16735 0 22057
0.27045 3.1808 -0.37331 0 22258
0.31195 -7.9752 0.74462 0 8688
0.32329 5.5066 -0.90625 1 22160
0.32885 9.232 0.86185 0 22060
0.34306 -3.7623 0.17618 1 8590
0.35851 4.2164 0.39479 0 22269
0.3643 4.0185 -0.76023 0 22292
0.3651 8.2957 0.19279 0 22099
0.36882 -3.7888 0.26619 0 8577
0.37133 4.2273 0.39591 0 22280
0.37822 -3.294 0.6247 2 8543
0.38781 9.41 0 0 22083
0.39756 4.1213 -1.0839 1 22314
0.3979 4.1249 0 0 22309
0.39824 3.77 -0.088015 0 22347
0.40487 3.7452 -0.087458 1 22358
0.40539 4.0759 0 1 22322
0.43092 -7.6358 0.17756 0 8653
0.43685 3.4677 -0.57423 1 22419
0.43741 4.825 0.9128 0 22293
0.44701 -6.2822 0.88514 2 8629
0.45136 4.8197 0.91206 0 22302
0.45562 -8.994 -0.20908 0 8662
0.45713 -5.3432 0.50032 1 8601
0.46054 -6.2415 0.87957 0 8625
0.47578 4.6437 0 0 22334
0.48747 -5.4945 0.51462 0 8596
0.50245 -7.7279 1.2723 0 8638
0.5127 3.0089 0.57508 2 22590
0.53038 -7.7999 0.18151 0 8633
0.54176 -4.4834 0 0 8529
0.57751 -3.1039 0.0733 0 8397
0.58677 -9.9056 1.6303 0 8647
0.58749 -3.6926 -0.086808 0 8454
0.5979 4.0785 0.38457 0 22509
0.59908 -9.2141 1.7397 0 8639
0.60969 4.159 0.19602 0 22506
0.63659 3.6702 -0.086483 0 22595
0.68987 -4.7755 0.56426 0 8483
0.723 3.0922 -1.073 0 22802
0.72789 -9.1266 -0.21256 0 8614
0.73556 -6.4062 0.14971 1 8542
0.74598 4.3008 -0.40724 0 22593
0.74994 -6.3743 -0.14901 1 8535
0.75482 4.6759 0.3312 0 22554
0.76795 6.557 -1.2439 0 22395
0.77015 3.3359 0.2394 0 22792
0.78003 -4.4786 0.85651 2 8422
0.78477 -4.5815 0.87577 0 8429
0.78489 8.6579 -1.4283 0 22281
0.79818 4.6843 -1.01 1 22588
0.83153 -4.9425 0 0 8436
0.85124 -4.7216 0.78823 0 8409
0.8616 -8.8509 1.461 0 8578
0.87901 -5.4212 0 0 8447
0.91139 3.898 -1.048 0 22804
0.91862 3.4695 -0.083327 0 22890
0.9493 5.5712 -1.3391 0 22587
0.95536 -4.4793 0 0 8347
0.99625 7.2259 1.1984 0 22476
0.99766 -8.9225 0.62781 0 8549
1.0127 -5.1051 0.12084 0 8376
1.0135 9.5941 0.4499 0 22350
1.0278 5.54 0.13082 0 22641
1.0389 -4.1058 0.69582 2 8260
1.0443 -3.6348 -0.17636 0 8194
1.0636 -4.1545 0.70458 0 8251
1.0654 -2.8451 0 0 8089
1.0904 5.5221 0.79106 0 22690
1.1056 -3.4292 0.083652 0 8147
1.1195 -4.8335 0.81514 2 8302
1.151 -2.997 0.4512 0 8079
1.1703 3.4007 0.33553 1 23170
1.1784 -5.0879 -0.12125 0 8301
1.1801 4.1209 0.80763 0 22967
1.1863 7.9191 0.93641 0 22521
1.1922 -3.7379 0.5514 0 8153
1.2074 5.4463 -0.12952 0 22761
1.2179 -3.7775 0.55781 0 8148
1.2208 -3.0959 0.23271 0 8069
1.2256 3.0893 0.31007 1 23357
1.2446 8.669 -1.2308 0 22488
1.2634 -3.0485 -0.23075 1 8050
1.2716 -2.789 0.071164 0 7971
1.2726 -5.5699 1.0765 0 8308
1.2989 -8.0106 1.3333 0 8448
1.3198 -3.591 0.17841 0 8099
1.3351 3.4835 -0.43626 0 23308
1.336 8.7616 -1.2456 0 22524
1.3428 3.7257 0.27693 0 23236
1.3452 7.7557 1.4831 0 22602
1.3471 -3.632 0.18065 0 8093
1.3562 -4.6198 0.22453 0 8184
1.3584 8.5666 -0.20138 0 22544
1.3586 -7.8008 1.1128 1 8421
1.3689 3.7673 0.65853 0 23251
1.3753 3.7481 0.65594 0 23264
1.3867 3.555 0.17795 0 23337
1.4029 4.2795 -0.73992 0 23098
1.4046 -6.9786 1.1695 0 8370
1.4118 -3.6118 0.545 0 8073
1.4147 -5.2106 0.6314 0 8218
1.431 4.997 -1.1048 0 22965
1.4418 -3.5383 0.71987 0 8058
1.4442 -3.5691 0.72543 1 8062
1.445 3.328 0.68358 0 23453
1.4594 5.0397 -1.1152 0 22976
1.4873 -6.6866 0 0 8323
1.495 -5.1458 0.12441 0 8189
1.5082 3.3938 0.34649 0 23475
1.5098 -3.4706 0.26466 0 8014
1.5161 3.1141 -0.24219 1 23598
1.5216 -5.2375 1.0276 0 8190
1.5283 3.117 -0.24275 1 23606
1.5301 6.3683 -0.61104 1 22817
1.5333 -9.6371 1.8386 0 8456
1.5757 2.9068 0.15419 0 23743
1.5769 2.9311 0.15522 0 23731
1.6165 -3.1509 -0.24764 0 7843
1.6208 4.0157 -0.50642 0 23368
1.6308 -2.9215 0.23396 0 7761
1.642 -4.7206 0 0 8121
1.6468 -4.8209 0.95983 0 8126
1.6663 -2.9851 0.39979 1 7762
1.6849 -2.6621 0.36843 0 7663
1.6949 5.4924 0.40194 0 23040
1.6957 -2.8422 0.54375 0 7716
1.7139 -4.621 0.45982 0 8094
1.7153 -3.3898 0.62416 0 7863
1.7167 -3.7102 0.77023 2 7957
1.7237 7.174 1.3901 0 22825
1.7262 -3.2247 0.68914 0 7805
1.7264 -3.1364 0.16696 0 7776
1.7354 -3.6091 0.56282 1 7918
1.736 -4.2602 0.75581 0 8057
1.7526 -7.2779 0.1738 0 8283
1.7526 9.7698 0.69408 0 22622
1.7625 -3.2021 0.42743 0 7777
1.7683 -4.0961 0.84059 1 8021
1.7723 -8.8055 0.62809 0 8369
1.7761 3.325 0.71024 1 23722
1.7794 3.3522 0.71506 0 23711
1.795 7.1995 -0.34602 0 22849
1.7969 2.9788 0.65544 0 23935
1.8063 -3.6774 0.67312 0 7892
1.8374 -2.5004 0.36285 0 7437
1.8547 2.6566 0 0 24251
1.8547 3.0541 0.67321 0 23945
1.8638 -8.2636 0.79032 0 8317
1.8672 -3.0267 0.58428 0 7689
1.8679 3.4005 0.73098 0 23769
1.8776 7.5306 -0.9076 2 22845
1.8982 2.4667 0.29038 0 24535
1.9206 -2.5047 0.22071 0 7341
1.9272 -2.7895 0.55705 0 7549
1.9318 -6.7951 -0.32944 0 8199
1.942 5.4386 0.53877 1 23226
1.9523 -6.8672 0.83489 0 8200
1.9705 3.4658 0.56031 0 23830
1.9721 8.0107 0.57689 0 22841
1.9814 3.4639 0.65562 0 23842
1.9815 4.9945 0.75515 0 23359
1.9843 -4.4547 -0.22742 0 7993
1.9874 4.2063 -0.87651 0 23564
2.0036 -3.1462 0.61282 0 7660
2.0092 3.2229 -0.17711 1 23990
2.0213 3.3284 -1.4173 0 23942
2.0232 -5.4549 0.95586 0 8096
2.0284 -5.6186 0.27857 0 8106
2.0305 -3.1665 0.618 0 7655
2.048 -3.0755 0.69617 0 7603
2.0496 -3.9372 -0.41411 2 7830
2.0498 3.3528 -1.4303 0 23954
2.0793 3.809 -0.81763 0 23759
2.0801 -4.9387 0.37473 0 8040
2.0819 -3.3111 0.73691 0 7671
2.0859 -6.1662 1.2264 0 8130
2.0998 2.845 0 0 24399
2.1101 2.8423 0 0 24417
2.1157 7.0743 -0.68889 0 22996
2.1334 9.6229 1.8571 0 22765
2.1342 6.5722 0.64467 0 23095
2.1457 -4.3993 -0.22826 0 7895
2.1513 4.9547 -0.88745 0 23441
2.1936 -2.482 0.15447 0 7031
2.1952 -5.1292 0.7841 0 8027
2.1969 3.5934 0.39293 0 23956
2.199 5.8379 0.14484 0 23293
2.2049 -5.6934 0.56961 0 8076
2.2299 -7.5136 -0.36549 0 8179
2.2328 -3.9464 0.85429 0 7753
2.239 2.7394 0 2 24720
2.252 7.9427 -0.19167 0 22950
2.2531 2.7744 0 0 24701
2.2995 6.8132 0.67087 0 23144
2.3009 -9.3253 1.8097 0 8274
2.3041 2.7872 0.33738 0 24767
2.3268 7.9467 1.5601 0 22986
2.3431 -2.8976 0.7021 1 7219
2.3735 -5.1297 -0.39524 0 7952
2.4061 -4.6899 0.36859 0 7846
2.4239 3.6469 0.61542 0 24130
2.4285 -7.2454 1.4397 0 8134
2.4303 7.0621 -1.0496 0 23160
2.4343 -6.8024 1.3612 0 8112
2.4427 3.4119 0.7906 0 24320
2.4808 -4.8353 0.76378 0 7847
2.4882 1.8398 0.50841 0 26634
2.4887 3.6292 0.82911 0 24205
2.4928 -3.9924 0.10928 0 7673
2.5037 5.1425 -1.3552 0 23600
2.5066 4.7885 -1.0183 0 23692
2.5085 -3.9896 0.10942 0 7666
2.5166 -4.6043 0.48954 2 7783
2.5244 -2.8076 0.71135 1 7007
2.5347 -5.0092 0 0 7859
2.5587 -4.8799 -0.25695 0 7822
2.5719 -3.7688 0.10593 0 7564
2.5726 5.8329 0.2973 0 23468
2.5737 -2.715 0.086855 0 6933
2.5856 -4.3048 0.94613 0 7710
2.6063 4.9474 0.65393 0 23702
2.6065 9.5018 1.1522 0 22925
2.6091 -4.3149 0.70867 0 7703
2.6125 3.4158 0.70652 0 24522
2.6225 -5.932 0.75846 0 8001
2.6705 -6.0893 0.62033 0 8008
2.6837 6.0847 0.1544 0 23467
2.6853 8.7015 -0.84959 0 23031
2.6954 -7.0182 0.17455 0 8078
2.7042 -7.5567 0 0 8111
2.7255 -7.278 0.36242 0 8090
2.7631 -3.0186 -0.38179 0 6972
2.7633 -9.0213 0.88024 0 8167
2.787 -5.3152 0.98602 0 7827
2.7889 -1.2957 0.071396 0 5847
2.812 2.9396 0 0 25285
2.8199 -2.7108 0.64265 0 6850
2.8208 1.6695 -1.4594 1 372
2.8594 -8.6159 0 0 8137
2.8664 -3.0599 -0.58926 1 6943
2.9 -6.936 0.35059 0 8046
2.9029 7.0744 0.71341 0 23384
2.9051 6.1905 1.1235 0 23553
2.9085 4.9475 0.53543 0 23885
2.9213 -7.4733 0 0 8072
2.9526 8.3425 0.82562 0 23209
2.9537 -7.7553 1.3634 2 8083
2.9798 -4.4748 0.25071 0 7598
2.9869 2.1274 -0.085137 0 26748
2.9883 8.1439 1.0145 0 23261
2.9885 0.80861 0 1 2453
2.9961 5.1644 -1.2691 2 23862
3.0208 -6.2378 0.8105 0 7908
3.0267 -5.3869 0.43207 0 7756
3.0379 -6.2286 0.64653 0 7898
3.0429 -0.17599 0 0 4406
3.0517 -0.079377 0.14236 0 4263
3.0534 -0.087956 0.14245 0 4278
3.0574 0.18807 -0.071118 0 3789
3.0852 7.1638 0.18109 0 23439
3.1006 -0.333 0.21806 0 4574
3.1029 0.54601 0.14692 0 3064
3.119 -2.1485 0.71358 0 6504
3.1277 -0.67224 0.074275 1 4879
3.1295 -6.5582 1.0213 0 7926
3.1319 -4.7335 0.26469 0 7608
3.1442 -8.5549 0.85033 0 8100
3.1572 8.5305 1.7138 0 23273
3.159 -0.3862 0.14841 0 4618
3.1611 -6.988 0.35767 0 7981
3.1652 -6.7816 0.349 0 7948
3.1666 6.9038 1.0675 0 23517
3.1732 -1.1612 0.39514 2 5405
3.185 -4.2037 0.61676 0 7372
3.191 -4.1377 0.36538 0 7327
3.1947 -5.7657 1.083 2 7772
3.1965 -0.22184 0.3747 0 4454
3.2047 -2.3766 0.75172 0 6640
3.2181 -8.2329 1.4523 0 8074
3.2202 6.9691 1.2613 1 23529
3.2219 -1.8169 0.69691 0 6163
3.2275 -1.192 0.40235 0 5419
3.2651 -1.5756 0.59563 0 5921
3.2684 -1.8304 0.7058 0 6151
3.2754 5.9211 0.63129 0 23779
3.2859 -7.1507 1.4827 0 7965
3.294 -6.1951 -0.3272 0 7808
3.3066 -2.4076 0.3816 0 6606
3.3073 4.1953 -0.24913 0 24604
3.3204 -6.3325 1.3472 0 7828
3.3234 -4.4947 0.26068 0 7424
3.3255 6.0117 -0.1595 0 23776
3.3276 -7.7751 1.5934 1 8029
3.3309 -3.7046 -0.34836 0 7002
3.3369 -3.981 0.1206 0 7133
3.337 -5.1091 0.14168 0 7625
3.3389 7.3367 1.1329 2 23505
3.3696 0.16775 0.23592 0 3866
3.3711 -6.3831 0.67347 1 7817
3.3721 0.15726 0.23606 0 3884
3.3729 2.68 0 0 26368
3.3806 -3.0141 0.52965 0 6826
3.3857 2.7057 0 0 26342
3.3925 -3.0247 0.74673 0 6827
3.4072 7.2112 0.93269 0 23562
3.4286 -2.0382 0.37213 0 6252
3.438 -0.27903 0.64988 0 4497
3.4735 1.5436 0.62449 2 1354
3.4797 1.5587 0.62643 1 1327
3.4939 -4.964 0.85313 0 7519
3.5145 0.06196 0.081609 2 4045
3.5203 -2.4249 0.70231 0 6502
3.5229 -3.4862 0.57959 0 6871
3.5242 0.62014 -1.3024 0 3062
3.5264 5.0814 1.1653 0 24241
3.5446 0.28893 0.58428 0 3671
3.5551 -2.2284 0.2934 0 6339
3.5591 0.61669 -1.3147 0 3084
3.562 -0.082078 -0.50074 2 4242
3.5626 -5.7058 0.31369 0 7674
3.5711 1.7133 0.36952 0 1114
3.5866 0.053212 0.08328 0 4060
3.5882 -2.5822 0.7263 0 6585
3.5909 7.3234 0.95383 0 23609
3.6073 -8.9149 1.58 0 8061
3.615 2.6072 0.31167 1 26711
3.6298 4.1875 0.91047 0 24941
3.634 -6.1277 0.33223 0 7720
3.643 -2.9374 0.43659 0 6755
3.648 -2.6876 -0.2113 0 6623
3.6661 -2.3881 -0.71884 1 6395
3.6829 -2.6503 0.63769 0 6584
3.7001 0.12986 0.60828 0 3952
3.7354 -0.020863 -1.0711 2 4161
3.7446 6.9081 1.4805 2 23745
3.7568 0.53869 0.71506 1 3287
3.7599 -5.7567 1.1297 1 7629
3.7693 -2.393 0.10366 1 6358
3.7698 -6.4876 1.2328 0 7738
3.7724 8.1047 0.20755 0 23537
3.777 -7.0029 -0.55638 0 7792
3.7944 -6.1943 0.33875 0 7691
3.8018 -7.8504 1.6434 0 7912
3.8052 -2.4 0.10445 0 6347
3.825 5.8319 -0.32525 0 24099
3.8363 8.4296 -0.21502 0 23503
3.8487 -3.744 0.62791 0 6860
3.8551 -7.9041 1.4448 0 7901
3.8747 5.6504 0.80121 0 24201
3.8793 -7.296 1.3576 0 7813
3.8801 -3.2236 -0.23525 0 6784
3.8802 4.1262 0.93057 1 25233
3.8965 4.119 0.93154 0 25252
3.9082 7.9077 1.6619 0 23622
3.9168 7.2258 -0.38329 0 23740
3.9371 7.8008 0.81522 0 23646
3.9472 4.6627 -0.42719 0 24845
3.9485 0.99546 0.28475 0 2579
3.9557 2.6813 0.22286 1 26921
3.9621 4.0445 -0.26403 2 25372
4.0223 -5.0604 1.2179 0 7262
4.0323 8.5923 -0.22036 0 23548
4.0447 -2.7705 0.57332 0 6489
4.0516 -0.71149 0.77505 0 4767
4.0595 8.7855 1.1318 0 23527
4.0624 -6.461 0.8925 0 7668
4.0715 8.3036 1.5194 0 23611
4.0768 3.8391 0.65486 0 25688
4.0831 -2.1328 0.53871 1 6044
4.0881 1.4172 -0.10046 0 1962
4.1114 -2.5591 0.91243 0 6331
4.1304 -1.0782 -0.09911 0 5045
4.1342 8.1913 1.073 0 23647
4.1778 -4.8111 1.2005 0 7064
4.2022 -8.6773 1.355 1 7909
4.2086 -8.4411 1.7771 0 7879
4.2141 -4.8239 1.2068 0 7052
4.2345 7.4481 0.19892 0 23828
4.2418 -7.9776 1.2698 0 7811
4.2644 -5.6283 0.65879 0 7370
4.279 -2.7166 0.23636 0 6360
4.2934 4.5116 0 0 25262
4.2965 -0.89602 0.40947 0 4860
4.3367 -0.73661 0.10213 1 4747
4.358 -7.3484 1.4036 0 7723
4.3698 2.4663 0.94539 0 566
4.3948 -7.7143 0.41403 0 7745
4.4294 -8.2126 1.533 0 7797
4.4308 3.2954 0.90723 0 26614
4.5151 -3.3691 0.52558 0 6648
4.5771 2.6725 -0.24717 1 424
4.606 -3.115 0.38882 0 6465
4.6112 0.97846 0.55125 0 2843
4.6247 0.70437 0.65745 0 3228
4.6338 1.9326 0.11656 0 1534
4.6382 0.72052 0.65968 2 3207
4.641 0.97041 0.44235 0 2860
4.6698 -4.8987 -0.79145 1 6924
4.6734 2.1091 0.84238 0 1303
4.6839 7.8667 -0.21256 0 23907
4.7045 1.6928 0.34962 0 1888
4.7191 -0.88572 0.90465 0 4805
4.7283 -1.2625 0 0 5067
4.7358 2.2033 -0.36524 2 1195
4.7442 3.6141 0.97986 0 26538
4.7645 -7.6783 1.0567 0 7681
4.8099 -2.9176 -0.52484 0 6278
4.8128 -4.4147 0.30456 0 6840
4.8694 -4.1427 0.8985 0 6807
4.874 -2.7655 0.26133 0 6172
4.8756 0.87375 0.69614 0 3048
4.881 -1.3932 0.83395 0 5137
4.8833 5.8362 -0.35487 0 24804
4.8877 5.1362 0.16461 0 25264
4.8882 -0.15533 0.57193 0 4296
4.8943 4.0996 0.44644 0 26154
4.909 -1.0238 0.11643 2 4858
4.9187 -4.7849 0.64021 1 6859
4.9329 -0.099885 0.34502 0 4234
4.9362 3.4976 0.56441 0 26774
4.9388 3.1987 0.82697 1 47
4.9455 -2.8243 0.66601 0 6186
4.9592 -3.4364 0.28136 0 6514
4.9647 -7.6507 0.85089 0 7635
4.9778 -5.5988 0.52387 0 7022
4.9895 -3.4575 0.14094 0 6512
4.9931 -0.08454 0.3492 0 4218
5.0054 -3.0565 1.105 0 6298
5.037 3.7245 0.88041 0 26632
5.0539 -3.9315 0.2986 0 6709
5.0598 -3.0692 1.115 0 6286
5.0609 3.1354 0.69621 0 214
5.0891 -0.8024 0 0 4713
5.1115 4.1584 0.61476 1 26277
5.1199 7.1937 1.4507 0 24303
5.1343 -0.82421 0 0 4722
5.1421 5.932 0.91806 0 24937
5.1666 7.3052 0.20774 0 24284
5.1724 -2.7225 1.1013 0 6058
5.203 4.4864 0.1595 0 26033
5.2123 -2.7226 1.108 0 6046
5.2418 -0.81147 0.24736 0 4705
5.2494 -0.89164 0.8748 0 4749
5.2747 1.2148 1.0198 0 2728
5.2775 3.8315 0.60844 0 26691
5.2882 -1.1995 -0.1259 0 4928
5.2904 -5.2978 0.87554 0 6878
5.2941 -3.2736 1.1728 0 6320
5.304 -5.5001 1.0739 0 6915
5.3214 1.2256 0.38185 0 2721
5.3362 -0.33946 0.37389 0 4428
5.3508 -4.3423 0.80585 0 6762
5.3729 -0.35875 0.37655 0 4441
5.4206 -5.5877 0.91039 0 6908
5.4519 7.6151 0.21744 0 24313
5.4532 4.2804 0.32329 0 26418
5.4574 2.4253 0.55717 0 1348
5.4623 -4.564 1.0004 0 6791
5.4885 -2.7869 1.0113 0 6003
5.5089 1.8411 0.13485 0 2043
5.5129 -2.9833 0.14553 0 6094
5.5557 -0.58001 0.26049 0 4565
5.5656 -5.9081 0.75726 0 6940
5.5717 -4.575 1.1845 0 6774
5.5774 3.1478 -0.74894 1 543
5.5823 -0.53555 -0.26152 1 4537
5.5934 0.90293 0.26422 0 3163
5.6119 0.34521 0.13054 0 3792
5.6355 -8.157 1.1594 0 7546
5.6484 0.79283 0.26599 0 3300
5.6493 -4.5291 0.84674 0 6746
5.6519 0.64395 -0.13207 0 3456
5.6643 2.6149 0.43626 0 1229
5.6708 -2.6963 0.7343 0 5894
5.7487 0.84172 0 0 3260
5.7564 3.8304 1.3027 0 26997
5.7905 -7.8311 1.6001 1 7429
5.8179 -4.9777 1.0761 0 6813
5.8325 5.1801 1.4697 0 25927
5.8467 4.5091 1.0377 0 26492
5.849 -4.2091 0.1673 0 6580
5.9076 7.9113 1.6222 0 24446
5.9323 -5.4417 1.3226 0 6841
5.9457 -5.7498 1.3589 0 6855
5.9653 -0.65857 0.98602 0 4586
6.0207 -3.3031 -0.4802 2 6112
6.0656 0.017998 0.5659 1 4121
6.0943 -0.67282 0.57203 0 4584
6.1001 -0.69286 0.57277 0 4594
6.1087 2.693 0 0 1368
6.1236 3.5013 1.329 0 516
6.1396 -0.40995 0.28695 0 4440
6.149 -5.9464 1.2022 0 6854
6.1537 0.27083 1.1605 0 3907
6.1539 -6.2013 -0.40742 0 6883
6.1681 1.8435 1.0577 0 2270
6.1838 1.9272 1.0642 1 2187
6.2309 0.5276 0.29161 0 3645
6.2494 1.7884 0.15092 0 2351
6.2551 0.3114 0.58429 0 3868
6.2705 1.3305 1.0531 0 2846
6.2734 5.3827 0.77119 0 26062
6.284 -4.1703 1.0599 0 6433
6.2894 1.2009 0.2986 0 2972
6.3081 7.0305 1.1046 0 25059
6.3489 -0.27387 1.0441 0 4352
6.381 -0.72476 0 0 4593
6.4161 1.129 1.0703 0 3071
6.4614 3.2145 -0.84395 1 986
6.4938 0.30283 -1.0681 0 3873
6.5153 -5.1918 0.38851 0 6739
6.5535 -1.5468 1.2687 0 4970
6.5708 -1.1929 0.15505 0 4782
6.5946 0.46345 0.30829 0 3738
6.5974 -4.4903 0.55805 0 6477
6.6002 -3.1382 0.68183 0 5893
6.6261 3.272 0.51676 0 1020
6.6501 -0.52221 1.0959 0 4485
6.6878 -2.1009 0 0 5215
6.7004 -6.907 1.581 1 6909
6.7328 -6.2872 1.7356 0 6843
6.7357 -1.4883 -0.16015 1 4902
6.7442 -5.407 1.4202 0 6747
6.7898 -1.5214 -0.16155 0 4915
6.819 4.7112 1.5616 0 26863
6.8245 -6.9132 0.67929 0 6889
6.8586 -1.5155 0 0 4903
6.8681 -6.8777 0.90681 0 6877
6.9399 -2.563 0.17176 0 5414
7.0053 -2.1779 -0.17032 0 5204
7.0288 2.5291 0.17343 0 1884
7.0381 3.2491 0.17998 0 1225
7.0944 1.5702 0.1687 0 2779
7.137 0.20809 -0.16577 0 3980
7.144 2.432 0.88251 0 2007
7.1447 -3.1467 0.54591 0 5741
7.1606 -4.4018 1.3809 1 6309
7.1795 2.3508 0.88344 0 2085
7.2042 2.2452 -0.1752 0 2178
7.2047 2.5231 0.35599 0 1945
7.2048 -4.2304 1.5742 0 6229
7.2153 -4.0143 1.1604 0 6139
7.233 -6.3387 1.3516 0 6818
7.3091 -5.5842 1.733 0 6687
7.3129 2.1412 0.17691 0 2307
7.323 -2.6798 0.18104 0 5401
7.3374 -3.3068 1.3223 0 5794
7.366 2.0386 1.0741 0 2419
7.3675 -0.19164 0.17111 0 4262
7.4052 -0.10599 -0.17195 0 4202
7.5133 -3.2295 0.57186 0 5695
7.5185 0.769 1.0622 0 3539
7.5435 3.3791 -0.19191 1 1315
7.5824 -5.1607 -0.42773 0 6473
7.5834 -4.6617 0.20667 0 6305
7.6187 -1.3832 0.90551 0 4785
7.7192 2.831 -0.9615 0 1835
7.7242 -4.3826 1.4591 0 6175
7.7565 -1.5274 0.36866 0 4824
7.8052 5.063 0.216 0 27080
7.8185 2.9684 0.97799 0 1770
7.8317 0.071082 0 0 4087
7.9967 1.8418 0.95964 0 2724
8.0486 -5.5772 0.68473 0 6516
8.0868 2.0869 0.77918 1 2541
8.1133 3.4908 0.61762 0 1449
8.1284 0.16601 1.1426 0 4032
8.1585 0.43043 0.18968 0 3846
8.2034 -2.9744 0 0 5388
8.2613 1.9559 -0.19711 0 2678
8.3211 0.90102 0.19432 0 3495
8.3483 -2.3608 1.4254 0 5126
8.3491 2.5733 0.61093 0 2203
8.3598 4.7182 0.22287 0 554
8.39 -1.4462 -0.19766 0 4757
8.4102 5.2757 0 0 158
8.4283 4.2852 -1.3288 0 916
8.4404 1.2855 1.6086 0 3230
8.4419 -4.536 1.8056 0 6087
8.4626 0.051695 0.39465 0 4103
8.507 -3.5708 0.43024 0 5646
8.518 -0.518 -0.19813 0 4417
8.5847 -3.6901 1.3132 0 5697
8.5963 1.6943 0.20342 0 2932
8.6095 -0.4723 1.4166 0 4399
8.6267 2.853 1.4928 0 2067
8.6539 0.27952 0.80779 0 3965
8.6935 -1.5783 0.82432 1 4784
8.7111 -0.42909 -0.20249 0 4372
8.746 -3.7287 0.44338 0 5678
8.7747 -0.45526 0.61442 0 4383
8.79 -1.2056 0.62041 0 4655
8.8065 0.0030765 0.61581 0 4131
8.8417 -4.3621 0.91982 0 5955
8.8651 3.4279 0.66464 0 1726
8.9033 -1.2989 1.2645 2 4682
8.9415 1.683 0.84885 0 2993
8.9428 3.8477 -0.22603 0 1442
9.0066 3.6921 0 0 1572
9.0093 -2.8303 1.5515 1 5222
9.0621 3.0568 1.5713 0 2030
9.064 -1.4032 0 0 4704
9.129 -1.4655 0.86259 1 4723
9.4031 1.098 -1.3305 0 3430
9.4213 1.2956 0 0 3315
9.4462 -0.65557 0.8834 0 4452
9.4594 0.74614 0.88526 0 3687
9.4636 0.68999 -1.3336 1 3710
9.4663 1.8075 -1.3544 1 2960
9.4917 0.14082 0.88563 0 4063
9.5037 1.6177 1.8163 0 3111
9.6015 0.78264 -1.3539 1 3654
9.6416 0.11612 -1.1276 2 4071
9.644 0.17002 0.44981 0 4046
9.6851 0.82009 0.90681 0 3648
9.9016 0.78102 -1.3959 1 3674
-13.781 2.1137 -0.97492 0 10857
-13.452 -1.9888 -0.31571 0 10296
-12.582 0.63738 1.7706 0 10580
-12.452 0.052155 1.75 0 10477
-12.161 5.0421 0.30564 1 11988
-11.968 1.4101 -0.27978 0 10751
-11.664 -0.18731 1.9166 0 10436
-11.438 0.71162 2.1592 0 10610
-11.33 1.3029 1.064 0 10744
-11.247 -0.21595 0.26117 0 10430
-11.044 2.8624 -0.26488 0 11248
-10.727 5.7857 0 0 12641
-10.641 -8.1183 2.5218 0 10199
-10.641 -0.66761 0 0 10370
-10.628 0.16696 1.7464 0 10503
-10.442 -0.59657 0.48773 1 10375
-10.432 0.70938 0.73119 0 10626
-10.31 2.2914 0 0 11105
-10.207 -1.4508 -0.23935 0 10299
-10.198 3.7481 0.25225 0 11753
-10.12 0.39585 1.9082 0 10557
-9.5317 -8.2392 2.07 0 10138
-9.0839 -9.2988 1.5202 0 10060
-8.968 10.867 -1.6477 2 16027
-8.7853 -9.474 0.29998 1 10021
-8.6925 -6.4368 0.50441 1 10213
-8.6061 -6.3728 1.505 0 10215
-8.4585 -8.4085 0.2769 0 10076
-8.2964 6.9566 1.0101 0 14327
-8.1206 -6.3834 0.96366 0 10185
-8.1014 -6.3683 1.9415 0 10186
-7.9809 -7.0634 0.99432 0 10126
-7.8089 -10.292 2.1225 0 9863
-7.8019 -6.6682 0.23828 0 10143
-7.7849 -8.5465 2.1781 0 10009
-7.7159 8.6602 0.26929 0 15691
-7.6699 -8.5153 1.0692 0 10001
-7.4534 7.9844 1.5351 1 15491
-7.3042 11.822 -0.32263 0 17298
-7.2655 7.9679 0.25035 0 15587
-6.9936 -9.3315 -0.54381 0 9848
-6.9427 -9.7261 1.9633 0 9819
-6.4897 -8.6059 1.2605 0 9857
-6.3719 -9.741 1.9124 0 9777
-6.3001 -8.3031 -0.48605 0 9861
-6.2117 9.1919 0.51736 1 16933
-6.0777 -11.18 1.7884 0 9691
-5.884 -10.747 0.28447 1 9694
-5.7759 -8.4482 1.9282 1 9797
-5.2319 8.9247 0.24019 0 17515
-5.1364 -8.8822 1.6857 0 9725
-5.1017 -10.139 1.5952 0 9653
-5.021 -9.7656 2.0689 0 9664
-4.6544 -9.2502 1.7013 1 9654
-4.4838 -11.548 2.0353 0 9568
-4.3659 11.841 -1.7736 1 19115
-4.311 -9.6599 1.7379 0 9615
-4.1061 13.782 2.7095 0 19645
-3.9107 12.72 0.62058 1 19565
-3.68 -11.166 2.2152 0 9527
-3.6547 12.022 2.3674 0 19598
-3.4064 -10.559 2.0904 0 9521
-3.376 10.981 0 0 19562
-3.3122 -11.379 -0.27514 0 9469
-3.1623 -12.943 2.189 0 9352
-3.0976 -11.79 2.0028 0 9406
-3.0715 5.0025 -1.5367 0 17335
-2.9512 -9.9248 1.4552 0 9483
-2.8943 -0.39338 -0.20425 0 10303
-2.3482 -10.991 -0.26094 0 9250
-2.2342 -1.832 0.47469 0 10166
