VERSION .7
FIELDS x y z intensity index
SIZE 8 8 8 8 8
TYPE F F F F F
COUNT 1 1 1 1 1
WIDTH 1544
HEIGHT 1
VIEWPOINT 0 0 0 1 0 0 0
POINTS 1544
DATA ascii
-9.3993 0.41531 1.7726 0 9582
-9.3842 -0.15561 -0.2179 0 9462
-9.1221 1.9939 -0.21679 0 9949
-9.0089 -0.17613 1.0537 0 9456
-8.9788 0.92154 0 0 9697
-8.9787 3.0339 -0.22004 0 10333
-8.9476 3.7649 0.4527 0 10670
-8.9152 -0.64061 1.4685 0 9331
-8.8501 2.3449 -0.21256 0 10081
-8.8332 2.9847 0.43481 0 10334
-8.6866 2.6558 0.21089 0 10219
-8.6811 1.3253 -0.20388 0 9794
-8.6122 0.83381 0.80723 0 9683
-8.5105 2.6019 0.83027 0 10221
-8.4461 1.3649 1.0005 0 9816
-8.4237 2.8972 0 0 10359
-8.3428 2.1064 0.40127 0 10046
-8.3368 1.622 0.79237 0 9887
-8.3171 2.1509 0.80147 0 10065
-8.3147 3.4696 0.20918 0 10655
-8.309 0.19871 0.97195 0 9543
-8.2933 1.2928 1.379 0 9800
-8.2545 3.5857 1.6956 0 10743
-8.2413 0.31804 1.355 0 9570
-8.1033 2.147 0.98031 0 10083
-8.0783 3.791 0.20718 0 10891
-8.0571 3.0896 1.0091 0 10519
-8.048 2.6647 -0.19683 0 10309
-8.047 1.809 0.96452 0 9968
-8.041 3.9462 0.83566 0 11002
-7.9981 1.3413 0.18829 0 9828
-7.9639 1.5495 0.37835 0 9886
-7.9222 0.8131 0.1849 0 9698
-7.8433 2.4459 0.19075 2 10244
-7.7688 2.2291 0.56517 0 10147
-7.7188 -0.77861 0 0 9262
-7.6667 -5.7437 1.5739 1 8860
-7.6404 6.4361 0 0 12916
-7.6081 0.98271 0.53643 1 9748
-7.5591 1.5407 0.71973 0 9912
-7.5396 0.048689 0.35161 0 9506
-7.5249 -6.4269 1.8645 2 8685
-7.5232 -5.9117 1.3447 1 8795
-7.5217 0.79587 1.063 2 9706
-7.492 3.7028 0.97729 0 11020
-7.4869 2.1482 1.4675 0 10152
-7.4847 5.3942 0.43024 0 12295
-7.4815 -0.79954 1.0574 0 9249
-7.4701 -0.863 0.35068 0 9224
-7.4677 -5.9401 1.7978 0 8780
-7.4559 2.2567 0.18086 0 10207
-7.4244 -5.0722 1.2637 2 8963
-7.4212 -6.6797 0.93152 2 8607
-7.4047 2.8394 1.4942 2 10524
-7.4027 -6.6258 0.92688 2 8614
-7.3974 -5.8484 1.7767 2 8789
-7.3899 3.3631 1.5297 0 10834
-7.378 5.4814 1.0749 0 12424
-7.3705 1.0162 1.2224 0 9766
-7.3041 1.7091 1.2324 0 9995
-7.2846 1.1577 0.68814 0 9808
-7.2717 -0.84008 1.0288 1 9228
-7.2645 -0.88424 1.0285 2 9210
-7.2638 0.98082 1.2042 0 9759
-7.2217 -5.846 0.64971 0 8754
-7.1706 5.3585 0.20783 0 12445
-7.1657 -5.8359 0.64622 0 8746
-7.1435 3.0543 0.90853 1 10703
-7.1305 3.421 0.55303 0 10947
-7.1157 4.0752 1.3472 1 11462
-7.1143 3.0669 0.90598 0 10721
-7.0874 -6.721 0.45549 0 8527
-7.0804 -7.0385 0.69812 0 8471
-7.0727 3.1445 1.2717 1 10788
-7.0362 -0.52658 1.3294 0 9324
-7.0343 0.78529 0 0 9718
-7.0324 -0.6301 0.9923 2 9291
-7.0171 0.10901 1.153 1 9524
-7.0127 -0.60613 0.98924 2 9299
-7.0017 -6.6049 0.22347 2 8535
-6.9997 3.0901 1.2571 1 10773
-6.9981 -5.9055 1.7252 1 8703
-6.998 -5.872 1.7212 1 8712
-6.9434 -6.1042 1.2993 2 8645
-6.9419 -6.6246 0.44748 0 8518
-6.9317 -5.8164 0.8442 2 8709
-6.9064 -6.7045 0.22347 0 8496
-6.8731 -6.5979 0.2212 0 8509
-6.8696 -5.2408 0.80612 1 8835
-6.861 -0.65339 0.643 1 9275
-6.8596 -0.77428 0.48271 2 9234
-6.8587 -5.4557 0.81763 2 8778
-6.8297 -6.4023 1.7638 2 8550
-6.824 -0.75097 0.48006 1 9240
-6.8004 -1.1295 1.1326 1 9106
-6.796 2.9522 0.86648 0 10738
-6.794 -5.6365 0.82358 2 8725
-6.7926 -6.3676 1.3085 2 8548
-6.786 -5.4327 0.60786 2 8770
-6.7817 2.9699 0.86579 0 10755
-6.7812 -5.394 0.6059 2 8777
-6.7765 0.69551 1.2835 0 9699
-6.7755 -5.7869 1.2523 2 8683
-6.7743 -1.3696 1.1355 2 9044
-6.7703 -5.0409 1.3868 1 8867
-6.765 0.65497 0.31695 0 9682
-6.7628 -1.0035 0.96085 2 9149
-6.7513 -1.3233 1.1303 2 9050
-6.7497 -0.32657 0.94972 0 9392
-6.7455 -1.26 0.64021 0 9063
-6.7386 -7.096 1.8437 1 8382
-6.7258 -0.81868 0.47379 2 9209
-6.7189 -5.312 0.59893 2 8784
-6.7178 4.5227 1.1382 0 12037
-6.7164 -0.42491 1.1057 0 9354
-6.7052 -0.34436 0.94359 2 9384
-6.6983 -0.73713 0.62869 1 9241
-6.6951 -0.83273 0.62944 1 9203
-6.6836 -4.3987 1.5075 2 9001
-6.6814 -4.3158 1.4986 2 9011
-6.6736 0.33573 0 0 9594
-6.6728 2.4723 0.16521 0 10459
-6.6546 -6.2012 0.42419 1 8554
-6.6328 -6.1485 0.42177 0 8562
-6.6251 -0.45514 0.93329 0 9338
-6.6216 -6.3921 0.21368 1 8502
-6.603 -0.30215 0.46221 0 9400
-6.6011 -0.64725 0.77565 2 9269
-6.5961 -5.6676 0.40556 0 8673
-6.5956 -4.9738 1.161 0 8851
-6.5805 -0.56877 0.7724 0 9298
-6.575 -4.3833 0.92409 1 8988
-6.5728 2.947 1.0123 0 10801
-6.571 -5.9854 0.4145 1 8589
-6.5659 -4.212 1.4697 1 9013
-6.5519 -4.3928 0.92247 2 8984
-6.5117 -7.265 0.68222 1 8268
-6.5041 3.8496 0 0 11563
-6.5037 1.9265 1.1144 1 10186
-6.5003 1.1088 -0.1531 0 9834
-6.4905 -0.31403 0.45439 2 9391
-6.4876 -0.33319 0.45425 2 9383
-6.467 2.3961 1.2994 2 10466
-6.464 -0.27657 0.60361 0 9406
-6.4515 3.1885 0.50322 2 11017
-6.448 6.3541 1.7056 0 13573
-6.4379 0.75628 0.45328 0 9730
-6.43 -7.566 0.46304 1 8173
-6.4038 -5.1839 1.5523 2 8757
-6.4027 -5.6289 0.59614 2 8642
-6.3997 3.3985 -0.33792 2 11210
-6.3923 -5.2694 1.5608 0 8737
-6.3895 -5.6529 0.59656 1 8632
-6.3579 5.7127 1.4043 0 13196
-6.3575 3.6646 0.17037 0 11475
-6.355 2.5007 0.47755 0 10561
-6.3518 3.4215 0.67309 0 11258
-6.3478 3.3937 0 2 11233
-6.3478 3.3937 0.16712 2 11235
-6.3464 3.3235 1.177 0 11179
-6.3439 -7.0382 1.7852 2 8284
-6.3337 2.5989 1.1248 2 10631
-6.3314 3.1747 0.49527 2 11059
-6.3257 1.6761 0 0 10082
-6.3242 2.617 1.1245 2 10646
-6.3172 3.9138 0.86904 1 11735
-6.3053 3.4678 0 1 11320
-6.2992 0.62875 0.44267 0 9691
-6.2982 3.9294 0.86811 0 11758
-6.2837 -5.8555 0.6006 0 8555
-6.2825 3.4296 1.0059 2 11305
-6.2811 3.4047 0.4996 0 11279
-6.2804 3.4284 0.83675 2 11303
-6.2724 -5.6457 1.186 0 8609
-6.2631 -0.45004 0.7343 0 9329
-6.2611 2.9609 0.64616 0 10913
-6.2551 3.4147 1.1708 0 11307
-6.2524 1.2914 0.44644 0 9921
-6.2473 -7.1765 0.66534 2 8216
-6.2355 2.9916 0.64523 1 10949
-6.226 0.43973 0.72989 0 9633
-6.2207 4.1377 0.87369 0 11990
-6.213 -4.5991 1.0864 2 8872
-6.2102 3.2743 1.3227 2 11203
-6.2086 3.5069 0.49862 1 11410
-6.2072 -0.44603 0.29021 2 9328
-6.2046 -0.42625 0.29003 0 9336
-6.1937 3.1749 0 0 11110
-6.1891 -0.42519 0.72548 2 9337
-6.1891 3.4959 0.99898 2 11414
-6.1846 2.9024 1.2872 0 10901
-6.1825 2.879 1.285 1 10883
-6.1824 2.8593 0.79656 1 10859
-6.1617 3.5518 0.99954 2 11481
-6.1544 2.6735 1.1024 0 10741
-6.1522 -5.0715 1.3099 2 8736
-6.1512 -7.0315 1.0925 2 8229
-6.1332 2.1094 0.6051 0 10361
-6.1331 5.9767 0.19882 1 13522
-6.1327 2.3333 0.92216 2 10504
-6.1292 -6.1614 0.60772 0 8457
-6.1261 2.9391 0.31686 2 10945
-6.1234 2.9168 0.3163 0 10929
-6.1215 -0.38728 0.86204 0 9353
-6.1196 -4.6991 0.35981 2 8828
-6.1115 4.2208 0.86857 0 12131
-6.1022 4.1595 1.2133 2 12086
-6.0973 3.1484 0.64021 2 11132
-6.0916 3.774 1.1773 1 11739
-6.0827 -5.6385 1.5627 1 8567
-6.0779 3.1599 0.6391 0 11152
-6.0738 -5.5325 0.19075 0 8588
-6.0621 5.7366 1.3712 0 13411
-6.062 4.1866 1.2104 2 12135
-6.0496 3.4395 0.48662 2 11431
-6.0459 3.485 0.81607 0 11479
-6.0439 7.0118 1.7441 1 14222
-6.0433 3.4358 0.977 2 11437
-6.038 -0.77027 1.1468 0 9199
-6.0317 3.8102 1.1721 2 11811
-6.0292 3.6399 0.9898 1 11645
-6.0274 3.0222 0.31444 2 11057
-6.0225 1.4092 0.86928 0 9993
-6.0201 3.6344 0.82235 2 11643
-6.0197 2.9974 0.3136 2 11034
-6.0163 2.2686 1.0564 1 10491
-6.0162 -5.2891 1.3161 2 8646
-6.0138 -0.78426 0.99639 1 9192
-6.0125 3.8733 1.3475 2 11882
-6.0071 3.5554 0.32553 1 11566
-6.0055 -0.30843 0.98796 2 9385
-6.0046 -0.78306 1.1409 0 9193
-6.0009 -0.94294 0.99801 1 9132
-5.9997 2.8373 0.3095 1 10910
-5.9974 3.2306 1.2835 0 11265
-5.9963 2.9 0.31062 2 10964
-5.9936 -5.0579 0.91713 0 8701
-5.9751 2.1925 1.0457 2 10450
-5.9642 -5.1828 0.36847 1 8657
-5.9636 3.5776 0.32431 1 11615
-5.9629 -5.1543 0.73533 1 8666
-5.9563 3.9859 0.66864 0 12012
-5.9491 3.4541 0.48104 2 11498
-5.9442 -5.9091 0.78196 0 8472
-5.9365 4.2001 1.3701 1 12230
-5.9286 4.1946 0.67755 2 12223
-5.9249 -4.6557 0.70301 0 8794
-5.9165 -0.6323 0.97759 1 9250
-5.9026 4.5736 0.87322 0 12594
-5.8998 3.3543 0.31649 0 11429
-5.8991 3.067 0.31006 0 11148
-5.8989 3.7262 1.3146 1 11813
-5.8947 -0.61332 0.9737 1 9257
-5.8939 3.2859 0.78913 2 11369
-5.8757 3.9558 0.66083 2 12034
-5.8744 4.6912 1.4164 2 12713
-5.8723 3.0752 0.30913 2 11172
-5.8713 -0.38688 0 0 9343
-5.8711 4.079 0.66696 2 12155
-5.8684 -5.3137 0.55359 0 8598
-5.8639 -0.78242 1.1146 0 9185
-5.8633 3.9727 0.99537 1 12061
-5.85 -5.4839 0.5607 0 8545
-5.8256 -7.017 0.42531 0 8136
-5.7934 -7.0229 0.42456 0 8124
-5.7658 -7.7325 0.44981 0 7917
-5.7651 -7.6868 1.1236 1 7932
-5.7633 -7.6371 1.5719 2 7947
-5.7547 -4.3902 0.33754 1 8833
-5.7485 -4.7387 0.34742 0 8732
-5.7443 3.3999 0.62275 1 11569
-5.7396 -7.4692 1.5476 2 7984
-5.7337 -6.4399 0.80444 2 8259
-5.7333 -5.2517 0.54368 1 8580
-5.7125 3.2478 0.76845 1 11435
-5.7079 -4.3263 0.334 0 8842
-5.7056 -7.7473 0.44869 0 7896
-5.7034 -3.7764 0.63817 1 8993
-5.7027 4.6361 1.2075 2 12782
-5.6959 -0.99716 0.95003 0 9088
-5.6941 -7.8747 1.5966 2 7871
-5.6897 3.4594 1.2546 2 11672
-5.6759 2.8683 0.89377 0 11082
-5.6716 2.7625 0.44114 1 10984
-5.6666 -6.2144 1.5845 2 8309
-5.6646 -7.6469 1.3375 0 7909
-5.6584 -6.8985 0.41608 1 8113
-5.6503 3.2806 0.60956 2 11500
-5.6402 3.2302 0.76009 2 11458
-5.6401 2.4899 0.28751 0 10767
-5.6231 7.8082 0.89771 0 14939
-5.6165 3.2794 0.60677 1 11522
-5.6148 1.3138 -0.13388 0 9992
-5.6101 2.8536 0.88458 0 11100
-5.6058 4.7222 1.2042 0 12925
-5.6029 -5.0733 0.88391 0 8600
-5.6021 -6.791 1.2372 0 8128
-5.5924 -4.3441 1.3342 2 8816
-5.5854 -0.69471 -0.13068 0 9202
-5.5836 4.6471 0.67774 0 12870
-5.5797 3.0245 0.7422 0 11282
-5.5788 1.6886 0.81917 0 10210
-5.5782 -0.95951 0.92992 1 9095
-5.5768 -0.31961 0 0 9367
-5.5692 -5.6337 1.3015 2 8454
-5.568 -7.2458 0.42615 0 7979
-5.5663 -4.3239 0.32869 2 8810
-5.5473 0.47264 0.91468 2 9658
-5.54 -4.3034 0.9859 2 8814
-5.5336 -7.1159 0.42037 1 8005
-5.5297 1.11 0 0 9903
-5.5178 -7.773 1.3397 1 7841
-5.5095 -6.6362 1.0087 0 8139
-5.5042 -3.5786 0.76776 1 9006
-5.4962 -6.6627 1.01 2 8127
-5.4925 -7.8296 1.3441 2 7818
-5.487 -6.9303 1.4523 2 8048
-5.4866 0.97041 0.51982 0 9845
-5.4829 -3.676 0.92773 2 8985
-5.477 -4.1033 1.2894 2 8861
-5.4736 -4.5929 0.83559 0 8710
-5.4713 -6.7855 1.0193 1 8078
-5.4697 -4.1247 0.31947 1 8848
-5.4677 -3.6908 0.30764 0 8975
-5.4632 -4.9764 0.68944 2 8591
-5.4618 -4.8886 0.34183 1 8613
-5.461 -3.6614 0.30661 0 8983
-5.4516 4.3008 0.64783 0 12663
-5.4503 -3.9628 0.31425 0 8887
-5.449 -5.2897 0.88809 2 8499
-5.4337 -4.92 0.68387 1 8599
-5.4313 -4.53 0.99397 0 8720
-5.4298 -7.1509 1.05 2 7958
-5.424 -3.9901 0.47086 2 8876
-5.4178 -0.78747 0.64022 0 9153
-5.413 -7.0036 0.82581 2 7994
-5.4098 -3.5172 0.90685 1 9007
-5.4084 2.8515 1.0045 2 11201
-5.3997 -7.1996 1.2648 0 7933
-5.3997 -6.9864 1.0326 2 7995
-5.399 3.2595 0.58838 2 11641
-5.398 -4.8587 1.1932 1 8610
-5.398 2.6491 0.70318 0 11003
-5.3827 -4.9306 1.3753 1 8584
-5.3691 -8.0476 1.5894 1 7739
-5.3631 -0.61959 0.37752 0 9225
-5.3601 5.1329 1.3983 0 13458
-5.3515 -4.4634 0.81491 1 8719
-5.3499 -4.8732 1.3635 2 8594
-5.3462 -4.8972 0.3381 0 8579
-5.3417 -4.4316 0.81166 0 8726
-5.3394 -8.2032 1.3756 2 7698
-5.3363 -5.034 0.85789 2 8539
-5.3215 4.7814 0.1661 1 13187
-5.3167 -7.4896 1.509 1 7842
-5.3153 2.8632 0.28155 0 11255
-5.304 -4.2706 0.79633 1 8762
-5.3009 -0.026831 0.87091 1 9484
-5.2972 -8.0888 1.3589 2 7709
-5.2777 -7.4761 1.5035 1 7831
-5.2764 4.2378 0.95111 0 12736
-5.2672 3.7032 1.2131 1 12206
-5.2636 -5.2325 0.34611 1 8470
-5.2616 3.8396 0.76172 0 12348
-5.2606 -7.3155 1.0537 0 7858
-5.2597 3.1754 1.1576 2 11648
-5.2572 3.0524 1.1454 1 11506
-5.2571 3.9788 0.77101 0 12498
-5.2488 4.8265 1.3435 0 13297
-5.2476 -4.6705 0.98729 2 8626
-5.236 3.9356 1.0762 1 12476
-5.2307 -7.3223 1.0523 0 7849
-5.2272 -4.7614 0.49443 0 8590
-5.2228 6.2775 0 1 14353
-5.2191 -5.0382 0.33829 0 8503
-5.2182 -4.1776 0.78169 1 8771
-5.2038 -6.8957 0.60409 0 7943
-5.186 -4.1 0.7731 2 8786
-5.1734 -4.292 0.94471 2 8727
-5.17 -6.8087 0.59781 0 7956
-5.1671 -4.4397 0.63557 2 8675
-5.1598 -4.893 1.3398 1 8533
-5.1549 -4.0507 0.45844 2 8793
-5.1512 -0.24923 0.97168 0 9394
-5.1479 -5.5495 0.52931 0 8337
-5.1445 0.30383 0.36036 0 9610
-5.1363 -6.3337 0.76079 2 8089
-5.1251 7.8082 0 0 15340
-5.118 -7.078 0.40733 0 7866
-5.1135 -7.1109 0.61246 2 7857
-5.1135 3.1508 1.1316 0 11716
-5.1102 4.5626 0.9628 0 13168
-5.1071 -6.2978 1.1395 0 8091
-5.1057 4.0062 1.2227 2 12647
-5.0891 -6.7437 0.98798 0 7945
-5.0884 8.3197 1.8374 1 15653
-5.084 4.3822 0.94332 2 13020
-5.0839 -0.2611 0.11819 2 9382
-5.0731 -4.8701 0.32795 0 8510
-5.0711 -0.52762 0.23776 0 9256
-5.064 -4.3773 0.46807 0 8665
-5.0622 -0.14317 0.71173 1 9438
-5.0606 4.6274 0.8019 1 13268
-5.0599 -5.3283 0.51383 0 8378
-5.0557 2.952 0.13592 0 11518
-5.0439 2.9285 0.13541 0 11496
-5.0374 -4.8628 0.65322 0 8504
-5.0242 8.3816 1.8412 0 15733
-5.0236 -4.8495 0.81654 2 8505
-5.0172 -5.7009 1.2477 2 8241
-5.0159 -7.7594 0.64608 1 7684
-5.0118 -5.0083 0.66102 0 8464
-5.0016 -5.0861 0.83419 2 8444
-5.0004 -5.5185 1.4031 1 8296
-4.9945 -4.7363 0.80492 1 8530
-4.9908 -6.4573 0.38059 0 7992
-4.9861 1.2589 0.1194 0 10045
-4.9785 -7.7996 1.3004 1 7667
-4.9784 -0.31496 0.46539 1 9351
-4.9753 -4.4017 1.0914 2 8636
-4.9629 -7.4387 0.41701 2 7734
-4.9627 4.7226 0.9628 0 13433
-4.9549 -4.41 0.61885 1 8624
-4.9456 -4.3755 0.61606 1 8633
-4.9259 -4.8661 1.3046 2 8483
-4.9215 -6.3288 0.74797 0 8007
-4.9125 -7.092 1.0089 2 7796
-4.9124 4.1852 1.0603 0 12972
-4.9061 3.6449 0.85898 0 12426
-4.8996 -4.6756 0.63185 0 8520
-4.8942 -7.1962 0.60856 2 7765
-4.8932 -4.6403 1.1079 2 8532
-4.8928 -4.1289 1.0518 2 8702
-4.8909 -4.8875 1.3027 1 8466
-4.8868 -0.19371 -0.11355 0 9412
-4.8847 -7.366 0.41217 0 7724
-4.8827 -6.63 0.57577 0 7897
-4.8815 -4.6583 1.1086 2 8523
-4.8808 -0.67988 -0.3446 1 9163
-4.8737 -6.7402 1.5671 2 7872
-4.8693 7.608 0.84272 0 15454
-4.8591 -4.175 0.44798 0 8674
-4.8548 -3.661 0.99899 2 8852
-4.8496 -7.3604 0.41105 2 7716
-4.8465 -4.6525 0.78564 1 8513
-4.8429 -6.6146 0.57326 2 7887
-4.8404 4.6613 1.104 0 13481
-4.8402 -4.6189 0.78239 0 8521
-4.8369 -4.7234 0.31528 0 8490
-4.8339 3.1741 0.53952 0 11943
-4.8333 -4.9719 1.3064 0 8427
-4.8318 -5.6215 1.2178 1 8198
-4.8258 -6.3947 0.3736 0 7942
-4.8248 1.2334 0 0 10055
-4.8195 -4.761 0.63204 2 8479
-4.8118 0.50914 -0.11234 0 9705
-4.805 -5.4272 0.84767 0 8249
-4.8017 3.7678 0.56943 1 12641
-4.8013 -8.0255 1.3144 1 7580
-4.7926 -7.2271 1.4247 1 7728
-4.7836 -3.782 0.85703 1 8787
-4.7653 -3.723 0.42286 1 8802
-4.7389 -8.1291 1.3224 1 7540
-4.7339 -4.0175 0.43416 2 8689
-4.7298 -4.8927 0.9564 2 8415
-4.7297 -5.3122 0.49736 1 8258
-4.7287 -6.9974 0.59056 1 7756
-4.7247 -3.8947 0.42817 2 8733
-4.7091 0.12578 -0.10937 0 9549
-4.7046 -3.9239 1.1542 1 8721
-4.6998 6.2527 0.72976 1 14774
-4.6967 -3.8965 1.1498 2 8728
-4.6889 -6.8096 0.57814 2 7785
-4.6788 -3.5053 0.68366 0 8858
-4.6784 -3.5692 1.1087 0 8838
-4.6655 -8.0033 0.43201 0 7536
-4.6614 2.633 -1.4015 1 11412
-4.6596 -4.0735 0.57742 0 8653
-4.6582 -6.0993 0.71601 2 7968
-4.6524 2.1173 0.83978 0 10832
-4.6498 -7.1002 0.59349 1 7706
-4.6485 -3.7858 0.84255 2 8748
-4.6459 -6.1945 0.54145 1 7930
-4.6414 -3.4357 0.6753 2 8871
-4.6406 -3.9383 0.71177 0 8691
-4.6377 -3.4117 0.80915 0 8877
-4.6237 8.8331 1.1659 1 16240
-4.6218 -6.1245 0.71583 2 7944
-4.6159 -6.419 1.1112 0 7859
-4.6024 -0.7092 -0.10812 2 9135
-4.5973 -6.2791 0.72604 2 7888
-4.5907 -3.7843 0.69574 1 8734
-4.5899 8.8283 1.1636 0 16265
-4.5698 1.5584 0.33762 0 10346
-4.568 -8.0542 0.64748 2 7495
-4.5661 -7.2932 0.40127 1 7641
-4.5526 -4.877 0.46653 0 8347
-4.5479 4.1093 0.57184 0 13217
-4.5452 1.4628 0.22267 0 10276
-4.544 0.42634 0 0 9675
-4.5436 -4.8418 0.4643 2 8356
-4.5336 -8.441 -0.22245 0 7417
-4.532 -3.4176 1.0694 2 8853
-4.5189 1.0026 0.10747 0 9958
-4.5136 -0.69552 0.53406 0 9136
-4.5113 -0.8174 -0.10644 0 9074
-4.5045 -7.7271 0.62544 2 7537
-4.5025 -3.6669 0.54175 0 8747
-4.5002 -7.2354 0.39736 0 7631
-4.4935 1.7384 0 0 10532
-4.4866 -4.8366 0.92717 0 8340
-4.4793 -4.9695 0.94025 0 8281
-4.469 -6.6984 1.5171 2 7740
-4.4682 -4.8455 0.92634 0 8329
-4.4615 3.5629 -1.4947 2 12708
-4.4595 2.9093 0.8748 0 11926
-4.4562 6.2984 0.90226 0 15024
-4.4375 8.7241 1.8441 2 16348
-4.4278 1.8768 0.44867 0 10688
-4.427 -4.9392 0.93218 2 8271
-4.4115 -8.392 1.3324 0 7397
-4.3895 -3.859 0.54528 0 8643
-4.3894 -3.4491 -0.39036 2 8791
-4.3802 -6.9476 0.38301 0 7651
-4.3794 1.9024 0.11085 1 10733
-4.3706 0.19312 0.10157 0 9581
-4.3697 8.5909 1.1271 1 16343
-4.3632 -7.1509 0.97961 0 7606
-4.36 0.20561 0.10134 0 9588
-4.3557 6.636 0.18429 0 15342
-4.3503 -6.7297 0.9371 2 7686
-4.3419 -7.0687 0.58009 0 7613
-4.3407 -7.114 0.58275 1 7604
-4.335 -7.8528 1.2606 2 7460
-4.333 -4.9776 0.61569 2 8217
-4.3242 -4.943 0.61272 2 8228
-4.3219 8.2041 1.3032 0 16216
-4.3187 -8.095 1.5074 2 7412
-4.3042 -6.7876 0.37481 2 7658
-4.3016 6.9459 0.57131 0 15587
-4.2997 -4.6874 1.045 2 8319
-4.2646 -7.783 1.2473 2 7451
-4.2547 -7.112 0.96916 2 7579
-4.2504 -4.9137 0.30298 1 8206
-4.2445 -4.8758 0.90852 1 8219
-4.2433 -8.2994 0.6518 2 7345
-4.2367 -3.4924 -0.38394 0 8730
-4.2347 -3.4096 0.38017 0 8761
-4.2231 -5.058 0.92606 1 8147
-4.223 -4.272 0.84422 1 8453
-4.2091 -5.4459 1.2968 2 7999
-4.2053 -0.14244 0.39256 0 9426
-4.2035 -4.2745 0.84255 0 8445
-4.1909 4.3036 0.70248 0 13728
-4.1865 5.0319 -1.3913 0 14361
-4.1807 1.3037 -0.20422 1 10243
-4.1797 -7.0339 1.5416 1 7573
-4.1778 8.6461 1.1229 0 16523
-4.1738 -7.0238 0.95546 2 7569
-4.1737 -0.032781 -0.3894 1 9476
-4.1703 2.5356 0.11332 0 11661
-4.1602 8.355 -0.2167 0 16411
-4.1539 5.0805 1.2364 0 14431
-4.1529 -4.0315 0.40473 0 8497
-4.1372 0.6686 -0.0973 0 9814
-4.1353 -9.0447 0.46378 0 7192
-4.1327 -6.6446 0.54717 2 7632
-4.1306 -2.9289 0.35408 0 8918
-4.1205 -5.2987 0.78495 1 8008
-4.1054 0.65243 -0.09651 2 9806
-4.1035 -7.2352 0.77602 1 7496
-4.1027 -7.5344 1.4095 2 7444
-4.0985 -4.9966 0.90824 2 8116
-4.0982 -7.2701 0.58358 1 7485
-4.0831 0.55133 0.38439 0 9758
-4.0762 -8.3317 0.6486 1 7280
-4.0705 -7.4288 1.596 2 7453
-4.0649 -6.0927 0.68331 1 7736
-4.064 -7.5666 1.4111 2 7423
-4.0637 3.0015 0 0 12393
-4.0609 0.41679 -0.38086 2 9694
-4.0492 -7.436 1.5953 0 7446
-4.0479 -6.5901 1.0869 0 7616
-4.044 -6.8462 0.3708 0 7555
-4.0423 -6.4116 1.0652 2 7654
-4.0399 -9.1123 0.69701 0 7157
-4.0326 -0.6582 0 1 9111
-4.0283 -6.5173 0.89599 1 7624
-4.0283 1.5326 0 0 10500
-4.0237 -6.8582 0.3708 0 7546
-4.0057 0.085306 0.3738 0 9537
-3.9925 1.531 0 1 10515
-3.9748 -6.471 0.88809 0 7615
-3.9746 -6.5525 0.35739 0 7596
-3.9676 -6.173 0.68461 2 7674
-3.9557 -9.1323 1.3987 2 7133
-3.9538 -7.0629 0.566 0 7475
-3.9484 3.6104 0.2495 0 13265
-3.9475 1.2189 0.58063 1 10235
-3.9346 -6.0449 0.67291 1 7696
-3.932 -6.0826 1.0179 0 7687
-3.932 -4.4412 0.83365 0 8250
-3.9225 7.1379 1.5345 1 16067
-3.921 -7.1028 0.37835 1 7456
-3.9201 -5.5529 0.95528 2 7830
-3.9199 1.5567 -0.29493 0 10572
-3.9164 -5.9058 0.99592 2 7727
-3.9131 7.1208 -0.37891 0 16050
-3.8987 -0.67063 0 1 9091
-3.8861 -7.3397 0.38729 2 7403
-3.8803 1.2608 0 0 10287
-3.8718 3.9071 0.64324 0 13663
-3.8711 1.2697 0 0 10298
-3.8582 -6.9403 0.55526 2 7466
-3.858 -4.3576 0.95619 0 8251
-3.855 -6.4006 1.2276 1 7591
-3.8504 -4.3247 0.95132 2 8261
-3.8462 -7.2093 0.38105 2 7411
-3.8362 0.93303 0 0 10019
-3.8183 -7.2116 0.57061 2 7404
-3.8036 6.4702 0.70022 0 15802
-3.8008 6.2957 0.17074 0 15695
-3.7945 5.3001 -1.3855 0 14970
-3.7924 4.249 0.53134 2 14076
-3.7795 -0.16171 -0.08783 2 9405
-3.7778 -0.57067 0.26717 2 9141
-3.7748 -6.9814 0.55498 0 7431
-3.7706 -7.3243 0.57605 0 7358
-3.7679 -7.7014 1.205 2 7283
-3.7633 -7.5249 0.78494 2 7311
-3.743 4.3686 1.0839 0 14245
-3.7386 -7.6959 1.2025 2 7272
-3.727 -4.6222 0.83448 0 8079
-3.7213 4.094 0.38687 0 14000
-3.7199 -6.7386 0.53824 0 7457
-3.7029 -7.092 0.55945 1 7382
-3.6973 0.68592 0.43975 0 9865
-3.6961 -4.6952 0.27866 0 8032
-3.6656 -7.0686 0.5568 2 7369
-3.6535 -6.2673 0.67681 1 7538
-3.6522 -4.6129 0.27438 1 8043
-3.6484 -7.7357 0.79794 1 7230
-3.6414 1.0552 0.62287 0 10163
-3.6249 -4.4956 0.53877 1 8077
-3.5972 3.5871 0.71396 0 13617
-3.5895 4.688 0.13708 0 14696
-3.5867 -4.4482 0.39957 0 8076
-3.5845 -8.8363 0.44469 1 7058
-3.5834 3.0347 -1.2293 0 12944
-3.5763 -9.0418 0.22575 0 7023
-3.5759 5.2461 1.0431 0 15187
-3.553 -6.4843 0.51703 0 7449
-3.5489 4.1421 -0.12664 2 14236
-3.5447 -7.4584 0.57744 0 7239
-3.5427 -7.4041 0.57396 2 7249
-3.5305 3.1169 0.43938 0 13115
-3.5247 -6.7051 0.70672 2 7395
-3.5236 -6.4708 0.51522 0 7442
-3.5125 -6.5398 0.86811 1 7421
-3.5061 7.4171 1.3479 0 16605
-3.4899 -6.3691 0.84929 0 7450
-3.4759 8.2687 0.20825 0 16996
-3.4744 1.2632 0.69654 0 10438
-3.4744 4.0067 -1.3883 1 14194
-3.4706 4.7316 0 0 14865
-3.4698 3.9551 0.9913 0 14151
-3.4629 -7.515 1.559 2 7205
-3.4527 -7.7259 0.9896 1 7169
-3.4447 3.8826 0.85275 0 14104
-3.4398 -7.1891 1.1201 2 7252
-3.436 3.8728 0.36204 0 14099
-3.4297 8.5748 1.2979 0 17159
-3.4287 4.4539 0.78995 0 14676
-3.4261 6.8808 0.71713 0 16418
-3.3838 -0.076198 0.55607 0 9450
-3.3793 7.6006 0 0 16816
-3.379 4.3094 -0.51091 2 14587
-3.3676 -7.4135 0.9522 2 7186
-3.3527 -5.2163 0.43361 0 7673
-3.342 4.188 0 0 14521
-3.3327 4.3527 -0.25565 2 14691
-3.332 5.0456 0.84979 0 15321
-3.3314 5.9413 0.79656 0 15982
-3.3228 2.1678 -1.444 1 11918
-3.3046 4.141 0.74458 0 14528
-3.297 -7.4929 0.95731 1 7150
-3.289 2.4133 -1.3784 0 12369
-3.2872 7.0623 0.18086 0 16646
-3.2835 8.1432 -1.4425 0 17111
-3.2794 -7.7558 0.98473 1 7107
-3.2769 2.7438 0.60067 0 12898
-3.2762 -6.0998 0.9731 2 7422
-3.2733 5.4975 1.0512 0 15756
-3.2725 6.4813 -1.1929 0 16350
-3.2701 -6.3959 1.0096 1 7348
-3.2659 2.7027 0.69647 0 12851
-3.265 4.3439 -0.25341 1 14766
-3.2577 -7.8338 0.99216 2 7091
-3.2456 3.8789 0.35367 0 14332
-3.2391 -6.5711 1.0296 0 7293
-3.2156 2.3047 -1.3368 0 12269
-3.213 2.8687 0.40185 2 13165
-3.2123 3.861 0.23422 0 14356
-3.2072 4.1392 0.61235 0 14649
-3.1947 5.0909 1.1324 0 15543
-3.187 7.7706 0.98217 0 17079
-3.1833 -6.7496 1.0488 1 7232
-3.1799 3.822 0.34767 1 14358
-3.1749 5.5482 0.74755 0 15906
-3.1665 1.5424 0.16425 0 10983
-3.1551 2.8349 0.39572 0 13191
-3.1505 5.3251 0.28854 0 15774
-3.1433 5.8014 0.15319 0 16109
-3.1184 5.3046 0.28695 0 15799
-3.1057 -0.18669 0.58619 0 9361
-3.0915 -3.7476 -0.33971 0 8120
-3.0351 -0.4136 -0.071118 0 9173
-3.0243 8.3912 -0.20709 0 17441
-3.0164 -9.412 1.6238 0 6834
-3.0126 3.3541 0.42061 0 14051
-2.9991 -5.7442 1.2209 1 7388
-2.9962 7.7486 0.58093 0 17255
-2.991 -2.267 0.087133 0 8841
-2.9858 -5.7577 1.222 1 7374
-2.9608 3.8923 0.80347 2 14728
-2.9456 4.9787 -1.2296 0 15781
-2.9433 6.7241 -0.17041 0 16868
-2.9234 3.7069 0.88947 0 14579
-2.9192 1.9045 0.24373 0 11920
-2.8728 6.6196 -0.16754 0 16895
-2.8711 6.7769 -0.51466 1 16966
-2.8631 3.7192 0.43789 0 14673
-2.8213 4.0897 -1.1772 1 15131
-2.8018 -6.4161 0.98395 0 7143
-2.7692 3.1755 0.49271 0 14171
-2.7608 2.6126 0.088247 0 13404
-2.7598 3.0213 0.28614 0 13976
-2.7561 -4.7602 0.12771 0 7525
-2.7444 2.9866 0.28363 2 13950
-2.7434 3.1637 0.48969 0 14195
-2.7344 2.923 0.37343 0 13878
-2.7287 4.0031 0.11248 0 15178
-2.7213 5.4653 -0.28472 1 16409
-2.7064 6.2842 0.15885 0 16922
-2.7056 3.5337 -0.946 1 14702
-2.6759 2.4606 0.42511 0 13292
-2.6696 2.2093 -1.0813 0 12846
-2.6665 4.4169 0.36078 0 15699
-2.6599 3.3729 0.30037 0 14573
-2.6595 3.3723 0.099714 1 14570
-2.6442 3.6717 -1.0721 0 14942
-2.6424 4.4081 -0.35939 1 15717
-2.5982 4.3916 0.11847 0 15772
-2.5951 3.2322 0.78097 0 14505
-2.5636 3.1354 0 0 14423
-2.563 3.3693 0.19742 1 14722
-2.5517 9.4178 0.22654 0 18112
-2.5449 2.0439 0.22824 1 12730
-2.5309 3.7607 0.2114 0 15235
-2.5176 2.2748 0.078777 0 13214
-2.5158 3.7637 0.21112 0 15262
-2.511 3.3213 0.4869 0 14750
-2.5093 9.3713 0.22524 0 18136
-2.5038 2.7719 0.52496 0 14029
-2.4987 2.2976 0.55769 0 13295
-2.4971 3.0738 0.74616 2 14457
-2.4839 -3.6522 -0.10255 1 7763
-2.4827 2.2567 0.077895 1 13239
-2.4153 2.3259 0.39212 0 13478
-2.4123 2.3376 0.39282 0 13502
-2.3653 6.9401 -0.51271 2 17587
-2.3386 4.7318 0.74179 0 16446
-2.311 2.8265 0.084766 0 14425
-2.3078 5.9191 0.29627 0 17229
-2.2489 6.1889 -0.30708 0 17417
-2.2433 5.7008 -0.71642 0 17195
-2.2387 2.6595 0.40653 0 14309
-2.2173 -4.7723 -0.2454 0 7207
-2.2112 3.3484 0.46925 0 15319
-2.2062 -2.5795 0.15829 0 8182
-2.1803 6.2191 0.15301 2 17521
-2.1797 2.4132 0.38028 0 14027
-2.1479 6.364 0.31323 0 17616
-2.1384 2.3808 0.37424 2 14053
-2.1355 9.7617 0.93226 0 18488
-2.1323 -8.5903 1.2439 0 6648
-2.1263 3.4108 -0.75727 0 15568
-2.126 3.9766 0.52732 1 16164
-2.1224 6.6706 0.16252 0 17759
-2.1217 2.8064 0.66284 0 14754
-2.1184 6.8689 -0.33521 0 17823
-2.0665 7.3665 1.0753 0 18054
-2.055 5.1797 0.12938 0 17177
-2.0445 8.8628 -0.21117 0 18403
-2.0373 2.2413 0.28258 0 14002
-2.0349 3.3706 0.64686 0 15706
-2.0348 -5.6151 -0.13866 0 6934
-2.0302 6.5103 -0.79749 2 17794
-2.0231 2.611 0.076688 0 14644
-1.9854 -5.5266 -0.13634 1 6925
-1.9558 -6.9253 -0.33559 0 6720
-1.9231 2.6046 -0.68819 1 14848
-1.8774 8.9553 0 0 18545
-1.8682 -2.522 -0.14637 0 7904
-1.8536 -6.6299 0.64225 0 6713
-1.8371 8.0598 1.5575 0 18438
-1.818 6.8613 0.1648 0 18160
-1.8148 -7.3114 0.70282 0 6647
-1.8057 9.2896 -0.21971 0 18632
-1.8047 -6.3229 0.92411 0 6736
-1.8047 3.7616 -0.68545 0 16530
-1.7902 8.4223 1.6223 0 18536
-1.7744 4.883 0.48471 2 17426
-1.7628 2.8632 -0.1568 0 15607
-1.7513 9.286 1.7804 0 18673
-1.7501 2.8616 -0.15643 0 15637
-1.7343 -6.2791 0.15124 2 6703
-1.7242 4.3109 0.21652 0 17151
-1.7208 3.1314 0.082955 0 16054
-1.7141 -8.7047 1.6716 0 6525
-1.7015 2.6926 -0.07395 1 15503
-1.6515 4.3068 -0.5394 1 17270
-1.6114 2.7776 0.074553 0 15848
-1.6067 6.6924 -0.32096 0 18338
-1.6002 4.7411 -0.58517 1 17604
-1.592 5.3232 -0.64975 1 17896
-1.5913 5.4381 0.39622 0 17954
-1.5854 -6.0131 1.0217 0 6676
-1.5812 -2.9243 -0.15503 0 7428
-1.5725 3.6235 0 0 16897
-1.5149 3.1576 -0.16332 0 16540
-1.4846 3.9042 0.58703 0 17311
-1.4536 3.6049 0.090244 0 17124
-1.4147 4.94 0.1193 0 18000
-1.3909 5.5131 0.26515 0 18253
-1.3907 -2.8425 0.37006 0 7282
-1.3859 -2.8116 0.36657 1 7292
-1.3395 5.0026 0.97575 0 18149
-1.3152 5.8551 0.84339 0 18456
-1.3128 5.3328 0.25612 0 18300
-1.2994 5.4796 0.5254 1 18368
-1.2885 -9.6055 1.826 0 6308
-1.2733 5.3036 0.50886 2 18348
-1.2648 3.6775 0.09029 0 17569
-1.2639 2.8428 -0.072232 0 16814
-1.2595 4.0838 0.29884 0 17831
-1.2107 3.9256 0 0 17826
-1.1992 2.8528 -0.14432 0 16993
-1.1892 3.8945 0 2 17853
-1.1833 5.7292 0.68413 1 18567
-1.1769 5.3799 1.0376 2 18494
-1.1529 -6.1368 1.1765 2 6501
-1.1432 5.0895 -0.24326 2 18445
-1.1197 7.4741 0.52848 0 18882
-1.0869 5.5916 -1.3497 1 18638
-1.0772 2.9373 0.1459 0 17398
-1.0699 2.9442 0.14609 0 17422
-1.0258 -3.9324 0 0 6666
-1.0242 3.4247 -1.301 0 17904
-1.0055 4.942 0.9502 0 18590
-0.98761 7.6565 -0.17923 0 18988
-0.98507 3.0626 -0.074692 0 17735
-0.97671 -7.1302 0.67142 0 6317
-0.94904 -6.5055 1.2387 0 6349
-0.94489 2.9133 0.14282 1 17713
-0.94338 3.8817 -0.37268 0 18314
-0.93426 9.1185 0.85516 0 19137
-0.9049 5.2171 0.86994 0 18760
-0.90145 -3.6317 0.1745 0 6646
-0.88969 3.0405 -1.0705 2 17951
-0.8841 -3.5146 0.169 0 6653
-0.86274 4.8142 -1.4024 2 18721
-0.85911 -5.5495 0.52391 0 6377
-0.85774 -4.1675 -0.098785 0 6545
-0.82854 -3.2937 -0.15838 0 6652
-0.80977 7.6915 1.0869 2 19121
-0.7864 4.3101 -0.30637 2 18696
-0.76657 4.136 -1.2062 2 18686
-0.76295 3.5407 0 0 18505
-0.75015 3.5292 0 0 18525
-0.72336 6.5001 -0.15185 0 19075
-0.71911 -3.3009 -0.15755 0 6587
-0.71419 3.36 -0.079752 0 18524
-0.70722 -7.6092 0 1 6147
-0.64352 -8.2317 1.1604 0 6096
-0.6272 3.616 0.17115 0 18756
-0.60844 4.238 0.39944 0 18916
-0.6027 7.641 0.71508 1 19276
-0.59058 4.2835 0.71041 2 18949
-0.58255 3.6739 0.34704 1 18837
-0.52118 -3.3055 -0.15605 0 6383
-0.51806 -3.3465 -0.15792 0 6373
-0.4829 -7.5701 0.53043 0 6035
-0.4661 -4.7198 -0.11011 0 6171
-0.44406 -5.6803 0.93608 1 6097
-0.43524 9.2637 0.43248 0 19442
-0.42918 -5.2766 0 0 6104
-0.41408 -5.2969 0.37152 0 6094
-0.35928 -6.5284 0.1518 1 6001
-0.34646 -7.4855 1.2311 2 5972
-0.33105 -7.6436 0.71378 0 5959
-0.30031 -6.0966 0 0 5979
-0.29039 7.6285 0 0 19482
-0.28602 6.0876 0.14149 0 19440
-0.28357 -7.5533 1.2418 0 5940
-0.28166 -6.0855 0 0 5967
-0.22732 -4.3814 0.30679 0 5992
-0.18536 7.8073 0.36419 0 19551
-0.14252 3.2255 -1.091 0 19456
-0.1374 -9.4845 -0.22022 0 5871
-0.1358 -4.2738 0 0 5920
-0.13022 3.1597 0.59582 0 19476
-0.11623 -4.4985 0 0 5901
-0.096402 -8.4972 -0.19729 0 5859
-0.085573 7.0037 -0.81909 0 19592
-0.076134 -9.0878 1.0628 0 5853
-0.065234 7.052 0.32888 0 19608
-0.064874 -7.7436 0.17979 0 5851
-0.048169 3.172 0.37099 1 19587
-0.038171 -6.8345 -0.31872 0 5841
-3.1079e-07 -7.1101 0.99926 0 5829
-1.9511e-07 -4.4636 0.52198 0 5828
0.012548 -4.4934 0.52547 0 5821
0.035092 -4.0211 0.75764 0 5803
0.048004 -4.0445 0.76209 0 5794
0.063527 -3.1374 0 0 5775
0.072074 -3.0812 0 1 5769
0.083979 3.2949 0.621 0 19745
0.17857 9.1338 1.5009 0 19717
0.18221 9.3201 -0.43472 0 19710
0.23399 8.1728 1.5405 0 19755
0.23914 7.6522 -0.17775 0 19760
0.26453 9.2394 -1.299 1 19747
0.29153 9.3283 1.5333 2 19765
0.33768 -6.8311 0.79981 0 5705
0.34866 8.1156 1.3346 1 19805
0.39516 -6.4609 0.30186 0 5685
0.4391 -6.5762 0.30736 0 5675
0.44334 8.6032 0.8037 0 19836
0.49679 -3.3361 0.47402 2 5513
0.49845 -7.4651 1.2292 1 5676
0.51353 -3.3756 0.47987 0 5507
0.5179 -5.5512 0.91598 0 5632
0.52649 -4.0044 0.093772 0 5551
0.54422 -4.9059 0 0 5593
0.56323 -6.2371 0.88013 0 5638
0.581 -4.4191 0.20786 0 5552
0.59491 -9.2749 0 0 5680
0.63848 -3.5735 0.68395 0 5450
0.64326 7.6925 0.90272 0 19948
0.64328 8.2659 1.3621 1 19924
0.65914 -4.0163 0.28461 0 5482
0.66214 -3.9653 0.28112 0 5475
0.66958 4.417 -1.1695 0 20171
0.67674 4.4642 -0.52802 0 20164
0.67952 -9.3426 0.87393 0 5667
0.6811 6.1792 1.0214 0 20043
0.70752 5.1852 -0.48824 1 20120
0.72388 4.1349 0.39163 0 20238
0.74313 4.1719 0.39535 0 20244
0.75237 5.6313 -0.53004 0 20109
0.76845 4.8905 0.46186 0 20188
0.78119 7.9387 1.3106 0 20001
0.78268 -4.3806 0 0 5448
0.78311 5.6219 -0.79774 0 20133
0.79208 7.8114 -0.36615 0 20005
0.79529 4.3162 0.61682 0 20261
0.79646 5.7178 -1.2271 0 20141
0.80645 4.4509 -0.74316 0 20247
0.83786 6.2712 -0.73988 0 20107
0.85 -4.7574 0.22537 1 5449
0.85425 6.2606 -0.44184 0 20122
0.85467 -3.2371 0 0 5249
0.86726 6.0861 -0.86399 0 20142
0.87427 8.1673 0.57437 0 20028
0.87684 7.5552 0.17659 0 20061
0.89241 -3.6803 0.087922 0 5316
0.94543 6.9288 -1.3175 0 20131
0.94686 -9.8696 0.92502 2 5625
0.9544 -9.6128 1.82 0 5618
0.96061 -6.9944 0.16391 0 5538
1.0095 5.9621 -0.99347 0 20223
1.0102 3.7052 0.72357 0 20557
1.0133 3.8004 0.45996 2 20529
1.0176 5.6165 -0.80219 0 20248
1.0421 2.9858 0.36982 0 20867
1.0569 3.8317 -0.37082 0 20560
1.0594 3.005 0.37261 1 20879
1.0654 -3.0458 0.53013 0 5041
1.0834 2.9912 -0.52268 0 20907
1.0881 7.4772 -0.17543 0 20153
1.0908 2.9839 -0.6753 0 20931
1.0939 4.304 -0.1031 1 20473
1.1137 5.2668 0.62954 0 20342
1.1144 -3.281 0.65285 0 5065
1.1251 -9.6504 0.90644 0 5582
1.1486 3.115 -1.3868 0 20941
1.1605 5.5745 0 0 20328
1.1716 3.52 -1.3503 0 20809
1.173 7.0551 0 0 20216
1.1756 7.9226 0.37351 0 20163
1.2057 -9.6115 1.3614 0 5564
1.2167 6.8304 -1.3072 1 20246
1.2188 -5.5113 -0.13105 0 5359
1.2587 6.6235 -0.78843 0 20274
1.2667 6.5531 -0.93803 1 20281
1.27 7.1298 0 0 20242
1.2861 4.1421 0.40464 0 20720
1.3162 5.8122 0.6969 0 20392
1.3321 2.8724 0.59656 0 21351
1.3352 8.1896 0.19265 0 20207
1.3661 6.0323 -1.0162 1 20384
1.3803 -5.9127 0.56646 0 5337
1.3855 3.8252 0.76653 0 20920
1.3955 3.8174 0.76579 2 20933
1.4025 -5.6421 0.40654 0 5302
1.4043 4.8716 -0.47301 0 20607
1.414 8.2204 -0.97543 0 20228
1.4168 -4.8991 0.71674 0 5199
1.4356 -6.2383 1.2061 0 5342
1.4437 5.2953 -0.64185 2 20545
1.4502 3.7622 -1.3624 0 21006
1.4546 3.417 -1.2549 0 21192
1.4566 -3.4167 0.61022 2 4970
1.4609 -3.4534 0.61606 0 4975
1.4973 5.1337 -0.62536 0 20617
1.4974 3.4637 -0.89411 0 21219
1.4979 5.0828 0.87059 1 20652
1.5009 5.8371 -0.7048 1 20481
1.5105 7.6992 0.73199 0 20293
1.5106 7.0521 0.16744 0 20347
1.5526 -8.8322 0.2082 0 5456
1.5542 -9.4705 1.8082 0 5483
1.5672 3.5941 -0.091033 0 21230
1.5883 3.5047 -0.17944 0 21301
1.6111 3.5799 -0.18307 0 21288
1.6151 6.8539 1.1569 2 20423
1.6155 4.1911 -1.0643 0 21008
1.625 9.2819 -0.87913 0 20234
1.6263 3.2084 -0.083512 0 21519
1.6267 6.3265 0.15166 1 20486
1.6271 6.7309 0.8098 1 20439
1.6284 3.6782 0.37528 0 21264
1.6289 -3.6723 0.7569 0 4956
1.6418 6.9672 -1.176 0 20415
1.6642 9.1848 -1.0916 0 20249
1.6731 3.4982 -1.1119 2 21403
1.6759 -3.7482 0.77357 0 4950
1.6797 6.2996 -0.60826 0 20523
1.7003 -7.7981 0.3722 0 5367
1.713 6.5018 1.2668 0 20520
1.7231 3.2558 -0.783 0 21623
1.7387 -7.9745 0.18949 0 5366
1.7397 3.1334 0.58882 0 21734
1.7456 -4.1265 0.41801 0 4973
1.7465 5.1509 -0.63604 1 20825
1.7657 3.896 -0.39906 2 21299
1.7727 5.1746 1.0306 1 20846
1.7889 -5.6325 0.6911 0 5129
1.7941 -4.571 0.57425 0 4989
1.8239 3.3081 0.35243 0 21716
1.8334 5.9632 -1.3261 0 20707
1.8407 6.1824 -0.90657 0 20655
1.8412 -4.6528 0.58517 0 4987
1.8413 5.93 -1.3198 0 20722
1.8711 7.7403 -1.3083 0 20434
1.8715 3.6921 0.58174 0 21523
1.885 6.3966 0.77984 0 20649
1.8854 -7.2226 1.0491 0 5261
1.9009 3.2232 0.1745 0 21873
1.916 8.2333 -0.78865 0 20407
1.9186 3.5751 -0.86242 0 21654
1.9237 -2.8275 0.64433 0 4646
1.9301 -3.4964 0.75246 0 4829
1.9383 -7.5164 0.72419 0 5271
1.9419 -9.5704 0.4554 0 5400
1.9612 6.0111 -0.73942 1 20776
1.9646 -2.9258 -0.16435 2 4658
1.9733 -4.184 0.76002 1 4908
1.9904 6.1004 -0.90184 0 20775
1.991 -8.2109 0.394 0 5317
2.005 -9.733 -0.23072 0 5393
2.0223 -4.1591 -0.32339 0 4900
2.0451 9.2862 -0.88712 0 20363
2.0464 5.9735 -0.1466 0 20842
2.0531 8.5979 0.82469 0 20431
2.0541 -5.986 1.1924 0 5056
2.0548 9.3304 0 0 20367
2.065 5.3129 -0.39859 1 21017
2.0697 -8.7622 1.4792 0 5331
2.0931 5.0781 0.64231 0 21139
2.1058 -4.7836 0.12135 1 4958
2.1065 7.7264 -0.56001 0 20547
2.1148 9.6029 1.8526 0 20373
2.1158 6.1761 -1.0726 0 20835
2.1202 6.6917 0.65489 0 20745
2.1297 7.6382 -0.73979 0 20573
2.1658 8.851 -0.42493 1 20444
2.1789 -2.4174 -0.15177 0 4072
2.2027 -6.8729 1.1857 0 5119
2.2067 3.8955 0.20879 0 21773
2.2389 -9.4786 0.45419 0 5330
2.2732 6.8977 -1.1932 0 20789
2.2759 -3.6564 0.099992 2 4743
2.3177 -5.9051 0.89154 0 4990
2.3248 6.1949 -0.30857 0 20963
2.3396 6.4595 0.1595 0 20915
2.3677 4.508 0.71563 0 21603
2.3905 6.8492 -1.3668 0 20869
2.3988 5.5486 0.99315 0 21220
2.4155 -4.259 0.80444 0 4814
2.4227 6.2852 0 0 21003
2.4244 4.4876 -0.11842 0 21666
2.4333 4.5668 0.12014 0 21638
2.4399 -6.7919 0.84395 0 5020
2.4642 4.9685 -0.25863 0 21468
2.4697 -1.7197 0.35194 0 3209
2.4808 6.4359 1.1332 0 21009
2.4828 5.2691 -1.3801 0 21377
2.4852 -3.7719 -0.31586 0 4684
2.5039 -3.6147 0.30749 0 4611
2.5059 6.9873 1.0432 0 20905
2.5131 8.1739 1.6112 0 20708
2.529 3.8883 0.54242 0 22127
2.5357 -3.6825 0.31265 0 4621
2.5756 -5.262 0.54658 0 4898
2.5833 4.9184 0.91274 2 21604
2.5941 1.5525 0.070189 2 25860
2.5964 -2.3925 0.58007 0 3752
2.6013 5.2818 -0.4117 2 21450
2.6015 1.5674 0.070514 0 25837
2.6076 5.7086 0 0 21315
2.6171 2.8561 0.18065 0 23445
2.6255 6.1198 -1.4155 1 21209
2.6364 -4.7426 -0.25304 0 4823
2.6534 5.8958 1.0622 0 21294
2.6663 5.0379 0 0 21618
2.669 4.6154 0.74931 2 21824
2.6896 4.0344 0.11257 0 22205
2.6942 1.9488 0.077199 0 25128
2.7217 9.0433 0 0 20675
2.7225 -8.2465 0.8102 0 5093
2.7255 6.6125 -1.3475 0 21140
2.734 -1.9037 0.31082 0 3208
2.7356 6.2735 0 0 21231
2.7357 9.4905 1.3881 0 20613
2.7387 -7.909 1.3751 0 5048
2.7508 -1.904 0.31212 0 3194
2.765 4.4181 -1.4945 0 22014
2.7673 7.6404 1.1421 0 20918
2.7699 -3.7135 0.10756 0 4490
2.772 4.8578 0.78605 2 21792
2.7909 6.4004 0.81654 0 21234
2.7966 2.5797 0.26605 0 24154
2.8006 7.334 0.91806 0 20990
2.8406 3.3248 0.61459 1 23166
2.8473 5.741 0.14878 0 21471
2.8513 9.3787 1.6105 0 20694
2.8527 8.6561 -0.42503 0 20794
2.8544 -6.3307 0.32385 0 4940
2.8688 -4.3541 0.98242 1 4689
2.8923 -1.8094 -0.23857 1 2959
2.9132 5.1053 0 0 21788
2.9415 -5.0459 0.5449 0 4801
2.9462 -7.8383 1.1768 0 4997
2.9497 4.0554 0.11643 0 22520
2.9989 -2.5776 0.74505 0 3644
2.9995 -0.81833 0.072186 2 1537
3.012 4.518 0 0 22203
3.0126 -1.0509 -0.44842 0 1693
3.0146 0.018415 -1.3422 1 587
3.0197 -4.8194 0.66508 0 4738
3.0402 -0.078017 -0.070607 0 777
3.0445 -5.329 0.28621 0 4808
3.048 8.5739 -0.21126 0 20890
3.0556 -2.798 0.7806 1 3745
3.0605 -5.9911 0.47044 0 4873
3.0621 -5.6609 0.60045 0 4839
3.063 -7.8683 1.5908 0 4991
3.0684 7.5717 0.18968 0 21099
3.0692 -2.2315 0.53331 1 3308
3.0787 4.7047 0.13054 0 22142
3.0806 -2.2259 0.53415 1 3293
3.0994 -0.85488 0.074646 0 1546
3.1257 -1.7348 0.50241 0 2671
3.126 5.1272 0.84395 0 21952
3.169 -9.1517 1.3611 0 5047
3.1861 4.7791 0.26785 0 22207
3.1967 4.7626 0.4011 0 22230
3.1986 -6.9928 0.3586 0 4930
3.2012 4.6805 -0.13165 0 22287
3.2064 6.2337 0 0 21552
3.2092 -6.4171 0.66938 0 4885
3.2235 4.7131 0 0 22288
3.2253 -6.6867 0.34621 0 4903
3.2268 -2.5824 0.095953 0 3503
3.2287 -6.9493 1.0769 0 4916
3.2322 6.1957 -0.16224 1 21584
3.2439 3.6885 0 0 23274
3.2472 3.2483 -0.21419 0 23807
3.2597 8.1788 0.61567 0 21066
3.275 7.4466 1.3365 0 21249
3.2788 -3.9493 0.60027 1 4245
3.3133 7.9754 -1.4189 0 21142
3.3159 -2.5297 0.78579 0 3416
3.3346 -1.8136 -0.17702 0 2614
3.3553 7.821 1.1961 1 21208
3.3583 0.0099648 0.15661 1 604
3.3584 0.0017577 0.15661 1 619
3.364 4.891 0.55382 0 22318
3.3645 -6.7718 0.52875 0 4890
3.3663 -2.8407 0.61904 2 3617
3.3678 6.0656 -0.97505 0 21722
3.3887 5.1158 0.14247 0 22181
3.3957 -2.6075 -0.19966 0 3422
3.4029 5.6927 -0.15398 1 21904
3.4036 -2.857 0.51966 0 3607
3.418 4.9974 0.8509 0 22299
3.4804 -7.2157 -0.74741 0 4902
3.4868 -3.4038 0.56984 2 3833
3.4872 1.7577 -1.3195 1 26386
3.495 4.6616 0.68134 0 22639
3.5055 1.6533 -0.18074 1 26562
3.5096 -2.3247 0.29437 0 3102
3.5117 -6.4921 1.2127 0 4842
3.5404 -6.7836 0.17766 0 4858
3.5497 0.89228 0.34147 0 28184
3.5619 -2.9372 0.86984 2 3572
3.5687 -5.8099 0.63612 0 4758
3.589 -5.8044 0.63668 2 4751
3.6012 5.9067 0.64541 0 21950
3.6293 -4.1942 0.12877 0 4154
3.6372 1.1433 0.26661 0 27727
3.6645 0.6014 0.5219 0 28790
3.6787 0.8466 0.53053 0 28327
3.6823 -2.7417 0.64521 0 3360
3.6853 0.91613 0.35429 0 28206
3.7122 -2.7479 0.6491 0 3347
3.7227 1.0052 0 0 28054
3.733 3.6903 0.36706 0 23868
3.7496 -6.8375 0.72753 0 4831
3.7599 6.0878 0.83675 0 21983
3.7611 0.87731 0.54278 0 28307
3.7651 1.0875 0.73839 0 27924
3.766 1.4903 0.56922 0 27093
3.7668 -3.7629 1.0032 2 3873
3.7737 4.1182 1.0524 0 23456
3.7747 -4.1643 0.13049 0 4060
3.7773 4.1468 1.0568 0 23433
3.7804 -7.0859 -0.37453 0 4848
3.7848 -6.7611 0.72289 1 4819
3.7921 7.6998 1.6171 0 21461
3.8281 -2.766 0.22025 0 3288
3.8302 -4.7808 1.0064 1 4332
3.8391 -2.7576 0.22043 0 3273
3.8679 -1.9462 0.71138 1 2445
3.8729 3.656 0 0 24058
3.8891 1.1727 0.28405 0 27821
3.9057 2.1127 0.72954 0 26190
3.9066 -3.4978 0.86151 0 3705
3.9364 -6.6191 0.53852 0 4785
3.9946 6.3018 0.87252 0 22056
4.0275 5.7455 1.322 0 22393
4.0426 -4.755 -0.29105 0 4188
4.057 7.8334 0.20481 0 21569
4.0652 5.9862 0.168 0 22267
4.0716 4.8232 0.88709 0 23121
4.0723 6.7668 0.73682 0 21920
4.0842 5.4476 0.31751 0 22634
4.0907 -1.59 0.1019 0 1849
4.0989 -8.9609 1.6189 0 4932
4.1455 2.4634 0.3372 0 25885
4.1523 7.4786 0 0 21729
4.2683 -3.2563 0.12464 0 3408
4.3097 1.2594 0 2 27891
4.3466 1.8692 0.44142 0 26834
4.3661 0.20285 -0.10148 0 355
4.4037 0.42325 0 0 29253
4.4116 -1.3135 0.86725 0 1592
4.4277 -7.5498 1.0235 0 4796
4.4368 -3.0334 0.50143 0 3167
4.4451 -7.007 1.5634 0 4731
4.4915 -7.4075 0.60577 0 4770
4.4982 0.47119 0.10501 0 29194
4.5194 -7.0776 1.1802 0 4724
4.5378 0.041186 0 0 572
4.5473 -5.3487 1.3227 0 4196
4.5532 -0.56794 0.75386 2 1255
4.5538 0.74735 0.32269 2 28786
4.5545 -6.8681 1.5527 0 4681
4.5585 2.6043 0 0 26012
4.5708 1.1642 0.10951 0 28156
4.5801 -6.1806 1.4494 0 4510
4.5961 0.49524 0.10733 0 29176
4.5978 1.8195 0.1148 0 27084
4.6016 -0.58784 0.21633 0 1264
4.6135 -0.94786 0.55079 1 1433
4.6339 4.1534 0.87456 0 24280
4.6396 -7.4047 1.2281 0 4740
4.6404 0.64969 0.43715 2 28953
4.6421 2.6521 0.87837 0 26022
4.6423 -0.066443 -0.10779 0 700
4.6469 -6.6266 1.5249 0 4595
4.6508 -2.6528 0.87967 0 2742
4.6603 0.3128 0.10844 0 224
4.6783 -0.88989 0.78239 0 1403
4.7062 -0.93782 -0.11141 0 1419
4.7072 -0.40851 0.22034 0 1125
4.7094 0.6736 0.44384 0 28932
4.71 -0.95226 0.56194 0 1427
4.7121 0.2882 0.22015 0 263
4.7232 -0.70168 0.67109 0 1322
4.7239 6.9068 0.19427 0 22290
4.7414 -0.81643 0.56263 0 1372
4.7527 2.4478 0 0 26323
4.7644 -3.4009 0.27298 0 3259
4.7682 7.1038 1.0005 0 22233
4.7724 5.8245 0 0 22989
4.7786 7.8873 0.86037 0 21936
4.7788 -3.1248 0.26627 0 3072
4.7859 -0.69734 0.67972 0 1315
4.8057 8.7163 -0.23109 0 21713
4.8236 8.2844 0.89436 0 21840
4.8621 2.4678 0.12659 0 26366
4.8659 -3.7365 0.429 0 3425
4.8764 1.2866 0.9502 0 28102
4.8907 5.1556 0.33139 0 23591
4.899 -0.53913 0.45982 0 1210
4.9023 -0.9769 0.11605 0 1420
4.9084 1.3566 0.23748 0 28009
4.936 -6.2322 1.4979 0 4364
4.96 -1.1232 0.35562 1 1466
4.986 -0.66793 0.707 0 1281
4.9987 -7.5379 0.84383 0 4677
5.0202 8.0215 0.88285 0 22015
5.0304 7.6872 1.5093 0 22148
5.0445 6.494 0.38347 0 22770
5.0689 -3.4229 0.142 0 3138
5.0762 5.4742 0.6965 2 23495
5.1024 8.0494 1.3394 0 22058
5.1038 -0.62305 0.47969 0 1247
5.1451 -1.2295 0 0 1487
5.1468 0.7986 0.24289 0 28849
5.1597 2.2532 0.39371 0 26784
5.1709 -8.4183 1.6232 0 4762
5.1758 5.5815 0.17673 0 23490
5.1816 0.22805 0.60654 0 376
5.186 -3.3268 0.28733 0 3026
5.1925 5.5683 0.35506 0 23514
5.2404 0.33613 -0.3672 2 238
5.2817 0.12355 0.86799 0 500
5.2969 5.4242 0.53015 0 23715
5.2985 2.3879 1.095 0 26699
5.3326 5.9936 0.56098 0 23324
5.3629 0.29796 0.75487 0 305
5.3743 -3.932 0.62126 0 3321
5.3813 1.5889 -1.4689 1 27873
5.4188 -1.6133 0.26366 0 1588
5.4332 3.0815 1.0262 0 26046
5.4418 -0.17102 -0.12641 0 814
5.4511 3.5481 0.45481 0 25549
5.4551 0.636 0 0 29112
5.4666 0.2081 0.12701 0 404
5.4675 6.7493 0 0 22938
5.4716 -4.3011 0.64931 1 3468
5.4744 -2.0185 -0.82001 2 1760
5.4866 0.62415 0 0 29131
5.4939 -3.9945 0.31677 0 3302
5.4981 8.1912 0.22904 0 22227
5.5005 -1.7947 0.40459 0 1643
5.504 4.1055 0.32021 0 25009
5.5464 5.0557 0.87763 0 24205
5.5539 0.082399 0.12896 0 543
5.5648 0.39011 -0.12952 1 198
5.6052 -4.05 -1.1361 2 3280
5.6113 8.0556 1.8497 0 22369
5.6118 -0.50281 0.39398 0 1137
5.6122 0.39343 0 0 200
5.6325 -3.2795 0.60807 2 2786
5.6366 -1.6078 0.963 1 1565
5.6446 -4.004 0.32273 0 3245
5.6509 -0.49042 0.39664 0 1126
5.655 -4.9715 0.52652 0 3671
5.6582 4.4525 0 0 24799
5.6854 1.8957 0.70085 0 27587
5.691 1.2919 0.40808 0 28344
5.6964 2.4497 -1.0188 2 26817
5.7091 1.3843 0.54806 0 28247
5.7381 -4.1461 0.66046 0 3291
5.7465 -1.3372 0 1 1475
5.7748 5.3907 0.18341 1 24106
5.7771 3.2327 0 0 26079
5.7875 0.98304 0.13629 0 28741
5.8416 -4.2738 0.16805 0 3316
5.8686 2.958 1.0797 0 26393
5.8742 -7.5078 0.66659 0 4384
5.8863 3.2494 0.47016 0 26126
5.9351 2.7148 1.0723 0 26655
5.9466 3.4652 0.32096 0 25949
5.9703 -7.2348 1.0969 0 4259
5.9736 3.8379 0.99787 0 25606
5.9788 0.36568 0 0 260
5.9799 4.0685 1.3627 0 25383
6.0102 7.8752 1.3923 0 22707
6.0314 -5.9229 1.5927 0 3845
6.0414 2.9793 0.78773 1 26452
6.0467 -4.9863 0.36549 0 3567
6.0717 3.15 0.15881 0 26302
6.0735 4.3386 0 0 25176
6.1585 -0.9699 1.0243 2 1339
6.1658 -6.3427 1.0344 1 3920
6.1772 3.41 1.3294 0 26132
6.1788 -0.61019 0.43416 0 1169
6.1891 3.6777 1.3564 2 25893
6.2279 -0.8509 1.0327 0 1290
6.303 -4.3093 0.53392 0 3165
6.3069 0.79004 1.1976 0 29060
6.3204 3.5614 1.0196 0 26066
6.3257 1.6112 0.609 0 28161
6.3385 3.3561 0.33447 0 26244
6.3402 0.24135 0.74197 0 409
6.3577 1.2692 -1.378 2 28535
6.3635 1.29 -1.3801 1 28514
6.3842 6.1716 0.20616 0 23962
6.4095 3.5866 1.3838 0 26091
6.4324 -0.072976 0.90407 0 688
6.438 -4.001 0.17598 0 2945
6.4433 5.0704 0.38236 0 24802
6.4523 3.1819 0.33549 0 26448
6.6004 3.545 1.4116 0 26213
6.6035 1.2788 0.78657 0 28577
6.6464 3.3239 1.4001 1 26414
6.6574 1.6549 0 0 28201
6.6641 0.46717 0.78123 1 207
6.6675 -1.0692 0.3149 0 1346
6.6839 1.6393 0 0 28222
6.7046 2.9278 0.16986 0 26781
6.7074 6.114 0.63464 0 24201
6.73 1.7142 1.141 0 28165
6.7739 1.9565 0.49304 0 27917
6.7964 3.0388 1.0463 0 26718
6.8121 -0.59119 1.2883 0 1131
6.8356 -0.59322 0.80237 0 1128
6.8693 0.66023 0.80702 0 29259
6.882 1.5408 0.32888 0 28364
6.9191 -0.44016 1.1391 1 1020
6.9319 3.6982 1.2908 0 26230
6.9835 -6.3234 0.65878 0 3724
7.0069 7.0906 1.8782 0 23774
7.0202 2.2296 0.86137 0 27706
7.0709 5.5963 0.20936 0 24774
7.0872 3.5444 1.1137 0 26411
7.0979 -3.9134 0.37798 0 2652
7.1074 0.64182 1.1725 0 60
7.1256 -1.6137 0 0 1464
7.1359 0.64439 0.66845 1 29302
7.1594 1.7996 1.3909 1 28189
7.1634 6.8025 1.1552 0 24042
7.1744 -1.2805 1.3731 0 1382
7.2 -0.856 1.019 0 1238
7.2051 -5.4334 0.42083 0 3380
7.2194 -4.7513 0.40304 0 3087
7.2375 -1.2684 -1.0327 0 1373
7.2391 1.4452 0 0 28528
7.2443 3.7583 0.38059 0 26304
7.2474 -0.69273 0.85138 0 1158
7.3579 0.25952 1.3872 0 431
7.4257 -1.6816 0.35506 0 1465
7.4454 0.067576 0.69465 1 575
7.4461 4.5149 0 0 25813
7.4554 -1.464 0.35431 0 1414
7.4875 4.7206 1.4542 0 25686
7.511 1.1869 1.4327 0 28834
7.5515 4.2551 1.4241 1 26068
7.5618 1.7861 0.18039 0 28285
7.5997 1.3127 1.0839 0 28725
7.649 0.5805 1.4453 0 166
7.6536 -1.5252 0.72809 2 1421
7.6695 -0.087012 0 0 682
7.6744 0.87303 0.17933 0 29133
7.6984 2.1741 0.93548 0 27966
7.7081 1.9863 -0.1848 1 28132
7.7142 0.92396 -1.4638 1 29099
7.7268 -6.0021 0.68417 0 3447
7.7269 4.2655 0 0 26122
7.9045 4.4231 0.63339 0 26084
7.9444 -2.9025 0 0 1748
7.9558 2.175 0.19149 0 28032
8.003 -1.1889 0.75484 0 1321
8.0057 -2.6896 1.5912 1 1666
8.0142 -3.3294 -0.80965 1 1975
8.0372 -2.9906 -1.0028 1 1773
8.0723 -0.86695 0.94942 0 1200
8.096 4.5025 1.522 0 26110
8.136 1.7234 1.3664 1 28453
8.1377 4.5257 0.21619 0 26103
8.1737 -0.11699 0.76264 2 704
8.1919 2.3135 1.1963 0 27968
8.2113 1.4922 0.19376 0 28657
8.2581 0.29127 1.3576 0 429
8.2609 1.2302 0 0 28888
8.2779 -1.6736 1.5912 0 1428
8.2834 0.67665 0.38757 0 116
8.3372 -0.045109 1.5708 0 656
8.3938 1.3505 -0.19738 0 28802
8.3999 2.2964 0.81243 0 28037
8.4343 -5.0398 0.91666 0 2850
8.4997 2.061 1.2292 1 28250
8.521 4.2949 1.3411 0 26391
8.5745 -1.9182 0.40975 0 1458
8.5914 3.6327 1.7575 0 26892
8.7508 2.2289 0.42111 0 28158
8.829 -2.9114 1.0872 0 1651
8.834 -3.2275 0.87746 0 1753
8.8453 -0.97341 1.462 0 1213
8.9236 1.4357 1.057 0 28809
8.9628 -0.72742 0.41934 0 1104
8.9831 1.6066 1.4993 0 28685
8.9921 -3.767 1.6018 2 2005
9.0289 0.44791 0 0 337
9.0361 -0.9944 -1.2776 2 1205
9.038 1.5611 -1.289 2 28709
9.0565 1.808 -1.2979 2 28518
9.0701 0.76801 -1.2793 2 83
9.0854 0.82044 -1.2821 2 29288
9.1153 0.85042 1.7249 0 29286
9.1821 -0.69041 0.85906 2 1079
9.2429 3.5666 1.6277 0 27168
9.34 0.16629 0.87151 0 529
9.397 -1.2004 1.7849 0 1266
9.4192 -0.70823 1.7797 1 1085
9.4204 -0.24174 0.21878 0 778
9.4621 0.85446 1.3352 0 29305
9.533 -0.66159 1.57 1 1054
9.5963 -1.2566 1.5901 0 1272
9.5992 -0.89049 1.8163 1 1151
9.6194 2.5075 -0.92743 2 28107
9.653 -1.0061 1.8286 1 1192
9.6736 1.8734 -0.22877 2 28568
9.7002 -0.72936 1.5982 0 1083
9.7115 -1.0687 1.8408 0 1215
9.7679 -0.93366 1.6121 0 1160
9.7981 1.0835 1.6196 0 29162
-13.467 3.8641 0.32528 1 10146
