VERSION .7
FIELDS x y z intensity index
SIZE 8 8 8 8 8
TYPE F F F F F
COUNT 1 1 1 1 1
WIDTH 1533
HEIGHT 1
VIEWPOINT 0 0 0 1 0 0 0
POINTS 1533
DATA ascii
-8.4715 0.39654 0.39549 0 10862
-8.45 1.895 1.4228 0 11171
-8.3797 2.6872 -1.4458 2 11410
-8.351 2.7054 -1.4422 2 11419
-8.326 2.1998 -0.19994 0 11261
-8.3062 3.5738 1.0574 0 11784
-8.2595 3.899 0.21205 0 11964
-8.1656 1.6583 1.3689 0 11119
-8.1631 0.4521 1.149 0 10879
-8.0836 2.2615 0 0 11301
-8.0832 2.7486 1.6086 0 11473
-8.0752 3.5313 0.20463 0 11809
-8.0435 2.8152 0.99657 0 11502
-7.9914 2.3611 0.3886 0 11345
-7.9784 4.6528 0.43071 0 12571
-7.9528 3.3643 1.2136 0 11753
-7.8733 -0.66114 1.4886 0 10675
-7.7765 -5.0908 1.3063 0 10571
-7.7718 3.0802 1.3735 0 11653
-7.7066 3.0544 0.19246 0 11649
-7.6206 3.6528 -0.3941 1 11999
-7.5852 -0.65829 -0.35506 0 10668
-7.5376 3.5308 1.5682 0 11956
-7.5237 -6.1691 1.5985 1 10497
-7.4248 4.9312 1.6793 1 13021
-7.4179 -1.0148 0.87554 0 10619
-7.3785 0.81851 0.6926 0 10949
-7.3408 1.6261 0.87926 0 11158
-7.3062 1.1546 1.2153 0 11025
-7.2964 -5.6048 1.5116 0 10523
-7.2765 4.2435 0.78587 0 12575
-7.2154 0.84251 0.67774 0 10960
-7.2128 -6.1668 0.44254 0 10478
-7.1524 0.92005 1.1848 0 10979
-7.0867 2.229 1.0441 0 11398
-7.0431 0.51227 1.3305 0 10904
-6.9765 -0.46582 0 0 10704
-6.9537 4.6183 0.58372 0 13012
-6.9288 2.8856 -0.52485 1 11719
-6.9199 4.6517 1.1718 0 13066
-6.8962 -6.2465 1.0881 0 10440
-6.8951 4.6054 0.57982 0 13036
-6.8736 5.0381 1.1977 2 13426
-6.8706 5.0046 0.99402 1 13399
-6.8475 2.6436 0.6848 0 11617
-6.8414 3.8612 1.4801 0 12478
-6.8168 5.5339 1.4425 2 13888
-6.802 1.2791 1.1371 0 11082
-6.8017 4.6904 0.77082 0 13160
-6.796 1.6894 1.3194 0 11229
-6.7647 3.7899 0 0 12446
-6.7646 4.3245 1.5127 0 12881
-6.761 -7.291 -0.23085 0 10355
-6.7172 4.8321 1.1629 0 13347
-6.6961 3.9051 1.4605 2 12581
-6.6894 6.0719 0.4213 0 14403
-6.6862 -4.6297 0.95104 0 10555
-6.662 4.5649 1.5216 1 13142
-6.6569 3.9604 1.0886 1 12640
-6.6431 -0.36559 0.6207 0 10720
-6.6296 4.5957 1.1337 1 13190
-6.6088 4.6689 1.5245 2 13271
-6.6061 1.5203 1.2772 0 11187
-6.6054 2.205 0.64969 0 11452
-6.5908 3.8931 0.71415 0 12617
-6.5821 3.7879 1.2477 1 12539
-6.5722 1.3539 -0.15579 1 11124
-6.5685 4.6714 1.5186 1 13298
-6.5536 4.4321 0.73812 2 13086
-6.5521 -0.68403 1.0823 1 10651
-6.5475 3.7924 1.2431 2 12558
-6.5405 4.2621 1.4708 2 12953
-6.533 2.2635 0.97171 0 11491
-6.5135 2.8905 0.16545 0 11838
-6.5106 3.898 0.88739 0 12658
-6.499 3.9173 0.88739 1 12678
-6.4956 2.5954 1.3179 0 11667
-6.4885 2.5926 0.98201 0 11663
-6.4863 4.2267 0.17974 0 12940
-6.4786 4.8361 -1.1362 2 13485
-6.4769 0.90796 -0.15185 0 10999
-6.469 3.8487 0.70226 2 12636
-6.4651 3.0519 0.83605 0 11970
-6.4579 -5.6834 -0.40118 0 10458
-6.4578 -6.8051 -0.21781 0 10369
-6.4549 2.2592 0.96113 2 11504
-6.4372 -6.4014 1.4915 0 10410
-6.4372 -4.4011 0.18104 0 10558
-6.4288 0.71315 -0.4523 0 10947
-6.4243 -0.70925 1.0619 0 10645
-6.3831 2.7464 1.1417 2 11787
-6.3733 3.2839 1.0076 0 12208
-6.3643 2.8043 1.1426 1 11830
-6.3541 -0.94509 0 0 10610
-6.35 -4.3155 0.35804 0 10560
-6.3425 3.1539 1.3346 0 12107
-6.3406 -5.3544 -0.38702 0 10484
-6.3316 -4.2755 0.17738 0 10563
-6.3275 4.4702 0.90598 0 13266
-6.3265 4.9856 -1.132 2 13720
-6.3132 2.9573 0.97978 1 11952
-6.3107 3.2293 1.1647 0 12190
-6.3072 3.1364 0.82374 0 12102
-6.3068 -6.0185 0.2024 0 10417
-6.289 0.60335 -0.88792 0 10926
-6.2883 3.0575 1.1488 1 12046
-6.2844 3.4478 -0.16642 0 12384
-6.2743 1.874 -0.15203 0 11354
-6.272 -5.4541 1.566 0 10466
-6.2715 0.84237 0.88932 0 10990
-6.2692 -5.6468 0.59 0 10444
-6.2557 3.1764 1.1527 2 12169
-6.2467 -7.8027 0.46611 1 10249
-6.2442 4.9775 -0.74499 2 13779
-6.2277 0.34491 0.29087 0 10878
-6.2268 1.2827 0.89349 0 11125
-6.2253 4.0042 0.69056 2 12897
-6.2245 4.4777 0.89668 1 13345
-6.223 3.3214 1.329 0 12315
-6.2228 4.6451 1.4631 1 13509
-6.2222 2.0976 0.15245 0 11460
-6.2205 3.4367 1.1676 0 12414
-6.2076 -0.83268 0.29208 0 10620
-6.2041 -6.4606 0.83566 0 10378
-6.2019 3.5217 0 0 12487
-6.2016 3.2863 1.3224 2 12294
-6.1412 0.19728 -0.14265 0 10839
-6.1398 4.6671 1.4531 1 13584
-6.1305 -6.2384 0.40788 0 10397
-6.1252 7.1363 1.7719 2 15488
-6.1225 7.053 1.7597 1 15437
-6.1081 -7.7648 -0.22937 0 10237
-6.0674 -5.1547 0.74276 0 10481
-6.0448 4.0147 0.8486 2 13016
-6.0423 -0.59565 0.56646 0 10656
-6.0393 1.6703 1.0295 0 11294
-6.0272 4.8616 0.36111 2 13850
-6.0238 3.8008 1.342 1 12833
-6.0201 7.1415 1.0923 1 15560
-6.012 0.59584 -0.28174 0 10934
-6.0046 4.0106 0.84442 0 13040
-6.0001 1.0742 0.56868 0 11064
-5.9923 0.2103 0.5594 0 10845
-5.9827 5.5576 1.1476 0 14519
-5.9751 4.273 1.0324 2 13321
-5.9734 2.7147 0.76729 0 11889
-5.9716 0.67827 0 0 10953
-5.9618 0.80077 0.98829 0 10991
-5.9618 4.1853 0.50936 1 13238
-5.9562 -6.8906 -0.42475 0 10300
-5.948 7.7125 1.139 1 15935
-5.9468 4.7404 0.70951 2 13795
-5.9454 3.3555 0.95946 1 12474
-5.9397 7.7463 -0.45521 0 15951
-5.9378 7.4249 1.1118 2 15779
-5.9375 1.7183 1.0155 0 11329
-5.9312 -0.39603 -0.13801 0 10703
-5.9295 1.7317 1.0149 0 11337
-5.9293 4.1378 0.50559 2 13211
-5.9214 -0.77641 0.55717 0 10625
-5.9153 4.1281 1.1851 2 13218
-5.9116 3.3788 0.95695 0 12518
-5.9023 -0.40859 -0.13736 0 10698
-5.8998 3.5324 0.96642 0 12660
-5.8966 4.6168 0.87578 1 13714
-5.8938 7.6865 1.1327 0 15961
-5.8859 1.1249 0.13913 0 11088
-5.8773 -0.82181 0.97499 1 10616
-5.8723 0.66698 1.1135 0 10955
-5.8609 -7.1479 0.21461 0 10263
-5.8577 -6.8974 1.2718 0 10286
-5.8417 3.7101 1.3038 0 12856
-5.8364 3.7311 1.1381 1 12879
-5.8299 3.3105 0.78402 0 12495
-5.8147 7.6745 1.8141 2 16018
-5.808 3.6887 0.96697 2 12852
-5.7957 7.2032 1.7419 1 15759
-5.7917 3.7253 0.96781 1 12901
-5.7824 -4.8262 0.35124 0 10490
-5.7752 6.6906 0.41217 0 15453
-5.7666 3.1637 0.61364 0 12390
-5.7627 3.2048 0.46109 0 12428
-5.761 4.1718 1.3401 2 13378
-5.7497 -0.21485 0.26832 0 10745
-5.7462 0.99461 0.27195 0 11050
-5.7344 4.3843 0.50476 2 13601
-5.7309 3.6863 1.2838 2 12904
-5.7306 4.2498 1.3442 2 13483
-5.7126 -3.8575 0.80609 0 10564
-5.7025 3.6905 1.2798 1 12927
-5.6928 3.5669 1.1037 2 12808
-5.6923 5.0149 0.88716 1 14268
-5.6921 1.434 0 0 11234
-5.6824 -5.2694 0.36139 0 10428
-5.6667 2.8575 1.1957 0 12149
-5.6636 -4.3239 0.83327 0 10525
-5.6561 4.7561 0.51676 1 14046
-5.6092 3.7465 1.2709 0 13046
-5.6086 5.9872 0.19047 0 15103
-5.6057 -7.6592 -0.22036 0 10183
-5.6003 4.9652 1.0519 1 14297
-5.599 4.7618 0.51397 0 14100
-5.5946 3.8782 0.47602 1 13184
-5.5816 3.2551 1.0616 1 12579
-5.5796 -7.2217 -0.42559 0 10220
-5.5751 4.2378 0.48969 2 13575
-5.5707 -7.1688 1.2759 0 10228
-5.5393 -5.286 1.0761 0 10418
-5.5313 1.5819 0.53673 0 11318
-5.5227 1.0865 0.92474 0 11106
-5.4984 4.7044 0.50601 1 14125
-5.4976 8.3091 0.46462 1 16598
-5.4918 -5.3967 0.35907 0 10412
-5.4722 3.9134 0.47044 0 13315
-5.4648 1.9309 0.40529 0 11513
-5.4626 1.4596 0.39538 0 11268
-5.4546 8.2944 0.46295 0 16624
-5.419 -4.6858 1.177 0 10469
-5.415 4.0157 0.47141 2 13474
-5.4144 3.9208 0.62368 2 13371
-5.4123 -6.7172 1.4173 0 10254
-5.4109 -8.1134 0.68194 0 10134
-5.4095 0.69585 0.25435 0 10978
-5.4038 1.2118 0 0 11169
-5.4037 1.9093 0.53469 2 11514
-5.3805 -4.6788 0.33251 1 10465
-5.3646 4.8117 0.50392 0 14347
-5.364 -0.077709 0.12455 0 10779
-5.3582 0.32772 0.25034 0 10886
-5.354 3.9487 0.93496 0 13453
-5.3502 0.70247 0.25164 0 10984
-5.3352 5.1611 1.0432 2 14705
-5.3262 0.015803 -0.24838 0 10801
-5.3213 3.9462 0.93107 0 13480
-5.316 4.1623 0.94888 0 13716
-5.3089 0.33959 -0.74764 1 10888
-5.3048 8.175 1.6011 1 16688
-5.2812 4.8768 0.50267 0 14488
-5.2713 3.9348 0.45997 0 13501
-5.2627 0.5838 -0.494 0 10946
-5.2596 -8.2464 1.6069 0 10109
-5.2564 -6.5236 0.19451 0 10253
-5.2415 -7.1616 1.2473 0 10185
-5.2377 0.62733 0.49214 0 10965
-5.2359 0.32024 0.86183 0 10887
-5.2221 -6.5229 -0.194 0 10248
-5.2155 -7.8204 1.5444 1 10135
-5.2078 5.2479 1.0391 0 14864
-5.2023 8.0169 1.1176 0 16685
-5.1938 4.1166 1.2487 2 13773
-5.1694 5.0008 0.50294 0 14699
-5.1636 4.7133 0.98256 2 14438
-5.1596 1.8231 -0.51053 1 11510
-5.1558 -7.5865 1.7282 0 10144
-5.1346 -0.73259 0.12042 0 10613
-5.1165 -5.4849 0.87717 0 10359
-5.1092 7.7692 1.0874 1 16630
-5.1022 1.7518 0.50329 1 11480
-5.0964 -6.7534 1.39 0 10204
-5.0857 -7.7687 0.64929 0 10125
-5.0773 2.9824 1.1094 1 12603
-5.0735 1.9252 -0.12599 0 11596
-5.064 7.4207 1.6927 2 16470
-5.0552 7.5003 1.7041 2 16526
-5.0428 0.87285 0.47746 1 11052
-5.0384 -4.3567 1.255 0 10470
-5.0345 7.806 1.0862 0 16712
-5.0343 0.97583 0 0 11096
-5.0325 0.73595 -0.71479 1 11004
-5.0245 3.5932 0.5763 2 13317
-5.0194 -1.0167 0.84141 0 10596
-5.0136 3.2871 0.84255 2 12972
-5.0012 3.259 0.83894 1 12949
-4.9982 0.98332 0 0 11103
-4.9944 6.5136 1.3485 2 15964
-4.9927 1.1059 0.71869 0 11159
-4.9916 3.6147 0.43096 2 13369
-4.9902 -4.2892 1.2398 0 10475
-4.984 3.2888 0.6983 0 12994
-4.9786 5.0433 0.49555 0 14885
-4.9719 -6.5883 0.57717 0 10203
-4.9674 -0.35955 0.93835 1 10694
-4.9579 3.5026 0.85313 1 13268
-4.951 7.7208 1.289 2 16740
-4.9324 7.2687 1.4432 1 16496
-4.9213 -0.25533 0.80963 1 10725
-4.9184 4.259 0.45495 2 14181
-4.913 0.12951 0.1141 0 10829
-4.9102 8.5047 1.6134 1 17186
-4.9079 4.5321 0.93886 2 14492
-4.9035 4.2731 0.45481 0 14211
-4.901 4.1932 0.75428 1 14129
-4.8939 2.328 0.89037 2 11991
-4.8922 2.7207 0.65463 0 12432
-4.8836 -4.8836 1.3012 0 10407
-4.8524 2.7186 0.65044 1 12452
-4.8442 -0.070179 -0.11248 1 10778
-4.8358 -4.4328 1.0778 0 10433
-4.8349 0.49282 0 0 10939
-4.831 0.12735 -0.1122 0 10828
-4.831 2.4192 0.75933 2 12125
-4.8262 2.6664 0.77492 1 12412
-4.8107 2.3922 0.50124 0 12100
-4.8094 5.134 0.49192 0 15106
-4.7754 2.1372 0.85956 0 11860
-4.7695 -5.2971 1.0018 0 10338
-4.7642 4.1516 1.0382 2 14216
-4.7614 -0.23454 0.66998 0 10728
-4.7509 4.4912 0.91882 1 14600
-4.7335 8.4212 0.67552 1 17285
-4.7289 4.0704 0.72966 2 14156
-4.7137 7.2143 0.20008 0 16651
-4.7134 8.444 0.67622 0 17313
-4.7114 2.603 0.50217 0 12409
-4.7083 8.7958 0.93078 1 17474
-4.7033 2.4924 0.4966 1 12286
-4.6935 4.334 0.74708 0 14490
-4.6901 4.1319 0.87846 0 14270
-4.6499 4.603 1.2327 1 14798
-4.6457 -7.5663 1.2478 0 10093
-4.6369 5.0092 1.2861 0 15165
-4.6353 7.5169 1.2411 0 16905
-4.6321 4.4281 0.59785 0 14649
-4.6309 0.91105 0.6633 2 11105
-4.6246 7.5467 1.2439 0 16934
-4.6232 0.16225 0 0 10844
-4.6119 -6.7863 -0.38264 0 10142
-4.603 -0.68463 0.76456 0 10611
-4.5981 4.4233 0.59525 1 14676
-4.596 8.7615 0.69184 1 17546
-4.5956 0.14763 0 0 10840
-4.59 4.2638 0.58448 1 14515
-4.5808 3.5226 0.67576 2 13632
-4.5723 -5.742 0.17041 0 10244
-4.564 -6.3514 1.0992 0 10171
-4.5584 0.06763 0.53313 0 10816
-4.5524 4.4534 0.44533 0 14746
-4.5513 2.8351 0.88096 0 12785
-4.5462 2.8485 0.37515 1 12800
-4.5441 -0.71727 0.75581 1 10604
-4.5391 6.4466 1.2953 1 16334
-4.536 5.6719 1.0207 2 15781
-4.5329 4.2344 0.57872 2 14542
-4.5276 3.7843 0.96948 2 14027
-4.5267 3.9198 0.55865 0 14183
-4.5238 3.5217 0.67042 0 13687
-4.5223 6.6643 0.18699 0 16486
-4.522 4.5808 0.90463 0 14891
-4.505 3.6338 0.40473 0 13852
-4.5041 8.7792 0.92056 0 17622
-4.5036 3.1816 0.51444 0 13264
-4.5023 8.5829 1.5923 2 17552
-4.4921 3.7546 0.5462 2 14022
-4.4906 8.8057 1.1559 0 17650
-4.4903 3.1934 0.51406 0 13291
-4.489 8.7496 0.68766 0 17620
-4.479 0.027361 -0.31321 1 10805
-4.4768 4.979 0.46821 0 15285
-4.4726 -3.1364 0.38199 2 10551
-4.4682 3.823 0.54862 1 14127
-4.4676 3.396 0.65625 1 13578
-4.4664 -0.59912 0.42043 1 10621
-4.4614 -0.53199 -0.31418 2 10634
-4.4559 -8.2444 -0.21758 0 10017
-4.4371 3.0404 0.37613 1 13132
-4.4344 0.11689 0.83578 0 10830
-4.4335 -5.8749 -0.51466 1 10202
-4.4311 3.9968 0.69783 0 14379
-4.429 4.4631 1.033 2 14866
-4.4248 -2.951 0.12348 0 10567
-4.4229 4.6154 0.74755 0 15009
-4.4205 3.5656 0.52986 2 13854
-4.4176 3.9373 0.4138 0 14320
-4.4157 6.5936 1.3038 1 16552
-4.4028 8.701 1.1404 2 17678
-4.4005 8.8182 0.91944 2 17728
-4.3997 -0.11368 -0.20525 0 10760
-4.394 3.8048 0.67971 2 14185
-4.3789 4.3622 0.43221 0 14814
-4.3775 4.673 0.89989 1 15112
-4.3723 0.27968 0.71982 0 10893
-4.3699 5.3086 1.1297 2 15661
-4.3618 4.684 0.44756 0 15132
-4.3514 3.368 0.64347 2 13660
-4.3475 4.8624 1.0716 2 15317
-4.3446 7.8898 0.8403 0 17369
-4.3421 4.8291 0.9127 2 15289
-4.3352 4.876 1.0719 2 15340
-4.3332 3.3322 0.76824 2 13634
-4.3208 4.8054 1.2176 2 15293
-4.3169 -7.7147 0.61818 0 10040
-4.3088 4.8191 0.90852 2 15315
-4.3058 4.5184 0.72989 1 15031
-4.3051 1.5474 -0.10621 0 11535
-4.3048 3.2321 0.75655 1 13531
-4.3046 5.5816 0.99063 2 15937
-4.2991 4.6442 0.44254 0 15157
-4.292 8.7302 0.68027 2 17774
-4.2843 4.6821 0.59209 2 15207
-4.2839 3.7741 0.53264 1 14266
-4.2822 5.6172 1.1605 2 15988
-4.2794 3.7941 0.53357 1 14294
-4.2733 4.2569 0.56274 0 14815
-4.2714 -7.1909 1.3741 0 10075
-4.2681 0.22443 -0.60067 0 10868
-4.2667 2.1834 0.6736 0 12188
-4.2628 -0.36995 -0.099342 1 10669
-4.2247 1.3825 0.31083 0 11435
-4.2237 4.6418 1.0311 1 15238
-4.2177 5.8095 0.83954 2 16198
-4.2149 -8.941 1.1559 0 9970
-4.1953 -8.2125 0.43006 0 9991
-4.1824 3.9069 1.0783 2 14549
-4.176 3.4498 1.0206 2 13971
-4.1699 3.0754 0.36232 0 13448
-4.1692 4.1272 0.54732 2 14791
-4.1679 4.4758 0.85953 1 15137
-4.1677 3.0548 0.36134 1 13420
-4.1664 4.2949 0.9831 2 14968
-4.1568 4.5971 0.72478 1 15261
-4.1558 3.4527 1.018 2 14000
-4.1535 4.6455 0.72873 0 15313
-4.1482 4.692 0.58429 0 15359
-4.1467 0.90489 0.5965 0 11151
-4.1444 -2.9409 0.83492 1 10547
-4.1278 4.2049 1.1102 2 14919
-4.1248 3.6148 0.38352 2 14237
-4.1133 4.4669 0.85341 0 15186
-4.1109 4.1181 0.81778 0 14840
-4.1097 1.1498 0.39813 0 11302
-4.1052 -0.63478 0.38755 2 10606
-4.1013 4.7783 0.7364 0 15482
-4.0953 4.1981 1.105 2 14944
-4.0912 5.244 0.62052 1 15884
-4.0898 1.5259 0.82245 1 11579
-4.0863 -5.3835 -0.31518 1 10208
-4.0859 0.21485 0.19081 0 10873
-4.0749 -2.8216 0.46242 0 10554
-4.0739 4.2512 0.82752 2 15011
-4.0702 7.7592 0.81745 2 17548
-4.0612 -0.61638 0.77394 0 10609
-4.0458 4.0984 0.53729 2 14887
-4.0396 4.0241 0.80136 2 14819
-4.0394 4.288 0.96786 1 15087
-4.0347 -8.8247 1.8282 0 9964
-4.032 -7.0631 1.3362 0 10049
-4.0311 4.3032 0.55011 2 15108
-4.0257 -6.1495 0.34276 0 10124
-4.0214 4.3184 0.96948 2 15139
-4.0091 4.5093 0.56293 1 15335
-4.0053 4.8347 0.88236 2 15635
-4.0042 -6.1565 0.68517 0 10120
-4.0016 5.1292 1.2257 1 15890
-3.9972 -4.5951 1.0006 0 10311
-3.9966 4.2918 0.54713 1 15134
-3.9831 4.5611 1.1409 2 15414
-3.9801 4.7483 0.72455 0 15584
-3.9771 0.62848 -0.56588 0 11020
-3.9758 0.26686 0.37175 0 10898
-3.9603 -5.0964 0.14985 0 10227
-3.9493 -4.6783 0.14214 0 10283
-3.9416 4.8989 1.033 1 15757
-3.9376 4.5876 0.56404 2 15480
-3.9331 3.8048 0.51053 2 14701
-3.9321 4.3214 0.82112 0 15236
-3.9275 -5.5347 1.2787 0 10165
-3.9268 4.2914 0.8175 0 15211
-3.9223 2.021 -0.83133 2 12210
-3.9141 4.2775 1.0924 2 15215
-3.8998 -7.9115 0.61679 0 9982
-3.8988 4.9652 0.73825 0 15860
-3.896 0.24921 0 0 10892
-3.8921 -0.6255 0 0 10601
-3.8836 4.9139 0.73245 2 15832
-3.8768 -9.0978 0.2296 0 9945
-3.8761 8.3695 0.64497 0 17962
-3.8558 8.4491 0.64943 0 18011
-3.8544 -0.11103 0 1 10755
-3.8524 -4.9862 0.73686 0 10222
-3.8463 5.8133 1.1452 0 16606
-3.8429 2.2573 0.10347 0 12592
-3.819 0.69472 0.73135 0 11070
-3.8104 0.68216 -0.089872 0 11063
-3.8073 3.5368 0.6077 0 14517
-3.8068 -3.272 0.35101 0 10473
-3.8054 -5.1091 0.74499 0 10194
-3.7961 5.1358 0.74685 2 16120
-3.7813 -3.6952 0.49326 0 10414
-3.7805 4.8458 0.71874 0 15885
-3.7753 5.3617 0.61179 1 16329
-3.7743 -3.0411 0.79634 0 10505
-3.7539 4.5831 0.55271 0 15681
-3.7508 4.8338 0.71549 1 15909
-3.7451 -3.5565 0.84854 0 10419
-3.7382 -3.4075 0.83103 0 10437
-3.7372 1.1269 0.45647 0 11363
-3.7366 0.11025 0.70432 0 10835
-3.726 1.1363 0.45554 0 11373
-3.7166 5.911 1.1472 2 16819
-3.7163 9.0388 1.6056 2 18351
-3.7072 -8.8406 0.89436 0 9942
-3.7064 3.5855 0.60305 1 14703
-3.7054 9.1667 0.46108 0 18394
-3.7026 8.4387 1.0776 2 18137
-3.6843 -5.3208 0.6038 0 10151
-3.6795 5.967 0.81979 2 16903
-3.6649 8.8348 1.1185 2 18322
-3.6618 8.5559 1.3079 2 18218
-3.6574 4.8589 0.56738 2 16037
-3.6572 3.205 0.79893 2 14244
-3.652 3.0709 0.55799 1 14049
-3.643 -2.7813 0.86355 2 10527
-3.6294 3.8975 0.6228 2 15135
-3.6255 6.1134 0.83117 2 17071
-3.6251 9.1887 0.69073 1 18469
-3.6243 3.1762 0.56356 1 14240
-3.6188 -0.26194 0.3385 0 10693
-3.6145 5.7486 1.2794 2 16821
-3.6104 -7.0131 0.18313 0 9995
-3.6096 8.9927 1.592 1 18427
-3.6055 -2.6544 0.84355 0 10539
-3.6041 0.10634 0.59239 0 10834
-3.5895 3.1624 0.78596 2 14272
-3.5787 -3.6417 0.71758 0 10398
-3.5787 4.8099 0.70109 2 16092
-3.5753 1.3211 -0.99781 0 11566
-3.5745 -0.47949 0.50687 0 10622
-3.5729 -6.3434 -0.67923 0 10043
-3.5671 5.2567 0.7429 0 16492
-3.5636 -4.171 -0.25584 0 10290
-3.5572 -3.5374 0.70505 2 10409
-3.5539 0.797 0.51188 0 11170
-3.5537 5.7248 0.78797 2 16872
-3.5516 -3.7426 0.48137 0 10370
-3.5432 -8.6607 0.21725 0 9932
-3.5312 7.2884 0.94709 0 17825
-3.5308 -8.286 0.8403 0 9946
-3.5306 5.2382 0.73872 2 16520
-3.5088 -4.0336 -0.24931 0 10308
-3.5085 4.5493 0.53599 0 15934
-3.506 9.0484 1.5943 0 18526
-3.4802 4.974 0.70991 1 16358
-3.4788 5.9462 0.80562 2 17128
-3.4749 -2.3035 0.58592 1 10569
-3.4689 2.8161 0.62795 0 13886
-3.4687 4.9889 0.85397 2 16386
-3.4671 -4.7372 0.13629 1 10184
-3.4491 5.1174 0.57574 2 16518
-3.4349 5.1915 0.58076 2 16602
-3.4269 -9.289 0.92372 0 9898
-3.4163 -4.9338 0.70178 0 10152
-3.4139 -7.7002 1.3839 0 9955
-3.4038 -3.0659 0.64381 0 10445
-3.3944 4.7325 0.95684 0 16254
-3.3876 -3.719 -0.23459 0 10345
-3.3762 -0.4721 -0.079149 0 10615
-3.3636 -2.6784 0.60429 0 10510
-3.3459 -4.6563 0.26739 0 10170
-3.3396 4.253 0.88842 2 15864
-3.3333 -7.5826 1.3608 0 9952
-3.3298 1.9287 0 0 12549
-3.3294 4.7886 0.68204 2 16385
-3.3107 -3.408 0.44328 1 10387
-3.2967 -2.4869 -0.19258 1 10530
-3.2743 -2.5609 0.09651 0 10515
-3.273 -0.21854 0.61804 0 10706
-3.2664 8.5005 0.84959 0 18545
-3.2607 -0.22572 0.61582 0 10700
-3.2589 -2.4282 0.28419 0 10535
-3.2412 1.3498 0.081516 0 11722
-3.2216 3.0274 0.41244 0 14570
-3.2071 -9.0868 0.89901 0 9879
-3.2051 4.6967 0.79913 0 16467
-3.181 -2.3858 0.27805 0 10533
-3.1801 -6.2251 0.81747 0 9992
-3.1797 -8.0391 1.011 0 9922
-3.1777 5.8942 0.94109 1 17450
-3.1684 -4.5183 -0.12812 0 10157
-3.1682 4.7884 0.80693 2 16604
-3.1649 -3.2579 0.85577 1 10388
-3.16 6.1118 0.96697 1 17599
-3.1466 3.2436 -1.4101 0 14961
-3.1431 5.7078 0.91576 1 17372
-3.1421 0.037293 -0.21973 1 10811
-3.1322 4.1341 0.60654 2 16012
-3.1255 3.1496 0.20692 0 14860
-3.1251 5.8774 0.93552 2 17504
-3.1137 -3.8643 -0.11522 0 10252
-3.1069 8.682 1.0783 0 18738
-3.0919 6.0266 0.95194 0 17626
-3.0903 1.9498 0.1704 0 12823
-3.073 1.9254 0.50965 0 12806
-3.0567 -4.0756 -0.23758 0 10198
-3.0532 4.7945 0.79885 1 16768
-3.022 1.5691 0.079056 0 12220
-3.0201 1.9055 -1.4916 1 12818
-3.0097 -8.4617 0.83789 0 9884
-2.9933 8.9252 1.5466 0 18906
-2.9811 4.8024 0.7944 1 16873
-2.9745 7.5397 0.37798 0 18467
-2.9649 -5.5622 0.73709 0 10009
-2.9619 -3.3869 0.52616 0 10316
-2.9573 1.2822 0.6073 0 11801
-2.8977 -4.8112 0.1304 0 10085
-2.8939 -4.8392 0.13091 0 10080
-2.8783 -3.3475 0.1025 0 10295
-2.874 -1.9532 0.32419 0 10561
-2.8444 -9.1549 0.67036 0 9792
-2.8374 6.3699 1.3138 2 18093
-2.821 -2.8877 0.093725 0 10391
-2.8167 2.2997 0.51104 2 13914
-2.7503 -3.5598 0.41969 0 10221
-2.7479 4.6335 0.7571 0 17072
-2.6671 -7.0995 0.17608 0 9905
-2.6612 -7.1444 0.17701 0 9902
-2.6401 -4.5635 0.74096 0 10060
-2.6203 -6.9162 0.3449 0 9908
-2.5916 -4.1652 0.92428 0 10101
-2.5711 -2.9745 0.18335 0 10303
-2.4753 -8.9619 -0.21586 0 9682
-2.4478 2.4796 0.40746 0 14889
-2.4294 -7.0236 -0.34658 0 9867
-2.4135 -4.4048 0.82519 2 10027
-2.3995 -3.5735 0.70717 0 10138
-2.3981 -4.5639 -0.48099 0 10004
-2.3904 -4.5185 -0.47691 1 10006
-2.3754 -3.1671 0.65043 0 10199
-2.3673 7.0586 1.4027 0 18908
-2.2931 9.6403 0.46211 0 19616
-2.27 9.3047 1.5735 0 19582
-2.2698 -4.1424 0.44068 0 10026
-2.267 -4.1666 0.44254 0 10022
-2.214 -4.9938 0.12682 0 9954
-2.2127 -3.7002 0.20105 0 10081
-2.1957 8.7738 -1.0577 0 19519
-2.1952 5.7127 -1.0055 0 18529
-2.1944 -5.2795 0.93933 1 9939
-2.1628 -3.8922 0.10338 0 10036
-2.1542 -5.5394 -0.27717 0 9918
-2.1191 -3.7623 0.81356 0 10044
-2.0428 -6.1337 -0.30149 0 9846
-2.0278 2.3082 -0.80433 0 15386
-2.005 -3.4895 0.37547 0 10054
-2.0038 6.2788 -1.4009 0 19026
-1.9495 -3.7626 0.29633 0 9998
-1.9469 3.8475 0 0 17670
-1.9388 4.7556 -0.9676 0 18377
-1.9379 -3.5618 0.094143 2 10021
-1.8932 -3.0427 0.41907 0 10099
-1.8813 -3.1672 0.51772 0 10074
-1.8487 -2.861 0.55964 0 10115
-1.8482 -4.0706 -0.41708 0 9960
-1.8421 -3.3384 0.71839 2 10033
-1.7999 -2.8394 -0.23508 1 10107
-1.7566 4.1362 -0.7383 0 18223
-1.7501 -8.503 1.6356 0 9468
-1.7474 6.1426 0.14827 0 19280
-1.7335 4.1117 -0.73311 1 18250
-1.7164 -7.3642 0.52875 0 9547
-1.6979 -5.2507 0.64533 0 9828
-1.6907 -2.7535 0.075017 1 10092
-1.6598 -7.1213 1.0277 0 9550
-1.6596 7.4551 1.2548 0 19745
-1.6406 6.03 0.29143 0 19366
-1.6356 6.4542 0.15458 0 19503
-1.6229 -2.9411 0.077988 0 10030
-1.6193 -9.5333 1.8219 0 9361
-1.6056 3.6908 0.093447 0 18158
-1.5988 -2.8773 0.46261 0 10037
-1.5985 -7.5465 -0.17909 0 9480
-1.5798 -7.7929 1.3064 0 9459
-1.5721 -2.8491 0.45732 0 10032
-1.5613 3.2954 -0.77509 0 17895
-1.5543 -6.4991 0.93914 0 9571
-1.5441 -4.6363 0.22789 0 9849
-1.4645 -3.4087 0 0 9948
-1.449 -6.8403 0.16234 0 9481
-1.4409 5.2961 -0.64185 0 19355
-1.4059 -6.935 -0.16429 0 9454
-1.4007 5.5273 0.80136 1 19512
-1.3666 -3.5452 0.35448 0 9916
-1.336 -4.2114 0.83244 2 9813
-1.3326 -3.6123 0.72543 0 9899
-1.3261 9.1684 1.522 0 20336
-1.2989 -7.277 0 0 9381
-1.2758 9.6131 0.22514 0 20406
-1.2498 -6.7696 0 0 9399
-1.2411 -4.3917 0.85985 2 9706
-1.2363 -5.1692 0.37166 0 9568
-1.2215 -8.2126 -0.3872 0 9309
-1.2073 -3.625 0.62773 0 9853
-1.1871 -6.0394 0.4304 0 9437
-1.1735 -7.7229 -0.36428 0 9319
-1.1695 9.4164 1.559 0 20472
-1.1694 -8.7177 0.82061 0 9281
-1.1426 -5.0413 0.72648 2 9529
-1.1411 -3.3596 0.16546 0 9860
-1.1351 -7.6317 0.35981 0 9312
-1.119 7.1456 0.84581 0 20249
-1.1059 -6.0855 0.86928 0 9394
-1.1013 -2.9067 0.51068 0 9909
-1.0553 6.266 0.14753 0 20163
-1.0449 -7.9691 -0.37481 0 9275
-1.0394 -3.9846 0.28795 1 9632
-1.038 -8.2863 1.5734 2 9266
-0.98613 -7.8723 0.1842 0 9264
-0.98369 -6.6136 1.0985 0 9314
-0.97044 -6.7932 0.15932 0 9299
-0.95135 -9.082 0.63855 0 9227
-0.94304 -8.3157 0.97869 0 9245
-0.90435 -8.1653 1.1546 0 9240
-0.8802 -2.9507 -0.071489 0 9744
-0.86966 -7.8522 0.92386 0 9239
-0.85008 -5.2895 0.75293 0 9341
-0.84888 -5.8189 0.54862 0 9304
-0.8421 -5.3349 0.75905 0 9334
-0.83367 -8.179 1.549 0 9222
-0.82619 -7.6801 1.2691 0 9234
-0.81576 6.2896 0.14725 0 20430
-0.81201 -5.7925 1.102 0 9295
-0.80616 -8.1487 0.76394 0 9215
-0.79428 -4.3023 0.8243 0 9401
-0.78624 6.8371 -0.15978 0 20520
-0.76993 6.199 0.8779 0 20470
-0.7662 -3.8982 0.6527 1 9439
-0.76417 -7.1036 0.4996 0 9232
-0.75209 -6.004 0.99412 0 9265
-0.74488 -9.5071 1.7967 0 9178
-0.71062 8.5883 -0.20008 0 20741
-0.70237 -5.2362 0.99538 0 9283
-0.69124 3.1492 0.22545 0 19761
-0.68402 5.2738 0 1 20428
-0.67681 -6.64 0.93803 0 9221
-0.6506 2.964 0.57175 0 19771
-0.61107 -5.117 0.72426 0 9253
-0.58905 -7.2265 0.67644 0 9182
-0.57882 -3.8916 0.27512 0 9313
-0.556 6.2545 -0.29282 1 20697
-0.5292 -7.9257 -0.37043 0 9159
-0.49818 -3.7139 0.52663 0 9282
-0.47391 -4.4053 0.41337 0 9233
-0.4605 -3.285 -0.077013 0 9294
-0.45673 -3.3299 -0.078035 0 9288
-0.4494 6.3003 0.14665 0 20825
-0.44626 -7.6697 0.71675 0 9140
-0.44169 -4.5956 0.10719 0 9209
-0.43447 -5.1524 0.84951 0 9189
-0.42849 -3.505 -0.081981 0 9259
-0.36789 -8.4941 1.3968 2 9114
-0.34828 -3.4169 0.40165 0 9220
-0.34289 -4.2066 0.59316 0 9184
-0.34262 -4.2033 0.49318 0 9183
-0.32973 -4.2083 0.49364 0 9176
-0.32503 -4.1484 0.58481 0 9177
-0.30377 -8.7869 1.4445 0 9095
-0.27356 -5.2549 0 1 9131
-0.25265 -7.9076 0.73812 1 9090
-0.21765 3.1844 0.60137 0 20856
-0.20347 3.5943 0.16789 0 20921
-0.20244 9.2038 1.7345 1 21134
-0.18704 -3.2146 0.37656 0 9141
-0.17827 -6.8078 -0.15811 0 9079
-0.17628 -3.5787 -0.083187 0 9124
-0.17563 -4.0551 -0.094236 2 9112
-0.17244 4.0971 -1.1759 0 21001
-0.14819 3.2886 -0.2302 0 20980
-0.13772 -5.9768 0.1388 0 9072
-0.12468 4.5491 0.10566 0 21089
-0.094239 3.7751 0.44161 0 21114
-0.08199 3.7277 0.43603 0 21130
-0.077386 -6.7177 0.15598 0 9044
-0.068568 -3.9283 0.74024 0 9061
-0.045125 -3.9172 0.55057 1 9045
-0.044403 3.3919 -0.72104 2 21178
-0.036851 -4.2227 -0.098042 2 9037
-0.018059 -6.0864 0.99996 0 9026
0.018508 4.4188 0.10259 0 21261
0.050229 -8.9934 0.2088 0 9012
0.059695 -6.8403 0.319 0 9006
0.066996 -7.677 0.53685 0 9007
0.086224 3.1661 -0.67322 0 21371
0.089449 -3.4388 0 0 8974
0.09087 -7.8882 0.55163 0 9001
0.096941 3.1912 -0.67862 0 21383
0.098324 6.1231 1.0061 0 21325
0.11262 4.5753 0.75191 1 21362
0.15467 -8.9507 0 0 8992
0.1777 -4.0864 0.3816 1 8943
0.20915 5.7867 0.13444 0 21406
0.23306 6.4481 -0.1498 0 21404
0.23811 -8.167 0.76227 0 8968
0.25346 -7.3315 1.031 0 8959
0.25823 -5.5791 0.78494 0 8938
0.26431 3.3214 0.23299 0 21584
0.27078 -8.5216 0.99704 0 8964
0.27294 -4.2786 0.19994 0 8903
0.31401 -3.4909 0.57585 0 8857
0.32993 -5.9761 0.84116 1 8923
0.33965 5.224 -1.1127 0 21530
0.3473 -6.2907 0.14627 0 8921
0.37371 -9.9083 -0.2302 0 8953
0.41207 -6.7567 1.1121 0 8911
0.4418 4.1615 -0.58815 0 21681
0.48808 -4.4139 -0.1031 0 8815
0.50331 -9.6684 0.45149 0 8928
0.55437 -3.7227 0.70913 0 8744
0.57182 -9.376 0.21809 0 8909
0.57301 -3.2104 -0.075714 0 8672
0.57636 9.6728 0.90402 0 21504
0.58402 4.3025 0 0 21787
0.59731 3.2134 -0.15242 0 21932
0.60005 4.4206 -0.20804 1 21785
0.62313 4.508 -0.31823 1 21794
0.62917 4.5517 -0.21428 0 21795
0.64251 3.346 0.079102 0 21950
0.64635 3.7149 -1.1766 0 21908
0.64679 3.1678 -0.075064 0 21989
0.65016 3.8727 -0.091172 2 21887
0.65805 -3.7473 0.5347 0 8678
0.66805 -4.005 0.47482 0 8698
0.66909 -5.7476 -0.13434 1 8804
0.67143 3.9239 -0.092425 1 21896
0.6863 -5.2412 0.61815 2 8777
0.68818 3.3705 0 0 21991
0.69628 3.5687 0.68506 0 21966
0.7135 -5.9836 1.1354 0 8798
0.72255 -3.2272 -0.076781 0 8578
0.72933 3.9236 -0.84828 2 21937
0.78047 -8.9568 1.0514 0 8864
0.78978 3.985 -0.76542 0 21975
0.78987 -5.7662 0 0 8765
0.80002 7.1549 1.1828 0 21710
0.83165 -3.8175 0.36451 0 8595
0.87653 -3.4845 -0.08342 0 8518
0.87837 -3.451 -0.082677 0 8511
0.88839 3.4253 0.33014 0 22124
0.8892 -9.2686 1.5298 0 8844
0.89336 -3.9901 0.094932 2 8579
0.89616 -9.6238 0.2244 0 8850
0.91413 3.4844 0.33608 0 22130
0.91599 3.8509 0.27679 0 22078
0.92687 -4.9384 0.70616 0 8657
0.92849 3.3824 0.49295 0 22165
0.94194 -9.5211 0.44618 0 8837
0.94514 4.0809 0.097253 1 22064
0.94745 4.1501 0.098832 0 22055
0.96958 5.0492 -0.35952 0 21946
0.97384 6.4774 0.15208 0 21831
0.9752 -3.4928 0.50965 2 8464
0.98146 3.9247 0.18866 0 22105
0.98218 6.4111 -1.222 0 21845
1.006 6.4313 -1.2264 0 21858
1.0164 3.8305 -0.55697 0 22131
1.0632 5.1293 0.24428 0 22002
1.0711 4.7488 -0.34041 1 22046
1.0804 4.7324 -0.33944 0 22052
1.0854 3.2123 -0.47653 1 22312
1.1054 3.3017 -0.48933 0 22304
1.1085 3.7397 -1.2171 0 22219
1.1129 4.6283 -1.365 0 22082
1.124 5.0575 0.97612 0 22043
1.1276 5.0736 0.4849 0 22041
1.133 -3.8004 0.18494 0 8433
1.1514 -5.0804 0.36427 0 8571
1.1654 -3.676 0.63357 0 8413
1.1668 -4.3245 0.84392 0 8479
1.1758 -6.2646 0 1 8656
1.1901 -7.2753 -0.17116 0 8705
1.1918 -8.7006 0.81931 0 8766
1.1923 -3.5469 0.1745 0 8390
1.1961 -5.1359 0.86637 0 8557
1.1977 9.4541 0.44441 0 21759
1.1984 8.6696 1.649 0 21801
1.218 6.2427 -0.59339 0 21956
1.2191 9.8573 1.3959 0 21750
1.2555 3.0042 0 2 22482
1.2776 -9.137 0.86074 0 8759
1.3022 3.5146 0.70617 0 22393
1.3093 2.897 -0.07381 0 22563
1.3116 -4.5953 -0.22286 0 8450
1.3147 -3.6982 0.091126 0 8374
1.3222 -6.629 0.95 0 8634
1.3677 -7.0693 0.5035 0 8645
1.3741 -7.8249 0.55554 0 8677
1.3933 4.6004 0.67555 0 22237
1.4013 -5.8641 0.99056 0 8544
1.416 -3.432 0.6995 0 8327
1.4265 -4.2438 -0.20879 0 8389
1.4364 2.8622 -0.6807 0 22699
1.4391 -2.665 0.57064 0 8076
1.4541 2.6993 0.57767 0 22802
1.4899 4.8643 -0.59492 0 22240
1.4967 -3.0592 0.23815 0 8189
1.5088 4.5069 0.11034 0 22308
1.5128 4.7489 -1.3048 0 22277
1.5151 -5.8796 0.56646 0 8505
1.5207 -6.5295 0.15565 0 8555
1.5307 8.7974 -0.20732 0 21906
1.5333 3.3926 0.086437 0 22565
1.5369 -4.2411 0.31544 0 8367
1.5449 3.3147 0.084905 0 22601
1.5496 -9.2899 1.7745 0 8699
1.5785 -2.8617 0.53694 0 8051
1.5854 -5.5547 0.94905 0 8453
1.6236 4.4559 0.33162 0 22371
1.6376 4.8913 -1.3503 0 22310
1.6379 -5.4386 -0.26487 0 8427
1.6501 7.0351 0 0 22071
1.6519 -3.6147 0.27791 0 8242
1.6604 -4.6245 0.92576 0 8371
1.667 -9.6609 1.3778 0 8684
1.6731 3.4828 -0.18018 0 22631
1.6894 -5.2746 1.0435 0 8407
1.7503 -7.618 1.4727 0 8564
1.7654 -2.5204 0.071443 1 7812
1.7656 -5.9224 0 1 8432
1.7875 -4.0017 0.10176 0 8268
1.7955 3.4756 0 0 22740
1.8045 -4.8059 -0.35897 0 8356
1.8151 -2.5759 0.07316 0 7804
1.8206 3.5501 0.18605 0 22729
1.8213 -8.1348 1.3696 0 8581
1.8293 3.8962 0.70717 2 22610
1.8329 3.5482 0.18624 0 22742
1.8438 -2.9645 0.081052 0 7959
1.8595 3.452 -0.73876 0 22801
1.8659 4.0642 0.73473 1 22584
1.8696 -2.4207 -0.14264 0 7677
1.8887 4.8769 0.85924 0 22423
1.89 4.5992 0.4639 1 22466
1.9129 -3.6684 0.77949 1 8119
1.9247 -7.3003 0.35208 0 8492
1.9302 3.3473 0 0 22898
1.9413 5.3805 -0.39998 0 22356
1.9432 9.2451 1.3277 0 22012
1.9683 7.8709 -1.333 0 22100
1.9785 3.6977 0.68901 0 22789
1.9939 -2.8296 -0.24205 1 7802
1.996 -4.4684 0.92206 0 8273
2.0109 -9.1081 0.21656 0 8588
2.0145 6.1378 0.60268 1 22295
2.0171 -4.7336 0.72314 0 8306
2.0228 -8.9252 0.21247 0 8570
2.0391 -3.6726 0.59037 0 8042
2.0439 -7.4 1.2613 0 8470
2.0538 4.2751 0.22118 0 22634
2.0541 -4.4597 0.34334 0 8234
2.059 8.8901 1.7193 0 22068
2.0624 7.6861 1.4994 0 22146
2.0652 -4.6605 0.35646 0 8278
2.0803 -9.6788 1.8652 0 8601
2.0858 -2.7659 0.16155 0 7718
2.0931 -4.6165 0.95501 0 8254
2.0932 -2.7929 0.16276 0 7729
2.1043 3.307 -0.18279 0 23078
2.1083 8.3321 0.80184 0 22113
2.1233 -4.1582 -0.21773 0 8141
2.1361 -4.3353 0.4509 1 8184
2.1411 -8.6259 1.6745 0 8526
2.154 3.363 0.18624 0 23096
2.1612 -4.2934 0.1116 0 8158
2.1695 -4.4032 0.11397 1 8183
2.1759 -6.41 1.1121 0 8386
2.1859 6.0584 0.90518 0 22363
2.1875 4.6932 0 0 22600
2.1976 -2.0869 0.21192 0 7100
2.2108 -4.5187 0.23459 0 8188
2.2142 -2.0547 0.21122 0 7087
2.2172 6.3705 1.2709 0 22337
2.2194 2.6199 0.64692 1 23947
2.2226 2.7823 -0.082677 0 23736
2.2477 5.5188 -1.4119 0 22459
2.248 2.488 0.39212 1 24177
2.2562 3.4348 -0.19164 0 23143
2.259 -2.0007 0.49576 1 7050
2.2733 -2.0261 0.5003 1 7056
2.2813 -5.8663 0.14614 0 8346
2.291 -3.4797 0.68447 0 7899
2.2939 -5.2157 -0.26571 0 8284
2.2969 6.14 -0.6116 0 22395
2.3474 -4.5324 0.96168 0 8127
2.3588 3.591 0.70587 0 23151
2.3634 -6.1344 1.08 0 8348
2.3674 -8.0229 -0.39009 0 8437
2.3848 2.8992 0 0 23830
2.386 3.9757 0.10765 0 22966
2.3937 7.6619 -1.1281 1 22255
2.4045 1.8517 0.28313 1 25559
2.4107 2.282 0.54537 2 24776
2.4155 -2.3895 -0.23759 1 7147
2.4171 2.1832 -0.075621 2 24941
2.4181 3.8251 0.74348 1 23069
2.4192 2.6943 0.08407 0 24150
2.427 7.0407 -0.8709 1 22328
2.4372 3.529 -0.099574 0 23272
2.4401 -8.646 1.2626 0 8458
2.4474 2.1974 -0.076364 0 24961
2.4493 2.8739 0 0 23955
2.4511 1.876 0.28797 1 25582
2.4574 8.3713 1.6438 0 22213
2.4626 -3.2858 0.38309 1 7730
2.4704 7.7547 -0.7593 0 22272
2.4906 -2.985 0.73246 1 7527
2.4979 2.5348 -1.1105 1 24502
2.5123 -2.8577 0.62514 2 7406
2.5217 -2.5536 0.67618 0 7184
2.5328 2.3544 -1.2586 2 24833
2.5395 -6.3684 1.1264 0 8340
2.5446 3.0934 0.75468 2 23841
2.5593 6.2839 -1.1147 0 22452
2.5764 -3.9886 0.78012 0 7926
2.5764 3.4653 0.70944 0 23501
2.5797 3.9272 -1.3473 0 23148
2.6105 -4.2834 0.46799 0 7978
2.6211 2.9689 -0.27693 1 24083
2.6239 2.385 0.41466 1 24926
2.6321 2.2298 0.24122 0 25180
2.6332 2.0403 -0.077338 1 25528
2.6596 2.6209 0 0 24611
2.6607 -8.1451 -0.39959 0 8398
2.6929 -1.5285 0.50873 0 6376
2.6939 -8.9452 0 0 8428
2.6984 4.4662 0.85729 0 22980
2.7031 -5.4098 1.1394 0 8169
2.7072 -1.5273 0.51068 2 6363
2.7101 -1.6981 0.22364 0 6545
2.7196 -2.7695 0.45392 0 7192
2.727 -6.105 1.0985 0 8272
2.731 3.3593 0.20189 0 23789
2.7493 6.8013 0 0 22449
2.7595 -6.1315 1.1047 1 8263
2.7733 -2.1326 0.65914 2 6910
2.7797 -2.2151 0.58396 1 6957
2.7924 3.537 0.42043 1 23700
2.7935 3.7573 0.65801 0 23499
2.8056 2.7027 -1.3163 0 24703
2.813 1.4315 0.29447 1 1269
2.82 2.9284 0.66794 1 24422
2.8283 1.4498 0.29651 0 1253
2.8361 -2.9554 -0.47901 0 7226
2.8395 -4.4247 0.99056 0 7936
2.84 -3.6351 0.21512 0 7654
2.8452 1.821 0 0 534
2.8519 -5.7075 0.59525 1 8167
2.8565 2.7345 -1.3362 0 24726
2.8638 -5.1579 -0.27512 0 8037
2.8666 4.5645 0 0 23051
2.8677 1.6311 0.076596 1 960
2.8726 7.5464 -1.1348 0 22409
2.8731 -3.3051 0.30623 0 7429
2.8885 1.2065 0.2189 0 1768
2.8995 -8.3781 0.20583 0 8380
2.9079 1.9822 -1.3742 0 284
2.9157 5.8942 0.45983 0 22676
2.9164 -7.7673 1.3631 0 8359
2.926 -2.4596 0.53721 0 7017
2.9275 5.7879 0.45356 0 22712
2.9296 -3.7497 0.33274 0 7655
2.9369 1.3174 0.52884 0 1585
2.9422 1.2897 0.14981 0 1642
2.9492 1.2216 0.22322 0 1791
2.9567 -3.4411 0.31725 0 7456
2.9573 4.6474 -0.12789 0 23079
2.9608 -3.4666 0.749 0 7473
2.9641 -6.5861 -0.50504 0 8257
2.9726 -3.9664 0.11508 0 7728
2.9745 8.3952 1.4633 0 22347
2.9769 -1.5345 0.55024 0 6214
3.0002 -0.66513 0.35937 0 5431
3.0065 4.7558 -1.4729 0 23066
3.0532 0.19155 0.35774 0 3976
3.0591 3.8074 0.34153 0 23754
3.0768 7.8752 -1.1883 0 22424
3.1035 -9.0491 0.89251 0 8383
3.1118 -2.7901 0.19491 0 7061
3.1134 -1.9146 0.084859 0 6510
3.1233 2.5985 0.094329 0 25247
3.1433 -1.1422 0.15596 0 5736
3.1645 -1.1599 0.15717 0 5744
3.1698 1.2807 0.39979 0 1849
3.1934 -5.7896 -0.46235 0 8045
3.1989 -2.8844 0.20087 0 7068
3.2231 3.1762 0.21102 0 24614
3.2239 -1.0457 0.3162 0 5655
3.2355 -3.2765 0.10691 0 7180
3.2514 2.8353 0 2 25070
3.2527 -1.7734 0.43324 0 6306
3.2552 3.0622 0.20841 0 24789
3.2596 -8.1745 0.4104 0 8339
3.2632 -4.2251 0.12395 0 7678
3.2644 -2.0454 0.7258 0 6549
3.2717 2.6437 -1.4213 0 25363
3.2802 7.6681 1.3702 0 22506
3.2821 -1.7776 0.43649 0 6294
3.3056 2.8644 0 0 25092
3.3082 -6.6672 1.046 0 8178
3.3255 1.995 0.63713 0 787
3.3255 2.8493 0.20422 0 25136
3.328 5.6928 -0.1531 0 22920
3.3352 2.8748 0.20534 0 25114
3.3408 5.6784 -0.15296 0 22933
3.3409 0.38419 0.55251 0 3645
3.3522 -5.3584 0.44198 0 7953
3.3527 0.84775 0.16127 0 2768
3.3695 -0.99744 0 0 5611
3.3707 8.2762 -0.41674 0 22456
3.3733 -8.6745 -0.65083 0 8345
3.3746 -0.97786 0.24568 0 5598
3.3859 -2.6981 0.60846 0 6956
3.3934 -6.193 1.3305 0 8060
3.3977 0.84904 0.16332 0 2789
3.4029 -0.63192 -0.080356 0 5298
3.406 6.8343 0 0 22685
3.4172 2.3866 0.6848 0 196
3.4434 -2.6175 -0.20171 0 6885
3.447 2.1783 0.19015 0 582
3.4549 -2.2496 0.67734 1 6615
3.4551 -1.9612 0.09224 0 6372
3.4561 -3.2071 0.21987 0 7086
3.4613 -2.9271 0.2114 0 7024
3.484 -5.3937 0.29944 0 7922
3.4993 -0.92717 0.16882 0 5541
3.5035 9.2037 -0.68864 0 22412
3.5073 -2.8625 0.52941 0 6985
3.5075 -6.359 1.3683 0 8052
3.5396 1.1857 0.26103 0 2256
3.5508 2.99 0 0 25199
3.5562 -8.6968 -0.43816 0 8329
3.5685 -4.7927 0.69876 0 7741
3.5768 2.0476 0.77653 0 946
3.5786 1.129 0.43882 0 2371
3.5818 1.3506 0 0 2004
3.6009 -1.5627 0.64492 0 5945
3.6013 1.6778 0.4646 0 1484
3.6094 -1.553 0.64556 0 5932
3.6096 0.10083 -0.083837 0 4186
3.6219 -0.77052 0.25894 0 5400
3.6324 -7.5949 -0.39261 0 8205
3.6343 -1.5032 -0.36692 1 5869
3.6985 -3.9898 0.50756 0 7289
3.7017 -8.489 1.3015 0 8293
3.7064 -4.0236 0.12701 0 7299
3.7536 -0.99455 0.36228 0 5542
3.7675 4.501 -0.41045 0 23890
3.8582 -1.8502 0.50038 1 6098
3.867 6.8882 0.36838 0 22858
3.8747 -4.0631 0.13035 0 7239
3.8944 -1.8525 0.50433 0 6085
3.916 -9.1192 1.3948 0 8300
3.9166 -0.18539 0.73876 2 4634
3.9213 0.39486 0.64751 0 3740
3.9284 3.5709 0.87221 0 24930
3.9325 -3.4028 0.24251 0 7039
3.936 2.4547 0.32437 0 634
3.937 0.73324 0.46832 0 3192
3.9446 1.5681 0.098553 1 1887
3.9562 0.91627 -0.094282 0 2905
3.9699 -8.0573 -0.41888 0 8182
3.9762 2.8635 0.34264 0 64
3.9864 -0.94527 -0.095118 0 5471
3.995 -0.77799 0 0 5332
4.0005 -2.0923 0.85059 0 6240
4.0076 6.0639 1.1942 0 23166
4.0094 -4.8054 0.1453 0 7519
4.0461 1.9281 0 0 1422
4.062 -1.2535 0.69842 0 5635
4.066 -4.9325 1.0502 0 7556
4.0671 -3.0338 0.83362 0 6859
4.072 1.4428 0.81393 0 2144
4.0728 0.55356 -1.496 1 3511
4.0945 2.8798 0.35004 0 165
4.1282 2.3633 0.22183 2 937
4.1317 -5.3496 1.1105 0 7685
4.145 -5.4668 0.31994 0 7709
4.1548 -8.6215 0.89288 0 8202
4.1626 -1.8342 0.10561 0 5966
4.1652 -3.203 0.24503 0 6907
4.1742 -2.824 0.35241 0 6684
4.2092 4.8541 1.2105 0 24034
4.2125 -1.4209 0.51989 0 5679
4.22 -1.5753 0.42024 0 5761
4.2283 0.16761 0.39479 0 4122
4.2316 -1.4546 0.41746 0 5692
4.2613 -4.1671 0.55605 1 7134
4.2649 -2.6228 0.8226 0 6515
4.2836 5.7323 1.1757 0 23520
4.2946 -2.5378 0.46539 0 6449
4.3416 -2.7393 -0.72147 0 6551
4.3442 6.211 1.0652 0 23320
4.3635 -2.9888 0.99649 0 6709
4.3638 -2.1862 0.57076 0 6167
4.3643 1.2547 0.21177 0 2545
4.3695 1.8538 0.89428 0 1729
4.3716 -2.8466 0.73316 2 6614
4.4443 -2.407 0.83038 0 6295
4.4486 2.4124 -0.11749 0 1094
4.454 -3.5087 0.93154 0 6940
4.4638 -1.5057 0.21969 0 5678
4.4675 1.2415 -0.10765 0 2604
4.4856 1.4445 0.32953 0 2331
4.5072 -1.5203 0.11044 0 5676
4.5124 -0.54367 0.74673 0 5018
4.5268 1.4726 0.89688 1 2317
4.5297 2.4892 -0.12 2 1055
4.5317 -3.2612 0.91728 0 6795
4.5348 1.4603 0.89762 0 2337
4.5355 -0.61322 -0.10626 0 5081
4.5935 -2.3173 0.60166 1 6179
4.6099 -4.483 0.44965 0 7127
4.6101 3.2811 0.13137 0 111
4.6532 1.864 -0.11638 0 1863
4.7009 2.8012 0.51053 0 806
4.7036 8.3783 0.89641 0 22859
4.7492 -7.2603 1.4254 0 7908
4.7765 -5.9344 1.2516 0 7607
4.78 -2.8055 0.12868 0 6433
4.8069 -6.3743 0.93362 0 7720
4.808 -0.4655 0.67889 0 4896
4.8083 1.0854 0.92872 0 2948
4.8184 2.9285 0.13091 0 727
4.8204 -4.6877 0.94499 0 7129
4.8247 -5.269 1.1738 0 7318
4.8603 -6.7663 0.38851 0 7784
4.8634 0.71729 0.34376 0 3438
4.864 2.0317 0.99316 0 1774
4.8782 0.57564 0 0 3616
4.8832 -2.3575 0.50589 0 6111
4.8848 1.2815 0.47115 0 2713
4.9276 2.0069 -0.12353 1 1825
4.9341 -2.2768 0.25341 0 6039
4.9396 0.41045 0.23115 0 3848
4.9493 2.0157 0 0 1827
4.954 1.5487 0.85275 0 2394
4.9548 -8.0226 1.3252 0 7965
4.9702 -3.6643 0.43179 0 6836
4.9782 -2.2813 0.25537 0 6027
4.9928 1.1096 -0.11875 1 2959
5.0212 4.3022 0.15352 0 25134
5.0469 1.3712 0.85924 0 2653
5.0667 -4.9825 0.16498 0 7141
5.0877 2.4606 0.6609 0 1391
5.0915 -7.4976 1.2737 0 7856
5.1177 6.4476 0.19112 0 23719
5.1411 2.4687 0.66694 0 1410
5.1444 8.1377 -0.22352 0 23064
5.1674 -3.9493 0.60677 0 6899
5.1755 -1.2425 0.12357 0 5480
5.2019 1.9802 1.0487 0 1991
5.2248 -6.0466 0.74555 1 7442
5.2294 -2.8512 0.97856 0 6307
5.2368 3.6343 0.59469 0 216
5.3542 6.4698 0 0 23850
5.3749 8.3916 0.23137 0 23095
5.3852 -4.3174 0.97004 0 6965
5.3866 -3.2251 0.88236 0 6470
5.3972 0.89254 0.12701 0 3317
5.4565 -7.7897 1.7919 0 7816
5.5003 -2.387 0.5594 0 5943
5.5411 2.7002 0.72083 0 1374
5.551 2.7858 0.4343 0 1302
5.5595 7.0421 1.6904 0 23708
5.5859 2.7425 0.87456 2 1357
5.6555 1.5897 1.1068 0 2593
5.6682 -3.5764 1.1011 0 6560
5.6893 -3.7287 1.2816 0 6629
5.6961 2.1478 0.56794 0 2009
5.7069 -3.3055 0.77124 0 6411
5.7113 1.5517 0.55215 0 2648
5.7436 2.6758 -0.14711 0 1477
5.7513 -7.7668 1.5878 0 7752
5.7517 -0.18879 0.67298 0 4543
5.757 1.4557 0.55401 0 2771
5.7638 -2.2275 -0.86844 1 5790
5.7769 -2.3493 1.175 1 5854
5.817 -0.97447 0.82892 1 5233
5.8179 1.9862 0.86399 0 2219
5.8221 -5.7594 1.151 0 7152
5.8514 -3.2355 0.9397 1 6328
5.8751 -3.8504 0.32757 0 6625
5.8761 7.6717 0.45065 0 23600
5.8964 -0.48581 0.13736 0 4819
5.9025 1.4389 0.28332 0 2829
5.9038 -2.4611 1.0509 0 5887
5.9132 -3.336 0.95417 0 6362
5.9354 -5.8716 0.38934 0 7148
5.9527 -0.47267 0.41756 0 4806
5.9563 1.29 0.14149 1 3001
5.9856 0.93625 -0.14066 0 3373
6.0095 1.4472 0.28826 0 2849
6.0375 -2.1534 0 0 5718
6.0472 -2.1379 0 0 5709
6.0507 -0.025345 0.70759 0 4364
6.076 3.0043 0.15737 0 1334
6.0784 -3.5676 1.3279 0 6438
6.1147 -2.9969 0.79633 0 6135
6.1309 2.415 0.61476 0 1909
6.1579 -3.426 0.99036 0 6339
6.1648 0.42244 0.86844 0 3941
6.1881 3.4485 -0.16447 0 1019
6.1971 3.5019 0.16526 0 980
6.2178 -3.2285 1.1511 0 6226
6.2286 -6.3427 1.6749 0 7194
6.2422 2.0306 0.1524 0 2309
6.2718 3.5904 -0.84511 1 926
6.2962 -2.7547 0.96586 0 5956
6.299 0.3952 1.0369 1 3979
6.315 0.41391 0.59042 0 3957
6.3215 -3.3287 1.3461 0 6251
6.3318 -2.5326 0.79749 0 5832
6.3438 -4.7613 0.18415 0 6867
6.4124 2.023 0.94499 1 2373
6.4511 1.1236 0.15203 0 3263
6.4529 0.93448 -0.15138 0 3454
6.4709 -3.1463 1.0112 0 6123
6.5479 -0.064 0.15203 0 4395
6.5536 -3.4993 0.86881 0 6272
6.5636 -3.076 0.84767 0 6062
6.5805 2.3109 0.32525 0 2159
6.5905 2.3144 1.3161 0 2166
6.6512 1.5796 0.15872 0 2868
6.6593 -0.27678 -1.4167 1 4601
6.6787 0.030307 0.31146 0 4312
6.7194 5.1151 1.3874 2 25612
6.7318 3.7515 0.71898 0 1025
6.7376 -1.9715 0.82095 0 5605
6.7418 -4.6179 1.1485 0 6707
6.7595 -4.1309 1.3015 0 6503
6.7639 3.6679 1.0814 0 1104
6.9245 2.9165 0.52541 0 1746
6.9258 4.4038 1.1535 0 566
6.9496 2.9271 1.2389 0 1751
6.9542 -6.3079 1.7689 0 7075
6.9674 0.31395 0.32525 0 4084
6.9992 0.35824 0.32683 0 4051
7.004 1.8807 0.3382 0 2668
7.0625 1.94 0.8565 0 2629
7.0874 1.2574 -0.16712 0 3240
7.1224 -0.29603 1.3431 0 4604
7.1654 2.4003 1.2415 0 2262
7.1718 0.28429 -1.0087 1 4111
7.1805 -6.4744 1.5885 0 7069
7.1816 -3.9416 1.3459 1 6319
7.2645 0.81484 0.3409 0 3659
7.2854 3.4984 -0.18764 2 1402
7.2906 0.289 1.0254 0 4126
7.3546 -3.8465 0.1927 0 6236
7.3586 -4.1244 1.5893 1 6352
7.3807 0.18554 1.213 0 4209
7.4034 0.46449 0.17222 0 3971
7.4106 -1.4432 0.35208 0 5333
7.4373 3.6774 -1.3631 0 1325
7.4548 2.3305 1.4716 0 2396
7.46 -4.6453 1.0277 0 6535
7.4689 0.33655 1.4086 1 4092
7.4752 4.6619 0.82191 0 636
7.4794 -4.5995 0.40947 0 6512
7.4964 2.4618 0.9227 0 2295
7.5022 -4.3454 1.4244 0 6412
7.5126 1.3761 1.439 1 3213
7.5661 0.6287 1.2474 2 3854
7.5942 0.30104 0.88879 0 4124
7.6017 -3.9471 1.6138 0 6228
7.6162 1.9499 0.18253 0 2748
7.6266 0.27832 1.2538 0 4144
7.6293 -1.9731 0.92154 0 5527
7.6293 1.7922 1.1014 0 2892
7.635 -0.27463 -0.17738 0 4558
7.6448 1.8877 1.2937 0 2812
7.6811 -4.7236 1.699 0 6517
7.7083 -2.801 -1.1526 0 5732
7.7095 0.21535 0.71954 0 4190
7.7895 -1.5381 -0.18434 0 5344
7.801 -1.6354 0.55735 0 5389
7.816 1.3866 0 0 3242
7.8263 3.4567 1.0005 0 1626
7.8454 2.8819 0 0 2062
7.8702 1.231 0.18494 1 3376
7.8832 -1.7477 1.1348 2 5432
7.9006 1.6635 0.18745 0 3037
7.974 -4.3765 0.42419 0 6317
7.9752 1.3675 1.5245 0 3286
8.0147 -0.54217 -1.129 0 4735
8.0234 -1.8288 1.1565 1 5448
8.0328 2.7174 0 0 2233
8.0445 2.1375 0.58205 0 2692
8.0457 3.6362 1.2409 0 1563
8.0552 2.4428 0.78531 0 2450
8.0556 -5.3137 1.1285 0 6640
8.1013 1.8763 1.5668 0 2914
8.114 -2.685 0.39857 0 5666
8.1246 1.8817 0.58316 0 2909
8.126 -1.9509 -0.38972 0 5478
8.1308 4.0203 1.4902 0 1341
8.1463 2.7812 0 0 2212
8.1766 -5.4945 0.91907 0 6674
8.2 5.2481 -1.1385 0 525
8.3023 -2.4829 0.20119 0 5618
8.3315 -2.7312 1.6519 0 5662
8.3339 1.4036 1.5923 0 3306
8.3344 4.1209 -0.21586 0 1331
8.3931 0.087896 1.1796 0 4288
8.4106 0.87212 -0.19632 0 3710
8.4345 4.7973 -0.22528 0 957
8.4566 0.60469 0.99146 0 3921
8.4672 0.99917 1.6064 0 3626
8.468 -1.4703 -0.4008 1 5252
8.4732 4.0688 0.21823 0 1405
8.4852 -0.20589 -0.19706 0 4477
8.5128 4.0276 -0.21865 0 1441
8.6735 -4.6624 1.3839 0 6283
8.7769 -1.9458 0 0 5427
8.8293 0.50291 0.82507 0 4016
8.8312 1.9627 1.4863 0 2968
8.8769 3.003 0.65529 0 2237
8.8811 2.165 1.7223 0 2836
9.0623 3.8169 0.2283 0 1743
9.2805 2.7244 -1.1311 2 2496
9.3795 -2.1086 0.44832 0 5435
9.3869 -1.6602 0.88935 2 5266
9.4223 -2.1753 1.1308 2 5455
9.4442 -2.0937 0.45111 1 5428
9.471 -2.2458 1.1383 1 5473
9.4963 -1.9649 0.45223 0 5376
9.4984 -2.1929 0.68166 0 5453
9.532 1.3515 -1.353 1 3465
9.5426 -2.0301 1.3711 0 5403
9.5557 -2.0887 1.1439 1 5421
9.5559 -2.236 0.68626 0 5462
9.5628 -0.92585 0.44804 1 4892
9.565 -2.0645 1.1443 0 5411
9.5768 -0.87324 0.67245 1 4867
9.5816 -0.73222 1.3505 1 4794
9.5886 -0.64864 1.1239 2 4744
9.6047 -0.96037 1.5859 0 4911
9.6083 -0.73426 1.1269 0 4792
9.61 -1.9272 0.45708 0 5356
9.6681 -0.73883 0.67803 0 4790
9.6768 1.2877 -1.372 1 3520
9.6935 -0.88388 1.1383 0 4869
9.6949 0.89083 0.9083 0 3792
9.6986 -2.2106 0.23095 0 5444
9.7056 2.0435 -1.1599 2 3027
9.7082 -0.83058 0.90904 2 4838
9.7116 -2.066 0.92632 1 5401
9.7473 -0.60471 1.3725 2 4713
9.7553 -2.1056 1.4026 0 5412
9.7658 -0.66063 0.68445 2 4741
9.7752 -1.3495 0.69003 2 5098
9.7845 0.98525 0.68766 0 3735
9.7979 -0.26512 0.91443 0 4500
9.8686 -0.32393 0.69045 0 4540
9.8815 -0.46773 1.1569 1 4629
-14.583 1.9147 -1.3722 2 10981
-13.841 2.9369 1.9885 0 11138
-12.921 2.1182 -1.8401 0 11030
-12.7 -1.5863 2.1027 0 10630
-11.963 2.103 1.7071 0 11057
-11.935 2.8236 0.28475 1 11203
-11.729 -1.8137 1.95 0 10607
-11.595 2.7047 2.2433 0 11196
-11.501 4.4403 -0.57493 0 11615
-11.371 0.033737 -0.264 0 10802
-11.215 3.2074 0.27082 0 11317
-11.083 8.3216 -1.6208 2 13512
-11.065 3.5845 -0.27003 0 11425
-10.987 1.2479 1.8167 0 10954
-10.907 -0.25132 1.7924 0 10765
-10.893 -1.1699 0.51093 1 10648
-10.811 0.72563 -0.25156 0 10897
-10.761 3.5215 0.26289 0 11434
-10.578 -0.8883 1.2414 0 10674
-10.516 -7.8355 2.1546 0 10536
-10.415 1.9284 1.7402 0 11076
-10.391 -0.11788 1.9578 0 10784
-10.325 3.8851 2.0785 0 11589
-10.213 -0.8289 1.6835 0 10680
-10.174 -0.11543 1.1898 0 10783
-10.163 0.50415 -0.23624 0 10866
-10.096 2.355 0.2407 0 11193
-10.08 2.7274 0.97425 0 11276
-10.028 1.7357 0.71166 0 11051
-10.007 3.0174 1.7172 0 11365
-10.001 -0.78356 0.2329 0 10684
-9.8164 3.4011 0.96923 0 11489
-9.7608 5.8441 1.0614 0 12656
-9.7429 -7.4382 2.0139 0 10526
-9.6509 6.0118 1.598 0 12783
-9.3877 3.9713 0.71277 0 11750
-9.3814 4.5959 0.97462 0 12061
-9.2865 -7.8421 0.2822 1 10485
-8.9529 -11.659 0.34129 1 10215
-8.8306 -7.1585 -0.53012 0 10502
-8.8293 -7.9082 0.82885 0 10448
-8.8008 -6.6391 1.8112 0 10531
-8.3798 -5.9464 1.936 0 10548
-8.3539 -6.8914 0.75728 0 10494
-8.2547 -11.345 -0.32574 0 10178
-8.1638 8.6119 1.1071 0 15055
-8.0916 -9.0914 -0.28257 0 10329
-7.8904 -7.9846 1.8443 0 10402
-7.7867 -9.3825 -0.5686 0 10271
-7.4946 11.92 -1.6466 2 16800
-7.4075 9.4949 0.8421 2 15883
-7.3127 10.324 1.4795 0 16304
-7.2182 -7.389 1.6971 0 10392
-7.0567 -11.421 0.62608 1 10096
-6.9896 9.4563 2.2155 0 16124
-6.9763 -11.82 1.9289 0 10071
-6.9623 9.1328 0.80304 0 15982
-6.7833 -10.839 1.797 0 10103
-6.7361 10.578 0.58481 1 16762
-6.6376 9.9639 1.6826 2 16577
-6.6252 10.074 1.1249 0 16628
-6.4006 -10.989 1.1864 0 10064
-6.3551 -9.0056 1.0283 0 10160
-6.2481 -8.9664 1.5359 0 10154
-6.2209 12.466 0.32347 1 17723
-5.9781 -9.0182 2.0385 0 10133
-5.9669 -8.1527 -0.47114 0 10182
-5.783 10.437 2.2481 0 17349
-5.7455 8.3099 1.4198 0 16413
-5.7241 -11.205 -0.29213 0 9990
-5.6907 -9.9044 1.8767 0 10055
-5.2462 -10.49 1.6484 0 9986
-5.1964 8.0078 -1.7986 1 16689
-5.03 -11.171 1.7218 0 9958
-4.8787 -9.348 1.9867 0 10002
-4.8001 11.959 1.2022 0 18421
-4.6989 -12.19 0.30332 1 9915
-4.5134 8.9856 0.70315 1 17700
-4.1285 10.041 2.0456 1 18353
-4.0038 -10.211 -0.51149 0 9920
-3.8926 -12.153 2.4044 0 9823
