VERSION .7
FIELDS x y z intensity index
SIZE 8 8 8 8 8
TYPE F F F F F
COUNT 1 1 1 1 1
WIDTH 1466
HEIGHT 1
VIEWPOINT 0 0 0 1 0 0 0
POINTS 1466
DATA ascii
-9.798 0.78488 0.22821 0 9025
-9.7472 -0.66792 1.8408 0 8527
-9.4678 0.20493 0 0 8836
-9.3151 0.091047 0.8691 0 8797
-9.297 -0.61099 1.5307 1 8537
-9.1843 2.5885 1.5677 0 9658
-9.1197 1.0503 0 0 9136
-9.0271 4.2883 1.1687 0 10430
-9.0226 2.5124 0.43677 0 9643
-8.9926 4.0811 0.22928 0 10341
-8.9421 4.2479 1.8652 0 10434
-8.8834 0.50288 0.20658 0 8955
-8.8628 3.9905 1.1367 1 10329
-8.8609 -0.24596 0.61986 0 8673
-8.7706 3.4672 0.87987 0 10105
-8.7441 -0.16637 -0.20305 1 8701
-8.5862 3.3373 0.42959 0 10074
-8.5843 -0.088401 0.80091 0 8729
-8.5642 3.7969 1.0955 0 10302
-8.5158 2.9722 -0.20941 0 9912
-8.4503 2.5127 0 0 9714
-8.2992 4.3627 0 0 10660
-8.26 5.1754 0.45456 0 11216
-8.2276 3.4198 0 0 10187
-8.1969 -5.5853 0.92539 0 8091
-8.1921 2.6192 0.8024 0 9800
-8.1159 -1.226 1.3485 0 8262
-8.0884 1.5825 0.19135 0 9383
-8.0091 3.004 1.2022 0 10023
-7.9261 2.9997 1.191 0 10037
-7.9239 2.792 1.3803 1 9930
-7.9132 3.372 0.19971 0 10227
-7.8726 -1.0043 1.4953 0 8327
-7.7835 3.1574 0.78364 0 10144
-7.7694 -5.1288 0.86854 0 8135
-7.7519 -0.01353 0.17998 0 8758
-7.7205 -1.3516 0.73125 0 8207
-7.7147 -4.9642 1.2893 0 8159
-7.6869 3.8711 0.80296 0 10555
-7.5828 -5.1668 1.2896 2 8093
-7.5615 1.366 0.1784 0 9332
-7.5539 3.4553 1.3647 1 10362
-7.5468 0.82517 0.35403 0 9118
-7.4723 -6.219 1.5972 2 7809
-7.4534 3.4329 0 0 10371
-7.4087 -5.0747 0.62795 2 8084
-7.3778 4.2133 1.3959 1 10919
-7.3242 1.1234 0.6913 0 9247
-7.3106 -5.0414 0.62097 0 8076
-7.2807 -5.1474 1.4649 0 8043
-7.2657 4.8511 1.646 2 11457
-7.2551 -5.2886 0.62781 0 8000
-7.2494 4.3095 1.589 2 11046
-7.2364 -5.1484 1.4591 2 8033
-7.2227 0.83186 -0.6783 1 9132
-7.2173 4.7626 1.0112 0 11403
-7.2063 4.6033 0.59795 1 11286
-7.1898 4.6513 1.4069 2 11337
-7.1842 -4.9857 1.4367 2 8071
-7.1822 1.9567 0 0 9620
-7.1814 0.57528 0.50378 0 9026
-7.1687 1.9759 -0.17264 0 9632
-7.1563 1.0159 0.16781 0 9209
-7.1367 4.5588 1.3913 1 11293
-7.1175 3.6642 1.1251 1 10611
-7.0793 -6.102 1.3135 2 7752
-7.0789 4.8779 1.4124 2 11577
-7.0784 3.3369 0.36493 1 10410
-7.0398 4.2433 0.19084 0 11082
-7.0382 3.3179 1.466 0 10418
-7.0332 3.3156 1.0928 2 10414
-7.0208 -5.9794 0.86037 1 7768
-7.011 -5.1727 1.6416 0 7990
-6.9975 -5.8239 1.0646 2 7807
-6.9863 -5.2188 1.2256 0 7971
-6.9683 6.5528 0.22208 0 12916
-6.9668 2.6618 0 0 10047
-6.9655 -4.8647 0.99355 2 8061
-6.9568 0.35242 0.64987 0 8941
-6.9512 4.6149 0.58344 2 11424
-6.9472 4.939 0.99681 1 11693
-6.9415 3.7282 1.4845 0 10733
-6.9374 4.932 1.3985 2 11697
-6.9325 4.9595 0.99681 0 11718
-6.8972 -5.808 0.84123 0 7785
-6.8945 -4.6381 0.97172 1 8110
-6.8854 4.6285 1.166 2 11479
-6.8808 -5.7594 0.83714 1 7796
-6.8585 -6.644 1.1167 0 7579
-6.8507 -5.905 1.0577 1 7751
-6.8488 3.376 1.2545 0 10510
-6.8469 -5.9372 1.7075 2 7745
-6.8402 -5.9629 1.7097 0 7739
-6.8325 -0.20995 1.2879 0 8665
-6.8248 -5.7817 1.6853 1 7780
-6.8239 -5.7463 1.6808 2 7789
-6.8137 3.0679 1.4079 0 10333
-6.7993 -4.9891 0.58972 1 7992
-6.7985 -0.22791 1.2816 2 8654
-6.7983 6.6597 0.66548 1 13100
-6.7975 -5.0446 1.1897 1 7981
-6.785 -4.8272 0.38832 1 8030
-6.7802 3.6173 1.4479 1 10712
-6.7711 6.5938 1.5528 1 13080
-6.7604 -6.0679 0.42363 2 7687
-6.7575 2.7412 0.85278 0 10146
-6.7531 3.1835 1.2266 2 10416
-6.7488 -4.8298 0.38702 2 8021
-6.7295 3.7672 1.0839 0 10852
-6.7068 4.3671 1.1248 0 11360
-6.7033 6.2685 0.64176 0 12890
-6.6972 3.0394 1.3857 2 10347
-6.6968 4.7013 0.95685 1 11647
-6.6961 -6.0483 1.7001 0 7682
-6.6919 6.8646 1.1211 1 13322
-6.6913 6.5893 0.65669 0 13128
-6.688 3.393 1.2321 2 10577
-6.6819 1.3073 0.31751 0 9384
-6.6764 -7.1822 -0.68571 0 7434
-6.6543 -5.5029 0.60381 1 7816
-6.6542 -6.7149 0.21948 0 7536
-6.6541 -4.6731 0.37919 2 8049
-6.6417 -5.8947 0.41413 1 7707
-6.638 -4.7226 0.95267 2 8031
-6.6258 -4.9172 0.38478 1 7977
-6.6226 1.0774 0.46918 0 9275
-6.6176 4.7342 0.75911 2 11716
-6.6061 -5.4013 0.5967 2 7827
-6.6045 4.0854 0.1803 0 11170
-6.597 0.084057 1.0839 2 8809
-6.5954 -4.748 0.95035 2 8015
-6.5921 3.8676 1.0741 2 11000
-6.5609 3.4738 0.6926 0 10685
-6.557 3.5217 1.046 2 10729
-6.5426 3.2251 1.0251 2 10508
-6.5307 0.12197 0.91799 1 8828
-6.5199 -5.8213 0.4076 2 7696
-6.5066 6.6374 1.0869 2 13294
-6.5014 4.5642 1.3051 0 11651
-6.5005 -6.0809 1.0409 2 7625
-6.4973 0.17808 0.76009 1 8856
-6.4904 3.8323 1.4201 2 11024
-6.481 0.19575 0 0 8866
-6.4783 2.3681 1.1332 0 9985
-6.4778 6.4193 0.63771 1 13155
-6.4663 -6.9125 1.7834 0 7452
-6.4565 3.4446 1.2023 0 10710
-6.4527 3.9403 1.2422 2 11133
-6.45 5.0538 0.95824 1 12089
-6.4492 5.2993 0.97613 2 12295
-6.4469 4.6685 0.93083 2 11766
-6.4399 -6.8483 1.7712 0 7462
-6.4398 6.494 1.0695 2 13239
-6.4366 -5.7772 1.0114 0 7690
-6.4332 -6.1606 1.0416 0 7594
-6.4302 0.21331 1.057 0 8882
-6.4278 1.5325 0 0 9505
-6.4219 -5.5354 1.3929 0 7753
-6.4219 0.17601 0.44923 0 8855
-6.4138 3.4448 0.85138 2 10727
-6.4098 5.994 1.2334 1 12896
-6.4088 1.1774 0.45565 0 9345
-6.4008 -6.0911 1.0333 0 7602
-6.3942 -7.4235 1.846 2 7325
-6.3731 0.80963 0.44923 2 9171
-6.3686 -6.0987 1.4487 2 7596
-6.3584 4.574 0.91596 1 11742
-6.3454 0.3592 -0.89321 2 8953
-6.3254 -5.6775 0.19734 0 7686
-6.3146 0.06172 1.1898 1 8800
-6.3077 0.20925 0.29431 0 8878
-6.3038 0.080321 0.14637 0 8806
-6.2987 6.1703 1.2392 2 13106
-6.2975 5.852 1.6197 2 12873
-6.2973 -4.7333 -0.73496 2 7952
-6.2954 0.94871 0.44519 0 9237
-6.2915 0.098834 0.14609 2 8817
-6.2846 0.31836 -0.58708 2 8937
-6.2825 0.22708 0.43961 0 8891
-6.2809 -4.7484 -0.73459 2 7941
-6.2769 3.5846 0.50546 0 10912
-6.2767 -5.9419 1.0107 2 7610
-6.2757 -5.8706 1.2077 1 7626
-6.2645 -0.59438 0.58708 0 8424
-6.2643 1.6271 0.45258 0 9577
-6.2602 -6.8151 0.43155 0 7416
-6.2538 3.3828 0.99926 0 10750
-6.2526 6.5682 1.7086 2 13436
-6.2509 -4.9313 0.18485 0 7874
-6.2465 -0.61137 0.88208 0 8416
-6.242 0.18853 0.58262 2 8869
-6.2414 0.20705 0.58262 0 8880
-6.2326 -5.7978 1.1963 2 7637
-6.2208 -5.6546 0.9831 2 7670
-6.2199 3.7491 0.67755 2 11086
-6.2167 -4.5867 0.36028 1 7985
-6.2136 6.6399 0.6359 0 13506
-6.2128 6.8759 1.746 2 13670
-6.2106 -4.2541 0.35105 1 8083
-6.2101 1.0281 0.44016 0 9283
-6.2036 0.88069 1.1805 0 9213
-6.1913 0.8966 1.1787 1 9222
-6.1667 1.3558 0 2 9450
-6.164 -4.0938 0.86532 1 8127
-6.1494 0.044004 1.0103 2 8789
-6.1489 3.3026 0.65117 0 10725
-6.1471 -4.1354 1.2172 0 8112
-6.136 -4.8407 0.36447 0 7875
-6.1356 -0.31404 1.0094 1 8595
-6.1181 -5.6575 0.3886 0 7644
-6.1167 -5.8208 0.19604 2 7599
-6.1163 3.517 1.1592 1 10941
-6.1118 3.3962 0 0 10823
-6.1078 6.8408 1.7278 0 13724
-6.0982 7.3296 0.66673 0 14041
-6.0825 -5.8248 0.19553 1 7590
-6.0816 -6.393 0.82321 0 7476
-6.0806 3.4965 0.82026 1 10938
-6.0756 -0.38118 0.56794 2 8547
-6.0661 3.9756 1.1916 2 11385
-6.066 3.9499 1.3638 2 11364
-6.0637 -6.1554 0.80612 1 7528
-6.056 7.3205 0.66436 0 14068
-6.0556 -4.0984 0.51131 0 8099
-6.053 1.7437 1.1868 0 9684
-6.0486 3.9914 1.1906 2 11407
-6.0443 -4.1681 0.68499 1 8077
-6.0407 -0.53912 0.99639 0 8449
-6.0401 -3.8866 0.50225 1 8157
-6.0394 0.8929 0.42691 0 9229
-6.0273 -5.7357 1.1693 2 7603
-6.0258 -5.903 0.58986 0 7567
-6.024 -4.0525 0.50769 2 8108
-6.0211 3.6293 1.3246 1 11092
-6.018 5.3675 -1.3248 0 12655
-6.0155 -0.55486 0.9925 0 8437
-6.009 -4.1701 0.68238 2 8068
-6.0067 -0.098555 0.98699 1 8712
-6.0031 -5.852 0.58623 0 7572
-5.9948 -0.061734 0.84255 1 8731
-5.99 -4.0039 0.84256 0 8118
-5.9839 4.4392 1.0471 2 11865
-5.9831 3.3727 0.64077 0 10870
-5.9815 -3.8963 0.49918 2 8147
-5.981 3.5315 0.97616 0 11021
-5.9774 -0.25262 1.1272 2 8622
-5.9652 -7.1343 0.86761 1 7280
-5.9651 2.5825 0.91353 0 10260
-5.9627 3.4052 0.96503 1 10917
-5.9506 3.8496 1.3353 1 11339
-5.9429 4.225 1.3738 0 11699
-5.9414 0.024886 1.1194 2 8782
-5.93 0.3004 0.83448 0 8942
-5.9291 3.2286 1.272 0 10774
-5.9278 0.9092 0.70132 0 9248
-5.9251 3.8082 0.65712 1 11311
-5.924 6.1473 0.59698 1 13373
-5.9212 5.1581 0.54912 0 12566
-5.9208 -5.9747 0.78475 2 7539
-5.9147 7.7725 1.6047 0 14438
-5.9111 5.2722 0.55387 0 12672
-5.9071 1.1204 0.13959 0 9364
-5.9051 -5.6549 0.57172 0 7592
-5.9043 5.3275 0.5561 0 12729
-5.901 3.3495 0.95361 2 10894
-5.8999 0.40221 0.41352 0 8985
-5.8936 0.9229 0.83838 1 9258
-5.8915 -0.096666 1.1102 2 8713
-5.89 5.1635 0.54773 1 12592
-5.889 -0.31893 0.27503 1 8579
-5.8828 -3.8101 0.49011 2 8152
-5.8827 -4.1313 0.50267 2 8050
-5.873 1.3268 0.70411 1 9469
-5.87 7.8581 1.6115 2 14514
-5.8678 -0.077839 0.82474 2 8720
-5.8573 -0.41985 0.8253 1 8516
-5.857 7.9326 1.8578 2 14566
-5.847 1.0562 0.83504 1 9335
-5.8461 -0.43649 0.8239 0 8506
-5.8455 4.5228 1.2143 0 12042
-5.8282 1.2995 0.6983 2 9461
-5.8255 -7.0896 -0.42792 0 7261
-5.8216 -7.9397 0.22858 0 7132
-5.8131 0.41261 0.40752 2 8996
-5.8091 -4.8623 0.52973 2 7795
-5.7943 0.02427 0.95197 2 8781
-5.7942 -7.2661 0.21577 0 7226
-5.7916 4.5086 1.2059 2 12068
-5.7873 0.92283 0.82363 0 9267
-5.7603 0.64713 0.67786 2 9128
-5.7574 0.59598 1.0905 2 9104
-5.7526 0.041165 1.0839 2 8790
-5.7428 5.9593 0.77212 2 13375
-5.7389 0.81472 -0.13458 2 9208
-5.7386 -3.9308 0.64894 0 8085
-5.7344 -4.5499 0.51187 1 7865
-5.7333 -7.8192 0.90458 0 7134
-5.7272 1.2592 0.68575 2 9452
-5.7249 0.76081 0.81166 0 9187
-5.7232 -6.1181 0.19451 0 7445
-5.7208 -5.1078 0.53629 1 7697
-5.7181 -0.19169 0.93997 1 8653
-5.7176 0.15671 0.80386 0 8857
-5.717 0.0079825 0.66856 0 8770
-5.7065 0.38903 0.26674 0 8984
-5.7038 3.2153 0.92021 0 10873
-5.6986 5.4839 0.55303 0 13022
-5.6952 -0.50828 0.80359 0 8448
-5.6898 7.9944 1.6121 2 14718
-5.6797 -4.5862 0.51048 2 7842
-5.6759 4.2864 1.1686 2 11944
-5.671 0.48618 0.26543 1 9044
-5.6699 -0.02672 0.93154 2 8750
-5.6615 -5.6774 0.18615 2 7545
-5.6604 -3.9531 0.16029 0 8057
-5.6505 5.9689 1.1551 2 13456
-5.634 5.6814 0.74648 1 13237
-5.6238 -5.4157 0.3641 0 7582
-5.6193 -6.4098 1.198 2 7347
-5.6175 5.4059 0.72734 0 13024
-5.6167 -0.10687 0.65695 0 8702
-5.5926 2.4213 1.0013 0 10262
-5.5883 7.0456 1.0516 0 14254
-5.5871 4.4809 1.1767 2 12192
-5.5779 0.023364 0.6523 2 8780
-5.5612 7.4014 0.86371 0 14484
-5.5602 -6.0531 1.1551 0 7420
-5.5581 7.5748 0.87653 0 14586
-5.5552 -5.3496 1.0839 1 7586
-5.5467 -4.8952 0.51731 2 7717
-5.5414 5.3643 0.71954 1 13048
-5.5257 5.0157 1.0488 2 12761
-5.5197 -7.1339 -0.63074 0 7191
-5.5195 6.9167 1.2437 1 14229
-5.5127 7.5129 1.3096 0 14589
-5.5117 -4.1927 0.48425 0 7935
-5.5113 -3.8964 0.47197 1 8039
-5.5108 -8.3038 1.4006 2 7037
-5.51 -6.3229 0.39111 1 7337
-5.507 8.079 1.1434 1 14893
-5.5053 -5.239 0.35441 0 7600
-5.5048 -5.3663 0.35851 1 7571
-5.5021 1.379 0.79718 0 9546
-5.5005 5.1114 0.8781 1 12867
-5.4872 5.8987 1.5179 2 13542
-5.487 -5.1942 0.52834 2 7608
-5.4851 -5.4717 0.3613 2 7551
-5.471 5.9164 1.5182 0 13566
-5.4643 8.1749 1.1499 2 14974
-5.462 8.2242 1.1545 1 15000
-5.4546 0.67748 0.64278 1 9163
-5.4493 7.5223 1.3054 0 14644
-5.4484 -7.121 -0.41813 0 7180
-5.447 4.1405 0 0 11959
-5.4456 -4.2684 0.48383 1 7884
-5.4283 4.7038 0.67012 1 12540
-5.4279 -6.531 1.3952 1 7276
-5.4265 7.0924 1.4672 1 14412
-5.4184 5.5583 0.72419 2 13321
-5.4081 1.3384 0.78299 0 9537
-5.4078 -7.3754 -0.21233 0 7131
-5.4067 0.30607 0.88972 1 8956
-5.406 1.3058 0.91371 1 9515
-5.4057 -6.2759 0.38627 0 7318
-5.3957 -7.4511 1.2929 1 7120
-5.3901 5.0405 0.863 1 12894
-5.3891 5.0678 0.86509 2 12921
-5.3891 5.8278 1.3041 0 13564
-5.388 -5.0402 0.34407 1 7623
-5.3848 -3.7607 0.45928 1 8059
-5.3845 3.5951 0.90991 0 11453
-5.3827 4.9168 0.85255 2 12787
-5.3821 4.473 1.1498 2 12354
-5.3801 -6.9937 0.82321 2 7187
-5.3765 1.5315 0.39092 0 9669
-5.3708 0.084371 1.012 1 8819
-5.3609 -5.0749 0.34425 2 7607
-5.3464 4.9387 0.67904 0 12838
-5.3438 8.1475 1.1394 1 15051
-5.3437 5.5801 1.4557 1 13410
-5.3383 5.7046 0.91364 0 13510
-5.3369 0.22368 0.62466 1 8914
-5.3346 3.2575 0.87846 0 11131
-5.3295 5.9336 1.5027 0 13697
-5.3261 3.2715 0.87846 2 11154
-5.3255 3.5356 0.59637 2 11426
-5.3191 -5.2435 0.87345 2 7563
-5.3132 -6.5054 1.38 2 7258
-5.3101 5.3848 1.2425 2 13270
-5.3077 -7.1546 1.252 1 7150
-5.2953 4.9207 0.6744 2 12865
-5.2924 5.0629 0.51215 0 12996
-5.2824 6.463 0.97613 0 14121
-5.282 6.2748 0.57354 0 13988
-5.2815 4.9962 0.50839 0 12945
-5.2769 -3.7307 0.90824 2 8042
-5.2756 -3.705 0.90602 0 8053
-5.2753 3.5905 0.89683 0 11527
-5.2743 -3.7747 1.222 2 8026
-5.262 -6.3629 1.1604 0 7269
-5.2601 0.25082 0.61583 1 8934
-5.2594 -6.0354 0.93617 2 7339
-5.2485 8.1005 1.1288 1 15106
-5.2476 -3.8252 1.2235 2 8004
-5.2434 1.2019 0.62907 0 9478
-5.2355 6.1084 0.75057 1 13907
-5.2338 4.003 0.77054 2 11989
-5.2284 2.7485 0.97045 0 10671
-5.2226 -4.2172 0.31304 1 7841
-5.2213 4.5245 0.80794 2 12542
-5.2194 -8.2181 0.454 0 6988
-5.2164 6.0177 1.5005 2 13860
-5.2145 -3.3773 1.0207 2 8155
-5.2097 -3.5259 0.58689 0 8100
-5.2011 8.1358 1.1292 1 15159
-5.2009 0.40018 0.98279 2 9019
-5.1996 -3.324 1.0139 0 8164
-5.193 4.5238 0.80539 2 12569
-5.1867 6.0174 1.4968 2 13887
-5.1838 7.0647 1.4396 1 14591
-5.1816 -6.0156 1.3044 1 7323
-5.1804 0.38406 0.97871 2 9009
-5.1765 -6.4914 1.3641 2 7231
-5.1744 1.2003 0.74652 0 9487
-5.1743 -6.526 1.3683 0 7222
-5.1726 -6.4866 1.166 0 7230
-5.17 5.8911 0.73125 2 13796
-5.1677 8.031 1.569 1 15136
-5.1609 0.62454 0.97945 0 9156
-5.1561 -6.6639 0.19562 0 7192
-5.1496 4.2556 1.2587 2 12327
-5.1473 -6.1933 0.75131 2 7274
-5.146 6.6008 1.1763 2 14333
-5.1446 0.57796 0.97538 0 9129
-5.142 5.4949 1.4179 2 13515
-5.1361 4.5809 0.64207 2 12674
-5.1326 -6.0995 0.93223 2 7289
-5.1113 -5.4032 0.6939 1 7467
-5.1069 -0.052591 0.59725 1 8730
-5.1052 7.7837 1.3082 0 15052
-5.1027 -7.8305 1.093 2 7015
-5.1016 -5.3628 1.3946 0 7479
-5.098 3.7367 1.1909 1 11821
-5.0974 2.6434 0 0 10623
-5.0972 6.1988 0.9385 0 14095
-5.0939 -3.2364 0.99153 1 8166
-5.0937 5.6058 0.88577 1 13638
-5.0912 -0.037321 0.59539 0 8740
-5.0899 3.8691 1.2046 1 11970
-5.0806 3.7471 1.1894 1 11845
-5.078 -7.8465 1.093 2 7010
-5.076 -6.9685 1.0082 1 7127
-5.0747 -7.9902 1.1069 0 6991
-5.07 -8.1421 0.44729 0 6970
-5.067 -6.9972 1.0103 1 7119
-5.0664 -4.7961 1.1462 0 7612
-5.0648 -4.3135 0.77798 1 7769
-5.0528 -0.76326 0.96279 2 8263
-5.0487 7.6018 1.4993 2 15003
-5.0476 -7.6523 1.5061 1 7032
-5.0428 5.6144 0.88251 2 13691
-5.0355 -3.737 0.43849 0 7978
-5.0326 3.277 0.98667 2 11362
-5.0306 2.5898 0.9296 0 10613
-5.0302 -3.8962 0.74406 1 7905
-5.0272 3.2113 0.6976 2 11289
-5.0208 -6.2962 0.75131 2 7228
-5.0208 -4.6705 0.8019 0 7636
-5.008 -3.3691 1.1372 0 8113
-4.992 6.2556 0.74667 0 14227
-4.9907 -4.4559 0.78239 2 7699
-4.9865 -7.705 1.2899 1 7011
-4.9836 -4.6084 0.79377 2 7646
-4.9794 -7.7473 1.2943 0 7005
-4.9746 4.3872 0.77565 0 12620
-4.9736 -4.163 1.222 2 7800
-4.9735 -4.2613 0.7659 1 7760
-4.9661 1.4306 0 0 9680
-4.9661 6.003 0.91109 2 14069
-4.9621 5.8222 0.89459 2 13937
-4.9608 -4.1288 0.45132 2 7806
-4.9588 -5.5892 0.34844 0 7361
-4.9585 6.2516 0.74444 2 14253
-4.9575 -3.3138 1.1235 2 8121
-4.951 1.4103 0 2 9667
-4.9254 -5.0561 0.99203 1 7509
-4.9249 -8.4994 1.8508 2 6887
-4.9031 -5.7267 1.2386 1 7314
-4.9009 3.6357 1.0026 2 11867
-4.8951 3.5669 0.9951 1 11795
-4.8902 -4.7092 1.1154 2 7587
-4.887 -5.2904 0.33587 1 7426
-4.8811 7.9373 1.7556 1 15328
-4.8786 -5.2152 0.83512 0 7448
-4.8683 5.7486 1.2376 0 13969
-4.864 4.3382 0.76218 2 12676
-4.8631 1.3853 0.23581 0 9668
-4.8611 -7.2779 1.23 1 7045
-4.8599 -7.8047 0.85776 1 6971
-4.8591 4.1106 0.74429 1 12434
-4.859 -3.8333 1.0168 2 7879
-4.8573 -4.9583 0.48537 2 7516
-4.8568 5.1901 0.99898 2 13512
-4.8521 -4.2074 0.75103 2 7743
-4.8429 7.9215 1.7493 0 15356
-4.834 4.2888 1.2176 1 12653
-4.8228 5.6588 1.4009 2 13943
-4.8211 -5.2484 0.49834 0 7417
-4.8142 -3.9586 0.87596 1 7824
-4.8134 5.5177 0.85626 1 13826
-4.8109 5.0238 0.64894 2 13403
-4.81 1.4458 0.11661 0 9727
-4.8077 -4.3947 0.76172 1 7661
-4.8006 7.7547 0.85089 0 15294
-4.7994 4.3062 0.75405 0 12704
-4.7984 -0.23132 0 0 8602
-4.7947 5.3064 1.0051 0 13667
-4.791 3.4911 0 0 11785
-4.7833 -3.4638 0.69063 1 8009
-4.7809 -4.2194 1.0476 2 7721
-4.7764 -3.5047 0.55271 1 7993
-4.7709 -3.1077 1.0728 2 8151
-4.768 -3.7831 0.71177 2 7867
-4.7649 8.5643 1.6102 2 15740
-4.7643 -3.0657 0.66252 1 8158
-4.7625 3.4908 0.97013 2 11819
-4.7552 -3.0798 0.66252 0 8153
-4.7542 -4.1444 0.73756 2 7736
-4.7512 -3.2156 1.0809 1 8104
-4.7396 -5.1905 0.4915 0 7408
-4.7382 8.569 1.3761 0 15765
-4.7349 4.3251 0.90129 2 12789
-4.7167 -5.7401 0.86881 1 7265
-4.7156 3.4779 0.96267 1 11843
-4.7152 8.0272 0.86854 2 15517
-4.7124 -8.4146 1.8171 0 6842
-4.7109 5.5275 1.0207 2 13939
-4.7103 -4.4325 0.75637 1 7618
-4.7046 4.3201 0.89767 0 12815
-4.7007 5.65 1.0329 0 14046
-4.6992 3.4029 1.0931 0 11772
-4.6947 -3.9073 0.85842 0 7808
-4.6934 -4.8755 0.47323 0 7491
-4.6898 -5.7421 0.34574 0 7254
-4.6829 -5.308 0.99481 0 7354
-4.682 0.37506 0.77169 0 9027
-4.6811 -8.1374 1.3194 0 6878
-4.6704 4.2393 1.0363 1 12763
-4.6629 -5.5099 0.33661 0 7294
-4.6605 -5.9139 0.52652 0 7215
-4.6603 -8.0427 1.5272 1 6886
-4.6603 -7.5368 1.4558 0 6964
-4.6573 -3.152 0.65765 0 8101
-4.6489 1.4124 0.1128 2 9741
-4.6483 -8.2426 0.88285 0 6848
-4.648 -4.3739 0.4463 2 7616
-4.647 5.3912 0.83234 1 13882
-4.6455 -4.8257 0.78332 2 7493
-4.6427 -2.9875 1.0402 1 8162
-4.6409 8.393 1.1216 1 15764
-4.6388 4.1856 1.1772 2 12738
-4.6214 -5.031 0.79888 2 7419
-4.6213 -3.9595 0.56776 1 7759
-4.6207 -4.8302 0.78169 1 7484
-4.6187 1.2289 0.55892 0 9597
-4.6115 -3.4662 0.53822 2 7959
-4.6112 -6.1797 0.71936 2 7156
-4.6111 3.5484 0.68041 0 12012
-4.6109 3.5266 0.81583 2 11991
-4.6107 5.2225 0.81468 0 13771
-4.6081 6.1329 1.2603 2 14488
-4.6075 -5.3491 0.8256 1 7321
-4.6053 -5.5078 1.009 1 7282
-4.6046 -6.2069 0.72103 2 7148
-4.6011 -4.9497 0.79029 0 7437
-4.6003 -5.0663 0.47853 2 7399
-4.5926 5.2331 0.81422 1 13798
-4.5924 -3.187 0.6537 2 8069
-4.5903 0.058488 0.53685 0 8807
-4.5888 6.2928 0.7266 0 14613
-4.5881 -5.9299 0.52429 1 7194
-4.5838 -5.5785 0.33671 0 7262
-4.5825 1.2339 0.55497 0 9609
-4.5821 1.1187 0.10951 0 9524
-4.5816 -4.4121 0.74383 2 7585
-4.5808 3.7187 1.1117 2 12247
-4.579 8.402 1.119 1 15822
-4.5785 8.4011 1.5719 2 15825
-4.575 -3.8757 0.5594 0 7777
-4.5656 4.1442 0.72106 1 12759
-4.5639 4.736 0.76915 1 13376
-4.5608 6.2959 0.7253 2 14640
-4.5601 2.3305 0.59887 0 10591
-4.5559 -8.4824 0.67329 0 6791
-4.5534 -5.4458 0.49639 0 7279
-4.5511 5.0973 0.79912 2 13718
-4.5494 0.80873 0.87059 0 9323
-4.542 -4.9445 1.1031 0 7421
-4.5377 -2.9762 0.76267 2 8144
-4.5355 -6.4606 0.73645 1 7089
-4.5346 2.8788 0.75487 0 11268
-4.5343 5.1071 0.79865 0 13745
-4.5323 -3.5756 0.53859 2 7876
-4.5317 3.7012 1.1024 1 12273
-4.5312 4.7317 0.76613 2 13404
-4.5265 2.8915 0.75487 0 11291
-4.5264 -3.4833 1.0761 1 7919
-4.5234 -8.4219 1.8012 2 6795
-4.5219 6.2791 1.4579 2 14672
-4.5208 -5.7017 1.0226 1 7221
-4.5207 -8.4169 1.3427 2 6793
-4.5201 -8.7127 0.91573 2 6755
-4.5171 -5.9039 0.69353 2 7183
-4.5166 -5.5935 1.0104 1 7244
-4.5164 -5.1827 0.96614 1 7340
-4.5144 -8.584 1.3631 0 6770
-4.5048 4.1861 0.86427 2 12869
-4.5022 -4.8738 1.0901 2 7429
-4.5001 -8.095 0.86408 1 6832
-4.4986 -3.401 0.52614 2 7948
-4.481 8.4525 1.1188 1 15939
-4.4804 3.6372 0.5384 0 12239
-4.4804 6.2581 1.4501 2 14695
-4.4649 -5.3399 0.81398 1 7281
-4.4602 -5.9772 0.34779 1 7155
-4.4601 -5.4609 0.49304 1 7255
-4.4572 -4.7647 1.0719 1 7450
-4.4569 2.5452 0.23935 0 10910
-4.4562 -4.9076 0.93162 1 7402
-4.4553 -4.8792 0.61643 2 7409
-4.4535 -4.466 0.73756 2 7548
-4.4527 -3.7722 0.40808 2 7776
-4.4525 -2.9003 0.7468 0 8149
-4.4474 -5.4784 0.32907 1 7248
-4.4471 -4.7539 0.60733 2 7447
-4.447 -4.8975 0.61717 2 7400
-4.4464 -4.487 0.73872 2 7540
-4.4444 5.405 0.65284 1 14093
-4.443 4.203 1.0048 2 12951
-4.4419 -7.6657 1.0361 1 6884
-4.4358 4.4731 1.035 1 13243
-4.4326 -5.6592 0.50267 2 7208
-4.4316 3.7054 0.67553 2 12379
-4.426 -5.352 0.48564 0 7267
-4.42 3.7193 0.67553 0 12407
-4.4187 -6.6155 0.74221 1 7043
-4.4122 -6.6485 0.74444 2 7036
-4.408 -7.9293 0.42307 0 6830
-4.4069 -5.7598 0.50713 0 7182
-4.4054 3.975 0.83393 2 12734
-4.3913 -4.6697 0.59804 2 7458
-4.3907 -4.8627 0.92077 1 7392
-4.3825 4.4441 0.72989 2 13266
-4.3819 -7.9346 0.4227 0 6822
-4.381 -3.1353 0.63 2 8023
-4.3807 -4.1688 0.42286 0 7601
-4.3796 -8.2647 0.87263 2 6776
-4.3779 3.3062 0.77102 0 11942
-4.3693 -4.0644 0.41728 0 7634
-4.3662 -4.1549 0.99023 2 7604
-4.3656 3.6077 0.66229 2 12321
-4.3625 4.5555 1.0363 0 13408
-4.361 5.9065 0.85859 2 14563
-4.3605 6.8605 1.3355 2 15188
-4.352 -4.0244 0.41449 0 7645
-4.3516 -4.4175 1.0188 2 7531
-4.3513 5.5494 0.82467 0 14307
-4.3505 5.929 0.85998 2 14588
-4.3501 -5.0202 0.77682 1 7330
-4.3477 7.3545 1.4036 1 15493
-4.3437 -7.8653 0.83826 1 6824
-4.3384 -4.8335 0.30289 0 7379
-4.3357 -5.3408 0.80446 1 7251
-4.335 -3.5443 1.055 2 7829
-4.3334 -4.1498 0.55977 1 7593
-4.3303 -7.8931 0.83993 2 6816
-4.3242 -4.9622 0.46025 2 7338
-4.3213 1.1773 0.10398 1 9621
-4.3193 4.5883 1.0353 1 13486
-4.3171 -3.7634 0.53431 2 7735
-4.3094 -8.3065 0.43639 0 6753
-4.309 -8.6729 0.6772 2 6710
-4.2975 -5.5184 0.32618 0 7201
-4.2962 -5.1693 0.47002 0 7273
-4.2937 -5.2571 0.79377 2 7257
-4.2931 5.8873 1.024 2 14616
-4.2825 8.0203 1.0632 0 15912
-4.2797 6.0534 0.86695 2 14742
-4.2709 3.3863 0.76601 0 12140
-4.2709 4.7003 1.0434 1 13642
-4.2692 -5.5177 0.32534 2 7193
-4.2691 4.2795 0.70689 2 13212
-4.2606 4.0066 0.82196 0 12923
-4.2583 -3.9378 1.0928 1 7647
-4.2504 6.3998 0.71675 2 14998
-4.2477 -2.9831 0.12051 0 8048
-4.2414 8.1166 1.2871 0 15994
-4.2282 -2.9695 0.60422 2 8052
-4.222 1.9598 0.32548 0 10385
-4.217 -7.4263 1.2002 1 6859
-4.2037 7.9865 1.2684 2 15967
-4.1968 -6.1661 1.4053 2 7063
-4.1963 -2.9122 0.71785 0 8070
-4.1944 -8.1474 0.64078 1 6746
-4.1841 8.7958 1.3689 2 16348
-4.1808 -4.1214 1.1061 0 7565
-4.1768 -8.0509 0.63423 0 6754
-4.1744 -7.9952 1.2676 2 6763
-4.1723 8.5772 1.7971 2 16273
-4.1693 3.9648 0.8086 1 12973
-4.1617 -2.9065 0.7134 0 8062
-4.1616 6.4674 0.7175 1 15132
-4.1594 8.3062 1.5262 2 16162
-4.1493 -4.9926 0.75916 0 7275
-4.1487 3.6808 0.64859 0 12647
-4.1404 -4.203 0.68994 1 7529
-4.1346 -4.9996 0.7587 0 7268
-4.1326 4.6547 1.0227 2 13749
-4.1324 4.9092 0.90184 2 13991
-4.1251 1.3594 0.61041 0 9841
-4.1242 -5.0191 0.45425 0 7263
-4.1216 -7.9445 1.2578 0 6757
-4.1153 2.645 0.34209 0 11309
-4.1144 -5.253 0.7803 2 7210
-4.1094 -8.3331 0.64971 2 6702
-4.1088 5.4328 0.79656 2 14459
-4.1074 3.9292 0.79885 0 13001
-4.0984 5.9811 0.8479 2 14867
-4.0903 -8.2943 1.5194 1 6706
-4.0881 -8.1744 0.63911 0 6717
-4.0785 -8.7107 0.89734 0 6646
-4.0747 -3.0996 0.71952 2 7938
-4.071 1.3274 0.60178 0 9828
-4.0578 -8.294 0.64567 1 6693
-4.0577 -3.1057 0.71813 2 7927
-4.0487 -3.2297 0.72788 2 7860
-4.0416 0.60907 0.6715 0 9238
-4.0377 1.5693 0.71171 0 10080
-4.0354 -7.9508 0.4158 1 6732
-4.0207 8.2656 1.2918 0 16269
-4.0154 -7.4761 1.3942 2 6794
-4.0142 8.5694 1.3299 1 16401
-4.0012 6.2952 0.87229 2 15185
-4.0011 6.5445 0.71564 2 15349
-4.0011 7.6567 1.0103 2 15992
-3.9913 8.2711 1.2907 1 16296
-3.9729 -7.9963 1.6823 1 6714
-3.9714 -5.253 0.9255 0 7169
-3.9699 8.8006 1.5862 0 16534
-3.9625 5.8526 0.82653 2 14918
-3.9624 7.3221 1.5686 1 15857
-3.9619 5.1131 0.90908 2 14358
-3.9531 -7.3049 0.7749 1 6800
-3.9508 0.016549 -0.3686 2 8775
-3.9467 8.5571 1.3244 2 16455
-3.946 -5.946 0.33279 0 7034
-3.936 8.8654 0.90495 1 16581
-3.9316 -8.2725 1.5048 2 6666
-3.9309 -5.1713 0.75963 0 7176
-3.9225 -7.3033 0.77342 1 6792
-3.9219 1.8757 -0.304 2 10439
-3.9176 -3.7086 0.12525 0 7606
-3.9113 -8.547 -0.21823 0 6617
-3.9095 8.7399 0.89325 0 16555
-3.8914 -6.0919 0.84534 1 6996
-3.8763 -7.8604 1.0249 1 6704
-3.8749 -7.7481 1.0131 2 6719
-3.8744 -8.3429 1.5113 1 6640
-3.8674 8.0144 1.462 2 16298
-3.8661 -5.6442 0.47839 2 7065
-3.8595 3.5255 0.48768 0 12785
-3.8572 6.4809 1.0599 0 15461
-3.8524 2.0251 -1.4706 1 10663
-3.8512 -6.1062 1.1861 2 6985
-3.8508 -7.5871 1.1958 1 6734
-3.8508 -4.9447 0.73291 2 7202
-3.8496 6.8236 0.9162 2 15684
-3.8474 -6.1002 0.33633 0 6982
-3.8453 -8.6692 0.44226 2 6585
-3.8447 -7.6877 1.208 2 6720
-3.8329 6.3967 0.87206 2 15432
-3.8317 5.2894 0.76381 1 14642
-3.8307 -7.7102 1.21 1 6713
-3.8292 3.4358 -1.3468 0 12703
-3.829 -8.1186 0.4186 0 6654
-3.8271 -8.1736 1.7004 0 6650
-3.8248 -8.6925 0.886 2 6579
-3.8248 -5.4482 1.0937 2 7092
-3.8248 8.8302 1.581 1 16667
-3.8214 -7.9261 1.6579 2 6683
-3.8057 -2.5602 0.10649 1 8107
-3.8055 -7.9533 1.6612 0 6674
-3.8018 6.4722 1.0549 2 15520
-3.7961 -8.3606 0.42819 1 6609
-3.7952 -8.4961 1.5288 0 6596
-3.7951 -2.5205 0.85837 2 8130
-3.7833 5.2534 0.75707 1 14667
-3.7812 0.62597 0.62968 0 9285
-3.7709 7.9271 1.4422 1 16350
-3.7669 -4.0268 0.25714 0 7446
-3.7647 -0.083461 0.35132 0 8693
-3.7607 -4.165 0.52354 1 7390
-3.7513 -8.0778 0.41534 0 6636
-3.7465 -5.789 1.1329 1 7012
-3.7387 -8.5698 0.43602 1 6571
-3.7364 -5.0959 0.73895 2 7135
-3.7302 -5.5848 1.1034 2 7046
-3.7255 -8.2702 0.84625 0 6602
-3.7243 -2.5377 0.84911 1 8095
-3.7224 -5.5354 1.0959 2 7052
-3.7215 -4.3976 0.53747 2 7295
-3.7157 1.0005 0 0 9608
-3.709 0.98688 0 1 9596
-3.7031 -2.5233 -0.31335 0 8087
-3.6894 8.794 0.88972 2 16767
-3.6891 -8.5169 1.5249 2 6567
-3.6868 8.8613 1.3489 1 16798
-3.6737 -8.1554 1.6853 2 6605
-3.6717 -4.2884 0.5267 0 7311
-3.6689 -3.7023 0.98205 0 7543
-3.6656 -4.5689 0.27317 2 7234
-3.6615 -8.5224 1.5239 2 6560
-3.6612 -8.874 0.44767 0 6516
-3.6582 -9.0955 1.3778 0 6490
-3.6496 8.2905 1.0593 0 16609
-3.6485 -8.9137 0.44916 2 6506
-3.6437 -4.5125 1.0928 0 7247
-3.6424 7.8972 1.017 1 16453
-3.6404 -7.839 1.0107 2 6638
-3.6392 -3.715 0.97982 2 7521
-3.6335 8.7332 0.88247 2 16794
-3.6331 -8.1908 1.6882 2 6590
-3.6319 -4.3438 0.93025 0 7283
-3.6293 1.459 0.54973 0 10133
-3.6278 9.0885 1.3753 0 16929
-3.626 -7.8654 1.0128 2 6630
-3.6248 -0.24838 0.59693 0 8526
-3.6216 -0.10053 0.084116 0 8672
-3.6161 -0.080167 0.083977 0 8692
-3.6011 -5.2259 0.44379 2 7071
-3.5872 -2.4443 -0.10078 0 8089
-3.5854 -8.5502 0.21526 2 6533
-3.5814 5.7092 0.47127 0 15235
-3.5809 8.0053 1.6523 2 16562
-3.5803 -5.4629 0.60937 1 7023
-3.5643 8.5669 1.0851 1 16796
-3.5638 -4.776 1.1228 0 7159
-3.5392 -6.1923 1.1718 1 6870
-3.537 -8.2326 0.41785 2 6555
-3.534 -7.7226 -0.39605 0 6616
-3.5268 -9.3138 0.46444 2 6436
-3.5203 1.1479 0.43301 0 9826
-3.5131 8.3737 1.2762 0 16771
-3.5118 8.7979 0.66241 0 16923
-3.511 -5.063 0.57482 2 7077
-3.5091 -8.1013 1.6634 1 6568
-3.4992 -4.6033 1.0894 2 7178
-3.4917 -8.9742 0.44906 1 6458
-3.4913 -5.572 0.61346 1 6977
-3.491 -5.0042 0.56924 0 7083
-3.4874 -8.6708 0.43583 0 6486
-3.471 9.0802 1.8315 1 17072
-3.4705 -7.7693 0.59502 0 6593
-3.4696 1.1434 0.4272 0 9839
-3.4682 -8.9928 0.67399 1 6452
-3.4652 5.1181 -1.4645 0 14919
-3.4635 -2.2716 0.38643 2 8142
-3.4606 6.0108 0.97477 2 15602
-3.4573 8.7365 1.3205 1 16958
-3.454 -9.1941 1.3803 0 6430
-3.4501 -5.0368 -0.42691 2 7064
-3.4438 -2.8479 -0.10375 0 7813
-3.4436 -6.1489 1.1579 2 6841
-3.4336 8.4558 0.85145 0 16873
-3.4304 -9.2093 1.3812 2 6421
-3.4251 -8.8809 1.7934 2 6456
-3.4162 0.63686 0.080681 0 9355
-3.4103 0.80239 0.24498 0 9496
-3.399 8.3041 1.0493 0 16849
-3.3932 -5.0458 0.71107 2 7050
-3.3834 -4.9395 0.70016 1 7067
-3.3708 1.6244 0.61476 2 10461
-3.367 8.1529 1.6619 0 16827
-3.3438 9.0588 1.1292 2 17180
-3.3434 -9.1463 0.68096 0 6403
-3.306 -8.8001 1.7712 2 6432
-3.2804 7.8846 1.609 1 16801
-3.278 1.4192 0 2 10254
-3.2718 -2.5342 0.67993 1 7907
-3.2657 -8.2608 1.4594 2 6476
-3.2461 9.0363 1.3494 1 17261
-3.2364 1.5834 0.083652 0 10485
-3.2287 -7.888 0.596 2 6507
-3.2256 2.962 0.20422 0 12810
-3.2218 1.9543 -1.3715 0 11104
-3.2216 8.968 1.1143 2 17259
-3.2213 -8.972 0.66659 2 6388
-3.2184 -7.205 1.4868 0 6597
-3.203 -7.892 0.59558 0 6497
-3.2013 -0.24858 0.52754 0 8494
-3.2008 -8.5201 0.21131 0 6425
-3.1984 -8.153 1.6501 0 6469
-3.1983 -8.0167 1.0093 0 6479
-3.1906 1.8967 -1.351 0 11036
-3.1904 2.9471 0.20254 0 12836
-3.1876 9.2051 1.6005 0 17374
-3.1852 8.4742 1.2723 2 17125
-3.178 8.8465 1.5444 0 17263
-3.177 8.8439 0.87671 1 17257
-3.1763 8.0265 1.6264 2 16961
-3.1705 -9.1609 1.5927 1 6358
-3.1691 2.8116 -1.322 1 12645
-3.1685 -9.0732 0.67203 0 6363
-3.1668 8.8156 0.65501 0 17255
-3.1639 -3.2297 0.52872 0 7517
-3.1613 -9.1346 1.1304 2 6356
-3.1613 -0.25435 0.52106 1 8482
-3.1603 -9.0496 0.44701 2 6362
-3.1562 -8.261 1.4529 1 6449
-3.1545 -2.6866 0.19323 0 7767
-3.1529 -8.7003 0.43155 1 6396
-3.1478 -3.9235 0.46929 1 7236
-3.1435 -8.5208 0.42354 0 6409
-3.1315 2.7617 -1.093 0 12619
-3.1247 2.7723 -1.0935 0 12646
-3.1195 -8.1649 0.4076 2 6446
-3.1142 -7.7428 0.58358 0 6487
-3.1117 7.9934 1.2055 1 17014
-3.1081 9.151 0.6758 0 17418
-3.1079 8.0543 1.2133 2 17042
-3.106 1.6328 0.08147 0 10662
-3.0994 -9.0474 0.44599 2 6345
-3.0768 -8.26 0.41105 0 6417
-3.0766 -8.4164 0.83603 2 6404
-3.0743 -4.2455 0.86118 2 7121
-3.0686 8.3133 0.82674 2 17178
-3.0644 9.111 0.67217 0 17448
-3.0619 9.183 1.132 0 17478
-3.0573 -8.6001 1.7197 0 6385
-3.0351 8.9359 1.3263 0 17424
-3.0314 -3.962 0.11582 0 7181
-3.0296 8.2788 0.82247 1 17206
-3.0217 -7.835 1.1802 0 6455
-3.0214 -0.022148 0.49641 2 8742
-3.017 3.7578 0.4496 1 14200
-3.0131 -4.2367 0.73066 2 7099
-2.9983 -8.5045 0.20936 0 6370
-2.9929 8.7267 1.7382 0 17401
-2.9837 8.0058 1.6097 0 17157
-2.9823 8.2205 1.4367 2 17236
-2.9726 7.3835 0.74258 0 16900
-2.9645 8.1715 1.2217 1 17234
-2.9598 -9.0715 1.7978 2 6313
-2.9505 8.7722 1.3007 2 17454
-2.939 6.473 1.3394 0 16509
-2.9142 1.6873 0.31416 0 10957
-2.9133 8.1816 1.0156 2 17288
-2.9029 -2.4007 0.087458 1 7814
-2.8882 1.181 0.2182 0 10160
-2.883 8.738 1.076 2 17505
-2.88 8.9917 1.1041 1 17582
-2.8785 -6.6454 -0.16814 0 6561
-2.8674 1.6488 0.30859 1 10936
-2.867 8.6893 1.286 1 17507
-2.8459 -9.1595 1.5758 1 6273
-2.8337 -9.2169 1.5842 2 6262
-2.8197 2.5442 0.17711 0 12727
-2.7852 2.499 0.1745 0 12700
-2.782 1.4842 0.073207 0 10701
-2.7791 -7.9581 0.78642 2 6364
-2.7788 -9.0382 0.44096 0 6259
-2.7748 -7.8055 0.77286 0 6381
-2.7662 9.0933 0.88675 2 17713
-2.7534 8.3449 1.6556 1 17511
-2.7523 8.8529 1.0842 1 17659
-2.7471 -7.9376 0.78364 0 6355
-2.7381 8.0616 1.3988 1 17426
-2.7272 -9.0616 1.5547 0 6248
-2.7119 2.175 -1.3575 1 12182
-2.7024 -4.4851 0.24419 0 6927
-2.6978 9.0494 0.88099 1 17772
-2.6909 5.7864 -1.3564 0 16428
-2.6865 1.4733 0 0 10783
-2.6833 2.4935 0.085044 0 12861
-2.6588 6.1825 0 0 16683
-2.6311 8.5525 1.2576 1 17689
-2.6281 4.6262 0.12353 0 15650
-2.613 -2.7468 0.62287 0 7477
-2.586 -8.5062 1.2495 1 6253
-2.5756 -3.0242 -0.27777 0 7302
-2.548 9.1259 1.3316 2 17945
-2.5447 -8.1102 1.3965 0 6284
-2.5136 3.622 0.10236 0 14810
-2.5107 2.5169 0.082538 0 13208
-2.4918 6.8091 -1.019 1 17190
-2.4671 6.4539 -1.1352 0 17047
-2.3712 3.8786 0 0 15344
-2.3256 9.2586 1.3416 0 18187
-2.2782 8.9508 1.5174 1 18163
-2.2379 9.1317 1.5447 1 18236
-2.2337 -9.7293 1.8808 1 6073
-2.2009 3.2715 0.091543 1 14941
-2.1883 9.164 1.5479 2 18287
-2.1615 9.2738 1.5645 2 18335
-2.1164 9.4528 1.3614 2 18404
-2.1154 -8.3293 0.19952 0 6127
-2.0888 9.469 1.3628 0 18429
-2.0775 3.6085 0.29116 0 15597
-2.06 -3.0842 -0.25935 0 7040
-2.0511 -9.4388 1.3575 0 6051
-2.0406 9.6584 1.6219 0 18503
-2.0288 4.3988 0.33874 0 16449
-1.9623 9.1453 1.7623 0 18480
-1.9572 9.5347 1.5992 1 18549
-1.9368 9.5711 1.6043 2 18573
-1.912 4.2385 0.43381 2 16528
-1.9043 9.1475 1.7604 2 18528
-1.8794 -4.0768 0.20935 1 6627
-1.8478 -4.102 0.3146 1 6601
-1.8473 6.9234 1.0071 1 18052
-1.8067 -5.3193 0.65695 1 6339
-1.7556 6.8179 0.32832 0 18126
-1.7466 -4.6124 0 0 6434
-1.7385 -9.1569 1.09 0 6006
-1.731 5.935 -0.14354 1 17821
-1.6955 -5.1417 0 0 6315
-1.6495 5.7147 0 0 17851
-1.6396 6.8663 0.6586 0 18282
-1.6245 6.8829 0 0 18302
-1.6049 -7.4927 1.0769 0 6045
-1.552 5.2061 0.12613 0 17766
-1.4082 6.959 0.16484 0 18565
-1.3854 4.9089 0.11842 0 17911
-1.3845 6.8418 0.81631 0 18570
-1.3701 -3.5861 0.089129 0 6445
-1.3651 -3.6051 0.089501 0 6435
-1.35 -2.8406 0.44201 0 6665
-1.3492 -5.3752 0.25844 0 6119
-1.3434 -4.0336 -0.19826 0 6323
-1.3383 6.5198 0.46542 0 18544
-1.3298 -8.0155 1.5308 0 5965
-1.3263 4.9155 -0.59539 0 18007
-1.3044 6.7483 -0.80376 1 18615
-1.2857 -8.8563 0.83491 0 5929
-1.2788 -6.6345 0.31509 0 6012
-1.1869 -6.9072 -0.32683 0 5973
-1.1754 6.5923 1.1001 0 18725
-1.144 -9.9324 1.8837 0 5880
-1.1114 -2.9089 0 0 6444
-1.0971 -8.8335 1.0409 1 5893
-1.0579 -2.8939 -0.071536 0 6402
-1.0576 5.8313 -0.13759 0 18697
-1.0554 -3.0221 0.52592 1 6367
-1.0346 3.9689 0.19127 0 18098
-1.0319 -4.6854 0.78823 0 6057
-1.0257 -7.8654 1.1148 0 5902
-0.91977 -9.1343 1.7297 0 5855
-0.91432 6.4083 1.0635 0 18962
-0.90351 -3.7867 0.090383 1 6088
-0.88574 6.7827 -0.63817 0 19029
-0.87866 6.8781 0 0 19055
-0.86652 -4.8745 0.9328 0 5982
-0.852 7.1877 -0.16805 1 19118
-0.8205 -4.6156 0.65885 0 5981
-0.81813 6.4042 0.1499 0 19057
-0.80614 -4.458 0.85355 0 5988
-0.79501 7.0433 0 0 19157
-0.76698 4.0359 0.38327 0 18644
-0.76388 -3.8403 0.55029 0 6023
-0.76253 -8.2827 0.19311 0 5836
-0.74038 4.0182 0.57423 0 18685
-0.69767 7.8019 1.2869 0 19306
-0.68998 5.4011 0.89458 0 19065
-0.66922 3.9483 0.37361 0 18784
-0.66388 -5.6091 0.92798 1 5884
-0.66138 -4.1338 0.78875 0 5955
-0.65584 3.9445 0.37305 0 18804
-0.63219 -4.19 0.79838 0 5939
-0.625 3.446 0.16332 0 18702
-0.60345 -3.5754 0 0 5969
-0.6018 3.375 0.15987 2 18720
-0.58946 -4.1522 0.39126 0 5922
-0.57862 7.1603 1.3535 2 19362
-0.56736 -9.0684 0.42372 0 5785
-0.55715 -5.2307 -0.24531 0 5865
-0.55578 -3.8284 0.27052 0 5928
-0.54307 -5.5587 0.9176 0 5849
-0.53616 -3.6933 0 0 5927
-0.51652 -5.4338 0.50923 0 5842
-0.49126 6.0793 -0.42649 1 19349
-0.48946 -6.3179 0.74104 0 5811
-0.4894 -3.1181 0.22071 0 5950
-0.45979 -3.9922 0.37491 0 5879
-0.45585 -7.2861 0.68108 0 5786
-0.38181 -3.7917 0.62611 0 5854
-0.35629 -6.2552 0.73268 0 5773
-0.3507 -3.6894 0 0 5841
-0.34835 -8.8267 -0.20509 0 5732
-0.3381 -3.6725 0 0 5835
-0.33547 -5.1183 0.8427 2 5792
-0.29545 -5.187 0.48471 0 5772
-0.25345 -3.8669 0.36154 2 5791
-0.19422 -3.5978 0.083652 0 5767
-0.18711 -3.6682 0.085276 0 5760
-0.16878 -3.9773 0.46553 1 5740
-0.11164 -5.1162 0.84076 0 5688
-0.097132 -5.1524 0.97094 0 5681
0.006272 -4.492 0 1 5639
0.022017 -5.256 0 0 5633
0.027495 -3.8421 0.53999 0 5627
0.032218 8.0263 1.3187 0 19800
0.033175 -7.9198 0.18388 0 5634
0.048176 7.0779 0.16433 2 19810
0.06125 8.9987 0.83956 0 19812
0.076633 -4.7721 0.11081 0 5611
0.095208 -5.0976 -0.23776 0 5604
0.099395 -7.6954 0 0 5617
0.14067 5.1987 -0.60817 0 19899
0.15769 4.384 0.10185 0 19939
0.16726 5.0957 0.23776 0 19928
0.18239 3.4231 -1.3386 0 19999
0.20063 4.4874 0.63129 0 19971
0.20313 8.4321 0.98635 0 19896
0.21176 9.863 0.46006 0 19880
0.21651 -4.2447 0.59733 0 5545
0.23028 -4.2936 0.60429 0 5538
0.23049 4.3258 0.71171 0 20005
0.2443 -5.0861 0.71563 0 5552
0.25179 3.5474 0.58428 0 20070
0.25647 -7.6505 0.71415 0 5579
0.2587 7.8815 0.7357 0 19930
0.31033 -3.891 0.73542 0 5490
0.31326 -4.5833 0 0 5512
0.31825 -9.4935 1.7897 0 5580
0.33255 -4.6622 0 0 5507
0.3491 7.8081 -0.18146 0 19967
0.35446 -7.3795 0.34453 0 5551
0.36486 -3.6297 0.17012 0 5445
0.36645 8.78 -1.235 0 19954
0.37179 8.3154 0.19325 0 19969
0.38041 -8.4752 0.19697 0 5557
0.39515 3.6256 -0.5992 0 20172
0.42508 4.2437 -0.80356 0 20152
0.48209 7.1082 1.1705 0 20061
0.49216 3.8795 -0.83123 1 20234
0.50534 4.2824 0.81245 0 20211
0.5152 4.4871 0.85096 0 20203
0.54012 3.8142 0.7258 1 20266
0.54532 -3.3484 0.55737 0 5320
0.54673 7.7026 0 0 20065
0.54956 -7.7045 1.4553 0 5508
0.58749 -3.7474 0.62319 1 5334
0.59429 -5.5793 0.78855 0 5433
0.63503 8.5859 1.0068 0 20077
0.64704 -3.2032 0.45927 0 5235
0.64814 -9.0865 -0.2115 0 5506
0.67652 4.2474 -1.0191 0 20324
0.67847 -4.7851 0.91058 0 5367
0.68046 4.2722 0.71074 0 20325
0.68669 -8.8838 0.41552 0 5497
0.70349 6.127 0.57537 0 20201
0.7068 -6.2815 0.29478 0 5419
0.77254 -3.2428 0.311 0 5161
0.81455 4.518 -0.64521 2 20374
0.838 -3.9731 0.76505 1 5217
0.85184 -7.9973 1.5153 0 5434
0.85814 7.6746 0.72047 0 20191
0.86275 4.2903 -0.9302 1 20445
0.86585 -5.3165 -0.12506 0 5319
0.91875 4.3039 0.41058 0 20474
0.93876 -3.0918 0.60878 0 5066
0.94124 -8.6222 1.6342 1 5426
0.94171 7.6147 0.71583 0 20228
0.94173 -7.2312 1.1981 1 5388
0.98139 -4.653 0.44365 0 5216
0.98685 -4.1976 0 0 5167
1.0124 -6.5929 -0.15486 0 5340
1.02 -4.3384 0.41578 2 5168
1.0284 -4.5522 0.21764 0 5184
1.0545 9.9324 1.8819 0 20171
1.0707 -6.6996 0.31639 0 5326
1.0764 -5.1793 0.61862 1 5223
1.0784 3.9636 0.57729 0 20629
1.0839 3.8077 0.65043 2 20661
1.1051 9.8831 1.6339 0 20193
1.1104 3.8596 0.65983 0 20672
1.1218 6.0235 -1.3024 0 20397
1.1339 8.7545 0.20495 0 20240
1.1379 -4.5403 0.10867 0 5142
1.1499 -6.8278 0 0 5307
1.2225 6.8977 0.98451 0 20372
1.2231 -3.1747 0.641 0 4996
1.225 -6.3491 1.2183 0 5257
1.2612 -8.2135 0.19293 0 5341
1.2716 6.1294 1.1794 0 20461
1.2852 -8.1978 0.77416 0 5333
1.3186 8.4397 -1.2005 0 20306
1.3469 -5.6535 1.095 0 5162
1.3488 5.4542 -0.13044 0 20565
1.3508 -9.5267 0 0 5366
1.3585 5.2987 -0.25509 0 20591
1.3921 7.0178 -0.50029 0 20430
1.3959 7.495 1.4364 0 20399
1.4007 8.6199 -1.4348 0 20327
1.4062 3.7871 -0.85868 2 21111
1.4191 7.2667 0.1719 0 20423
1.4451 3.6611 0 2 21225
1.4466 3.697 0 1 21208
1.4577 -6.6302 0.63334 0 5195
1.4609 -5.4903 0.53004 2 5119
1.4709 -6.7804 0.16108 0 5203
1.4728 5.1194 -0.3725 2 20668
1.473 6.7959 0.97727 0 20481
1.4885 -5.5241 0.53376 0 5111
1.496 -8.4158 0.19845 0 5288
1.4995 3.4142 -0.086576 0 21473
1.5143 6.0465 -0.29068 0 20574
1.5171 5.9171 -1.1509 1 20594
1.5227 -4.5351 0.78596 1 5029
1.5348 -3.4104 0.61444 0 4949
1.5386 5.9278 -1.1539 0 20603
1.5391 -5.7121 0.83142 0 5112
1.5461 4.8886 0.84238 2 20784
1.5542 -5.5817 0 0 5098
1.5558 -7.2818 1.2234 0 5211
1.5633 -6.8257 0.32655 0 5178
1.5783 -8.321 0.59223 0 5263
1.5816 -2.6249 0.21429 0 4747
1.5925 7.0551 0.67477 1 20503
1.6171 3.2392 0.50882 1 21804
1.6452 -7.5839 0.724 2 5204
1.653 -5.3267 0.91631 0 5058
1.6542 -5.2787 0.90885 1 5053
1.6653 -5.6581 0.82892 0 5077
1.6708 4.3053 -0.75872 1 21184
1.6712 4.7114 -0.8213 0 21006
1.6767 3.6171 0.56031 1 21607
1.6774 5.766 0.84395 1 20683
1.6784 -7.3282 -0.17455 0 5177
1.7111 6.4444 -0.46625 0 20611
1.7241 4.0538 -0.20543 1 21399
1.7525 -4.0518 0.62043 0 4965
1.7576 -5.7885 0.28211 0 5065
1.7605 7.3955 -0.88902 1 20536
1.7827 6.0688 1.0392 0 20694
1.7897 4.208 0.10617 0 21402
1.7911 -5.7154 0.27931 0 5052
1.7976 4.5126 -1.0325 0 21252
1.8122 -9.7115 0.92167 0 5270
1.8131 -2.9529 0.080449 1 4723
1.8296 5.0131 0.1239 0 21065
1.8364 5.0757 -0.8868 0 21039
1.8562 3.2754 -0.26326 1 22120
1.8593 5.2418 -1.1822 2 21020
1.8645 6.6959 0.81282 0 20645
1.8781 -2.797 0.39398 0 4632
1.8967 7.4848 -0.90296 0 20581
1.8993 9.7255 0.46211 0 20425
1.9444 -7.5728 1.4731 0 5132
1.948 -2.8632 0.080402 0 4616
1.9722 -5.398 0.94419 2 5011
1.9738 5.6144 -1.1213 0 21005
1.9905 -2.9093 0.081841 0 4609
1.9998 4.8542 0 0 21318
2.0027 -3.3918 0.091451 0 4763
2.0069 4.7187 -0.96612 1 21411
2.0163 -3.1576 0.43812 0 4693
2.0173 8.5805 0.41105 0 20529
2.0218 -3.4037 0.091915 0 4758
2.0224 6.3331 0.15435 0 20796
2.0368 2.6525 -1.13 2 23014
2.0379 2.6683 -1.1345 2 22992
2.0428 -3.0992 -0.3463 2 4655
2.2428 -4.2075 0 1 4837
2.2577 -3.2788 0.46553 0 4601
2.2769 -3.0715 0.35671 0 4524
2.2825 -5.4942 -0.41603 0 4982
2.2846 -4.9993 0.64278 0 4939
2.2928 -3.3076 0.47064 0 4594
2.3122 -4.1338 0.77818 0 4801
2.3209 8.1529 1.5971 0 20663
2.3855 -8.9656 0.2154 0 5118
2.3994 -8.8068 1.0674 0 5106
2.4446 8.4033 0.20319 0 20680
2.4675 -6.6383 0.16443 0 5005
2.5043 8.5252 0.82897 0 20691
2.5384 -3.9253 0.32688 0 4681
2.5782 -4.453 0.96946 0 4784
2.6332 -4.5188 0.98538 2 4778
2.6829 4.6394 -0.7532 0 22174
2.7695 4.6348 -0.6314 0 22261
2.797 -5.175 1.1083 0 4828
2.819 -7.4525 0.18499 0 5001
2.8452 -5.8155 0.45272 0 4904
2.8701 -4.1188 -0.46836 0 4586
2.9094 6.2764 -0.64541 0 21596
2.9189 -3.7752 0.78401 0 4482
2.9491 6.3129 -0.65006 0 21616
2.9658 -4.0746 0.58935 0 4542
2.9848 -9.5246 0.23174 0 5051
3.0409 -5.7481 0.30326 0 4844
3.0624 -8.7011 1.5155 0 5018
3.0667 -6.0474 -0.63259 0 4877
3.0828 6.3095 -0.32748 0 21726
3.1304 -6.0416 0.63482 0 4861
3.2256 -9.0785 1.8152 0 5016
3.2448 -9.3862 0.46313 0 5020
3.2495 -2.4736 -0.57395 0 3767
3.2509 -8.3726 1.4756 0 4994
3.2544 -4.2092 0.12353 0 4480
3.3855 -6.2223 0.82839 1 4820
3.4324 -8.394 0.84606 0 4984
3.4614 -6.0219 0.64801 0 4786
3.4677 1.2972 -1.3476 0 26104
3.5302 2.0513 -0.96743 0 25379
3.6665 4.4972 -0.67855 1 23215
3.6862 4.494 -0.67971 1 23236
3.7085 -5.159 0.89293 0 4557
3.7134 -5.8944 1.1446 0 4704
3.7436 3.3109 -1.3083 0 24291
3.7476 4.8804 -0.57407 0 23008
3.7509 -7.0901 1.1273 0 4846
3.7641 3.308 -1.3118 0 24311
3.8087 -7.5628 0.1966 0 4884
3.8272 -8.504 0.21651 0 4947
3.8376 -6.9061 0.55247 0 4805
3.9006 -5.9926 1.3472 0 4678
3.9486 3.3309 -1.3524 0 24439
4.0253 -7.2949 0.19344 0 4809
4.0585 -5.5432 -0.64095 1 4535
4.282 -5.9175 0.85417 0 4549
4.4274 -8.6037 0.90272 0 4869
4.4561 -8.2448 1.3171 0 4826
4.8008 -8.1893 1.5596 0 4773
4.8346 -6.7256 1.3608 0 4559
4.8591 -3.3571 -0.83003 0 3576
4.8751 -7.0326 0.59837 0 4593
5.1215 -8.1802 1.3564 0 4708
5.3922 -7.9254 1.3472 0 4618
5.767 -7.6392 1.8034 0 4507
-13.337 3.2561 2.5866 0 9529
-13.125 -1.1321 2.1643 0 8460
-13.124 -1.6743 2.1737 0 8326
-12.917 2.2149 2.4692 0 9301
-12.887 5.2694 0.32323 1 10158
-12.797 1.4738 2.1163 0 9139
-12.734 1.2396 -0.59664 0 9080
-12.622 -1.5319 0.88912 1 8343
-12.042 0.78296 1.4112 0 8976
-11.653 3.766 0.85633 1 9813
-11.597 3.4859 1.9895 0 9731
-11.34 3.0895 2.2144 0 9625
-11.167 -0.93183 1.841 0 8471
-11.031 1.9927 1.0458 0 9333
-10.82 6.0992 0.57922 1 10867
-10.799 2.146 1.5473 0 9394
-10.754 0.92193 1.7733 0 9046
-10.677 2.973 0.25731 0 9642
-10.159 6.5297 0.28039 1 11306
-10.127 3.9708 1.2721 0 10092
-10.106 -1.3771 1.6757 0 8302
-9.9114 5.5484 1.0597 0 10848
-9.8182 5.1285 0.77458 0 10643
-9.4894 4.7126 0.24599 0 10519
-8.6207 5.6134 0.23884 0 11353
-8.0166 9.6904 0.29199 1 14065
-7.8887 6.999 0 0 12641
-7.4775 7.9432 0.25328 0 13477
-7.0222 -8.2452 0.50506 1 7303
-6.8366 -10.235 0.28577 1 7041
-6.7692 8.3772 0.50226 1 14170
-6.5972 10.182 2.2859 2 15112
-5.9778 -11.281 1.7942 1 6778
-5.95 9.7324 1.8741 1 15354
-5.733 10.368 2.2322 2 15769
-5.7017 -11.732 -0.60829 0 6685
-5.6101 9.4261 1.2828 2 15459
-5.5721 11.289 1.1745 1 16211
-5.4907 -11.389 1.1795 2 6679
-5.4325 -11.871 1.5267 0 6622
-4.777 -10.605 -0.27003 0 6599
-4.5483 -10.337 2.1278 2 6582
-4.4405 9.6988 1.7525 0 16481
-4.3543 14.314 2.4581 2 17719
-4.0306 -11.867 1.7614 2 6340
-4.0009 -11.78 0.58015 1 6337
-3.6843 -10.451 2.0878 0 6377
-3.1313 -12.476 0.29863 1 6118
-3.1051 11.382 1.3796 1 17997
-2.9274 -14.479 -0.34296 0 6028
-2.8162 12.257 1.4707 0 18357
-2.1085 1.0016 -0.78877 0 10426
-2.078 12.973 -1.5364 1 18830
-2.0056 10.376 1.9911 0 18632
-1.8216 -12.306 0.58015 1 5934
-1.808 -0.16676 0.21232 1 8435
-1.7483 -12.846 0.90656 1 5913
-1.6423 2.3229 -1.1109 1 14735
-1.6282 14.424 -0.33702 0 19156
-1.6132 -11.854 0.27774 0 5912
-1.5443 -11.842 2.25 0 5903
-1.2734 12.239 0.28568 1 19216
-1.2564 0.20799 0.17898 1 9284
-1.2359 14.78 2.4367 0 19340
-1.1117 2.4644 -1.4375 0 16512
-1.0644 -14.922 0.34733 1 5801
-1.0636 -12.356 2.0375 0 5824
-0.56539 -11.084 2.0911 0 5761
-0.55682 0.72305 -0.28477 0 14379
-0.52715 2.605 -1.5762 2 18551
-0.33874 -12.203 1.7157 0 5704
-0.06053 13.338 -0.30968 0 19752
0.070124 10.303 1.448 0 19815
0.15142 8.184 -1.9395 0 19868
0.20763 -11.117 1.8268 0 5605
0.251 11.691 1.0909 0 19881
0.28169 -12.91 2.4329 0 5599
0.31433 11.617 -0.2698 0 19903
0.36675 -10.098 1.4201 0 5573
0.67933 -12.666 0.2945 1 5537
0.76046 -12.725 2.4018 0 5526
0.80304 12.385 -0.57875 0 20043
0.87946 -10.606 2.0052 0 5484
0.91664 -9.9757 1.8874 0 5465
0.9805 -12.685 1.187 0 5498
1.1776 -10.224 0 0 5414
1.2754 -14.375 1.6877 0 5471
1.2988 13.367 1.2529 0 20142
1.3121 -11.661 1.9279 0 5420
1.4036 11.633 -1.0932 0 20214
1.408 7.9448 -1.9118 0 20371
1.4925 10.319 0.97276 0 20274
1.55 13.135 -1.8588 0 20205
1.5792 -10.284 0.97072 0 5343
1.7117 9.1906 -1.5359 0 20387
1.8456 -9.8903 1.8956 0 5271
1.8997 12.636 0 0 20290
1.9738 -13.334 1.2576 0 5356
2.1166 -14.061 2.6792 0 5350
2.2251 1.4356 -0.8263 0 25114
2.2394 -13.046 2.494 0 5301
2.2781 -11.138 1.5977 0 5229
2.3266 10.307 1.736 0 20504
2.3342 12.144 0.5767 1 20415
2.5203 10.72 -1.8093 0 20523
2.5744 9.6956 1.6481 0 20617
2.8214 11.707 2.2689 0 20550
2.8586 -9.6135 1.8897 0 5073
2.9219 10.388 1.773 0 20651
2.9435 -10.333 0.50105 1 5089
3.0088 -12.005 1.7394 0 5143
3.3283 -14.157 2.3893 0 5169
3.5113 11.953 0.58099 1 20689
3.6088 -12.813 0.62077 1 5093
3.8056 -11.23 2.234 0 5026
4.1464 -11.155 1.6726 0 5006
4.3165 -11.713 1.4598 0 5009
4.5352 -10.561 1.3441 0 4968
4.7336 -9.6753 -1.0049 0 4902
4.7679 -11.287 1.1431 0 4974
5.1182 -9.0907 0.72951 0 4795
5.2051 -11.041 0.2834 1 4924
5.5742 -11.567 2.1095 0 4913
5.799 -11.692 1.2176 0 4895
5.8375 -8.9684 1.5039 0 4676
10.844 -7.4922 -1.2297 0 3578
