VERSION .7
FIELDS x y z intensity index
SIZE 8 8 8 8 8
TYPE F F F F F
COUNT 1 1 1 1 1
WIDTH 1554
HEIGHT 1
VIEWPOINT 0 0 0 1 0 0 0
POINTS 1554
DATA ascii
-5.6467 4.9625 0.70133 2 11461
-5.646 2.5209 1.165 2 9281
-5.6284 4.6927 0.85696 0 11225
-5.6183 4.9654 1.4127 2 11496
-5.6159 6.2942 0.78698 2 12605
-5.6152 6.9989 0.83714 2 13089
-5.6089 -5.3394 0.17979 0 7443
-5.5984 5.1228 1.4297 1 11661
-5.5954 -6.7998 1.0298 0 7157
-5.5914 -7.1695 1.0632 0 7092
-5.5827 7.43 0.86705 1 13388
-5.5783 6.3296 1.3861 1 12662
-5.5765 -0.58218 0.92117 0 7745
-5.5639 -6.805 1.0279 1 7148
-5.5636 -7.0904 1.054 0 7103
-5.5611 2.6394 1.1598 0 9414
-5.5544 2.5371 0.71409 0 9326
-5.5411 7.3746 1.5155 2 13392
-5.5315 -4.3669 1.1579 0 7530
-5.5313 6.5733 1.6186 0 12873
-5.528 6.3817 1.1866 0 12733
-5.521 -8.0935 1.1457 1 6941
-5.5167 -6.142 -0.19167 0 7288
-5.5111 -7.8794 1.3514 0 6962
-5.4976 -4.9085 0.34369 0 7468
-5.4844 0.86472 0.64928 0 8257
-5.4843 0.33543 0.12757 0 8060
-5.4811 5.6977 0.92456 0 12261
-5.4801 -5.7587 0.74165 0 7380
-5.4754 -6.4632 1.1905 0 7201
-5.4719 6.1718 0.76952 1 12631
-5.464 5.6483 1.2911 1 12239
-5.4581 6.2633 1.5653 2 12712
-5.4536 5.7049 0.92293 1 12285
-5.4482 -0.14076 0 0 7889
-5.4482 7.296 1.7156 1 13422
-5.4449 6.7431 1.0135 0 13065
-5.443 6.1761 0.76803 0 12657
-5.4372 6.4982 1.5964 2 12903
-5.4257 1.0507 0.38645 0 8340
-5.4186 -0.12486 0 0 7895
-5.4105 -6.8558 0.20277 1 7107
-5.3936 -0.84847 1.0287 0 7682
-5.3927 -0.94408 0.64022 0 7664
-5.3874 -7.8446 1.5635 0 6949
-5.3801 5.5615 1.0875 1 12237
-5.3707 2.8605 1.1465 2 9701
-5.3684 2.4715 0 0 9338
-5.3483 2.4622 0.68854 2 9343
-5.341 4.9736 1.199 2 11742
-5.323 4.9292 1.1919 0 11715
-5.3155 2.831 0.13982 0 9692
-5.3134 -6.8921 1.2231 0 7074
-5.3084 2.4821 0.68529 1 9378
-5.2878 1.3292 0.50868 0 8502
-5.2849 -4.6921 1.1611 0 7472
-5.2805 -0.83069 0.75126 0 7681
-5.254 -4.8875 1.1789 0 7452
-5.2516 0.00091573 0.86281 0 7942
-5.2379 0.9349 0.87415 1 8301
-5.2351 3.1493 0.2849 0 10039
-5.2343 3.8029 0.60361 0 10664
-5.2278 7.3048 1.0505 0 13601
-5.2111 4.7417 1.1575 0 11632
-5.2058 4.7937 0.49485 0 11678
-5.2017 4.7332 0.49178 0 11625
-5.1954 -5.3314 1.223 0 7403
-5.1943 4.6442 0.65006 0 11542
-5.1901 1.6116 0.76378 1 8686
-5.1861 0.84926 0.49028 0 8270
-5.1775 4.657 0.64969 2 11572
-5.1636 5.7873 1.2743 1 12610
-5.1589 2.689 1.0961 2 9645
-5.1533 6.0895 0.74425 1 12837
-5.1364 4.62 1.3016 2 11580
-5.1271 -0.71509 0.60538 0 7701
-5.1238 -3.4327 0.86677 2 7607
-5.1235 2.1285 0 0 9126
-5.1223 -6.528 0.19265 0 7100
-5.1209 2.216 1.0513 0 9219
-5.1207 5.7393 0.89947 2 12607
-5.1197 4.605 0 0 11566
-5.1196 2.0757 0.64603 2 9083
-5.1186 -5.7978 1.0869 0 7264
-5.1093 7.8347 -0.21716 0 13988
-5.0995 3.9102 0.59952 0 10872
-5.0901 4.6577 1.1335 1 11659
-5.09 0.47398 0 0 8120
-5.0786 7.8353 0.65292 1 14020
-5.044 0.57379 0.23674 0 8161
-5.027 -4.2602 0.61476 1 7497
-5.0206 4.7312 1.2998 0 11801
-4.9775 5.0563 1.3368 2 12162
-4.9663 7.3296 1.0354 0 13839
-4.9638 1.8628 0.62001 0 8937
-4.9563 -7.5942 1.4899 1 6907
-4.9544 8.5433 0.69059 0 14479
-4.9498 -7.2998 1.449 0 6937
-4.9481 8.1961 1.3455 1 14329
-4.9319 0.33104 0.93132 0 8073
-4.9252 5.2119 0.66901 1 12335
-4.9193 -4.42 0.61699 0 7466
-4.9105 6.1205 1.1028 2 13093
-4.876 5.3418 0.67477 2 12493
-4.8756 -5.7553 1.2392 1 7202
-4.8728 -3.8677 -0.29012 1 7526
-4.8676 5.0317 1.319 2 12241
-4.8603 -3.9527 0.43807 0 7514
-4.855 6.3477 0.93455 2 13309
-4.8535 8.0935 1.3263 2 14355
-4.8529 8.1473 1.7867 2 14383
-4.828 -0.012641 0 0 7933
-4.8253 8.6587 1.1592 2 14641
-4.8201 -5.3664 1.1851 0 7291
-4.8187 -4.8899 1.2935 0 7413
-4.8147 -0.58691 0.68167 2 7719
-4.8048 8.1732 1.3324 2 14430
-4.7575 7.0692 0.79497 2 13863
-4.7556 -0.34422 0 0 7789
-4.7521 8.4716 0.45298 0 14607
-4.7511 0.62296 0.78726 1 8199
-4.75 0.00082826 0 0 7941
-4.7347 8.7312 1.1615 2 14749
-4.7282 0.3439 0.11007 0 8085
-4.7275 0.027228 0.66441 0 7955
-4.7216 8.5922 0.68557 0 14693
-4.7131 5.2529 0.65842 1 12580
-4.6902 5.3219 0.82955 2 12659
-4.6862 8.5843 0.68389 1 14719
-4.6849 -3.8101 0.84868 0 7515
-4.6827 -3.652 -0.13787 0 7537
-4.6813 5.1285 1.3083 2 12501
-4.678 1.105 0.67555 0 8455
-4.6701 -3.7068 0.13843 0 7527
-4.6695 -3.7732 -0.27997 0 7518
-4.6682 -0.84668 0.77948 0 7659
-4.6649 5.9901 0.88786 2 13225
-4.6534 3.6764 0.13769 0 10996
-4.6479 -3.4556 -0.27009 0 7560
-4.6416 5.8879 1.2318 2 13174
-4.6353 -3.7455 0.83754 2 7519
-4.6225 6.0789 0.71248 2 13334
-4.6077 -0.19956 0.43028 0 7847
-4.5969 -0.76431 0.87799 0 7673
-4.5956 0.38833 0 0 8105
-4.5934 6.1513 1.2613 1 13420
-4.5814 3.9115 0 0 11324
-4.5813 4.7358 0.77054 0 12236
-4.578 0.53374 0.21494 0 8168
-4.5699 3.9224 0.13982 0 11354
-4.5676 6.4583 1.1117 2 13655
-4.5605 7.3154 0.80426 2 14178
-4.5593 4.6852 0.7645 2 12211
-4.5589 2.4281 0.72593 1 9697
-4.5588 5.924 0.87415 0 13281
-4.5556 8.5211 0.67566 0 14795
-4.5508 8.5733 0.67873 0 14820
-4.5488 5.7351 1.0288 2 13144
-4.5245 7.072 1.1799 0 14074
-4.5231 5.9482 1.0502 1 13338
-4.5214 -0.73879 0.86318 0 7676
-4.521 7.3002 0.8011 0 14205
-4.5153 -0.3395 0 0 7785
-4.5051 8.6029 1.8297 1 14879
-4.5027 -3.9529 0.9844 1 7476
-4.4905 4.6144 0.9049 0 12212
-4.4881 3.8075 0.27447 0 11297
-4.4871 4.0573 0.28211 0 11598
-4.4794 -0.73192 0.10538 1 7675
-4.4726 7.1744 0.98867 2 14180
-4.4709 4.5671 0.89822 2 12186
-4.4639 4.7486 1.2279 1 12363
-4.4626 0.82387 0 0 8316
-4.4554 7.2393 1.1947 1 14239
-4.4535 5.1704 1.2857 2 12764
-4.452 3.6026 -1.4992 0 11100
-4.4503 8.2651 0.65641 1 14769
-4.4465 5.8474 0.85905 0 13336
-4.439 2.3137 0.35004 0 9637
-4.4324 8.5218 1.35 2 14903
-4.4202 1.2616 0.10672 0 8605
-4.4145 6.056 1.412 2 13529
-4.4072 2.7721 0.60886 0 10184
-4.4061 -0.16465 0.20562 0 7864
-4.4045 -5.1679 0.15765 0 7207
-4.4007 -4.3366 0.14344 0 7432
-4.3982 0.79771 0 1 8308
-4.3958 8.4515 1.7949 1 14906
-4.3955 5.194 1.282 1 12845
-4.3944 5.8146 0.85231 2 13364
-4.3898 -7.3523 0.59879 0 6801
-4.3829 -0.011475 0.82578 0 7935
-4.3824 6.9376 0.19051 0 14120
-4.3798 1.4451 0 0 8746
-4.379 5.3615 -0.32282 0 13003
-4.3712 -4.6176 0.59321 0 7373
-4.3704 7.7911 1.0447 0 14612
-4.3641 6.7796 1.1331 2 14049
-4.3563 1.095 0.73797 1 8504
-4.3535 0.038751 0.71528 1 7962
-4.351 -5.6133 0.16489 0 7081
-4.3494 8.8626 1.86 0 15110
-4.3348 6.8622 0.94918 0 14126
-4.3346 5.566 0.99147 2 13227
-4.3318 8.2719 0.87114 0 14872
-4.329 6.9901 0.9615 2 14207
-4.3242 5.8247 1.3668 0 13449
-4.3155 7.9054 1.0533 2 14723
-4.3073 2.7822 0.47839 1 10263
-4.3065 8.4665 0.66422 2 14974
-4.2998 5.9706 1.0341 0 13575
-4.2993 -3.1964 0.75293 1 7561
-4.2862 -3.2041 0.75209 0 7556
-4.2861 8.4813 0.6645 1 14999
-4.2858 8.6109 0.67259 0 15048
-4.2839 7.8475 1.6845 0 14728
-4.2575 5.8023 0.67142 1 13498
-4.2566 0.43387 0.70295 0 8137
-4.2479 8.9139 1.8604 0 15206
-4.2428 6.8509 0.56349 0 14203
-4.2423 0.45711 0.099064 0 8149
-4.2414 -0.10959 -0.098507 0 7888
-4.2336 -0.51607 0.80356 0 7721
-4.2167 7.9438 0.2088 0 14816
-4.2072 6.7486 0.5561 0 14176
-4.2063 6.9673 0.95174 1 14328
-4.2048 7.4959 0.80184 2 14610
-4.2015 3.4598 0.38059 0 11171
-4.2008 5.1746 -1.4167 1 13042
-4.1967 5.5854 0.817 1 13389
-4.1914 8.1767 1.7312 0 14958
-4.1889 -0.18143 -0.097346 1 7846
-4.1879 0.6229 0 0 8237
-4.1834 -0.69556 -0.09846 0 7672
-4.182 5.4011 0.96002 1 13254
-4.1773 0.414 0.68966 2 8131
-4.1726 5.7579 1.3398 2 13554
-4.1716 8.2548 1.0816 2 15003
-4.1555 2.016 0.32297 0 9460
-4.1544 5.596 0.9795 1 13445
-4.1469 5.5533 0.8105 2 13416
-4.1425 -0.44343 0.68447 0 7742
-4.1421 -3.0227 0.47839 0 7568
-4.1379 8.0171 0.63088 0 14923
-4.1326 3.058 0.6012 0 10728
-4.1188 6.7345 0.92317 0 14267
-4.1177 5.7536 0.66009 2 13599
-4.1149 7.0446 0.95406 2 14455
-4.0977 0.95431 0.49201 0 8446
-4.0889 -5.8136 0.83117 0 6968
-4.0855 7.97 0.62627 0 14949
-4.0731 6.6181 0.90876 1 14237
-4.0693 1.9891 0.63658 0 9482
-4.0638 7.1015 1.5416 2 14536
-4.0606 0.71381 -0.095721 0 8294
-4.0542 0.80864 0.38569 0 8361
-4.0421 5.7857 1.3298 1 13713
-4.0413 7.0111 1.1373 1 14510
-4.0379 -5.8796 0.49876 0 6946
-4.0351 8.6611 1.1174 1 15265
-4.0268 8.5149 0.87876 2 15222
-4.0059 6.103 0.68108 1 13967
-4.0023 0.53686 0.28237 0 8207
-4.002 0.47863 0.47134 0 8175
-3.9963 7.0721 1.5305 0 14591
-3.9902 7.4636 0.78958 2 14797
-3.9811 2.6201 -1.3666 0 10325
-3.975 6.1326 1.0271 1 14023
-3.9727 -2.5937 -0.33176 0 7617
-3.9708 5.0678 0.75289 1 13198
-3.9395 7.1689 1.5412 2 14702
-3.9272 -5.0941 0.75219 0 7073
-3.9082 7.0594 0.94361 2 14670
-3.8962 2.936 0.80152 2 10801
-3.893 7.8699 1.0268 1 15078
-3.8915 6.0454 1.1812 2 14051
-3.8897 7.754 1.0145 1 15028
-3.8682 6.0835 1.0132 0 14100
-3.8621 7.4254 1.3751 2 14905
-3.8568 5.9914 0.83327 1 14047
-3.854 0.72404 0.64427 0 8324
-3.8374 6.0749 1.0098 2 14128
-3.8367 -4.1754 -0.13165 0 7322
-3.8342 1.0705 0.46553 0 8586
-3.8268 -5.1792 1.058 1 7010
-3.8147 5.9995 0.83141 2 14099
-3.8077 7.3207 0.96498 0 14901
-3.7984 0.89721 0.090615 0 8454
-3.7933 6.0423 1.1721 1 14155
-3.7692 7.3027 0.96103 1 14927
-3.7604 0.44973 0.62222 0 8176
-3.7586 1.0607 0.4567 1 8595
-3.745 0.46912 0.44137 0 8188
-3.7211 6.9107 1.1031 1 14775
-3.7051 6.3891 0.8637 2 14483
-3.6889 7.4117 1.3602 2 15056
-3.6761 5.4624 1.2405 1 13870
-3.6745 6.3747 0.86044 2 14508
-3.6685 6.4919 1.048 2 14588
-3.6643 -6.2657 0.84883 0 6776
-3.6543 7.2847 1.1454 1 15030
-3.6471 0.88299 0.43882 0 8473
-3.646 4.4356 -0.26776 0 12974
-3.6346 6.4795 -1.3997 0 14617
-3.6325 4.636 0.27466 0 13193
-3.6181 7.2696 1.1412 0 15054
-3.6132 -3.8842 0.87156 0 7346
-3.6132 7.1036 0.93199 0 14978
-3.6072 7.7427 1.6093 2 15269
-3.6041 0.88324 0.43394 0 8482
-3.5976 5.3822 0.75707 2 13891
-3.5858 7.7569 1.6101 2 15291
-3.5849 7.8121 1.0052 0 15309
-3.5678 6.0691 1.3264 0 14434
-3.5668 5.2642 1.0447 2 13842
-3.5518 5.9228 -0.16034 0 14346
-3.5491 0.76217 0.16928 0 8401
-3.5361 5.3547 0.90184 0 13946
-3.5316 6.5589 0.87113 2 14773
-3.5294 6.1229 1.1611 2 14511
-3.5284 5.7692 0.63092 0 14265
-3.5248 5.3052 0.89516 0 13921
-3.5228 2.623 0.51362 1 10752
-3.5096 -0.22327 0.32809 0 7805
-3.5044 -5.9115 0.15955 1 6792
-3.4901 2.6137 0.5099 2 10777
-3.4885 -4.6666 -0.13527 0 7024
-3.4881 -5.6192 0.46249 0 6851
-3.4821 6.8458 1.0794 0 14980
-3.4706 -0.20984 0.32438 1 7812
-3.4593 -0.28988 0.57034 0 7772
-3.453 4.3802 -1.3216 0 13171
-3.4402 -5.3689 1.0476 0 6888
-3.4349 -5.5724 0.45774 0 6844
-3.4322 4.01 -0.24615 0 12776
-3.4246 0.89268 0.082166 1 8530
-3.4195 -5.2715 1.1839 0 6900
-3.4176 -5.01 0.99639 0 6942
-3.4138 -9.0296 -0.22412 0 6181
-3.4088 0.57901 0.56807 0 8282
-3.3986 4.6899 0.40501 0 13547
-3.3945 7.3972 1.3372 1 15313
-3.3722 3.5054 -0.34013 0 12251
-3.3631 -2.2378 -0.18838 0 7609
-3.3617 4.3953 -1.4486 2 13308
-3.361 -2.2517 -0.18866 0 7606
-3.355 -0.11481 0.63248 1 7870
-3.3512 -3.3221 0.77526 1 7430
-3.3504 7.9006 1.2061 1 15560
-3.3424 -2.5444 0.59037 0 7548
-3.3405 0.38946 0.39329 0 8169
-3.34 0.61662 0.55802 2 8317
-3.3381 4.417 -0.12854 0 13355
-3.3299 6.2732 0.99815 1 14825
-3.3201 8.0832 1.0219 2 15653
-3.3186 2.397 0.57534 0 10645
-3.3178 5.8379 0.62646 1 14557
-3.3117 -4.9172 0.13764 0 6932
-3.3091 7.8643 1.1991 1 15585
-3.3081 0.096448 -0.46512 1 7994
-3.305 2.0134 0 0 10075
-3.2559 7.4916 0.76209 1 15487
-3.2518 3.9814 0.11935 0 13007
-3.2514 -5.1096 0.14061 0 6876
-3.2505 7.6023 0.77137 1 15534
-3.2255 7.4787 0.75986 2 15512
-3.2044 -0.12926 0.52689 0 7856
-3.1849 -6.8206 1.4183 0 6445
-3.1701 5.9721 1.1108 1 14827
-3.1633 7.8928 0.7933 0 15720
-3.1513 4.8322 0.53822 1 13997
-3.1319 7.8146 0.39261 0 15717
-3.1254 -6.0893 0.31919 0 6587
-3.1223 7.862 0.78921 0 15739
-3.0993 -2.7672 0.78282 2 7469
-3.0713 2.5148 -1.3413 1 11144
-3.0593 7.5759 0.95546 2 15701
-3.0439 7.595 0.95685 0 15722
-3.0365 7.2697 -1.2944 0 15589
-3.0236 1.0164 0.601 2 8777
-3.0064 -4.6919 0.12938 0 6883
-3.0044 7.627 1.1521 2 15760
-3.0016 7.37 0.9306 1 15676
-2.9956 -7.5277 -0.1881 0 6242
-2.9916 -2.1568 0.34407 0 7573
-2.9824 -2.6629 -0.27958 0 7467
-2.9791 -2.2967 0.618 1 7543
-2.9774 -6.5242 1.0079 0 6412
-2.9744 -7.4066 1.1217 1 6259
-2.9222 -5.0614 0.13569 0 6757
-2.9201 2.5366 0 1 11404
-2.9084 6.3378 1.3138 2 15314
-2.9083 1.6367 0.46901 0 9847
-2.894 -2.257 -0.17115 0 7536
-2.8845 -6.4695 1.3346 0 6384
-2.8695 6.2994 1.3042 0 15336
-2.8664 2.1978 0 0 10867
-2.8487 4.2044 -0.11791 0 13830
-2.8457 -4.5842 0.88648 2 6855
-2.8405 -6.2763 0.48174 0 6400
-2.8275 8.9623 -0.43826 0 16279
-2.8145 9.0085 1.7782 1 16309
-2.7839 -2.1837 -0.165 1 7533
-2.7545 -4.1131 0.5789 0 6928
-2.7538 -3.9859 -0.11248 0 6953
-2.7399 -2.963 -0.1882 2 7330
-2.733 8.6627 -0.21089 0 16281
-2.7263 -8.6153 1.0567 0 5998
-2.7196 1.3001 0.42364 0 9430
-2.7089 -6.9229 0.1726 0 6221
-2.7065 -1.8228 0.07576 0 7603
-2.7045 8.5722 -1.0512 0 16274
-2.6974 4.1362 0 0 13990
-2.6966 -2.2982 0.082259 0 7492
-2.6383 -1.9723 0.62063 0 7558
-2.6242 8.062 1.3929 0 16233
-2.5979 -1.9077 0.074832 2 7565
-2.572 -1.9354 0.52884 1 7553
-2.5653 1.8638 0.44563 0 10667
-2.548 7.828 0.76803 0 16228
-2.5457 3.4491 0.099528 1 13466
-2.5428 4.8228 -0.25425 0 14839
-2.5277 7.7016 0.18819 0 16203
-2.5214 -2.3454 0.2408 0 7451
-2.4959 -2.3348 0.23899 0 7448
-2.467 -2.6847 -0.17003 0 7321
-2.4606 -3.099 0.46274 1 7115
-2.4509 5.2608 0.27065 0 15261
-2.4016 -5.0328 -0.12947 0 6471
-2.3716 4.0342 0.43659 0 14426
-2.2978 2.1525 0.3682 1 11766
-2.2807 -4.2607 -0.1122 0 6655
-2.2771 -4.2807 -0.11257 0 6642
-2.2512 3.7055 -0.81689 0 14301
-2.218 -2.343 0.45343 0 7375
-2.216 8.8615 0.85219 1 16630
-2.2045 -3.744 0.10087 0 6783
-2.1771 -4.4283 -0.46037 0 6513
-2.1739 5.3376 0.80999 0 15678
-2.1567 6.6974 -0.82281 1 16238
-2.1448 -6.455 0 0 6041
-2.1373 -5.7564 -0.14256 0 6159
-2.1192 -2.7489 0.32382 0 7072
-2.104 5.3414 0.67135 0 15758
-2.0735 5.3128 0.66694 0 15779
-2.0158 -6.4958 0.4756 1 5976
-2.0099 7.7494 0.18587 0 16581
-1.9887 2.4074 -0.14562 2 12946
-1.9642 2.3895 0.071814 0 12978
-1.9486 9.2545 0.21957 0 16832
-1.9037 2.5337 -0.073578 0 13381
-1.8997 -8.9992 0.64315 0 5615
-1.8946 6.8177 0.16429 0 16496
-1.8786 -2.4237 0.21443 0 7083
-1.8416 -7.0048 1.0179 0 5815
-1.7345 -6.0212 0 0 5894
-1.719 4.5182 0.33804 0 15838
-1.7124 4.461 0.33413 2 15815
-1.6935 2.7517 -0.075017 0 14226
-1.6275 2.628 -0.071768 0 14196
-1.6024 -6.6387 0.47755 0 5731
-1.5558 -6.8757 1.1582 1 5674
-1.5232 -3.4997 0.71913 1 6354
-1.5088 4.0354 0.70782 0 15899
-1.507 3.7946 -0.094793 0 15733
-1.5006 -4.3018 0 2 6088
-1.4951 -9.8626 0.2316 0 5420
-1.4508 -2.8461 -0.14897 1 6572
-1.4487 -6.3203 -0.15055 0 5680
-1.4096 4.7557 -0.58006 2 16380
-1.4083 4.7975 -0.5847 0 16399
-1.408 5.0125 0.60886 0 16483
-1.4067 -6.573 1.1044 0 5631
-1.3971 5.6537 0.40724 0 16646
-1.3965 4.8099 0.23357 0 16426
-1.3895 2.8949 -0.074553 0 15169
-1.3882 -5.5388 0.39929 0 5770
-1.3536 7.2609 -0.34444 0 16957
-1.3415 -9.6062 0.22519 0 5387
-1.3368 5.4797 0.92668 0 16667
-1.3104 5.4414 0.91955 0 16685
-1.2954 4.5117 -0.54893 0 16437
-1.2805 6.6559 0 0 16923
-1.2756 5.5831 0.66972 0 16745
-1.2635 -6.1662 -0.14614 0 5588
-1.2565 4.4197 0.64576 1 16467
-1.2558 6.4307 1.0765 0 16912
-1.2482 -7.9436 0.7502 0 5437
-1.2338 5.3229 0.25481 0 16725
-1.2181 6.1404 1.0285 1 16898
-1.2149 2.9579 0.60248 0 15657
-1.2137 -3.5471 -0.08704 0 6068
-1.2049 -7.6679 0 0 5434
-1.1954 2.8873 0.58878 1 15634
-1.1772 5.0787 0.48638 1 16727
-1.1772 5.215 -0.24931 2 16755
-1.137 -6.7155 0.95723 0 5472
-1.1352 -3.857 0.3751 0 5920
-1.1232 -4.7038 0 0 5718
-1.1197 -4.6388 0 1 5728
-1.1095 -8.8953 0.41804 0 5347
-1.1049 -5.6372 -0.13337 0 5557
-1.1045 6.9188 -0.32674 1 17130
-1.1006 2.9962 -1.4211 1 15936
-1.0978 5.0648 -0.24167 0 16797
-1.0876 -8.5137 1.4101 0 5357
-1.0747 -3.3961 0.16612 0 5996
-1.0452 -7.8129 1.1078 0 5371
-1.0448 -7.3316 1.3953 0 5396
-1.0341 -3.5525 0 1 5905
-1.0289 -9.3496 0 0 5311
-1.026 2.9512 -0.29149 2 16069
-1.0209 -7.4818 1.4227 1 5382
-0.97564 7.512 -0.70672 0 17291
-0.96682 -7.5682 0.3558 0 5356
-0.96223 -5.0634 0 0 5537
-0.94597 7.4359 0.34956 0 17316
-0.9398 6.2436 0.88737 1 17193
-0.93684 -6.5744 0.30969 0 5394
-0.93312 9.2831 0.43509 0 17436
-0.92622 -6.6324 0.3123 0 5388
-0.91743 -9.9084 0.92836 0 5260
-0.90357 -7.244 1.1994 0 5349
-0.90326 -7.2415 1.3749 0 5350
-0.87932 -4.3492 0.20692 0 5579
-0.87328 -5.6541 0.53376 1 5428
-0.85096 3.4437 -1.1069 0 16645
-0.83521 5.6561 1.0772 0 17211
-0.81589 3.388 0.32512 0 16680
-0.74612 -6.4288 0 0 5327
-0.73634 3.3971 0 0 16799
-0.72788 -3.6002 -0.085276 0 5576
-0.6257 9.5463 1.1188 0 17588
-0.61123 4.0607 -1.4946 0 17186
-0.60667 -8.4019 0.19557 0 5202
-0.58966 4.2494 -0.9119 1 17261
-0.57056 4.3931 0 0 17296
-0.56554 -4.9947 0.70644 0 5321
-0.55321 5.0594 0.3559 0 17395
-0.54512 3.4148 0 2 17132
-0.5412 -4.2364 -0.099157 0 5354
-0.53675 -5.1501 0 0 5296
-0.5358 3.6999 -0.79464 0 17227
-0.4987 -8.2006 -0.19075 0 5170
-0.49352 3.3421 -0.15755 0 17200
-0.48251 -4.1575 0.19518 0 5329
-0.48166 3.878 -0.92593 0 17331
-0.47837 -4.5899 0.86947 1 5299
-0.47661 -4.8348 0.68278 0 5281
-0.47346 3.2694 0.38632 0 17225
-0.46661 3.8446 -0.91763 0 17343
-0.45679 3.2176 0.38005 0 17245
-0.45122 -6.0011 0 0 5211
-0.44106 -4.2319 -0.098785 2 5295
-0.43479 -3.5617 -0.16733 0 5338
-0.42631 -3.4922 0.66284 0 5342
-0.41078 -5.4632 0.64069 0 5215
-0.40984 -3.5313 -0.082538 0 5326
-0.3943 9.2915 0.43369 0 17667
-0.38451 -3.792 0.35559 2 5289
-0.32266 -4.2912 -0.20068 0 5210
-0.32161 -6.975 0.32562 1 5133
-0.31227 -4.9087 0.22938 0 5180
-0.28523 3.2023 -0.76177 0 17487
-0.28489 -3.9454 -0.18447 0 5200
-0.27446 -3.801 0.62611 0 5205
-0.26782 -7.7079 0.71954 0 5097
-0.26565 -5.7612 0.81054 0 5134
-0.25843 7.6296 0 0 17694
-0.21675 3.3069 0 0 17582
-0.2071 3.301 0.38678 0 17601
-0.20478 -3.5515 0.67025 0 5164
-0.17351 -4.0223 0 0 5125
-0.17265 -4.2799 0.19975 0 5117
-0.15875 -4.2684 0.19919 0 5108
-0.147 -3.6441 0.5992 0 5119
-0.13376 -3.5965 -0.083559 0 5105
-0.12123 -3.489 -0.081052 0 5092
-0.11987 -8.3749 -0.19446 0 5031
-0.11564 -3.6392 -0.084534 0 5084
-0.11107 -4.8572 0.91539 0 5059
-0.1026 -6.0599 0.99574 0 5045
-0.10211 -6.0309 0.56274 0 5044
-0.077956 -9.3052 -0.21605 0 5017
-0.053624 -4.7266 -0.22043 0 5024
-0.035934 -3.1673 0.52041 1 5025
-0.020027 -7.6497 0.35674 0 5002
-0.017464 -6.6705 1.0959 0 5004
0 -9.0216 0.20945 0 70
0 -5.0466 -0.11717 0 68
0.0013912 -3.9849 -0.092518 0 4995
0.033299 -3.6689 0.25656 0 4974
0.043229 -3.7526 0.26242 0 4968
0.059176 -6.52 -0.15138 0 4973
0.062964 -5.4657 -0.2549 0 4966
0.073073 -4.1042 -0.095304 2 4953
0.074712 -6.4856 0 0 4967
0.075186 7.8323 -0.91596 0 17832
0.094881 -6.4713 0 0 4960
0.095085 -6.4852 1.222 0 4961
0.11221 -6.3022 -0.29394 0 4952
0.12866 -6.3538 -0.29636 0 4945
0.12959 8.4366 1.5897 0 17856
0.14307 -7.0658 1.1611 0 4946
0.15016 -6.4193 0.29944 0 4938
0.15025 -4.3027 -0.20077 0 4914
0.16246 -4.2678 0.49945 0 4908
0.17552 -3.5382 0.58201 0 4881
0.19581 9.1946 1.511 0 17876
0.20541 9.6452 0.22398 0 17871
0.20713 8.5982 0.8024 0 17885
0.23138 -4.4297 0.51873 0 4873
0.23348 -9.9812 1.1675 0 4939
0.24579 -4.9546 -0.11517 0 4879
0.25326 -5.8006 0.95392 0 4895
0.25826 -6.3472 0.59265 0 4902
0.27385 -5.2429 0 0 4872
0.28798 -6.5959 -0.15328 0 4893
0.30792 8.6025 0 0 17913
0.3448 -4.0975 0 0 4813
0.37371 -8.0137 1.318 0 4888
0.38537 -6.3188 0.44267 1 4855
0.39308 -7.9236 0.36997 0 4880
0.39578 7.057 -0.1641 0 17975
0.41756 3.9529 0.092286 0 18122
0.42041 3.8762 0.090522 2 18132
0.42707 7.6149 0.71155 0 17978
0.43702 5.1398 -0.24056 0 18058
0.47359 -6.2548 0.43863 0 4832
0.50677 -8.736 1.4377 0 4861
0.50961 -4.0683 0.47947 0 4728
0.53384 -3.8178 0.089501 0 4699
0.56301 -4.288 0.10041 0 4715
0.56312 7.65 -0.71564 0 18027
0.57361 7.7924 -0.36438 1 18028
0.57688 -3.232 -0.076224 0 4628
0.58217 -8.3673 1.1788 1 4840
0.5952 -6.604 0.30922 0 4802
0.60713 -3.138 0.37377 0 4601
0.61397 -6.206 -0.14479 0 4781
0.61496 -6.216 0.14502 0 4783
0.62872 -8.3035 0.97381 1 4833
0.66281 -4.4509 0 0 4681
0.68208 5.0514 -0.59609 2 18200
0.69714 -3.3902 0.65211 0 4579
0.69987 -3.2591 0.62804 0 4558
0.7049 3.4128 -0.32512 0 18405
0.71273 -3.2744 0.63137 0 4551
0.72584 5.5059 0.91241 0 18197
0.7269 -8.0653 0 0 4801
0.73076 -3.4557 0.16472 0 4564
0.7349 -3.4222 0.16323 0 4557
0.74346 3.2229 -0.46484 0 18484
0.74561 -4.1774 0.19789 0 4630
0.74792 -4.9222 0.11559 2 4676
0.75922 3.2497 -0.46901 1 18495
0.77268 5.8612 -1.2566 0 18196
0.77455 3.3576 0.56612 0 18494
0.78491 3.5435 -0.59628 0 18459
0.78572 3.3631 0.56742 0 18502
0.81172 -9.9583 -0.23197 0 4820
0.81816 5.4614 -0.6458 1 18237
0.83117 9.4246 1.5544 0 18072
0.84691 -6.1826 0.14488 0 4704
0.86617 -6.4658 0.76288 0 4710
0.8734 5.7278 0 0 18248
0.88352 7.5438 1.0675 0 18156
0.88724 7.3858 -1.0455 0 18158
0.90772 -9.1752 0 0 4782
0.91078 -3.191 -0.15475 1 4432
0.91464 5.6597 0.53487 1 18273
0.9516 6.3521 -0.29953 0 18239
0.96735 7.6789 0.36093 0 18178
0.98277 -9.1356 1.7312 0 4765
0.98283 6.5606 -0.46388 0 18238
0.98757 7.6562 0.36 0 18186
0.99675 -3.1479 0.62211 0 4378
1.0025 -4.1951 0.40241 0 4517
1.0157 -5.0194 0.59887 0 4585
1.0204 -3.0079 0.2221 0 4344
1.0351 -3.1706 0.62841 2 4358
1.0407 -5.0609 0.60422 0 4578
1.0478 4.9381 0 0 18433
1.069 8.2872 1.1743 0 18188
1.0716 -2.9603 0.22015 0 4321
1.0717 4.2511 -0.51269 1 18550
1.0792 9.4578 -1.1132 0 18146
1.0817 4.091 0.39479 0 18590
1.0822 4.0473 0.48992 1 18600
1.0824 6.4613 -0.76613 0 18287
1.0924 -4.461 -0.10663 0 4504
1.1029 -4.559 0.32799 0 4511
1.1094 3.6376 0.62481 0 18708
1.1209 -4.5772 0.32953 0 4506
1.1222 5.6882 0.40542 0 18382
1.1242 -3.9387 0 0 4433
1.1403 3.8596 0.37547 0 18679
1.173 -5.8754 0.41896 0 4591
1.1768 7.567 -0.17779 0 18255
1.1789 -9.2024 1.5243 0 4722
1.1817 -8.1005 1.345 0 4686
1.2088 9.1698 1.2999 0 18195
1.2318 -5.9064 0.28136 0 4571
1.2319 -5.6595 0 0 4550
1.233 2.8008 0.57656 1 19239
1.2564 2.8312 0.5836 0 19255
1.2812 -8.9795 1.709 0 4693
1.3113 6.3489 0.30233 0 18410
1.3143 -3.8388 0.66664 2 4340
1.3378 3.6538 -1.2141 0 18911
1.3392 -8.187 0.1926 0 4652
1.3633 -3.9415 0.78579 0 4334
1.3683 3.3429 -0.16845 0 19105
1.3738 -8.7132 1.6619 0 4665
1.3744 -9.6328 1.3675 0 4692
1.3781 -8.7404 0.41264 0 4664
1.3814 -6.7176 -0.15923 0 4577
1.3826 -2.917 0.22573 0 4194
1.3903 3.4531 0.70136 0 19084
1.3909 3.4253 0.69654 2 19098
1.404 -5.0352 0.48768 0 4447
1.4107 9.0705 0.21312 0 18257
1.4241 3.2627 0 0 19217
1.4279 3.0045 -1.2108 0 19367
1.4301 -5.0672 0.49121 1 4442
1.4364 9.5884 -0.2251 0 18240
1.4457 -5.8244 0.70178 0 4500
1.4512 3.4056 -1.1552 0 19176
1.4675 5.9658 1.0094 0 18541
1.4686 -3.4515 0.087087 1 4253
1.4768 -3.6135 0.54862 0 4274
1.4769 3.7283 0.28042 0 19054
1.477 3.6983 0.27847 0 19069
1.4802 -4.0145 0.80615 1 4315
1.4944 -5.2356 0.38073 0 4434
1.496 3.2705 -0.85215 1 19306
1.5041 -4.4334 0.88206 0 4345
1.5157 -8.4918 0 0 4629
1.553 3.5818 0 1 19204
1.5727 -6.5008 1.0989 0 4512
1.5727 5.8817 -0.14135 2 18596
1.5787 7.5372 1.2652 0 18427
1.6045 -3.334 -0.17255 0 4186
1.6088 3.6545 -0.092704 0 19231
1.6101 -3.0244 -0.15978 1 4122
1.6133 -5.3604 0.26105 0 4405
1.6134 -4.9419 0.1207 0 4357
1.6207 3.7704 0 0 19191
1.6229 3.9967 0.60624 0 19096
1.6231 -8.5165 1.4244 1 4608
1.6304 3.4076 0.71172 0 19385
1.6333 -3.0912 -0.16304 0 4129
1.6358 -5.3807 0.26226 0 4399
1.646 -5.6433 0.54843 0 4422
1.6624 -6.0271 1.0272 0 4453
1.6889 -5.4933 0.53617 0 4393
1.6916 -6.908 0.16512 0 4505
1.6987 -5.6442 1.1105 0 4406
1.7111 -5.192 0.89815 0 4353
1.7185 6.1385 -0.74546 1 18630
1.7244 -3.2859 -0.25949 0 4136
1.7472 7.6719 -0.92015 0 18475
1.7533 -8.7826 1.4714 0 4592
1.7706 -4.264 -0.21531 0 4265
1.8073 -4.3526 0.21978 0 4266
1.8076 -4.6918 0 0 4297
1.8177 -4.8904 -0.36483 0 4310
1.8189 -4.8495 -0.36218 1 4305
1.8201 3.8592 0.49898 0 19357
1.8284 6.2528 1.0703 0 18672
1.8306 -3.6131 0.47366 0 4160
1.8336 8.1697 0.39046 0 18471
1.8463 -3.4681 -0.36655 1 4121
1.8543 -3.6345 0.47715 0 4154
1.8673 7.5909 -1.0986 0 18532
1.8706 4.9269 -1.2487 0 18985
1.8865 -3.8071 0.098646 0 4170
1.8911 6.6038 0.48034 0 18655
1.893 -4.1441 0 0 4220
1.9332 3.7026 0.58703 0 19543
1.9523 7.1315 -1.3931 0 18620
1.9623 -5.2318 0.52131 0 4307
1.989 8.4009 -1.0096 1 18503
2.0319 -3.6642 0.68836 2 4093
2.0324 3.6847 -0.89444 0 19656
2.0402 -4.1481 0.32325 0 4174
2.0472 -5.5522 0.27596 0 4313
2.0675 3.9599 -0.20832 1 19540
2.0693 -3.7562 0.70458 0 4100
2.1207 -5.913 1.0321 0 4325
2.1265 -7.4502 1.4597 0 4435
2.1346 9.5108 0.22631 0 18470
2.1403 7.5587 -0.18239 0 18642
2.1449 3.8887 -1.0523 2 19655
2.1456 5.8599 -0.14488 0 18908
2.1466 -6.6422 0.81631 0 4365
2.1579 -8.4845 0.61218 0 4486
2.1602 -4.7293 -0.36357 0 4219
2.1727 -8.8722 0.85219 0 4507
2.1865 7.4003 1.2678 0 18680
2.1898 -6.8451 0.67049 0 4372
2.1964 -9.4311 0.45158 0 4526
2.2153 -5.5162 0.13801 0 4281
2.2403 3.7957 -1.1538 0 19806
2.2558 3.9261 0 0 19746
2.2643 6.2996 -0.15542 0 18880
2.302 9.0245 0.21623 0 18561
2.3213 -5.6797 1.0081 0 4275
2.3335 -6.1141 1.0752 0 4302
2.3456 -3.5667 0.8043 0 3909
2.35 -2.8721 0.086158 1 3424
2.357 -6.1178 1.0771 0 4300
2.3752 -4.3709 -0.23199 0 4106
2.392 9.1567 0 0 18577
2.4048 3.7704 0.73473 0 19981
2.4078 -2.265 0.5431 0 2931
2.4317 -5.3235 -0.54602 0 4218
2.4356 -4.3633 0.82098 0 4088
2.4369 3.7944 0.74089 0 20001
2.446 7.189 0.35413 0 18819
2.4529 6.2495 0.46946 0 19041
2.4651 -5.5238 0.9938 0 4233
2.4652 5.6858 0.289 0 19207
2.4663 7.4616 -1.2911 0 18785
2.4897 -9.1195 1.5531 1 4458
2.503 -2.9028 0.08899 0 3306
2.5096 -6.3483 0.63687 0 4291
2.5296 -4.7216 0.12436 0 4116
2.5314 -7.3185 0.17979 0 4333
2.548 -2.9697 0.090847 0 3319
2.5517 6.0349 1.0765 0 19163
2.5526 6.6117 1.3353 0 19016
2.5561 6.4005 0 1 19067
2.5638 5.238 0.95813 0 19422
2.565 -2.5135 0.25112 0 2984
2.5721 8.2682 1.0126 0 18728
2.5725 3.6685 0.41801 0 20230
2.5736 -2.117 -0.1554 0 2716
2.5752 -1.937 0.45287 0 2577
2.5848 5.281 0.41114 0 19420
2.6115 6.1285 -0.46583 1 19173
2.6119 6.5936 0.16466 0 19053
2.6131 2.6461 0.26005 0 21277
2.625 -5.6602 -0.29096 0 4207
2.6361 4.843 0 0 19623
2.6401 -7.2932 0.72363 0 4322
2.6784 5.7256 -0.29478 0 19336
2.6829 -1.9579 0.46679 0 2519
2.7011 -7.6023 1.3255 0 4328
2.7014 1.829 0.53597 1 22931
2.71 -5.3486 0.5594 0 4159
2.7194 -4.4376 0.12084 0 3996
2.7209 -6.1488 0.94499 0 4237
2.7219 2.4123 0.084441 0 21799
2.7317 -2.0052 0.47625 0 2530
2.7457 4.9049 1.0591 0 19686
2.7503 2.6145 0.53331 0 21534
2.7504 -2.0688 0.24066 0 2574
2.7521 -2.1852 -0.16388 0 2661
2.7545 -6.9677 1.053 0 4293
2.7579 5.6345 0.29254 0 19419
2.7646 -5.4189 0.28369 0 4153
2.7849 -9.4439 0.6885 0 4416
2.786 1.8636 0.23438 0 22974
2.7955 3.2341 0.099249 0 20819
2.7971 3.2565 0.099667 0 20801
2.8022 3.6731 0.43102 0 20467
2.8141 4.7076 -0.38352 2 19832
2.8142 -1.7565 0.38794 0 2208
2.8205 -1.7727 0.38957 0 2222
2.8323 2.193 -1.4962 0 22369
2.8409 8.8591 -0.216 0 18760
2.8416 -6.7302 1.3764 1 4260
2.8609 1.185 0.14441 0 24629
2.865 -3.4399 0.10394 1 3386
2.8681 -3.4241 -0.41671 1 3370
2.8756 -6.9837 0.88321 0 4270
2.8809 -3.4787 0.10487 0 3399
2.9039 -7.1051 0.35795 0 4273
2.9125 1.2171 0.1472 0 24602
2.9184 6.1406 1.117 0 19371
2.9187 -7.0883 0.35748 0 4269
2.9273 3.8594 0 0 20449
2.9572 -2.6871 0.75283 1 2889
2.9593 5.5097 1.0275 1 19600
2.9652 -1.0146 0 0 1212
2.9674 -0.56499 0.14087 0 946
2.9682 -6.5525 1.3553 2 4226
2.9706 -2.5015 -0.45415 0 2760
2.9735 9.2725 1.1387 1 18766
2.977 2.2376 -1.4542 0 22490
2.9802 -7.9456 0.99239 0 4308
2.9821 -6.4807 1.0026 0 4214
2.9848 -3.5838 0.87873 0 3394
2.9941 5.386 0.14307 0 19668
2.9974 -5.6732 0.44867 0 4130
2.9996 7.5722 0.75986 0 19055
3.0036 -2.3995 0.72432 2 2672
3.0169 -6.8661 -0.52443 2 4240
3.0262 0.8239 0.21931 2 25723
3.0312 -5.6936 0.45105 0 4123
3.0407 -3.4636 -0.21494 0 3270
3.0413 8.6992 -0.21396 0 18849
3.0414 -3.9209 0.58029 0 3544
3.0443 3.2669 0.84133 1 21079
3.0575 1.7503 0.081795 2 23554
3.0644 1.7664 0.08212 2 23532
3.0705 3.2198 0.31111 0 21158
3.0793 6.4356 1.1721 0 19383
3.0801 -7.6007 -0.38245 0 4277
3.0819 0.84716 0.2235 0 25700
3.0857 6.9535 0.53196 0 19252
3.0946 5.8446 1.0865 0 19574
3.0961 -2.8781 0.49434 0 2919
3.1063 -3.7509 0.34055 0 3400
3.1205 8.2192 -0.20412 0 18980
3.1332 -0.0087496 0.44034 0 90
3.1373 -2.567 0.66599 0 2709
3.143 -1.5113 0.24387 0 1666
3.1642 -3.3814 0.21596 0 3146
3.197 -8.2981 1.2498 0 4299
3.2068 1.9744 0.17562 2 23298
3.2072 -7.133 -0.54689 0 4228
3.2076 -1.5548 0.33255 0 1681
3.2213 -3.138 0.20972 1 2974
3.2297 -2.6425 0.58648 0 2708
3.2475 -7.1095 0.7292 0 4221
3.2548 -7.0183 1.271 0 4209
3.2568 -1.6961 -0.17124 0 1803
3.2816 3.5413 0 1 21047
3.29 3.5716 0 0 21023
3.2914 1.7723 0.70432 2 23787
3.2975 -0.74674 0.39538 0 1018
3.3016 4.0052 -0.12051 0 20675
3.3097 9.0393 0.89808 0 18913
3.3116 -0.19152 0.077013 0 367
3.3241 -1.7682 -1.4702 0 1840
3.3333 2.5651 0.79245 0 22409
3.3486 -7.1161 1.2921 2 4199
3.3576 -8.4244 1.2745 0 4287
3.3693 4.7184 0.40542 2 20283
3.3702 -6.5633 0.68833 0 4148
3.3714 -8.395 0.84402 1 4283
3.3768 -8.2008 1.2464 0 4271
3.3839 3.3487 0.11053 0 21360
3.3882 4.0137 0.12195 0 20746
3.3936 -5.5378 1.0671 2 4002
3.447 -0.14929 0.1609 0 299
3.4707 1.7929 0.27317 0 23921
3.4711 -1.4399 0.17525 0 1424
3.4853 8.3074 0.84049 1 19147
3.4984 1.9233 0.27917 1 23703
3.5097 -7.6272 0 0 4213
3.5162 6.1199 -0.16387 0 19745
3.5177 -0.051576 0.66284 2 151
3.5266 8.2045 0.41646 0 19193
3.5295 -3.8168 0.60793 1 3170
3.539 -2.167 0.48528 0 2161
3.541 -8.2578 0.83826 0 4249
3.5448 -1.5679 0.63681 1 1527
3.5547 0.70644 0.33813 0 26301
3.5641 0.3702 0.25057 0 27036
3.5726 2.0312 0.77431 0 23588
3.5768 -0.041204 0.67395 0 134
3.5846 -5.8496 0.31994 1 3997
3.5929 0.36305 0.25252 0 27057
3.599 -1.5559 0.36581 0 1489
3.6003 -7.7068 1.6027 0 4204
3.6017 0.70531 0.3424 0 26326
3.6056 -8.0191 0.41003 0 4229
3.6141 -8.2253 0.41897 0 4241
3.6193 4.3379 0.66067 1 20713
3.6402 -7.7923 0.40108 0 4201
3.6416 -1.1301 0.71839 0 1167
3.66 -1.1239 0.72135 0 1163
3.6722 -2.3386 0.71528 0 2252
3.6813 1.9409 0.48667 0 23854
3.6954 -1.3122 0.55113 0 1241
3.7173 -3.3777 0.70589 0 2888
3.7186 1.6169 0.094143 0 24469
3.7221 -1.3717 0.37008 0 1275
3.7339 7.4661 0.19381 0 19458
3.7479 6.7948 -0.18016 2 19651
3.7644 -8.6411 0.21883 0 4244
3.7662 -6.0648 0.66604 1 3983
3.7668 5.4076 0.15301 0 20208
3.7778 1.9918 0.70166 0 23857
3.7797 0.67191 0.089129 0 26460
3.7833 5.6728 1.1203 0 20099
3.7863 4.3803 0.40487 0 20822
3.7868 -1.7146 0.09651 0 1562
3.8007 2.4316 0 0 23146
3.803 6.4433 0.34891 0 19805
3.804 8.2516 -1.4928 0 19307
3.829 8.6979 0.22064 0 19234
3.8491 3.2747 0.35339 0 21976
3.8567 -1.5215 0.3868 0 1358
3.8624 0.6512 0.09094 0 26531
3.891 -3.9471 -0.38757 0 3035
3.9129 0.42923 0.27526 0 26997
3.9217 -8.3949 1.5223 0 4203
3.9287 4.3647 0.13634 0 20944
3.9384 5.55 0.47588 0 20264
3.9396 -3.0372 0.93724 0 2617
3.9429 3.2009 0.11791 0 22169
3.95 8.1892 -1.4938 0 19386
3.9591 8.7157 1.1195 0 19295
3.9829 0.44957 0.28028 0 26977
3.9843 2.0723 0.31404 0 23896
3.9857 0.21726 0.18615 0 27361
3.9936 0.53215 0.09354 1 26824
3.995 -3.463 0.49326 1 2816
3.998 0.54481 0.093679 0 26800
4.0302 6.1191 1.3805 0 20068
4.0312 0.17389 0.093679 0 27422
4.034 4.5628 0.1414 0 20891
4.0354 -3.053 0.83135 0 2589
4.0369 3.9505 0.92798 1 21419
4.0513 4.4476 1.1335 0 20993
4.053 0.091269 0 0 27534
4.0552 3.4905 -0.12422 2 21918
4.0586 4.5091 0.70945 0 20950
4.0668 9.0238 0.69212 0 19281
4.0703 8.1389 0 0 19456
4.0805 4.5081 0.71107 0 20972
4.0823 -6.0568 1.2 0 3851
4.1159 5.1725 -0.15347 0 20578
4.1242 1.9083 0.42396 0 24276
4.1308 -5.3911 0.79424 0 3571
4.138 2.7848 -0.34878 2 22940
4.1517 -5.1343 0.30792 0 3452
4.1526 -1.1837 0.81356 2 1127
4.1902 -8.7066 -0.67566 0 4185
4.2065 3.3365 -1.4055 1 22278
4.2278 5.476 0.16062 0 20502
4.2399 -7.2937 0.98658 0 4058
4.2897 3.8019 0.40082 0 21803
4.3133 -1.5895 0.64604 0 1276
4.3341 5.107 1.1005 0 20773
4.3376 4.5997 0.14679 0 21112
4.3551 -1.6465 0 0 1304
4.3865 4.4699 0.43793 0 21256
4.4101 4.9882 -0.15458 0 20889
4.4145 -2.9731 1.0028 1 2371
4.4347 -6.183 -0.70988 0 3712
4.4886 -2.4371 0.83914 0 1880
4.4932 -3.8512 0.8317 0 2801
4.5034 -2.4635 0.84335 0 1892
4.5164 -2.3341 0.83525 1 1797
4.5194 -2.3196 0.8346 1 1783
4.5292 1.0782 0.43436 1 25989
4.5457 2.4661 0.48248 0 23753
4.5546 -0.86719 0.87355 0 950
4.5928 7.8314 1.2759 0 19792
4.6142 2.6234 0.74597 0 23585
4.6275 3.0955 0.91468 2 22981
4.6349 4.7479 0.61903 0 21237
4.6467 4.442 0.44951 0 21506
4.6525 1.0792 0 2 26027
4.6814 -1.1603 0.44997 1 1059
4.6867 2.071 0.96538 0 24431
4.6966 0.64001 0 0 26798
4.6986 0.6545 0 0 26775
4.743 -8.3798 1.582 0 4078
4.7466 -7.4021 1.6567 1 3954
4.7663 0.98967 0 0 26225
4.7739 3.6092 1.1276 1 22480
4.7818 -4.3177 0.90546 0 2879
4.8193 2.7033 0.77659 0 23637
4.8284 6.4426 0.94152 0 20418
4.8286 -3.1742 0.94938 2 2318
4.868 -1.0436 0.11559 0 997
4.8837 2.1073 0.49623 2 24502
4.8881 8.0174 1.0981 0 19878
4.8902 -6.1544 1.1048 0 3494
4.8982 -5.7779 1.4272 0 3353
4.9069 6.2065 -0.18369 0 20564
4.9087 -6.1073 0.3654 0 3466
4.9245 -0.96704 0.23404 0 962
4.956 -2.7834 0.39747 0 1945
4.9851 -4.1007 0.30102 0 2717
5.0452 -6.2392 0.18629 0 3451
5.0463 -0.42463 0.832 0 506
5.0526 0.86819 -0.11902 2 26503
5.0577 -6.4041 1.5375 0 3511
5.0625 -3.4534 1.1546 0 2395
5.0864 -8.3002 1.8341 0 4003
5.0977 6.0387 0.55261 0 20748
5.0993 -6.2725 1.5231 0 3445
5.1046 4.1439 0.30661 0 22171
5.1146 -1.0499 0.36511 0 980
5.1473 -8.5665 1.642 0 4022
5.1535 6.7113 0.19646 0 20483
5.1599 -3.8573 0.45049 0 2563
5.1709 6.3492 0.76394 0 20647
5.1801 -0.63237 -0.12116 0 679
5.1927 5.5412 0 0 21089
5.1947 1.1412 0.12348 0 26124
5.1956 -7.1146 -0.82191 0 3672
5.1965 3.1162 0.4237 0 23392
5.204 -2.8255 0.27615 0 1877
5.2165 6.7934 1.4072 0 20491
5.2229 -2.6808 1.1061 1 1785
5.2332 -2.9813 0.84645 0 1976
5.2463 -8.1344 0.45139 0 3936
5.249 1.742 0.1284 0 25251
5.2507 -0.95327 0.1239 0 919
5.2635 4.9722 0.84674 1 21556
5.2665 2.1815 0.13235 0 24627
5.2707 1.8696 -0.12984 0 25073
5.2824 -2.6939 1.1172 0 1772
5.2902 -2.7739 0.83949 0 1819
5.301 -3.8443 1.0758 0 2509
5.3092 -0.47664 0.12376 1 530
5.3155 5.7704 0.36587 0 21026
5.322 2.224 0 0 24599
5.3488 -7.5043 1.2951 0 3735
5.3865 -8.1908 1.1464 0 3903
5.3896 4.1236 0.15755 0 22419
5.427 -2.4185 1.1194 0 1541
5.446 1.3649 -0.13035 0 25887
5.4889 -4.2531 0.64783 1 2625
5.4925 -4.0836 1.1245 0 2554
5.5004 1.6001 0.133 0 25570
5.502 -0.99889 0.26077 0 920
5.504 6.1862 1.5601 0 20913
5.5192 -7.0313 1.6841 0 3523
5.5246 1.8883 -0.13555 0 25173
5.5266 -4.3365 0.49123 2 2644
5.5477 3.7561 0.46848 0 22923
5.5661 0.31996 0.91598 0 27348
5.6092 0.32244 0.13044 0 27340
5.6482 -1.5738 0.96332 0 1116
5.6619 4.052 0.32469 2 22690
5.6639 3.9073 1.2964 0 22857
5.6665 -1.2832 0 0 1017
5.671 0.49016 0.39803 0 27157
5.6998 1.9293 0.28062 0 25203
5.714 -5.6604 0.75038 1 3002
5.7602 -4.6529 1.2166 0 2689
5.7993 -1.4728 0.4184 0 1071
5.8023 -4.8018 1.419 1 2733
5.8135 -0.57411 0.40849 0 573
5.826 0.068131 -0.13527 0 9
5.8285 -0.45769 0.13574 0 470
5.8303 3.2491 1.0966 1 23661
5.8437 5.9862 0.58498 0 21235
5.8445 5.4273 0.18518 0 21617
5.8737 2.554 -1.3614 1 24479
5.8945 -3.9699 0.49695 0 2366
5.9056 6.1928 1.4059 0 21164
5.9106 -4.3386 0.17023 0 2526
5.9209 -0.086812 0.27615 0 145
5.9215 -0.84487 0.27894 0 779
5.9411 6.4113 1.4361 0 21058
5.9829 0.23926 0.98375 1 27446
5.9902 -4.9012 1.4583 0 2710
6.0288 -5.8057 1.1763 2 2962
6.0841 3.276 0 0 23774
6.1126 -2.1922 0.60584 1 1248
6.125 -5.4995 1.3524 0 2869
6.1371 -0.35494 0.28667 0 368
6.1581 2.8703 0.15774 0 24247
6.1603 -5.1581 1.5138 0 2757
6.1814 0.1759 0.72315 0 27504
6.1842 -4.165 1.225 0 2369
6.2075 -0.97762 0 0 838
6.2105 -0.95811 0 0 827
6.2541 -4.4825 0.71787 2 2487
6.259 5.0216 0.56112 0 22222
6.2628 -1.8065 0.45579 0 1131
6.3059 -4.9178 1.3138 0 2636
6.312 0.74819 1.1976 0 26943
6.3221 -2.9293 0.65006 2 1604
6.3239 -0.62452 0.74313 0 574
6.3794 -3.0922 1.3357 2 1684
6.3888 -3.6885 1.212 0 2008
6.4195 -3.366 1.3657 0 1821
6.4736 -0.094914 0.15031 0 144
6.4758 -6.8408 1.1016 0 3125
6.4832 0.22187 0.30251 0 27471
6.484 5.4542 1.5964 2 22038
6.4882 -3.1198 1.3564 0 1669
6.5371 -7.4463 1.3926 0 3275
6.5544 0.6808 1.0826 0 27041
6.5586 6.6834 -1.316 1 21246
6.5641 2.7634 0.16535 0 24574
6.614 -4.7125 1.5301 0 2476
6.626 -0.15384 0.46346 0 190
6.6311 -0.53819 1.2535 1 491
6.6446 3.9077 0.71917 0 23467
6.6512 -0.26946 0.77844 0 284
6.6753 0.15032 0.62293 0 27539
6.6901 -2.8453 0.16879 0 1461
6.713 0.44352 1.2676 0 27293
6.7246 0.17257 0.62758 0 27521
6.7473 -0.86196 -0.15793 0 709
6.7848 5.8399 1.4708 2 21932
6.7917 1.7615 0.3272 0 25817
6.8034 1.6824 0.32683 0 25913
6.8046 4.1895 1.3129 0 23306
6.8103 -0.37479 0.31807 0 355
6.842 3.2855 0.17622 0 24145
6.8526 1.611 0.65675 0 26010
6.8682 -2.9211 0.69632 0 1464
6.9376 -0.3211 0.48564 0 314
6.9392 1.5054 0.49653 0 26153
6.9665 0.64259 -0.16243 0 27114
6.9881 -0.85308 0 0 680
7.0393 4.2213 1.3485 2 23400
7.0811 -5.1071 0.61051 0 2497
7.1006 1.9518 -0.17097 0 25694
7.1337 0.061012 0 0 24
7.1907 -2.1382 0.34984 0 1147
7.2103 -4.0231 1.5556 0 1933
7.2109 5.3847 0.20894 0 22517
7.2178 -2.7779 1.4571 1 1330
7.2445 1.31 0.17092 0 26437
7.2703 1.864 0.70022 0 25847
7.2724 1.1193 0.68647 0 26663
7.2765 -1.825 0.34984 0 1065
7.3104 -1.9247 0.52861 0 1087
7.3148 -3.5724 0.95197 0 1695
7.3243 2.647 0.18081 0 25025
7.3486 -2.2341 0.71657 1 1157
7.3616 -5.9847 1.1095 0 2698
7.3781 1.7809 0 0 25959
7.4558 -2.0775 1.4583 0 1118
7.4946 -2.2528 0.18169 0 1153
7.5378 4.6101 1.0333 0 23326
7.564 1.6409 0.1797 0 26149
7.5713 4.1624 0 0 23699
7.5716 3.1115 0 0 24654
7.5895 1.3492 0.71917 1 26465
7.5992 -4.9595 1.7097 2 2306
7.6215 0.52627 -0.35627 1 27265
7.647 5.6111 1.333 2 22596
7.7996 2.9706 1.3712 0 24884
7.8226 -3.245 1.5956 0 1429
7.8577 0.17695 1.4808 0 27544
7.9637 2.116 0 0 25765
8.0697 0.69749 -0.18805 0 27152
8.0759 -2.6084 1.599 0 1185
8.0859 1.4622 -0.3832 2 26433
8.0935 4.6333 0.4349 0 23556
8.1335 0.13629 0.75893 2 27571
8.1364 -4.5398 -0.65153 0 1924
8.1378 -4.3288 0.214 0 1842
8.1634 0.51789 -0.18991 0 27303
8.2388 -5.3442 1.6134 1 2292
8.3157 0.47803 1.5693 0 27350
8.3322 -0.53152 0.97636 1 399
8.3571 1.813 1.6112 0 26161
8.3676 -0.48394 0.58609 0 369
8.3686 1.2402 0 0 26707
8.4499 -3.5052 1.2857 0 1426
8.4529 -4.1869 0.88006 0 1720
8.4869 1.0827 -0.19864 0 26861
8.5488 0.66531 0.39987 0 27213
8.566 -4.9117 1.8604 0 1993
8.6517 -4.8273 0.23002 0 1928
8.6626 -3.9825 1.7963 0 1592
8.6899 0.7511 1.2258 1 27161
8.6969 3.6916 0 0 24546
8.7651 1.9801 0 0 26072
8.7778 -0.20379 1.0268 0 193
8.8235 -2.0501 1.4883 0 1031
8.8251 1.2293 0.41552 0 26778
8.8606 -0.10207 1.4558 1 132
8.9018 4.5298 1.641 0 23972
8.9134 2.8155 1.7612 1 25380
8.9208 3.0195 0 0 25200
8.9667 4.2443 1.3942 2 24201
8.9759 3.6302 1.5907 0 24718
9.0132 2.4776 1.7612 1 25710
9.0634 2.9204 1.5645 1 25330
9.0682 2.8071 1.3341 0 25428
9.0921 2.3887 1.7712 2 25804
9.1217 3.0574 1.125 1 25234
9.1547 2.9216 1.3505 0 25352
9.1601 3.3666 1.6034 2 24985
9.1638 -1.0117 0.64469 0 624
9.1836 3.1389 1.8286 2 25188
9.2242 1.8599 -1.1004 1 26266
9.2545 3.5247 -0.9239 1 24866
9.2672 2.5231 -1.1232 1 25713
9.2738 2.7541 -1.1313 1 25514
9.2942 2.8469 1.3661 2 25455
9.2982 2.1296 -1.1155 2 26041
9.3048 2.9982 1.3739 1 25328
9.3092 2.8248 1.3672 0 25482
9.3285 1.993 -1.1155 2 26164
9.3928 2.3228 1.823 2 25925
9.462 -0.40981 0.88359 0 300
9.5242 2.3553 -1.1473 1 25902
9.5654 2.3371 1.8552 2 25946
9.5659 1.3597 1.8204 1 26764
9.5682 2.3095 1.1511 2 25966
9.5744 2.5744 1.1594 1 25750
9.6275 2.0569 1.8549 0 26189
9.7055 -1.1298 1.6053 2 657
-14.239 3.2742 1.3631 0 8438
-13.293 -0.49673 0.30884 1 7863
-13 -1.0551 2.4573 0 7776
-12.707 1.779 -1.5004 0 8214
-12.342 4.1104 -0.30202 0 8759
-12.112 6.497 1.6073 0 9716
-11.93 2.2413 -1.706 2 8319
-11.578 8.8265 1.7025 0 10849
-11.459 4.0782 1.1348 0 8842
-11.447 -8.4614 2.3388 0 7563
-11.375 3.7531 -1.6834 2 8741
-11.197 7.7013 2.2327 0 10476
-11.172 -1.1959 1.3139 0 7741
-11.004 2.494 1.5857 0 8430
-10.976 3.7987 -0.26966 0 8805
-10.795 1.7021 1.5359 0 8258
-10.558 -8.09 1.5555 0 7545
-10.558 -0.88474 -0.24599 0 7771
-10.433 0.70024 0 0 8072
-10.346 0.71983 1.7039 0 8079
-10.324 7.1835 2.0664 0 10517
-10.136 -8.6873 2.5151 0 7488
-10.094 3.0705 1.9878 0 8666
-10.048 -1.4927 0.94768 0 7690
-10.029 5.4543 0.79829 0 9755
-10.02 9.3868 0.31878 1 11760
-9.9894 1.2797 1.4154 0 8194
-9.9768 1.8095 1.9104 0 8309
-9.9125 -1.4726 -0.23267 0 7689
-9.7311 2.4136 0 0 8492
-9.6444 -7.4756 2.0048 0 7541
-8.9513 -6.0286 2.0333 0 7604
-8.9033 -6.3437 -0.50981 0 7576
-8.785 6.4627 2.0548 0 10709
-8.782 -7.4424 0.53683 1 7496
-8.7411 8.6289 0.57279 1 12009
-8.4073 -12.242 2.798 0 6950
-8.3309 5.5539 0.93412 0 10368
-8.3217 -8.1066 2.1889 0 7437
-8.29 6.9907 1.2681 0 11275
-8.1366 6.2389 -0.23805 0 10865
-8.0986 8.57 0.54987 1 12331
-7.9718 -6.8326 1.725 0 7487
-7.8859 10.247 2.4362 0 13286
-7.8579 -10.383 2.4533 0 7047
-7.7851 11.718 0 0 13911
-7.7361 6.7201 -1.4402 0 11392
-7.5776 -6.7277 -0.23526 0 7471
-7.4759 8.4827 1.5891 0 12660
-7.3444 6.801 1.4068 2 11713
-7.211 11.944 0.32393 1 14320
-6.7841 -11.522 1.8791 1 6787
-6.7451 9.955 0.56077 1 13834
-6.6933 -8.088 0.73412 0 7166
-6.5649 7.3167 -1.615 2 12564
-6.323 10.903 1.7714 1 14485
-6.2574 8.478 -0.24464 0 13463
-6.1089 -11.412 2.4388 0 6660
-5.9371 12.459 0.6436 1 15196
-5.8689 12.049 1.8836 1 15131
-5.6914 10.015 -0.26743 0 14549
-5.5529 9.1401 1.7571 1 14300
-5.4865 -9.6974 0.51959 1 6731
-5.4252 -12.083 2.4955 0 6394
-5.2931 -12.162 0.61853 1 6348
-5.2238 8.6527 0.70677 0 14324
-5.1246 11.086 1.4282 0 15287
-5.0586 -9.0069 1.9463 0 6728
-5.0414 -10.565 2.2055 2 6479
-4.8831 -10.457 1.3497 2 6442
-4.524 9.5662 1.4872 0 15226
-4.3991 -10.689 2.1778 1 6290
-4.395 10.445 0 0 15576
-4.387 -11.815 1.1758 1 6164
-4.3593 11.356 1.7096 0 15820
-3.8033 -10.06 1.2577 0 6187
-3.4929 11.518 2.2677 0 16361
-3.3141 -10.908 0.79718 0 5955
-3.2994 14.235 0.33925 1 16723
-3.2323 14.147 2.3841 0 16748
-3.2148 9.5969 1.1836 0 16164
-3.2036 10.459 -1.0205 0 16332
-2.9151 0.39103 0.068286 0 8205
-2.7591 11.745 0.28011 1 16710
-2.7368 12.998 1.8669 0 16836
-2.647 -11.698 0 0 5668
-2.6098 10.179 0.73481 0 16597
-2.5767 0.0004493 0.48547 0 7943
-2.5188 -9.6838 0 0 5799
-2.4355 11.409 0 0 16815
-2.389 -9.8976 0.94991 0 5732
-2.205 -10.147 1.4594 0 5642
-2.1099 2.0347 0.41195 0 11911
-1.7829 -1.5368 0.2196 0 7483
-1.6031 -13.132 1.5471 0 5341
-1.5382 0.91259 0.33698 1 10005
-1.465 -14.861 2.8136 0 5282
-1.4481 -2.3183 0.44907 2 6860
-1.3948 -2.6411 -0.13928 1 6630
-1.3659 10.737 2.0393 0 17319
-1.3549 -10.361 1.4686 0 5363
-1.269 -14.622 2.4114 0 5242
-1.2278 10.389 -0.24288 0 17353
-1.1433 -10.389 1.9693 0 5313
-1.123 10.849 -1.0175 0 17415
-1.1024 13.266 -1.242 0 17505
-0.98473 13.805 0.9678 1 17564
-0.84695 -1.3132 -0.21962 0 6890
-0.81128 -12.753 2.0995 0 5182
-0.63055 14.858 2.0901 0 17671
-0.62309 -12.01 1.6901 0 5149
-0.49148 -10.013 0.23276 0 5141
-0.28647 -12.527 -0.29092 0 5056
-0.27236 12.285 0 0 17736
-0.14178 10.688 -0.24817 0 17759
-0.11373 10.51 0.73495 0 17772
-0.10736 9.9209 -1.8693 0 17777
0 -11.776 0 0 69
0 -7.0837 -1.5057 1 75
0.10023 10.442 1.7156 1 17840
0.15965 10.394 1.2156 0 17854
0.21026 11.472 1.3418 0 17863
0.38449 -11.01 0.25578 0 4916
0.40847 -10.039 0.23327 0 4900
0.53472 12.92 -1.8173 0 17927
0.58293 -11.751 -0.54866 0 4878
0.63569 -10.423 -0.48698 0 4854
0.68511 12.9 -0.29993 0 17966
0.74245 11.004 -1.2897 0 18007
0.76671 10.855 2.0504 0 18025
0.80084 10.879 1.5331 0 18032
0.85762 8.1188 -1.9344 0 18124
0.98167 -10.542 1.9948 0 4794
0.98835 -11.745 1.0997 0 4814
1.0417 10.167 0 0 18109
1.0464 4.3087 -1.7314 0 18526
1.0844 11.558 1.9072 0 18085
1.1993 12.037 0.28085 1 18101
1.3081 13.942 2.6384 0 18086
1.3636 14.534 0.33892 1 18082
1.4536 -13.146 1.8588 0 4757
1.4721 -1.1138 0.086086 1 2585
1.6153 0.88176 -0.87106 0 23717
1.8523 -11.965 1.1296 0 4670
2.0709 -9.7931 1.4068 0 4565
2.7306 10.976 -0.26261 0 18545
2.7554 1.9008 -1.6814 0 22836
2.8389 0.072854 -1.4264 1 27512
2.9161 -0.54625 0.13835 1 938
3.0159 14.399 2.7717 0 18428
3.1155 9.7977 1.9371 0 18750
3.1355 10.385 -0.5059 0 18693
3.2479 11.736 0.28271 1 18627
3.2652 -14.407 2.4269 0 4537
3.321 1.3203 -1.6916 0 24747
3.3292 0.69127 -1.5139 1 26221
3.4303 -10.933 1.8825 0 4383
3.4371 10.51 1.554 0 18783
3.6211 11.292 1.1063 0 18764
3.674 -9.9641 0.99079 0 4314
3.7184 -12.61 0.30522 1 4415
3.782 9.8886 0.2458 0 18998
3.8482 -9.8296 0 0 4294
4.0001 -2.7968 -1.6492 1 2436
4.1493 12.085 2.4073 0 18831
4.1719 10.908 2.2003 2 19002
4.2563 9.4443 1.7019 0 19283
4.3881 -2.6189 -1.9955 1 2083
4.7216 10.162 1.841 0 19329
4.7487 -9.8671 1.539 0 4189
4.7756 12.924 1.6112 0 18933
4.7968 12.634 2.5462 0 18987
4.9378 13.486 2.3595 0 18916
5.0379 10.843 1.3982 0 19328
5.0585 -9.7049 0.51037 1 4140
5.096 -3.8555 -1.994 1 2586
5.2245 12.26 1.5585 0 19179
5.3726 -8.4855 1.6501 0 3970
5.5301 2.0325 -1.8385 2 24976
5.7654 10.232 1.9296 0 19703
5.8189 -10.425 1.6779 0 4086
5.8897 -9.7404 1.0619 0 4015
5.9563 11.09 1.4721 0 19599
6.0339 -9.7165 1.6074 0 3986
6.0579 8.1778 0.71166 0 20382
6.1163 8.6769 0.99041 0 20246
6.3178 8.585 1.7512 1 20368
6.4666 12.301 2.6184 0 19560
6.5274 7.7323 1.1833 0 20751
6.7464 8.7857 1.5568 0 20489
7.084 -10.061 0.57381 1 3758
7.1124 7.1223 0.70384 0 21317
7.1409 11.119 -0.3068 0 19992
7.1438 7.1114 0 0 21335
7.2179 10.494 1.79 0 20175
7.379 8.5366 0.52621 1 20821
7.5655 8.3582 2.1241 0 20976
8.0216 9.9626 -0.29696 0 20608
8.1805 10.407 2.494 0 20554
8.2646 8.7182 1.9737 0 21146
8.3384 8.2516 1.0945 0 21366
8.4243 -7.2205 1.8229 0 2802
8.5175 -6.3326 1.4917 0 2553
8.5211 6.8757 1.7989 0 22204
8.6231 7.5996 0.80373 0 21827
8.6712 -5.3096 1.6705 1 2163
8.6961 7.3566 1.332 0 22006
8.8131 9.187 1.1877 0 21180
9.0545 -6.4085 -0.77569 0 2456
9.2042 9.7604 1.2516 0 21118
9.2089 3.9736 -1.1729 2 24485
9.2863 10.259 1.291 0 20970
9.3837 11.584 -1.0424 2 20623
9.4393 -4.5084 0.48782 1 1652
9.5138 5.1936 0.25165 0 23725
9.5506 6.9619 1.1026 1 22617
9.6579 10.99 -1.023 2 20871
9.716 9.3433 1.8944 0 21488
9.9198 10.464 1.0083 1 21140
10.035 0.57684 1.4126 0 27346
10.174 9.3356 1.6147 0 21670
10.224 0.23024 0.47692 1 27536
10.328 1.2572 0.72756 0 26912
10.329 -9.4419 1.9668 0 2896
10.424 10.438 1.7251 0 21321
10.447 0.60057 -1.2238 1 27332
10.499 0.9075 1.9856 0 27164
10.537 4.0806 2.1289 2 24836
10.553 0.85276 -0.2458 0 27191
10.678 -4.0029 2.1485 0 1299
10.745 0.21382 1.0027 0 27556
10.777 -0.71772 1.7746 0 417
10.841 8.5983 2.6069 2 22285
11.012 -10.18 2.1076 2 2912
11.07 -8.0284 -0.63773 0 2505
11.07 -1.7751 1.046 2 851
11.176 -1.5945 -0.2621 0 777
11.181 5.8552 0.88256 1 23873
11.314 0.78122 1.058 2 27272
11.323 3.758 1.3952 1 25258
11.75 6.1115 2.176 0 23903
12.309 6.3098 -0.96724 2 23935
12.37 4.9176 0.62077 1 24756
12.497 -4.8901 1.8861 0 1348
12.572 0.32263 -0.58649 1 27516
12.651 6.8119 0.67006 1 23778
12.76 4.6116 2.2292 2 25035
13.198 0.52778 0.30666 1 27438
13.261 -3.125 -0.31632 0 1035
13.53 0.385 1.9022 0 27506
13.892 -0.52154 0 0 269
13.906 -1.2484 -0.97631 0 527
13.93 -5.0372 1.7323 0 1258
