VERSION .7
FIELDS x y z intensity index
SIZE 8 8 8 8 8
TYPE F F F F F
COUNT 1 1 1 1 1
WIDTH 942
HEIGHT 1
VIEWPOINT 0 0 0 1 0 0 0
POINTS 942
DATA ascii
-4.9445 -0.43955 0 1 2104
-4.8882 -0.77946 0.34613 0 1859
-4.8715 -0.26213 0.80152 1 2251
-4.8324 -0.28879 -0.45164 1 2220
-4.5177 1.3134 0.10923 0 3858
-4.2426 1.5601 0.42173 0 4292
-4.1734 1.5903 0.73376 0 4371
-4.1065 2.3881 0.33218 2 5677
-4.0762 2.0787 -1.312 2 5204
-4.0048 -2.7156 -0.11234 0 1723
-3.9996 1.5771 -0.40111 2 4438
-3.8262 2.7616 0.10955 0 6584
-3.768 2.3545 0.2072 0 5975
-3.694 -2.5048 -0.20813 2 1722
-3.6405 0.75457 -0.34686 1 3436
-3.63 1.8368 0.47575 0 5183
-3.603 0.86766 0 0 3602
-3.5365 2.1115 0.095628 1 5782
-3.5073 2.5314 -0.30246 2 6576
-3.4423 1.1866 0.25461 0 4159
-3.408 3.6266 0.11554 0 8510
-3.2259 2.9705 -0.2045 0 7777
-3.0524 3.7856 0.56867 0 9254
-3.032 -2.6162 0.56282 0 1532
-3.01 -3.9597 -0.34781 0 1173
-3.0095 -3.1836 0.82541 0 1353
-2.8542 -2.5971 -0.089594 0 1495
-2.775 3.5659 -0.42154 1 9412
-2.6953 1.5763 0.21834 0 5703
-2.5935 -3.4542 -0.30205 0 1166
-2.5852 -3.8719 0.76488 0 1099
-2.5163 -1.8048 -0.14441 0 1662
-2.4581 4.1864 -0.11271 0 10733
-2.2696 4.2525 -0.33706 2 11102
-2.2686 -3.572 0.79726 0 1083
-2.1304 -3.3543 -0.18531 0 1081
-2.0045 4.2791 -1.4745 0 11567
-1.9473 -4.3881 0.67471 0 978
-1.9326 4.531 0.34446 0 11849
-1.6432 3.4809 0.35912 0 11546
-1.6307 -4.3339 0.87244 0 941
-1.6069 3.5374 -1.2124 2 11654
-1.5359 -4.6496 -0.11369 0 925
-1.2241 3.4663 0.34296 0 12390
-0.87276 3.1925 0.30877 0 13024
-0.81069 4.5328 0.64715 0 13677
-0.77266 -4.8839 -0.1148 0 869
-0.66765 -3.9266 -0.092472 0 881
-0.58518 4.2608 -0.099853 2 13910
-0.48419 4.6145 0.43288 0 14074
-0.46628 4.8602 -0.80217 0 14099
-0.42231 4.5266 -0.42414 0 14112
-0.24396 4.4189 -1.269 0 14249
0.1185 3.7088 0.69913 0 14485
0.15951 -4.614 -0.10719 0 652
0.25485 -4.912 0.45889 0 638
0.66862 -3.1592 -0.074971 0 482
0.84512 -4.1062 0.78986 0 488
0.88617 3.3188 -0.079752 0 14912
0.9038 -3.345 0.32326 0 423
1.2311 4.3132 -0.52454 1 14926
1.3126 4.3532 -1.1903 0 14940
1.6034 -4.6752 0.46112 0 375
1.7457 -3.7868 0.29158 0 323
1.7935 -3.5094 0.64751 1 262
1.8783 -3.9844 0.72371 0 306
1.8914 4.2642 -1.1053 0 15097
1.9803 3.0435 0.084302 0 15381
1.9986 3.6205 -0.19286 0 15262
2.0751 -3.7329 0.49945 1 233
2.1554 3.9336 -0.52454 1 15252
2.1583 3.4459 0 0 15353
2.1916 -4.1993 -0.2209 2 249
2.2184 -2.3648 0.15121 0 32
2.2716 3.4048 -1.1737 1 15401
2.3336 3.656 0.20227 0 15367
2.3569 -2.7247 0.67877 0 66
2.3766 -3.7234 -0.30888 0 212
2.3968 3.1576 -0.7469 0 15535
2.4679 -2.3143 0.31565 0 4
2.4757 -4.1929 -1.035 0 227
2.4978 2.8703 -0.08834 0 15735
2.5454 3.0292 -1.0358 0 15680
2.5833 -1.9488 0.37842 0 22695
2.6603 3.9874 -0.56054 0 15397
2.7002 2.4605 -1.2344 1 16302
2.7021 3.8532 -1.4685 2 15453
2.8033 3.7609 0.10891 0 15511
2.8076 2.4415 0.4351 1 16445
2.871 -3.5848 0.10663 0 98
2.915 -1.3848 -0.60804 2 22175
2.9201 1.6007 0 0 17895
3.0087 3.8234 -1.0342 1 15574
3.0201 0.21013 0.35403 0 20663
3.0749 -2.8513 0.49039 0 22748
3.1087 -2.4896 0.37157 0 22725
3.1509 -3.6854 -0.22612 0 71
3.1557 -0.70713 0 0 21595
3.1878 2.39 -0.27861 0 16912
3.1903 3.7117 0.80412 1 15720
3.2346 1.3345 -0.081238 1 18613
3.2362 3.1603 0.74316 1 16116
3.2501 -2.2362 0.64816 2 22596
3.2521 3.4668 0.44347 0 15914
3.3037 -2.7889 -0.60763 0 22736
3.3263 -0.97079 0.080449 0 21752
3.3591 2.9552 0 0 16400
3.3742 0.29342 -1.0569 0 20562
3.3796 -0.39342 0.55899 0 21376
3.4139 -2.8494 0.10324 1 22733
3.4261 0.16936 -0.15997 0 20756
3.4713 -3.0907 0.43362 2 22742
3.4733 -2.7638 0.41411 0 22722
3.4928 -0.71951 0.1663 0 21561
3.5183 -1.4876 0.17814 0 22028
3.5554 -0.6564 0.59401 0 21522
3.612 1.0085 -0.88858 0 19403
3.6982 -2.0686 0.79838 0 22366
3.7057 0.41043 0.70247 0 20428
3.7737 -2.8623 0.3312 0 22699
3.7767 -2.394 0.52291 0 22502
3.7868 -0.83605 0 0 21589
3.8054 0.27611 -0.99882 0 20645
3.8316 -0.13246 0.44834 0 21131
3.8349 0.81094 0.18279 0 19834
3.9834 -0.78295 0.66696 0 21544
4.048 1.1945 -0.59316 2 19277
4.1336 2.4068 0.44625 0 17724
4.2608 -0.77356 0.50642 0 21512
4.4742 0.75917 -1.4161 0 20074
4.5693 -1.7769 0.57332 0 21938
4.5898 -0.64179 -0.65133 2 21425
4.648 1.2116 0.5617 0 19527
4.7613 0.89363 0.68083 0 19973
4.7862 0.69737 -0.11229 0 20212
4.8403 0.98038 0.23031 0 19888
4.9315 0.071445 0 0 20911
4.9701 0.10064 0.69865 0 20888
1.5566 -0.69599 0.28014 1 22099
2.2415 -0.70416 -0.4994 2 21794
2.7696 -0.22527 0.45653 0 21284
-13.044 5.0174 -1.3038 1 4377
-12.992 4.9976 -0.97338 2 4378
-12.63 5.0208 -1.268 1 4458
-12.264 5.0849 -1.2386 1 4561
-11.967 -8.0176 2.3666 1 1744
-11.924 -7.9882 1.6784 0 1742
-11.89 3.6056 -0.28846 0 3924
-11.817 -9.2222 1.0482 1 1582
-11.801 -9.2103 0.34756 1 1580
-11.7 3.6219 -0.85647 0 3956
-11.612 3.4485 -1.1301 0 3888
-11.438 -9.7002 1.0487 1 1542
-11.346 -9.5679 0.69214 1 1544
-11.273 5.1399 -0.86638 1 4830
-11.258 -7.4999 1.582 0 1749
-11.018 4.4181 -0.8301 1 4477
-10.97 0.40032 2.0681 0 2648
-10.948 4.5391 -1.3859 1 4560
-10.894 4.3683 -0.54736 0 4478
-10.76 -0.23291 1.2586 0 2385
-10.752 -9.8422 1.3599 0 1491
-10.667 -1.9251 1.5234 2 1818
-10.619 7.9988 -1.2403 2 6766
-10.596 0.53678 1.4911 1 2708
-10.591 5.0903 -0.27282 0 5000
-10.586 8.8228 -0.96362 0 7259
-10.555 1.1205 0.74221 0 2967
-10.551 8.0406 -0.92762 1 6822
-10.507 8.6025 -1.2669 1 7169
-10.488 0.92863 1.7298 2 2885
-10.461 9.0327 -0.64453 2 7444
-10.432 -9.1647 2.2814 0 1524
-10.155 2.5377 1.7198 0 3654
-10.049 -1.5718 1.1894 0 1868
-9.9926 7.615 -1.1721 0 6820
-9.9745 4.7597 -0.5154 0 4972
-9.7268 9.9988 -1.3014 1 8338
-9.671 -6.2756 1.6203 0 1772
-9.66 -0.096105 1.5872 1 2438
-9.6595 7.4981 -0.85507 2 6907
-9.6253 4.5931 1.7522 0 4990
-9.578 -0.87841 0.89734 0 2095
-9.5221 1.5184 1.8167 0 3223
-9.4972 2.8204 1.6277 2 3900
-9.4672 -0.18013 0.8834 0 2396
-9.4113 7.9813 -1.4431 1 7346
-9.3631 0.88673 0.65766 0 2910
-9.3463 8.0703 -1.152 2 7440
-9.2949 -0.87863 1.0918 2 2085
-9.2641 9.1484 -0.60717 0 8142
-9.0936 5.6823 1.254 0 5980
-9.0723 -1.1767 0.85349 0 1955
-9.0617 0.93643 1.0653 0 2954
-9.0249 8.3105 -1.4347 0 7771
-8.9811 8.9186 -0.88507 2 8170
-8.9619 -0.61253 1.0505 2 2193
-8.9071 5.422 1.4655 0 5872
-8.8846 6.6538 0.51764 1 6750
-8.8488 -1.2531 1.0451 0 1915
-8.8319 0.68113 1.669 0 2828
-8.8287 5.2338 0.95753 1 5760
-8.8103 5.435 1.9504 0 5933
-8.7675 -5.5812 1.2154 1 1779
-8.731 8.326 -0.84363 1 7956
-8.7281 0.49409 0.81559 2 2730
-8.6691 5.9537 1.478 0 6373
-8.6689 10.809 -1.2927 0 9264
-8.6322 3.4614 1.7523 0 4495
-8.6184 5.8088 1.2154 1 6289
-8.5504 6.4408 1.5045 1 6783
-8.548 6.2814 1.2405 0 6673
-8.5202 7.6609 -1.3399 1 7646
-8.5107 4.3065 1.3405 1 5185
-8.4989 2.7123 1.0433 0 4019
-8.4194 6.4955 0.99209 1 6891
-8.3698 12.297 -1.3878 0 10037
-8.3638 -6.3761 1.7279 0 1599
-8.3423 4.1611 1.0902 0 5133
-8.3271 3.6502 1.713 1 4738
-8.2215 8.5494 -0.8294 0 8394
-8.2132 -7.9619 0.26558 0 1439
-8.178 -6.8963 0.99803 0 1545
-8.1672 5.1671 1.5878 1 6035
-8.1518 -6.4402 0.96923 0 1574
-8.1239 -0.6251 1.1451 1 2158
-8.0178 3.8829 1.4636 1 5040
-8.0045 6.7476 1.4713 0 7337
-7.9377 5.4881 1.8182 0 6405
-7.9195 0.30977 0.73942 0 2659
-7.8004 6.8552 0.72616 2 7541
-7.7234 -7.0278 1.9674 0 1497
-7.7056 5.7708 1.5816 2 6759
-7.6841 -0.19048 -1.0803 0 2362
-7.6704 5.3033 0.65208 0 6395
-7.6598 3.201 0.58051 2 4594
-7.529 -5.6674 1.5483 0 1609
-7.3156 5.9899 0.8821 1 7184
-7.2395 6.7817 0.69366 2 7875
-7.1924 5.5489 0.42363 0 6888
-7.1855 4.0654 0.5773 0 5578
-7.1628 7.3221 0.71626 0 8322
-7.1598 2.9189 0.17951 0 4525
-7.1118 -9.4171 -0.27398 0 1170
-7.1028 1.7538 -1.0282 1 3628
-7.0958 10.104 2.0285 0 9912
-7.0452 5.5301 1.6875 0 6987
-6.9804 4.5888 0.58414 2 6181
-6.9207 -0.6347 0.97672 1 2097
-6.8756 -1.0964 0.32469 1 1858
-6.7897 4.0812 0.18392 0 5809
-6.7722 7.0817 1.6099 2 8438
-6.7575 6.4802 1.5382 0 8006
-6.7511 9.5596 1.9227 1 9883
-6.7131 10.71 1.4781 0 10451
-6.6799 10.322 1.147 2 10296
-6.6325 -7.2661 -0.68794 0 1321
-6.6289 0.43216 1.0914 1 2772
-6.6002 -11.395 1.8507 0 1066
-6.5733 10.157 0.84601 1 10294
-6.5421 9.4975 1.6208 0 9996
-6.5193 -6.3998 1.5009 0 1432
-6.4303 6.8836 1.1016 0 8545
-6.4153 4.3239 0.72177 1 6287
-6.3994 9.6429 1.3534 0 10176
-6.3585 10.207 1.6901 1 10480
-6.3237 1.0843 1.0541 2 3279
-6.2952 1.7115 0.60863 1 3764
-6.2173 -7.5261 1.372 0 1247
-6.1719 -6.6441 1.4899 0 1339
-6.1425 -5.2722 0.75521 0 1535
-6.108 10.198 1.3901 0 10656
-6.0776 3.0077 1.1141 1 5112
-6.0325 11.461 1.2083 0 11163
-6.0214 3.9103 1.3527 0 6139
-5.9966 -4.707 -0.53308 1 1575
-5.9712 6.6201 1.0426 0 8718
-5.9266 -11.265 -0.29552 0 1018
-5.8935 10.663 1.1366 0 10978
-5.8884 -5.6784 1.344 1 1450
-5.8881 -6.1939 1.2011 0 1358
-5.8877 10.027 1.9104 1 10746
-5.8468 9.5711 1.8427 0 10573
-5.8148 4.6236 1.0441 0 7040
-5.7906 1.7925 -0.56553 0 3955
-5.7776 -5.3802 0.55205 0 1477
-5.7617 -6.4283 0.80537 0 1312
-5.7583 10.358 1.3859 0 10954
-5.7305 -5.0344 1.4372 0 1525
-5.6647 8.9193 1.9908 2 10394
-5.657 10.974 1.7352 0 11245
-5.6362 -1.0497 -0.53487 0 1810
-5.5984 10.796 1.998 1 11220
-5.5605 -7.6815 1.558 0 1146
-5.5517 1.0159 -0.2632 0 3327
-5.4929 -6.2349 0.97172 0 1302
-5.428 2.4565 0 0 4811
-5.4104 -0.085939 0.63279 0 2408
-5.3107 -4.2699 0.63575 0 1563
-5.2818 0.15953 0.24643 0 2615
-5.2273 -6.6332 0.78791 0 1201
-5.2268 5.1615 1.0324 0 8158
-5.2167 -7.7079 -0.65083 0 1102
-5.2038 7.2365 1.0423 0 9798
-5.1986 5.1337 0.5109 0 8152
-5.1511 8.0113 1.3386 0 10330
-5.1457 -4.2388 -0.3109 0 1552
-5.1324 0.92623 0.36469 0 3318
-5.1248 -11.82 2.1166 0 974
-5.1095 -5.0439 1.3527 0 1426
-5.0924 2.7283 0.81194 2 5386
-5.0663 -5.9214 -0.54494 1 1277
-5.0573 -5.3199 0.6848 0 1357
-5.0355 -6.061 0.18295 0 1249
-5.0278 3.7407 0.43821 1 6723
-4.9959 -4.573 1.2761 0 1493
-4.8922 -5.958 0.53908 0 1236
-4.8583 10.775 1.9419 2 11683
-4.8368 -4.3004 1.2194 0 1515
-4.8165 4.6463 1.0995 0 8036
-4.7977 6.2007 1.4771 0 9463
-4.7721 -3.6803 -0.13991 0 1589
-4.7536 9.7077 1.0084 0 11420
-4.6895 -7.3412 1.4312 0 1084
-4.6606 3.4061 -0.94841 0 6625
-4.6386 10.537 1.618 0 11754
-4.5882 -5.6882 -0.3408 0 1214
-4.5816 13.098 2.6143 0 12422
-4.5517 8.4711 1.1246 0 11087
-4.5132 -9.6303 1.7473 0 987
-4.4976 10.632 1.077 0 11875
-4.4746 -4.8746 0.92995 0 1329
-4.4579 9.5906 0.9867 0 11590
-4.3852 8.0498 1.7271 0 11041
-4.3779 -4.2707 1.0048 0 1437
-4.3612 12.944 2.2441 0 12516
-4.3147 5.0145 0.61717 0 8943
-4.2871 -9.7294 0.74346 0 977
-4.2769 5.2384 -0.31537 0 9186
-4.2463 -8.7295 0.4527 0 992
-4.2451 3.7504 -0.13151 0 7563
-4.1857 12.074 -1.4944 2 12426
-4.1851 -3.6329 -0.25844 0 1528
-4.1637 5.8244 1.0062 0 9828
-4.1605 5.3772 1.117 0 9462
-4.1499 3.2998 -0.62001 1 7019
-4.1362 -4.8634 1.0489 0 1275
-4.1247 8.8052 0.45344 0 11566
-4.1168 8.2211 1.7323 0 11352
-4.1115 -3.1915 0.73149 1 1588
-4.0983 4.3127 -0.69574 2 8445
-4.0902 -5.0709 0.30382 0 1216
-4.0669 8.5494 -0.21981 0 11514
-4.0241 -6.4625 0.71025 0 1078
-3.9895 -4.1968 0.13444 2 1355
-3.9099 8.2194 0 0 11516
-3.9094 -7.4306 1.5819 0 1020
-3.8833 -3.4332 0.36245 0 1517
-3.8363 6.7122 0.54061 0 10845
-3.74 5.1667 0.14808 0 9762
-3.738 3.9089 0.12557 0 8429
-3.6364 -9.8358 0.97834 0 937
-3.6322 -6.3116 0.33959 0 1062
-3.5979 -9.2329 1.628 0 950
-3.574 5.6275 0.93691 1 10391
-3.5663 -5.2398 -0.14716 0 1103
-3.5528 6.0922 -1.499 0 10770
-3.5445 8.5867 0.21567 0 11940
-3.5166 -10.138 1.2549 0 930
-3.5054 -7.6528 0.78531 0 981
-3.4693 -6.7332 0.88577 1 1014
-3.4431 -4.2156 0.89426 0 1229
-3.4282 8.7344 0.65613 0 12089
-3.3834 7.1127 1.294 2 11526
-3.3825 4.8776 0.8342 0 9967
-3.336 -6.7618 0 0 998
-3.3302 -7.1645 0.55247 0 982
-3.3284 10.082 -0.2465 0 12555
-3.318 9.3078 1.6235 0 12371
-3.1872 14.605 2.101 0 13434
-3.1867 -3.9748 0.23758 0 1213
-3.1567 -5.342 0.87206 0 1071
-3.1475 5.814 0.6168 0 11060
-3.111 -4.8404 0.40236 0 1085
-3.0706 5.876 -1.4092 0 11194
-3.0116 -5.9724 0.31192 1 1004
-2.9309 11.357 0.8202 0 13126
-2.7508 -6.2932 -0.15946 0 975
-2.7197 8.6522 0.21057 0 12686
-2.7035 -6.8214 1.2055 1 953
-2.6672 -11.426 1.9276 0 905
-2.5976 12.61 -0.90028 0 13502
-2.5632 -10.563 -0.25235 0 907
-2.5464 -6.8287 -0.16921 0 939
-2.4825 4.6512 -0.24587 2 11104
-2.4479 -5.4292 -0.27773 0 979
-2.4271 -4.4221 0.82876 0 1041
-2.3877 -6.1272 0 0 949
-2.3623 -4.5848 -0.48118 1 1011
-2.2927 6.0482 -0.4523 2 12185
-2.269 10.118 -0.24074 0 13381
-2.2541 -5.4097 0.54676 0 969
-2.2242 10.193 1.9656 0 13438
-2.2091 10.123 1.2117 0 13432
-2.1544 9.4828 -1.3667 0 13351
-2.1447 5.8542 0.87623 0 12293
-2.1431 5.3662 1.0887 0 12051
-2.0932 -8.0129 0.19228 0 909
-2.0721 -6.1464 0.15059 0 928
-1.9652 -5.0903 -0.12668 0 947
-1.9261 6.1915 0.45342 0 12717
-1.9256 5.6082 0.69342 0 12465
-1.907 -11.633 1.9367 0 875
-1.8833 -10.52 -0.24812 0 887
-1.8548 9.133 0.21637 0 13526
-1.8542 5.1083 1.0239 0 12321
-1.8355 5.9004 0.28817 0 12715
-1.8162 -7.8921 1.1382 0 902
-1.7577 7.0708 0 0 13190
-1.7386 -11.647 1.655 0 860
-1.69 12.055 -1.1357 0 13891
-1.6577 11.336 -1.0688 0 13856
-1.6285 -9.5776 1.8304 0 883
-1.5658 -5.7274 0.69435 0 913
-1.5643 9.5316 1.3575 0 13769
-1.5284 -5.3442 -0.12905 0 918
-1.5211 7.3839 1.2386 0 13514
-1.4957 -5.1148 0.37264 0 920
-1.4918 5.7807 -0.55698 2 13118
-1.3617 5.5437 -0.13253 0 13215
-1.3541 -9.071 1.0725 0 859
-1.3223 -7.6396 0.90667 0 885
-1.2381 6.9225 -0.32795 0 13668
-1.2361 5.7462 0.41101 0 13451
-1.2117 -9.8974 -0.2315 0 839
-1.164 -8.8534 -0.20732 0 846
-1.0618 9.5866 1.3555 0 14051
-0.95714 -8.8828 1.2556 0 825
-0.94626 -9.5478 0.67092 0 808
-0.93 9.9683 -1.407 0 14110
-0.89613 -11.863 1.9545 0 773
-0.88931 6.621 1.0976 0 13938
-0.88607 -8.693 0.81522 0 814
-0.87545 -6.6587 0.94387 0 847
-0.86979 6.7616 -0.47672 0 13959
-0.85223 6.9609 0.49039 0 13996
-0.84223 5.649 0.93835 0 13851
-0.83574 -9.8699 1.6274 0 786
-0.77771 6.1997 -0.14507 0 13977
-0.76693 -4.9426 0.34976 0 867
-0.72782 -9.6347 1.1299 0 772
-0.55511 -5.601 -0.13068 0 804
-0.52322 -9.4773 0.44264 0 747
-0.51829 8.1026 1.3339 1 14220
-0.49541 -5.8507 0.41059 0 785
-0.41785 -6.8318 -0.31919 1 757
-0.39247 8.989 -1.2645 1 14276
-0.36799 5.0594 0.95576 0 14184
-0.34658 -6.6131 0.15375 0 739
-0.2937 -5.6041 0.65625 0 742
-0.24409 -6.4718 0.91019 0 725
-0.19033 -10.796 0 0 701
-0.18281 -7.8151 1.2843 1 710
-0.18091 -7.7339 0 0 708
-0.15275 -8.6645 1.4237 0 704
7.064e-08 5.9238 0.83253 0 14414
0.19419 -6.7412 0.78866 0 655
0.21645 -8.3214 1.1699 1 658
0.23165 -11.54 1.0768 0 663
0.23562 13.775 1.9362 0 14453
0.25736 -6.8553 0.15927 0 648
0.29018 6.2696 -0.14572 0 14519
0.29892 -6.09 0.28435 0 640
0.31411 6.3768 -0.74662 2 14524
0.31874 9.9761 -0.46546 0 14480
0.32963 5.6823 1.0724 0 14552
0.36442 5.4578 0 0 14564
0.37265 -5.8418 -0.27298 0 624
0.38988 6.1119 0.14219 0 14560
0.42209 6.941 -0.64876 0 14554
0.51939 -7.1583 0.8393 0 612
0.52444 5.1541 0.60584 0 14641
0.53996 7.1645 0.67031 1 14589
0.54583 -7.8648 0.73552 0 614
0.55671 -6.8446 1.2938 0 606
0.60802 -5.223 0.24522 0 566
0.67078 5.4868 -0.77686 0 14681
0.68614 -6.2051 0.58243 0 572
0.69997 -8.3184 0.19381 0 602
0.70278 -5.6103 0.39538 0 560
0.7089 -7.1911 0 0 589
0.739 -7.9511 0.37239 0 593
0.7481 -6.5864 0.30913 0 568
0.75078 -5.4808 0 0 553
0.76928 6.6083 -1.2535 0 14676
0.78066 -5.1376 -0.12065 0 540
0.78551 -7.314 0.68629 0 575
0.79377 -5.5564 0.78883 0 548
0.81116 -5.0473 0.96316 0 531
0.81132 10.332 1.9526 0 14599
0.82171 6.7214 0.95167 0 14686
0.85469 8.6546 1.017 0 14635
0.8549 -7.1694 0.33671 0 564
0.86164 -6.7261 1.1141 1 558
0.90102 -10.382 0.24195 0 599
0.91536 6.2746 -1.0418 0 14733
0.98362 -5.3227 0.76072 0 511
1.0367 5.8024 1.1105 0 14799
1.1791 -8.7901 1.2464 0 555
1.182 -5.1401 0.24596 0 461
1.1822 5.8318 -0.13815 0 14835
1.1867 -7.5267 0.35534 0 534
1.2132 5.5736 -0.39887 0 14863
1.2921 6.8845 1.3198 0 14811
1.3316 7.9918 0 1 14771
1.3613 8.0142 1.3355 0 14781
1.3779 -6.908 -0.16354 0 495
1.3852 11.074 0.52043 1 14692
1.4051 4.9754 0 0 14923
1.4076 -5.4664 1.0635 0 433
1.4159 9.5193 0 0 14741
1.5451 -8.2323 0 0 505
1.6555 -6.8324 0.82211 0 446
1.6677 7.0659 0 0 14885
1.6697 10.59 1.2537 0 14753
1.6964 6.1378 1.1998 0 14920
1.7398 -5.5926 1.1035 0 393
1.7428 -7.4834 0.35832 0 455
1.763 7.3719 -0.35348 0 14888
1.8175 13.549 2.246 0 14715
1.8219 -12.754 2.1166 0 549
1.8225 -9.8621 0.4677 1 509
1.8491 -8.3754 1.616 0 472
1.855 11.133 0.78922 0 14772
1.8647 6.3809 0.46486 0 14935
1.8663 12.283 0.86875 1 14745
1.8677 7.5191 0.3613 0 14895
1.9638 9.4165 1.5804 0 14845
1.9829 -8.5142 1.2286 0 457
2.0298 12.182 1.4442 0 14773
2.0902 -7.4063 0.89994 0 416
2.0942 -9.7436 1.1655 0 479
2.1264 10.332 -1.4825 0 14836
2.1408 -5.1053 0 0 350
2.1802 10.153 0 0 14857
2.2459 9.7671 0 0 14875
2.2928 -8.2956 1.414 2 420
2.3585 -7.4348 0.18109 0 387
2.3711 5.6518 -0.42858 0 15065
2.3718 6.4255 0.47895 0 15015
2.4543 8.5988 0.6253 0 14928
2.4686 6.9288 -1.2084 0 15003
2.4823 6.846 0.33959 0 15009
2.4896 -4.5099 0.36022 0 234
2.5123 11.86 1.1311 0 14851
2.5194 7.8612 -0.38497 0 14965
2.6489 5.2943 0 0 15188
2.6922 -5.3436 0.27903 0 269
2.6926 6.5784 -0.16503 0 15055
2.7052 6.7227 -0.67607 0 15045
2.7822 5.1092 -1.0961 0 15248
2.8249 5.0463 0.81277 0 15277
2.8306 -4.3222 0.11995 1 202
2.8785 11.588 1.114 0 14896
2.9105 -5.027 0.54193 0 229
2.9685 5.5643 0.58838 0 15233
2.9713 -7.5163 -0.56517 2 360
2.981 6.4693 0.66455 0 15132
3.0005 8.8342 0.43509 0 14985
3.0038 9.6619 -0.94397 0 14950
3.015 5.4258 0.28947 0 15271
3.0335 6.5292 1.1828 0 15143
3.0505 3.9927 0.11666 0 15540
3.064 -12.646 2.1377 0 447
3.0648 -4.0143 -0.23553 1 126
3.0945 7.4415 0.37584 0 15062
3.1069 7.0046 0.7149 0 15096
3.1639 -5.7742 0.15287 0 236
3.1653 -6.065 -0.47839 0 248
3.1777 7.3963 -1.3226 0 15078
3.1946 9.6824 -1.4329 0 14973
3.285 -4.2765 0.1252 0 123
3.2879 7.712 1.3774 0 15077
3.327 -5.6011 1.0703 0 226
3.3344 -4.9659 -0.27894 0 187
3.3948 7.3673 -0.18833 0 15129
3.4629 7.0781 -0.73515 0 15177
3.5416 4.0698 0.75822 0 15739
3.5967 5.5279 -0.77124 0 15377
3.6109 -13.533 1.9685 0 426
3.6189 4.9157 -1.0029 0 15497
3.6425 8.0261 1.0307 0 15114
3.6469 4.1177 0.12771 0 15776
3.6477 -3.7106 -0.36385 1 17
3.6596 8.7229 0.21962 0 15066
3.6882 -5.3583 -0.30335 0 173
3.7045 -5.0027 -1.3232 0 140
3.7378 4.1717 -1.4663 0 15808
3.7663 4.8137 1.0042 0 15564
3.7669 10.293 1.8008 0 15013
3.7831 -7.4568 0.5847 0 266
3.8052 -8.7849 -0.44646 0 342
3.8083 -6.2858 1.2075 1 223
3.8188 4.684 0.28183 0 15628
3.8402 7.3581 0.77435 1 15214
3.8578 -4.9342 -0.73245 0 109
3.8941 -4.3737 0.68482 0 55
3.947 -6.917 1.5005 0 230
3.9895 -7.4811 1.3929 0 241
3.9946 -4.2583 -0.82056 0 29
3.9983 8.1723 0 0 15178
4.02 -7.5382 -0.59739 0 239
4.0704 -5.5962 0.6456 0 146
4.1047 6.2655 1.0527 0 15386
4.1229 5.8403 0.66696 0 15462
4.1409 -6.9217 0.18726 0 224
4.1479 9.4986 -0.48335 0 15088
4.1602 6.5604 0.72474 0 15363
4.1733 8.4663 0.88062 0 15183
4.1947 -7.4994 1.619 0 232
4.2284 -7.213 0.97776 0 228
4.2447 -4.7675 -0.89711 0 53
4.2778 8.0184 -0.42382 0 15229
4.2846 -3.6607 0.52577 0 22737
4.3366 -7.1577 0.39028 0 221
4.3373 6.8822 1.3365 0 15359
4.3956 5.6545 1.3494 0 15556
4.4384 5.0433 -0.15598 0 15761
4.4954 -3.1524 -0.38394 0 22616
4.5038 -5.4908 0.83048 0 88
4.5217 11.823 1.4802 0 15028
4.5659 4.1605 1.0149 0 16311
4.5732 10.997 1.9568 0 15063
4.5772 -2.5247 -0.48768 0 22346
4.5849 -7.3688 1.2197 0 218
4.5909 2.2292 0.35687 2 18226
4.6249 -5.5707 0.50629 0 83
4.6277 5.4452 0.16591 0 15698
4.6366 5.5532 -0.50587 0 15663
4.6567 -8.6774 -0.68864 0 238
4.6626 12.418 2.1792 0 15023
4.6658 3.5198 0.8214 0 16904
4.6833 3.6603 0 0 16785
4.7116 7.7249 -1.0581 0 15342
4.722 -7.893 1.2926 0 225
4.724 9.1762 0.4813 1 15203
4.7504 -8.6053 1.3814 0 235
4.8446 -3.9469 -0.58299 0 22727
4.8466 -5.5695 1.213 0 62
4.8498 -2.1501 -0.37096 0 22084
4.8632 -6.2923 -0.5561 2 117
4.8756 -2.0116 0.24596 0 21997
4.9064 -6.3481 0.74852 0 120
4.9099 8.6571 1.6351 0 15294
4.9431 -6.9198 1.3972 0 156
4.9558 -4.5956 0.63055 0 22747
4.9699 -2.4304 0.64696 0 22212
4.9922 9.1108 -0.96923 0 15254
5.0566 -0.81175 0.84141 0 21473
5.0659 -3.6617 -0.43709 0 22653
5.0718 2.1445 0.38506 0 18575
5.0875 -9.54 1.5195 0 240
5.104 7.4598 -1.485 0 15418
5.1252 8.1829 0.22417 0 15354
5.1448 0.67367 0.9776 0 20305
5.1618 -5.0442 1.1857 0 11
5.1649 -2.4348 0.39929 0 22165
5.1731 0.58757 0.24279 0 20407
5.1752 -2.6051 -0.40515 0 22241
5.1783 -7.8592 0.43891 0 196
5.1863 7.8745 0.65934 0 15391
5.1922 -4.0595 -0.30736 0 22715
5.226 5.6003 -0.17784 1 15899
5.2522 0.2284 -0.36762 2 20784
5.2909 10.203 1.6152 0 15211
5.3124 -7.393 0.6366 0 151
5.3299 10.135 -0.26586 0 15218
5.3345 4.9745 0.16935 0 16228
5.411 5.0177 1.0371 0 16253
5.4331 6.944 1.6612 0 15565
5.4378 -1.0039 0.77714 0 21521
5.4444 9.7257 2.1 0 15279
5.453 -5.4207 1.2632 0 14
5.4992 3.9283 -0.1569 0 17068
5.5633 -2.6025 1.1572 0 22156
5.6096 -1.3426 0 0 21618
5.6234 -2.2253 0.56423 2 21953
5.6989 2.4273 -0.14381 0 18554
5.7076 -0.26617 0.80303 0 21175
5.7479 -4.2594 0.1661 0 22677
5.7566 5.2454 0 0 16300
5.7621 1.6262 0.70016 0 19374
5.7691 13.751 2.45 0 15068
5.7956 -5.3107 0.54968 0 22744
5.796 4.191 0.50015 0 17038
5.8046 2.3948 0.7343 0 18622
5.8259 2.7452 -0.14952 0 18304
5.8511 -11.954 1.5564 0 281
5.8657 -10.487 1.6887 0 231
5.8783 -3.9204 -1.3312 0 22559
5.8825 -2.5663 1.0544 0 22069
5.9048 3.2127 0.15607 0 17917
5.9058 -4.9293 -0.71768 1 22732
5.9169 0.085723 -0.27596 0 20910
5.9654 4.8618 -0.35888 0 16651
5.9677 -2.0653 0.73849 0 21850
5.9815 12.412 1.6112 0 15169
6.0069 2.6019 0.15198 0 18519
6.0306 -1.0601 0.42817 0 21500
6.0649 -7.0936 1.5333 0 72
6.0716 2.1417 -0.14948 0 18930
6.0738 2.2613 1.0648 0 18830
6.1207 -0.71252 0.7206 0 21374
6.141 7.7591 0.46146 0 15581
6.1493 2.3913 0.46137 0 18740
6.2045 4.3752 -0.17626 0 17106
6.2138 -3.5471 0.66752 0 22387
6.2186 3.8918 0.34211 0 17498
6.2242 4.8646 -0.737 0 16783
6.2441 -3.4926 -0.50029 0 22360
6.2933 -2.6804 -0.63817 1 22036
6.2984 -4.4167 1.4494 0 22623
6.3161 3.2725 0.83187 0 18061
6.3423 3.0333 0.32785 0 18268
6.343 -0.44132 -0.14762 0 21249
6.3541 -6.8498 0.65334 0 36
6.3806 8.0619 0.9592 0 15584
6.3809 -2.9619 0.49192 0 22144
6.3895 -6.9267 1.5483 0 39
6.4307 -1.5581 0.30857 0 21623
6.4578 1.7026 1.0972 0 19510
6.4942 7.4235 0.45996 0 15747
6.5045 -4.1758 0.36046 0 22515
6.513 0.79624 0.61216 0 20355
6.5187 1.4392 0.46681 0 19782
6.5693 6.567 1.3054 0 16065
6.6005 -7.0757 -0.67664 0 34
6.6142 -4.2756 -0.73478 0 22520
6.6366 4.6799 0.75763 0 17113
6.6367 -0.79373 0 0 21383
6.6653 -7.9377 0.96701 0 79
6.6846 1.1534 0.95334 0 20058
6.691 1.4369 1.2894 0 19820
6.6999 -1.2963 -0.15844 0 21537
6.7049 1.9581 0.48843 0 19314
6.7096 -4.3075 -0.37183 0 22512
6.7454 4.7866 1.3589 2 17099
6.8781 -0.57999 0.32189 0 21290
6.9219 -0.2006 0.8098 0 21108
6.939 -1.5956 0.16531 0 21607
6.9472 -3.6505 1.4786 0 22298
6.9499 -4.635 0.19395 0 22555
6.9909 -0.95887 -0.32907 1 21422
7.0541 -6.9272 1.1562 0 12
7.0666 -4.283 -1.3576 0 22443
7.0793 0.88679 0.4989 0 20335
7.132 1.3811 0.67774 0 19937
7.162 -5.2112 1.4552 0 22662
7.1621 -3.3763 0.92595 0 22166
7.1741 -0.81358 0.16763 0 21366
7.1883 -6.5477 0.22575 0 22743
7.2091 5.0216 0.20398 0 17147
7.2184 -4.9666 0.81745 0 22595
7.2367 9.7656 -0.2822 0 15506
7.2605 5.4118 -0.21024 0 16935
7.3162 3.4241 -0.18754 0 18326
7.4245 -3.5508 0.96242 0 22184
7.4272 1.0385 1.2321 0 20253
7.4654 1.7854 -0.17821 0 19662
7.4713 -2.5129 1.1078 1 21832
7.4799 -0.52042 0.17408 0 21250
7.5344 -1.2095 0.71192 0 21472
7.5605 -2.4711 1.4986 0 21816
7.5849 0.64093 0.17673 0 20577
7.6238 -0.066532 0.89157 1 21016
7.6887 -4.3891 1.4545 0 22388
7.7407 -3.461 0.79107 0 22098
7.7421 3.2736 -0.19516 0 18570
7.7607 -5.2425 0.21744 0 22570
7.7856 -1.5783 0 0 21553
7.8164 -8.1366 1.8537 0 24
7.9587 6.4494 1.93 0 16684
7.9601 -7.7301 1.0352 0 10
8.028 5.4231 1.5917 0 17260
8.035 -2.6263 0.59112 0 21811
8.0622 -2.4803 1.1855 0 21783
8.1811 5.3903 1.1457 0 17343
8.2035 2.7067 0.80593 0 19064
8.2311 5.7721 -0.23341 0 17125
8.2785 -1.2328 1.1763 0 21448
8.3091 -7.1394 0.25434 0 22739
8.3242 -1.4858 -0.19632 0 21505
8.4153 -4.5482 1.5716 0 22330
8.4354 -5.2445 1.6319 0 22478
8.4901 -1.1132 0.79887 0 21409
8.4953 2.2398 0.20398 0 19506
8.5808 0.37315 1.6182 0 20791
8.5809 -7.863 1.3611 0 22746
8.6247 9.194 1.4742 0 15915
8.6433 2.9913 0.85331 0 18971
8.6532 2.0408 1.2495 0 19690
8.7304 1.4563 1.2439 0 20099
8.7432 0.89119 0.61455 0 20479
8.7451 -6.1325 1.5011 0 22621
8.7922 0.89618 1.0335 0 20482
8.8054 -2.5149 0.21261 0 21734
8.8753 1.8509 1.0602 0 19855
8.9105 -4.7858 1.6617 0 22322
8.9341 -4.369 0.46378 0 22210
8.9445 3.6302 1.3567 0 18658
9.0366 2.8388 0 0 19155
9.0799 0.077657 1.4918 0 20941
9.0814 3.7468 0.68696 0 18619
9.25 7.9507 2.2981 0 16490
9.2581 -9.0916 2.4447 0 13
9.3081 8.7838 1.7987 0 16207
9.3404 -0.51567 1.5369 0 21205
9.3693 -4.1206 1.4385 0 22079
9.3995 3.7481 0.23494 0 18690
9.4359 9.109 2.471 1 16146
9.5647 8.9192 0.91451 1 16230
9.6352 6.921 2.2352 2 17062
9.6474 9.644 2.2412 0 16067
9.6514 4.2809 0.7383 0 18467
9.7282 9.9585 1.2988 0 16006
9.7494 7.5815 1.1522 2 16808
9.77 1.6297 0.92409 0 20095
9.8231 9.2698 2.5447 1 16211
9.85 -9.5054 1.2771 0 9
9.8584 0.058501 1.8574 0 20955
9.8598 -3.6394 0 0 21889
9.8738 6.59 0.8301 0 17296
9.926 7.3986 2.034 2 16949
10.056 -3.3528 1.4897 0 21824
10.078 9.3456 0.9611 1 16248
10.127 4.9921 0.26214 0 18185
10.133 -2.2371 0.96812 0 21590
10.197 8.2631 1.5348 0 16678
10.205 1.8234 1.7032 0 20027
10.248 8.1571 0.6108 1 16730
10.266 -4.2668 1.8264 0 22010
10.295 -7.3056 1.7742 0 22637
10.341 3.5121 1.5348 1 19006
10.369 8.7037 1.5831 0 16568
10.404 -6.8917 1.1643 0 22550
10.411 -0.84678 0.24251 0 21282
10.414 -2.9743 1.2665 0 21738
10.434 -4.0242 1.0434 0 21930
10.491 3.4959 0.51568 2 19041
10.522 -6.129 -1.1361 0 22404
10.558 6.4802 1.1558 0 17565
10.606 6.0544 2.0064 0 17783
10.612 -0.40026 1.2419 0 21142
10.629 7.9685 2.1825 1 16928
10.635 6.2346 0.86205 1 17703
10.636 8.0704 0.93362 1 16878
10.667 2.8801 1.2921 1 19468
10.684 6.9037 0.59319 2 17398
10.739 9.9587 0.68301 1 16246
10.786 6.5763 0.8834 1 17586
10.814 6.897 1.8026 1 17445
10.817 -0.31347 -0.25123 0 21106
10.828 6.5629 1.4807 1 17607
10.856 2.0376 1.0305 0 19971
10.926 7.0602 0.30202 1 17396
10.94 9.5132 2.3819 1 16449
10.941 8.3496 1.9342 0 16866
10.961 7.1288 1.529 0 17383
11.009 8.8169 0.65776 1 16713
11.048 1.9401 -0.26043 0 20038
11.121 6.2588 2.4044 0 17821
11.122 7.0937 0.61518 1 17438
11.21 6.0183 2.0904 0 17969
11.254 6.8617 2.1656 0 17592
11.311 6.4567 0.60735 1 17775
11.312 6.1138 1.5037 0 17945
11.344 8.9207 1.6877 1 16774
11.345 6.0477 0.89902 1 17983
11.379 -3.0023 -0.27324 0 21667
11.433 7.7233 2.5995 2 17261
11.436 0.53131 1.8809 0 20776
11.455 8.4827 0.33094 1 16956
11.477 -2.7468 1.101 0 21619
11.584 8.4752 2.7043 0 17007
11.617 8.4464 1.0044 1 17019
11.67 6.795 2.5444 0 17730
11.682 -1.0858 0.2724 0 21312
11.721 -0.065461 1.9257 0 21005
11.727 2.3028 -0.27746 0 19917
11.766 -1.3697 1.6648 0 21375
11.801 -4.67 1.4842 0 21954
11.824 4.4798 2.0774 0 18790
11.831 6.8003 1.9178 0 17761
11.873 5.8523 2.1747 0 18193
11.875 8.9032 0.34459 1 16916
11.911 5.4459 1.8407 0 18400
12.013 6.4929 1.9192 0 17946
12.065 -2.3343 1.1465 0 21538
12.175 -5.6956 2.2084 0 22155
12.18 1.8137 0.86107 1 20198
12.189 7.0971 0.65776 1 17721
12.196 7.9325 2.0447 0 17385
12.208 5.4559 1.2475 0 18452
12.31 -2.9055 0.29366 1 21616
12.316 7.2199 0.33145 1 17699
12.367 8.198 1.3843 0 17320
12.412 -4.016 1.5255 0 21807
12.431 7.0963 1.3354 0 17779
12.452 7.2499 2.025 0 17727
12.465 0.034812 1.7519 0 20966
12.488 8.172 1.7453 0 17363
12.552 7.2618 2.3825 0 17745
12.635 0.58701 0.29366 1 20771
12.717 7.7532 0.69456 1 17584
13.04 2.4828 2.1808 0 19955
13.132 -0.036673 -0.3049 0 20987
13.333 6.5201 1.3846 1 18207
13.361 6.2019 0.68692 1 18352
13.482 -0.15531 2.5403 0 21033
13.499 5.8471 2.4169 0 18526
13.597 0.74827 0.63503 1 20730
13.619 5.9896 0.69381 1 18484
13.941 1.8255 0.32644 1 20298
-13.34 0.86969 -1.8788 0 2759
-13.251 6.9985 -1.7525 1 5316
-5.9978 9.5687 -1.5871 2 10429
-4.9778 6.2067 -1.6912 0 9284
1.7904 6.6311 -1.7981 0 14913
2.2279 8.969 -1.9643 0 14897
2.6862 13.468 -1.9301 0 14826
3.6901 -4.8335 -1.5919 0 127
4.3364 -2.4087 -1.6761 0 22355
4.5639 7.9368 -1.9461 0 15309
5.3617 -3.9012 -1.9013 0 22661
5.4842 6.5683 -1.8188 0 15670
7.238 3.6991 -1.7277 1 18099
7.2691 7.6574 -1.9893 2 15941
8.3498 6.526 -1.9967 2 16797
8.3902 0.48525 -1.7864 1 20719
8.6146 -0.85225 -1.84 2 21327
10.198 0.29733 -1.9222 0 20853
12.786 2.7038 -1.5283 1 19823
