VERSION .7
FIELDS x y z intensity index
SIZE 8 8 8 8 8
TYPE F F F F F
COUNT 1 1 1 1 1
WIDTH 872
HEIGHT 1
VIEWPOINT 0 0 0 1 0 0 0
POINTS 872
DATA ascii
-4.6149 -0.17164 0.75872 0 2461
-4.5769 -0.35619 -0.10658 0 2356
-4.3035 0.61861 0.7143 0 3043
-4.2659 1.4697 0 0 3811
-4.0925 0.11002 0.77134 0 2691
-3.9904 1.0946 0.48388 0 3457
-3.9305 -2.7074 -0.11081 1 2104
-3.8657 1.3689 0.095211 0 3866
-3.5516 -3.0056 0.32534 0 2079
-3.4605 -2.8264 0.62795 0 2084
-3.3314 -3.1328 0.6427 0 2057
-3.2827 3.7287 0.34739 0 7942
-3.2142 -2.355 0.65464 0 2100
-3.1267 -2.222 0.17888 0 2103
-3.0523 3.4451 0.64688 2 7922
-3.0417 2.1164 -0.52079 0 5757
-3.023 -2.9428 0.09795 1 2049
-2.9377 -3.2501 0.40872 0 2019
-2.8993 -3.1342 -0.29856 0 2028
-2.8809 -1.949 0.1622 0 2107
-2.8661 -2.0618 0.58007 0 2102
-2.7499 3.9951 0 0 9017
-2.7079 -3.873 0.55265 1 1808
-2.6842 -2.8345 -0.18205 0 2036
-2.6768 1.7046 0.52138 0 5429
-2.3689 2.0819 0.51814 1 6794
-2.2414 4.2657 -0.11188 0 10068
-2.1071 3.7934 0.60986 0 9870
-1.9436 3.8881 -0.10092 0 10255
-1.9276 -3.4831 0.092425 0 1722
-1.8194 4.2738 -0.21661 0 10791
-1.6838 4.053 0.61682 1 10879
-1.664 4.1728 -1.4018 0 11001
-1.6325 -4.3734 0.65606 0 1543
-1.3224 -3.4503 0.69617 0 1548
-1.2512 3.8371 0.66307 0 11571
-1.101 3.7799 0.091404 0 11817
-1.0684 -2.9645 -0.07316 1 1537
-1.0283 4.049 0.48853 2 12108
-0.8446 4.057 -0.38662 1 12456
-0.82071 3.1918 -1.2869 0 12073
-0.44904 4.2017 0.79615 0 13309
-0.38665 -3.3883 0.56029 2 1392
-0.09002 3.2227 0.30078 0 13917
-0.071755 3.6703 -0.2567 1 13977
0.21518 -3.935 0.36767 1 1124
0.40461 4.9109 0.69253 0 14766
0.41816 -3.8872 0.64232 1 1071
0.46322 4.4902 0 0 14888
0.57985 4.5835 0.75905 0 15033
0.67898 3.9065 0.55725 1 15315
0.77874 -3.6763 0.70802 0 953
0.77956 4.6435 -0.32925 1 15274
0.91898 -3.3615 0.32512 0 874
0.9593 -4.4709 0.75127 0 949
0.9622 3.5004 -0.33868 2 15786
0.98288 3.2088 0 1 15928
1.0058 3.4983 0.16975 1 15842
1.0275 -4.789 0 0 947
1.0688 -4.841 0.81449 0 940
1.3341 3.5645 0 0 16227
1.3671 3.8225 -0.96189 0 16163
1.3722 2.94 0.53305 1 16516
1.5364 3.0141 -1.0557 0 16564
1.7491 4.2186 -1.425 0 16368
2.0128 -3.8257 0.10036 2 713
2.0494 -4.2813 0.89428 0 729
2.0689 4.4006 0.22677 1 16522
2.1664 -3.2447 0.45624 0 688
2.2067 3.7224 -0.2018 0 16677
2.2196 -2.5778 0.23787 1 550
2.3569 -2.8541 -0.87705 0 590
2.3576 -2.9948 0.35559 0 631
2.3664 -2.7973 -0.17087 0 567
2.43 -3.1807 -0.46809 1 637
2.4467 3.0981 0.1841 0 16904
2.5156 -3.6974 0.62851 0 683
2.5198 -3.7036 -0.52384 0 679
2.5492 -3.9922 0.10997 0 696
2.7024 3.2817 0.80097 2 16942
2.919 1.8049 0.56386 0 17266
2.9921 -3.7307 -0.33441 1 615
2.9973 2.8 0.57646 0 17089
3.0073 2.6023 -0.55892 0 17118
3.0189 -3.2136 0.20562 0 465
3.0688 -3.5641 0.88614 0 552
3.0801 -0.60597 -0.072882 0 20628
3.1451 1.8838 0.34203 0 17302
3.1955 0.1021 -0.074228 0 19934
3.2159 -2.8926 0.30246 0 420
3.2399 1.9909 -1.0904 0 17272
3.3156 -1.8439 0.17692 0 21425
3.3989 -1.3471 0.51383 0 20948
3.4111 0.0786 0.64285 1 19981
3.4914 1.7468 0 0 17548
3.5908 0.31226 0.33627 0 19669
3.5941 2.1104 0.38885 2 17329
3.7302 0.27065 -0.97907 1 19744
3.808 -0.54603 -0.089315 0 20516
3.8323 -2.9205 0.33692 0 302
3.855 2.0137 0.20282 0 17473
3.9363 -2.5808 0.2195 0 21717
3.964 0.76765 0.18829 0 19039
3.9706 -2.3305 0.42953 1 21513
4.0338 -0.29339 0.37733 0 20317
4.0718 0.14148 0.47645 0 19923
4.2317 -0.44328 -0.098785 0 20413
4.2449 -1.6678 0.10589 0 20937
4.2517 0.11059 0.80134 1 19966
4.3245 1.116 -0.94932 0 18693
4.357 0.62242 -0.30777 1 19345
4.3814 -1.4337 0.43009 1 20800
4.4368 0.64805 0.73668 0 19338
4.4894 0.26122 0.31446 0 19811
4.6009 1.7763 0.81028 2 18035
4.6453 0.51366 -0.9934 2 19550
4.6813 -1.6531 0.93539 0 20850
4.6936 1.5951 -0.6967 0 18237
-1.4358 2.5659 0.55398 0 9847
0.49848 2.2748 -0.90935 0 15547
0.81166 -1.3035 0.17957 1 698
0.87765 1.1796 0.24156 1 16851
1.5406 2.0466 0.42086 0 16860
-14.886 -0.46522 1.3895 1 2475
-14.854 -0.4642 2.4415 0 2478
-14.747 1.1269 1.3798 0 2854
-14.159 3.9772 2.4162 0 3490
-14.14 4.6846 0.34584 1 3745
-13.975 3.789 1.6932 0 3446
-13.657 3.1579 1.3077 1 3258
-13.569 3.2601 1.6319 0 3295
-13.548 3.5087 0.65263 1 3376
-13.5 3.6602 1.3049 1 3445
-13.5 6.0105 1.7281 0 4369
-13.385 3.843 2.2878 0 3528
-13.322 1.4449 1.8833 0 2941
-13.316 3.947 0.6477 2 3572
-13.178 3.0861 1.9022 0 3269
-12.946 2.5235 0.61509 1 3151
-12.736 -0.73212 2.0959 0 2404
-12.504 3.3153 0.60326 1 3412
-12.503 3.3547 1.8193 0 3431
-12.466 3.5369 2.4414 1 3510
-12.426 3.0223 1.7973 2 3311
-12.393 4.3083 2.1556 0 3837
-12.361 3.8193 1.207 1 3636
-12.243 4.2563 1.5158 0 3833
-12.228 4.3733 0.90809 1 3886
-12.216 3.9314 1.5007 0 3699
-12.211 4.8938 1.8488 0 4136
-12.101 1.3124 2.2933 0 2942
-11.976 4.602 2.1079 2 4045
-11.961 -0.16492 1.9652 0 2549
-11.703 2.6332 1.1192 0 3238
-11.599 4.5714 1.7522 2 4098
-11.588 3.656 1.421 0 3670
-11.352 4.0199 0.8421 1 3868
-11.165 -0.70831 1.0437 0 2385
-11.104 3.3252 1.0814 0 3589
-10.724 2.9076 -0.25796 0 3441
-10.467 -1.1537 0.98243 0 2287
-10.304 1.0903 1.2117 0 2933
-10.301 2.2235 1.7314 0 3211
-10.16 7.5589 0.88549 1 6053
-10.115 8.5296 2.4929 0 6614
-10.106 2.3983 0.48437 1 3281
-10.042 6.6417 1.1232 1 5570
-10.012 6.2536 2.224 2 5362
-9.9838 0.67363 0.93356 0 2830
-9.9327 7.6188 2.0567 1 6185
-9.9308 8.0792 0.59701 1 6437
-9.8644 5.432 1.0506 1 4907
-9.8413 5.643 2.1374 2 5051
-9.8067 5.2848 2.0989 0 4843
-9.6122 8.3 2.0865 0 6714
-9.5511 6.1624 1.3292 0 5472
-9.5441 8.6875 1.2041 0 6949
-9.5386 -0.79763 1.3452 1 2348
-9.5366 5.5817 1.0309 1 5118
-9.4887 5.8101 1.3011 2 5289
-9.4883 1.3639 1.3472 0 3042
-9.4394 2.9473 1.3898 0 3655
-9.3285 7.4601 1.6787 0 6364
-9.3071 -10.661 2.3251 0 2008
-9.2153 5.2499 1.7425 1 5026
-9.2069 -7.6518 1.9668 0 2081
-9.1767 7.7385 1.6871 0 6610
-9.1387 5.4521 1.4956 0 5199
-9.1372 5.7807 0.50422 1 5399
-9.1075 4.5746 1.4324 1 4640
-9.0742 9.0142 1.1933 0 7345
-9.0424 6.5649 1.5704 2 5957
-9.0383 8.8201 2.0748 0 7269
-9.0056 5.6251 0.74249 0 5354
-8.9312 5.7271 1.4911 0 5450
-8.9301 7.5305 1.9192 0 6612
-8.9084 1.36 0.20922 0 3062
-8.8615 -0.82049 -0.83027 0 2323
-8.8446 6.4212 2.0593 1 5960
-8.8268 -1.1026 0.8299 0 2256
-8.7997 8.4918 2.304 0 7217
-8.7767 6.8128 2.0933 1 6238
-8.7757 -1.2505 -0.61986 0 2222
-8.7638 7.2629 1.5997 1 6529
-8.6997 -8.469 1.9947 0 2052
-8.6041 5.7665 1.9515 0 5627
-8.5845 7.0288 0.77583 0 6467
-8.5761 6.4978 0.75239 0 6127
-8.5617 6.1409 0.73677 0 5901
-8.5306 -0.99155 0 0 2272
-8.4711 -0.88288 0.7946 0 2303
-8.4519 5.4845 0.70454 1 5493
-8.4383 6.3196 1.4816 2 6084
-8.3845 5.4783 1.4076 2 5524
-8.3586 1.1792 0.78754 0 3034
-8.3334 5.8308 1.1894 2 5799
-8.3293 3.7977 -0.85405 0 4416
-8.2649 0.89639 0.97218 0 2940
-8.2293 6.4642 0.48801 1 6280
-8.2189 5.7892 0.46882 1 5820
-8.1837 -0.51918 0.95894 0 2386
-8.1178 7.0492 -1.003 0 6720
-8.1067 0.69071 1.1434 0 2885
-8.0948 -0.016956 -0.75521 2 2587
-8.0936 -1.3718 0.38282 0 2158
-8.0849 6.5775 0.72882 0 6439
-8.0388 7.5304 1.2881 0 7082
-8.0145 -7.3183 0.25198 0 2061
-7.9081 7.7172 2.0819 0 7271
-7.8813 5.4146 1.3439 1 5723
-7.858 8.2229 2.143 1 7586
-7.8344 -7.9863 1.0437 0 2047
-7.7624 6.392 1.1759 0 6500
-7.7205 6.4736 0.70454 0 6580
-7.6749 10.229 1.1931 1 8651
-7.648 -0.28445 0.53517 0 2458
-7.6423 10.963 1.2468 0 8972
-7.6254 -1.361 1.0886 0 2146
-7.6002 3.0183 1.1493 0 4116
-7.5511 5.9678 1.8134 1 6318
-7.5302 -5.9002 0.89251 0 2091
-7.5176 -0.62862 0.3518 0 2346
-7.4853 2.7733 0.55819 0 3956
-7.4457 1.5636 1.4334 0 3192
-7.3395 3.5275 -0.37975 1 4527
-7.3251 -0.20973 -0.51243 0 2482
-7.2551 10.474 1.49 0 9000
-7.235 6.4734 0.67887 2 6867
-7.2214 -7.7603 0.49434 1 2030
-7.1887 -0.77206 -0.16786 0 2293
-7.1535 0.81757 -0.16716 0 2955
-7.1255 -8.815 1.0575 0 1937
-7.1236 9.6165 1.9662 0 8709
-7.1182 3.4212 0.73682 0 4534
-7.1136 2.6131 1.2451 0 3946
-6.9849 1.6357 1.1786 2 3270
-6.8958 8.8166 2.1089 1 8480
-6.8942 -0.75992 0 0 2286
-6.8489 -0.81426 -0.4823 0 2266
-6.7935 0.30018 -0.15788 2 2742
-6.7488 -7.4194 1.1729 0 2023
-6.7318 -5.8313 0.62279 0 2074
-6.7183 -6.4652 0.43481 0 2054
-6.7114 3.2981 -0.17362 0 4578
-6.6965 -0.81629 0.7889 1 2263
-6.6748 -0.95115 -0.15653 1 2223
-6.6709 10.316 1.1461 0 9283
-6.609 1.6687 -0.63594 1 3345
-6.5969 -4.378 0.36922 0 2110
-6.5661 3.2267 1.0282 0 4585
-6.5415 5.5162 0.79831 2 6606
-6.5318 0.80663 0.61402 0 2984
-6.451 3.8992 -0.35152 0 5230
-6.4313 2.8849 0.99063 0 4391
-6.4299 -8.8111 1.7921 0 1854
-6.4061 -4.334 0.72158 0 2108
-6.4035 -8.0129 1.4416 0 1927
-6.3974 5.856 1.0142 0 6976
-6.3502 -5.1865 0.38236 0 2083
-6.3162 10.774 1.7553 0 9664
-6.2666 0.71621 1.0363 0 2959
-6.2596 -4.6133 0.18053 0 2099
-6.2354 10.155 1.6748 0 9489
-6.2052 0.80151 0.43751 0 3001
-6.1607 0.88557 0 0 3040
-6.1304 10.047 1.3764 0 9514
-6.0937 8.0223 0.93988 1 8604
-6.093 9.732 2.1633 0 9415
-6.0803 1.1654 1.0171 0 3143
-6.062 1.0722 -0.7199 1 3102
-6.0456 -12.789 2.3242 0 1635
-6.0354 10.577 2.2944 0 9767
-6.0178 -0.59323 0.99347 0 2318
-6.0135 0.12701 -0.84534 1 2663
-5.9824 2.8304 -0.15366 0 4495
-5.9698 1.3804 -0.28574 0 3256
-5.9406 2.604 0.91158 0 4334
-5.8843 -12.636 1.6301 0 1626
-5.8653 3.2058 -0.15519 0 4877
-5.8551 -3.9612 1.1614 2 2109
-5.8517 -0.35381 0.8239 0 2396
-5.8478 9.1615 2.0478 1 9343
-5.8313 -4.4842 0.68629 0 2094
-5.7528 10.218 1.3713 0 9815
-5.7083 1.32 1.1039 0 3261
-5.6995 -8.2527 1.6478 0 1803
-5.6681 9.1702 1.2607 0 9462
-5.6149 8.4128 1.6617 1 9154
-5.6059 -6.6172 -0.40444 0 1983
-5.5826 -5.2498 1.259 0 2058
-5.5795 4.1001 0 0 5998
-5.574 -7.4972 1.313 0 1871
-5.5656 5.6577 1.4953 0 7455
-5.5467 0.29457 -0.12896 0 2769
-5.5437 9.9071 1.3276 0 9841
-5.5356 5.8599 0.94268 1 7634
-5.475 10.876 2.0006 2 10242
-5.4648 -6.2601 1.5656 0 2009
-5.3284 9.5223 1.7927 1 9845
-5.3252 10.885 1.417 0 10344
-5.3169 -7.1514 0.83138 0 1870
-5.2872 -11.607 0.29612 1 1619
-5.2812 -4.8224 1.0051 0 2063
-5.2518 2.5808 -0.27289 2 4577
-5.238 1.021 -0.1239 0 3150
-5.2307 -8.2741 1.6082 0 1755
-5.1954 -3.9264 0.1512 0 2098
-5.101 1.7405 0.8855 0 3801
-5.0965 6.0997 0.55582 0 8178
-5.0928 1.7546 -0.12506 0 3810
-5.0751 11.728 -1.4944 1 10736
-5.0619 0.92447 0.48007 0 3122
-5.0618 11.52 0.87991 1 10697
-5.0492 9.8121 0.77165 0 10153
-5.0277 12.198 0.61527 1 10898
-5.0108 -3.3254 0.56107 2 2111
-5.0106 -4.3404 1.0891 0 2075
-4.9414 8.3722 1.5972 2 9644
-4.93 -9.8279 1.2858 0 1660
-4.9217 -4.2124 0.15041 0 2076
-4.913 -4.7827 0.31975 0 2050
-4.9112 -8.3509 1.1329 0 1737
-4.8974 10.319 1.6052 0 10449
-4.8715 5.5334 -1.389 0 7951
-4.838 2.7361 -1.317 1 4998
-4.7996 12.147 1.5274 0 11034
-4.7803 -3.2536 0.95003 0 2106
-4.7207 13.526 -1.3365 0 11380
-4.7167 9.3011 0.97295 1 10210
-4.699 13.585 -1.0052 0 11406
-4.6536 5.9137 1.2363 0 8453
-4.647 -3.6831 0.27652 0 2089
-4.6212 4.6438 0.76613 0 7398
-4.5688 -4.0979 0.28621 0 2067
-4.5597 -5.8131 0.34453 0 1902
-4.5498 4.2383 0 1 7047
-4.4961 2.2909 0.47078 0 4675
-4.4553 4.9725 1.2579 0 7873
-4.4471 4.3916 1.1776 0 7327
-4.437 -3.0563 0.88518 0 2105
-4.3673 -5.214 -0.4756 0 1970
-4.3319 -7.3161 1.1949 0 1739
-4.327 -12.689 2.2026 0 1525
-4.3203 7.5712 1.4322 1 9765
-4.2515 -7.6259 1.4344 0 1724
-4.244 -9.9259 0.25063 0 1578
-4.2411 -5.6384 1.1592 0 1879
-4.2045 12.156 1.5042 0 11420
-4.1581 -6.5774 -0.36288 0 1753
-4.1228 9.0216 1.6296 2 10579
-4.1014 8.1477 0.63785 0 10237
-4.0859 13.306 -1.2986 0 11694
-4.022 -7.9039 0.41357 0 1666
-3.947 -5.5071 -0.47379 1 1823
-3.8735 10.999 1.088 0 11367
-3.864 -11.028 1.6422 0 1531
-3.8508 8.6898 1.7908 2 10680
-3.8415 8.4724 1.0879 0 10598
-3.8171 -6.4906 0.35115 0 1736
-3.8062 7.1917 1.5331 1 10059
-3.7627 -3.6629 0.3672 0 2051
-3.6925 -5.4151 0.15217 0 1792
-3.6338 12.081 1.7731 0 11755
-3.6128 9.3774 1.4123 0 11115
-3.6053 -6.1673 1.004 0 1734
-3.5654 -3.8544 -0.1219 0 2029
-3.5646 -8.4098 0.42596 0 1577
-3.5484 5.0903 -0.87206 0 8955
-3.4376 3.7911 -1.3397 1 7810
-3.4287 7.9883 1.6379 0 10784
-3.41 4.7125 0.8175 0 8818
-3.3441 8.9158 1.5645 0 11194
-3.316 -7.2797 1.1242 0 1620
-3.2554 12.661 0.3035 1 12075
-3.2419 4.9485 1.1146 0 9234
-3.2145 13.651 0.65403 1 12247
-3.121 -6.7514 -0.34686 2 1623
-3.1035 -3.9567 -0.11675 0 1901
-3.0534 5.3858 -0.5776 1 9772
-3.0273 7.8576 0.98473 0 11113
-3.002 -8.9825 1.3311 0 1521
-2.9962 -10.937 0.79299 0 1504
-2.8931 -5.8952 -0.30624 0 1647
-2.8902 8.524 1.0526 0 11470
-2.8756 6.1472 -0.63315 0 10484
-2.8711 -8.3477 0.82358 0 1528
-2.8602 5.2921 -1.2787 1 9978
-2.8559 5.9688 -0.30857 0 10409
-2.8032 -5.6718 1.192 0 1655
-2.7945 13.638 1.9565 1 12498
-2.7939 11.001 0.79369 0 12104
-2.748 -11.307 1.9117 0 1496
-2.7465 4.685 0.37975 0 9658
-2.7425 11.057 1.601 0 12156
-2.7352 13.954 2.6792 0 12570
-2.7344 4.6943 0.7635 0 9690
-2.7207 5.6032 -0.43556 0 10357
-2.6618 -4.3199 0.71312 0 1744
-2.6492 4.7055 0 0 9806
-2.6177 -5.6214 0.8715 0 1627
-2.6038 9.3447 1.3633 0 11924
-2.4905 -5.4675 0 0 1618
-2.4889 -8.7781 0.42549 0 1507
-2.4415 -8.0714 0.98612 0 1514
-2.4189 7.2631 -1.4423 0 11523
-2.3994 5.3314 0.13574 0 10617
-2.3742 -5.0591 0.12975 0 1630
-2.2988 -4.6513 -0.24195 0 1652
-2.235 -7.55 0.73459 1 1512
-2.2254 6.1475 -1.3897 1 11300
-2.1602 -6.5279 0 1 1519
-2.1422 -7.6418 1.4953 0 1506
-2.1244 8.4639 1.6442 0 12136
-2.1167 6.179 0.76381 0 11447
-2.1072 4.7958 -0.24428 0 10688
-1.8974 5.3403 0.52874 1 11347
-1.8788 -6.5565 0.63631 1 1508
-1.8562 -8.499 1.4293 0 1487
-1.8544 -8.0325 -0.1914 0 1492
-1.8423 14.146 2.0049 0 13106
-1.778 13.937 0.3262 1 13122
-1.7294 4.9549 0 0 11386
-1.7203 14.513 2.7536 0 13207
-1.6954 5.1993 -0.63953 1 11551
-1.6803 5.2523 0.12803 0 11608
-1.6302 -6.7956 0.3259 0 1494
-1.6236 7.5799 1.0894 0 12422
-1.5927 -5.4396 0.93122 2 1510
-1.581 6.1485 0.44393 0 12079
-1.579 -7.3278 -0.17403 1 1484
-1.5144 -6.3127 0.60566 1 1495
-1.5109 5.187 -0.12543 0 11813
-1.5047 6.5595 0.94582 0 12299
-1.4984 -7.9529 0.75503 0 1471
-1.4823 7.6761 0.18151 0 12579
-1.4745 8.0101 0.75986 0 12655
-1.4394 -6.315 -0.30205 0 1490
-1.3422 -9.9533 1.6501 0 1413
-1.3201 14.791 0.69251 1 13441
-1.3193 5.9857 0.57184 0 12369
-1.279 8.6404 0.40733 0 12951
-1.2352 8.4982 -1.0042 0 12966
-1.2208 -5.7433 0.27382 0 1482
-1.2201 -5.5863 0 0 1485
-1.1648 -5.6444 0.80999 0 1477
-1.096 7.868 0 0 13025
-1.0776 -5.1403 0 0 1480
-1.0717 -4.9069 0.23422 0 1486
-1.052 6.9646 1.1572 0 12935
-1.0368 6.352 0.60045 2 12822
-1.0134 12.17 0.85396 1 13488
-1.0002 -5.3087 -0.25192 0 1470
-0.94222 12.162 2.0041 1 13543
-0.94156 -5.0802 0.84886 0 1467
-0.8858 11.864 0.27621 0 13555
-0.85803 11.97 2.2611 2 13589
-0.82857 -8.1009 -0.37975 0 1380
-0.76149 14.878 1.3898 0 13737
-0.68854 -5.4734 0.38575 0 1404
-0.65257 -6.188 -0.14446 0 1384
-0.63406 8.8456 -0.62014 0 13573
-0.57355 -6.3145 0.59154 0 1367
-0.54968 6.3726 0.59674 1 13467
-0.53567 -6.3131 0.89043 0 1360
-0.53233 -7.9102 1.1142 0 1341
-0.52381 9.6718 0 0 13707
-0.52188 -8.1142 1.3359 0 1335
-0.47573 -7.0692 0.66102 0 1339
-0.41065 -7.4146 -0.17241 0 1325
-0.40734 14.583 2.0503 0 13920
-0.32859 10.633 0 0 13886
-0.29433 -11.092 1.0352 0 1282
-0.28451 14.553 2.7425 0 13993
-0.27465 6.0483 -0.8509 0 13768
-0.26401 -8.1738 1.5408 0 1295
-0.23729 -6.7277 0.9461 0 1300
-0.22958 -9.7418 1.836 0 1277
-0.14066 10.603 -0.74151 0 14018
-0.11672 7.1137 1.1689 0 14012
-0.10114 -6.8173 0 0 1264
-0.036626 -11.045 -0.25643 0 1245
-0.015481 7.392 0.17162 0 14113
0 -9.3255 0.87003 0 20078
0.057499 -5.0682 -0.23636 0 1222
0.063813 5.0777 -0.71368 0 14220
0.071025 -8.6581 0.80779 0 1231
0.078059 -5.4538 0.76657 0 1220
0.14 7.6387 0 0 14274
0.17573 -6.8479 1.1254 0 1188
0.17999 -7.8112 1.2837 0 1196
0.19484 5.9044 -0.27549 0 14383
0.24129 6.1964 -0.8715 1 14422
0.29498 5.2433 0.98945 0 14573
0.30198 -6.1306 0 0 1133
0.39541 -6.5021 0.45551 0 1113
0.42043 -13.231 1.8605 0 1169
0.45034 -8.2355 0.96452 0 1125
0.4727 -7.4306 0.69465 0 1111
0.56229 5.0367 0 2 14937
0.64646 -5.2955 0.49772 0 1057
0.69043 12.958 0.90739 1 14541
0.72988 -9.3156 1.3132 0 1098
0.77384 -7.8359 0 0 1075
0.79975 12.891 1.5104 0 14615
0.82554 -7.1132 0.66808 1 1066
0.83684 7.113 -0.16628 0 14969
0.87311 9.8804 -0.92539 0 14792
0.87825 6.9423 0.65284 0 15028
0.88424 5.8954 0.69714 0 15168
0.95092 -7.9865 1.1304 0 1061
0.98324 -5.6983 0.95003 0 988
1.0247 8.7096 1.6523 0 14981
1.0404 -6.7286 0.31751 0 1009
1.058 -6.1314 0 0 986
1.1115 7.2554 0.17041 0 15180
1.1312 -6.4417 0.15185 0 982
1.2337 -5.2228 0.1246 0 923
1.3105 9.9008 0.46574 1 15058
1.3287 -8.2677 1.3758 0 1002
1.4003 14.463 1.3557 0 14858
1.4658 8.8734 -1.264 0 15253
1.4799 8.9587 -0.42344 0 15257
1.486 12.016 1.4159 0 15013
1.5438 -7.8542 0.55973 0 963
1.5712 8.4529 -0.19961 0 15375
1.5743 6.0741 0.58541 1 15725
1.6209 -4.7724 0.47022 0 808
1.6393 12.959 0.60912 1 15025
1.6484 -7.2672 0.52108 0 934
1.685 -8.4401 0.80296 0 959
1.7 -9.0578 0.85981 0 968
1.7916 -14.303 2.0258 0 1054
1.8521 6.1153 1.2039 0 15922
1.8671 5.1718 0.64301 1 16177
1.9125 -8.9135 1.2812 0 948
1.9334 -5.0105 0.12469 0 773
1.965 -7.6255 1.1067 0 886
1.9966 -7.1461 0.69223 0 864
2.0064 6.7647 0 0 15888
2.0312 6.9192 -1.0135 1 15869
2.0371 -5.8234 1.1624 0 798
2.0435 -11.058 1.0491 0 973
2.0768 6.3805 0 0 16013
2.0926 6.7641 0.99509 0 15945
2.1192 -4.7376 0 0 746
2.1824 10.232 0.48791 1 15516
2.2178 -11.816 1.9753 0 969
2.2302 -7.7215 0.74982 0 849
2.2571 -4.8602 -0.49994 0 738
2.2836 8.0378 1.1743 0 15831
2.2966 -4.4591 -0.35074 2 716
2.3724 -9.5506 1.8541 0 902
2.3754 7.229 -1.0694 0 16022
2.3796 5.1809 0.5319 0 16501
2.5063 11.914 2.0002 0 15507
2.5801 10.317 -0.24692 0 15683
2.6119 6.359 -0.32059 0 16355
2.6274 -4.659 0.49902 0 709
2.63 5.9998 0.30549 0 16444
2.6922 -5.7031 0.58838 0 735
2.769 -10.025 0.97035 0 870
2.7796 -4.19 -0.4691 0 689
2.8306 -6.2779 -0.32115 1 744
2.8381 -5.7552 0.90184 0 720
2.8426 6.2346 0 0 16489
2.88 -5.9709 -0.61847 0 724
2.909 -6.6081 0.16763 0 750
2.915 7.6537 0.5727 0 16250
2.9972 4.055 0.70867 0 16846
3.0203 -7.317 1.3005 0 762
3.1308 6.371 -0.49639 0 16544
3.1418 -5.8472 0.46416 0 712
3.1494 -13.333 2.2509 0 925
3.1547 -5.4117 -1.3315 0 708
3.1798 -5.3832 1.0272 1 704
3.1845 7.6805 1.366 0 16373
3.1911 4.1124 -0.36399 0 16886
3.2202 -6.727 1.2253 0 728
3.2347 7.9383 0 0 16344
3.2636 6.1795 -0.81724 1 16589
3.3569 5.2029 -0.72408 1 16746
3.3937 -9.8954 1.4702 0 805
3.4466 -9.7709 0.96663 0 795
3.5389 -7.2785 0.37742 0 723
3.5889 7.6894 0.19701 0 16514
3.6181 7.8772 -0.80872 1 16499
3.6389 4.1906 -1.1797 0 16974
3.6772 -4.1754 0.51908 0 527
3.7263 6.3285 -0.68517 0 16670
3.7531 -9.567 0.47925 1 770
3.7796 -4.3144 -0.26748 1 531
3.8498 8.9219 1.8308 0 16426
3.8516 9.0694 -0.22877 0 16398
3.8679 -4.8522 -0.28938 0 622
3.8704 -9.866 0.98874 0 771
3.8757 9.1261 -0.92502 0 16397
3.8767 8.5027 1.5353 0 16495
3.9834 5.7635 -1.1511 0 16797
4 7.8471 -0.82172 0 16562
4.0185 4.4412 0.41882 0 16999
4.0222 4.524 1.1405 0 16989
4.0246 -5.5272 -1.4533 0 663
4.0594 -9.4394 1.936 0 755
4.0921 9.6356 0.97667 0 16401
4.1001 5.9323 1.1848 0 16803
4.1782 4.925 -0.90769 0 16957
4.183 -4.6637 0.58448 2 500
4.2335 -4.5335 -0.43375 1 470
4.2385 3.6909 -0.39301 0 17115
4.2595 9.6393 -1.4811 0 16449
4.2669 8.2529 1.3057 0 16573
4.3783 6.2182 -0.70951 0 16811
4.3887 6.3122 -0.17849 0 16805
4.3888 5.3297 -0.97031 0 16937
4.4144 5.2647 -1.4604 0 16953
4.469 6.6681 0.74889 0 16774
4.4944 4.2725 -0.57853 0 17080
4.5038 -13.132 0.64742 1 803
4.5039 -5.6158 0.67161 0 616
4.5054 -2.575 0.36287 0 21468
4.5464 -3.4646 -0.3997 1 298
4.5702 -4.8651 0.62275 0 466
4.6023 5.897 -1.4094 0 16896
4.6118 4.4864 0 0 17074
4.6399 -6.45 1.3054 2 668
4.6913 6.083 -0.17835 1 16880
4.6955 -4.6889 -0.46402 0 430
4.7175 2.917 -0.12877 2 17262
4.7269 -9.4476 0.98558 0 718
4.7399 5.3953 -1.3531 0 16980
4.7559 4.6524 -0.6207 0 17071
4.8179 -3.6716 0.28248 1 300
4.8323 3.029 0.66694 0 17247
4.8557 9.0105 0.95493 0 16611
4.8666 6.2357 -1.2996 0 16890
4.8704 -1.1513 -0.11619 0 20684
4.8997 6.2398 1.3034 0 16901
4.9277 2.7597 0.26338 0 17391
4.9307 -4.8674 0.3231 0 428
4.9458 -1.2763 0.71785 1 20711
4.9635 5.0881 -0.16503 0 17045
4.976 -8.4745 1.3812 0 706
5.0045 0.86443 0.11791 0 19151
5.0532 3.5488 0.43179 0 17190
5.0534 2.83 -0.40501 2 17390
5.104 4.2646 -0.62052 0 17130
5.1318 -5.998 0.73645 2 556
5.1493 8.4062 0.68933 0 16707
5.173 9.7949 -0.25718 0 16594
5.1972 8.7045 0 0 16684
5.1984 -6.2548 1.3362 0 585
5.2905 3.9477 0.77194 0 17166
5.3064 -3.5537 0.44658 0 73
5.37 1.7573 -0.3951 0 18305
5.4056 -1.1303 0.38617 0 20648
5.4322 -4.1397 1.2868 0 307
5.442 0.47324 -0.12682 0 19662
5.5097 7.8775 1.5794 1 16809
5.5157 3.6369 0.3081 0 17212
5.5747 -2.5335 0.57129 0 21122
5.5763 -3.8282 0.79099 2 121
5.5772 -5.8689 -0.56614 0 457
5.5879 -6.0175 1.3492 0 474
5.5924 0.032213 -0.12984 1 20053
5.593 2.8412 0.73361 0 17526
5.6249 0.95543 0.93738 1 19177
5.7035 7.577 -0.44226 0 16857
5.7084 -0.59796 0.80665 0 20415
5.7234 -6.6142 1.437 0 544
5.737 -2.008 0.85424 2 20840
5.7373 -0.31675 0 0 20266
5.7388 -9.3942 1.8086 0 703
5.7427 -5.1653 0.17933 0 419
5.743 -5.6991 0.94616 0 429
5.7547 1.8632 0.70736 0 18332
5.7715 -4.48 0.8544 0 327
5.8109 4.9437 -0.5335 1 17125
5.8402 3.5189 0.63612 0 17293
5.8501 -2.2985 1.1842 0 20941
5.8659 6.9957 0.21196 0 16949
5.877 -1.0521 0.13861 0 20597
5.937 8.3296 1.6805 0 16817
5.9844 1.5622 0.43249 0 18671
5.9866 -9.7463 1.3376 0 701
5.9867 -8.9092 -0.75058 0 685
5.9872 -2.2923 0.90101 0 20912
6.0317 5.5367 -1.1507 0 17093
6.035 -5.8873 1.3852 0 427
6.0372 7.4209 0.89251 0 16932
6.0428 4.0103 1.3664 0 17210
6.0541 -6.2955 1.2275 0 449
6.0676 3.1923 1.1264 0 17466
6.0691 -8.9203 1.0066 0 682
6.074 8.2626 -0.7171 0 16838
6.0809 -1.7978 0.29571 0 20760
6.0912 -7.0742 -0.65278 0 548
6.0922 -8.9543 0.50506 1 681
6.0926 4.1717 0 1 17196
6.0933 0.3172 0.56924 0 19840
6.097 -0.55058 0.86037 0 20369
6.1159 -4.8007 0.90923 0 340
6.1411 -3.2324 0.64746 0 21334
6.2058 -6.7606 1.5077 0 482
6.2297 -1.3026 -0.44505 1 20645
6.2521 -4.7922 1.4842 0 315
6.2551 -4.2159 0.70375 0 84
6.2875 -7.8875 1.4176 0 625
6.3171 3.0253 1.1507 0 17622
6.3309 -0.49714 0.59246 0 20336
6.3365 -1.0002 0.90156 0 20553
6.3489 7.8936 0 0 16921
6.3807 7.0123 1.3324 0 17005
6.4036 -5.6257 1.4004 0 413
6.4091 1.8717 -1.4192 0 18511
6.4118 -4.1607 1.4401 0 12
6.4141 -3.376 -0.50685 1 21328
6.4473 10.386 -0.28382 0 16718
6.4605 3.8696 0.88065 0 17304
6.4678 -0.92742 0 2 20517
6.47 -4.3509 -0.91178 1 21770
6.4931 1.695 -0.31295 0 18665
6.5001 -1.7368 0.7868 0 20721
6.5071 10.349 1.1405 0 16728
6.5358 3.8116 0 0 17336
6.542 4.2063 -0.3627 0 17225
6.5504 -1.0164 0.30913 0 20545
6.6037 -3.4289 1.0457 0 21310
6.6274 7.4541 1.6387 0 16988
6.6915 3.1104 1.2123 0 17686
6.7194 12.469 2.3271 0 16612
6.7527 -5.3694 -1.2125 0 348
6.8051 1.5661 -0.4883 0 18843
6.8656 7.7683 1.2124 0 16983
6.8984 -5.6463 1.4646 1 380
6.9204 5.616 -1.2526 0 17136
6.9609 2.6386 -1.223 0 18050
6.9706 4.7426 1.3852 0 17200
6.9972 -10.285 2.3437 0 684
7.002 -1.212 0.99871 0 20584
7.0207 -1.6376 1.3583 0 20680
7.0417 4.1595 0.76301 0 17319
7.0506 -0.55366 0.32981 1 20335
7.0554 9.2047 -1.082 0 16872
7.0584 -6.6515 1.3631 0 421
7.0768 1.9559 0.51341 0 18591
7.0787 -8.9375 1.8731 0 630
7.1037 -4.6397 1.1924 0 24
7.1188 0.85139 1.0076 0 19503
7.1556 5.8735 -0.64734 0 17135
7.1798 -5.3732 1.4734 0 280
7.1813 5.7594 -0.21373 0 17139
7.2406 7.8631 1.5022 0 17015
7.2639 -4.0132 1.3634 0 21415
7.3251 -3.1501 1.5023 0 21051
7.3318 -1.5986 0 0 20661
7.35 -2.7905 0.73347 0 20904
7.3865 4.6013 1.2231 0 17256
7.4075 0.19268 -0.17204 0 19960
7.4142 -1.7294 1.07 0 20678
7.4253 3.6908 0.7736 0 17562
7.4445 5.5895 0.65097 0 17161
7.4561 -4.35 1.4182 0 21503
7.4726 -1.4485 -0.35497 0 20622
7.5034 5.4296 1.5217 0 17177
7.5112 7.0956 0.72254 0 17085
7.5118 1.0317 1.2457 0 19399
7.5197 7.1484 0.24088 0 17082
7.5518 4.7962 -1.2573 0 17234
7.6472 0.53206 -0.35748 0 19752
7.6934 -1.5638 1.2898 0 20638
7.7274 -10.612 0.6122 1 662
7.7326 -0.6738 1.2752 0 20361
7.7427 1.1544 -1.4749 0 19316
7.7814 -3.5642 0.7985 0 21133
7.826 5.9467 1.8519 0 17156
7.8329 -6.6029 1.6831 0 401
7.8693 -2.601 0 0 20805
7.8775 -5.717 0.22598 0 231
7.8856 2.8873 -0.78345 1 18104
7.9055 -0.94687 0 0 20458
7.914 -4.4921 1.4951 0 21458
7.9332 -2.0975 -0.19051 0 20718
7.955 7.1351 0 0 17101
8.0285 4.8699 1.0981 0 17286
8.0309 3.2056 -1.2153 0 17962
8.1 1.7913 0.58009 0 18901
8.2809 -5.9746 0.23708 0 221
8.3341 5.9578 1.6831 0 17185
8.4348 -11.873 -1.0184 0 672
8.5077 -0.14999 0.79385 0 20144
8.5933 4.7144 1.8467 0 17418
8.5961 1.1027 0.40416 0 19450
8.607 6.5024 0.25044 0 17158
8.71 -11.261 0.66391 1 634
8.7817 -0.38495 1.4442 0 20226
8.7852 2.1546 0.21001 0 18757
8.8951 -1.3802 0.20899 0 20544
8.9464 -3.6346 1.5865 1 20976
8.9566 -0.41612 0.41813 0 20234
8.9773 -0.41708 0.83844 0 20235
9.1339 0.42275 0.63939 0 19863
9.1691 -2.45 1.5593 0 20723
9.1742 -10.417 0.64732 1 526
9.2285 -1.7071 0.65627 0 20609
9.2311 0.42726 1.0807 0 19865
9.2641 2.446 0.44683 0 18652
9.4056 8.1906 0 0 17116
9.4327 2.2872 0 0 18773
9.5531 1.5644 -0.67692 0 19204
9.5904 6.525 1.0822 0 17198
9.626 -3.2751 0.94861 0 20820
9.6934 -2.3522 0.93059 2 20693
9.7514 -6.5576 0.54801 1 21777
9.7596 -0.26238 1.604 0 20172
9.7731 -1.9227 1.6364 0 20629
9.8884 1.5892 0.23253 0 19228
10.015 5.5334 1.0675 0 17408
10.224 8.9035 1.5855 0 17117
10.286 -1.2011 0 0 20449
10.31 -2.1557 1.4802 0 20649
10.33 -1.8197 1.7233 0 20591
10.34 2.0362 1.7314 0 19029
10.533 1.5046 1.4953 0 19360
10.635 5.5951 -0.84029 0 17462
10.636 -1.841 0.50338 1 20583
10.68 3.392 -0.52257 0 18356
10.874 6.2581 1.4672 0 17351
11.199 4.0606 1.9571 0 18140
11.431 -3.1273 2.2329 0 20735
11.782 4.0431 0.28921 1 18224
11.789 -4.0479 2.0479 0 20829
11.874 -5.023 0.29933 1 21025
11.874 -1.1789 1.9604 0 20397
11.953 -6.2913 1.8983 0 21335
12.028 -6.2879 2.2298 0 21322
13.467 1.6464 0.6327 1 19483
13.554 2.4216 0.31966 1 19115
13.592 2.2258 0.64229 1 19212
13.697 0.43764 0.31817 1 19935
0 -6.3863 -1.9928 2 20076
0.009852 9.4085 -1.7726 1 14149
4.2083 -5.5381 -1.8209 0 642
5.5667 2.8671 -1.7955 1 17498
6.0544 5.1801 -1.6936 0 17123
6.9081 -4.4828 -1.5516 0 11
7.1948 4.8347 -1.8425 1 17206
9.3202 -0.95165 -1.9914 2 20405
9.4512 1.7449 -1.8108 0 19089
12.024 -0.45561 -1.9769 2 20201
12.119 0.63088 -1.9938 2 19828
13.716 -0.68043 -1.9301 2 20240
14.004 2.3786 -1.9963 2 19162
