VERSION .7
FIELDS x y z intensity index
SIZE 8 8 8 8 8
TYPE F F F F F
COUNT 1 1 1 1 1
WIDTH 814
HEIGHT 1
VIEWPOINT 0 0 0 1 0 0 0
POINTS 814
DATA ascii
-4.9778 0.079065 0.46446 0 3405
-4.7222 -0.69647 0.44532 0 3321
-4.6646 0.54962 0.21904 0 3472
-4.5402 0.19109 0.42396 0 3426
-4.5304 1.2879 0.55079 0 3694
-4.4546 -0.53907 -0.20925 0 3334
-4.309 0.53289 0.71333 0 3480
-4.2679 -0.46666 0.20022 0 3338
-4.2376 0.66131 0.099574 0 3510
-4.1329 2.031 0.86762 0 4120
-4.0989 -2.8329 -0.23236 0 3264
-4.0392 0.69189 -0.47924 1 3522
-4.013 1.9851 0.20879 0 4126
-3.9191 0.48467 -0.091683 1 3479
-3.8942 0.98538 -0.093261 0 3639
-3.7455 2.3852 0.72954 1 4549
-3.6626 -2.4399 0.41058 0 3276
-3.6335 1.4072 -0.27247 1 3858
-3.5777 2.1066 0.29033 0 4412
-3.5746 0.63288 -0.33868 1 3527
-3.5368 0.34367 0.66951 2 3456
-3.4553 0.95955 -0.16723 0 3674
-3.3722 0.063572 0.55413 2 3410
-3.3581 0.73648 0.56483 2 3599
-3.3557 1.5655 0.25894 0 4055
-3.2734 -3.4652 0.2223 0 3106
-3.2055 -3.4519 -0.10937 0 3095
-3.1838 1.1701 0 0 3799
-3.1769 0.21658 0.22266 0 3440
-3.0828 -2.2937 0.6313 0 3234
-3.0491 -2.9932 0.70198 2 3130
-2.9535 -2.2647 0.34723 1 3220
-2.838 -1.9006 0.23885 0 3273
-2.7542 1.454 0.29057 0 4211
-2.6839 1.591 0 1 4424
-2.6666 -4.1188 0.22882 0 2928
-2.6061 2.426 -0.7568 0 5452
-2.5636 -2.3319 0.24233 0 3150
-2.5031 -2.0619 0.611 0 3196
-2.458 2.6928 -1.327 0 5974
-2.412 -3.6097 -0.30358 0 2939
-2.3853 2.6132 0.165 0 5977
-2.1226 4.3616 -0.11262 0 7661
-2.1083 -2.6917 -0.079381 0 3010
-1.9872 -4.2404 0.21838 0 2778
-1.7892 4.6345 0.34739 0 8148
-1.7742 -3.9644 0.61041 0 2740
-1.2882 4.136 -1.1341 1 8569
-1.165 4.1613 -0.20152 0 8756
-0.87582 2.997 0.21834 2 8681
-0.48241 -4.8588 0.571 0 2188
-0.31785 4.942 0.57913 0 10173
-0.29686 -4.4112 0.30916 2 2117
-0.17259 4.9176 0.22947 0 10354
-0.04453 4.9062 -1.0429 1 10532
-0.028557 -3.1465 0.59286 0 1994
0.25177 3.1021 0.51133 1 11068
0.30072 3.1462 -0.74886 0 11161
0.38486 -3.9181 0.091404 0 1917
0.44116 -3.9084 0.45996 0 1910
0.59971 -4.9269 0.69754 0 1905
0.60331 4.9349 -1.4256 0 11324
0.61913 -4.439 0 0 1891
0.69776 -3.0032 -0.071582 0 1832
0.85541 -3.3633 0.40583 0 1822
0.90363 4.2696 -1.2514 0 11858
0.94406 -3.0125 0.44368 0 1788
1.0938 -3.4544 0.59531 0 1786
1.4262 -3.028 0.07771 0 1742
1.447 -3.5404 0.26745 0 1763
1.5489 2.6581 0.21513 0 13616
1.5652 2.5672 -0.14022 0 13701
1.5764 -4.479 0.78012 0 1776
1.5988 -4.3012 0.10654 1 1769
1.8247 -4.4313 0.33511 0 1761
1.9677 3.1042 0.69247 0 13791
2.1417 -3.7051 0.29926 0 1699
2.2472 3.1458 0 0 13983
2.2977 3.0647 0.53832 0 14065
2.3258 -3.7687 0.7276 1 1682
2.3529 2.7048 0.67543 0 14267
2.4242 -3.4416 -0.29437 0 1538
2.4945 -2.1601 -0.54213 0 904
2.5079 -4.3107 0.81936 0 1698
2.7991 -3.9975 0.68585 0 1548
2.9533 1.4125 0.38283 2 14654
2.9966 2.7134 -1.4714 0 14415
3.1407 -2.1376 0.7158 0 596
3.1695 -2.6642 0.68026 0 880
3.2191 3.3721 0.87836 0 14352
3.2645 -0.15167 0.22852 0 16957
3.3549 2.1812 0.75394 0 14516
3.4015 -0.039777 -0.23787 0 16845
3.4906 2.2694 -0.19416 0 14515
3.5651 -0.80998 0 0 17350
3.6069 -2.2908 0.80504 0 484
3.6377 3.3545 0.57866 0 14411
3.7418 -2.6113 0.5336 0 636
3.8187 -2.9717 0.22565 0 805
3.8499 0.58431 0 0 15843
3.8938 0.21429 0.54806 0 16526
3.8953 0.95462 -0.56365 0 15430
3.9657 0.067838 0.27735 0 16731
3.9685 2.7305 -0.44941 2 14492
4.2861 0.562 0.10036 0 15969
4.3009 1.3371 0 0 15152
4.3177 0.12437 -0.30205 0 16668
4.4953 -0.79021 0.42582 0 17267
4.5111 0.12995 0.31558 0 16675
4.5542 0.59715 -0.8654 1 15980
4.5559 1.7873 0.92206 0 14879
4.5882 1.6329 -0.68445 0 14995
4.6265 -0.014534 -0.54103 2 16808
4.806 0.48818 -0.22528 0 16174
4.8446 -0.69381 0.34223 0 17203
4.9254 -0.24434 -1.1685 0 16968
4.9613 -0.57931 0.82065 0 17139
-2.4283 -1.689 0.55731 0 3262
-1.8688 -0.03523 0.35216 1 3386
-0.51787 -2.8384 0.066986 0 2373
1.7419 -1.7547 0.46584 0 1039
-13.91 0.90438 2.2901 0 3439
-13.134 7.0776 -1.3919 2 4235
-12.889 4.2775 2.2311 0 3749
-12.826 1.2463 -1.2022 0 3453
-12.794 -0.98894 2.4177 0 3355
-12.73 2.9881 0 0 3611
-12.411 -0.45293 2.0404 0 3377
-12.188 -0.73053 2.0061 0 3369
-12.053 3.9231 1.1825 0 3738
-11.813 -1.4295 -0.83206 0 3333
-11.54 4.511 0.28767 1 3868
-11.528 4.4646 1.7374 0 3864
-11.3 5.1926 1.1602 0 4039
-11.198 7.264 -1.2453 0 4577
-11.186 7.3504 2.199 0 4606
-11.063 -0.01931 1.5548 0 3393
-11.012 4.7495 2.2596 0 3986
-10.935 -0.65543 -0.25434 0 3368
-10.674 -0.85697 1.505 0 3352
-10.364 -1.3166 0.24255 0 3332
-10.357 1.0995 0.24181 0 3460
-10.303 0.19424 -0.23926 0 3408
-10.194 -0.13344 1.9208 0 3389
-10.183 -1.0541 1.4388 1 3340
-10.056 1.3614 1.6672 0 3490
-9.9925 0.71101 1.8874 0 3442
-9.9877 1.1468 -0.23341 0 3469
-9.9875 1.4695 -0.47077 0 3502
-9.8989 0.90609 -1.1624 0 3450
-9.8119 5.3629 0.52145 1 4258
-9.7494 8.3681 1.1987 0 5190
-9.6881 3.2153 0.95233 0 3748
-9.5821 0.43009 1.348 2 3428
-9.5524 7.4578 -0.56515 0 4936
-9.5069 0.51155 -0.88823 0 3433
-9.4952 4.3954 -0.24292 0 4047
-9.3868 0.31139 1.0983 0 3417
-9.3483 2.2512 -0.44841 0 3623
-9.3246 4.6126 1.2166 0 4127
-9.2367 0.1193 1.7404 0 3402
-9.1444 -1.3226 -0.21451 0 3322
-9.0885 4.3019 1.652 0 4076
-9.0552 1.7667 -0.86074 0 3557
-8.9711 -9.6035 2.1591 0 3099
-8.7759 9.9543 -1.2381 2 6071
-8.774 8.0258 -0.55453 0 5389
-8.7227 1.7287 -0.41469 0 3569
-8.697 0.16396 0.40565 0 3409
-8.6697 -8.6034 1.7166 0 3128
-8.656 4.6355 1.1483 0 4229
-8.5749 -6.3799 2.0137 0 3235
-8.5413 5.7916 1.6955 0 4662
-8.5014 0.43066 1.1963 0 3432
-8.4923 -0.063737 1.6001 0 3390
-8.4586 -0.92488 0.79385 0 3339
-8.4509 -5.8408 -0.71835 0 3263
-8.4298 -0.47868 -0.78772 0 3370
-8.4293 1.5425 1.6145 0 3538
-8.386 -5.4106 1.4026 0 3278
-8.3514 -0.5225 1.176 0 3366
-8.3107 0.132 0.19297 0 3404
-8.274 -0.44521 0.77305 0 3372
-8.268 3.4552 1.0479 0 3953
-8.2574 11.983 1.3577 0 6719
-8.218 10.361 -1.2338 2 6347
-8.1236 0.36463 -0.1888 0 3427
-8.0837 0.38546 0.75503 0 3430
-8.058 5.6717 1.6189 0 4741
-8.0492 1.2562 -0.76004 0 3507
-8.0126 1.588 1.342 0 3575
-8.0079 2.5803 1.1824 0 3734
-7.9731 -0.54635 -0.18555 0 3363
-7.9636 1.8693 0.572 0 3613
-7.9533 -0.56591 -0.74388 0 3359
-7.9408 8.5454 1.0883 0 5927
-7.9312 7.3393 0 0 5426
-7.9209 -0.54277 0.74072 0 3364
-7.8484 -7.3085 0.50012 1 3137
-7.8328 -6.8402 1.9593 0 3170
-7.8147 5.9532 0 0 4895
-7.7875 0.077475 -0.18081 0 3399
-7.7424 0.45998 1.2743 0 3437
-7.6693 1.8696 -0.18327 0 3628
-7.6197 -5.7044 1.5638 0 3231
-7.6082 5.2917 -0.21516 0 4715
-7.5558 4.9012 -0.42 0 4578
-7.5143 -0.53468 0.70282 0 3360
-7.5085 3.1378 -0.18894 0 3952
-7.5057 0.75181 0.70375 0 3457
-7.4939 -0.86177 0.70375 0 3337
-7.4316 1.6516 0.71025 0 3602
-7.3348 8.0778 -0.25332 0 5992
-7.3257 -0.45833 -0.17041 1 3365
-7.2652 1.7711 0.17362 0 3629
-7.2465 -0.96174 1.201 0 3330
-7.1904 8.3008 0.51214 1 6125
-7.1676 0.82298 -0.67309 0 3467
-7.1648 1.3331 1.3731 0 3544
-7.13 -9.611 0.55807 1 2989
-7.1176 1.4313 -0.33857 0 3579
-7.0469 -0.52367 0.32953 0 3356
-7.0129 0.3344 0.49095 0 3429
-6.9851 -6.3159 0.87857 0 3154
-6.9352 2.8486 0.69948 2 3935
-6.8887 -10.784 1.1938 0 2922
-6.8754 -0.69111 0.97115 0 3342
-6.8494 -8.0995 1.9985 0 3045
-6.848 1.8606 0.99731 0 3666
-6.8451 2.8116 -0.17181 1 3932
-6.8345 1.2716 0.64857 0 3541
-6.8271 12.347 1.3163 1 7352
-6.8172 0.22615 0.95862 2 3418
-6.7894 6.6232 1.5583 0 5611
-6.7744 6.2316 1.5123 0 5418
-6.6759 7.5298 1.6533 0 6064
-6.6315 1.7608 -0.47979 1 3653
-6.6061 -4.5658 0.56154 0 3265
-6.6051 -0.39589 -0.92995 0 3367
-6.5499 3.0099 -0.50406 2 4037
-6.5082 1.5673 1.0998 0 3625
-6.4898 7.6282 0.23253 0 6176
-6.4608 4.1144 -0.3572 0 4541
-6.4526 6.149 1.0423 0 5529
-6.4101 12.613 1.32 0 7559
-6.4052 2.1444 -0.315 0 3753
-6.3311 -5.7953 0.60018 0 3147
-6.3297 5.5569 0.39279 0 5262
-6.3271 -0.54465 -0.44407 0 3345
-6.2518 6.9677 1.7638 0 6032
-6.2505 -4.3718 0.35571 0 3260
-6.1799 -4.3773 0.70654 0 3258
-6.1609 -0.51085 0 0 3348
-6.1417 -10.315 1.9724 0 2911
-6.0645 -1.077 1.012 0 3310
-6.0402 1.8883 0.59042 1 3724
-6.0308 -0.50006 1.1402 0 3349
-5.9953 -4.8204 1.2639 0 3204
-5.9532 -8.1222 0.93951 0 2984
-5.9346 -6.5038 -0.61567 0 3086
-5.9346 -4.3626 1.0352 0 3240
-5.9284 4.3549 -0.17079 0 4818
-5.9016 -8.4065 -0.23847 0 2962
-5.8659 -5.6232 0.18866 0 3132
-5.8492 0.70576 0.41198 0 3475
-5.8403 6.5873 -1.2372 0 6052
-5.8271 1.6566 0 0 3692
-5.7731 -5.8645 1.5505 0 3123
-5.7129 2.4639 0.72757 0 3982
-5.697 10.751 1.9989 0 7464
-5.6851 2.6317 0.43807 0 4048
-5.6742 0.9363 0.94484 1 3518
-5.6581 6.767 1.6619 0 6233
-5.6499 -0.98505 0.94224 0 3312
-5.6452 -4.9892 0.17492 0 3165
-5.6241 -5.8484 -0.18838 0 3115
-5.5645 5.7161 0.37202 0 5774
-5.558 0.071787 -0.12905 0 3400
-5.5472 2.8864 0.29161 0 4188
-5.5163 -5.9052 0.75391 0 3098
-5.4818 7.3411 0 0 6515
-5.4707 6.4668 -1.3916 0 6187
-5.4612 -7.0152 0.41459 0 3007
-5.4573 -8.819 0.96756 0 2915
-5.4567 -5.023 1.2185 0 3144
-5.4404 3.3326 0 0 4483
-5.3428 2.4925 -0.27494 0 4054
-5.3379 -0.10063 0.49809 0 3384
-5.3362 -3.5736 0.75103 0 3274
-5.3278 -9.3786 2.0322 0 2892
-5.3195 8.1631 0.22621 0 6869
-5.3063 -3.8298 -0.4576 0 3246
-5.2929 4.0321 -0.46528 0 4893
-5.2583 0.20568 -0.73957 0 3420
-5.2499 -4.0023 1.0846 0 3223
-5.2392 2.8234 -0.27754 0 4237
-5.23 6.7183 0 0 6397
-5.2236 -4.1759 0.46765 0 3207
-5.2044 0.098112 -0.36399 0 3406
-5.1813 1.0269 0.74235 0 3574
-5.1625 2.782 -0.82418 1 4233
-5.1355 6.1792 1.5138 0 6247
-5.1343 -7.9821 0.88545 0 2925
-5.123 4.0459 0 0 4958
-5.1049 1.387 0.61862 0 3665
-5.1009 7.4025 1.6938 0 6723
-5.066 -0.082236 -0.11763 0 3387
-5.0593 -8.906 1.6828 0 2891
-5.041 -9.851 1.0324 2 2840
-5.0143 5.9589 0.18081 0 6213
-5.0125 3.9814 -1.2061 0 4977
-4.9579 12.723 1.2739 0 8136
-4.9446 12.375 -1.2433 2 8073
-4.9379 -9.4412 2.0074 0 2853
-4.9149 -6.8727 0.78828 0 2974
-4.8837 1.8269 0.98242 0 3822
-4.8795 2.8731 0.13147 0 4410
-4.8762 6.6944 0.77268 0 6590
-4.863 -5.9541 -0.35851 0 3026
-4.8576 1.6263 -0.11893 0 3754
-4.8541 2.8376 -0.92376 0 4390
-4.8324 4.8223 0.95946 1 5683
-4.8062 -5.2672 1.1715 0 3088
-4.6999 5.7544 0.51955 0 6285
-4.6965 5.8163 -0.52276 1 6309
-4.5242 -6.4828 0.36866 0 2958
-4.521 -9.3646 0.97016 0 2805
-4.5206 3.3001 -1.1897 0 4813
-4.5147 8.9532 0.4676 1 7574
-4.5005 7.4137 0.60646 0 7088
-4.4841 3.06 0.76295 0 4676
-4.4643 -5.6306 1.1806 0 3015
-4.4374 -8.0251 0.85553 0 2877
-4.4128 -9.1405 0 0 2803
-4.4037 5.3308 -0.32245 0 6255
-4.4006 -3.333 0.64557 0 3226
-4.3525 3.3568 -0.38436 0 4912
-4.3422 -6.1852 0.70505 0 2963
-4.3189 4.844 0.60547 1 6046
-4.3049 6.2801 1.2509 1 6739
-4.2196 5.1996 0.78309 0 6302
-4.2129 -3.9673 0.53989 0 3135
-4.1686 -7.1941 1.366 0 2903
-4.1384 5.6091 0.81515 0 6554
-4.097 3.6183 -0.2549 1 5277
-4.096 8.6067 -0.4445 0 7710
-4.0651 -3.6757 -0.12724 0 3153
-3.9931 5.5487 0.15872 0 6619
-3.9758 5.6591 -0.16057 0 6673
-3.961 -11.743 0.28772 1 2563
-3.937 -11.904 0.58472 1 2557
-3.9122 -5.0564 0.8985 0 3004
-3.89 4.7628 1.0103 1 6289
-3.8849 6.3569 0 0 7064
-3.8646 4.2561 0.94451 1 5998
-3.8428 5.7165 0.64263 1 6784
-3.8233 -7.4714 0.39139 0 2839
-3.8207 -3.4547 0.84627 0 3155
-3.7578 6.5271 1.419 0 7243
-3.7376 3.773 0.87253 0 5722
-3.6582 -8.2357 -0.20922 0 2731
-3.5711 -9.6539 -0.23898 0 2609
-3.5635 -6.6739 1.0633 0 2863
-3.5359 -7.058 1.297 0 2826
-3.4966 -6.2821 1.1812 0 2882
-3.4574 -11.444 0.55751 1 2537
-3.3029 10.495 1.0265 0 8547
-3.2951 -10.798 0.52649 1 2540
-3.1531 9.0902 0.44869 0 8346
-3.0518 -8.8783 1.5424 0 2573
-2.9713 -5.1278 0.13759 0 2901
-2.9602 5.1087 -0.13708 0 7213
-2.9408 6.7247 1.2059 0 7908
-2.9375 13.855 0.9904 1 9196
-2.8769 -5.8698 0.30484 0 2813
-2.8594 -6.1488 1.1141 1 2772
-2.794 5.6982 0.14734 0 7645
-2.7052 -7.8698 0.19321 0 2570
-2.6776 -7.8653 1.3651 0 2568
-2.6505 7.0403 0.87973 0 8196
-2.6066 -5.1669 0.81333 0 2832
-2.5759 -6.7884 1.1929 0 2630
-2.4462 9.4726 1.1441 0 8902
-2.4203 -4.5963 0.60747 1 2857
-2.3627 7.0126 0.34509 0 8405
-2.3447 -4.929 0.50923 0 2790
-2.325 4.8855 -0.12562 0 7711
-2.3231 10.087 0.4827 1 9083
-2.2549 4.738 0.48954 0 7719
-2.2393 6.0051 -0.29888 0 8204
-2.2251 -11.821 -0.27927 0 2384
-2.2172 6.7675 0.8328 0 8466
-2.1976 7.9351 0.19116 0 8777
-2.1671 -9.0476 -0.216 0 2456
-2.0985 6.2828 0 1 8423
-2.0708 4.7018 0.96798 0 7891
-2.041 5.1947 -1.1863 0 8121
-2.0266 -5.7356 0.42537 0 2587
-2.0176 -4.9244 0.62234 0 2679
-1.9889 7.5171 1.2775 1 8861
-1.9761 -8.8045 -0.2095 0 2436
-1.9641 7.2643 -1.2363 1 8807
-1.9464 -8.3311 1.6119 0 2452
-1.8993 -8.0161 0 0 2453
-1.8445 5.8607 0.71851 0 8549
-1.8382 13.981 1.9818 1 9723
-1.8339 5.3382 -0.13105 2 8363
-1.7735 -5.1158 0.50515 0 2579
-1.703 -5.5252 0.26962 0 2545
-1.6827 4.8511 0.11921 0 8344
-1.6425 -8.4658 -0.20022 0 2397
-1.6042 -5.2049 -0.12645 0 2542
-1.4404 -8.933 1.0581 0 2330
-1.4363 -6.6713 -0.15844 0 2422
-1.4234 10.364 -0.24288 0 9676
-1.3898 14.925 1.7529 0 9988
-1.3333 5.9406 -0.14135 0 9115
-1.333 13.843 2.6203 0 9971
-1.3123 -6.0953 0.58169 1 2425
-1.3106 9.1405 0.43062 0 9641
-1.3064 -6.8227 0.81236 0 2394
-1.2847 12.582 1.7775 0 9929
-1.0707 -6.8842 0.48718 0 2312
-0.94277 -5.2608 -0.12408 0 2365
-0.9302 -5.363 0.89426 1 2357
-0.92298 13.787 1.6159 0 10154
-0.87967 7.9299 -0.55791 1 9854
-0.85862 7.7401 0.36316 0 9862
-0.82689 7.8805 1.3018 0 9914
-0.8101 6.6073 1.0937 0 9785
-0.762 13.057 -1.2202 2 10198
-0.73144 -5.5559 0.65532 0 2256
-0.69556 6.1048 0.14265 0 9838
-0.68441 -10.641 1.247 0 2110
-0.65652 -5.4733 0.12798 0 2228
-0.56663 -8.0627 1.1359 0 2125
-0.54118 -5.7789 0.95359 1 2178
-0.53824 -6.5748 -0.30764 0 2145
-0.51623 7.7111 1.2697 0 10157
-0.49841 10.648 1.2465 0 10284
-0.48632 -5.7314 0 0 2154
-0.48563 -9.1745 1.0744 0 2073
-0.37189 -8.4166 0.39288 0 2052
-0.30384 -6.8764 0.80492 0 2054
-0.033809 10.194 1.1922 0 10570
0.048604 -9.2826 1.0855 0 1979
0.13447 -8.0247 -0.18634 0 1971
0.15592 9.0232 1.0553 0 10689
0.25873 -6.0223 0.56237 0 1951
0.285 -6.6339 0 0 1950
0.33647 -11.824 0.27463 0 1961
0.3456 -7.0916 0 0 1946
0.35773 8.293 1.3638 0 10839
0.41647 8.027 0.18661 0 10890
0.44892 9.7731 -0.45624 0 10848
0.49061 -9.4562 0.8834 0 1943
0.4949 10.047 0.23355 0 10870
0.54304 -5.8649 0 0 1921
0.64078 -8.542 0 0 1931
0.66475 7.8998 -1.3025 0 11071
0.6712 -7.2491 0.3395 0 1922
0.78587 -8.0006 0.75001 0 1918
0.82452 8.3491 0.19478 0 11173
0.87095 8.5743 1.416 0 11199
0.87524 -7.0069 1.1601 0 1902
0.89162 5.3568 -0.12608 0 11590
1.0146 5.0138 0.84043 1 11814
1.0541 6.693 -0.47379 2 11535
1.0695 7.6581 0.7214 0 11440
1.0852 5.7876 0.13671 0 11721
1.1682 5.1543 -0.99575 0 11948
1.2134 6.1791 -0.29366 0 11772
1.22 -6.1223 0.87735 0 1852
1.3117 5.4139 0.12933 0 12019
1.3377 4.8433 0.82552 0 12206
1.3816 -7.8837 0.18583 0 1868
1.3852 -6.654 0.31695 0 1846
1.4517 -5.21 0.50459 2 1807
1.4837 5.6277 0.95619 0 12141
1.5965 -10.361 -0.24339 0 1881
1.62 5.3794 0 1 12339
1.6396 8.6113 0 0 11739
1.682 6.0203 0.58318 0 12218
1.7182 7.887 0 0 11891
1.7697 -4.8021 0.47746 0 1771
1.8262 4.9957 0.37194 0 12678
1.9511 -7.8664 0.94779 0 1825
1.9743 8.5926 0.61651 0 11957
2.0285 -6.6019 0.32208 0 1791
2.0362 -10.534 1.001 0 1856
2.0365 -5.4295 0.541 0 1768
2.0405 -7.9357 0.19024 0 1819
2.1713 4.7143 -1.2298 1 13135
2.175 -9.8677 1.6601 0 1838
2.2653 5.0712 0.64951 0 13071
2.3675 14.489 2.412 0 11579
2.3954 6.8557 0.33866 0 12591
2.399 7.2033 0.88786 0 12505
2.4138 14.773 2.8202 0 11581
2.5033 -8.882 0 0 1804
2.5503 -7.8958 0.97032 0 1783
2.6072 -10.14 1.7201 0 1820
2.6794 4.4805 0.12121 1 13666
2.7113 -7.4209 0.55247 0 1773
2.7249 -7.3942 1.2947 0 1772
2.8111 6.4374 0.32757 0 13015
2.8445 8.713 -0.2128 0 12463
2.8898 4.8324 -0.92506 0 13657
2.8917 -5.3569 0.56794 0 1708
2.8937 -7.202 0.36195 0 1764
2.9353 -10.886 1.0519 0 1813
2.938 4.4592 -1.3979 2 13866
2.9398 4.7286 -0.25966 0 13742
2.9665 5.9318 -0.15398 0 13302
2.9845 -8.7972 0.86668 0 1777
3.0153 9.9122 -0.48316 0 12353
3.0292 -10.071 1.7279 0 1795
3.0526 4.2733 0.86281 0 13985
3.0606 7.0088 0.17756 0 13013
3.0711 11.241 0.54344 1 12185
3.1349 -10.529 1.544 0 1797
3.1509 -7.4629 0.94733 0 1755
3.1766 9.0912 0.89845 1 12593
3.1803 -5.9737 -0.47323 0 1711
3.239 -4.122 -0.24447 0 1401
3.2511 4.5799 -1.1938 0 13976
3.2653 -9.1045 1.5891 0 1775
3.3965 4.7267 0.13513 0 13992
3.4215 6.4621 0 0 13418
3.4261 -3.8765 0.48267 2 1222
3.4442 8.633 1.3063 0 12841
3.4838 -12.214 1.1849 0 1802
3.4851 4.0304 0.24848 0 14260
3.502 -5.6 0.30801 0 1674
3.5194 -7.9457 0.81076 0 1751
3.5278 -5.3259 0.14832 0 1607
3.5362 -6.5978 -0.52345 0 1710
3.5378 -10.537 0.77723 0 1780
3.552 8.9806 -0.45037 0 12816
3.56 -7.1278 0.74332 0 1729
3.6087 6.4097 -1.0338 1 13547
3.6342 3.5502 0.23692 1 14386
3.6704 6.3445 1.2042 0 13606
3.6777 8.9139 1.5842 1 12905
3.6871 4.7723 0.84756 0 14103
3.7038 -8.9197 0.90105 0 1759
3.7945 6.7396 1.2707 0 13560
3.8668 7.2541 0.76692 0 13437
3.965 6.9458 0.18569 0 13582
3.983 6.8849 1.4986 0 13607
4.0173 -11.841 2.0544 0 1778
4.0243 3.7527 -0.12775 0 14404
4.025 -4.6598 1.0116 0 1259
4.1287 3.152 -0.24223 0 14474
4.1416 -2.9064 0.3538 0 646
4.1515 5.6043 1.1459 0 14046
4.2219 9.6042 0.24357 0 13034
4.2342 8.4078 1.5466 1 13319
4.2368 -3.9096 0.53784 0 960
4.272 10.354 0.26005 0 12897
4.2909 -5.0866 -0.31034 0 1297
4.2942 14.259 2.0929 0 12343
4.2989 7.1887 0 0 13664
4.328 -6.8807 0.75837 1 1669
4.3517 2.4671 -1.4344 0 14554
4.3815 -3.0748 0.49939 2 648
4.3882 -7.4945 1.2205 0 1695
4.4117 5.7432 -0.16814 0 14096
4.4256 4.2262 0.28537 0 14395
4.4544 -4.0632 0.99056 0 954
4.4575 -6.9034 1.5482 0 1637
4.5566 -5.3711 1.1572 0 1292
4.6005 7.8949 1.5012 0 13620
4.7076 -7.8255 0.852 0 1688
4.7091 -11.924 2.4155 0 1765
4.8179 5.9815 1.0794 0 14155
4.8212 6.6675 0 0 14001
4.8608 -2.6866 0.51815 1 268
4.8675 4.3079 0 0 14425
4.9046 1.3234 0 0 15315
4.9246 -9.9381 1.8222 0 1732
4.9726 -8.3815 1.1397 0 1691
4.9865 -0.6105 -0.35129 0 17152
5.0049 3.4655 0.56794 0 14488
5.0112 -2.3656 0.77881 0 11
5.0412 2.5764 0.52818 0 14598
5.1351 -5.0816 0.50518 0 1021
5.1661 -7.8527 1.321 0 1615
5.2093 4.1467 -0.15458 0 14463
5.2183 4.2529 -0.9461 0 14449
5.2242 -8.0415 1.5755 0 1630
5.2287 7.5035 -0.21233 0 13948
5.2311 -6.3481 1.3514 0 1336
5.239 5.8493 0.91829 0 14306
5.2571 1.3381 -0.76239 0 15387
5.3031 2.5363 -0.13648 0 14650
5.3199 0.49445 -0.49846 1 16230
5.331 6.096 -0.56628 1 14269
5.3311 0.98517 -0.89069 0 15681
5.333 2.5506 0.27568 0 14652
5.3368 -5.6613 0.72586 0 1111
5.3462 -4.6835 0.83117 2 908
5.3636 2.6439 0.98245 0 14629
5.3911 3.5724 1.0625 0 14506
5.3942 1.3389 0.51852 0 15424
5.3962 3.0592 -0.87178 0 14552
5.4074 3.7443 0.76915 0 14489
5.4139 -0.36339 -0.25304 0 17012
5.4443 7.3041 -1.4967 0 14047
5.4567 -2.4592 0.69992 0 17789
5.4654 -6.7903 1.0193 0 1373
5.4942 0.14291 -0.2563 0 16685
5.5647 2.4869 -0.42621 0 14723
5.5724 -8.5252 1.9189 0 1622
5.6474 -3.8437 0.47769 0 592
5.6619 9.8504 1.8667 0 13595
5.6707 0.74355 -1.4972 0 15976
5.675 -2.7814 0.8882 0 72
5.7612 6.3604 -0.19924 0 14314
5.7848 -10.423 1.394 0 1704
5.8765 -2.21 0.88236 0 17569
5.89 7.442 1.5593 0 14132
5.9288 10.595 1.9947 0 13546
5.9326 8.5137 1.7049 0 13952
5.933 -2.821 0.6129 0 17876
5.9343 3.8833 0 0 14513
5.9352 4.0078 -1.0065 0 14495
5.9456 10.7 0.57083 1 13528
5.9482 4.1187 1.1887 1 14490
6.0042 -9.5455 1.8527 0 1672
6.0332 -0.91674 0.71363 0 17225
6.0603 0.52701 0.42537 1 16286
6.0672 6.894 0.21321 0 14280
6.0694 13.587 -1.3884 2 13064
6.0901 -3.8159 0.67049 0 463
6.0974 1.107 -0.57816 2 15697
6.0982 6.5007 -0.83157 0 14338
6.1211 -7.698 1.853 0 1391
6.1328 4.8818 -0.91666 1 14460
6.1649 3.495 -0.49555 0 14553
6.1761 5.7593 1.3874 0 14406
6.2173 -4.5537 0.71898 0 719
6.2321 4.0782 -0.34733 0 14511
6.2461 -1.4765 0.75057 0 17364
6.2526 11.487 2.1487 0 13486
6.3189 7.0972 1.5612 0 14301
6.3731 -3.6692 0.85998 0 333
6.3731 -3.5969 0.1699 1 298
6.3996 -3.9109 0.17413 0 423
6.423 1.9539 0.46946 0 15180
6.4243 3.2832 -0.67309 0 14596
6.5106 5.0629 1.355 0 14471
6.511 5.4017 0 0 14448
6.5386 5.9206 1.6619 0 14416
6.5498 0.89605 -0.30829 0 15931
6.6006 1.5579 0 0 15473
6.6212 -6.3673 0.42838 0 992
6.6342 1.6664 -0.63817 1 15401
6.6404 6.7976 0.88656 0 14370
6.6563 4.2471 0.18332 0 14521
6.6731 -3.365 0.69725 1 118
6.7307 4.9569 0.97752 0 14478
6.7911 -2.9191 0.68963 0 17714
6.8171 2.1194 0.66604 0 15156
6.8386 3.7985 0.9148 0 14566
6.8877 1.1872 0.98228 0 15750
6.9015 -7.7162 1.4549 0 1204
6.9073 -6.4886 1.557 0 975
6.9251 -0.80861 0.16187 0 17138
6.9505 1.9616 0 0 15260
6.9524 -2.0304 1.0179 0 17430
6.9611 -1.5611 0 0 17346
7.1228 -3.6716 0.9371 0 156
7.1512 -2.7838 0.17817 0 17603
7.1546 -8.2362 1.7924 0 1250
7.167 1.3244 1.0243 0 15693
7.227 0.27132 -0.16791 0 16621
7.2274 7.6615 -0.49118 0 14343
7.2971 2.4317 0.35869 0 15076
7.329 -5.6686 0.6479 0 798
7.3436 5.81 1.316 0 14466
7.4596 -7.0864 1.9385 0 984
7.4961 9.6431 1.7166 0 14113
7.5085 -1.0753 0.70765 0 17204
7.557 4.9452 1.2693 0 14514
7.5729 5.1466 0.85423 0 14494
7.5869 1.5808 -1.0892 0 15584
7.6033 -3.6969 0.98867 2 60
7.7169 3.1571 -0.19358 0 14821
7.7364 7.4684 -0.24966 0 14392
7.7449 2.0665 -0.1861 0 15334
7.7489 -1.5963 0.73812 0 17316
7.8016 -5.8236 0.454 0 744
7.8027 2.0557 0.94361 0 15358
7.857 1.9255 -1.3291 0 15429
7.8629 6.8375 0 0 14434
7.8653 3.2178 0.99379 0 14826
7.9348 4.4401 -1.2779 0 14559
7.944 -1.3023 1.3226 0 17244
7.9683 6.3792 0.23698 0 14457
7.9716 3.9294 -1.0393 0 14625
8.0339 -2.4977 1.3822 0 17455
8.1107 -2.6792 1.6093 0 17486
8.1152 -6.093 1.6672 0 756
8.116 2.3426 0.7881 2 15239
8.1177 -5.525 1.38 0 594
8.1188 4.6968 0.21776 0 14545
8.1196 2.2411 1.1838 0 15293
8.1579 9.7706 -0.29552 0 14212
8.1788 8.6701 0.55583 1 14344
8.1807 -1.0988 0.77007 0 17184
8.2026 -0.66861 -0.19107 0 17047
8.2089 -5.1155 1.5891 0 453
8.2261 5.9854 -0.71138 0 14480
8.2467 3.0146 0.40947 0 14960
8.3233 5.6205 0.23318 0 14497
8.3466 6.9246 -0.25179 0 14447
8.3531 -2.2836 -0.20105 0 17409
8.396 4.8885 -0.45307 0 14542
8.4049 6.0775 0 0 14481
8.4376 2.9763 0.83473 0 15014
8.4787 6.0926 -0.97406 0 14483
8.4985 -7.5268 1.5955 0 914
8.5179 -7.7263 1.0729 0 945
8.5221 2.3794 0 0 15273
8.5345 2.1437 -0.2043 0 15404
8.5913 4.421 0.90142 0 14593
8.5986 4.9085 0.92372 0 14550
8.6125 4.7838 1.6186 0 14568
8.6244 5.2954 1.6627 0 14527
8.6755 3.8155 -1.1083 0 14737
8.7362 -2.0394 0.83696 0 17358
8.7602 7.1014 1.0521 0 14453
8.8135 4.7317 -0.23225 0 14579
8.8204 0.81979 0.61944 0 16240
8.8461 -2.8096 1.5249 0 17464
8.8969 5.8597 1.7503 0 14509
8.9283 -7.4177 0.81169 0 867
8.9346 -1.3337 -0.20973 0 17218
8.995 0.93907 -0.63241 1 16150
9.0087 3.3844 1.3525 0 14929
9.0521 3.8256 0.91684 0 14782
9.086 -0.052332 1.4928 0 16826
9.1743 -2.622 -0.44496 0 17423
9.3247 -5.5829 1.7856 0 396
9.3489 7.8921 -0.28405 0 14444
9.3662 -0.68288 -0.65669 0 17027
9.3856 -4.1944 1.689 0 17777
9.5166 3.6398 0.47515 1 14903
9.615 -4.5368 1.2433 0 17863
9.6255 3.022 1.6575 0 15145
9.6278 -0.92366 0 0 17083
9.6613 6.4872 2.1926 0 14499
9.6712 4.4544 0.99339 0 14694
9.6758 0.98284 1.5979 0 16185
9.9002 3.5545 1.9819 0 14993
9.907 -0.57644 0.69394 0 16990
9.9163 1.6239 0.93747 1 15791
9.9197 -1.4807 1.1729 0 17219
9.9672 -1.7521 0 0 17266
10.026 -5.5803 1.0705 0 279
10.031 -4.9553 1.8381 0 85
10.125 6.1368 1.664 0 14529
10.127 -1.8422 0.96032 0 17278
10.159 -2.5556 1.9737 0 17386
10.174 4.938 -0.26256 0 14636
10.29 7.9045 1.2106 0 14473
10.332 -5.3257 1.0844 0 155
10.361 7.3525 -0.88842 0 14487
10.451 -3.3495 1.8031 2 17470
10.463 -1.3422 1.7331 0 17172
10.528 0.88774 -0.24529 0 16302
10.55 -5.1298 0.82034 0 59
10.568 4.0714 -1.0566 0 14892
10.652 -1.3362 -0.24924 0 17163
10.721 -5.0975 1.3882 0 17877
10.774 -0.6269 1.2621 0 16991
10.791 -7.8606 1.8763 0 709
10.808 -3.887 1.8871 0 17533
11.087 1.3889 0.52108 1 16007
11.118 -2.5259 -0.2647 0 17349
11.12 -0.10092 0 0 16834
11.205 6.1806 1.4965 0 14570
11.335 -5.2256 1.1645 0 17826
11.601 1.9331 0.82243 0 15774
11.701 -2.3019 0.27686 0 17302
11.825 -2.6519 -0.56515 0 17345
12.074 -1.0223 2.2829 0 17057
12.116 3.3101 -0.58574 0 15298
12.262 -0.78437 2.0187 0 17005
12.347 4.4331 1.2239 0 14988
12.436 -1.3027 0 0 17109
12.665 -2.7985 1.8229 0 17342
12.673 0.40048 1.782 0 16661
12.715 -0.63076 -0.29557 0 16965
12.728 -3.5609 2.1714 0 17418
12.839 4.5691 2.2389 0 15005
13.06 1.2507 0 0 16215
13.187 2.5514 -1.2531 0 15641
13.23 -1.9324 0 0 17211
13.856 1.4906 0.9745 1 16137
14.859 1.814 1.0468 1 16028
-7.6588 3.6826 -1.8063 1 4091
3.4806 0.25194 -1.5537 1 16391
3.6164 -6.132 -1.5132 2 1694
3.911 8.7555 -1.8067 0 13074
4.8141 -2.0524 -1.7683 0 17703
4.9552 4.4118 -1.9024 0 14424
5.6176 -3.5444 -1.9047 0 473
6.5773 4.7559 -1.7253 0 14482
8.8986 -5.7589 -1.9971 2 513
11.979 0.6236 -1.9707 2 16530
12.943 -0.30276 -1.8195 0 16888
14.219 -0.28792 -1.9988 2 16875
