VERSION .7
FIELDS x y z intensity index
SIZE 8 8 8 8 8
TYPE F F F F F
COUNT 1 1 1 1 1
WIDTH 835
HEIGHT 1
VIEWPOINT 0 0 0 1 0 0 0
POINTS 835
DATA ascii
-4.7178 0.72276 -0.22258 2 3303
-4.6727 1.5635 0.92835 0 3953
-4.1675 1.9283 0 0 4588
-4.0794 2.4164 0.66636 0 5308
-4.0432 -2.7757 0.80574 0 2455
-3.8502 2.6759 0.10886 0 5754
-3.8401 -0.1294 0.53999 1 2766
-3.6529 -2.4621 0.20543 0 2459
-3.5691 -2.9568 0.10761 1 2417
-3.5446 3.0402 0.87984 0 6547
-3.3498 -3.1369 0.86466 0 2383
-3.2113 3.5131 -1.4852 1 7597
-2.949 -2.9101 0.7806 0 2341
-2.9049 2.5646 0.089965 0 6656
-2.8887 3.1982 0.60568 0 7657
-2.8819 2.0397 0.58007 1 5825
-2.8281 -3.2453 -0.5034 1 2214
-2.7166 2.8707 -1.4385 0 7441
-2.71 -1.9082 0.15456 0 2450
-2.5731 -3.7537 0.5322 1 2089
-2.5539 -1.6572 0.5736 0 2463
-2.4754 3.6343 0.30749 0 8821
-2.2935 3.2633 0.37213 0 8704
-2.1584 -3.6981 0.60178 0 2030
-2.1254 2.7272 -0.24178 0 8278
-2.0916 2.4847 0.37981 1 7954
-2.0605 3.9632 0.10371 0 9839
-1.9997 -2.9546 0.41721 1 2085
-1.8644 3.0894 -0.94463 2 9293
-1.8346 4.4334 0 0 10540
-1.5963 3.6469 -0.092425 0 10375
-1.573 -4.0326 0.50618 0 1885
-1.5471 4.4982 -0.22183 0 11032
-1.3927 -2.8835 0.22392 0 1945
-1.3702 -3.6032 -0.089501 2 1875
-1.337 3.4256 0.69284 2 10728
-1.2464 -2.8022 0.50387 1 1917
-1.0541 -3.5587 0.52162 0 1840
-0.68439 3.9417 -0.37324 1 12291
-0.60428 4.6847 -0.44068 0 12585
-0.37753 -4.7651 0 0 1665
0.20872 -4.6321 0.10765 0 1424
0.28949 4.0385 0.094004 0 14045
0.30041 -3.8864 0 0 1373
0.33754 4.5102 -0.10501 0 14067
0.39138 4.5374 -0.42489 1 14150
0.5419 3.9714 -0.28028 0 14497
0.92439 4.7958 -0.34153 1 14842
0.92823 4.8157 -1.4063 1 14846
0.98555 -4.8183 0.80801 1 1200
1.083 3.5645 0.52357 0 15432
1.1561 -3.6247 0.5347 0 1065
1.2056 -3.0589 0.54019 0 1044
1.4517 4.3236 0.74932 0 15563
1.4593 -4.2745 0.10487 0 1059
1.7138 -4.663 0 1 1054
1.7368 3.4027 -1.1921 0 16210
1.907 -4.4927 -0.22761 0 1030
2.1046 -4.4144 0.80347 2 1015
2.1786 3.2482 0.73691 0 16470
2.1791 -3.9606 0.8517 0 994
2.2453 3.8086 0.20618 0 16353
2.2461 -2.7649 0.58526 0 827
2.4129 -2.7679 0.17124 0 730
2.616 -1.7625 -0.29428 0 195
2.6781 -4.0036 0.22463 0 957
2.7551 -1.6482 0.4512 0 21027
2.8581 3.2705 -0.30372 0 16671
2.9494 -2.2193 0.69543 0 397
2.9962 0.38541 -0.56916 0 18962
3.2476 3.0316 -0.94433 0 16781
3.2535 3.7454 -1.0545 0 16668
3.2963 3.5163 -1.382 0 16709
3.3814 -0.7875 0.48794 1 20161
3.383 -0.404 -0.079102 0 19939
3.4376 2.1264 -0.28265 0 16929
3.4798 -2.7305 -0.3093 2 465
3.4881 0.4586 0.66284 0 18942
3.4984 2.4098 0 0 16889
3.5053 -0.44904 0.41326 0 19964
3.5117 -2.3076 0.79171 0 158
3.515 -1.7956 0.64848 2 20775
3.5363 1.4015 -0.17739 0 17497
3.725 -2.0411 0.39628 0 20880
3.7497 1.3478 -0.65464 0 17650
3.7559 0.83059 -0.26898 0 18400
3.7638 -2.5215 -0.42266 0 185
3.9087 -1.4296 0.38829 0 20355
3.9458 -0.99111 -0.37956 0 20184
4.0291 0.38796 0.66502 0 19154
4.0461 -0.89329 0.19323 0 20145
4.0522 0.79794 0 0 18540
4.2731 2.3124 0.1128 0 17028
4.3223 0.92979 -0.30916 2 18434
4.3313 0.67284 0.72014 0 18784
4.4335 0.36217 0.62517 0 19227
4.4781 0.31314 -0.3139 1 19275
4.5094 1.9086 -0.22835 0 17394
4.529 -1.0548 0.87614 0 20163
4.5785 1.2809 -0.7811 0 18064
4.7387 -0.52316 0.55752 0 19913
4.9041 0.24329 0.80671 1 19366
2.7567 0.8486 0.3373 0 17922
-14.901 1.4899 1.3971 0 3122
-14.889 1.1378 1.7462 0 3060
-14.766 2.1331 2.811 1 3278
-14.696 1.4694 2.0756 0 3123
-14.667 3.0801 1.3982 0 3509
-14.655 1.5118 2.4205 0 3133
-14.592 3.3313 1.0466 1 3571
-14.573 1.5034 1.3668 1 3131
-14.551 3.3674 0.69652 1 3583
-14.495 2.1741 2.4081 1 3297
-14.488 2.305 0.68412 1 3324
-14.44 1.8267 1.3579 2 3209
-14.419 1.906 1.7009 1 3229
-14.151 1.7902 2.0046 0 3210
-13.957 1.6866 1.3116 0 3182
-13.637 5.8845 2.4402 0 4406
-13.319 5.1556 0.66605 1 4163
-13.168 6.1347 1.3553 0 4616
-13.124 6.3926 1.0208 1 4737
-13.087 5.0656 1.3092 0 4166
-12.976 4.3417 0.6381 1 3947
-12.821 7.0017 0.68124 1 5079
-12.532 4.3567 0.61872 1 3994
-12.478 4.5023 0.92762 1 4047
-12.422 6.0505 0.64434 1 4735
-12.323 4.6074 1.5385 0 4101
-12.251 3.825 2.1085 0 3864
-11.881 2.6732 1.7116 0 3560
-11.802 3.169 2.0077 0 3715
-11.782 5.4091 0.90656 1 4570
-11.685 6.9683 1.2693 1 5324
-11.453 4.5136 0.86079 2 4197
-11.43 -1.2841 1.8897 0 2559
-11.428 4.8887 1.1597 2 4381
-11.423 2.8862 1.9357 0 3661
-11.354 5.496 1.4751 2 4718
-11.338 5.7324 1.7856 0 4845
-11.334 5.73 2.0865 0 4847
-11.327 5.809 2.3985 1 4891
-11.291 5.1053 0.86651 1 4526
-11.075 4.8108 0.84433 1 4418
-11.071 5.3186 1.4363 0 4697
-10.982 -0.62745 1.5459 0 2678
-10.878 1.0245 1.5356 0 3104
-10.827 -0.58449 0.25174 0 2683
-10.656 6.9995 2.0946 0 5608
-10.54 10.037 -1.3579 1 6983
-10.518 2.4631 1.2633 0 3596
-10.387 1.9308 -0.24529 0 3426
-10.373 5.8213 1.6717 1 5164
-9.9942 -8.6756 -0.30726 0 2399
-9.8246 -6.7447 1.6748 0 2454
-9.8036 -0.90083 1.1513 0 2595
-9.7859 6.6305 1.1028 0 5688
-9.7516 -0.01702 0.90978 0 2859
-9.7209 2.8223 1.663 0 3784
-9.6634 -0.016866 -0.22436 0 2858
-9.5197 1.2871 -0.89622 0 3235
-9.5179 -7.9752 2.0401 0 2413
-9.51 0.98109 -0.89195 0 3128
-9.4956 7.6264 1.4242 1 6270
-9.4679 9.0161 0.91423 1 6993
-9.4582 9.327 1.8669 0 7148
-9.3534 1.656 1.7897 0 3402
-9.335 6.7699 1.3485 1 5895
-9.3343 -8.0543 1.7327 0 2404
-9.3101 4.3374 0.47897 1 4612
-9.294 4.3635 0.9579 0 4636
-9.1894 9.4894 2.4888 0 7354
-9.1768 7.1568 1.6356 0 6153
-9.1648 8.2318 1.7313 2 6741
-9.1066 8.1795 2.3063 0 6745
-9.0616 0.0094895 -0.21038 0 2868
-9.0202 7.4225 0.81685 0 6364
-8.973 -1.1145 0.63227 0 2538
-8.8798 7.3069 2.1667 2 6373
-8.8691 2.8544 1.5307 0 3902
-8.7598 -0.1162 -0.6126 0 2823
-8.7579 0.77546 1.4445 0 3091
-8.7555 9.1493 1.4809 0 7399
-8.7045 -0.8765 0.40798 0 2577
-8.6885 1.073 0.40826 0 3193
-8.6217 -1.224 0.81243 0 2517
-8.579 -0.5623 1.0054 0 2655
-8.5703 3.1465 1.4999 0 4077
-8.56 10.234 -1.2448 0 7966
-8.559 8.5351 2.2774 1 7201
-8.5464 -9.0376 -0.28879 0 2285
-8.5425 6.503 1.7639 1 6064
-8.5227 -1.4614 1.0112 0 2482
-8.3603 3.4356 -0.84327 0 4277
-8.3543 -6.8794 0.50468 1 2422
-8.3408 -1.4302 1.3903 0 2483
-8.3102 2.808 1.2328 0 3963
-8.2866 -11.647 2.3485 0 2103
-8.2717 -9.7744 0.89539 1 2191
-8.2689 2.4227 1.4156 0 3794
-8.2284 8.747 1.973 0 7480
-8.2261 10.368 2.1744 0 8221
-8.2083 5.355 1.6102 0 5590
-8.1267 6.6445 1.7246 1 6347
-8.1159 9.1475 2.304 1 7737
-8.1034 1.0956 -0.38133 0 3236
-8.0365 -6.388 1.2005 0 2433
-7.9652 5.3001 0.22213 0 5636
-7.9454 1.1704 0.74927 2 3285
-7.9405 1.2165 -0.74945 0 3301
-7.8948 8.7404 1.9351 2 7659
-7.8711 -8.228 1.0623 0 2298
-7.8245 -0.71897 0.36643 0 2593
-7.8122 6.5785 1.6779 1 6471
-7.8065 5.4906 1.568 0 5801
-7.7886 2.9648 -0.77751 0 4124
-7.7644 8.8039 1.6498 2 7756
-7.7035 8.1405 1.3106 2 7449
-7.6755 -0.63779 0 0 2612
-7.6317 2.0721 1.2992 0 3726
-7.5465 4.0651 0.19901 0 5032
-7.5296 -1.1119 1.0697 0 2508
-7.5279 7.2114 0.48614 1 7016
-7.519 3.321 -0.19084 0 4455
-7.4853 7.8713 0.50655 1 7419
-7.4408 -5.532 0.43239 0 2443
-7.4197 -0.034966 0.69223 0 2851
-7.419 6.784 0.46882 1 6811
-7.4176 3.8597 -0.19414 0 4921
-7.3662 5.7447 0.87151 2 6149
-7.3613 -5.9526 0.66199 0 2427
-7.3333 -8.5137 0.78574 0 2207
-7.214 -7.9448 1.0012 0 2261
-7.2008 -5.7525 1.5142 0 2430
-7.1074 2.7753 0 0 4180
-7.0741 9.8229 1.7013 0 8613
-7.071 8.9118 1.5988 0 8219
-7.0694 -1.0856 0.33354 0 2497
-7.0548 0.25376 1.1598 1 2976
-7.0082 3.6467 0.92386 0 4931
-6.9956 5.262 0.20323 0 6012
-6.8603 9.2407 1.6175 0 8491
-6.8457 4.8452 0.39111 0 5817
-6.8217 0.32528 0.79865 0 3000
-6.7754 -5.6131 0.41031 0 2418
-6.738 -4.3724 1.3197 0 2462
-6.7322 -4.9164 1.3696 0 2446
-6.7146 3.4183 0.88112 0 4864
-6.6745 -0.12816 0.46681 0 2809
-6.6678 10.028 1.9785 0 8928
-6.5854 3.6699 1.2386 0 5144
-6.5437 7.1236 1.3594 2 7578
-6.5087 -0.030672 1.0693 0 2852
-6.5048 9.9707 1.3922 0 9001
-6.4869 11.414 1.2249 2 9527
-6.4822 -4.5642 0.18406 0 2449
-6.4483 -0.89592 0.15115 0 2521
-6.4286 -6.5692 1.0749 0 2318
-6.4042 -6.1737 0.8299 0 2361
-6.3214 -13.47 2.0912 0 1931
-6.3134 0.30104 -0.58968 0 2998
-6.3057 8.3923 1.7246 1 8444
-6.2962 11.856 1.5699 0 9770
-6.2805 -5.2924 0.38301 0 2409
-6.2414 3.2228 1.3235 0 4913
-6.2366 10.681 0.5768 1 9419
-6.22 0.42186 0.14474 1 3037
-6.2028 5.942 0.19943 0 7014
-6.2015 11.055 2.0826 0 9580
-6.1919 10.466 0.85033 1 9368
-6.1722 0.96213 -0.43682 0 3315
-6.1642 3.3204 -0.65322 0 5027
-6.155 -4.0461 0.86137 0 2461
-6.1367 6.0876 1.6286 2 7177
-6.1109 12.457 1.6226 0 10032
-6.0919 10.159 1.3852 1 9319
-6.088 1.3341 1.024 1 3540
-6.0548 10.794 2.3318 1 9582
-6.038 8.2288 1.1936 0 8535
-6.0046 8.2343 0.71263 0 8556
-6.0037 0.65433 -0.42231 0 3143
-6.0009 1.37 0.28705 0 3570
-5.9913 11.698 -1.2262 1 9879
-5.9878 -9.4827 0.26038 0 2042
-5.9563 10.201 1.1021 0 9422
-5.9519 10.473 2.2696 0 9534
-5.9079 -3.9819 1.1705 0 2460
-5.8851 6.7867 0.83807 2 7827
-5.8768 11.725 0.61164 1 9957
-5.8709 -0.67617 0.6911 0 2553
-5.863 11.447 2.1131 0 9895
-5.8038 0.37633 0.95554 0 3033
-5.7596 11.407 1.1922 2 9936
-5.759 -0.42797 0.53877 0 2635
-5.7115 -0.75904 -0.26869 2 2527
-5.7019 -4.1366 -0.32851 0 2447
-5.6903 10.945 0.86261 1 9842
-5.687 1.8489 0 0 3911
-5.5988 -6.4634 0.59795 0 2213
-5.5988 -4.6631 0.85208 0 2415
-5.5416 -0.81831 0.52261 0 2507
-5.5349 -7.8783 0.89827 1 2098
-5.5198 -4.5728 1.3505 0 2420
-5.4507 11.111 1.7394 1 10034
-5.3782 0.5065 0 0 3101
-5.353 6.7878 -0.40313 0 8229
-5.3492 -5.1856 1.224 0 2357
-5.3211 2.7688 0.13926 1 4924
-5.3103 -0.24021 0.74708 0 2717
-5.3061 -0.50438 0 0 2585
-5.2623 6.6728 1.3962 1 8246
-5.2402 -6.1921 0.18833 0 2190
-5.2182 3.6267 0.74313 2 5760
-5.2075 11.358 1.7561 1 10248
-5.2031 2.9822 -0.70132 1 5207
-5.143 2.5822 0.94549 2 4826
-5.1427 1.6225 0.5031 0 3874
-5.1041 1.1185 -0.36538 2 3534
-5.0875 1.6855 -0.62675 2 3932
-5.0828 11.347 2.0427 0 10317
-5.0678 11.864 1.8131 2 10456
-5.0605 -6.5357 0.578 0 2132
-5.0481 -0.70139 -0.11833 0 2520
-5.0361 12.267 2.4984 0 10581
-5.0346 9.4806 1.5086 2 9772
-5.0267 -7.0237 1.01 0 2105
-5.0064 -0.15384 0.70394 0 2775
-4.9981 -11.163 -0.28396 0 1919
-4.9942 4.2564 -0.45886 2 6505
-4.9924 11.779 2.4103 0 10486
-4.9888 -4.5124 0.62758 0 2393
-4.9825 11.853 2.1124 0 10508
-4.9565 5.3021 0.16851 0 7493
-4.9548 8.7789 1.8993 1 9557
-4.9445 -5.1399 0.16559 0 2302
-4.9441 2.7552 0 0 5133
-4.9324 3.5365 0.4244 0 5858
-4.8526 -4.2124 1.0557 0 2401
-4.7874 11.957 1.2017 1 10646
-4.7803 -6.8474 -0.38944 0 2095
-4.7559 3.345 0.13499 0 5793
-4.7474 10.043 1.5612 0 10158
-4.7204 -8.8965 0.23383 0 1973
-4.6882 2.7406 1.0232 0 5273
-4.6515 -6.538 -0.18629 0 2101
-4.644 11.599 2.354 0 10654
-4.5981 5.4623 0 0 7945
-4.5938 2.2376 0.47672 0 4739
-4.5768 -9.1277 -0.47618 0 1956
-4.5684 2.7591 -0.3732 0 5356
-4.5399 2.147 0 0 4651
-4.4747 9.2605 1.4455 2 10084
-4.4623 -4.0362 0.84562 0 2394
-4.4173 -9.9307 1.014 0 1916
-4.3676 -8.6502 0.67761 0 1959
-4.3566 -13.545 1.3274 0 1846
-4.3551 9.4254 0.96868 1 10221
-4.2753 -10.25 1.2988 0 1906
-4.2331 -2.9443 0.24046 0 2451
-4.1307 -10.863 1.0842 0 1876
-3.8837 -5.8454 1.153 0 2081
-3.8608 5.6683 -0.63984 0 8809
-3.8442 10.206 1.7918 1 10818
-3.7641 -8.5343 -0.21656 0 1913
-3.7159 -5.066 0.58615 0 2111
-3.6742 5.197 -0.74429 1 8667
-3.6299 -3.5398 0.71257 0 2352
-3.6161 9.8548 1.7246 2 10889
-3.6064 -6.7969 1.0814 0 1974
-3.5356 -6.3916 0.68146 0 1994
-3.5256 6.4584 0.68647 2 9671
-3.3968 10.158 1.5053 1 11116
-3.3062 -8.4063 1.7019 0 1887
-3.2957 -7.0227 -0.36177 0 1930
-3.2893 4.9789 0.69783 0 8951
-3.2686 -9.8718 0.97016 0 1851
-3.2085 -9.7874 1.6922 0 1849
-3.1583 7.3299 0.3722 0 10426
-3.157 7.1041 0 0 10328
-3.119 -4.9109 -0.2713 1 2044
-3.1088 13.639 -1.3051 0 11896
-3.0447 -5.9884 0 0 1962
-3.0079 -4.9843 1.0968 0 2041
-2.9863 14.025 -1.3378 0 12000
-2.9539 5.2659 0.5633 2 9575
-2.9497 4.1721 0.35729 0 8679
-2.9108 -7.0378 0 0 1903
-2.8546 -4.2449 0.35771 0 2083
-2.8045 10.852 0.78378 0 11677
-2.7981 -6.8806 0.69297 0 1896
-2.771 -5.2224 0 0 1972
-2.7591 -4.9877 0.80108 0 1995
-2.6984 -9.73 0.23443 0 1834
-2.6652 -4.9189 -0.12989 0 1984
-2.6498 -6.1 0.77775 0 1910
-2.6101 -6.5191 0.82119 0 1892
-2.5287 -9.3329 0.22449 0 1832
-2.5063 13.957 0.6613 1 12251
-2.4526 12.606 1.1981 1 12141
-2.3817 13.263 1.8939 0 12259
-2.3752 5.6504 -0.28584 1 10492
-2.3644 -6.7478 0 0 1859
-2.3568 -5.0635 0.78494 0 1929
-2.2775 12.47 -0.29431 0 12222
-2.2556 -5.8852 0.58801 0 1878
-2.1623 -5.7927 1.0158 1 1871
-2.1426 5.1779 -0.5228 1 10535
-2.0862 -11.795 1.6834 0 1793
-2.0715 14.411 1.3583 0 12495
-2.0652 -5.033 1.025 0 1899
-2.0444 8.9693 1.0758 0 11909
-2.0148 7.1824 -0.69595 0 11504
-2.0117 5.5362 0.54955 0 10906
-1.979 -8.039 0.38608 0 1820
-1.9675 5.5623 0 0 10967
-1.9423 6.046 0.14743 0 11203
-1.9357 5.6828 -0.27997 0 11054
-1.9134 5.1697 0.64464 0 10863
-1.8834 -9.6803 1.6202 0 1804
-1.8615 -6.0285 1.0366 0 1844
-1.8398 -14.243 2.3595 0 1745
-1.8308 -9.5519 0.90737 0 1800
-1.8055 8.8586 -0.84346 0 12065
-1.8031 -9.1231 0.86761 0 1805
-1.7558 5.356 0.92603 0 11165
-1.7204 7.6591 0.73236 1 11928
-1.7115 -5.5426 0.54119 0 1843
-1.6587 -7.2771 0.52192 0 1814
-1.5861 14.648 2.0706 0 12740
-1.5528 -5.9315 0.57203 1 1829
-1.4629 -4.9385 0.11958 0 1839
-1.4422 -6.4153 0.61346 2 1812
-1.4297 -5.5281 0 0 1827
-1.4123 -7.9853 1.3323 0 1794
-1.3627 -8.742 0.82544 0 1780
-1.2791 6.1875 0.14669 0 12051
-1.2235 7.4306 -0.88065 1 12350
-1.2209 -9.0303 1.2807 0 1752
-1.2079 5.9265 -0.14043 0 12067
-1.1432 -8.1038 0 0 1760
-1.131 6.744 0.15876 0 12336
-1.127 -10.357 1.7117 0 1712
-1.0976 14.946 2.1062 1 12990
-1.0302 -6.3747 1.0609 0 1783
-0.9672 14.956 0.69894 1 13047
-0.9318 -11.31 1.8644 0 1671
-0.89996 -5.2705 0.49883 1 1790
-0.897 -9.8374 1.8611 0 1686
-0.89535 -11.663 1.6439 0 1661
-0.82708 -11.209 1.5796 0 1656
-0.82417 -9.0386 0.42326 0 1684
-0.80206 9.7765 0.22774 0 12917
-0.76652 6.5251 -0.45942 2 12669
-0.72606 5.2662 0 0 12526
-0.72329 11.725 0.54782 1 13068
-0.62086 11.691 1.9234 0 13143
-0.61936 -7.2693 1.3746 0 1677
-0.61025 -7.4068 -0.34658 0 1668
-0.57309 -10.155 0.71124 0 1615
-0.5616 -9.0524 0.63423 0 1630
-0.54332 -7.9902 1.3158 0 1646
-0.47948 6.2888 -0.73756 0 12953
-0.46958 14.306 1.3354 0 13294
-0.42286 14.164 2.6699 0 13325
-0.4091 -5.5444 0.91339 0 1657
-0.39678 14.855 2.7999 0 13350
-0.39587 -9.4847 1.7886 0 1571
-0.38788 -7.2797 0 0 1601
-0.38294 14.337 1.6772 0 13344
-0.35223 11.799 1.6589 0 13321
-0.33108 13.844 1.2919 1 13367
-0.33079 13.832 1.618 1 13369
-0.32295 -5.7227 -0.2673 1 1610
-0.25349 -8.4416 1.5912 0 1540
-0.22755 14.815 2.0823 2 13437
-0.14499 -11.226 2.1152 0 1505
-0.13695 14.53 1.3557 0 13478
-0.12853 7.149 1.3472 0 13418
-0.1275 -5.9383 0.83476 0 1517
-0.12199 -9.4446 1.5518 0 1504
-0.11665 5.5688 0.65137 0 13392
-0.081504 12.971 1.2102 2 13500
0.034248 -7.008 0.16271 1 1471
0.057426 -7.4777 -0.34872 0 1463
0.058411 -7.6059 0.88948 2 1468
0.058974 -12.068 1.4112 0 1473
0.075669 14.949 1.0454 2 13583
0.11551 -8.7074 0.81243 0 1455
0.1634 14.859 2.0884 0 13630
0.23925 -7.0633 0.65935 0 1435
0.26034 -5.4003 0.12552 0 1420
0.27617 -8.1531 -0.1894 0 1434
0.28481 -12.847 0.59925 1 1447
0.28675 -10.33 1.4524 0 1440
0.31645 -7.4569 0.69632 0 1427
0.33424 -7.8762 1.4853 0 1428
0.3914 6.4923 0.45481 0 13968
0.55236 -9.2157 1.5168 1 1403
0.59815 7.1531 0.16665 0 14133
0.62384 -7.0037 0.656 1 1357
0.64786 -7.5107 0.88158 0 1362
0.69694 7.5702 1.4323 0 14206
0.74981 -6.3541 0.59692 0 1325
0.78156 -6.4491 -0.15082 0 1321
0.815 -8.0937 0.75893 0 1343
0.99465 -7.8295 1.1092 0 1316
0.99982 -8.05 -0.18833 0 1318
1.005 -7.2426 1.2013 0 1301
1.0729 -9.0924 -0.21256 0 1324
1.1111 8.5084 -0.40015 0 14461
1.1234 -6.9205 0.98535 1 1274
1.1235 -6.4376 0.30475 0 1247
1.1299 -9.8108 1.6225 0 1327
1.13 5.5198 -0.39398 0 14899
1.1724 -8.4492 1.1988 1 1300
1.2339 -11.565 -0.27003 0 1334
1.2736 -5.4948 0.13096 0 1150
1.3099 8.6713 -0.20361 1 14594
1.3133 9.4401 1.1146 0 14526
1.3151 -7.0547 0.33466 0 1225
1.3209 14.771 2.0843 0 14182
1.4104 5.1768 0.62745 0 15268
1.4158 -4.9245 0 0 1088
1.432 -7.001 0 0 1198
1.4601 -5.4951 0.93414 0 1111
1.4746 -8.7557 1.4588 0 1264
1.5477 -6.1076 0.58782 0 1125
1.5836 -6.2491 1.2146 0 1126
1.7555 -9.1161 1.5252 0 1216
1.7616 -6.4747 1.1024 0 1104
1.7768 5.8481 1.0042 0 15434
1.8373 -4.8265 0.24084 0 1050
1.8926 -8.5019 0 0 1166
1.9251 -7.6925 1.3028 0 1129
1.9721 14.78 1.3911 0 14485
1.9912 -13.501 2.2421 0 1291
2.0269 -12.487 2.0784 1 1275
2.0512 -5.3379 0.13277 0 1048
2.1184 -10.061 0 0 1189
2.1596 6.7548 0.82932 0 15499
2.2349 9.0172 0 1 15124
2.2393 -9.2916 0.44571 0 1139
2.2411 -4.9175 0.25202 0 1023
2.2458 7.2371 0.52987 0 15458
2.3137 5.393 -0.82474 1 15934
2.3549 -7.0299 0.69167 0 1061
2.3647 -5.4333 0.69296 0 1026
2.3692 9.0051 0.86873 0 15221
2.5485 6.9792 -0.1725 0 15671
2.6175 -4.4207 0.35925 0 988
2.659 -6.3131 0.6391 0 1032
2.6594 12.609 1.5069 0 14935
2.7226 -11.581 1.9545 0 1148
2.7314 -9.1973 0.89511 0 1082
2.7516 -8.1339 0.8011 0 1060
2.8045 4.1548 0.70449 0 16476
2.81 8.6947 1.5012 0 15512
2.8512 9.7885 1.675 0 15371
2.8724 6.8634 1.2224 0 15898
2.891 9.618 -0.46835 1 15409
2.9332 -4.1984 -0.35813 0 938
2.9956 8.7494 -0.43127 0 15584
3.034 -4.1576 0.60189 0 923
3.0698 4.1729 0.24158 0 16543
3.08 -7.4321 0.75057 0 1036
3.0943 -8.3426 0 0 1053
3.1207 -9.6792 0.9488 0 1063
3.1836 12.101 0.29051 1 15218
3.203 -4.9078 0.54676 0 967
3.2153 -4.2515 -1.263 0 899
3.2244 4.2295 1.002 0 16574
3.24 7.0963 0.5455 0 16046
3.267 -7.9538 0.40099 0 1038
3.3028 -7.5382 0 0 1025
3.3057 -5.9686 0.9589 0 993
3.3086 -4.096 0.86508 0 834
3.3394 -6.5117 0.34127 0 1002
3.3661 -11.848 2.0236 0 1091
3.3878 8.798 1.1025 0 15750
3.4245 -5.4888 -1.3751 0 980
3.4449 4.5188 -0.39733 0 16567
3.4755 -4.5655 -1.2196 1 894
3.4779 -11.01 1.6228 0 1067
3.5088 -4.5827 -0.26916 2 888
3.5687 4.7341 0.97402 1 16561
3.6079 8.984 0.22477 0 15816
3.6177 -7.7019 0.59502 0 1017
3.6527 4.3779 0.93673 0 16637
3.6554 -4.2422 -0.65486 2 740
3.669 -3.7037 -0.48638 0 624
3.6784 -5.2984 0.75428 0 942
3.7058 -4.7844 0.5646 0 875
3.7684 -11.577 1.1359 0 1062
3.84 -3.8534 0.25369 0 622
3.8463 5.5259 0.31397 0 16500
3.869 7.4704 0.39233 0 16229
3.8714 7.98 0.82748 0 16138
3.8781 -4.4723 -0.41393 0 736
3.975 -6.1303 0.68164 0 969
4.008 -3.884 0.91695 0 610
4.0115 -3.2242 0.11949 2 494
4.0121 -8.2296 0.21256 0 1010
4.0325 5.6491 0.81166 0 16522
4.0448 -4.5318 0.85369 0 707
4.0523 6.3585 0 0 16423
4.0625 -4.2945 0.41338 0 656
4.0742 -9.22 0 0 1024
4.0831 3.6379 0.3824 0 16797
4.1101 9.6547 0.24362 0 15924
4.1491 -8.7028 1.355 0 1014
4.1717 6.9815 1.5323 0 16366
4.2116 -6.6185 0.54856 0 976
4.2334 3.3134 0.88323 0 16842
4.264 3.1414 0.24699 0 16862
4.2887 -6.6957 -0.74184 0 973
4.305 -5.4904 -0.48788 0 862
4.3127 7.6663 -1.0286 1 16314
4.3159 11.024 0.27486 0 15774
4.3212 9.9143 -0.25109 0 15965
4.3217 -2.5671 0.1167 0 21014
4.336 4.3633 -0.28686 0 16741
4.3729 -3.4734 0.12966 0 483
4.3862 -6.4324 0.36307 0 950
4.4398 -5.4302 0.82026 0 816
4.5127 4.2125 0.28789 0 16779
4.5192 7.6142 -0.61916 0 16356
4.5371 -8.9122 -0.93301 0 1003
4.5418 2.5613 -0.98242 0 16978
4.548 -3.4222 0.93511 1 396
4.5535 6.4623 0.36866 0 16514
4.5656 6.3211 1.2811 0 16530
4.5749 -7.5243 1.4468 0 986
4.5979 -4.3027 0.29366 0 599
4.7037 -3.9398 -0.86232 0 536
4.737 -3.1916 0.80275 0 202
4.793 -5.8268 1.2396 0 811
4.8144 6.1977 0.1822 0 16587
4.8187 -10.18 1.0508 0 1016
4.8369 2.6339 -1.305 0 17021
4.856 3.6447 0.56646 0 16855
4.9171 2.5314 -0.38673 0 17093
4.9493 6.004 -0.5441 0 16630
4.9626 -1.7505 0.2454 0 20324
4.9892 9.9937 -0.5209 0 16178
4.9904 6.8662 1.3946 0 16535
5.0008 3.1127 0.13676 1 16927
5.007 0.61301 0.82876 0 19001
5.0096 7.6119 0.85015 0 16455
5.0171 -1.6389 0.61722 0 20284
5.0734 -3.4388 0.42858 0 212
5.0975 -5.3586 1.3935 0 651
5.1012 10.515 0.27133 0 16137
5.1548 -3.1849 -1.1416 0 21083
5.1588 -4.7721 0.65563 0 597
5.1614 1.2668 -0.12339 0 18265
5.1755 -5.4083 -0.52345 1 646
5.2492 -3.6933 -0.44881 0 272
5.2514 2.3491 0.94516 0 17308
5.2572 7.6981 0 0 16485
5.2634 -6.9999 0.81708 0 904
5.2949 9.2192 1.2433 1 16338
5.2971 -4.6783 1.1611 0 582
5.3001 -3.4406 0.73895 0 130
5.3039 5.2175 0 0 16750
5.3166 -6.1311 1.3333 0 738
5.3232 4.5017 0.97978 0 16824
5.3291 -0.55729 0.88031 0 19897
5.3538 3.8273 0.76961 0 16875
5.3763 7.0066 -1.451 0 16575
5.4278 -3.8916 0.31146 0 308
5.4354 -8.0736 1.8337 0 956
5.4817 3.0286 -0.43793 0 17000
5.5139 8.5921 1.6773 0 16433
5.5469 5.9545 0.18894 0 16705
5.5471 0.97511 -1.1972 0 18662
5.5819 -4.5395 0.67124 1 509
5.6328 0.36229 0.13105 0 19305
5.655 4.5597 -0.50797 0 16837
5.656 3.4742 0.46416 0 16933
5.6798 -2.7788 0.29487 0 20710
5.6936 4.5079 0.33866 0 16840
5.6973 -10.432 1.9529 0 996
5.7035 3.2374 -0.15226 0 16971
5.7203 0.58307 -0.40208 0 19113
5.7203 3.4698 0.78239 0 16939
5.7507 -1.8785 0.56441 0 20283
5.7644 -3.742 0.96586 0 131
5.7675 5.8039 -0.95685 0 16739
5.7788 2.3866 1.0272 0 17442
5.7794 -2.0194 0 0 20317
5.8017 -3.0279 1.0752 0 20808
5.8078 -3.3369 0.15551 0 20957
5.8151 1.5908 0.84729 1 18112
5.8596 -0.01534 -0.27326 0 19576
5.8982 5.8715 -1.3673 0 16747
5.9179 2.9622 -0.46276 0 17137
5.9214 6.2442 -1.2094 0 16715
5.9591 8.5073 1.7065 0 16508
5.9814 -9.2849 1.2916 0 972
5.9854 5.6542 -0.19116 0 16769
6.0031 5.0766 0.73347 0 16823
6.0615 4.9737 1.2882 1 16833
6.0687 1.8496 -0.1473 0 17932
6.1006 3.9724 -1.3716 1 16910
6.1067 11.008 -1.4721 0 16304
6.1153 5.4485 0.76413 0 16798
6.1164 -2.1755 0.75916 0 20333
6.1375 -7.9697 0.4691 1 881
6.1387 -4.8463 -1.285 0 473
6.1759 -6.0903 1.425 0 617
6.1897 3.3958 0 0 17011
6.2176 1.4893 1.2046 1 18308
6.2527 9.263 0.52118 1 16474
6.2972 8.3023 1.712 0 16564
6.4199 11.178 -0.29928 0 16334
6.4398 2.7468 0.98395 0 17387
6.4978 -7.3264 1.6089 0 714
6.5079 -3.0458 1.0098 0 20648
6.549 -5.3565 -1.39 0 512
6.571 -8.6884 0.76174 0 898
6.585 -2.1091 0.32245 0 20274
6.6028 -0.34257 1.2457 0 19747
6.6551 2.7268 0.16698 0 17447
6.6688 5.0674 0.78141 0 16850
6.7088 5.4755 1.6316 0 16834
6.7642 -8.2232 0.99339 0 807
6.7867 2.597 1.0213 0 17554
6.7922 -6.9749 1.1385 0 635
6.8074 4.897 -0.19469 0 16871
6.8401 2.306 -0.50476 1 17771
6.856 5.8308 -0.41972 0 16819
6.8911 -3.3968 1.4475 0 20724
6.9036 5.5348 0.41264 0 16838
6.9351 2.2026 1.1955 0 17866
6.9585 7.0465 -0.46183 0 16737
7.0014 -0.58915 -0.16313 0 19840
7.0225 6.2218 1.5414 0 16802
7.0395 0.69891 -0.16424 0 19132
7.0535 3.1051 1.2662 0 17330
7.054 -10.283 -1.1634 0 947
7.0567 -9.5609 0.55416 1 915
7.1411 7.7986 1.7373 0 16701
7.1655 -4.6515 0.79701 0 129
7.1988 0.77696 1.3642 0 19088
7.2314 4.8593 -1.2244 0 16903
7.36 4.6997 1.0212 0 16916
7.4195 -0.79553 0.17325 0 19904
7.4311 2.2407 0.36195 0 17957
7.4478 8.7233 2.1611 0 16651
7.4705 3.7654 1.1757 0 17129
7.5034 -3.8628 0.78735 0 20786
7.5047 -2.9698 0.94384 0 20428
7.5095 -2.0023 0.18044 0 20204
7.5884 -5.1803 0.42847 0 222
7.6131 5.7849 -0.4459 0 16849
7.6254 -0.48509 -0.71285 1 19778
7.6264 1.3201 1.4583 0 18679
7.6358 -8.7592 1.9091 0 732
7.7541 -1.1768 1.2885 0 20024
7.7877 1.6269 -0.18471 0 18468
7.8243 -0.63365 0.73236 0 19831
7.884 -1.0337 0.74184 0 19972
7.9567 -4.6962 1.2985 0 21006
7.9596 -6.212 1.419 0 460
7.9868 1.3107 1.5249 0 18731
7.9893 2.359 -1.3686 0 17986
8.0187 7.1847 1.2591 0 16796
8.024 2.9634 0.19859 0 17605
8.1207 4.5795 1.5317 0 16977
8.1379 8.3363 1.914 0 16733
8.163 3.5646 0.83101 0 17341
8.183 -1.4355 0 0 20072
8.2136 -0.16488 1.1546 0 19647
8.3636 -1.8956 1.2052 0 20153
8.3929 -2.9853 0 0 20331
8.4177 5.9095 0.71919 0 16882
8.4484 -1.5582 1.6186 0 20088
8.4671 -9.9947 1.2221 0 760
8.4934 -1.925 1.6408 0 20154
8.5423 1.7846 -0.61023 0 18466
8.5579 -1.1221 1.213 0 19973
8.6486 4.2988 0.90105 2 17149
8.6594 2.3689 0.20843 0 18104
8.6759 -3.1441 0 0 20345
8.761 -11.935 1.3813 0 918
8.7912 7.2986 0 0 16829
8.8681 -1.059 1.0444 0 19940
8.943 5.6754 1.2386 0 16921
9.0289 9.143 2.1111 0 16738
9.0671 3.715 1.6099 1 17456
9.0897 -6.7605 1.8611 0 376
9.1465 4.8122 -0.23995 0 17060
9.2046 -1.5337 0.21665 0 20055
9.2782 1.2759 -0.21744 0 18887
9.4363 -2.7236 1.3803 0 20235
9.5109 -1.8091 0.22477 0 20097
9.5492 6.4994 1.8978 0 16898
9.5621 -0.99996 0.89696 0 19895
9.5702 -3.4682 0.23633 0 20346
9.6461 1.6957 0 0 18651
9.665 -2.46 0.46509 0 20191
9.7667 -4.2609 0.99413 0 20553
9.9159 3.3082 -0.24269 0 17785
10.099 2.3241 -0.48326 0 18346
10.1 -2.1063 0.23954 0 20124
10.192 -4.6576 1.841 0 20617
10.294 7.0062 1.1617 0 16897
10.319 0.42167 1.2077 0 19401
10.335 -2.7905 1.2519 0 20209
10.34 -0.93005 1.214 0 19856
10.343 -2.8897 2.0233 0 20226
10.354 -6.8921 1.1604 0 181
10.355 0.63332 1.458 0 19320
10.44 -1.2744 1.7279 0 19949
10.62 -3.267 1.5615 0 20260
10.696 1.4063 1.5162 0 18941
10.74 -5.8848 1.4321 0 20881
10.833 6.0219 2.0362 0 16994
10.851 -2.0641 1.0305 0 20098
10.9 6.8323 1.5044 0 16925
11.601 5.6404 2.1192 0 17185
11.869 -5.2594 1.2111 0 20576
12.242 -0.13888 2.3066 0 19613
12.448 3.52 1.2069 0 18057
12.513 1.9036 0.88507 1 18799
12.76 -2.1261 1.2069 0 20056
13.468 4.5402 1.3259 0 17777
-11.224 1.8179 -1.598 2 3330
2.2098 9.1554 -1.7745 2 15095
4.1092 -2.634 -1.6492 0 102
5.9118 3.5158 -1.8006 0 16949
5.9907 -7.2005 -1.991 1 784
6.8392 9.6451 -1.6617 0 16517
7.9693 7.1857 -1.5081 0 16793
8.6448 5.5904 -1.9397 0 16914
