VERSION .7
FIELDS x y z intensity index
SIZE 8 8 8 8 8
TYPE F F F F F
COUNT 1 1 1 1 1
WIDTH 810
HEIGHT 1
VIEWPOINT 0 0 0 1 0 0 0
POINTS 810
DATA ascii
-4.9537 0.29777 0.23143 0 3260
-4.9257 -0.69577 0.23199 0 3125
-4.5107 1.3997 0.88984 0 3694
-4.49 1.2106 0.54382 0 3591
-4.4893 1.2382 0.21717 0 3604
-4.234 0.56344 -0.19919 2 3350
-4.2228 1.5562 0.41987 2 3821
-4.2107 0.87583 -0.099853 0 3466
-4.201 -0.7574 0.70133 2 3100
-4.1134 2.3644 -0.89391 0 4522
-3.9806 -2.9822 0.34781 0 3030
-3.8695 -2.6764 0.21941 0 3052
-3.8131 2.0463 0.3026 0 4388
-3.734 -0.21072 0.17441 1 3173
-3.6575 0.82762 0 0 3490
-3.6488 1.9861 0.68253 0 4421
-3.3905 -2.4778 -0.19584 0 3036
-3.2946 3.1484 -0.21251 0 5905
-3.2767 -2.6364 0.69096 0 3006
-3.0432 3.1557 0 0 6116
-3.0425 2.311 -0.26717 1 5243
-2.9338 -2.9308 0.096278 0 2919
-2.8985 3.2034 0.70976 0 6301
-2.8839 1.5373 0 1 4372
-2.8357 2.2067 -1.1212 0 5324
-2.8328 1.5858 0.53338 0 4472
-2.6513 3.672 0.52965 1 7035
-2.6332 3.6283 0.84466 0 7016
-2.6013 4.0849 -1.3887 0 7406
-2.5292 2.7467 0.34834 1 6250
-2.3405 -2.722 0.58979 0 2853
-2.3065 2.2555 -0.92504 1 5966
-2.2939 -4.0183 0.21577 0 2684
-2.0727 -3.7578 0.30009 0 2670
-2.05 2.3467 0 0 6397
-1.983 -3.3624 0.54862 0 2690
-1.9435 4.1679 0.64632 0 8113
-1.7611 -3.7974 0.68772 0 2613
-1.7546 4.0046 -1.3643 0 8267
-1.7194 4.5551 0.56937 1 8628
-1.3652 4.0779 0.70652 1 8897
-1.2599 -3.3307 0.082677 0 2529
-1.2591 -4.6761 -0.11243 0 2343
-1.1925 -4.234 0.61821 0 2364
-1.1512 -3.2098 0.64248 0 2498
-1.1503 -4.1732 0.1005 0 2355
-1.0071 4.7219 -1.0263 2 9700
-0.92812 3.1293 0 0 9121
-0.92037 -4.3599 0 0 2282
-0.78639 -3.2958 -0.15801 0 2315
-0.74697 3.361 -1.2532 0 9619
-0.60607 3.6101 -0.9583 0 10000
-0.57735 -4.3328 0.82356 0 2171
-0.21364 -4.4317 -0.10301 0 1973
-0.21126 -3.709 0.086251 0 1993
-0.18398 -4.0359 0.28251 1 1967
-0.11438 -3.412 0.64322 0 1940
-0.051897 -4.8744 0.80088 0 1877
-0.030743 3.2024 0.45009 0 11008
0.029582 -3.0266 -0.14115 0 1830
0.045064 -4.6105 -0.10705 0 1831
0.15844 -3.5436 0.49852 0 1779
0.39277 -4.4447 0 0 1735
0.46099 -4.895 0.11415 1 1731
0.515 -3.0644 0.58545 1 1686
0.57471 4.9595 0.11591 0 11800
0.65506 3.6153 -1.3373 0 12195
0.70749 4.5077 -0.31907 1 12043
0.70988 4.2695 -1.133 0 12108
0.78997 -4.3212 0.61737 0 1676
0.81071 3.7881 0.72987 0 12401
0.83875 3.7585 -0.089408 1 12447
0.93935 3.0553 -1.0801 0 12951
1.0334 4.7517 0.79893 0 12419
1.0766 3.0538 0 1 13207
1.1432 4.7874 -1.0462 0 12547
1.2991 -3.9583 0 0 1595
1.3361 4.7373 -1.2885 0 12804
1.3373 -4.5554 0.5552 0 1607
1.4067 2.8765 0 0 13867
1.525 -3.5056 0.088758 0 1573
1.5329 4.1572 -0.10287 0 13284
1.8434 -2.8582 0.078963 0 1487
1.9391 -3.5242 0.56532 0 1522
1.9501 -2.7543 0.55445 0 1387
1.9729 2.3214 -1.1088 0 14866
1.997 2.4485 -0.51911 0 14812
2.229 -4.107 0.21792 2 1526
2.2391 3.8195 -1.3815 0 14230
2.2486 -2.2533 0.523 0 920
2.3776 3.4556 -1.3089 1 14542
2.4674 4.2089 0.45517 2 14232
2.5825 -1.8359 -0.14776 0 530
2.6788 3.991 0.1116 0 14499
2.6991 1.9267 -1.4765 1 15167
2.7681 2.5357 0.70728 0 15054
2.7813 -3.3776 -0.30595 0 1204
2.8262 1.8727 -0.1581 0 15191
2.8393 1.9405 0.32085 0 15181
3.1592 1.9626 -1.1605 0 15208
3.2478 1.9276 -0.2641 0 15219
3.3832 0.68341 0.24136 0 16262
3.3934 1.1824 0.42023 0 15667
3.4701 2.2543 0.38606 0 15200
3.4723 -2.5135 0.80763 0 569
3.5 1.4655 -1.3811 0 15431
3.6059 3.303 0 0 15053
3.6435 0.7135 -0.43417 1 16279
3.8228 1.9782 0.70717 0 15272
3.8519 2.1378 -1.4885 0 15238
3.8727 3.1182 0 0 15110
3.9681 -0.53651 -0.28 0 17819
3.9798 0.94812 0.67215 0 16105
4.0027 0.35723 -1.052 0 16954
4.0884 2.314 -0.66024 0 15229
4.2697 -1.6819 0.214 0 18249
4.2946 0.15748 -0.30051 0 17303
4.4587 -0.78939 0 1 17905
4.499 1.1971 -0.76488 0 15987
4.5242 1.8777 0.80477 2 15449
4.5246 2.0658 -0.34781 0 15342
4.5995 0.99781 -0.32911 0 16185
4.6405 0.061558 0.21643 0 17414
4.7211 -1.6413 0.46632 0 18147
4.7813 -0.64645 0.225 1 17820
4.8133 0.5144 -0.22574 0 16827
4.8859 -0.075901 0.80282 0 17517
0.71969 2.6691 -0.9341 0 12722
-14.401 -0.56079 -0.33461 0 3183
-13.45 5.6814 -1.3622 2 3972
-13.352 2.576 -0.31571 0 3442
-13.244 1.0283 1.5534 0 3277
-12.839 -0.16359 0 0 3203
-12.695 -1.1218 -0.59431 0 3151
-12.482 5.0584 -0.3127 0 3922
-12.159 6.0808 2.5614 0 4266
-12.006 8.9521 1.7513 0 5190
-11.76 9.1518 2.0943 0 5328
-11.396 -0.077573 1.0632 0 3209
-11.289 1.3741 2.1426 0 3338
-11.256 0.18272 2.1211 0 3222
-11.209 1.6273 1.0567 0 3365
-11.133 0.2157 1.8294 0 3225
-10.949 7.0342 1.2141 0 4753
-10.883 -0.64277 2.0541 0 3172
-10.732 3.1607 0.52173 1 3648
-10.658 6.0032 0.57046 1 4480
-10.598 -1.6558 0.50021 1 3115
-10.392 1.6924 -1.4797 0 3380
-10.382 6.6269 2.0236 0 4741
-10.348 6.9959 1.7555 0 4879
-10.271 4.8419 0.26363 0 4168
-10.06 11.056 1.0452 1 6282
-10.043 -0.068362 1.4115 0 3210
-9.926 -1.7591 1.8993 0 3103
-9.8589 -0.46838 0 0 3178
-9.8161 11.237 1.7448 0 6400
-9.7011 2.1631 0.23076 0 3486
-9.6784 11.276 2.0884 0 6451
-9.6676 5.5188 -0.51913 0 4507
-9.6111 10.932 1.0179 1 6383
-9.5069 8.8777 -1.2135 1 5841
-9.4823 1.7711 1.8175 0 3433
-9.4819 3.341 -0.23341 0 3780
-9.4762 5.3745 0.50804 1 4495
-9.3478 -0.60614 0.21749 0 3167
-9.197 6.943 1.3476 0 5232
-9.1575 1.1147 -1.0788 1 3334
-9.0768 -0.24719 -0.42344 0 3191
-9.0722 -0.32791 -1.0616 0 3184
-9.0471 -0.56286 0.84569 0 3168
-9.0427 2.0744 1.5243 0 3494
-9.0201 2.8302 0.44087 0 3699
-8.9698 4.8459 -0.71291 0 4400
-8.963 6.0593 1.7775 0 4880
-8.9011 11.964 2.8095 0 6931
-8.8313 -0.7028 1.4555 0 3155
-8.7998 0.06758 1.4458 0 3217
-8.779 5.8239 -0.2446 0 4825
-8.7557 1.8739 1.4711 0 3476
-8.732 1.2957 1.4503 0 3369
-8.6995 12.205 2.8239 0 7076
-8.592 4.0798 0.22083 0 4181
-8.5535 0.24041 0.79831 0 3232
-8.5176 -8.4142 0.27797 1 2923
-8.4981 11.993 2.4149 0 7091
-8.4307 -1.3428 0.79646 0 3113
-8.4282 -8.0852 0.54465 1 2928
-8.2319 -0.89718 1.1638 0 3140
-8.2229 12.433 2.449 2 7289
-8.1234 -0.9816 0.76339 0 3136
-8.1042 3.4234 -0.20425 0 3974
-8.0293 7.8986 1.0508 0 5980
-8.0081 -10.874 -0.31353 0 2764
-8.0056 0.66662 0.37462 0 3281
-8.0027 -5.3654 1.5829 0 3060
-7.9915 11.068 2.5721 0 7040
-7.9848 1.3491 0 0 3391
-7.9814 6.7855 0 0 5591
-7.963 -0.58616 0.55833 0 3159
-7.9393 0.77845 0.74425 0 3303
-7.9049 -10.045 2.1001 0 2798
-7.869 -6.2168 0.93561 0 3015
-7.8402 8.2215 -1.3285 2 6145
-7.8138 0.060008 -0.72902 0 3216
-7.8104 -6.3202 1.893 0 3000
-7.8022 2.0062 0 0 3553
-7.7989 -0.80181 0 0 3142
-7.7888 -7.8297 0.51503 1 2918
-7.7434 -6.887 0.96682 1 2962
-7.736 -6.2244 0.46304 0 3005
-7.6932 4.5425 1.2556 0 4573
-7.6723 5.3822 1.3171 0 4986
-7.6605 2.5974 0.94593 1 3752
-7.5746 -7.3969 0.2458 0 2925
-7.5414 -1.2228 0.17738 0 3110
-7.5253 2.9491 1.1359 0 3885
-7.5056 -0.073361 0.17427 0 3205
-7.4781 0.9288 0.52694 0 3341
-7.4549 0.2942 1.0485 0 3242
-7.416 -1.0475 1.2305 0 3126
-7.3512 11.398 1.2654 1 7367
-7.3498 6.6667 1.6303 0 5761
-7.3042 -8.4949 1.0452 0 2852
-7.2235 -6.6587 1.6141 0 2942
-7.2098 0.13969 -1.0135 0 3223
-7.2 6.8397 0.9265 0 5893
-7.1815 -5.8487 1.5217 0 2997
-7.1762 3.4567 0.37146 0 4204
-7.1713 2.0903 0.52234 0 3638
-7.1521 -0.71766 0.16689 0 3144
-7.1048 -0.23445 -0.49708 0 3185
-7.0926 -0.64922 -0.33214 0 3148
-7.071 9.679 -0.2783 0 6981
-7.0646 2.445 0.52276 0 3764
-7.0129 2.5844 -0.17352 0 3819
-6.9948 -7.6737 1.2142 0 2882
-6.9522 2.2468 0.8544 0 3721
-6.9501 7.727 0.96961 0 6317
-6.939 2.2868 1.2003 0 3734
-6.8939 4.5422 -0.19167 0 4810
-6.8741 0.59173 1.1335 0 3284
-6.8733 -5.274 1.6323 0 3023
-6.8679 5.6354 0 0 5481
-6.8029 1.1897 0.16034 0 3404
-6.8005 1.1075 0.64281 0 3384
-6.7959 0.033212 0 0 3215
-6.7927 -13.212 1.3859 0 2645
-6.7863 -5.5922 1.2359 0 2993
-6.7516 1.6721 1.3105 0 3531
-6.7488 1.3632 -0.80516 0 3455
-6.7237 4.9844 1.1763 0 5174
-6.6491 0.67187 0.62349 0 3307
-6.6224 5.5 1.6219 0 5526
-6.6177 1.7398 -0.3191 0 3569
-6.5958 -0.14162 0.6155 0 3200
-6.5898 -1.0296 0.46639 0 3116
-6.5274 9.8693 -1.1039 0 7278
-6.5155 1.8794 1.1141 0 3632
-6.479 -0.57254 -0.15101 1 3152
-6.4787 -4.5079 -0.55191 1 3049
-6.4691 -0.93452 -0.15175 0 3122
-6.462 -0.38165 1.0635 0 3171
-6.4353 2.3512 0.80121 0 3812
-6.4069 -4.2117 -0.53615 0 3061
-6.4034 2.318 0 0 3803
-6.3796 1.1352 0.75777 0 3413
-6.308 -5.3553 1.1629 0 2981
-6.2957 -4.544 0.72437 0 3039
-6.2723 -5.1082 -0.37723 0 2996
-6.2379 11.983 1.2604 0 7879
-6.2331 -4.7535 -0.54815 0 3024
-6.2151 -0.042305 -0.28984 0 3208
-6.2058 0.19177 1.0201 1 3235
-6.1991 2.6839 1.2727 0 4015
-6.1786 -0.16827 0.43221 0 3193
-6.1419 1.7902 1.2053 0 3642
-6.1079 3.8987 -0.33792 0 4729
-6.1052 1.6256 0.88792 0 3582
-6.0449 6.6015 1.0468 0 6268
-6.0384 1.8946 -1.3452 0 3701
-5.9949 -4.5718 0.70338 1 3025
-5.9857 3.6294 0.16252 0 4618
-5.9391 -6.9883 1.5067 0 2844
-5.9101 -7.9783 1.6313 0 2768
-5.9087 -4.4267 1.213 0 3031
-5.9028 9.762 1.6033 0 7539
-5.8671 0.52362 -0.13676 0 3288
-5.818 -12.078 -0.31126 0 2625
-5.788 3.0208 0.30447 0 4333
-5.7818 -7.0892 0.42661 0 2818
-5.7492 -0.056194 0.80804 0 3206
-5.737 12.885 2.3174 0 8233
-5.6818 1.6906 0 0 3659
-5.6447 1.7161 0.68994 0 3680
-5.6272 -1.0653 0.53431 0 3099
-5.6264 2.8754 -0.44184 0 4294
-5.5909 -7.5007 0.65418 0 2771
-5.5886 13.599 2.4156 1 8423
-5.5839 1.9489 -1.4013 0 3774
-5.5352 -0.11885 0.38715 0 3199
-5.5226 -3.6304 0.92884 0 3062
-5.4816 12.607 1.932 0 8293
-5.4814 3.6806 -1.4034 2 4862
-5.4787 13.332 1.6856 0 8419
-5.4389 -6.3998 0.98217 0 2843
-5.4282 -6.898 1.2336 0 2797
-5.3387 8.9522 0.242 0 7569
-5.2861 11.336 2.3566 1 8117
-5.1947 -4.9004 0.83512 0 2934
-5.1826 4.9526 0.50127 0 5909
-5.1787 5.7576 0.17979 0 6315
-5.1507 2.6882 0 0 4331
-5.1323 0.82022 0.4849 0 3379
-5.1289 0.92839 0.98205 0 3423
-5.1117 -7.8085 1.5333 2 2716
-5.0488 0.83855 0 0 3388
-5.0277 -0.7263 0.8346 0 3123
-5.0239 12.973 2.2856 1 8571
-4.9342 13.19 -1.3139 1 8638
-4.9309 -4.4367 1.0898 0 2954
-4.9236 -9.7767 1.0213 0 2637
-4.9176 5.9359 1.0833 1 6561
-4.9075 9.1066 0.48242 1 7799
-4.8842 -11.385 1.1558 2 2591
-4.8613 -10.092 -0.52239 0 2624
-4.827 -5.8514 1.0661 0 2824
-4.8224 -6.9204 1.3858 0 2742
-4.7959 7.8323 0 0 7506
-4.7823 2.7488 0.90625 0 4521
-4.7441 -7.5306 0.41506 0 2701
-4.7024 6.8038 1.1624 0 7158
-4.6015 -4.2625 0.88152 0 2939
-4.5834 -3.6681 0.54769 0 3011
-4.578 3.4348 0.9403 1 5215
-4.5632 12.198 1.8304 0 8649
-4.5545 3.6501 0.54453 0 5415
-4.5307 -8.4426 1.8052 0 2661
-4.5137 -3.5252 1.0791 0 3019
-4.3696 -4.3437 0.57482 0 2922
-4.3517 -10.475 1.0582 0 2580
-4.3225 -13.116 1.2884 0 2434
-4.3194 5.1531 0.94499 0 6523
-4.3036 -2.8854 0.36232 1 3058
-4.2918 -7.5703 0.81188 0 2681
-4.2594 -3.3266 0.50422 0 3018
-4.2382 -2.9128 -0.1194 0 3054
-4.2038 -10.119 1.2814 0 2581
-4.0358 3.7254 0.90236 0 5820
-4.0293 -13.396 1.3051 0 2386
-3.9984 11.82 0.87251 1 8873
-3.977 -4.1646 -0.13369 0 2904
-3.8769 14.289 1.0353 1 9286
-3.8467 5.7072 -0.32096 0 7224
-3.7943 -3.9263 -0.25463 0 2913
-3.7904 -4.0847 0.38966 0 2891
-3.7768 5.1698 0.74871 0 6990
-3.6969 3.5527 0.84238 0 5926
-3.6826 -7.7625 -0.19947 0 2621
-3.6234 -5.6074 -0.155 0 2709
-3.5611 -5.0184 1.011 0 2749
-3.5562 -3.5525 0.82584 0 2921
-3.5301 -8.0303 0.81838 0 2595
-3.4576 -6.5829 0.69372 0 2653
-3.4128 -6.104 0.98284 0 2677
-3.3903 3.9723 0.61072 0 6469
-3.3793 6.9317 0.35962 0 8012
-3.3404 -11.475 1.9636 0 2377
-3.3196 10.115 1.4961 0 8931
-3.3178 6.8055 0.70635 0 8014
-3.2718 -11.486 1.3966 0 2370
-3.2549 -8.0278 0.40397 0 2564
-3.1478 -5.5932 0.59878 0 2679
-3.0832 -5.6292 -0.14901 0 2668
-3.0779 -4.5564 0.3845 0 2730
-3.0736 7.669 0 0 8475
-2.9567 -13.437 1.2836 0 2295
-2.8428 -4.2369 0.96131 0 2726
-2.7857 -6.8707 0.17213 0 2563
-2.7005 -4.5175 -0.49103 0 2693
-2.6938 -5.3166 0.55605 1 2640
-2.6727 -9.3827 0 0 2365
-2.6648 5.2299 -0.27372 0 7918
-2.6448 6.1798 0 0 8324
-2.5804 5.0643 0.93381 0 7927
-2.5582 -7.6193 -0.37481 0 2444
-2.5269 4.6539 -1.1256 2 7784
-2.5216 -5.8327 0.59284 0 2592
-2.4912 8.5861 0.62516 0 9169
-2.49 6.0592 0.30549 0 8416
-2.482 8.3682 0.40705 0 9124
-2.4776 -8.6976 0.20996 0 2366
-2.4718 4.461 0 1 7739
-2.4384 7.7241 -0.18805 0 9002
-2.4233 5.6161 -1.4493 0 8309
-2.3713 -9.9383 0.23721 0 2317
-2.3698 -6.2649 1.262 0 2534
-2.3065 -8.0971 1.1832 0 2371
-2.2671 -6.7521 1.1702 1 2449
-2.1875 9.7068 -1.1636 1 9587
-2.1853 7.7798 0.945 1 9233
-2.1513 9.058 0 0 9509
-2.0806 12.393 1.7661 0 10002
-2.0279 -6.6703 0.65043 0 2391
-2.0268 5.3216 -0.13221 1 8598
-2.0196 -7.09 0.5155 0 2368
-1.9872 8.2584 1.3955 0 9497
-1.9774 -8.8683 1.0625 0 2300
-1.9597 13.873 1.3072 0 10167
-1.9476 -5.9097 -0.14446 0 2432
-1.9447 -8.7214 -0.20746 1 2297
-1.9441 -6.2648 0.61197 1 2402
-1.8112 6.9089 -1.3457 0 9360
-1.8099 -8.0053 1.1535 0 2305
-1.7525 13.872 1.6352 0 10251
-1.6361 -11.51 1.9101 0 2185
-1.5166 5.4613 0 0 9248
-1.4704 6.4407 -1.4042 0 9581
-1.4643 -5.1989 0.63163 0 2363
-1.4571 13.073 2.1611 2 10344
-1.4554 -5.6683 0.68436 1 2335
-1.3112 -9.2248 0.86928 0 2183
-1.1992 5.396 0.77686 1 9627
-1.1719 -7.1875 1.0235 0 2209
-1.0311 9.7608 -1.1478 0 10370
-0.93975 -8.808 0 0 2118
-0.93359 8.3759 1.5879 0 10346
-0.88281 -7.6416 1.0811 0 2143
-0.71097 14.965 1.752 0 10760
-0.63076 -5.4598 0.51276 1 2141
-0.61265 14.803 2.7914 2 10809
-0.44982 -7.8972 1.2996 1 1997
-0.43544 -6.0748 1.0006 0 2029
-0.39164 14.567 1.019 1 10897
-0.36173 11.02 1.0287 0 10866
-0.35615 -6.2527 0.58429 0 1995
-0.2987 -6.1961 0.28928 0 1974
-0.27337 8.3285 -0.3886 0 10859
-0.25013 -9.9502 -0.23109 0 1912
-0.14262 14.856 1.7374 0 11007
-0.13838 5.7863 0 0 10912
-0.13579 -6.0771 0.71084 0 1907
-0.11884 -7.3209 1.2029 0 1893
-0.091789 -8.6212 -0.20017 0 1871
-0.048203 7.2678 0 0 11020
-0.017895 -10.253 -0.23805 0 1852
-0.015014 -8.6026 0.80259 0 1856
0.0078228 -6.403 0.2986 0 1850
0.094147 -5.0408 0.58958 0 1815
0.12586 -6.7388 0 0 1812
0.14134 -9.0985 -0.21126 0 1820
0.15545 6.1414 0.28649 0 11231
0.25046 8.911 1.4646 1 11258
0.3506 -7.8416 -0.36605 0 1776
0.40427 14.383 2.711 2 11260
0.45172 14.535 1.0169 1 11272
0.45259 14.564 1.7039 1 11276
0.48163 14.146 2.3255 2 11296
0.48252 -9.0261 1.703 0 1768
0.49668 -12.755 0.29636 1 1786
0.54701 13.799 1.9409 2 11332
0.62603 -11.711 0.82006 0 1767
0.65354 -10.079 0 0 1753
0.67001 13.848 2.6121 0 11391
0.67336 13.917 1.2999 1 11384
0.68341 -5.1631 0.85567 0 1707
0.68597 -13.635 0.95469 1 1771
0.69903 -10.28 1.6929 0 1752
0.72377 -9.7857 1.6121 0 1747
0.75069 -8.7744 0.41068 0 1739
0.84424 5.1725 -1.114 2 12089
0.84537 6.1955 -1.4816 0 11928
0.94708 -6.4369 0.15106 0 1698
0.9532 -8.9936 0 0 1724
1.041 -11.781 1.1034 0 1736
1.1284 6.9137 0.98451 1 12088
1.1729 8.0599 -1.3381 0 11971
1.1761 11.304 0.26386 0 11731
1.2164 -9.6015 1.5901 0 1710
1.267 -9.3463 0.43984 0 1705
1.2742 -13.53 0 0 1730
1.3514 -7.6331 1.0894 0 1681
1.3783 -9.541 0 0 1701
1.39 -11.815 1.9545 0 1716
1.3997 9.0727 0 0 12028
1.4157 5.0774 0.36859 0 12782
1.4162 13.611 2.2483 0 11738
1.5802 5.6031 0.27149 0 12800
1.5846 -7.5392 0.17886 0 1657
1.5972 -4.9129 0 1 1597
1.5989 -14.322 2.3676 0 1721
1.6046 -11.108 -0.26056 0 1700
1.6497 5.2068 1.0291 0 13015
1.6701 -4.7557 0.70839 1 1592
1.6757 -5.052 0.87448 0 1594
1.6821 -11.201 0.26298 0 1696
1.7145 -5.1212 0.50385 0 1593
1.7405 13.973 2.3135 0 11859
1.8006 -11.753 1.1093 0 1694
1.8147 5.2495 -1.0465 0 13178
1.851 -9.2134 0.21818 0 1664
1.9087 4.7891 0.3605 0 13445
1.9475 7.9528 0.1901 0 12575
1.9487 -7.4279 0.53699 0 1626
1.9609 -11.668 1.9438 0 1685
1.9984 -8.2041 0 0 1637
2.0425 -4.8494 0 0 1580
2.1418 -7.2168 0.17478 0 1604
2.1559 -5.7632 0.57407 0 1588
2.1698 6.2134 0.61402 0 13194
2.2406 5.9641 0.29711 0 13322
2.2483 -12.483 0 0 1679
2.3007 -5.1674 0.79496 1 1568
2.3105 -7.4733 1.4738 0 1600
2.3431 5.593 0 1 13544
2.368 7.1102 1.412 0 13111
2.4297 -9.1506 0.44152 0 1622
2.4297 11.033 -0.26228 0 12429
2.4339 4.9031 0 0 13894
2.4491 -5.5449 0.56553 0 1571
2.4848 7.4608 -1.4816 0 13110
2.4889 -5.2606 -0.2714 0 1559
2.4936 4.6157 0.61351 0 14054
2.5258 4.4862 -0.24009 1 14144
2.5276 -9.2014 1.3411 0 1617
2.5325 4.4981 -1.4802 1 14148
2.5374 -11.105 0.53124 1 1647
2.5513 -11.167 1.0686 0 1648
2.5513 -6.7589 -0.50518 0 1587
2.6063 -9.3788 0.68068 0 1615
2.6074 -10.304 2.0026 0 1630
2.6224 5.7383 -0.29422 0 13736
2.6508 -6.3933 0.48397 0 1582
2.669 -4.986 0.66136 0 1530
2.6812 -10.73 1.817 0 1633
2.694 -5.4413 -0.56646 0 1548
2.6998 -6.7913 0.68183 0 1586
2.7406 7.7094 0 0 13224
2.7785 12.616 2.434 0 12439
2.8609 5.7632 -1.3676 0 13898
2.9468 9.3919 -0.22853 0 12987
2.9887 -4.8486 1.0731 0 1505
3.0038 -8.5535 0.21048 0 1591
3.0138 -7.0452 0.7149 0 1575
3.0327 -9.2404 0.22579 0 1596
3.0403 -11.45 1.9464 0 1623
3.0462 -7.6007 0.76394 0 1583
3.0637 -9.4235 0.92446 0 1598
3.0726 -6.6375 -0.51145 0 1563
3.0769 4.1265 -0.72342 1 14659
3.1102 -4.854 0.53784 1 1490
3.1358 8.4275 0.62878 0 13307
3.1422 7.4385 0.94431 0 13567
3.1445 -6.4931 0.50448 0 1553
3.1456 5.2579 -0.42844 2 14269
3.1665 10.642 1.8242 0 12894
3.1807 -4.6315 0.13044 0 1419
3.2205 12.087 0.58332 1 12704
3.2314 -5.7512 0.30764 0 1519
3.2342 12.434 0 0 12669
3.2586 -9.1109 1.1315 0 1590
3.3055 4.4883 -1.4592 0 14646
3.3745 -6.3491 -0.33531 0 1532
3.3914 -4.2697 -0.38129 2 1251
3.4477 -4.8983 -0.55884 1 1390
3.5512 -7.5604 -0.38953 0 1561
3.5892 -11.146 -0.54605 0 1599
3.6282 14.455 2.0946 0 12619
3.6793 -3.9291 -0.37641 1 1024
3.7212 8.3344 1.7197 0 13692
3.7656 6.0145 -0.16475 0 14366
3.7982 10.585 1.5804 0 13245
3.8199 -10.399 1.2955 0 1589
3.8758 14.374 1.041 1 12724
3.9061 -5.9828 0.66659 0 1479
3.9153 9.6615 0.48614 1 13482
3.9531 -6.0919 0.33866 0 1484
3.96 3.9572 0.39147 0 15014
3.9635 -5.1116 -0.4523 0 1284
3.9835 -8.7411 0 0 1566
3.9835 -8.2257 1.5016 0 1554
4.0096 -3.6805 0.38059 0 834
4.0216 8.9317 -0.22742 0 13700
4.0663 3.3711 -1.1227 0 15106
4.0673 8.0729 -0.20987 0 13919
4.0977 2.9067 0 0 15169
4.1343 6.6447 0.18169 0 14353
4.1395 5.7248 -0.99286 0 14611
4.1431 10.947 1.645 0 13344
4.2055 5.2493 0.78657 0 14798
4.225 3.6302 -0.38952 0 15084
4.2808 -3.4332 1.0339 0 694
4.2995 4.1274 0 0 15031
4.3479 -6.2187 0.17617 0 1397
4.3498 8.8323 0.45913 0 13881
4.3669 3.663 0.26581 0 15100
4.3686 -6.86 1.5323 0 1494
4.3972 -6.4412 -0.54536 0 1426
4.4131 -5.1726 0.47546 0 1161
4.4566 -9.2025 -0.47683 0 1552
4.4704 -9.0971 1.6653 0 1550
4.4966 7.9316 0.21168 0 14158
4.4995 -4.7781 0.76752 0 1018
4.5834 3.581 -0.13504 0 15126
4.6026 -9.1632 1.1991 0 1545
4.6053 4.3186 1.0372 0 15044
4.6596 2.8197 -0.50812 0 15214
4.7201 9.3686 1.2268 0 13924
4.7318 14.208 1.3971 0 13105
4.7327 14.211 1.7516 0 13107
4.7379 2.3303 0 0 15287
4.746 9.2904 1.9656 0 13951
4.7819 2.3696 0.4979 1 15284
4.7912 1.6395 -1.4521 2 15689
4.7989 -9.4879 -0.49583 0 1543
4.8022 4.5033 -0.6142 0 15040
4.8065 3.1429 -0.67158 1 15196
4.8258 4.1216 -1.1957 0 15091
4.84 -5.2893 1.0076 0 1063
4.9019 1.5052 0.96612 0 15818
4.9423 1.8037 -0.3679 2 15603
4.9519 -2.7359 0.52781 0 129
4.9848 -7.8791 0.86984 0 1496
5.0025 -6.2981 -0.75038 0 1250
5.0541 -3.1276 0.83532 0 309
5.0567 1.1888 -0.60747 0 16107
5.0823 -1.27 -0.12162 0 18015
5.1202 1.784 0.25285 0 15663
5.1616 2.8447 -0.27484 0 15240
5.1682 0.85836 -1.1136 0 16433
5.1883 5.4941 1.2415 0 14969
5.2123 5.6169 0.7149 0 14957
5.2211 5.2779 -0.17236 0 15003
5.2255 3.7743 -0.75382 0 15162
5.2821 2.0679 -0.1317 0 15519
5.3251 -7.0308 1.449 0 1316
5.3381 8.7556 1.6848 0 14320
5.3391 12.745 1.2892 0 13548
5.3484 -5.3897 0.70839 1 925
5.3523 0.11959 -1.4015 0 17380
5.356 3.9401 0.62033 0 15157
5.426 -6.3598 1.3735 2 1162
5.4381 2.8551 0 0 15260
5.4833 -1.5899 0.53264 1 18060
5.4936 -8.9682 1.7279 0 1507
5.509 4.329 -0.32674 0 15121
5.5091 5.348 0.17826 0 15028
5.5291 2.1479 1.1176 0 15538
5.5999 -6.1585 0.77658 0 1070
5.6141 -1.0263 0.6674 0 17919
5.6458 6.5662 1.6316 0 14877
5.6767 3.9527 1.1365 1 15174
5.684 -3.0414 1.2146 0 18711
5.6885 2.2465 0 0 15507
5.7222 4.7439 -1.0446 0 15105
5.7235 5.8222 0.95476 0 14996
5.7763 -1.7484 0.99153 0 18075
5.8458 2.8752 1.0703 0 15292
5.8879 10.386 1.3961 0 14163
5.9291 -4.507 0.69483 0 638
5.9458 -3.3312 0.47658 0 151
5.9788 0.58517 0.42007 0 16893
5.9826 -4.1766 1.0254 0 503
5.987 -1.6998 0.7278 0 18055
5.9887 -1.2032 0.14182 0 17946
6.0293 -1.2289 0.57407 0 17952
6.0375 -1.8655 0.29469 0 18084
6.0575 4.4562 0.17459 0 15156
6.1086 7.0594 -0.87095 0 14880
6.1562 -6.8492 1.0769 0 1088
6.2211 3.8648 1.2033 0 15209
6.245 -2.1711 1.2457 0 18150
6.2499 9.6719 0.53701 1 14433
6.262 3.3563 1.1673 0 15254
6.2796 -6.9864 0.43807 0 1086
6.2946 -2.1686 0.46555 0 18141
6.2976 -5.486 1.3722 0 781
6.3056 -6.696 1.2926 0 1019
6.3077 0.23129 -0.88709 1 17299
6.3402 9.7445 1.0846 0 14444
6.3613 -4.4114 0.90528 0 490
6.395 -4.0069 0.88251 0 330
6.4186 -0.13781 0.59897 0 17535
6.4451 -10.254 1.9899 0 1499
6.4883 7.3286 0.68445 0 14911
6.4986 -5.7293 1.6323 0 791
6.5876 4.067 -1.0881 0 15210
6.6313 -2.6577 0.16586 0 18269
6.6464 8.057 0.48708 1 14829
6.6545 -3.6026 0.70598 0 97
6.6633 4.6104 -0.75595 0 15175
6.6673 -3.5675 0.35264 1 18708
6.6784 2.3715 1.1643 0 15643
6.7037 -5.8028 0.41347 0 775
6.7138 2.1905 -0.16396 0 15743
6.7731 -0.4202 0.15755 0 17640
6.7857 0.74435 0.63687 0 16817
6.7997 -6.5025 1.7726 0 871
6.8248 0.15249 1.1215 1 17382
6.8495 3.8265 -0.18216 0 15233
6.8543 3.6507 1.2759 0 15257
6.8882 2.2887 0.67718 0 15724
6.8926 7.6469 0.48009 1 14930
6.9511 3.5448 0.91248 0 15278
6.9594 1.4463 -0.16503 0 16227
6.9799 -0.57508 0.6534 0 17695
7.0384 -4.8809 1.4072 0 491
7.0608 0.58795 0.66102 0 16995
7.1094 -1.6662 -0.16953 0 17994
7.19 -4.0282 1.354 0 152
7.1934 -3.5849 0.93989 0 18598
7.2176 -0.95406 0.67923 0 17813
7.2417 -0.59665 0.50811 0 17694
7.3001 2.7847 1.0981 1 15557
7.327 -1.8963 0.88507 0 18028
7.3665 -3.2536 0.75131 1 18403
7.3862 -6.3577 1.1397 0 774
7.4289 -1.6035 0.17645 0 17971
7.4744 -3.9358 0.5907 0 54
7.5337 6.8216 1.9148 0 15058
7.5481 -1.9086 1.2791 0 18021
7.5862 -12.155 1.3367 0 1500
7.6001 1.3743 0.90319 0 16356
7.6414 7.9544 1.0291 0 14978
7.6524 6.0132 1.3678 0 15125
7.7101 10.034 -1.4798 0 14722
7.751 -7.2863 0.74388 0 853
7.7743 -2.1341 1.3245 0 18046
7.7875 6.9311 0.24204 0 15070
7.7914 9.8444 1.7644 0 14780
7.794 2.1454 -0.18768 0 15954
7.7958 2.8451 -1.3634 0 15599
7.8223 8.1884 1.8605 0 14976
7.8681 8.4789 1.3527 0 14959
7.8732 2.7695 1.3712 0 15655
7.9043 4.6597 -0.21303 0 15220
7.9369 3.0546 1.1952 0 15547
7.9558 7.7232 -0.51708 0 15027
7.9661 -1.219 1.1326 0 17856
7.9924 -4.2175 1.4847 0 18688
8.0839 2.05 0.19362 0 16036
8.0994 3.5016 -1.0319 0 15401
8.1194 7.1809 2.0422 0 15077
8.1853 -0.31731 1.1512 0 17583
8.2133 -0.77494 0.96475 0 17725
8.2314 2.6857 0.80779 0 15747
8.2404 4.7327 -0.88656 0 15223
8.2554 -6.1243 1.4446 0 605
8.2948 4.6339 0.2206 0 15234
8.3128 -0.56525 0 0 17656
8.321 3.7711 -0.63883 0 15351
8.3269 6.0543 -0.23902 0 15159
8.3854 8.5301 2.2537 0 14998
8.3998 -3.3088 0 0 18246
8.4203 5.7547 -0.47562 0 15180
8.4338 -9.7157 1.8081 0 1137
8.4566 10.556 -1.2618 0 14793
8.5099 -5.2006 0.46509 0 287
8.5439 5.6615 0.95623 0 15192
8.5565 -5.3987 0.23489 0 338
8.6245 -3.1972 0.85814 0 18193
8.6641 2.0897 1.4643 0 16094
8.7466 4.753 1.6355 0 15250
8.7925 3.2961 1.0981 0 15576
8.8821 5.7703 -1.4886 0 15198
8.9117 -0.60597 1.4675 0 17658
8.9283 -4.4146 1.3998 0 18586
9.0538 -1.2789 -0.63939 0 17831
9.1066 1.1069 -0.64148 0 16737
9.12 -5.4258 0.99004 0 246
9.1379 -2.3649 0.88062 0 18027
9.1799 -0.35587 1.5093 0 17585
9.3467 2.1407 1.1213 0 16140
9.4199 -4.5254 0.73077 0 18538
9.5008 -0.61605 0.66576 0 17647
9.5786 -1.7511 -0.22607 0 17918
9.5986 -4.9224 1.0064 1 18643
9.623 5.8233 -0.52453 0 15215
9.6296 2.1454 1.6209 0 16170
9.6431 10.094 0.32412 1 14975
9.7562 1.6204 -0.69157 0 16421
9.792 0.73111 1.85 0 17068
9.8913 5.7523 1.0675 0 15222
9.9766 5.4213 1.5958 0 15248
10.37 -1.4647 1.2247 0 17833
10.482 -1.6677 1.7438 0 17868
10.486 -1.6345 0.4949 1 17861
10.509 4.2568 -1.0579 0 15475
10.551 -1.8681 0.9997 0 17906
10.553 0.78792 0.73998 0 17060
10.726 -2.2857 1.0231 0 17966
10.813 -1.7823 -0.25444 0 17879
10.952 -4.9498 1.9746 0 18441
11.075 -4.066 1.9383 0 18186
11.253 -1.4875 0.26354 0 17812
11.327 2.2181 -1.0768 0 16280
11.436 6.5681 1.5422 0 15225
11.564 -3.8334 -0.28285 0 18117
11.793 3.5828 2.0249 0 15830
11.888 5.2605 2.1358 0 15381
13.539 1.5258 0.95273 1 16797
13.953 -1.7231 -0.65562 0 17794
14.568 1.9386 1.0277 1 16654
14.678 1.7372 0.34315 1 16760
5.2716 -3.6122 -1.8324 0 468
5.5416 0.10834 -1.5893 0 17393
6.0674 7.8052 -1.8626 0 14753
9.1159 4.9537 -1.7045 0 15245
10.015 2.9135 -1.9652 1 15897
11.376 -0.8394 -1.8741 0 17667
