VERSION .7
FIELDS x y z intensity index
SIZE 8 8 8 8 8
TYPE F F F F F
COUNT 1 1 1 1 1
WIDTH 955
HEIGHT 1
VIEWPOINT 0 0 0 1 0 0 0
POINTS 955
DATA ascii
-4.8931 0.088826 0.68779 0 2338
-4.7634 0.71444 0.67694 2 2905
-4.6645 -0.56777 0.21913 0 1791
-4.5317 0.8015 -0.42935 2 3007
-4.5188 1.1973 0.10853 0 3406
-4.412 2.1988 0.6928 0 4851
-4.4049 0.70003 0.62684 0 2938
-4.1051 0.40902 0.77727 0 2686
-4.0441 -2.6323 0.79277 0 1595
-3.9464 2.4487 -0.65272 1 5668
-3.9015 -0.04222 0.64102 2 2227
-3.8849 1.4649 -0.29033 0 4030
-3.8522 0.78443 0.45972 0 3133
-3.8522 2.3128 0.20953 0 5546
-3.8188 1.024 0.18438 0 3419
-3.8057 -2.6697 -0.10793 0 1533
-3.7046 2.8913 0.8854 0 6701
-3.5429 -0.17266 -0.49852 0 2054
-3.4612 2.4972 -1.2238 1 6341
-3.454 -3.2254 0.55265 0 1289
-3.4224 -0.54941 0.16164 0 1680
-3.1836 3.0529 -0.41151 0 7688
-3.18 -2.1896 -0.08964 0 1546
-3.0614 -3.5858 -0.21987 0 1191
-2.9308 -3.7311 0.89391 1 1161
-2.8536 -2.6333 -0.090151 2 1296
-2.8051 3.9721 0.1129 1 9644
-2.748 -3.3562 0.81726 0 1172
-2.484 -4.2731 0.23049 0 1108
-2.4559 4.0743 0.66859 0 10391
-2.3964 2.641 -0.1663 2 8389
-2.3687 -3.9672 0.54033 0 1112
-2.0959 -3.5327 0.57729 0 1111
-1.8354 -4.2863 0.10826 0 1076
-1.5109 4.0954 0.82245 0 12241
-1.4559 -4.3014 0.74608 0 1031
-1.2849 -2.9749 0.5324 0 1077
-1.2574 2.7693 -1.2704 1 11522
-1.1952 -3.5658 0.26298 0 1026
-1.103 3.072 -0.22824 1 12301
-0.99265 -3.077 0.60915 0 1013
-0.89114 3.9287 0.37584 2 13343
-0.81057 -3.0528 -0.1473 0 963
-0.78199 -4.904 0 0 887
-0.65193 -4.6037 0.76391 0 875
-0.6008 -4.3298 -0.20385 1 871
-0.58864 -3.5557 0.16807 0 895
-0.20048 -4.7438 0 0 760
-0.10129 -3.0375 0.070561 1 750
0.016554 4.5168 -0.10487 0 15051
0.11154 4.176 -0.19481 0 15204
0.25587 3.0093 -1.0993 0 15496
0.3543 4.0173 0.093632 1 15509
0.49079 3.2683 -1.2905 0 15694
0.54527 4.6557 0.88318 0 15617
0.85902 -3.233 0.63026 0 512
1.3811 4.7139 -1.4085 0 15965
1.4064 4.5489 -0.44421 0 15986
1.5514 -4.1827 -0.31195 0 410
1.586 -3.5061 0.54083 0 363
1.7095 4.6944 0 0 16070
1.7265 2.6944 -0.29855 0 16387
1.7836 4.1021 0.31279 0 16145
1.7998 3.2698 -1.3585 0 16262
1.825 -4.1931 0.6427 0 378
1.9269 3.1481 -0.085694 0 16325
2.0614 -3.1779 0.17664 0 238
2.0767 -2.7093 -0.23871 0 167
2.2988 -2.3863 -0.38748 1 112
2.3158 2.2402 0.37679 0 16785
2.3219 -3.2206 -0.27763 0 183
2.3486 -2.4517 0.078824 0 114
2.3891 2.0325 -1.1417 1 16959
2.3962 2.4147 -0.80604 0 16748
2.4048 3.503 -0.69809 1 16497
2.4456 3.6518 -1.3714 0 16475
2.4701 -3.4451 -0.49573 0 184
2.4942 3.5436 0.30302 1 16518
2.524 3.436 -0.19882 0 16541
2.5393 -2.5015 0.33255 1 100
2.5922 2.6582 -0.25963 0 16731
2.7386 -3.5728 0.73959 0 169
2.7593 2.4464 -0.78383 0 16895
2.7611 2.3226 0.16826 0 16977
2.7701 -2.2504 0.082863 1 46
2.7821 -2.9389 0.093957 0 115
2.7931 -2.7999 -0.36897 0 104
2.8146 2.409 0.69802 0 16955
2.9227 -2.319 -0.26089 0 22967
2.9537 2.8088 0 0 16805
2.9667 3.9889 0.69865 0 16551
3.0291 -1.6632 0.56775 2 22534
3.1159 -3.8082 -0.57541 0 144
3.186 -0.22334 0.60174 0 21383
3.2394 -1.0713 0 0 21868
3.2963 -2.0287 -0.27066 0 22653
3.384 -0.62597 0.6484 0 21649
3.4297 -0.54198 0.16192 0 21597
3.4612 -2.0339 0.37454 0 22605
3.4652 3.3733 -1.0279 0 16780
3.4727 0.050311 0.080634 0 21067
3.4838 -0.3054 0.57456 1 21432
3.6026 -0.99705 0 2 21782
3.6064 -1.124 0.71172 0 21839
3.6561 -2.4605 0.72403 1 22768
3.6798 -0.21411 0.17189 0 21344
3.711 1.5569 -1.0535 0 18797
3.7677 2.0525 0.7049 2 18128
3.7986 -0.19974 -0.99578 0 21327
3.8117 3.0757 0.68835 0 17068
3.8331 0.66141 0.1814 0 20236
3.8531 -1.6858 0.29409 0 22234
3.8756 -0.3964 0.64005 1 21470
3.9022 -2.3382 0.21214 0 22629
3.944 -2.6204 -1.3578 1 22751
3.9848 -2.6817 0.44811 0 22766
4.003 -0.68137 0.76505 0 21623
4.0202 -2.059 0.10487 0 22454
4.1696 -0.93584 0.19928 0 21708
4.2153 -0.62923 0 0 21579
4.3317 -2.2186 -0.56914 2 22450
4.3932 2.0739 -0.33971 0 18498
4.4203 -1.0735 0.10561 0 21736
4.4237 -0.38781 0.4143 0 21430
4.4762 0.36408 -1.2878 0 20735
4.5696 1.8092 -0.1141 0 18929
4.6511 0.22829 0.10812 0 20908
4.7145 -0.042789 -0.10946 0 21161
4.7169 -0.30255 0.77656 0 21364
4.9409 0.071582 0.69447 1 21071
0.5406 2.6932 -1.3798 1 15799
2.3305 1.8471 -0.34776 2 17101
-14.685 2.2865 0.34505 1 2924
-14.16 -0.27435 -1.3213 1 2180
-14.092 4.1288 -1.37 1 3537
-13.119 -0.41 0.61211 1 2137
-12.696 2.3966 1.2054 0 3064
-12.088 1.1682 0.84922 1 2670
-11.778 -1.2254 0.5522 1 1849
-11.776 1.9051 1.395 1 2951
-11.745 1.4505 1.1041 0 2791
-11.671 -1.907 1.662 0 1675
-11.609 -0.16008 1.9075 1 2214
-11.574 1.3556 1.6378 0 2764
-11.448 -0.32177 2.1578 0 2155
-11.39 0.30621 1.6013 0 2378
-11.373 -0.88508 2.1492 0 1958
-11.348 -0.38834 1.5958 2 2127
-11.027 3.4408 1.3508 0 3646
-11.005 3.6119 1.903 0 3739
-10.992 -0.47225 2.073 1 2091
-10.992 -0.30896 1.8067 1 2154
-10.943 -1.8215 1.035 1 1668
-10.89 3.7518 1.0746 0 3828
-10.837 -0.056746 0.75783 0 2245
-10.757 -1.9471 1.2784 1 1642
-10.658 -1.9638 0.75783 0 1636
-10.632 1.185 2.0156 0 2739
-10.58 8.3586 -1.2579 1 6738
-10.503 1.9827 1.7561 0 3067
-10.411 1.5299 1.4789 0 2893
-10.384 1.1867 1.4688 2 2750
-10.254 -0.91698 0.9605 1 1905
-10.233 -0.1411 0.95474 1 2211
-10.077 8.2977 -1.2178 1 6935
-10.073 -0.63901 1.4185 1 2007
-10.047 0.092938 1.893 1 2309
-9.9725 11.118 -1.0444 1 8449
-9.9627 -1.301 1.6507 0 1764
-9.932 -1.093 1.1685 0 1832
-9.9132 -2.0349 1.9067 0 1616
-9.6633 -0.83693 0.45233 0 1915
-9.59 1.013 -0.22389 0 2706
-9.5319 2.3501 0.45782 0 3324
-9.4893 0.034779 1.1097 1 2283
-9.4809 -1.2937 1.119 0 1743
-9.45 3.2557 0.46611 1 3825
-9.271 3.4056 1.155 0 3974
-9.2374 4.5694 1.2052 0 4823
-9.0409 4.6704 1.4301 2 4971
-9.0143 4.3926 1.6475 0 4776
-9.0047 -7.6149 -0.27379 0 1360
-8.968 4.9363 1.6818 0 5207
-8.924 5.396 1.9648 1 5586
-8.7994 5.7122 -1.4744 0 5861
-8.7909 -5.8296 0.9841 0 1583
-8.7609 5.5427 1.7032 0 5775
-8.7192 5.5163 1.2066 1 5771
-8.6946 -7.8838 1.6495 0 1311
-8.6645 5.9884 1.4802 0 6157
-8.6472 -1.1569 1.2261 0 1753
-8.6208 -0.82249 1.4228 1 1884
-8.3699 2.4269 1.6419 2 3533
-8.3672 -0.5059 1.5793 2 2020
-8.36 11.621 -1.3356 0 9546
-8.3308 8.4156 1.6642 0 7956
-8.319 11.706 -1.0042 0 9605
-8.2929 6.1678 0.96422 1 6475
-8.2654 1.141 0.19372 0 2850
-8.2472 5.1174 1.5946 1 5691
-8.1994 -0.90232 1.5542 0 1835
-8.1989 -0.66399 1.3514 1 1943
-8.1804 12.252 -1.3744 0 9906
-8.1607 2.4173 0.59516 0 3559
-8.1414 9.4585 -1.1643 0 8656
-8.116 5.4373 1.605 2 6018
-8.1066 5.8833 -0.93449 0 6355
-8.1016 7.1602 0.50422 1 7295
-8.0756 -0.55762 0.94663 0 1989
-8.0365 3.9492 1.6871 1 4804
-8.0165 6.9197 -1.4883 1 7159
-7.9946 -8.2412 1.3427 0 1264
-7.8639 12.392 -1.3692 1 10141
-7.8595 -6.3736 -0.47189 0 1392
-7.8146 12.477 -1.0295 0 10199
-7.7868 3.6575 0.60158 0 4646
-7.7846 -1.0415 0 0 1749
-7.761 5.6678 0.89659 1 6393
-7.707 -8.9761 -0.27468 0 1196
-7.703 6.1185 0.91777 2 6781
-7.698 9.4892 2.3022 1 8971
-7.6898 2.1095 -0.18513 0 3443
-7.6696 8.3056 2.13 0 8317
-7.6495 -6.8973 1.6922 0 1314
-7.6332 7.4023 2.0033 1 7765
-7.6301 8.1196 1.303 0 8222
-7.6134 5.4246 1.0932 2 6289
-7.5997 4.6516 -0.41552 0 5620
-7.5919 2.7392 -0.75298 0 3921
-7.5318 -7.2836 1.7214 0 1282
-7.5246 3.4292 1.3586 1 4558
-7.5189 5.1657 0.85108 0 6126
-7.4901 2.3157 0.73143 2 3626
-7.4718 2.3315 1.2859 2 3650
-7.4549 8.2158 0.51736 2 8397
-7.4423 8.2539 1.0369 0 8431
-7.4406 2.0662 1.4549 0 3464
-7.407 6.1735 1.8167 0 7014
-7.3915 8.1975 2.0796 0 8439
-7.3462 6.7245 0.46444 0 7472
-7.2466 12.689 -1.3633 1 10597
-7.221 11.606 -1.2752 1 10227
-7.1295 -5.5123 -0.63018 0 1441
-7.1008 -8.3701 1.024 0 1186
-7.1 8.3928 1.2856 0 8760
-7.0915 5.8395 1.7308 1 6956
-7.0612 -4.7431 1.6027 0 1573
-7.0592 4.2685 1.3553 1 5584
-7.0332 -5.806 -0.42531 0 1378
-6.8842 1.9753 1.1767 2 3512
-6.8529 8.0579 1.237 0 8732
-6.8002 2.3854 0.50392 0 3866
-6.7959 -0.39066 -0.95668 0 2021
-6.7731 -6.5111 0.87653 0 1284
-6.7455 10.982 -1.2024 0 10284
-6.7404 1.1304 0.31872 0 2973
-6.728 -4.5466 0.56782 0 1564
-6.7262 6.8374 1.8071 0 7988
-6.712 -4.8569 1.3612 0 1517
-6.7047 13.125 -0.68729 0 11069
-6.6506 -6.8128 0.66576 0 1267
-6.648 12.048 -1.2838 0 10742
-6.6108 1.2276 1.1047 0 3053
-6.523 -4.6907 -0.56182 0 1519
-6.4906 -5.0183 0.76543 0 1443
-6.4499 6.2221 1.4724 2 7735
-6.4472 7.6699 1.8878 1 8792
-6.4409 7.4382 1.3828 0 8645
-6.4317 4.4985 -1.2895 0 6188
-6.3556 9.0531 1.5546 0 9684
-6.3496 6.0551 0.81856 1 7675
-6.3175 -7.2726 -0.22366 1 1205
-6.27 7.2844 1.5791 2 8676
-6.2657 7.6334 1.6225 0 8908
-6.2591 -8.2073 1.6958 0 1152
-6.2474 1.2348 0.14785 0 3106
-6.2059 9.9084 0.81755 0 10211
-6.1976 8.9405 2.0496 0 9746
-6.1903 9.3313 1.5738 2 9952
-6.1792 7.8948 0.70105 0 9140
-6.1435 7.2237 0.8847 2 8730
-6.1355 -7.7661 -0.46155 0 1163
-6.1135 9.45 1.8491 1 10076
-6.1018 6.9284 1.5168 1 8557
-6.0729 5.3352 1.3281 1 7274
-6.0626 0.40905 0.14108 1 2545
-5.9646 -6.2155 1.4153 0 1260
-5.9567 -5.246 -0.37015 0 1329
-5.9075 -3.9922 1.002 0 1566
-5.8859 -6.4686 -0.20305 0 1235
-5.881 -6.9321 1.2776 0 1188
-5.8623 -0.92221 0.13778 0 1688
-5.8617 8.5608 1.2133 1 9801
-5.8566 -0.54227 0.27428 0 1891
-5.8363 0.22523 0.5449 0 2428
-5.8285 2.8642 0.15078 1 4790
-5.8224 1.5427 -0.42119 1 3403
-5.8218 3.4732 1.1138 1 5530
-5.7426 -9.5535 1.8313 0 1114
-5.7307 -5.1672 1.4538 0 1315
-5.7045 8.435 1.9185 2 9869
-5.6939 -9.0488 1.2502 0 1118
-5.6737 9.1188 0.751 0 10241
-5.6573 -0.8566 -0.26683 0 1700
-5.6361 4.1401 0.98284 0 6424
-5.6196 6.1242 1.566 0 8346
-5.4838 7.671 1.5492 1 9593
-5.4796 7.8577 0.44674 1 9708
-5.4701 7.9889 1.5907 0 9805
-5.4163 -7.8308 0.22106 0 1132
-5.3896 0.74403 0.38045 0 2851
-5.333 -0.011171 -0.37292 1 2253
-5.3177 -7.6001 0.86538 0 1134
-5.2773 7.4259 0.42484 1 9615
-5.2527 -8.1381 1.1327 0 1122
-5.2302 7.2706 1.6875 2 9567
-5.202 6.931 0 0 9347
-5.1764 9.5736 0.76104 0 10842
-5.1436 13.337 2.3485 0 12103
-5.0864 -0.48529 -0.35729 1 1876
-5.0607 -9.0661 0.96868 0 1105
-5.0519 -7.0382 1.6323 0 1137
-5.0045 5.0255 0.99676 0 7927
-4.9629 -10.02 -1.0432 0 1091
-4.9527 9.754 1.7973 1 11112
-4.9132 -8.3979 1.5985 0 1109
-4.8983 13.392 1.3304 0 12264
-4.8972 -4.3909 0.61364 0 1319
-4.8431 -7.6966 0.21113 0 1117
-4.8101 1.6572 0.35576 0 3826
-4.7948 10.089 1.5699 0 11365
-4.7863 -8.8115 0.70119 0 1097
-4.7826 -5.6017 1.0352 0 1193
-4.7787 4.2487 1.0505 1 7334
-4.7314 -8.2984 0.89121 0 1107
-4.6404 -5.4351 0.49974 0 1192
-4.6373 -10.013 1.2904 0 1081
-4.619 -7.6359 0.41618 0 1115
-4.5807 2.0876 0 0 4545
-4.5602 9.3209 0.72561 0 11247
-4.5165 -3.308 0.39147 0 1506
-4.5146 5.2784 -0.97616 0 8682
-4.5058 7.2842 1.4072 2 10276
-4.4992 9.2574 1.4466 0 11280
-4.4909 -4.1195 0.85647 0 1302
-4.4641 -3.4304 -0.26254 0 1445
-4.4241 9.3088 1.9419 0 11368
-4.4231 -8.9299 -0.23137 0 1092
-4.339 -4.797 -0.4523 0 1231
-4.3381 7.5442 0.40583 0 10577
-4.3127 6.5829 0.73422 1 10010
-4.2888 -9.8542 0.24952 0 1078
-4.2048 8.7918 1.1397 2 11335
-4.2018 -2.7864 0.35255 0 1582
-4.1588 9.8357 1.7545 0 11796
-4.1471 -11.902 0 0 1036
-4.1041 -9.7346 1.7357 0 1074
-4.0509 -5.9719 0.33652 0 1128
-4.024 3.029 0.11694 0 6523
-3.9753 10.228 1.2832 0 12070
-3.9722 6.0632 1.3657 0 10018
-3.927 5.7698 0.98089 0 9834
-3.9262 9.4461 0.95437 2 11846
-3.9036 10.303 2.0759 0 12160
-3.8854 13.613 2.3258 0 12888
-3.8853 -5.6913 0.80585 0 1131
-3.8823 -10.552 1.8472 0 1045
-3.8638 -4.2211 -0.13286 0 1238
-3.8292 4.3479 -0.27018 0 8540
-3.7668 -7.6048 1.1927 0 1093
-3.7384 -5.1153 0.89043 1 1140
-3.737 7.7511 0.60172 0 11302
-3.7346 12.536 0.91465 2 12782
-3.7304 9.7638 1.9693 1 12133
-3.6786 12.475 0.60652 1 12804
-3.6696 11.575 1.7065 0 12644
-3.667 3.9711 0.63209 0 8313
-3.5658 -7.8209 1.0052 0 1080
-3.5481 -4.5709 0.13434 0 1157
-3.5408 -6.4728 0.34407 0 1099
-3.5318 -6.3663 1.1961 0 1103
-3.5082 -3.6164 0.82779 0 1265
-3.5014 11.044 2.1829 0 12647
-3.4992 6.1272 0 0 10605
-3.4961 4.2336 0.64208 1 8875
-3.4934 13.908 2.3559 0 13160
-3.4678 -10.146 1.7616 0 1034
-3.4548 -5.1882 0.29068 0 1125
-3.4501 -7.3886 0.9536 0 1083
-3.4481 -5.3422 0.59321 0 1121
-3.4415 -4.0566 0.6221 0 1187
-3.4133 -4.3454 0.77659 2 1160
-3.4019 4.7588 -0.40905 1 9577
-3.3805 5.465 0.59952 0 10270
-3.3566 -8.4391 1.0621 0 1054
-3.3557 4.5532 0.92927 0 9446
-3.3023 -8.5848 0.42894 0 1050
-3.2612 5.1389 0.14131 0 10151
-3.2406 -4.0262 0.24102 0 1168
-3.1891 13.533 2.2843 1 13279
-3.1886 -5.005 -0.13778 0 1119
-3.1723 -4.9149 0.40905 0 1120
-3.1585 -4.6564 0.92441 2 1129
-3.1053 9.7949 0.95864 2 12641
-3.0856 -9.9558 1.2189 0 1005
-3.0792 -9.4543 1.8734 0 1016
-3.0776 -8.8327 -0.21716 0 1035
-3.0746 8.1928 1.4377 1 12187
-3.0655 -6.3783 0.49485 0 1085
-3.026 -6.4804 0.16605 0 1082
-2.9584 -6.1061 1.1147 1 1088
-2.9469 -8.8691 0.43583 0 1022
-2.9445 6.4851 -0.33214 1 11521
-2.9103 4.738 0.38882 0 10298
-2.908 -8.0508 1.203 0 1041
-2.8955 8.8641 1.532 2 12574
-2.8515 -4.2821 0.11944 0 1124
-2.8352 -7.7727 0.96754 0 1043
-2.7934 13.804 1.9793 0 13542
-2.7214 -7.8105 0.38571 0 1037
-2.6991 7.7989 1.5549 0 12425
-2.66 -8.33 1.0226 0 1010
-2.6418 -5.2594 0.41156 0 1094
-2.6343 5.3419 -0.97856 0 11200
-2.6096 6.7141 1.1835 0 12073
-2.5691 -7.8093 -0.38338 0 1017
-2.5385 7.4102 1.2869 0 12451
-2.4793 -5.9796 1.0635 0 1069
-2.4541 -9.4619 1.606 0 962
-2.4041 4.6698 0.24494 1 11046
-2.4 -7.9997 1.1738 1 994
-2.3181 -7.0465 -0.17222 0 1018
-2.3156 -6.9086 1.024 0 1029
-2.2955 13.791 1.6349 0 13812
-2.1957 7.5284 -1.4775 0 12839
-2.1538 13.417 1.9097 0 13859
-2.1403 7.8453 0 0 12984
-2.098 6.8925 -0.67217 0 12724
-2.0963 10.069 0.23879 0 13487
-2.0636 -6.5331 0.80121 0 1009
-2.0149 13.076 1.5471 1 13901
-1.9847 -9.9962 1.6744 2 914
-1.9691 8.2397 0.19669 0 13247
-1.9653 -6.9038 -0.16665 0 972
-1.954 7.9793 -0.3831 0 13197
-1.876 -9.043 1.7401 0 918
-1.8705 6.0204 -0.14637 0 12683
-1.8103 -6.0997 0.74406 0 990
-1.7262 8.4094 0.80091 0 13514
-1.6339 9.0268 -0.21298 0 13694
-1.6156 -7.6798 0.73217 0 921
-1.6069 -11.096 1.842 0 879
-1.5411 5.2839 0.25667 0 12829
-1.5404 10.585 1.7574 0 13966
-1.5371 -5.015 0.48935 0 1001
-1.5054 -6.3336 0 0 936
-1.4978 -8.591 1.0198 0 901
-1.4968 12.897 1.2113 1 14183
-1.4756 -8.0558 -0.19014 0 904
-1.4369 -6.4549 0.77333 0 927
-1.435 10.516 0.99023 0 14029
-1.3645 5.2421 0.76128 1 13087
-1.3645 5.8637 -0.13978 0 13291
-1.2697 -7.6696 0 0 894
-1.2596 5.553 0.80025 2 13347
-1.2227 6.7548 -0.32012 0 13692
-1.1697 5.5315 -0.26366 0 13458
-1.133 8.4803 1.0005 0 14053
-1.0617 -6.5264 0.15352 0 890
-0.97396 -9.1438 -0.21349 1 840
-0.96615 -9.6285 1.36 0 825
-0.93897 -6.4839 0.61123 1 878
-0.91106 -6.7119 0.95194 1 869
-0.87377 -5.9243 -0.13903 0 881
-0.85849 6.8825 0.64709 2 14116
-0.85814 6.7174 0 0 14088
-0.76567 -8.9311 1.2598 0 811
-0.69282 11.492 0.2673 0 14601
-0.64563 6.9862 1.1527 0 14369
-0.58249 -6.3513 0 1 816
-0.58153 -7.8439 -0.3668 1 804
-0.55468 -6.7038 -0.31369 0 808
-0.46873 6.7883 0.63482 0 14540
-0.40203 -6.4439 1.2164 0 795
-0.39578 -7.7858 0.181 0 770
-0.36262 -10.033 0.46816 1 754
-0.35035 -5.6156 0.92441 0 794
-0.32163 -11.587 1.0814 0 743
-0.26355 -8.6756 1.426 0 747
-0.23297 11.811 -0.5509 0 14896
-0.21833 7.0255 0.98785 0 14826
-0.11437 10.4 1.2163 0 14963
-0.081758 5.9292 0.83337 0 14946
-0.056619 -7.7238 0 0 718
-0.048411 9.2454 -0.21465 0 14996
-0.034035 6.4999 0 0 14998
0.009876 -7.0732 1.1621 0 710
0.033867 -7.7616 1.0908 0 706
0.045028 -10.32 1.6955 0 707
0.12804 5.315 -0.12344 0 15186
0.13056 -5.3044 0 0 683
0.1419 -5.765 0.67437 0 684
0.18906 -6.188 0.43291 1 678
0.19971 9.3777 0.43742 0 15172
0.22282 -10.212 0 0 687
0.29162 -6.9003 0.32208 0 665
0.29215 -6.1268 0.86204 0 660
0.31799 -9.5354 0.66715 0 675
0.39275 13.156 2.1624 0 15230
0.45282 -5.6776 0.93576 0 634
0.48292 -5.1088 0.7212 0 623
0.49381 -7.2435 0.50769 0 643
0.51212 -8.2315 1.355 0 645
0.5146 5.4848 -1.171 0 15533
0.51504 -7.8791 -0.18332 0 644
0.53768 7.3219 1.2062 1 15457
0.53769 -7.2526 1.1948 0 641
0.54316 -6.8104 0 0 633
0.56157 6.3675 -0.59637 0 15507
0.58837 8.7202 -0.81541 0 15421
0.61094 11.504 -1.0748 0 15353
0.61802 -6.1483 1.1642 0 619
0.62831 5.1024 0.6012 0 15633
0.69064 8.7364 -0.20347 0 15471
0.74871 -9.7527 0.45614 0 636
0.77941 6.0341 -0.85508 0 15646
0.80573 7.8505 -0.73626 0 15560
0.84877 -8.9791 1.4818 0 624
0.85321 7.854 0.92386 0 15587
0.97976 6.8159 0 0 15678
0.99555 -6.0267 0.71433 0 579
1.0009 6.298 -0.29739 0 15710
1.0046 -5.3118 0 1 562
1.0395 5.1788 0.74235 0 15806
1.0689 -9.0716 0.85219 0 608
1.0802 -7.4683 0.1752 0 589
1.0843 7.3784 -0.69576 0 15684
1.0886 6.0625 1.012 0 15761
1.141 -6.2289 0.44281 0 568
1.2234 7.8571 -0.9299 0 15702
1.2306 -14.354 2.0247 0 630
1.262 6.6916 0.79633 0 15776
1.2624 10.021 1.6595 0 15645
1.2724 7.1944 0.16962 0 15749
1.307 -8.3557 0.5914 0 584
1.3735 -6.0849 0 0 536
1.3771 8.0736 -1.3456 0 15732
1.3807 -6.1169 0.58503 0 537
1.3818 5.4015 -1.1851 0 15898
1.3938 5.0225 -0.24307 0 15937
1.4459 7.5437 -1.2619 0 15781
1.4714 -8.7459 1.2464 0 577
1.4911 -7.4081 1.2415 0 554
1.5771 5.7491 -0.41686 1 15929
1.5905 8.2983 -0.78828 0 15782
1.6075 9.9359 -0.46937 0 15715
1.6233 11.293 1.8744 0 15682
1.6662 9.7681 1.628 0 15740
1.7624 -5.4144 0 0 443
1.7661 -4.8079 0 0 412
1.805 -6.9593 1.1812 0 516
1.8132 7.2615 -1.0519 1 15885
1.8148 13.146 -0.3081 0 15668
1.8253 -6.154 -0.29935 0 482
1.8334 -8.2361 -0.1959 0 540
1.834 7.0866 -0.51187 0 15901
1.8666 5.4179 -0.13304 0 16051
1.8956 -9.5558 0 0 556
1.9529 -10.151 0.48205 1 559
1.997 -8.4086 0.8063 0 528
2.0194 6.8923 -0.16675 1 15963
2.0305 4.7835 -0.12065 0 16136
2.0848 -7.5894 1.2931 0 503
2.1378 5.383 0 2 16108
2.1407 -7.2922 0.17645 0 485
2.1422 8.579 -0.41236 0 15887
2.1819 -7.9428 1.1576 0 502
2.1892 -11.575 1.9354 0 563
2.197 -8.6762 1.2578 0 521
2.2162 10.721 -1.2802 0 15817
2.2204 -11.922 1.1314 0 565
2.2264 -6.8401 1.011 0 447
2.2785 -8.3922 0 0 506
2.3077 -6.9533 0.6835 0 436
2.3239 6.0039 0 0 16098
2.3241 7.2215 0.88716 0 16007
2.3757 7.3074 0.1784 0 16010
2.3953 -5.2952 0.4064 0 361
2.4529 -9.2316 1.5693 1 511
2.5147 -7.8796 1.3589 0 457
2.606 -5.0426 0.39691 0 316
2.619 7.1259 0.17626 1 16075
2.6342 -6.1019 0.15431 0 381
2.6402 -6.2139 -0.47211 1 385
2.647 5.7208 1.0356 0 16178
2.6515 9.3451 0 0 15949
2.6769 -8.9226 0.8691 0 479
2.6904 5.6864 0.58689 0 16188
2.7043 7.9986 -0.78772 0 16042
2.7505 -8.0473 1.6023 0 430
2.7971 -4.5077 0.49493 0 262
2.8415 -10.344 2.0211 0 504
2.8505 -7.5475 0.18731 0 406
2.8781 9.5088 0.92688 0 15981
2.8909 -9.0584 1.3363 0 456
2.9395 7.0965 -0.53712 1 16128
2.9995 -6.3368 -0.49025 1 333
3.0233 10.2 0.49611 1 15971
3.0559 -7.4326 1.3203 0 398
3.0799 4.9308 0.27112 0 16345
3.094 5.2213 -0.4244 0 16306
3.0974 -4.8657 0.40333 0 249
3.1055 -5.9657 0.4703 0 312
3.1075 5.008 -0.68924 1 16332
3.184 7.4395 -0.56586 1 16138
3.1918 -8.8364 0.87653 0 418
3.2322 -9.3818 1.6303 0 426
3.2436 4.8142 0.81583 0 16485
3.2579 -6.7754 0.17455 0 329
3.2638 -5.5079 0.14864 0 274
3.2868 -6.6387 -0.69112 2 325
3.29 -10.108 1.7464 0 448
3.3393 -7.5569 -0.57772 0 370
3.3739 -4.2477 1.022 0 154
3.3881 4.3429 0.90496 0 16576
3.4027 7.8933 1.208 0 16142
3.4186 -6.9048 1.2658 0 327
3.4394 5.2679 1.1853 0 16437
3.4974 3.8911 0.85956 0 16659
3.4984 6.229 1.1738 0 16280
3.5171 7.8995 -1.0112 0 16155
3.5189 10.824 1.8699 0 16012
3.5248 -5.2613 -0.74058 1 213
3.5499 4.9221 0.99704 0 16535
3.5518 6.728 0 0 16236
3.5676 7.7673 -1.4043 0 16168
3.6136 -10.888 2.1615 0 438
3.6184 -5.3044 0.29944 0 207
3.6525 6.2882 -0.16884 0 16295
3.6598 7.3469 0 0 16205
3.7073 8.4616 1.5178 0 16150
3.7933 11.45 -1.1253 0 16028
3.808 -4.5737 0.41617 0 140
3.8904 5.631 -1.1245 0 16502
3.8948 -9.3201 1.1813 0 391
3.8951 -5.3025 0.61383 0 179
3.9071 5.1924 0.91325 0 16558
3.9252 7.7069 -0.60479 0 16217
3.9255 11.079 1.3745 0 16061
3.9739 -5.2506 -0.30708 0 172
4.0566 8.9054 -1.3753 0 16166
4.0619 8.7788 1.3594 0 16177
4.0715 5.1592 -0.15259 0 16584
4.0751 -11.715 2.0379 0 422
4.0894 3.5411 0.88874 0 16936
4.0957 -3.2497 -0.61142 1 23
4.1139 -3.2038 0.98242 0 6
4.1267 10.745 1.0738 0 16094
4.1352 5.2398 0.62275 1 16586
4.1483 8.3276 0.86798 0 16208
4.1752 -4.0886 0.40863 0 99
4.291 -6.3283 0.17752 0 209
4.2979 -6.8409 0.94477 0 257
4.3282 5.512 0.81956 0 16580
4.3333 -5.7255 0.50211 0 173
4.3693 -6.9544 0.38301 0 255
4.3961 -5.2801 -0.3204 0 139
4.4301 11.535 2.0301 0 16096
4.4337 -6.5387 0.92386 0 210
4.4352 4.4182 -0.14535 0 16758
4.4454 6.598 -0.93037 1 16479
4.451 -7.364 1.4137 0 271
4.4577 5.168 0.95918 0 16631
4.4817 -5.7446 0.16916 0 160
4.4971 5.1806 0.64003 0 16635
4.5035 2.6264 0.48638 0 17954
4.5313 -3.1658 0.77686 0 22817
4.5341 9.0308 1.1817 0 16212
4.6113 -2.0976 0.47263 0 22295
4.6197 -3.2276 -0.52577 2 22812
4.6243 -8.7007 -0.4595 0 304
4.6321 -5.0074 0.47699 0 122
4.648 8.5677 1.6014 0 16254
4.6818 9.7455 1.5195 0 16193
4.6955 7.2388 -1.4176 0 16408
4.701 -8.2585 0.6645 0 286
4.7255 -1.8272 0.23627 0 22033
4.743 -5.2769 0.66195 0 126
4.7491 -6.1601 0.72567 1 164
4.7575 -7.2869 1.2231 0 236
4.7748 8.2205 1.3361 0 16297
4.8123 -6.1308 0.18095 0 159
4.8553 -7.2967 0.40872 0 220
4.8658 9.4881 1.7519 0 16221
4.876 -3.3212 0.41254 1 22783
4.8763 -3.2202 -0.96008 0 22735
4.8932 -5.8771 1.2564 0 141
4.8968 -4.6049 1.1044 0 93
4.9126 2.2481 0.50403 1 18585
4.9538 4.7109 -0.15872 0 16804
4.9549 3.3308 0.13861 0 17555
4.9622 -11.135 2.0028 0 369
4.9689 -7.8057 1.3004 0 251
5.0103 -9.7658 0.51186 1 318
5.0362 3.1986 0.55661 0 17729
5.0677 -2.286 0.91339 0 22284
5.0806 0.99954 0 0 20095
5.0844 -0.62429 0.11893 1 21521
5.0992 8.1193 1.3475 0 16358
5.1302 0.71918 0.24158 0 20413
5.168 -7.8199 0.87448 0 223
5.1797 -1.5481 0.25211 1 21815
5.1986 3.1348 -0.99737 0 17852
5.2311 -4.4788 0.32115 0 72
5.2639 -2.7942 0.27792 1 22495
5.2678 6.7086 1.4014 0 16581
5.2733 2.7933 0.41728 0 18194
5.2921 -1.9053 0.92409 0 21939
5.3018 -1.386 0 0 21761
5.3116 -4.468 1.1404 0 65
5.3515 2.5068 -0.27559 0 18521
5.3618 6.1377 -1.1454 0 16639
5.3765 4.7118 0.66696 1 16916
5.3856 -2.8179 -0.85424 0 22473
5.4078 -6.8894 -1.0242 0 158
5.41 1.6488 -1.2021 2 19415
5.4868 -8.8425 1.7097 0 263
5.51 6.9369 -1.245 2 16588
5.5334 8.9803 -0.9841 0 16328
5.5456 3.8213 -0.31407 0 17489
5.58 6.4282 1.6038 0 16637
5.5848 -7.9405 1.1353 0 197
5.5957 2.3098 0.56478 0 18835
5.6008 -2.8871 0.29385 0 22464
5.6026 -6.9285 -0.62306 0 148
5.7139 6.1039 0.97776 0 16691
5.729 -2.5244 0.87985 0 22245
5.7336 -6.1249 0.19478 0 118
5.7455 -4.9192 1.063 0 73
5.7589 8.2368 0.93765 0 16514
5.7744 3.7844 -0.64411 1 17627
5.7766 1.651 -0.56051 1 19515
5.787 3.2635 -0.46458 0 18029
5.7903 1.8557 0.14117 0 19328
5.8329 -3.8753 -0.48969 1 22747
5.8408 -1.5454 0.56367 0 21767
5.878 -5.4929 0.75057 0 88
5.9076 -4.6873 -0.70356 0 24
5.9305 5.6693 0.76543 1 16798
5.9436 2.1188 0 0 19158
5.9448 0.25748 -0.13815 1 20936
5.9515 6.9757 -0.6412 0 16621
5.9597 -3.1409 0.62851 0 22488
5.9599 -0.82065 1.1335 0 21555
5.982 -3.2642 1.1196 1 22526
6.026 -4.7813 1.0811 1 22968
6.0379 -1.6903 0 0 21788
6.0441 6.647 0.62823 0 16666
6.0469 -6.6501 -0.41916 0 124
6.0614 4.1255 0.68406 0 17526
6.0651 4.6355 1.4383 0 17213
6.0861 -2.0128 0.44826 0 21869
6.0965 -8.5029 -0.48791 0 187
6.1264 -4.8003 1.4664 0 12
6.1686 -9.3339 1.5724 0 225
6.1707 0.84528 0.1446 0 20429
6.1877 5.7159 -0.19557 0 16838
6.2045 -5.6675 1.3806 0 84
6.2266 -9.0159 0.25439 0 203
6.2328 4.4557 -0.35729 0 17378
6.2348 0.56083 0 0 20684
6.2474 4.2793 -1.2441 0 17501
6.2679 9.6627 1.8923 0 16421
6.268 2.2529 0.93608 0 19147
6.2684 5.1783 0.75856 0 17012
6.2813 -5.9399 1.215 0 95
6.3239 6.87 0.21679 0 16673
6.3325 -4.2617 1.0727 0 22767
6.3996 -0.42955 0 0 21371
6.4358 -8.1491 1.4594 0 157
6.44 -6.9618 0.44226 0 121
6.4849 1.3737 0.30913 0 19999
6.4909 -6.1382 0.20741 0 94
6.5187 -10.44 1.4393 0 260
6.5533 2.4215 1.1478 0 19097
6.5672 -4.4731 0.92921 1 22785
6.5861 4.5113 1.3116 1 17515
6.5868 1.476 -0.15672 0 19917
6.6872 2.1883 -0.16336 0 19295
6.7314 4.7555 -0.19135 0 17418
6.7512 5.4787 0.40546 0 17050
6.7559 -1.9359 1.1546 1 21799
6.7728 4.3849 0.56419 0 17675
6.8103 -1.0385 0.80562 1 21586
6.8589 -5.4715 0.81856 0 22972
6.8819 -8.8211 1.8381 0 161
6.9796 -8.0917 2.0133 0 133
7.0021 5.9235 -0.21294 0 16966
7.0858 -4.1939 -0.57577 0 22609
7.0903 -1.5265 1.0193 0 21693
7.1177 -4.2128 0.38571 0 22613
7.1534 5.8425 1.5174 0 17043
7.1579 7.2941 0.95344 0 16737
7.1778 -10.138 2.0408 0 194
7.1836 -4.9574 -0.81429 1 22797
7.2159 -6.7857 0.22997 0 91
7.2925 -1.1524 1.213 1 21599
7.3013 9.4673 1.9643 0 16569
7.3357 3.2049 0.74685 0 18702
7.375 0.083671 1.0366 0 21084
7.4317 3.9665 0 0 18170
7.5195 -9.3557 0.55975 1 150
7.5439 -2.6922 0.18596 0 21925
7.5579 2.9924 0.75837 0 18935
7.5758 7.2422 1.2256 0 16799
7.5973 2.7562 0.18764 0 19124
7.6936 -1.7028 0.73515 0 21704
7.7165 -6.9675 1.7081 0 82
7.7918 1.6264 1.1187 0 20022
7.7979 0.17832 -0.18109 0 21029
7.8078 0.77244 -0.73199 1 20631
7.8127 -8.3459 1.3369 0 119
7.8204 2.7111 0.38599 0 19211
7.8402 -7.3264 1.5081 0 89
7.8448 8.4273 -0.53692 0 16683
7.8637 -0.68937 0.18327 0 21429
7.882 -1.7214 0.18731 0 21698
7.9216 -0.1853 1.3018 0 21227
7.9625 7.5271 1.8002 0 16812
7.9736 3.7351 1.659 0 18535
7.9811 7.8567 1.0448 0 16769
7.9879 5.04 -0.88117 0 17740
8.0424 0.77015 -0.37677 0 20649
8.0501 0.39512 -0.18713 0 20907
8.0927 3.6201 0.82711 0 18644
8.1085 1.1367 -0.1901 0 20409
8.1242 3.0569 0.80983 0 19060
8.1742 -2.3161 0 0 21792
8.1928 -2.2674 -0.39642 0 21781
8.1928 -0.22026 1.5442 0 21241
8.2074 -1.6668 -0.39056 1 21674
8.2195 -7.8164 1.3264 0 96
8.2247 -3.3698 0.62153 0 22128
8.2695 -2.7637 1.4325 0 21876
8.2729 -4.1157 1.5181 0 22427
8.3157 -2.3015 1.4176 1 21785
8.3213 -3.4094 1.0516 0 22130
8.3534 0.65303 0.97985 0 20754
8.3536 2.546 1.4348 0 19416
8.3703 1.497 -0.7933 1 20197
8.3835 -1.6265 0.99866 0 21663
8.535 -9.9474 1.2228 0 134
8.5691 5.8696 0.7263 0 17507
8.6404 4.0475 -0.22152 0 18522
8.6453 0.47578 0.80779 0 20878
8.6525 -5.6793 1.95 0 22734
8.697 -2.7105 0.2115 0 21836
8.7155 -2.0876 0 0 21731
8.7301 0.27741 1.0214 0 20993
8.7681 -4.5878 0.69198 0 22480
8.7992 -2.3281 1.0644 0 21768
8.877 -1.882 1.7097 0 21688
8.8855 5.1115 -0.47804 0 17983
9.0906 -5.0618 0.97072 0 22547
9.1266 2.495 1.7826 0 19607
9.1618 -2.0278 -0.21786 0 21703
9.198 -5.5508 0.24942 0 22633
9.1982 -2.3463 0.88563 0 21753
9.2873 -6.0151 0.2569 0 22714
9.2957 -2.8384 0.22566 0 21827
9.3803 -9.4032 2.1821 0 105
9.4499 11.014 -0.33693 0 16625
9.496 1.5823 1.5816 0 20272
9.575 4.5547 -0.24617 0 18478
9.5902 -4.5292 0.98948 0 22355
9.6283 -1.8123 0.22747 0 21654
9.714 -10.623 2.365 0 123
9.7625 0.56632 1.6066 0 20865
9.7732 1.983 1.6384 0 20061
9.8623 -2.9176 0.47962 1 21810
9.8841 -5.6538 0.26437 0 22573
9.9042 3.4006 1.973 0 19231
9.929 1.6259 -0.23359 0 20283
9.9804 -0.23346 -0.46555 0 21223
9.998 5.6382 1.0709 0 18037
10.008 2.0889 0.95381 0 20021
10.232 -9.5616 2.3008 0 90
10.34 1.387 0.72951 0 20448
10.445 -1.7141 0.4936 1 21612
10.457 -4.9765 1.9026 0 22367
10.503 0.82108 -0.2446 0 20749
10.54 2.7514 0.76174 1 19678
10.545 1.3509 1.4942 0 20482
10.853 -1.75 0.25523 0 21605
10.994 7.0256 1.5258 1 17714
11.04 -3.7241 1.6375 0 21881
11.063 9.5798 1.3653 0 16934
11.068 -0.0019317 -0.51614 0 21128
11.079 -1.098 0.77848 0 21460
11.14 1.7903 1.8537 0 20304
11.175 8.0417 2.2619 0 17371
11.246 9.3429 1.7097 0 17000
11.267 8.2069 1.959 0 17330
11.341 5.8809 2.0988 1 18255
11.366 -2.6909 0 0 21725
11.391 8.3525 2.6614 1 17317
11.572 2.6992 1.1086 2 19868
11.573 -3.0254 1.116 0 21762
11.595 8.095 0.98887 1 17459
11.669 -2.6898 1.9675 0 21717
11.74 -0.34228 -1.0958 0 21245
11.748 2.814 0.84475 1 19830
11.757 -3.8155 0.57642 1 21854
11.762 -0.92775 2.2229 0 21408
11.788 7.3429 2.6166 2 17785
11.806 0.96027 1.9461 0 20738
11.888 5.9092 2.1812 1 18379
11.927 5.7118 1.5464 0 18466
11.961 -3.6158 1.1658 0 21822
11.982 -5.0762 2.4518 0 22187
12.078 7.7184 1.3373 0 17712
12.176 0.3167 2.2948 0 21021
12.177 0.17642 2.0009 0 21073
12.207 0.77869 1.7191 0 20834
12.233 6.529 0.96961 1 18176
12.284 6.7419 0.32532 1 18101
12.412 8.3438 1.749 1 17561
12.426 6.4051 1.3042 0 18269
12.569 5.7517 1.9426 2 18588
12.578 8.087 1.3951 1 17694
12.754 6.713 1.0078 1 18211
12.98 6.9279 2.0678 0 18181
13.238 7.0119 1.7518 0 18198
13.256 6.1141 1.7072 0 18568
13.261 6.116 2.7514 0 18571
13.403 -1.8836 2.2236 0 21561
13.437 5.2333 1.6863 0 18977
13.453 5.2397 1.3469 0 18975
13.589 4.8442 2.3702 0 19167
14.152 -2.2364 1.3367 0 21598
14.491 2.5004 2.4159 0 20240
-12.541 4.8946 -1.5743 1 4113
-11.885 5.7531 -1.8557 2 4732
-6.637 6.3292 -1.5067 0 7653
-4.6709 12.017 -1.812 2 12048
-1.8989 5.9285 -1.785 2 12615
-1.772 10.845 -1.8054 2 13817
-0.527 -0.71273 -0.16701 2 1142
2.807 5.6746 -1.9755 0 16201
3.0788 11.223 -1.912 0 15927
4.1861 -6.3341 -1.6138 0 226
5.5322 6.8 -1.8633 0 16603
7.0469 10.724 -1.8034 0 16440
9.9185 1.4752 -1.8893 0 20367
10.025 -3.9408 -1.7697 2 22052
