VERSION .7
FIELDS x y z intensity index
SIZE 8 8 8 8 8
TYPE F F F F F
COUNT 1 1 1 1 1
WIDTH 889
HEIGHT 1
VIEWPOINT 0 0 0 1 0 0 0
POINTS 889
DATA ascii
-4.6838 0.35958 -0.43826 1 2281
-4.3616 -0.7205 0.7263 0 1594
-3.9486 0.25604 0.091868 0 2237
-3.8241 2.1741 -0.4104 0 4868
-3.7677 -3.1147 0.80315 1 1463
-3.5777 2.2591 0.69517 0 5272
-3.503 0.78879 0.50464 1 2801
-3.4655 -0.016331 0.56937 1 1992
-3.3872 2.1946 0 1 5360
-3.3831 1.2193 -0.1677 1 3523
-3.2479 -2.4262 -0.28349 0 1491
-3.1912 0.36585 0.37563 0 2393
-3.0559 1.6668 0.32475 1 4741
-2.9976 0.21277 0.5662 1 2265
-2.9791 2.8991 0.78319 2 7298
-2.9627 3.0723 -0.59984 2 7585
-2.9467 3.4126 -0.10468 1 8139
-2.8334 3.2434 0.50363 0 8088
-2.7417 -4.0693 0.45777 0 1355
-2.7258 -2.7468 0.18046 0 1422
-2.6651 3.4545 -0.40705 2 8699
-2.6557 -3.9896 -0.11127 0 1353
-2.5804 -2.5561 0.68432 0 1425
-2.5749 -1.9235 0.29986 1 1492
-2.4515 -3.9493 0.54359 0 1342
-2.4336 -1.9658 -0.21876 0 1469
-2.3615 3.4801 -0.29409 0 9299
-2.2233 2.8985 0.60017 0 8749
-2.1726 -4.2603 0.33441 0 1257
-2.1093 2.4575 0.53208 2 8187
-2.109 4.4495 0 0 10761
-1.9213 -4.3769 0 2 1190
-1.9055 -3.2793 0.26521 0 1326
-1.8995 -3.7523 -0.39238 0 1251
-1.7808 -4.6707 0.11605 0 1144
-1.7799 3.1421 0.25252 0 10086
-1.673 -3.7507 -0.09535 0 1192
-1.0343 4.8285 0 0 12966
-1.0064 3.7325 -0.18028 1 12472
-0.77344 3.5061 -0.33497 0 12907
-0.39849 3.1857 -0.14972 1 13734
-0.35625 3.1463 0.37029 0 13844
-0.33599 -4.0265 0.37696 1 912
-0.31002 -3.9837 0.75283 0 904
-0.24139 -3.6536 0.68988 0 897
-0.12822 4.4513 -0.31139 2 14431
-0.094568 -4.7944 0.56078 0 853
-0.070832 4.9489 0.69559 1 14542
-0.046685 -3.3021 0.154 0 847
0.22795 4.5951 -0.10682 1 14960
0.56522 -4.9608 0.70171 0 699
0.62176 -3.7275 -0.087737 0 620
0.78071 4.374 -0.3107 0 15692
0.81191 4.5488 0.32311 0 15695
1.0362 -4.5028 0.54033 0 558
1.0816 4.6999 -0.11197 0 15954
1.0948 -2.9933 0.52365 0 470
1.1937 -4.313 0.20869 0 531
1.3126 -2.8923 -0.2221 2 391
1.3578 -3.5819 -0.26786 1 462
1.4802 -4.0471 0.20096 0 469
1.5422 3.7103 -1.1522 1 16382
1.5932 3.8011 0.1922 1 16388
1.5957 -2.5656 0.35333 0 296
1.6044 4.2706 0 0 16318
1.6307 -3.7378 -0.28516 0 401
1.8343 3.3728 0.35819 0 16541
1.8513 -3.498 0.18456 0 332
2.0824 -3.3481 0.36785 0 295
2.095 -3.6448 0.79208 0 312
2.3186 -1.9263 0.42364 0 96
2.3592 2.1161 -0.67363 0 17091
2.3672 3.6202 0.60791 1 16694
2.3989 2.6354 0.41675 0 17006
2.4466 2.7039 -0.77509 0 17003
2.4655 2.4119 -0.080077 0 17062
2.4924 2.771 0.08653 0 16996
2.5218 -2.7376 0.61152 0 193
2.5334 -2.2979 0.1595 0 131
2.642 -2.5846 0.17236 1 162
2.6525 1.5388 -1.1974 0 17680
2.7653 -3.5599 -0.63352 0 239
2.8579 1.2326 0.21764 1 18302
2.8634 1.0422 -0.50063 0 18654
2.8885 2.1838 -0.76969 0 17233
2.926 -3.3471 0.51989 2 204
3.0182 -3.9562 -0.58192 0 244
3.0841 -2.3992 -0.45694 2 55
3.0925 2.2271 -0.08848 0 17296
3.0927 0.22115 0.14459 0 20343
3.1458 -2.4331 0.092333 0 54
3.1656 -0.26026 0.2221 0 20955
3.1955 -3.676 -0.22714 0 206
3.2012 2.2902 -0.83664 0 17302
3.2062 1.0628 -0.2362 0 18822
3.2412 -0.70788 0.30952 0 21262
3.4704 -2.638 0.61264 2 40
3.5375 1.7993 -0.65205 0 17974
3.5695 1.6881 0.74394 0 18145
3.6012 -0.87456 -0.34574 0 21295
3.6348 -2.6447 0.20963 0 22504
3.6721 1.3011 -0.18168 0 18707
3.8504 -1.6028 0.78579 0 21647
3.9429 2.6695 0.55683 0 17380
4.0475 1.0114 0 0 19268
4.0631 0.37264 0.47715 0 20236
4.0786 0.38698 -0.095118 1 20214
4.1308 1.809 0.74089 1 18282
4.1414 2.3853 0.44588 0 17699
4.2559 2.1191 -0.7811 0 18025
4.4393 -1.439 -0.10835 0 21415
4.4443 -0.66499 0.7383 0 21139
4.5227 -1.7461 0 0 21547
4.5366 -1.019 0.76391 0 21271
4.6178 1.8958 0.34906 0 18402
4.6219 -0.4597 0.10784 2 21007
4.7506 0.36804 0.2222 1 20314
4.7699 -0.019148 -1.1302 1 20679
4.8028 0.28702 0.9065 0 20405
4.8087 -0.031893 0.22425 0 20692
-2.639 0.59424 0.12615 0 2798
-1.5756 -0.23238 0.26166 1 1620
2.6186 -1.2166 0.26939 0 21817
-14.959 0.66881 0.69829 1 2160
-14.819 0.70405 2.0851 0 2172
-14.723 -1.1768 2.4266 0 1714
-14.591 0.82597 0.68152 1 2203
-13.762 -0.42046 1.2845 1 1893
-13.739 -1.1368 1.6122 0 1703
-13.728 -0.37866 1.9301 2 1905
-13.727 -1.2589 1.286 0 1684
-13.383 1.145 2.5307 0 2314
-13.366 -1.1059 0.62543 1 1700
-12.839 1.286 2.431 0 2357
-12.784 1.2017 1.5016 0 2338
-12.771 -1.4302 0.8986 1 1646
-12.496 0.66801 2.3577 0 2195
-12.279 0.90821 1.7305 0 2276
-12.262 -0.16265 0.57186 2 1958
-12.216 0.22603 2.0074 2 2070
-12.094 0.33147 0.84601 1 2100
-11.95 3.617 1.7547 0 3201
-11.722 0.5897 1.6495 1 2184
-11.597 4.8367 2.3674 1 3901
-11.589 2.7502 1.3929 0 2857
-11.485 -1.3553 1.9001 0 1635
-11.296 2.4052 1.3506 0 2741
-11.124 2.9474 0.80471 0 2994
-11.123 4.6004 1.9775 1 3878
-11.066 4.4307 2.2459 1 3798
-11.035 3.6536 1.6336 0 3359
-11.004 4.2925 1.3813 0 3723
-10.991 5.4727 0.85856 1 4428
-10.916 4.1163 2.1981 0 3648
-10.842 5.953 -0.28716 0 4758
-10.792 6.7254 2.3959 0 5224
-10.784 5.4075 1.9821 2 4459
-10.63 5.0611 0.54903 1 4279
-10.443 -1.1696 1.4769 0 1647
-10.205 3.5458 0.75546 0 3451
-9.9369 2.0271 1.9108 2 2705
-9.8749 1.7483 0.93561 0 2586
-9.7723 -7.3908 2.3085 0 1489
-9.6968 2.8723 0.70719 0 3162
-9.6582 5.1961 1.2825 0 4695
-9.5803 3.8357 1.2068 2 3792
-9.5457 4.9967 2.03 0 4599
-9.0925 2.3532 1.5431 1 2967
-9.0571 3.5951 1.836 2 3774
-9.0423 2.7645 0.21953 0 3214
-9.0382 -1.1723 1.0658 0 1631
-8.9764 -1.244 0.4226 0 1625
-8.97 1.0823 1.7023 0 2411
-8.9537 2.8523 0.65711 0 3282
-8.8986 7.0555 0.79411 0 6261
-8.8985 0.96825 1.0468 0 2377
-8.8372 6.2849 0.50571 1 5744
-8.7839 4.3089 1.8434 2 4391
-8.7232 0.28938 0 0 2117
-8.695 5.8869 0.97964 1 5538
-8.6482 6.7737 0.76816 0 6202
-8.5073 0.13364 1.603 0 2061
-8.4832 -6.811 1.529 0 1472
-8.4736 5.1136 0.92335 0 5095
-8.4614 -0.65404 1.599 0 1721
-8.4207 0.91627 1.3916 1 2378
-8.3982 2.8901 -0.2062 0 3427
-8.3423 6.6906 0.74779 0 6317
-8.3052 -7.4964 1.5724 0 1435
-8.2281 11.821 -1.0071 0 9181
-8.2213 3.7121 1.0549 1 4114
-8.2133 7.1574 2.0526 0 6742
-8.1968 1.7692 0.58637 0 2752
-8.1562 1.7604 1.1727 0 2755
-8.1553 7.7067 2.1141 0 7149
-8.1515 10.825 -1.2643 0 8814
-8.1391 5.3058 1.5962 2 5397
-8.1351 1.1014 -1.1537 0 2439
-8.096 0.40729 -0.56684 1 2177
-8.0208 6.6307 0.48531 1 6462
-8.0082 4.8328 0.21716 0 5091
-7.9936 1.7736 0 0 2781
-7.926 2.1252 1.3482 0 3015
-7.8685 6.5048 0.71389 0 6464
-7.8117 1.0784 0.7357 0 2455
-7.7996 -1.3136 0.36885 0 1589
-7.7683 7.0885 0.98112 1 6964
-7.7512 6.442 1.8989 2 6504
-7.7369 -1.2337 0.9162 0 1605
-7.7353 -0.32691 1.272 0 1849
-7.6616 2.2928 1.5068 2 3188
-7.5516 6.733 0.70747 0 6848
-7.4815 -0.55466 0 0 1725
-7.4684 6.9352 1.4324 0 7054
-7.43 6.4747 0.45959 0 6731
-7.3737 -5.9562 1.3322 0 1470
-7.2725 -5.1759 -0.41627 0 1512
-7.2675 8.93 1.3464 0 8451
-7.2408 -1.0473 0.85557 0 1621
-7.2078 -8.5565 1.3083 0 1393
-7.2031 12.064 -1.3109 0 9863
-7.1713 -6.9397 0.23169 0 1427
-7.1517 -4.9061 1.2189 0 1537
-7.093 -5.6622 -0.63464 1 1473
-7.0659 9.0505 1.8864 1 8659
-7.0241 -7.1204 1.6433 0 1421
-7.023 8.0905 0.99952 2 8118
-6.9975 9.9972 -1.427 0 9147
-6.9313 -0.63568 -0.32459 0 1680
-6.913 8.5918 1.5498 0 8513
-6.9039 -9.8087 0.27848 1 1370
-6.8666 9.2224 0.80401 0 8881
-6.8664 -7.9128 -0.48857 0 1399
-6.7691 -5.7957 0.83138 0 1452
-6.7633 -0.79809 1.2831 0 1636
-6.7426 1.6001 0.64653 0 2856
-6.7082 1.5919 0.32152 1 2854
-6.6882 -0.57456 -0.62628 0 1691
-6.6481 8.2126 1.485 1 8483
-6.6326 8.8082 1.0287 2 8828
-6.6262 9.8832 -1.3915 1 9356
-6.5527 0.67485 0.61457 0 2363
-6.5405 7.8473 1.4357 1 8336
-6.5229 6.1318 1.6867 0 7119
-6.4708 11.276 -0.30183 0 10023
-6.4679 -5.4445 0.98867 0 1459
-6.4661 2.6533 0.98228 0 3857
-6.3984 5.3803 1.1749 1 6560
-6.3837 2.4902 -0.15909 1 3713
-6.3835 -10.624 1.1563 0 1336
-6.3185 0.50283 -0.59135 0 2289
-6.3044 6.7701 1.0818 1 7775
-6.2998 -6.7321 0.86018 0 1412
-6.2971 1.3408 0.14948 0 2738
-6.1823 -5.3572 0.7632 0 1447
-6.1554 -9.0744 0.25458 0 1356
-6.0967 -5.283 -0.37621 0 1446
-6.0869 3.4818 0.32702 0 4899
-6.0775 10.313 0.55826 1 9921
-6.0761 -7.5167 -0.2244 0 1384
-6.0739 10.944 1.4637 0 10170
-6.0556 8.2347 1.4365 1 8943
-6.0314 11.493 1.5179 0 10390
-5.9511 2.687 0.60919 1 4112
-5.9441 4.4387 1.2188 1 5976
-5.9348 8.852 1.2463 1 9372
-5.8903 -4.9865 -0.3599 0 1457
-5.8419 -4.8003 0.70542 0 1466
-5.8334 -5.9133 1.1674 0 1420
-5.735 10.27 0.2731 0 10136
-5.7305 11.993 0.92944 1 10736
-5.7294 6.5584 0.40611 0 8083
-5.7254 10.462 1.9594 1 10227
-5.7132 -5.0689 0.35618 0 1439
-5.7048 -4.2879 -0.49904 0 1490
-5.7025 4.7142 1.2156 1 6472
-5.6841 11.219 0.58649 2 10516
-5.6574 7.421 0.87058 0 8773
-5.6532 3.4331 0 0 5116
-5.6444 11.812 2.4666 0 10746
-5.6417 2.7079 1.179 0 4314
-5.622 8.6571 1.9448 0 9523
-5.6201 -0.96168 0.2659 0 1586
-5.6102 -4.92 1.226 1 1443
-5.5656 3.0787 -0.59339 1 4775
-5.5213 2.379 0 1 3974
-5.445 -4.0173 0.63129 0 1499
-5.4393 2.456 -0.55679 0 4102
-5.4055 10.222 0.53925 1 10354
-5.3932 5.7916 1.3002 2 7779
-5.3762 4.1868 -0.1582 2 6165
-5.3632 -0.8389 0.50645 0 1609
-5.3562 7.2835 1.7034 1 8946
-5.3546 -7.7998 0.88266 0 1361
-5.3396 -7.2689 1.6993 0 1378
-5.2969 10.093 0.26465 0 10382
-5.2876 7.6964 1.7593 2 9261
-5.2119 -3.3563 0.87122 0 1561
-5.2071 0.38513 -0.48713 2 2268
-5.206 8.0689 0.67148 0 9543
-5.1865 9.6769 1.2839 0 10308
-5.183 5.6285 1.4416 2 7834
-5.1343 -6.8606 -0.59921 0 1379
-5.1292 -5.3542 1.2182 0 1415
-5.1006 -5.1131 0.3368 0 1423
-5.076 -6.5818 0.19297 0 1381
-5.0749 5.7766 0.53768 2 8056
-5.0489 9.8284 1.5529 0 10468
-5.0098 11.871 2.117 0 11190
-4.976 3.7838 0.29152 0 6053
-4.9711 -11.144 0.56906 1 1193
-4.967 2.6166 0 0 4611
-4.9431 12.095 0.60931 1 11289
-4.8979 9.2 0.72882 0 10331
-4.8841 9.0481 1.6893 2 10284
-4.8539 11.689 0.88507 1 11239
-4.8401 8.0014 0.87244 1 9826
-4.8326 11.541 2.0557 1 11218
-4.8211 -5.2706 0.66641 0 1408
-4.7663 4.3767 0.30177 0 6989
-4.7297 10.441 1.8832 2 10947
-4.6586 -6.786 1.5508 0 1362
-4.656 -5.4921 0.16716 0 1394
-4.6507 9.1157 0.95474 0 10492
-4.6393 4.8667 1.2668 0 7667
-4.6282 -6.9977 -0.19478 0 1352
-4.6104 9.1667 0.4785 1 10543
-4.6078 7.1829 1.6079 1 9582
-4.6021 -7.1796 1.6068 0 1347
-4.6012 9.552 0.49444 1 10704
-4.5158 -6.6149 1.1256 0 1358
-4.5152 -8.3126 -0.44115 0 1296
-4.4672 11.499 1.1509 0 11459
-4.4608 9.694 1.4997 1 10888
-4.449 -11.566 1.7416 0 1148
-4.4246 11.697 2.3562 2 11555
-4.4091 -3.2151 0.63813 0 1505
-4.3908 11.706 0.29027 1 11572
-4.3805 8.173 1.7471 1 10313
-4.3333 14.245 -1.3891 0 12173
-4.3135 6.9896 1.5475 1 9753
-4.3061 12.945 1.9172 0 11943
-4.3044 -14.185 -0.34417 0 1108
-4.232 -3.6234 0.91533 0 1453
-4.2006 -2.7751 0.82714 2 1560
-4.1625 -4.7431 0.44128 1 1401
-4.1533 -3.1411 0.48582 2 1488
-4.1294 6.736 1.4886 1 9780
-4.1199 -7.3325 0.98356 0 1314
-4.1171 4.5246 0.28528 0 7880
-4.1083 -7.6717 1.2231 0 1291
-4.1064 -6.7885 0.1842 0 1338
-4.1038 -3.5137 0.12543 0 1450
-4.0884 -6.1002 1.2065 0 1354
-4.0771 13.835 -1.3456 1 12250
-4.0767 11.062 1.3787 2 11638
-4.075 3.6769 -0.64185 2 6891
-3.9759 9.3486 0.47375 1 11156
-3.9272 7.4834 0.78847 2 10388
-3.886 4.1007 0.52707 0 7686
-3.879 9.4205 1.4318 2 11270
-3.8374 8.8804 0.90254 1 11106
-3.8081 -4.5983 0.13861 0 1390
-3.7865 -5.5156 0.15533 0 1360
-3.7752 -5.0134 1.0311 0 1380
-3.7712 12.397 0.60428 2 12184
-3.744 -6.3157 0.51341 0 1332
-3.6846 -11.644 0.28354 1 1117
-3.6762 3.3959 -0.11619 2 7012
-3.6698 -10.329 1.2818 0 1131
-3.6364 10.83 1.0658 2 11914
-3.602 12.223 1.1888 0 12264
-3.5825 13.607 -1.3127 0 12526
-3.5738 11.882 0.86763 1 12211
-3.5721 -4.2405 0.38771 0 1392
-3.4293 6.6755 -0.87763 2 10450
-3.3486 8.6197 1.7423 0 11467
-3.3209 4.9832 0.13903 0 9393
-3.2807 -6.5771 0.85952 0 1247
-3.2727 10.881 1.5969 2 12216
-3.2418 -10.683 1.8342 0 1111
-3.2199 -3.9367 0.83557 1 1388
-3.2036 -9.9245 0.97295 0 1120
-3.1682 -8.9169 1.3299 0 1132
-3.165 -4.8458 -0.40473 0 1348
-3.1521 -8.4893 -0.21024 0 1138
-3.1494 -6.5969 0.3409 0 1229
-3.1445 -8.5374 0.42428 0 1136
-3.1403 -5.4744 0.29431 0 1322
-3.1246 -13.831 2.3297 0 1032
-3.0975 -5.3629 0.87039 1 1324
-3.0577 5.3651 0.28798 0 10057
-3.0534 8.5139 1.7041 0 11728
-3.0298 -5.985 -0.15574 0 1252
-2.9724 -10.325 0.50105 1 1084
-2.9156 8.284 1.027 0 11779
-2.8452 4.7937 -0.12942 0 9891
-2.8338 4.4175 0.24475 0 9571
-2.8085 5.7075 0.29664 0 10621
-2.7909 -7.3202 1.476 0 1145
-2.7887 -7.9991 0.59237 0 1129
-2.7671 4.3703 0.84984 0 9639
-2.7391 -4.3581 -0.35994 1 1345
-2.6737 -5.0242 0.53097 1 1282
-2.6196 5.0994 0.67042 0 10466
-2.5893 8.0939 0 0 12045
-2.5889 -7.5703 1.3145 0 1126
-2.5767 -4.5229 0.48564 0 1319
-2.5689 -5.5014 0.56646 1 1218
-2.5445 -12.429 -0.29454 0 1008
-2.5405 11.516 0.82466 2 12920
-2.5291 -9.3992 1.5992 0 1073
-2.4886 -7.9509 0.97427 0 1113
-2.4801 -10.811 0 0 1035
-2.4133 4.4707 -0.23692 0 10267
-2.3697 -4.6467 0.85697 0 1258
-2.3138 -5.1485 0.79329 0 1197
-2.3085 -8.2903 -0.1998 0 1078
-2.3014 9.2787 1.8012 1 12688
-2.2901 8.0287 0.38934 0 12339
-2.1834 -11.489 -0.27152 0 1000
-2.1245 13.49 1.9192 0 13470
-2.094 4.5885 0.35269 0 10911
-2.0689 -8.4676 0.60953 0 1065
-2.0451 -4.5848 0.46836 1 1194
-2.0404 -6.9327 0.84511 0 1086
-2.007 -6.2811 0 0 1118
-2.0016 5.2915 0.52781 1 11547
-2.0007 7.0143 -0.34015 0 12333
-1.9975 -5.4733 -0.13527 0 1135
-1.9238 -10.124 1.9415 0 1001
-1.9035 7.874 0.94733 0 12739
-1.7553 4.9872 0.36971 0 11776
-1.7478 -9.0589 0.43024 0 1004
-1.7254 -6.1301 0.14785 1 1080
-1.7199 5.2683 0.25844 0 11993
-1.7017 -5.2217 0.25612 0 1122
-1.6618 5.2514 -0.51388 2 12066
-1.6549 8.8427 -0.41953 0 13194
-1.6435 12.534 2.3818 0 13704
-1.5926 7.5315 0 0 12991
-1.5914 -5.1825 0.89069 0 1112
-1.5657 12.239 1.7341 2 13726
-1.4028 5.7283 0.4124 0 12708
-1.3804 14.908 1.7509 0 13996
-1.3787 -6.7342 1.1293 0 1010
-1.3717 -9.4486 0.44524 0 972
-1.2625 5.0902 0.73706 0 12684
-1.2062 -6.6639 -0.15723 0 995
-1.1607 -8.8881 -0.20811 0 955
-1.0817 14.945 1.7522 0 14134
-1.0764 9.5067 -0.22213 0 13833
-1.0569 5.2988 0.63186 1 13102
-0.99531 -5.7863 0.96462 0 989
-0.99027 -6.958 0.16317 0 967
-0.98159 11.714 1.0967 0 14050
-0.95796 -6.5988 0 0 970
-0.91375 13.794 1.6166 0 14171
-0.8864 12.246 2.3133 0 14139
-0.87196 -8.1456 1.3459 0 931
-0.85796 -7.4152 1.0491 0 941
-0.83532 10.315 1.4544 0 14075
-0.75206 -11.855 1.1082 0 893
-0.70993 -5.8409 0.68808 0 948
-0.70425 -8.696 1.6438 0 908
-0.69205 9.204 0.43043 0 14109
-0.66171 -10.015 -0.23304 0 896
-0.58198 -6.0886 1.1524 0 922
-0.53417 12.333 0.28661 1 14322
-0.47504 9.7128 1.3667 0 14289
-0.46706 8.5139 0.39764 0 14244
-0.42608 7.0267 -1.1566 0 14197
-0.40108 -6.9985 0 0 889
-0.27982 -5.7625 0.81082 0 882
-0.27634 -6.9104 0.64523 0 874
-0.27392 -5.2975 -0.12316 1 884
-0.26633 -9.3022 0 0 864
-0.048867 5.7136 0.26646 0 14575
-0.032946 12.585 2.0677 0 14620
-0.031316 11.963 -0.27774 0 14608
-0.014965 -6.5959 0.46123 0 831
0.0925 -6.0913 0 0 806
0.11847 5.1026 0 0 14793
0.12552 -13.569 2.2295 0 814
0.16283 -6.1771 0.86844 0 790
0.16515 -10.876 0.25253 0 807
0.20001 -7.5876 1.247 0 791
0.25236 9.5733 0.66966 0 14817
0.26283 7.4889 1.2311 0 14884
0.28696 -12.087 -0.28071 0 794
0.30138 7.9537 0.74258 0 14899
0.31651 9.0184 0 0 14872
0.39598 9.0695 0.42335 0 14929
0.42001 -11.85 0.82913 0 779
0.43202 -5.7057 0.40012 0 739
0.43451 -8.728 1.4357 0 762
0.49404 9.4267 1.1039 0 14987
0.4993 -9.4954 1.5622 0 757
0.53971 5.4554 0 0 15239
0.56611 -6.6857 0.46918 0 731
0.60047 -6.6237 1.0927 0 726
0.61246 7.817 1.102 1 15139
0.63203 -5.2769 0.12339 0 691
0.64225 13.772 2.2651 0 14953
0.68259 13.76 1.9362 1 14969
0.70771 -8.0568 -0.18778 0 728
0.76809 -6.9241 0.81468 0 703
0.76918 14.677 2.4146 0 14990
0.78797 -8.4301 0.39484 0 722
0.87626 5.3451 0.50533 0 15622
0.98721 13.573 1.2696 0 15099
1.0001 -7.7748 1.2879 0 679
1.0152 -7.3825 -0.17301 0 666
1.0383 7.5604 -0.53364 0 15452
1.0416 10.857 1.0175 0 15227
1.1247 -6.3979 0 0 609
1.1972 -9.5305 -0.22301 0 681
1.2153 6.0932 -0.28975 0 15795
1.2314 14.573 1.3644 0 15167
1.2572 -7.8055 0.92456 0 635
1.3049 5.1304 -1.1252 2 16061
1.3263 14.716 0.68906 1 15195
1.4262 14.416 0.67555 1 15241
1.445 -6.9106 -0.16391 0 576
1.4765 -6.8638 0.49095 0 573
1.4807 14.527 1.0211 1 15260
1.4818 -10.347 0.97518 0 662
1.5865 7.7084 0 0 15829
1.6036 -12.765 1.8081 0 683
1.6847 7.9598 -0.56893 0 15861
1.7368 -7.9655 0.7606 0 570
1.7525 -6.9667 1.1802 0 545
1.818 5.6152 -1.2545 0 16243
1.8975 -5.6416 0.97791 0 489
1.9352 -12.458 0.88158 1 649
1.9572 -10.57 1.7661 0 600
2.0172 7.3786 0.53489 0 16121
2.0192 -9.1232 0 0 565
2.0924 11.915 1.4147 0 15681
2.1467 -6.5602 0.32189 0 491
2.157 -5.949 0 0 471
2.221 -7.2105 1.2396 0 501
2.2442 -6.6073 0 0 486
2.2688 -5.0766 0.1291 0 396
2.3211 6.5801 -0.98061 0 16281
2.3687 5.3885 -0.82724 1 16413
2.3995 -5.0487 0.6537 0 368
2.4662 7.1951 1.2496 0 16271
2.4957 6.765 0.67272 0 16309
2.5545 -6.0444 0 0 413
2.6131 5.009 -1.479 0 16501
2.6338 11.92 2.3 0 15918
2.6485 -5.1467 1.0905 0 340
2.701 10.874 0 0 16027
2.7082 4.3039 -1.4581 0 16666
2.7255 -5.6531 1.0311 0 362
2.7414 -8.299 1.2283 0 490
2.7449 -6.1884 0.79168 1 399
2.7527 8.9476 -0.21735 1 16208
2.856 4.9388 0.66717 0 16595
2.8564 -5.1765 -0.55159 0 318
2.9087 4.7726 -1.188 0 16637
2.9465 -8.3532 0.20565 0 475
2.9488 -4.6216 0.51146 1 285
2.9804 6.7798 0.17195 0 16416
3.0482 -6.7167 -0.34397 0 392
3.0928 5.1391 0.55958 0 16625
3.1047 8.4157 -0.62725 0 16307
3.1328 -3.9384 -1.3174 0 231
3.1329 7.7893 0.19492 0 16360
3.2187 -4.4826 -0.38589 0 259
3.2573 -7.8329 0.79144 1 424
3.2583 8.0363 1.4247 0 16369
3.2645 4.6021 -0.92701 0 16768
3.2858 -4.0346 0.36385 0 221
3.3106 -5.8826 0.15672 0 315
3.3368 5.0052 0.28053 0 16711
3.3617 4.1292 -1.2616 0 16926
3.3986 9.2124 -0.45792 0 16308
3.4463 -5.6883 1.0927 0 303
3.455 7.7967 1.6068 0 16423
3.459 -8.8172 1.1076 0 450
3.4682 -4.7684 -1.2533 0 257
3.4717 4.1654 -0.50589 0 16942
3.537 5.1425 -0.72989 0 16733
3.538 -10.03 1.2437 0 477
3.5676 6.4281 1.0332 0 16557
3.6086 8.7509 -0.44142 1 16378
3.6329 5.8456 -0.32096 0 16649
3.6515 -3.7615 0.24447 0 177
3.7384 -5.5029 0.93496 0 276
3.7424 -7.1192 1.1304 0 334
3.818 -6.3844 1.0455 0 305
3.8398 3.8452 -0.25341 0 17052
3.8589 -6.9933 0.37248 0 320
3.8609 6.5441 1.2483 0 16610
3.8981 -8.0278 0.62404 0 358
3.9109 -4.7714 1.1624 0 219
3.9169 -8.5003 1.7634 0 387
3.954 10.917 -0.26957 0 16297
4.0092 -5.8641 -0.83071 0 273
4.0144 10.882 1.9056 0 16311
4.0423 -9.1134 -0.69715 0 397
4.0997 9.1052 -0.69826 0 16428
4.1537 -11.874 0 0 478
4.1667 4.908 -1.3685 0 16958
4.2117 4.6546 -0.73407 1 16999
4.224 5.0681 -1.0839 0 16940
4.2572 -9.8237 1.759 0 408
4.364 -6.8395 0.37835 0 284
4.389 7.7988 1.0465 0 16570
4.4048 -4.4605 0.58485 0 172
4.4335 8.3207 1.7763 0 16513
4.4435 9.7956 1.5117 0 16432
4.4709 7.429 0.40434 0 16623
4.4713 6.0781 0.52764 0 16822
4.4729 5.9703 0 0 16841
4.4903 7.712 0 0 16599
4.5334 -3.5063 -0.9416 0 50
4.5339 3.3856 -0.13137 0 17248
4.5549 -8.6064 0.22607 0 331
4.5662 4.5982 -0.91075 0 17047
4.5677 9.0112 -1.4198 0 16483
4.5688 -7.9487 0.85535 0 311
4.5913 -3.38 0.5319 1 22517
4.6175 6.6735 -1.3333 0 16740
4.6654 1.9948 -0.47338 1 18311
4.6671 5.1888 -0.48802 0 16995
4.6949 -2.3326 0.73678 0 21937
4.7052 7.1494 -0.7985 0 16698
4.7266 -6.3458 -0.55331 0 252
4.7345 -2.6678 0.507 0 22188
4.7882 -7.6508 0.20955 0 291
4.7948 -6.1018 0.724 0 234
4.8519 -3.0578 0.53506 0 22339
4.8597 8.579 1.6199 0 16579
4.8642 7.03 0.39866 0 16746
4.8736 -5.4777 -1.0304 0 196
4.9422 -2.8799 -0.39998 0 22233
4.9508 4.5175 0.94192 0 17085
4.9989 -1.3685 0.97649 0 21343
5.0046 -0.70514 0.47152 0 21116
5.0334 3.3849 0.5659 0 17389
5.0393 6.8501 0 0 16819
5.0394 -0.15045 0.58958 0 20794
5.0469 10.243 1.8761 0 16470
5.0733 -0.12133 0.95613 0 20775
5.0894 5.1251 -0.84465 0 17048
5.0974 8.1449 1.1236 0 16661
5.1107 1.6773 -0.37613 0 18839
5.117 -7.2592 -0.8286 0 262
5.1207 -2.1148 -1.1776 0 21634
5.1305 4.9632 1.1728 0 17068
5.1517 7.0881 1.4396 0 16807
5.171 3.2463 -0.56961 0 17498
5.1768 3.6154 -0.1466 0 17330
5.1843 -5.628 -0.89483 1 192
5.1923 -8.2965 1.1445 0 294
5.2008 1.1558 0.74875 0 19442
5.2024 3.0976 0.70805 0 17618
5.2042 -1.377 0.62954 0 21326
5.2077 1.3983 -0.25146 0 19158
5.2173 5.0772 0 0 17063
5.2712 5.5917 0.71694 0 17025
5.3023 -0.20555 0.24745 0 20823
5.3606 7.9415 -0.22245 0 16719
5.3689 -7.081 0.62139 0 246
5.4406 -8.9236 1.4688 0 301
5.4687 1.1345 0.9176 0 19544
5.4764 -8.162 1.1494 0 278
5.4965 -3.287 0.44784 0 22276
5.5098 4.9995 -0.17273 0 17087
5.5338 -10.171 1.9023 0 325
5.5602 -2.4872 -0.42593 0 21749
5.5849 -4.4012 -1.1682 0 61
5.6061 -4.2092 0.32692 0 27
5.6322 4.8496 1.2211 0 17119
5.6559 -8.8643 1.7276 0 287
5.6983 -9.8499 1.8696 0 308
5.7211 -6.1739 1.3829 0 191
5.7321 -1.6947 0.41798 0 21372
5.7343 -8.5464 -1.2036 0 277
5.7488 -5.8869 -0.76766 0 175
5.7609 -9.0917 1.0042 0 288
5.7716 0.3793 0 0 20372
5.8393 -4.9925 0.71675 0 117
5.8436 -3.3142 0.94415 0 22200
5.8609 -2.6217 -1.3647 0 21759
5.8765 -1.923 0.57686 1 21424
5.8781 8.0875 0 0 16803
5.8846 5.8928 -0.77695 0 17051
5.8986 1.6203 -0.42775 0 19123
5.9677 -6.9064 0.21191 0 209
5.969 -4.1857 -0.85255 2 22464
5.9719 -1.7474 0.14446 0 21367
6.0288 3.4068 0.8098 0 17752
6.04 -8.1596 1.6679 0 254
6.0704 5.1063 1.4945 0 17130
6.0728 -6.9077 -1.2926 0 199
6.0802 4.9061 0.91364 0 17168
6.086 -0.60532 1.0048 0 21010
6.1266 4.6033 0.53587 0 17239
6.1293 -4.914 -0.73292 1 75
6.132 10.125 1.9448 0 16632
6.1479 9.4562 1.0523 0 16689
6.153 0.065511 0.28695 0 20617
6.1613 5.3995 0.76431 0 17107
6.1827 4.2128 0.69799 1 17371
6.1845 1.2066 -0.29385 1 19614
6.2268 5.4878 -0.77435 1 17103
6.2484 -7.5799 -0.91647 0 218
6.2779 -7.9378 1.6627 0 233
6.2924 2.8875 -1.4716 1 18200
6.299 -9.1003 1.8183 0 268
6.3213 -1.5562 0.91492 0 21303
6.3248 -2.893 0.48634 0 21794
6.3366 4.7611 0 0 17238
6.3685 -5.0187 1.1395 0 66
6.3807 -5.4554 0.39149 0 116
6.3953 9.8366 -0.2724 0 16687
6.4265 -0.28396 0.90407 0 20842
6.4675 10.082 -1.1175 0 16676
6.5108 -0.44044 0.60881 0 20913
6.5322 -2.5219 1.1504 0 21552
6.5412 5.7325 -0.20193 0 17106
6.5474 -0.99955 0.61792 0 21146
6.5757 6.5436 -1.0848 0 17053
6.6469 -3.397 -1.4064 0 21995
6.6476 8.3095 1.7483 0 16906
6.6704 4.4857 0.5621 0 17388
6.6851 -1.0397 0.95083 0 21153
6.7179 -1.1652 -0.1583 0 21191
6.7373 2.9729 -0.51494 0 18261
6.7507 2.3456 -0.49974 1 18740
6.7787 2.6007 0.67737 1 18561
6.8293 4.6534 0 0 17368
6.8417 -1.9373 1.1682 0 21355
6.8604 7.1141 0.92205 0 17035
6.8673 4.9456 0.39465 0 17297
6.8878 0.97661 1.1429 0 19957
6.8879 2.0207 -0.33475 0 19019
6.9394 -3.472 1.462 0 21954
6.964 -1.586 1.3457 0 21276
6.9677 -2.4373 0.86323 0 21461
7.0372 6.8482 0.9161 0 17064
7.0396 8.7461 -1.0474 0 16909
7.0419 -12.172 2.6495 0 309
7.1183 -4.8667 -0.60297 0 22437
7.123 -4.6328 -0.79274 1 22374
7.1343 8.0724 1.0051 0 16986
7.1356 -2.9469 1.4546 0 21636
7.1413 -12.182 2.3199 0 307
7.1513 4.9315 1.0159 0 17353
7.1597 2.9656 -0.36139 0 18380
7.1713 -5.855 1.521 0 85
7.2466 6.541 1.372 0 17089
7.257 2.107 1.2415 0 19047
7.2802 0.81789 1.0296 0 20126
7.284 -5.7402 0.43248 0 65
7.2871 5.9474 0 0 17153
7.3076 0.099488 0.68183 0 20605
7.3284 0.37637 0.51313 0 20440
7.3305 6.0902 -1.3394 0 17134
7.3869 -3.8848 1.3712 0 22058
7.4029 5.1701 0.20964 0 17331
7.4444 6.1848 -0.67678 0 17137
7.4754 -0.39569 0.3491 0 20869
7.562 5.5793 0.21818 0 17263
7.5643 -8.0243 1.5498 0 187
7.6545 -1.648 -0.18179 0 21257
7.6865 0.14759 0.17849 0 20575
7.6938 5.3056 0.43583 0 17350
7.7018 2.3591 0.7515 1 18962
7.7097 8.3724 1.8699 0 17016
7.7351 -0.18499 0.90481 0 20772
7.813 6.847 1.7068 0 17108
7.8248 -3.1773 0.78791 0 21611
7.8373 11.395 1.2903 0 16738
7.8415 2.4019 -0.38245 0 18954
7.8684 -6.232 1.6491 0 70
7.8807 -2.6568 1.3664 0 21441
7.9789 3.1414 1.4088 0 18509
7.9954 -0.44841 0 0 20879
8.0236 7.8958 1.0502 0 17060
8.0591 -1.0868 -1.1429 0 21096
8.0741 -1.5928 1.3521 0 21231
8.0926 -4.079 1.4889 0 21967
8.1895 9.153 2.314 0 16992
8.2382 -1.4778 -0.19432 1 21204
8.2413 3.0813 -0.41031 0 18605
8.2464 4.4069 -1.3141 0 17861
8.266 -10.15 0.61043 1 220
8.3587 4.7832 1.8145 0 17721
8.3944 2.3864 1.4338 0 19084
8.3985 -4.6038 0.44664 0 22138
8.4365 2.1881 -0.20235 0 19218
8.4635 -2.5022 0.82339 0 21373
8.4717 -0.10794 1.392 0 20722
8.4814 -11.186 2.3063 0 247
8.5005 0.38452 0.59502 0 20465
8.5543 -0.35405 1.0012 0 20833
8.5607 4.3224 0 0 17995
8.5958 1.6009 -0.203 0 19669
8.6238 -2.2254 0.41534 0 21318
8.7593 5.5674 0.96831 0 17477
8.8562 -7.4471 1.3532 0 106
8.8718 7.2048 1.8777 0 17162
8.876 -10.211 1.2622 0 207
8.9274 -1.6804 1.4925 1 21217
8.9544 -3.6981 1.1329 0 21633
8.9578 5.8395 -0.24826 0 17433
8.9617 -2.8497 1.0997 0 21406
8.9642 -0.42431 0.41851 0 20851
8.9817 -8.5292 1.1556 0 142
9.0925 -5.9909 1.0159 0 22396
9.1118 -2.751 0 0 21384
9.166 -3.5387 0.45819 0 21550
9.2082 4.2587 -0.23554 0 18175
9.2971 -3.1342 1.1473 0 21439
9.3059 -0.8469 1.0927 0 20982
9.3269 -6.4198 1.5913 0 22450
9.341 -4.0499 0.71193 0 21701
9.3497 -3.2102 1.6241 0 21451
9.3758 7.7014 1.9934 0 17149
9.5352 -8.4479 2.093 0 124
9.5643 -0.14691 0.22208 0 20734
9.5855 2.7251 0.23137 0 19075
9.6231 -5.3122 1.5448 0 22153
9.6884 -3.7715 1.7081 0 21562
9.7455 7.9143 0.58546 1 17160
9.8935 -3.7523 0.24566 0 21529
9.9069 -4.4316 1.0125 0 21756
9.9274 8.548 -0.30415 0 17117
9.9599 -0.066058 1.3998 0 20694
9.9837 -2.6695 1.4524 0 21330
10.032 4.0859 -0.50515 0 18415
10.128 -3.7446 1.2628 0 21504
10.16 0.19508 1.6695 0 20581
10.192 -3.4361 0 0 21438
10.2 6.3146 -0.83889 0 17522
10.258 0.9408 0.96106 0 20235
10.268 0.37652 -0.23856 0 20499
10.276 2.7899 0.99339 0 19147
10.369 -0.58153 -0.24111 0 20878
10.418 0.14183 1.2184 0 20607
10.456 1.7273 1.7412 0 19798
10.472 5.1756 1.6417 0 18057
10.507 -2.7115 1.5251 0 21319
10.532 -2.5577 1.2674 0 21298
10.64 1.792 2.033 0 19781
10.692 0.11384 1.5028 0 20621
10.907 -2.7497 0 0 21311
11.167 -1.3098 1.0489 0 21056
11.26 0.64336 1.853 1 20418
11.358 -3.3578 1.6645 0 21374
11.413 1.5837 1.6194 0 19974
11.566 4.1709 1.728 0 18685
11.598 -0.046559 1.9056 0 20681
11.619 6.3849 1.5504 0 17811
11.63 1.5105 0 0 20019
11.64 0.56319 1.9146 0 20453
11.737 -1.1674 1.1004 0 21008
12.153 -2.1451 2.3251 0 21198
12.224 6.8572 1.9699 0 17768
12.247 -7.8652 1.3579 0 22365
12.404 6.679 1.6475 0 17854
12.577 5.7292 2.604 0 18215
12.638 2.7369 0.30021 1 19476
12.705 2.2928 0.60204 1 19706
12.768 -2.9431 1.8415 0 21280
12.875 5.1156 1.6201 0 18484
13 5.0791 1.3022 0 18525
13.524 6.2545 0.69484 1 18177
13.56 0.061534 2.2279 0 20645
14.336 -0.38793 2.3563 0 20784
-9.3593 6.294 -1.853 0 5499
-8.5616 10.52 -1.5862 0 8434
-5.9138 8.9348 -1.5059 0 9409
-4.4627 5.5465 -1.5132 1 8514
-3.0322 6.7407 -1.7513 2 10971
3.7716 4.6327 -1.8641 1 16923
3.9994 -2.2389 -1.5487 0 22176
4.0895 -5.9082 -1.5273 0 267
4.8767 10.922 -1.9652 0 16424
7.4413 -5.0268 -1.6919 0 22428
7.6448 3.7783 -1.8126 0 18058
8.3452 1.1832 -1.9971 0 19955
9.3337 -7.7987 -1.9983 0 97
12.076 0.89954 -1.9895 2 20319
