VERSION .7
FIELDS x y z intensity index
SIZE 8 8 8 8 8
TYPE F F F F F
COUNT 1 1 1 1 1
WIDTH 968
HEIGHT 1
VIEWPOINT 0 0 0 1 0 0 0
POINTS 968
DATA ascii
-4.7732 0.3874 0.67304 0 3050
-4.4534 0.21703 -0.41597 0 2901
-4.4442 2.2235 0.81644 0 5184
-4.4407 0.023251 0.4143 0 2725
-4.2634 -0.15112 0.59956 1 2558
-4.209 1.4855 0.84096 1 4278
-4.1333 -0.59415 -0.292 0 2139
-4.1252 1.2557 -0.81245 0 4017
-4.1214 -2.8114 0.70115 0 1925
-4.0805 1.4932 -0.40538 0 4336
-3.9793 2.6089 0.89651 0 6124
-3.944 -0.093634 0.46135 0 2604
-3.8787 1.4456 0.58174 1 4385
-3.8257 -0.39332 -0.17935 1 2296
-3.7239 1.1215 -0.36284 2 3987
-3.6882 0.9148 0 0 3749
-3.4921 -0.36765 0.24554 0 2289
-3.4025 1.766 -1.0992 2 5300
-3.3577 -3.6992 0.34934 0 1326
-3.3571 3.1747 0.54033 0 7810
-3.2506 3.595 -0.11253 0 8552
-3.2045 2.1958 -1.4139 0 6287
-3.1975 3.2972 0.21419 1 8251
-3.0839 2.1932 -0.44253 0 6432
-2.9916 2.78 0.57395 0 7717
-2.9033 3.98 0.57611 0 9400
-2.876 2.8481 -1.0596 0 8052
-2.8168 -3.3296 0.82171 0 1234
-2.784 -3.7079 0.10765 0 1136
-2.7435 3.1627 -0.097207 0 8724
-2.5804 -2.2662 0.16015 0 1621
-2.4895 -2.76 -0.25991 0 1319
-2.4006 -2.7733 0.5155 0 1267
-2.3826 3.0364 -1.3042 0 9138
-2.3623 -3.6754 0.82319 0 1048
-2.2896 3.4227 0.28795 0 9720
-2.2238 2.2677 -1.3266 0 8188
-2.0885 3.774 -0.20115 2 10439
-2.0536 2.4232 0.37145 0 8836
-2.0281 4.1344 0.21475 0 10831
-1.944 3.055 -0.08407 0 9920
-1.8062 -2.756 0.076503 0 1060
-1.7795 2.8159 -1.3007 0 9945
-1.7749 2.6354 0.52203 0 9702
-1.6637 4.3003 0.86873 0 11430
-1.6334 -4.425 0.21997 0 781
-1.598 -3.6028 0.55391 0 843
-1.4012 3.1516 -0.32178 2 11081
-1.2603 3.2309 0 0 11398
-1.11 -3.5354 0.52079 0 743
-1.0665 -3.9038 0.093957 0 723
-1.0546 3.0098 0.52397 2 11616
-0.9525 3.8692 -1.3464 0 12049
-0.81403 4.0627 0.19323 0 12192
-0.56505 -3.0106 0.071118 0 686
-0.49869 -3.7227 0.70765 0 660
0.033887 -3.7336 0.34834 1 541
0.21507 3.7187 -0.26047 1 12797
0.28327 -3.8666 -0.090011 1 478
0.32445 3.731 -1.0739 0 12845
0.35229 3.7976 0.17786 0 12855
0.58557 -3.6888 -0.086716 0 407
0.67985 -4.7413 0.78693 1 416
0.73951 -3.5306 0.25224 0 362
0.7703 -3.7262 0.62514 0 369
0.89931 -4.4202 -0.10473 0 371
1.1044 3.9961 0.28991 0 13072
1.2678 -4.427 -0.21475 0 305
1.4104 -3.0992 0.079056 0 258
1.5026 -4.3271 0.75256 0 290
1.5394 4.6603 0 0 13137
1.8612 3.2565 -1.0755 0 13512
1.9388 -4.3261 0.11007 0 262
1.976 3.2334 0.71395 0 13580
2.0473 -3.7535 0.29898 0 201
2.0983 4.0137 0.21121 0 13422
2.1759 -2.3687 -0.45203 0 14
2.2015 2.0731 0 0 14975
2.3998 -1.8973 -0.35774 1 21364
2.414 -4.2442 0.2277 2 194
2.4259 -3.7686 -0.95265 1 168
2.4391 4.211 -0.91687 2 13529
2.4473 -1.8664 0.43255 0 21347
2.508 -3.418 0.79875 0 132
2.6041 -3.7273 -0.31795 0 143
2.6044 1.7225 0.29131 1 16168
2.6663 -3.3797 0.099946 0 91
2.6673 -1.999 -0.46846 0 21328
2.7226 2.6082 0.44091 1 14929
2.7298 -1.5888 -0.59508 0 21056
2.8128 -3.8096 0.66553 0 128
2.8201 2.3756 -1.3421 0 15353
2.8311 -1.9349 0.31992 0 21216
2.9592 -3.9861 -0.46316 1 124
2.9697 1.7717 0.48599 0 16525
3.0092 1.6441 -0.079613 1 16801
3.0302 -3.8882 -1.168 0 98
3.0489 0.51186 -1.1252 0 18917
3.1149 1.5858 -1.46 0 17026
3.123 0.46896 0 0 19008
3.1291 0.47883 0.52008 0 18997
3.1763 2.4048 0 0 15710
3.3591 3.091 0.74997 0 15060
3.3643 -2.7088 -0.40297 0 21372
3.3761 2.9985 -0.74186 0 15169
3.3867 -0.81746 0 0 20424
3.4115 2.5373 -0.2973 1 15769
3.4154 -2.4227 -0.19528 0 21260
3.575 1.1851 -1.3708 0 17933
3.5828 0.10821 0.33441 0 19602
3.6188 3.0129 0.21959 0 15396
3.7359 -1.7057 0.09535 0 20813
3.7421 -1.924 0.39256 0 20930
3.7427 -3.0135 0.4483 0 21373
3.7443 0.42925 -1.176 0 19185
3.7453 -2.4026 0.83837 0 21157
3.7952 -3.2426 -0.34906 0 21391
3.8325 -2.2002 -0.30902 0 21040
3.931 0.79048 0.18699 0 18736
3.9771 2.5651 -0.77753 1 16246
3.9825 0.038926 0.37157 0 19696
4.0128 1.2537 -1.3118 1 18047
4.018 -0.78612 -0.38197 0 20318
4.0198 -2.8514 -0.57634 1 21258
4.0462 -2.9053 0.81838 0 21281
4.0526 0.9252 -0.09651 1 18564
4.1539 -0.7519 0.69355 2 20288
4.1644 1.0406 0.70522 1 18441
4.2178 -1.215 0.30693 0 20474
4.2942 1.2598 -1.1715 0 18166
4.4073 0.55677 0.62433 0 19131
4.4465 -1.4499 0.2181 0 20518
4.4751 1.8081 0.67833 0 17574
4.5043 -1.1155 0.65217 0 20436
4.5241 1.0054 0.87318 0 18618
4.5518 1.1501 -0.21894 0 18408
4.5676 0.25617 0.10621 0 19479
4.5867 0.67404 0 0 19024
4.6001 1.8885 -0.11545 0 17532
4.6122 1.0098 0.44049 2 18633
4.6932 -1.4852 0.45926 0 20503
4.7131 -0.89481 0.56101 0 20309
4.7539 -1.0322 0.11294 0 20384
4.8726 0.87584 -0.11494 1 18853
4.8849 -0.19364 0.4561 1 19906
4.9657 0.25068 0 0 19507
-2.3498 1.1937 0.49658 0 5234
1.2119 -1.2691 0.24661 1 21444
-13.86 4.6645 0 0 4185
-13.76 4.8566 -0.68049 0 4266
-13.616 3.7174 -1.3168 1 3850
-13.489 4.8457 -1.0023 0 4302
-13.485 5.9813 -1.3763 1 4800
-12.949 1.051 -1.2121 2 3041
-12.696 4.8557 -0.9505 1 4431
-12.58 5.278 -0.95399 0 4648
-12.42 -0.078037 -1.1587 0 2666
-12.36 7.9503 -1.3711 1 6035
-12.257 3.4246 -1.1873 2 3879
-12.132 5.938 -0.9445 2 5099
-11.864 4.7741 -1.1931 1 4542
-11.843 4.7298 -0.89177 0 4526
-11.774 4.6618 -1.4809 2 4504
-11.768 5.4676 -0.90739 0 4938
-11.623 0.94334 -0.54381 0 3043
-11.618 6.3318 -0.61704 0 5461
-11.601 -8.5747 1.687 0 1837
-11.546 6.2038 -1.2228 1 5408
-11.437 6.0608 -0.60363 1 5362
-11.372 -7.613 2.5784 1 1950
-11.26 -8.5255 1.6517 0 1813
-11.15 -1.9038 -1.3227 1 2052
-11.136 -9.3341 2.7377 0 1698
-11.131 -0.36341 1.8297 0 2571
-11.11 8.9138 -1.3289 1 6974
-11.092 1.4859 0.25982 0 3270
-11.075 -1.2345 0.51968 1 2265
-11.068 5.5375 -0.8654 1 5166
-11.03 -7.8097 0.94506 1 1881
-11.003 -0.51887 -1.2881 0 2503
-10.993 9.576 -1.3601 0 7380
-10.814 3.8167 -1.3411 2 4263
-10.812 5.3367 -1.1249 1 5119
-10.802 -8.5308 1.6096 0 1762
-10.776 -1.7414 0.76328 0 2089
-10.626 -8.1916 1.569 2 1789
-10.606 -9.6472 2.0149 0 1574
-10.599 -9.3676 1.6542 0 1616
-10.588 9.894 -1.3519 2 7729
-10.551 -1.2077 1.7447 1 2257
-10.521 7.7628 -1.2199 1 6580
-10.499 8.9926 -1.2897 0 7296
-10.466 -9.4664 2.6588 0 1583
-10.426 2.815 1.0075 0 3843
-10.368 0.96002 0.97146 1 3094
-10.35 2.2208 1.4878 0 3602
-10.319 -9.0046 2.5803 0 1633
-10.293 -1.388 1.4596 0 2180
-10.279 -7.7348 1.5044 0 1821
-10.139 -0.56509 1.1875 0 2474
-10.095 -9.6164 0.97492 1 1513
-10.05 -7.8406 1.1892 0 1773
-10.035 0.25577 0.93654 0 2812
-9.988 -1.8241 0.70998 0 2023
-9.9767 -9.3983 2.2519 1 1529
-9.9637 -9.7198 2.2869 1 1488
-9.815 -0.6915 0.22844 0 2425
-9.8085 -7.4721 1.1504 2 1804
-9.7293 1.6194 0.92019 0 3411
-9.6838 4.2267 -1.2356 1 4753
-9.6648 -7.7679 1.45 0 1742
-9.6567 2.9395 0.94174 1 4011
-9.6495 1.2927 1.1385 0 3274
-9.6264 -9.6702 1.273 2 1451
-9.6184 -9.7707 1.6033 0 1438
-9.5752 1.4789 1.3617 1 3360
-9.4852 -9.6354 2.2214 2 1440
-9.4628 -8.1192 2.3492 1 1662
-9.4076 0.40417 1.7741 2 2885
-9.3991 0.29538 0.43854 0 2835
-9.3685 -7.2226 1.9435 1 1790
-9.351 -6.9929 2.2 1 1828
-9.3288 0.53626 1.3132 1 2947
-9.2796 -7.0692 0.81573 0 1803
-9.2072 -6.201 2.0915 0 1942
-9.1787 -5.9152 1.794 2 1976
-9.1523 0.90223 1.511 2 3121
-9.1133 3.5495 0.68389 0 4475
-9.0789 1.5633 1.5136 1 3440
-9.0253 -8.6489 0.58295 1 1505
-8.9791 -9.0199 1.4884 1 1452
-8.9684 10.339 -1.2769 2 8719
-8.9655 2.2005 1.7393 0 3743
-8.9556 -0.21261 0.62641 0 2602
-8.9516 -8.4326 0.85996 1 1525
-8.8532 7.4051 1.0768 1 7198
-8.8506 -8.4815 1.4335 0 1508
-8.7391 3.3721 -0.65501 0 4451
-8.7388 2.2242 1.2673 0 3779
-8.7315 6.7973 2.0848 0 6850
-8.7104 0.12163 1.4312 1 2765
-8.707 -8.4466 0.56571 1 1490
-8.6755 2.9196 0.64009 0 4186
-8.6685 2.5037 0.84179 1 3927
-8.5334 2.653 0.41674 0 4044
-8.5292 7.1721 2.0996 0 7235
-8.4871 7.1823 1.3002 1 7258
-8.4775 -8.663 1.7035 0 1433
-8.4532 2.2287 -1.2286 0 3808
-8.3886 -6.7832 1.5162 0 1736
-8.3712 -8.6535 1.408 0 1416
-8.3217 5.1818 1.1464 0 5940
-8.2705 12.206 2.4224 0 9680
-8.2295 3.2052 0.82395 0 4477
-8.2111 10.92 2.2447 0 9301
-8.1746 -7.0536 1.0073 0 1649
-8.064 7.2813 2.047 0 7574
-8.0392 6.8443 1.2347 0 7286
-8.0267 2.833 0.99541 1 4274
-8.02 -7.6 0.77262 0 1519
-7.9922 10.754 1.883 0 9339
-7.9738 12.065 2.376 0 9775
-7.9562 -8.7652 1.6637 2 1329
-7.9143 -8.9298 1.1132 2 1299
-7.9102 -8.7698 2.2252 1 1323
-7.9008 1.7689 1.1379 2 3644
-7.8596 1.1452 0.5554 2 3321
-7.8332 -12.025 2.704 0 1059
-7.8031 12.434 1.7167 0 9975
-7.7975 2.5758 0.57424 0 4152
-7.7675 6.5733 1.6718 2 7261
-7.6188 5.3825 1.311 0 6426
-7.601 -8.1825 1.5696 1 1359
-7.5485 -8.1774 0.7782 0 1349
-7.5384 3.6637 0.58609 2 5086
-7.5339 -6.8963 1.4354 1 1565
-7.528 3.849 1.1883 0 5255
-7.5224 -8.0979 1.2925 0 1358
-7.5146 6.6273 1.4082 0 7459
-7.4619 12.769 1.3798 0 10245
-7.4536 1.4853 1.2487 1 3546
-7.442 3.0476 0.18671 0 4588
-7.4419 -7.0522 1.6844 1 1523
-7.3933 10.769 1.5276 0 9626
-7.367 -9.9887 2.0392 0 1130
-7.2712 9.6702 0.56422 1 9295
-7.2602 3.5835 1.1379 1 5138
-7.2411 6.5751 1.6069 2 7601
-7.2301 4.2165 1.3751 1 5708
-7.2267 7.6768 -0.24478 0 8377
-7.1707 -0.35824 1.3527 0 2501
-7.1294 12.118 2.3099 1 10223
-7.1001 9.2096 1.3599 0 9208
-7.058 12.245 1.9863 0 10304
-7.0446 5.9975 0.86315 1 7284
-7.0251 12.611 2.7199 1 10428
-6.9998 2.6324 1.409 2 4407
-6.775 12.763 2.0308 0 10585
-6.7746 0.86665 1.2868 0 3251
-6.7639 -4.334 0.93943 1 1978
-6.745 8.3951 -0.25003 0 9044
-6.7152 12.472 1.3215 0 10535
-6.6986 1.0741 -0.15751 0 3381
-6.6142 9.4076 1.0729 0 9529
-6.5839 -5.1997 1.1791 0 1763
-6.5669 -8.4416 1.2507 0 1156
-6.55 -0.84488 0.15333 0 2199
-6.4567 13.452 2.0971 0 10899
-6.4162 13.08 2.0475 0 10837
-6.3789 4.0513 1.2415 0 6009
-6.3367 6.3124 0.41711 0 8077
-6.3043 6.7322 1.0786 1 8415
-6.1443 -0.48465 1.0126 0 2395
-6.1366 4.8065 1.4686 0 6880
-6.0968 13.61 1.0429 1 11067
-6.0892 6.8536 1.2885 2 8635
-6.0805 0.013794 0.99899 0 2714
-6.0633 2.2802 0.60435 1 4401
-6.0207 -6.559 1.0412 0 1344
-5.977 -5.9665 0.78791 0 1457
-5.8983 7.168 1.3046 2 8959
-5.8225 -0.053861 -0.54323 0 2653
-5.8174 4.2126 0.50225 0 6518
-5.8118 6.2477 0.79608 0 8439
-5.7358 7.3099 0.86687 1 9141
-5.6653 -0.18497 0.79663 0 2570
-5.6339 11.231 2.3674 0 10775
-5.6197 2.9367 -0.74151 1 5309
-5.5961 -0.2972 0 0 2482
-5.5765 12.163 2.521 0 11018
-5.5137 8.0315 0 0 9619
-5.5055 -8.4519 1.4176 0 1057
-5.4566 4.7836 0.677 1 7425
-5.452 5.4311 0.89994 0 8082
-5.3865 1.7429 -0.66206 1 4109
-5.3826 -6.0732 1.3333 1 1302
-5.3645 7.5793 0.86631 0 9508
-5.3364 -7.4593 0.64134 0 1117
-5.3359 0.82414 0.6314 0 3359
-5.3216 5.5843 -0.17909 0 8325
-5.3209 -3.5405 0.89822 0 1954
-5.278 7.6881 -0.21651 0 9617
-5.2228 -7.5343 0.21284 0 1101
-5.2041 -7.3229 1.2626 0 1116
-5.1824 13.628 2.3955 0 11464
-5.1512 -6.4251 1.5516 0 1172
-5.047 5.0593 -0.33326 0 8099
-4.9897 7.8959 1.0923 0 9952
-4.983 13.963 -1.3832 0 11568
-4.9628 3.5701 0.57036 1 6496
-4.9418 3.6674 0 0 6613
-4.9253 3.1281 0.54435 1 6006
-4.9006 -6.1476 0.18253 0 1166
-4.8316 -3.5271 0.55809 0 1850
-4.8192 3.3857 -0.27466 1 6387
-4.8046 11.703 0.88465 1 11283
-4.7901 -6.2291 -0.18244 0 1145
-4.7521 11.978 1.5069 1 11364
-4.6417 -9.0085 0.94545 0 899
-4.4774 8.6119 -0.67873 0 10640
-4.452 -8.1217 1.5217 0 951
-4.3795 2.9263 0.36831 1 6188
-4.3566 -6.3626 0.53922 0 1095
-4.3427 9.3984 0.24037 0 10989
-4.306 -8.2471 0.86798 0 907
-4.244 8.3438 0.65459 0 10722
-4.2317 -3.8492 0.13281 0 1570
-4.2228 3.1338 0.12209 0 6615
-4.1888 -11.446 -0.56841 0 779
-4.1578 -8.0694 0.21075 0 898
-4.1277 13.376 0.325 1 11807
-4.0935 5.2168 1.0895 1 9145
-4.0837 -6.4323 1.0708 0 1031
-4.0524 -6.723 0.18225 0 1000
-4.0352 4.5964 0.142 0 8677
-4.0322 5.5949 -0.32161 0 9436
-3.9425 7.6977 0.40332 0 10694
-3.9399 3.4747 0.36734 0 7454
-3.9032 -5.2634 1.2346 0 1135
-3.8926 -5.8677 0.65693 0 1070
-3.8893 -5.4365 0.78169 0 1118
-3.8718 -3.322 0.83816 1 1661
-3.8428 -7.3599 1.3641 0 909
-3.8062 -5.5923 -0.31546 0 1087
-3.7042 -11.915 1.7536 0 739
-3.7036 -7.297 -0.38161 0 893
-3.7026 4.3169 0.66508 1 8784
-3.683 -7.0001 -0.18364 0 912
-3.6713 -5.0402 0.72919 0 1124
-3.621 -7.7936 -0.19952 0 852
-3.6118 3.558 -0.47301 0 8005
-3.601 8.7022 1.1013 0 11266
-3.5892 6.7617 -0.53531 0 10572
-3.535 -6.4487 0.6861 0 949
-3.4403 8.597 -0.8639 0 11335
-3.3868 5.2917 0.43933 0 9897
-3.3719 8.4991 -0.21229 0 11357
-3.3522 -4.9549 -0.13889 0 1081
-3.3189 -7.604 1.3631 0 839
-3.3017 11.269 1.9292 0 11868
-3.2705 -6.2162 0.16308 0 913
-3.1919 -6.7647 0.34882 0 862
-3.0634 9.0765 1.5739 0 11686
-3.0018 -9.0927 -0.22231 0 760
-2.9998 5.98 -0.15533 0 10764
-2.9108 5.0498 -0.54379 2 10287
-2.875 -8.3828 1.6697 0 770
-2.8542 9.0578 0.66408 0 11784
-2.8516 -7.869 1.1763 0 778
-2.8466 -14.713 0.69884 1 692
-2.7843 -9.8593 0.47776 1 725
-2.6187 6.1753 0.46904 2 11205
-2.6087 7.8788 -0.97056 0 11704
-2.5727 5.968 1.0677 0 11167
-2.5638 -7.2 0.71304 0 774
-2.5532 5.7427 0.58633 1 11089
-2.5197 13.374 1.2696 0 12225
-2.4609 -7.8382 1.5479 0 744
-2.453 -5.5723 0.14135 0 840
-2.398 5.2304 -0.40236 1 11006
-2.3852 -4.8367 0.3771 0 879
-2.3607 5.3525 0 0 11104
-2.2533 -9.3071 0 0 709
-2.2446 10.133 -0.96831 0 12118
-2.2362 -7.3417 0.71601 0 737
-2.1928 13.104 2.1828 0 12296
-2.1785 -8.46 0 0 717
-2.167 4.9506 0.25202 0 11124
-2.0862 -8.7298 -0.20839 0 707
-2.0361 5.8667 0 0 11627
-1.9881 -5.0627 0.89361 0 790
-1.9658 -5.4245 0.26907 0 777
-1.9285 -6.54 0.63612 0 731
-1.8858 9.7017 -0.4609 0 12206
-1.7626 5.3767 0.39566 0 11728
-1.7008 -8.5271 1.6382 0 694
-1.6881 -5.3768 0.65904 0 742
-1.6462 9.5006 0.89957 0 12272
-1.642 14.367 1.0112 1 12456
-1.5932 -8.4884 -0.40276 0 685
-1.5828 11.495 1.0826 0 12385
-1.5447 5.8342 -0.42203 0 11973
-1.5303 -8.03 0.76264 1 691
-1.4039 -6.8211 0.16169 0 698
-1.4024 -4.9136 0.71813 0 727
-1.3797 13.489 2.5547 0 12487
-1.3738 -9.0519 -0.21256 0 668
-1.3733 -5.7465 0.55122 0 708
-1.3715 5.9501 1.0032 0 12093
-1.3175 -7.0197 1.1734 0 689
-1.211 10.596 0.24761 0 12453
-1.192 -7.2952 1.3927 0 676
-1.1843 -7.8031 1.1092 0 670
-1.1763 -5.8076 0.27633 0 695
-1.1613 6.3711 -1.2202 0 12245
-1.1413 13.942 1.966 0 12538
-1.1394 5.5165 1.0613 0 12172
-1.1251 -9.2163 1.3049 0 646
-1.0762 5.3714 -0.76991 1 12185
-1.0704 -8.7685 1.4513 0 647
-1.0452 6.3547 -0.75312 2 12297
-1.037 -6.8327 0.80818 0 669
-1.0096 -8.6731 0.20272 0 642
-0.88161 7.9347 1.122 0 12464
-0.8797 11.153 1.0437 0 12544
-0.8211 -8.3145 0.38962 0 632
-0.81496 -7.1863 0.50573 0 640
-0.79288 13.586 -0.63465 0 12598
-0.54093 7.6969 -0.17914 0 12563
-0.48427 -8.3987 0.9838 0 596
-0.46384 -7.6275 1.4397 0 598
-0.45931 -10.648 0.99432 0 587
-0.39383 10.346 0.24037 0 12635
-0.34518 9.0678 1.4909 0 12640
-0.32763 -8.7678 0.81856 0 580
-0.3245 -12.645 2.3833 0 568
-0.32083 11.004 1.2874 0 12661
-0.26237 -8.3025 1.3647 0 574
-0.041173 6.7399 0 0 12703
-0.027367 -12.062 1.9818 0 548
-0.015406 5.192 0 0 12708
0.048306 5.6483 -0.79384 0 12722
0.063979 -10.182 1.1908 0 544
0.096839 6.7659 0.63129 0 12730
0.11511 8.0424 0.94059 0 12731
0.14474 -11.846 0.82843 0 538
0.15563 6.0647 0.70945 0 12750
0.16445 7.1911 0.84116 0 12744
0.17725 8.8298 1.451 0 12740
0.18384 -7.7435 1.4594 0 532
0.18475 6.4136 -0.14897 0 12753
0.19072 9.5008 0.88656 0 12739
0.20476 11.97 1.1169 0 12736
0.22386 8.7234 -1.2264 0 12745
0.25223 -9.5684 1.5726 0 529
0.34767 -7.3998 -0.17199 0 509
0.36579 -5.6874 0.66647 0 488
0.40244 5.7988 0.5423 0 12819
0.46577 -10.625 1.7473 0 515
0.48346 7.2406 1.0199 0 12812
0.52807 5.8706 -1.2529 1 12850
0.54592 -7.7487 0.18035 0 482
0.54913 6.1047 0.57184 1 12848
0.55775 9.6439 0.90124 0 12799
0.62349 5.6385 -1.4851 2 12886
0.62657 -5.9414 -0.13871 0 443
0.65458 -8.935 1.0477 0 480
0.67375 -6.3888 0.14915 0 445
0.68583 8.1503 -0.38143 0 12836
0.76668 -7.4829 1.0572 0 447
0.83176 -10.934 0 0 475
0.84818 -6.2898 0.7422 0 423
0.84857 -10.734 1.7691 0 472
0.85648 9.5216 0 0 12847
0.85863 -9.4899 0.88898 0 460
0.87564 -13.012 1.5251 0 486
0.87638 11.628 1.088 0 12827
0.91843 -5.2087 0.49344 0 397
0.94271 5.3683 -0.76601 0 12963
0.98681 6.4943 0.30633 0 12938
0.99311 14.31 0.33303 1 12817
1.0463 -6.7273 0.15807 0 410
1.1125 -9.0476 1.4977 0 432
1.131 8.6137 0.2017 0 12908
1.1543 5.3659 -0.3838 1 13012
1.192 8.6905 0.81838 0 12919
1.3444 8.0511 1.3411 0 12954
1.3599 5.604 0.94743 1 13042
1.3616 5.5519 0.13272 0 13044
1.3923 6.0451 -1.3186 0 13032
1.4036 5.0203 -0.73261 0 13073
1.4267 -9.1733 1.5252 0 411
1.4349 -8.7243 1.4526 0 404
1.4494 -10.313 1.711 0 418
1.4614 7.9079 -0.18671 0 12977
1.4815 -6.5 0.3109 0 340
1.5107 8.6024 0.81485 0 12967
1.5898 11.142 1.3162 0 12929
1.6243 6.2225 -0.2999 0 13056
1.7602 -10.496 0.4963 1 402
1.7614 5.4959 -0.8111 0 13126
1.7643 -8.0781 1.5579 0 350
1.77 9.9167 -0.7044 0 12968
1.7715 -6.9345 0.83698 0 310
1.7876 8.6855 -1.037 1 13004
1.8317 -6.4601 0.31313 0 306
1.85 7.1689 1.3949 0 13055
1.8615 -10.213 0.96849 0 392
1.8673 -6.1153 0 0 301
2.0066 -11.009 1.8384 0 393
2.0192 5.7692 -0.14191 0 13167
2.0481 4.6856 -1.3387 0 13308
2.0837 5.0453 -0.38171 0 13268
2.1417 6.8888 -0.16749 0 13113
2.2257 4.5776 0.71535 0 13368
2.2549 10.359 1.2398 0 13017
2.2649 6.1326 -0.7645 0 13200
2.2955 8.8954 1.5093 0 13054
2.3104 -7.1876 0.35208 0 298
2.3136 6.8 -0.67012 0 13148
2.4574 8.063 -1.1846 0 13100
2.4759 -9.8135 1.1836 0 312
2.4932 8.537 -0.20648 0 13088
2.5119 5.1274 -1.4947 0 13373
2.5291 -5.0438 0.92701 0 229
2.5373 4.8534 0.38296 0 13423
2.5509 8.9254 1.0855 0 13083
2.5555 -5.9797 1.0684 0 270
2.6016 11.61 1.1101 0 13027
2.648 7.232 0.90063 0 13199
2.7579 6.2618 1.1241 0 13313
2.8446 8.4379 -1.2514 0 13142
2.9433 10.415 0.25128 0 13078
2.9771 5.9868 0.15523 0 13384
2.9865 -7.2171 1.4716 0 276
3.0586 5.1085 -0.55549 0 13553
3.1024 -6.9226 0 1 261
3.1479 -4.8902 -0.40668 0 166
3.1898 -6.748 1.2263 0 250
3.2219 -6.7125 0.69465 0 246
3.2243 12.668 2.4629 0 13053
3.2934 -4.1271 -0.74207 0 81
3.3023 -6.7826 0.3518 2 240
3.3057 9.5408 -0.23443 0 13161
3.3311 6.851 0.17687 0 13366
3.3453 8.1003 1.2317 0 13273
3.3631 4.8498 -0.69017 0 13799
3.3688 -7.6381 0 0 266
3.3831 6.8034 1.2483 1 13388
3.3959 -5.0461 0.14121 0 149
3.3975 3.7654 0.35464 1 14489
3.4184 -7.122 0.18341 0 245
3.4838 -10.322 0 0 292
3.4941 11.001 0.26799 0 13123
3.4976 -6.4124 0.68146 0 202
3.5266 -7.0856 -0.55345 0 231
3.5307 3.7995 0.97723 0 14579
3.5793 -5.664 1.1008 0 171
3.6102 3.7964 -1.2413 2 14636
3.6103 4.9257 0.42705 0 13938
3.6589 -4.2946 -0.2631 1 56
3.6686 -3.5626 0.47709 0 21418
3.6816 5.9493 0.81817 0 13597
3.7422 3.96 -0.76573 1 14611
3.7542 8.6629 1.5512 0 13305
3.7605 -6.0721 0.33307 0 178
3.7645 -8.6003 1.5424 0 267
3.766 -4.6357 -1.4152 1 77
3.7717 -4.7809 0.56813 0 92
3.7787 -7.1218 1.519 0 210
3.8049 3.3204 0 0 15232
3.805 -3.8936 0.25388 0 21432
3.8077 -5.9153 0.98869 0 167
3.824 -5.2459 -0.75916 0 133
3.8657 -3.7331 0.88291 0 21417
3.8797 -6.2234 1.2049 0 176
3.8892 5.7487 -0.81166 1 13751
3.9117 -4.4323 -0.41338 0 40
3.9277 -4.9501 -1.4973 0 88
3.9352 -5.2355 0.61104 0 119
3.9735 -6.0171 0.67272 0 158
3.9751 -7.0402 0.94547 0 195
3.9793 -4.0493 -0.66392 0 21428
3.985 -5.6323 1.1335 0 141
3.9897 8.4518 1.3135 0 13347
4.0037 3.4939 0.62141 0 15241
4.1118 5.4092 -0.31686 0 14029
4.1469 -4.5943 1.0168 1 28
4.2276 -7.2871 0.98519 0 191
4.2328 -8.0351 -0.63506 0 212
4.2339 -4.9137 -0.45356 0 49
4.2718 -9.5319 1.468 0 263
4.2763 3.7767 -0.53227 1 15191
4.2779 6.4828 0.54312 0 13714
4.2935 6.8048 1.3219 0 13629
4.2983 -3.4819 -0.77742 0 21374
4.308 -8.1193 1.0749 0 209
4.3143 6.1821 -0.88158 0 13815
4.3202 -4.7032 0.59581 0 17
4.3724 -5.2256 0.79679 0 65
4.4224 4.4409 0.73291 1 14777
4.4457 -3.9098 0.13745 0 21395
4.4465 -6.7333 -0.94361 0 155
4.4668 3.3005 -0.51815 1 15787
4.4834 6.4244 1.476 0 13829
4.5024 4.0925 -0.99964 1 15084
4.5235 2.7873 -1.1294 0 16410
4.541 2.2473 0.11763 0 17118
4.5671 8.3766 0.66715 0 13464
4.6486 -6.4123 0.92619 0 135
4.6524 -4.816 0.94109 0 21437
4.676 9.0056 0.70956 0 13416
4.6807 -11.048 0.55956 1 272
4.6838 3.1355 -0.92603 2 16112
4.7005 9.7365 1.5195 0 13360
4.7012 6.7793 0.57689 0 13804
4.7225 -3.9179 0.71758 0 21385
4.7316 2.5498 0.37585 0 16852
4.7736 -3.2624 -0.40431 0 21211
4.8157 5.6265 -0.17195 0 14340
4.8187 3.5604 -0.41896 0 15788
4.8487 2.2435 0.12404 0 17290
4.8947 6.678 0.19223 0 13936
4.8949 3.8894 0 0 15551
4.8978 -6.6748 0.38608 0 131
4.8998 -9.8446 1.8067 0 233
4.9088 -1.9555 0.61792 0 20647
4.9104 3.7638 0.43263 0 15675
4.9653 7.6255 -0.21126 0 13688
4.9905 1.6543 0.86378 0 17940
5.0148 -1.7483 0.87253 0 20552
5.0345 10.054 0.52434 1 13392
5.0669 5.0563 0.33382 0 14791
5.0798 0.4489 0.83784 0 19323
5.0895 8.3281 1.3717 0 13579
5.108 -2.6829 0.26907 0 20954
5.1197 -1.9878 -0.77185 2 20621
5.1232 -6.7766 0.59405 0 113
5.1564 0.98923 0.7379 0 18793
5.1716 -9.9473 -1.046 0 218
5.1978 7.4482 0.84736 0 13824
5.2041 5.798 -0.5448 0 14471
5.2594 -2.3471 0.80943 0 20784
5.2702 -3.762 1.0638 0 21272
5.2712 1.2199 0.50477 0 18551
5.2793 5.9546 -0.18476 0 14433
5.2903 -7.346 1.7056 0 137
5.2971 0.097086 0 0 19656
5.2973 2.9751 0.56683 0 16717
5.321 -2.3192 0.13476 0 20750
5.3437 -2.9669 -1.0042 2 21005
5.3543 8.1667 1.142 0 13704
5.3575 6.4486 -0.19465 0 14260
5.38 0.87041 0 0 18946
5.46 3.4972 0 0 16276
5.4701 1.9931 0.95651 1 17779
5.4702 10.848 1.1335 0 13400
5.4828 -2.0751 0.8239 0 20602
5.4863 -7.1654 1.0553 0 107
5.4923 8.5947 0.95159 0 13651
5.5129 2.5696 0.14121 0 17273
5.5186 2.1361 0.27596 0 17662
5.5379 -6.8976 0.82525 0 80
5.5749 5.3405 -1.4546 0 14934
5.5951 1.8732 0.55048 0 17919
5.6129 -2.3514 -0.56776 0 20698
5.6556 3.6225 0.78541 0 16286
5.6804 0.022803 -0.13188 0 19722
5.6964 -10.298 1.6539 0 198
5.7073 0.37107 0.93965 0 19442
5.7156 -2.3944 0.43333 0 20702
5.7208 4.0505 0.65396 0 15935
5.743 0.0060127 0.94354 0 19739
5.763 -1.8792 0.56553 2 20519
5.7689 6.1347 -1.3835 0 14595
5.7856 -1.6831 -0.28099 1 20477
5.8125 7.5997 1.5719 0 14052
5.8484 6.0816 -0.78717 0 14658
5.8794 -3.5355 0.31994 0 21088
5.8794 0.10776 0.13653 0 19657
5.9101 2.819 0 0 17217
5.9139 -6.1929 0.59879 0 21443
5.9669 4.2782 0.68499 0 15893
6.0196 4.5295 1.4194 0 15744
6.0385 -5.6944 1.5638 0 21414
6.0412 -2.3251 1.0635 0 20618
6.0736 1.5741 -0.14567 0 18366
6.1039 0.82528 1.012 0 19086
6.1055 -5.8264 0.59014 0 21415
6.1203 7.2758 -0.44338 0 14292
6.1616 -3.6353 -1.1754 0 21062
6.1768 -0.066842 1.0149 0 19790
6.1953 -7.4942 0.45344 0 70
6.2195 1.8825 -0.45439 2 18103
6.2335 -8.2932 -0.48382 0 118
6.2655 -4.3888 0.35674 0 21244
6.2712 -4.4189 0.89715 0 21255
6.2719 2.5544 -0.15723 0 17550
6.2728 -6.3477 0.62404 0 21427
6.2739 8.2029 0.96348 0 14047
6.3197 7.9707 1.4296 0 14127
6.4114 1.4038 0.76752 0 18635
6.4255 1.0211 -0.45495 0 18959
6.4296 -8.8691 1.022 1 134
6.4372 3.3268 -0.16823 0 16980
6.4383 -1.5742 -1.4088 0 20432
6.4591 -1.5997 -0.15449 0 20434
6.4627 -12.268 2.2781 0 215
6.4668 -3.9133 1.2418 0 21095
6.4689 -3.4701 -1.3831 0 20978
6.4759 -5.2459 1.1713 0 21376
6.4892 1.9037 0.63092 0 18165
6.4953 -6.5317 0.21386 0 21424
6.5034 5.2889 1.5793 2 15487
6.5572 -5.8711 1.237 0 21401
6.5934 -0.35709 0.92801 0 19956
6.6745 0.35564 0 0 19492
6.7205 8.0891 -0.49043 0 14259
6.7448 -5.8652 0.41683 0 21393
6.7633 0.0070809 -1.1112 2 19728
6.7765 -2.6994 -0.68053 0 20644
6.7959 -1.2902 1.1365 0 20310
6.8286 -1.3794 0.81468 0 20338
6.838 -0.81175 0 0 20140
6.8886 -2.4909 1.3801 0 20573
6.9527 -2.8162 0.69985 0 20664
6.9577 -0.075293 -0.16155 0 19786
6.9652 -5.9826 1.2904 0 21392
6.9819 3.6578 0 1 16937
7.0643 2.4118 1.0491 0 17889
7.0677 -1.1739 -0.50099 0 20253
7.0902 4.9278 0.80556 0 15997
7.0998 3.0621 1.0867 0 17438
7.1139 -5.3939 0.20727 0 21339
7.1176 -0.59268 1.1734 0 20045
7.173 6.9925 0.23257 0 14871
7.1992 0.65645 1.1877 0 19307
7.2079 8.0814 1.7791 0 14465
7.225 -2.242 1.4253 0 20498
7.2316 3.0458 0.5487 0 17486
7.2416 -7.1139 0.23568 0 21420
7.2567 2.6901 0.90505 0 17744
7.2619 7.7711 0.74374 0 14584
7.2629 -7.7207 1.7415 0 5
7.2896 -7.5882 1.2305 0 21440
7.307 -0.69586 -0.51327 1 20074
7.3166 3.2087 -0.37257 0 17398
7.3717 -6.0767 0.2218 0 21382
7.4378 1.6748 0.89157 1 18591
7.4936 0.90418 0 0 19156
7.5077 4.1018 0.59823 0 16807
7.5086 -3.9991 0.59488 0 20969
7.5403 1.9543 1.0947 0 18375
7.5418 -0.73948 0 0 20083
7.6103 -8.9325 0.27245 0 57
7.614 -5.6691 0.88563 0 21325
7.6172 1.2556 0 0 18931
7.6388 2.9323 0.95685 0 17682
7.6577 1.7243 -0.36605 0 18580
7.7019 -0.91431 1.2743 1 20143
7.7086 -6.3545 1.6413 0 21383
7.7128 -2.7131 0.57172 0 20556
7.7172 4.1588 1.4403 0 16859
7.7386 -1.3297 0 0 20265
7.7616 -4.1339 -0.82042 0 20964
7.7621 -0.05961 0.72419 0 19772
7.7621 6.9767 0.97369 2 15140
7.8114 -3.4583 0.39838 0 20772
7.8456 1.4102 -0.74369 0 18848
7.8542 -4.6635 -0.85219 0 21069
7.8571 8.8621 2.2315 0 14447
7.886 9.1554 1.1273 0 14358
7.8878 2.6668 1.368 0 17907
7.8907 8.4914 0.81057 0 14569
7.9138 -3.6433 0.8128 0 20823
7.9258 8.0992 1.8618 2 14721
7.9603 -3.7747 1.4474 0 20860
7.9678 -4.7611 0.43285 0 21079
7.9799 7.5594 1.5448 0 14966
7.9948 8.6518 1.9354 2 14561
8.0232 9.2069 0.85396 1 14388
8.029 -1.9142 0 0 20419
8.0455 2.1332 1.5682 0 18337
8.1562 -2.7385 0.19975 0 20533
8.1681 7.128 1.0114 0 15239
8.1725 6.6061 0.49006 1 15497
8.2227 0.29433 0 0 19574
8.2488 2.0842 0 0 18409
8.2595 -4.6768 0.44264 0 21029
8.2762 6.9323 1.5173 0 15384
8.3364 -5.013 1.5982 0 21090
8.376 -6.4667 1.2375 0 21354
8.3811 0.88828 0 0 19227
8.3989 3.0304 1.6823 0 17796
8.4305 9.3926 0.88256 1 14474
8.487 -5.1036 0.22993 0 21086
8.5332 9.9699 1.2243 0 14343
8.5509 -5.2113 1.171 0 21102
8.5688 9.2729 2.3788 0 14563
8.6278 -4.4971 0.45372 0 20946
8.6527 6.2773 2.0141 1 15859
8.7185 1.9376 0.83324 0 18612
8.7423 -1.061 -0.41068 0 20150
8.8086 0.23836 1.4477 0 19620
8.8108 -0.6053 1.451 0 20002
8.8644 -7.2632 0.80136 0 21380
8.9353 0.89501 0 0 19259
8.9408 1.3139 1.4847 0 19030
8.9973 11.836 0.69335 1 14031
9.013 9.5377 1.5346 0 14621
9.0196 8.6404 0.58248 1 14923
9.0492 0.53287 1.274 0 19468
9.0515 -1.9917 0 0 20391
9.0682 0.06173 1.7086 0 19713
9.0935 8.2253 2.0145 0 15123
9.0987 11.546 1.0279 1 14113
9.1406 9.0201 2.1098 0 14842
9.1811 8.6458 0.88186 1 14979
9.2025 7.3937 1.1013 1 15518
9.2073 11.755 2.4532 0 14106
9.2731 -10.148 1.932 0 20
9.2864 -4.3047 0.95493 0 20833
9.2913 -8.0796 2.0229 0 21394
9.2992 3.5065 1.3967 0 17714
9.3176 -2.7105 1.1348 0 20479
9.319 5.45 0.7549 0 16585
9.3303 -5.1421 1.2458 0 21004
9.3603 -0.45452 0.8743 0 19935
9.3654 0.47279 0.87486 1 19509
9.3728 10.951 2.0258 0 14347
9.4166 0.092041 0.6585 0 19695
9.4581 10.416 0.98385 1 14505
9.4906 3.7691 0.9527 0 17608
9.5023 11.032 0.33804 1 14356
9.5478 11.022 1.7053 0 14374
9.5706 -8.5151 2.1046 0 21397
9.5835 11.393 1.041 1 14296
9.5866 -2.7888 0 0 20478
9.6105 8.6929 1.8212 0 15121
9.669 8.5394 0.60158 1 15196
9.6735 -5.7803 1.8514 0 21081
9.6879 -7.4365 1.1394 0 21351
9.7013 10.498 0.66661 1 14552
9.7453 6.8136 1.3906 2 15978
9.7638 6.6604 0.55118 1 16057
9.7982 9.9533 0.65133 1 14730
9.8073 -7.2174 0.56785 1 21308
9.8153 -6.1404 1.0801 0 21130
9.8294 6.7505 2.2466 2 16045
9.8581 8.0172 0.29501 1 15474
9.9077 10.722 1.362 1 14555
9.9738 7.874 1.486 2 15577
10.034 -0.049037 0.93616 0 19760
10.042 7.8769 0.89246 2 15593
10.088 5.7423 0.81169 0 16671
10.097 0.68657 1.6627 0 19427
10.148 5.5052 2.1752 0 16837
10.167 5.4792 1.0775 1 16854
10.17 -2.0543 1.9548 0 20341
10.191 2.5127 0.4895 1 18455
10.207 1.5929 1.9463 0 18981
10.295 9.8619 1.33 1 14927
10.314 9.0007 0.63838 1 15235
10.357 -4.5506 1.8585 0 20764
10.357 3.6006 -0.25458 0 17851
10.359 8.6765 2.5458 0 15387
10.385 9.6098 2.6658 0 15043
10.47 7.1418 1.7811 1 16063
10.473 1.3862 1.7357 0 19101
10.491 7.2049 0.88995 1 16038
10.56 -9.5652 1.3293 0 21407
10.623 8.9485 2.6169 1 15367
10.624 -1.8256 1.515 0 20268
10.624 1.9097 1.2623 0 18858
10.654 3.4637 0.78337 0 17970
10.681 6.2013 1.1522 2 16607
10.685 4.2089 0 0 17625
10.762 5.5976 0.56571 1 16962
10.793 -3.5193 2.1389 0 20522
10.8 -2.2111 1.8112 0 20349
10.844 5.6814 2.3066 0 16949
11.047 6.63 1.202 0 16499
11.065 7.8811 1.2674 1 15914
11.103 9.1951 2.0261 0 15423
11.138 9.7818 1.0366 1 15217
11.249 8.1608 1.6252 0 15856
11.285 5.1003 1.7405 0 17342
11.34 8.5858 2.6799 1 15724
11.355 8.4944 1.323 1 15759
11.427 8.0911 0.9791 1 15933
11.581 9.2022 0.34343 1 15553
11.663 -0.056998 0.81559 0 19759
11.67 7.6192 1.9587 0 16220
11.711 7.6957 2.6403 0 16198
11.75 0.31794 0 0 19615
11.784 8.7645 1.3702 0 15778
11.826 9.2263 1.0489 1 15612
11.938 6.609 2.2418 0 16769
11.946 1.123 1.9714 0 19292
11.955 6.6186 1.598 0 16766
12.009 7.3534 1.979 0 16431
12.116 -5.364 2.177 0 20775
12.143 5.8334 0.94199 1 17201
12.151 5.2404 -0.30722 0 17433
12.228 7.1942 0.99208 1 16562
12.239 7.5943 1.3438 0 16384
12.425 3.5674 2.4355 0 18205
12.49 -1.9983 2.0781 0 20243
12.497 -5.1891 1.2624 0 20691
12.522 5.8816 0.96738 1 17256
12.635 6.8543 1.6809 0 16833
12.641 -3.7205 2.165 0 20483
12.663 6.4465 0.99361 1 17032
13.18 -4.6803 2.2979 0 20562
13.393 -1.3132 2.211 0 20085
13.703 -2.6412 1.6319 0 20315
-12.484 4.362 -1.5464 1 4249
-2.8646 12.932 -1.549 0 12116
0.67797 8.6725 -1.639 0 12830
1.7247 5.4302 -1.9252 0 13124
2.7336 8.9692 -1.993 0 13104
4.9572 10.195 -1.5933 0 13361
7.0568 2.4092 -1.9521 0 17887
7.0837 -4.5442 -1.5856 0 21156
7.507 7.4913 -1.9982 0 14801
10.02 5.2497 -1.8585 0 16929
10.376 0.91694 -1.9626 0 19324
10.645 -4.6 -1.9052 2 20734
