VERSION .7
FIELDS x y z intensity index
SIZE 8 8 8 8 8
TYPE F F F F F
COUNT 1 1 1 1 1
WIDTH 1215
HEIGHT 1
VIEWPOINT 0 0 0 1 0 0 0
POINTS 1215
DATA ascii
-9.9932 0.16571 0.93245 0 4567
-9.9482 0.39434 0 0 4646
-9.9304 -0.093596 0.9265 0 4478
-9.7873 -0.26142 1.6086 0 4428
-9.6137 1.3631 -0.90588 0 4935
-9.5931 -1.2664 1.5898 0 4321
-9.4952 -1.2248 1.3455 0 4324
-9.2698 -1.6612 1.3235 0 4310
-9.262 1.9231 1.7823 0 5067
-9.2199 -0.19474 -0.43006 0 4439
-8.7675 -0.54239 1.4432 0 4365
-8.6946 -1.3025 1.2356 0 4318
-8.5898 -0.18143 0.19947 0 4440
-8.5886 2.3093 -0.20648 0 5144
-8.5484 0.33885 0.59823 0 4648
-8.5484 4.868 0.91777 0 5786
-8.3333 4.9735 1.3639 0 5905
-8.3237 4.7401 1.1202 0 5788
-8.3149 -1.0725 -0.19465 0 4322
-8.0661 5.4018 1.5949 0 6202
-8.0471 4.7363 -0.87114 0 5860
-8.0187 2.0559 0.7723 0 5125
-7.9945 -1.5048 1.3365 1 4308
-7.9533 3.7663 1.4458 0 5463
-7.9414 1.7926 0.37965 0 5084
-7.9309 2.0836 1.3472 0 5135
-7.7978 1.3371 0.73812 0 5026
-7.7966 1.0611 1.2927 0 4922
-7.7363 2.6699 0 0 5220
-7.7335 4.7057 1.4873 0 5956
-7.7187 5.9528 1.1399 0 6656
-7.6659 3.5779 0.19641 0 5442
-7.6597 3.2545 1.3673 0 5365
-7.5645 4.7839 0.41739 0 6048
-7.5484 1.3188 1.0769 0 5033
-7.4895 2.2 -0.18123 0 5183
-7.4746 6.3345 1.377 0 6943
-7.4567 2.745 -0.18448 0 5265
-7.4514 1.682 0.71267 1 5085
-7.3481 5.1394 -0.83658 0 6318
-7.2891 6.0688 0.88489 0 6883
-7.2818 0.18305 -0.33969 0 4593
-7.2814 1.6436 1.0491 0 5086
-7.2701 -1.3474 0.51703 0 4309
-7.1869 3.6635 1.1337 0 5560
-7.098 1.6884 -0.34025 0 5099
-7.0579 3.0221 -0.35804 0 5369
-7.0471 -0.35206 1.3294 0 4380
-7.0229 3.1533 1.0819 0 5410
-6.9675 2.225 -0.51145 0 5202
-6.944 6.2021 1.3085 0 7086
-6.9062 6.2775 1.5333 0 7140
-6.8967 -0.70906 1.1391 1 4334
-6.8848 3.687 0.18132 0 5644
-6.8356 7.269 1.6394 0 7535
-6.8246 4.8931 -1.1802 1 6388
-6.7899 6.2809 -0.21475 0 7183
-6.7577 5.4023 0.20087 0 6755
-6.7536 -4.6208 -0.38161 0 4254
-6.751 -4.7676 1.1615 0 4240
-6.7464 7.2144 -0.46062 0 7541
-6.7296 -4.4643 1.3268 2 4273
-6.7127 -5.0989 1.5882 0 4184
-6.6617 4.9222 1.3608 0 6527
-6.6489 -4.3825 1.3083 2 4277
-6.6236 -4.2035 1.2889 2 4288
-6.6204 -4.447 0.37192 0 4263
-6.5801 -4.2276 1.0992 1 4286
-6.5568 -4.2418 1.0975 1 4284
-6.4912 3.2124 -1.3646 0 5520
-6.4449 -5.8418 1.2225 2 4034
-6.4389 3.3291 0.84767 0 5583
-6.4208 3.273 -0.84279 0 5552
-6.4184 2.7046 0.48704 0 5359
-6.3775 2.6651 -0.64486 1 5350
-6.3463 -0.93035 0.59841 0 4319
-6.335 7.5739 0 0 7801
-6.2885 4.4823 0.72047 0 6382
-6.2431 6.1222 0.81578 0 7335
-6.238 3.5293 0.83814 0 5772
-6.2172 -5.0131 0.55847 1 4130
-6.2107 -5.2466 1.1426 2 4093
-6.2067 -5.0621 0.74722 2 4118
-6.1635 -5.6537 1.1755 1 4021
-6.1425 6.1985 1.6442 0 7415
-6.1293 -5.7518 1.1813 2 3996
-6.1004 -4.8595 1.0961 0 4141
-6.088 -4.736 0.53936 1 4164
-6.0845 6.14 1.4202 0 7414
-6.0807 -4.5905 0.71081 2 4187
-6.056 -5.883 1.1866 0 3977
-6.0296 3.4784 -0.48676 0 5812
-6.0274 -1.0628 0.1421 0 4311
-6.0255 -7.1758 1.0958 0 3866
-6.0163 -6.05 1.1991 0 3957
-5.9823 -3.9431 0.66845 2 4276
-5.9789 -3.9663 0.66938 1 4271
-5.9535 2.2094 1.1965 0 5278
-5.894 7.6536 0.90124 0 7975
-5.8794 7.112 -0.21424 0 7834
-5.8777 3.4594 -0.15834 0 5865
-5.8656 -5.4412 1.3145 1 4008
-5.8446 3.6041 0.32021 0 5983
-5.8442 -5.4555 1.3135 2 4002
-5.8128 7.9189 0.91647 1 8054
-5.8122 -4.0021 0.49346 2 4251
-5.8076 -3.9736 0.98896 2 4255
-5.7883 5.2008 -1.0936 0 7090
-5.784 5.8042 -1.3462 0 7387
-5.7761 5.3151 0.36605 0 7169
-5.7535 1.5298 0.69621 0 5139
-5.7473 3.2068 0.61402 0 5733
-5.7302 -0.10502 0.53469 0 4451
-5.71 3.3393 -0.30848 0 5845
-5.7028 2.5414 0.73012 1 5405
-5.6912 4.7384 0.86602 0 6885
-5.6524 3.3056 0.45788 0 5852
-5.5767 7.7866 -0.44664 0 8089
-5.5597 6.3755 1.5938 0 7724
-5.5348 6.3112 1.5816 0 7709
-5.5079 -4.0578 0.47839 1 4202
-5.4982 -4.0744 0.47853 2 4196
-5.4613 4.3115 -0.16155 0 6718
-5.3678 2.7162 0.56125 0 5549
-5.3355 2.8573 -1.4341 0 5649
-5.3254 6.7917 -0.40248 0 7938
-5.3246 -5.7783 0.36643 0 3905
-5.3071 -5.7917 0.36633 1 3900
-5.2915 -0.46574 0 0 4344
-5.2845 -0.21964 0.86897 1 4395
-5.2828 -5.015 0.33969 0 3989
-5.2684 -5.4233 1.4246 1 3941
-5.2505 3.1949 -0.71874 0 5942
-5.2259 -6.5277 1.3738 0 3851
-5.216 2.5069 0.81333 1 5482
-5.2157 -5.724 1.0883 2 3897
-5.2116 -5.6875 1.0842 0 3902
-5.2052 0.7084 -0.36734 0 4919
-5.1736 0.1165 0.97501 0 4588
-5.1658 1.1207 0 0 5075
-5.1647 0.933 0.24475 0 5039
-5.1601 2.2095 1.0576 0 5372
-5.1371 -4.8767 0.66083 1 3990
-5.1219 4.6835 -0.32366 0 7147
-5.0801 4.809 -0.98312 0 7240
-5.0786 4.2539 0.77473 0 6904
-5.0354 5.5106 -1.4064 0 7612
-5.0225 -5.9497 0.72641 0 3870
-5.0029 -7.9908 1.1025 0 3674
-4.978 2.629 0.52521 0 5618
-4.9712 -6.5115 1.3459 0 3836
-4.9606 5.5931 -0.17357 0 7677
-4.9559 6.5553 1.3501 0 8005
-4.9463 -0.5225 -0.34781 0 4332
-4.9386 4.1118 0.1492 0 6879
-4.9284 1.0386 0.11694 0 5070
-4.9035 -6.5025 -0.56949 0 3831
-4.9004 -0.65995 -0.23059 0 4320
-4.8789 4.8382 -1.2946 0 7370
-4.878 6.2978 0 0 7961
-4.8763 -0.62899 0.11415 0 4323
-4.8644 -5.6574 0.87252 0 3874
-4.8626 4.1707 -0.59767 0 6964
-4.8514 5.0999 -0.98924 0 7503
-4.8485 0.20661 0.45276 1 4657
-4.837 3.4477 0 0 6377
-4.8198 3.2278 0.54119 0 6198
-4.8195 -4.4209 0.45732 1 4019
-4.8188 3.0877 -0.53394 0 6076
-4.8138 -4.4389 0.45788 0 4012
-4.8036 5.35 -0.16693 1 7647
-4.8009 3.3992 0.54881 0 6364
-4.7923 3.092 -0.53209 0 6093
-4.757 3.7326 0.84979 0 6709
-4.7539 3.6875 -0.13968 0 6666
-4.7386 5.4033 -0.67049 1 7697
-4.7206 6.6303 -0.37956 0 8097
-4.7194 -3.9868 0.72246 2 4092
-4.6801 5.0647 0 0 7573
-4.6574 1.3681 -0.33944 0 5182
-4.6498 2.7193 0.12506 0 5849
-4.6446 -4.21 0.43835 0 4032
-4.5835 2.8452 0.37724 0 6002
-4.5753 -5.6118 0.67551 0 3855
-4.5664 2.5835 -0.12181 0 5761
-4.5557 3.3661 0.79607 0 6525
-4.5459 8.2725 1.3266 0 8432
-4.5395 5.1183 0.80005 0 7683
-4.5021 3.7271 -0.54528 0 6854
-4.4932 0.83844 0.75094 0 5044
-4.4625 -4.9561 0.62219 2 3890
-4.4529 0.81726 0.74381 0 5042
-4.4441 0.75087 0.21018 0 5020
-4.4344 2.4905 -0.47449 0 5740
-4.4266 1.717 -1.0092 0 5307
-4.4227 -6.3445 -0.17956 0 3778
-4.4143 5.0942 -0.31434 0 7730
-4.4117 1.3244 0.75678 2 5190
-4.3896 4.3047 -0.71897 0 7325
-4.3859 3.7831 -1.0913 2 6991
-4.3814 2.991 0.49493 0 6248
-4.3678 -6.0784 0.87531 0 3804
-4.3498 3.6216 -0.92992 0 6868
-4.3467 7.5898 1.0228 0 8360
-4.3371 3.5905 -0.92506 0 6850
-4.3308 2.758 -0.23944 2 6060
-4.3284 2.9893 0.73929 0 6291
-4.3115 5.0037 0.7724 0 7747
-4.3009 -7.8427 1.6853 0 3595
-4.2833 -0.078504 0 0 4448
-4.263 4.9773 -0.76636 1 7751
-4.2335 -0.065028 0 1 4458
-4.1944 1.6269 -0.84763 0 5309
-4.1936 -3.1854 0.74012 0 4183
-4.1764 0.81711 -0.29758 2 5055
-4.1716 -3.6097 -0.38575 1 4072
-4.1664 -3.9787 0.53747 0 3987
-4.1632 0.8017 -0.29647 0 5051
-4.1485 7.4964 -0.19892 0 8410
-4.1368 -7.6 1.2161 0 3589
-4.1348 -3.4524 0.50255 0 4101
-4.074 0.79706 0.58341 0 5056
-4.04 0.62181 0.19062 1 4985
-4.039 4.9137 0.74383 0 7854
-4.0313 5.1729 0.15226 0 7949
-4.013 4.5471 0.99639 0 7693
-4.0023 6.5031 0.89297 0 8266
-3.9832 6.5101 0.8925 0 8275
-3.9665 1.7395 -0.40408 0 5389
-3.9585 1.1015 0.095396 0 5159
-3.9415 -5.0124 1.0476 0 3846
-3.9336 2.4418 0.43195 0 6004
-3.8966 5.5401 1.1128 0 8114
-3.8947 1.6951 -0.39628 1 5382
-3.8826 2.9385 -1.1537 1 6603
-3.8591 4.7503 -0.1421 0 7880
-3.8579 -4.9933 0.88681 0 3838
-3.8511 4.2665 -0.80776 0 7629
-3.8474 -2.5215 0.42916 0 4280
-3.8459 2.3716 0.42154 0 5986
-3.8452 1.1675 -0.37491 2 5192
-3.8429 0.53461 0.54528 0 4930
-3.823 1.1959 0.1868 0 5199
-3.7954 5.5659 0.62851 0 8150
-3.7935 6.5811 1.248 0 8351
-3.7908 -0.41047 0.71839 0 4330
-3.7487 4.7518 -0.85063 1 7923
-3.7472 0.43224 0 0 4866
-3.7419 6.3247 1.3846 0 8316
-3.6767 -0.098204 0.17152 1 4426
-3.6749 3.8402 -1.1298 0 7501
-3.6729 0.028847 0.085276 0 4532
-3.6606 2.8231 -0.10733 0 6649
-3.6574 4.7784 0.28062 0 7984
-3.6355 4.7775 0.27997 0 7992
-3.6313 6.2567 -0.33736 0 8338
-3.628 0.79767 0.4344 1 5077
-3.6263 2.3684 0.40408 1 6134
-3.6193 3.9609 -1.2713 0 7610
-3.6001 1.0242 -0.086901 0 5170
-3.5952 -3.111 0.89577 0 4076
-3.5545 -4.6559 -0.27317 0 3834
-3.5465 0.28535 0 2 4771
-3.5401 8.692 0.8756 0 8858
-3.5391 7.5966 1.579 0 8687
-3.5346 3.8681 0.98723 0 7613
-3.5315 -3.314 0.56635 1 3995
-3.5105 8.6932 0.87467 0 8872
-3.5052 1.2323 -0.52218 1 5225
-3.4862 5.59 0 0 8251
-3.4677 1.2076 -0.51605 0 5222
-3.4632 8.365 0.2102 0 8834
-3.4522 4.9726 0.2823 0 8123
-3.397 7.8764 -1.2055 0 8779
-3.3925 1.536 0 0 5412
-3.3904 -0.42651 0.31881 0 4325
-3.3862 -6.3927 0.33736 0 3563
-3.366 0.74992 0.40328 1 5080
-3.3622 4.7804 -0.13569 0 8111
-3.3524 1.3003 0.59077 0 5308
-3.3519 -6.4197 -0.16814 0 3545
-3.3402 4.4698 -1.4608 0 8025
-3.3328 3.6282 -0.22975 0 7585
-3.326 -6.9512 0.17891 0 3462
-3.32 2.1142 0 0 6064
-3.3093 -2.3492 0.47459 1 4234
-3.2922 -2.3526 0.4732 0 4229
-3.286 -3.1755 0.86096 0 3982
-3.2701 -3.6742 0.22938 2 3884
-3.2671 0.98081 -0.31825 0 5189
-3.2452 4.7913 0.53989 1 8159
-3.2159 6.2764 0.32888 0 8545
-3.2131 1.7694 -0.34221 1 5695
-3.198 4.6065 0.65579 0 8124
-3.1927 3.3738 0.21661 0 7521
-3.1818 -8.1024 0.6087 0 3248
-3.1743 2.4182 0.65562 0 6624
-3.1634 -0.38002 0.29725 0 4326
-3.1524 2.372 0.46135 0 6584
-3.1503 4.3201 0.49883 2 8067
-3.1499 1.1378 -0.47068 0 5243
-3.1361 7.5749 0.76487 0 8837
-3.1253 5.0113 -0.83003 0 8245
-3.1209 2.8718 -0.49596 1 7160
-3.1093 2.8432 -0.49271 0 7142
-3.1046 -7.0524 0.9011 1 3374
-3.0946 3.7849 -1.4019 0 7868
-3.0846 3.6232 0.33274 0 7766
-3.0765 3.8553 0.5768 0 7909
-3.0698 1.149 -0.3058 2 5281
-3.0638 7.778 0.77992 0 8896
-3.0588 6.4651 1.3475 0 8669
-3.0276 3.8612 0.45777 0 7939
-3.0249 3.5732 0.88206 0 7780
-3.0148 -3.6121 0.77299 0 3862
-3.0097 -3.3227 0.84466 0 3894
-3.0044 5.1765 -0.69992 0 8334
-2.9905 4.7032 -1.1847 0 8224
-2.9337 6.6991 1.3779 0 8767
-2.9082 3.9173 -0.57053 0 8030
-2.8957 5.6513 0 0 8544
-2.8932 -2.4745 0.71728 0 4085
-2.8902 -3.2099 0.20143 0 3889
-2.8844 5.0364 1.0935 0 8363
-2.883 4.712 0.51536 0 8273
-2.8731 3.7308 -0.77364 0 7968
-2.8656 1.9423 -1.26 0 6228
-2.8459 8.8428 1.5262 0 9116
-2.8423 4.4427 -1.1211 0 8216
-2.8253 4.12 -1.1837 0 8142
-2.814 8.5791 0.84234 0 9096
-2.795 4.1516 -0.70338 0 8162
-2.7761 -2.4158 -0.17161 0 4068
-2.761 7.1331 1.075 0 8915
-2.7372 2.1742 0.49128 0 6744
-2.6939 6.5068 0.32841 0 8836
-2.6922 -2.3296 0.16602 0 4073
-2.6818 6.0719 0.46416 0 8756
-2.6703 2.1716 -0.56548 0 6799
-2.6428 2.1616 -0.56094 0 6816
-2.6325 2.3249 -0.16379 2 7045
-2.6226 -4.9512 0.78744 0 3566
-2.6142 -4.3115 0.4704 2 3646
-2.6119 -5.4587 -0.2822 0 3461
-2.5805 -1.9011 -0.074414 0 4199
-2.5776 -3.258 0.68253 0 3848
-2.5642 4.6335 -1.1256 0 8414
-2.5269 -3.6945 0.62906 0 3765
-2.4591 -2.9651 0.54138 0 3859
-2.4403 2.5359 -0.74807 0 7487
-2.4338 -3.7636 0.6299 0 3711
-2.428 7.2481 -0.17747 0 9077
-2.4257 -3.6829 0.51571 2 3730
-2.3787 4.0985 -1.1228 0 8344
-2.3766 8.7533 1.0607 0 9274
-2.3735 2.5382 0.080681 0 7545
-2.3726 4.1427 0 0 8358
-2.3696 -4.3806 0.93835 0 3584
-2.3339 2.6445 -0.92335 0 7692
-2.3171 -6.4999 -0.3218 0 3152
-2.3126 -2.108 0.07265 2 4025
-2.2883 -6.48 -0.15955 0 3142
-2.2853 -2.0963 0.072 1 4017
-2.1919 4.1857 0.22034 0 8515
-2.1912 3.0226 -0.52468 1 8070
-2.1714 4.1783 0.21959 0 8524
-2.1548 -2.5817 0.63359 0 3863
-2.1456 3.6265 0.29465 0 8311
-2.1255 -2.5179 0.076503 1 3869
-2.1243 2.9303 -0.42325 1 8071
-2.1061 -2.5082 0.076039 0 3865
-2.101 3.3912 -1.1439 1 8258
-2.0846 6.3552 -1.2601 0 9098
-2.0707 6.0653 0.90073 0 9058
-2.0456 2.8052 0.48794 0 8068
-2.0376 3.3965 0.36952 0 8295
-2.0298 2.7653 0.4821 0 8056
-2.0279 6.234 0.6116 0 9106
-2.0205 3.6997 0.69258 0 8447
-2.011 -5.4892 0 0 3181
-1.9836 3.5595 0.094607 0 8401
-1.9585 3.5639 -1.2689 1 8427
-1.9229 2.4096 -1.0417 2 7907
-1.9217 2.3935 -1.0372 0 7898
-1.9105 5.7632 0.56646 0 9086
-1.8847 4.7433 0 0 8886
-1.8534 8.8101 0.83993 0 9524
-1.8394 -2.6065 0.29763 0 3788
-1.8393 4.0081 0 0 8703
-1.814 2.5023 0.14413 0 8077
-1.7925 2.5176 -0.50776 0 8092
-1.7823 2.52 -0.50711 0 8099
-1.739 -3.7141 0.67377 1 3443
-1.737 -3.3741 0.088108 0 3532
-1.7276 7.4654 1.0769 0 9443
-1.6977 -3.5997 0 0 3446
-1.63 -3.3538 0.26075 0 3480
-1.6227 3.4562 -1.0948 0 8677
-1.5967 5.216 0.8962 1 9164
-1.584 7.7578 1.3009 0 9552
-1.5794 -7.7697 0.55442 0 2770
-1.564 4.1455 0.41337 0 8948
-1.5582 4.9876 0.4875 0 9145
-1.5398 7.0267 -1.3553 0 9493
-1.5113 3.5899 -1.1169 0 8816
-1.509 3.3388 0.51494 2 8731
-1.4969 2.6861 -1.3691 1 8398
-1.4952 6.2138 -0.89822 0 9392
-1.4913 -6.2261 1.0518 0 2854
-1.4909 3.2222 -0.92943 2 8695
-1.4866 6.1781 0.59284 1 9399
-1.4859 5.0066 0.61072 0 9192
-1.4805 3.5444 -1.1014 1 8826
-1.4667 6.5943 -1.1099 0 9467
-1.4014 3.3849 -0.69025 0 8839
-1.4004 -8.0736 0.95824 0 2734
-1.3978 -5.9083 0.28313 0 2840
-1.3862 3.0207 0.62618 0 8706
-1.3689 -8.6429 1.4377 0 2720
-1.3347 7.6709 0.72641 0 9650
-1.324 5.7947 0 0 9452
-1.3105 -6.1707 0.14646 0 2783
-1.3103 5.8142 0 0 9462
-1.2956 3.0302 -0.46317 0 8790
-1.2683 -3.5248 0 0 3163
-1.258 6.8748 0.48871 0 9618
-1.2509 2.9498 0.29893 0 8807
-1.2489 -2.7724 -0.1418 0 3396
-1.2325 6.9542 -0.99258 0 9631
-1.2151 4.8054 -0.23115 0 9351
-1.1845 4.7403 -0.92058 2 9367
-1.1502 -3.8146 0.27861 0 3005
-1.1215 -7.2115 1.199 0 2715
-1.1115 -9.2665 1.5333 0 2682
-1.0981 -3.1095 0.30766 0 3147
-1.0934 -6.9033 0.98228 0 2719
-1.09 -6.5133 0.46179 1 2726
-1.0756 3.0956 0.076085 0 9030
-1.0525 2.9987 -0.75301 0 9022
-1.0427 -3.9438 0.67021 1 2916
-1.0255 3.0039 0.59804 0 9059
-1.0245 2.9487 -0.73963 2 9031
-0.99933 -5.871 0.41645 0 2730
-0.98214 -7.1328 -0.16716 0 2698
-0.96861 4.4202 -0.21102 0 9484
-0.95341 -7.9483 0.37332 0 2681
-0.94671 9.4515 0.88619 0 9935
-0.92878 -4.314 0.725 0 2790
-0.90969 -8.8787 1.0437 0 2670
-0.88244 -3.8314 0.18335 0 2824
-0.81655 -4.2643 0.71333 1 2751
-0.80066 -3.3844 0.48878 0 2844
-0.7874 -6.2593 0.58856 0 2689
-0.786 -3.2815 -0.15736 0 2847
-0.78552 -7.4487 0 0 2673
-0.77816 8.2474 0.77286 0 9962
-0.75667 -3.9 0.6527 0 2756
-0.74645 -6.0706 0.71526 0 2685
-0.71529 4.9454 0.70227 1 9768
-0.7135 -9.7627 1.6082 0 2646
-0.66741 4.4392 -1.2872 0 9744
-0.64699 3.1687 0.22615 1 9548
-0.63042 9.2474 -1.3027 0 10062
-0.61388 5.9404 0.55717 0 9925
-0.56598 6.1714 0.289 0 9975
-0.56368 -9.1636 1.5084 0 2635
-0.52716 -5.8038 0.27177 0 2656
-0.47858 -5.2689 0.12283 0 2655
-0.44915 -4.5159 0.85503 0 2666
-0.41199 4.9898 -0.70366 0 10006
-0.3741 6.9981 1.1514 0 10146
-0.35895 -3.833 0.4502 0 2658
-0.33482 -5.1775 -0.24195 0 2637
-0.31442 6.2067 1.021 0 10160
-0.30422 -6.4511 0.4516 0 2626
-0.29346 3.1103 -0.89582 0 9961
-0.22358 4.4135 -0.30902 2 10152
-0.19631 3.4679 0.57066 0 10131
-0.15757 -6.6369 0.30959 0 2607
-0.15165 -7.1798 1.0093 0 2603
-0.1416 6.4894 -1.0664 0 10268
-0.11463 -3.8623 0.72802 0 2613
-0.067914 3.5695 -0.58655 0 10283
-0.029896 -7.7859 0 0 2589
-0.016486 -4.2935 0.30023 0 2590
-0.013242 3.0347 0.14152 0 10354
0.0078894 -3.4771 -0.080727 0 2586
0.015878 -3.2491 0.075435 0 2583
0.025021 -5.1199 0 0 2582
0.033395 3.3566 -0.96253 0 10414
0.067767 -5.0422 -0.11708 0 2575
0.090076 -6.7021 0.31257 0 2576
0.092593 -4.1118 -0.095489 0 2573
0.10531 3.4866 0.16267 0 10511
0.11585 3.4923 0.16295 0 10524
0.11804 -8.7831 0.81949 0 2577
0.15302 5.583 0.78494 0 10500
0.16414 6.6687 0.31108 0 10481
0.17226 7.8945 -1.1098 0 10464
0.17896 -9.2363 0 0 2574
0.19813 8.0496 1.3229 0 10486
0.20994 6.951 0.16145 0 10510
0.32253 3.1318 0.29372 0 10816
0.33253 5.1007 0.35743 0 10654
0.42823 3.4627 -0.081006 1 10887
0.43928 3.1738 0.29893 0 10934
0.44127 3.4832 -0.081516 1 10897
0.48219 -4.1802 0.79282 0 2542
0.48424 -3.0368 -0.071396 0 2515
0.4872 3.6759 0 0 10916
0.49049 -5.8904 0.9711 0 2558
0.49234 -4.0625 0.38179 0 2538
0.49864 3.6784 0 0 10924
0.52504 -6.3053 0.29506 0 2557
0.52586 -3.1696 0.52786 0 2511
0.53215 -3.595 0.33906 0 2523
0.56744 -5.0509 0.118 0 2544
0.64016 7.7533 1.2782 0 10742
0.68551 5.2998 -1.0069 0 10909
0.69535 -4.0509 0.38346 0 2508
0.69872 -5.7655 0.27084 0 2537
0.71309 6.052 -1.2953 0 10870
0.73222 -4.1954 0.098878 0 2507
0.73827 8.0655 -0.3777 0 10773
0.7598 5.0658 -0.23888 0 10970
0.84329 4.9283 -0.5847 1 11033
0.8618 -5.4908 0 0 2518
0.87728 7.6405 1.449 0 10860
0.87797 -5.7109 0 0 2520
0.88438 -6.2295 0 2 2526
0.89015 -4.4792 0.75029 0 2491
0.89232 -4.6337 0.22006 0 2495
0.9254 -4.4569 0.85762 0 2486
0.93211 -8.2969 0.97636 0 2545
0.95723 9.0317 1.4922 0 10832
0.97761 3.2606 0 0 11550
0.99465 -3.5793 0.25977 0 2457
1.0037 -4.443 0.53267 0 2481
1.0053 -6.3048 1.0489 0 2516
1.1188 -9.6993 0.9109 0 2541
1.1254 5.2763 -0.75822 0 11170
1.1488 -4.1342 0.099621 0 2456
1.1835 6.1572 -1.0301 0 11097
1.2046 -9.685 0.91053 0 2534
1.2148 7.7842 -1.2944 0 10984
1.2165 3.6358 0.44834 0 11656
1.2368 3.5238 -0.43673 0 11689
1.2605 3.5281 -0.43812 0 11703
1.2651 6.297 -0.90268 1 11129
1.3045 -4.3017 0.20963 0 2437
1.3321 -7.2578 1.2123 0 2503
1.3896 -3.2221 0.5765 0 2404
1.4566 -2.7816 0.51587 0 2344
1.4671 -2.8207 0.52235 1 2349
1.4697 7.7784 0 0 11092
1.4718 -4.3508 0.21419 0 2426
1.4756 -5.0202 0.12149 0 2444
1.4859 -8.8037 1.2548 0 2509
1.5813 2.7433 -0.37029 0 12203
1.5893 -5.3009 -0.25807 0 2440
1.5988 3.6233 0.27693 0 11887
1.6257 -4.0563 0 0 2414
1.6262 6.7579 1.142 0 11308
1.628 -4.0295 0 0 2411
1.6334 -8.219 0.19455 0 2490
1.6478 -5.9946 0.87373 0 2459
1.6986 -5.9083 0.86399 0 2448
1.7343 5.0829 0.50106 0 11670
1.746 -7.3459 0.88298 0 2475
1.7517 -3.8759 -0.19835 0 2400
1.7781 4.1247 -0.95473 0 11869
1.7842 4.1093 -0.95224 1 11876
1.7978 -4.6809 0.4678 0 2417
1.8066 -7.8943 1.1382 0 2479
1.8578 -5.0547 1.0146 0 2422
1.8597 -4.603 0.46316 0 2413
1.8796 -3.2607 0.35113 0 2292
1.8972 -9.6972 0.92186 0 2493
1.9014 7.5255 0 0 11369
1.9021 7.4351 1.0786 0 11393
1.9409 2.5673 -0.45231 0 12477
1.9568 -3.3273 0.72728 0 2284
1.9737 3.9935 -1.0555 2 12029
1.9969 6.0239 0.14734 0 11648
2.0054 -5.9832 0.14651 0 2427
2.0071 9.0387 -1.0828 0 11199
2.0191 2.6077 0 0 12501
2.0321 -7.7348 0.74611 0 2465
2.0536 3.0897 -1.3503 0 12356
2.0612 -3.5759 0.77764 0 2294
2.0652 -7.6806 1.3067 0 2462
2.0862 -7.0248 0.17014 0 2442
2.096 3.3399 0.46112 0 12300
2.1033 -7.3158 0.89018 0 2447
2.1041 2.6863 0.56061 0 12513
2.1201 2.8725 0.16649 0 12464
2.1252 2.8637 0.1663 0 12469
2.1357 2.7091 0.56677 1 12518
2.1695 -2.5636 0.15661 0 1700
2.1826 2.7517 0.66173 0 12523
2.1935 3.4511 0.67183 0 12311
2.208 3.4512 0.67312 2 12320
2.2248 3.5452 0.19518 1 12299
2.2424 2.7134 0.66321 0 12551
2.2468 2.9207 0.43092 1 12497
2.2551 3.9122 0.63463 0 12208
2.2789 3.3458 -1.4734 2 12381
2.3029 4.4944 0.47115 0 12077
2.304 3.1411 -0.73394 0 12459
2.3264 -5.7581 0.14419 0 2412
2.3359 3.0719 -0.9144 0 12489
2.3459 -5.1098 0.92376 0 2398
2.3963 -3.6508 -0.40742 2 2194
2.4304 -2.1231 0.074924 0 1206
2.4448 -1.809 0.35565 0 955
2.4493 5.7731 -0.29245 0 11854
2.4587 2.7732 -1.3489 0 12597
2.4637 -2.0783 0.6073 2 1164
2.4661 6.1099 -1.4005 0 11807
2.4936 2.8786 -1.2869 0 12581
2.5199 -1.6584 0.21094 0 769
2.5331 -2.7431 -0.34834 2 1519
2.5396 -4.7165 -0.49976 0 2329
2.5429 4.4726 -0.60166 0 12191
2.5494 2.9431 0.63973 0 12583
2.554 -3.891 0.54428 0 2201
2.5952 3.4327 0.40148 0 12482
2.6003 2.2708 0.16099 2 12804
2.6048 3.4254 0.40148 0 12488
2.6058 -7.4956 1.3038 0 2424
2.6137 1.9681 0.30524 0 13044
2.615 2.2572 -0.40397 0 12814
2.6363 -4.7639 -0.38073 2 2308
2.6363 1.9744 0.30729 0 13058
2.6392 -3.4695 -0.20329 0 1930
2.6416 2.3486 0.32977 0 12786
2.6425 -4.1817 0.23068 0 2241
2.6547 -6.303 -0.47825 1 2405
2.6605 2.2835 -0.41001 1 12822
2.6705 4.4852 0.85762 0 12243
2.6895 -5.4346 -0.56571 0 2366
2.6927 3.0011 0 0 12604
2.6953 -8.7938 1.2926 0 2435
2.7092 -6.0394 0.61755 0 2401
2.7274 7.2332 1.2701 0 11750
2.7777 2.2071 -0.41489 0 12942
2.7841 1.3012 -1.3683 1 13944
2.7943 -5.8609 0.30279 0 2382
2.7962 7.2239 -1.2726 0 11767
2.8059 -5.4715 0.42998 0 2357
2.8112 -4.309 0.60166 0 2210
2.8431 -5.8344 0.15068 0 2372
2.8547 -4.549 0.12469 0 2247
2.8729 4.639 -0.12668 1 12281
2.8813 -1.567 -1.1082 0 536
2.8882 -1.4018 0.4512 0 390
2.8905 0.98963 -0.35728 0 14414
2.8919 1.4754 -0.1514 1 13791
2.9013 1.356 0.14935 1 13949
2.9159 1.4986 -0.15289 0 13780
2.9226 1.3765 0.15065 0 13936
2.9327 0.67222 -0.86274 0 15065
2.9384 2.2531 0.43301 0 13007
2.9483 3.286 -1.4917 0 12605
2.9644 1.6344 -1.3218 0 13676
2.9729 -6.1911 1.1284 0 2379
2.9796 2.1632 0.17171 0 13113
3.0032 -6.2992 1.1465 0 2383
3.0055 4.3845 0.62164 0 12391
3.0119 -0.74815 0.58471 0 17153
3.0198 3.328 -0.63157 0 12611
3.0244 -1.5885 -1.1543 0 492
3.0536 4.9307 0.27046 0 12284
3.0803 -8.3811 0.83305 0 2421
3.0976 0.72026 0.22238 0 15041
3.1087 4.621 -0.91501 0 12364
3.1144 -6.731 1.2185 1 2393
3.132 5.087 -0.98148 0 12268
3.1397 3.5413 0.89169 0 12598
3.1415 3.2271 -0.63296 0 12662
3.1457 1.6278 -0.41419 1 13768
3.1563 3.2423 -0.9618 0 12667
3.1673 -6.1762 1.1404 0 2358
3.1719 9.1291 1.5878 0 11686
3.1805 4.7852 -0.26795 1 12355
3.1963 -5.8141 0.93246 0 2319
3.2054 1.1282 -1.3269 0 14374
3.2241 0.41245 0.53403 0 15844
3.2528 7.6669 -1.3683 0 11851
3.2565 8.5547 0.21252 0 11756
3.2658 7.2329 1.1153 0 11915
3.2784 5.0618 0.84756 1 12336
3.2925 5.1464 0.56998 0 12319
3.2959 6.083 0.32264 0 12143
3.2994 -0.82996 0.641 0 17158
3.3028 6.0958 -1.1391 0 12136
3.3245 1.6474 -0.60957 0 13838
3.3263 0.42552 0.31286 0 15840
3.3327 5.1773 0.57444 0 12327
3.3388 4.6636 -0.80609 0 12434
3.3408 -0.85033 0.64951 0 17163
3.3535 -1.2812 0.58979 0 95
3.3588 1.3373 -0.76844 0 14189
3.3627 5.224 1.0207 0 12328
3.3638 1.251 -0.67618 0 14298
3.3736 -1.3004 0.59401 0 105
3.3979 -1.2751 0.42441 0 75
3.4147 5.8883 1.1183 1 12216
3.4169 -1.8452 -1.2118 0 527
3.4413 -9.1944 1.8497 0 2420
3.451 0.0090336 0.32196 0 16531
3.4649 0.019958 0.32326 0 16518
3.4719 2.3418 0.68804 0 13263
3.4856 2.7547 -0.41448 0 12952
3.4859 0.71555 -1.0204 0 15243
3.5119 -9.1441 0.4568 0 2416
3.5208 5.6498 -0.62108 0 12287
3.5239 -1.4763 0.26717 0 193
3.5628 0.060324 0.24917 0 16474
3.5653 -1.7044 -0.83996 0 372
3.5668 6.1879 -1.1734 0 12202
3.5809 3.2573 -0.22574 0 12766
3.5993 3.7207 -0.60538 0 12659
3.6031 -6.049 0.98952 0 2275
3.6193 -1.2646 0.44834 0 16
3.6289 1.8915 -0.38179 1 13759
3.6293 -0.87936 0.70358 0 17144
3.6342 -2.9766 0.43826 0 1111
3.6453 -1.2623 0.45113 0 10
3.6512 -3.08 0.22276 0 1160
3.6514 0.53204 0.17208 0 15696
3.6572 -6.2187 0.50448 0 2281
3.6646 7.097 0.37248 0 12085
3.679 0.47064 -0.97097 1 15841
3.6801 4.1016 -0.38533 1 12601
3.6838 -3.0878 -0.22416 0 1146
3.687 -5.0896 0.58633 0 2028
3.6894 -3.1122 -0.22509 0 1158
3.6975 -0.47432 0.34779 1 16949
3.7031 2.1979 0.70749 0 13534
3.7204 -1.727 0.57646 0 333
3.7218 4.8381 -0.85786 1 12494
3.7287 8.1292 0.20764 0 11927
3.7304 -7.9419 1.4416 0 2389
3.7306 -0.58886 -0.2641 0 17011
3.7309 -0.80121 0.44625 0 17106
3.7425 4.8335 0.42747 0 12502
3.7666 -0.72942 0.63032 0 17067
3.7668 0.53744 -0.08834 2 15715
3.784 7.2814 -1.3482 0 12088
3.8078 5.7661 -0.64467 0 12348
3.8091 0.12104 -0.08848 0 16409
3.8188 0.099331 -1.0954 0 16438
3.8235 6.861 -0.91852 0 12175
3.8278 4.9135 1.0233 0 12509
3.8673 -0.77276 0.18391 0 17079
3.8694 0.54037 -0.090708 0 15739
3.8803 2.716 0.3312 0 13185
3.898 1.5402 -1.4162 0 14197
3.8991 0.90664 -0.94852 1 15044
3.9038 2.7173 0.3326 0 13202
3.9211 -0.83131 0.65853 0 17101
3.9238 -4.5845 0.1401 0 1673
3.9288 3.3319 -0.36022 1 12842
3.9296 -6.5972 1.4468 0 2277
3.9318 0.29564 -0.091543 0 16181
3.9366 2.4761 -1.3335 0 13410
3.945 3.7607 0.50849 0 12723
3.9475 4.8626 -0.29208 0 12540
3.9479 -2.1614 0.848 0 547
3.9482 -1.0181 0.66988 0 17168
3.9515 -0.24169 0.65043 0 16765
3.9624 4.9089 -0.58856 0 12534
3.9665 4.944 -0.59135 0 12529
3.9716 -1.0242 0.19127 0 17166
3.9751 -0.46345 0 0 16920
3.9779 6.901 0.74314 0 12207
3.9861 5.4704 -0.63148 0 12448
4.0074 -1.2466 0.097439 0 17233
4.0191 -0.44442 0.18857 0 16905
4.0273 -8.3868 0.86798 0 2378
4.0317 6.51 -1.2581 0 12277
4.0361 3.9593 0.26366 0 12701
4.0443 4.3797 0.83782 0 12624
4.0533 1.6831 0.61682 0 14126
4.0587 1.5751 0.71528 0 14228
4.07 5.6849 -0.65229 0 12435
4.0764 -0.34445 0.094979 0 16828
4.1003 1.7871 -0.10385 0 14045
4.1094 3.7183 0.51704 0 12772
4.1095 5.5679 -1.3038 0 12466
4.1111 -3.4277 0.12427 0 1134
4.1264 1.2419 -0.40204 0 14615
4.1401 3.349 0.37236 0 12914
4.1563 -2.7866 0.94279 0 796
4.1566 0.047158 -0.09651 2 16497
4.1592 -7.6159 1.4257 0 2324
4.2349 -0.45707 -0.39739 2 16895
4.2438 3.1014 -0.24512 0 13100
4.2529 4.0077 -0.40863 0 12732
4.2541 -7.7382 0.61748 0 2317
4.2762 -0.80258 0.10101 0 17058
4.2925 -8.0866 1.5042 1 2337
4.2951 -1.4047 0.316 0 17254
4.2964 -1.9192 0.43901 0 282
4.3011 4.0532 -1.1135 0 12737
4.325 -2.8281 0.48211 1 761
4.3434 4.7036 -0.5973 0 12618
4.3522 2.4654 0 0 13626
4.3597 3.5696 -0.79189 0 12891
4.4024 -5.5504 0.99564 0 1851
4.4216 5.0721 0.62776 0 12587
4.4221 3.0586 -1.4076 0 13216
4.43 -1.0595 0.53267 0 17137
4.462 -6.5068 0.73608 0 2130
4.4811 -7.6196 0.82469 0 2282
4.4913 -0.89746 0.4273 0 17080
4.4985 -2.6519 0.85794 0 639
4.5118 -1.1207 -0.2168 0 17151
4.5127 1.8444 -1.0362 2 14154
4.516 -0.91632 0.4299 1 17086
4.5205 -0.40742 -0.10538 0 16843
4.5273 4.166 0.14284 0 12756
4.5312 -0.70228 0.86392 0 17006
4.5329 3.8442 -0.69505 0 12838
4.5422 3.5043 0.67089 0 12994
4.543 -3.7211 0.13634 0 1109
4.5588 4.173 0.14349 0 12761
4.5643 2.2618 -0.71591 0 13839
4.5774 1.4785 0.33637 0 14510
4.5991 4.5401 0.90824 0 12697
4.6108 1.6228 0 1 14375
4.6266 -1.2492 0.33511 1 17183
4.6463 3.2728 -0.66461 0 13168
4.6466 6.6956 0 0 12403
4.6689 2.2651 -0.36287 0 13881
4.6775 4.2057 -0.88403 0 12773
4.6899 1.775 -0.23385 0 14265
4.7049 -2.7208 0.63558 1 617
4.7242 4.0778 -0.87707 0 12813
4.749 4.0762 -0.87957 0 12821
4.7542 -3.3092 0.67739 0 846
4.7558 -0.96498 -0.11267 1 17084
4.7744 -6.6296 0.18968 0 2036
4.7777 8.3491 1.3519 0 12201
4.808 4.4242 -0.91826 0 12754
4.8274 -3.4637 0.69481 0 899
4.8515 -0.2254 -0.22649 0 16714
4.8568 1.2344 -1.1874 0 14901
4.8601 1.4461 0.11773 0 14640
4.8607 -2.981 0.80136 0 686
4.8651 0.9545 -0.34669 0 15299
4.873 4.6976 0.63148 0 12711
4.9073 5.764 0 0 12567
4.9112 -0.27114 0.45889 0 16743
4.945 -0.75228 0.58493 0 17000
4.9669 5.4395 -0.17102 0 12615
5.0558 0.79534 0 0 15596
5.0563 2.9393 -0.54565 0 13564
5.0829 1.1978 0.9839 0 15025
5.0998 -2.9278 0.13653 0 608
5.101 8.285 0.45372 0 12275
5.1178 -0.38661 -0.23935 0 16805
5.122 2.3569 -0.39426 0 13968
5.1239 -0.37358 0.35925 0 16797
5.1306 1.7736 0.12603 0 14406
5.1328 2.7326 0.81722 0 13736
5.1454 5.3806 1.0463 0 12652
5.1584 2.922 -0.97402 0 13619
5.1847 2.8775 -1.1172 0 13673
5.2078 8.1401 0.45065 0 12318
5.2159 1.2937 0.88291 0 14940
5.2162 1.3422 0.25118 0 14876
5.2171 2.1856 -0.79496 0 14101
5.2396 2.4111 0.26897 0 13974
5.2523 -1.9711 0 0 72
5.2525 1.2853 0.88842 0 14960
5.2624 4.4629 0 0 12844
5.27 6.5687 0.58888 0 12533
5.2862 -0.57053 0.49604 0 16897
5.3088 3.3847 0 0 13377
5.3114 5.6481 0.90667 0 12641
5.321 5.4374 -0.35478 0 12670
5.3216 0.043653 0.62234 0 16509
5.3255 -1.6567 0.78382 0 17234
5.3275 2.0525 0.53264 0 14241
5.3566 0.17021 0.7532 0 16413
5.3635 1.3303 0 1 14931
5.3663 1.5814 0.12989 0 14658
5.3709 -0.10969 0 0 16625
5.3859 1.4351 -0.52001 0 14812
5.3867 0.81562 -0.25407 1 15642
5.4177 2.1768 -0.82056 0 14166
5.4185 -0.55326 0.38087 0 16879
5.4209 -0.48857 0.63651 0 16845
5.4466 4.9857 -0.68889 0 12760
5.4587 6.6055 1.4079 0 12550
5.463 -3.7322 0.15361 0 819
5.5025 4.8631 -1.2065 0 12788
5.5133 -3.7215 0.46514 0 803
5.5211 2.1426 0.55252 0 14224
5.5398 0.97084 0.39329 0 15476
5.5929 -3.43 -0.30596 0 684
5.6012 4.3479 -0.49583 0 12978
5.6017 -4.046 0.97115 1 911
5.6042 0.86457 0.13165 1 15621
5.6142 4.0031 0.48216 0 13147
5.6206 1.8512 -0.27596 0 14473
5.6361 -2.919 0.29599 0 476
5.6396 -0.06595 -1.4765 1 16590
5.6422 0.8543 0.13249 0 15647
5.6455 6.5174 0.80444 1 12582
5.6566 -5.8127 -0.7567 0 1429
5.6662 -3.969 0.64541 0 857
5.6702 5.3098 -0.72474 0 12740
5.7068 4.0198 0.81631 0 13175
5.7191 0.84963 0.40431 0 15675
5.7247 1.2451 -0.54658 1 15148
5.7265 -1.1443 -0.27233 0 17077
5.7378 -1.1299 0 0 17072
5.7715 -0.74037 0.81778 0 16950
5.7818 3.853 0 0 13280
5.7909 0.098048 0.27009 0 16473
5.8297 1.446 0.13945 0 14933
5.8408 2.4636 -0.29562 0 14092
5.8564 6.0159 0.19492 0 12666
5.8843 -0.37743 0.1369 0 16771
5.9248 -2.9604 1.0882 0 428
5.9625 -0.62458 0.70109 0 16889
5.9862 -0.69792 0.84701 0 16922
5.9926 3.2361 0.31761 0 13711
6.0119 0.20679 -0.28053 0 16395
6.0129 -0.54193 0.42217 0 16844
6.0224 1.037 0.42733 0 15495
6.032 -1.4237 0.72478 0 17133
6.039 1.0399 1.0068 0 15500
6.0537 -6.0431 1.0003 0 1381
6.0581 -2.2952 0.91047 0 84
6.0585 2.5555 0.92411 0 14100
6.0655 -3.0308 0.63259 0 427
6.0697 -0.54705 1.0013 0 16847
6.1138 -1.2405 1.0249 0 17087
6.1279 0.49627 0 0 16143
6.1325 1.0394 0 0 15512
6.1373 4.5963 -0.35757 0 13052
6.1474 1.0232 0 0 15533
6.1535 7.1845 1.7823 0 12573
6.1696 5.8814 -1.4004 0 12719
6.1738 2.0921 -1.071 2 14426
6.2246 5.0966 1.1306 0 12898
6.2297 -0.59766 -0.1453 0 16862
6.2473 -2.9211 0.32161 0 344
6.2483 -4.3492 0.71025 0 845
6.2483 4.5664 -0.54117 0 13099
6.3319 -0.92485 -0.29841 0 16988
6.3348 4.5991 -1.4749 0 13119
6.3509 0.38399 -0.44491 1 16269
6.3571 1.2657 0.60473 1 15287
6.4067 2.1511 -0.1569 0 14445
6.4069 3.0614 1.1666 0 13913
6.4148 -0.86161 0.90964 0 16964
6.4337 -0.019089 1.057 1 16556
6.442 -1.151 0 0 17047
6.5227 0.98763 0.77147 0 15654
6.5538 -1.7905 0 0 17187
6.5709 2.8639 1.3505 1 14053
6.5889 -1.8 0.63724 1 17188
6.5968 -5.4671 1.2041 0 1128
6.6153 -3.3532 1.2185 0 448
6.6459 0.98731 0.62683 0 15676
6.6676 4.641 -0.18861 0 13198
6.6855 3.2651 1.2224 0 13877
6.6913 -2.4248 0.66399 0 40
6.7 -0.099404 -0.31248 1 16600
6.7155 -3.7809 1.2662 0 582
6.7213 -4.1755 0.55331 0 702
6.7231 -5.3766 0.80314 0 1071
6.755 4.7018 -0.76784 0 13196
6.7665 -2.9057 0.68703 0 225
6.7683 5.0689 0 0 13054
6.7775 5.3219 1.0077 0 12963
6.7877 5.4594 -0.60911 0 12923
6.7955 -1.3789 0 0 17085
6.8117 -3.8085 0.72809 0 573
6.8276 4.1872 1.1256 0 13469
6.8594 2.105 0.83907 0 14592
6.9055 -2.9654 1.2347 0 227
6.9735 5.9855 0 0 12824
7.0625 0.90347 1.0007 0 15842
7.1602 -0.8348 0.67254 0 16921
7.1855 0.45711 0.16716 0 16255
7.2166 -0.75594 -0.16846 0 16887
7.249 6.1476 -0.88675 0 12840
7.2982 3.4623 -0.18754 0 13919
7.2988 5.4344 0.63632 0 13069
7.3461 6.1554 0 0 12859
7.3539 6.0923 0.44534 0 12875
7.4368 6.5726 1.6306 0 12793
7.4583 5.9646 0 0 12933
7.4826 -6.0226 1.5781 1 1083
7.4914 -2.7637 1.3119 1 56
7.531 -1.5733 0.8997 1 17096
7.6046 -0.44114 0.53266 0 16753
7.7771 -1.8127 0.93385 1 17129
7.812 5.206 -0.43779 0 13279
7.856 -2.7204 0.58135 0 17282
7.8765 -1.3379 0.74536 0 17032
7.9105 -2.5337 1.1674 0 17245
7.9501 1.4419 -0.18759 0 15424
7.9809 5.8326 -0.92223 0 13098
8.1667 0.30374 0.95569 0 16385
8.1693 5.0751 0.22329 0 13437
8.2722 4.1605 0.21498 0 13819
8.4595 3.3425 1.7138 0 14202
8.5318 0.51585 -1.4043 1 16263
8.5923 0.49543 -1.414 1 16278
8.5999 4.0505 0 0 13933
8.6116 0.89904 0.80779 0 15998
8.659 2.0134 0 0 15035
8.6883 3.1743 0 0 14315
8.7108 -0.91247 0.40844 0 16888
8.8095 0.38155 0.82265 0 16358
8.8104 0.30305 -0.20467 0 16396
8.847 -1.1098 -1.2531 2 16938
8.9317 3.4411 1.5726 0 14244
8.9428 -2.1668 0.21363 0 17142
8.99 -0.60342 0.42018 0 16779
9.0005 2.3159 -0.86705 0 14868
9.0416 -1.1342 0.85015 0 16942
9.0749 2.2761 0 0 14913
9.0854 -1.353 -0.64232 0 16994
9.2491 0.58839 1.5226 0 16261
9.406 -0.0016417 0 0 16542
9.4319 0.90154 0.88396 0 16056
9.4828 2.352 1.8408 0 14942
9.8151 -1.3183 0.46183 0 16963
9.8217 0.45459 1.6154 0 16347
9.8682 0.056842 1.8593 0 16522
-12.067 -0.88404 -1.4149 1 4353
-11.945 3.2835 0 0 5153
-11.939 1.3455 1.974 0 4862
-11.727 -1.3382 0.55043 1 4327
-11.599 3.2276 1.1232 0 5160
-11.521 3.2407 -1.682 0 5163
-11.053 4.4746 1.1125 0 5331
-11.004 3.4106 1.6191 0 5197
-10.881 -1.0535 -0.50981 0 4338
-10.792 8.0266 2.2097 0 6551
-10.653 0.024168 1.7503 0 4513
-10.601 0.083264 1.2398 0 4535
-10.542 6.9694 -1.179 0 6157
-10.377 1.3201 1.2233 0 4897
-10.304 1.7095 -0.97444 0 5015
-10.037 5.1893 1.588 0 5584
-9.9611 -1.4923 0.93969 0 4317
-9.9074 2.5125 -0.71472 0 5120
-9.9027 4.9007 -0.25653 0 5514
-9.8946 7.5377 0.28879 1 6616
-9.8149 7.9366 0.58863 1 6791
-9.7961 7.7337 1.4595 0 6726
-9.2379 5.7345 -0.25244 0 5997
-9.0223 -6.5287 1.8297 0 4219
-8.8251 5.4059 1.7003 1 5972
-8.7954 7.5014 1.0785 0 6958
-8.7238 -6.2341 -0.50003 0 4226
-8.4505 6.4773 1.4964 0 6640
-8.2145 6.2964 0 0 6633
-8.2075 8.0965 0.26767 0 7348
-7.8652 8.4109 2.1696 0 7550
-7.5774 11.05 -0.31107 0 8139
-7.5234 7.001 0.71863 0 7203
-7.0545 7.4547 0.95753 0 7523
-6.7351 3.6569 -1.8159 1 5676
-6.5658 -8.3918 0.24738 0 3842
-6.4783 -12.148 2.2619 2 3574
-6.298 8.6367 0.24817 0 8064
-6.124 -11.896 0.93557 1 3534
-5.9536 9.6096 1.8573 0 8259
-5.7322 -13.771 2.4506 0 3324
-5.0953 8.8968 1.6844 0 8362
-4.7533 10.047 1.2997 0 8667
-4.6622 8.4246 -1.8141 0 8416
-4.5356 9.2419 1.9397 0 8615
-4.4209 -13.638 2.0149 1 3064
-4.3865 -13.533 2.6803 1 3066
-4.3022 10.563 1.603 0 8860
-4.2062 8.7595 -1.8308 0 8644
-4.181 -9.2084 1.1826 0 3409
-4.1178 -11.765 2.0479 0 3139
-4.0142 -12.267 1.814 2 3073
-3.6549 9.4423 1.184 0 8914
-3.631 10.064 1.7577 0 8996
-3.4284 12.075 -0.29143 0 9228
-3.3302 -9.515 1.4168 0 3138
-3.1261 -12.105 2.0541 0 2903
-3.0317 11.166 1.6261 0 9275
-2.8121 11.999 0 0 9422
-2.7117 0.46498 -0.19239 1 5025
-2.4301 -1.7475 0.069493 0 4222
-1.7644 11.992 0.56524 1 9756
-1.7064 -10.025 0.47422 1 2729
-1.514 -10.995 1.5599 0 2701
-1.4525 10.701 1.0075 0 9808
-1.2935 7.8301 -1.8804 0 9688
-0.98742 10.767 1.5195 0 9977
-0.81719 -1.4503 0.19467 1 3605
-0.77437 -10.596 0.99116 0 2645
-0.6076 13.59 -1.5908 2 10174
-0.31523 14.447 2.3741 0 10281
-0.16145 10.054 1.652 0 10312
0.18088 11.387 -0.26442 0 10441
0.45921 -10.733 1.5097 0 2567
0.74625 0.60365 0.089548 1 12916
0.80619 10.525 -1.4836 0 10702
0.97131 9.996 -0.46835 0 10794
1.0042 -2.2909 0.058073 0 2402
1.0498 -10.389 1.9674 0 2550
1.1898 -0.33983 0.2033 2 17202
1.3497 9.3429 -1.7786 0 10954
1.4556 12.677 1.1905 0 10858
1.7446 9.6862 -1.617 0 11060
1.9024 -10.365 0.49146 1 2502
2.0431 -10.96 1.8316 0 2500
2.1652 1.5071 -1.4823 0 13193
2.3427 -1.6717 -0.82526 0 887
2.3453 10.996 1.8472 0 11178
2.3819 1.5081 -0.065454 0 13392
2.6694 2.5155 -1.7361 0 12731
2.6709 3.9213 -1.6031 0 12382
2.8404 -9.9847 1.7055 0 2451
2.9698 -12.164 1.1682 0 2472
3.3079 -10.581 1.2965 0 2432
3.4527 -0.060869 -1.5375 1 16611
3.7298 5.7215 -1.788 0 12343
3.9017 9.7452 -1.7246 0 11793
3.9501 -10.023 1.0051 0 2415
3.9599 13.507 2.3125 0 11533
4.1024 -1.9043 -1.5282 0 332
4.1072 7.0824 -1.7402 0 12215
4.2192 -10.36 0.52164 1 2410
4.2777 5.2995 -1.7829 0 12538
4.318 9.6396 0.49257 1 11904
4.5857 -10.461 1.0657 0 2403
4.6683 -9.7916 -0.75853 0 2381
4.8446 -9.3143 1.4755 0 2348
4.8578 -2.5515 -1.7122 0 493
4.8698 -3.6897 -1.752 0 989
5.0511 9.6455 0 0 12097
5.1829 7.1546 -1.8779 0 12446
5.2657 2.0435 -1.9085 2 14221
5.3775 -10.269 -1.0814 0 2340
5.4478 -8.4566 0.70342 0 2224
5.6066 11.177 2.3559 0 12052
5.6932 7.3079 -1.522 0 12504
5.7072 -3.8019 -1.9664 0 787
6.0669 3.5268 -1.8371 2 13571
6.0755 8.2316 -1.6809 0 12460
6.5254 8.2774 -0.98335 0 12515
6.7138 6.6276 -1.7775 0 12699
6.7881 5.0211 -1.7947 2 13083
7.0177 7.7775 1.7211 0 12610
7.0648 4.5879 -1.7905 2 13339
7.4042 7.6995 0.74695 0 12657
7.4525 8.0706 -0.76816 0 12619
7.466 2.1761 -1.8426 0 14682
7.7316 7.8076 1.5443 0 12677
7.8134 6.3975 1.9026 0 12901
7.9862 7.3103 1.7788 0 12764
8.4563 1.1328 -1.6075 0 15802
8.5763 6.0791 0.98075 0 13161
8.5978 -5.4816 1.9211 0 732
8.6158 5.3879 1.6695 0 13428
8.6491 11.44 2.3563 0 12483
8.8506 -4.9485 1.666 0 574
8.9792 4.5475 -0.46937 0 13803
9.0768 -4.9016 1.2063 0 528
9.0869 5.5729 0.9945 0 13466
9.2215 1.6459 -1.7649 2 15461
9.2227 5.2926 -1.747 0 13591
9.6296 2.7758 1.6465 0 14702
9.6816 -6.6964 -1.3766 1 833
9.9048 -5.0598 2.0956 0 461
9.9165 5.7322 0 0 13582
10.162 -5.6818 -1.3615 2 568
10.226 1.4281 1.6964 0 15749
10.313 5.7992 1.6628 0 13645
10.403 -5.0493 -1.0788 2 386
10.483 -0.095144 1.7224 0 16579
10.521 -8.7722 1.278 0 1137
10.665 2.5132 1.8002 0 15023
10.691 -2.8867 0.51642 1 17182
10.714 0.15335 0.24877 0 16485
10.747 7.0702 -1.2002 0 13304
10.85 5.3367 1.9866 0 13865
11.072 -5.0249 -1.9976 2 295
11.121 -3.851 1.098 0 9
11.127 -1.8221 1.0519 0 17021
11.679 1.9795 1.6648 0 15519
11.746 -8.8996 2.7765 0 992
11.854 0.95998 -1.9539 2 16133
11.889 0.68549 1.9565 0 16289
11.909 -0.27857 1.1114 0 16638
12.06 -7.7362 1.3367 0 739
12.095 -8.7362 -1.7448 2 903
12.129 -7.8827 -1.6916 2 750
12.245 -1.1424 1.1474 0 16854
12.506 -8.2806 -1.3993 2 774
12.573 -1.7984 -1.785 2 16979
12.677 2.9478 2.1384 0 15047
12.77 1.822 -1.8129 2 15707
13.19 -2.9966 1.5817 0 17121
13.574 1.2592 1.9159 0 16077
13.709 -2.0023 2.6103 0 16989
14.876 -1.1708 -1.745 2 16810
14.963 -0.52774 -1.7509 2 16677
