VERSION .7
FIELDS x y z intensity index
SIZE 8 8 8 8 8
TYPE F F F F F
COUNT 1 1 1 1 1
WIDTH 921
HEIGHT 1
VIEWPOINT 0 0 0 1 0 0 0
POINTS 921
DATA ascii
-4.9083 -0.82049 0.46427 1 1741
-4.9048 0.70068 -0.23105 2 2953
-4.843 0.3378 0.2264 1 2618
-4.6319 -0.51301 0.54498 0 1884
-4.5553 0.27702 0.85985 0 2587
-4.3199 0.024881 0.81393 2 2356
-4.3148 1.047 0 0 3434
-4.0298 2.6602 0.11211 0 6077
-3.8782 1.9429 0.81726 0 5005
-3.5696 -3.3159 -0.34069 0 1431
-3.5215 -2.5183 0.20189 0 1637
-3.5128 -3.1518 0.44031 0 1474
-3.4614 3.1419 -0.10853 1 7542
-3.4008 3.2716 0.8891 2 7857
-3.3805 -3.5067 0.5696 0 1336
-3.3134 1.3792 -0.083327 0 4453
-3.239 3.6443 -1.2764 1 8667
-3.1406 0.65668 0.14963 0 3262
-3.0419 -3.5253 0.54451 0 1230
-2.9415 3.9334 -0.92539 0 9529
-2.7039 -3.0788 -0.19109 0 1247
-2.656 -2.7552 -0.088851 0 1332
-2.6129 3.0636 -0.47087 0 8852
-2.6068 3.8911 -0.88243 0 10064
-2.5535 1.7827 -0.51165 0 6301
-2.53 1.7434 -0.21485 2 6253
-2.4028 2.8173 -0.69765 0 8876
-2.3781 2.6908 0.083373 0 8691
-2.3156 3.5225 0.19658 0 10140
-2.2715 -4.0445 0.32437 0 1037
-2.232 3.0936 -0.26675 1 9689
-2.2114 -3.7318 0.71268 0 1055
-2.0932 2.7818 0.57196 0 9499
-2.0196 3.4995 0.37696 1 10705
-1.9776 4.2103 0.76424 0 11482
-1.9346 3.9076 -1.2503 1 11289
-1.766 3.7024 0 0 11416
-1.7024 -2.573 0.071629 0 1091
-1.6956 3.87 -0.49411 2 11696
-1.5878 4.169 0.31195 0 12138
-1.5775 4.6631 0.22956 0 12427
-1.4709 -3.2261 0.66803 0 1000
-1.4423 3.8906 -0.88196 0 12214
-1.4394 -2.7451 0.43561 0 1024
-1.3469 -3.5051 0.08718 0 966
-1.2215 2.7436 -0.069725 1 11651
-1.1478 -4.0375 0.19574 0 929
-0.91254 -3.5209 0.59758 0 926
-0.86323 4.7976 -0.11318 0 13649
-0.85776 4.2047 -0.20012 0 13467
-0.78441 4.9303 -0.46576 1 13797
-0.75956 4.1508 0.29507 0 13630
-0.65435 -3.6295 -0.17199 0 892
-0.63781 -3.9293 0.37138 0 878
-0.62767 -4.3397 -0.1018 0 847
-0.58553 -4.8528 0 0 812
-0.48891 3.1293 -0.67322 0 13830
-0.4047 -4.5706 0.75386 0 774
-0.28736 -4.8225 0.56496 0 743
-0.19471 -3.1209 0.58915 0 749
0.062272 -3.8361 0.26828 0 672
0.14905 -4.8784 -0.11332 1 638
0.21968 4.0694 0.66956 0 14735
0.23734 4.154 -0.98587 2 14740
0.60116 3.9891 -1.2588 0 14936
0.60712 3.3608 -0.31862 0 14994
0.92841 -4.8994 0.23254 1 526
0.95607 -3.1547 -0.15373 0 439
1.1222 4.5964 -0.44142 0 15103
1.1892 -3.3844 0.25084 0 414
1.2395 -4.4574 0.65022 2 459
1.2949 2.9981 -0.30469 0 15327
1.2959 -3.7571 0.27791 0 418
1.3443 -3.6205 0.72765 0 408
1.3947 -4.0073 0.4962 0 416
1.4145 -2.8784 0.07446 0 287
2.1376 -4.022 0.10575 0 277
2.1736 -3.4812 0.47993 0 224
2.2583 2.662 0.32568 1 15862
2.3937 -2.4839 0.24122 0 26
2.4552 4.3096 0.34683 0 15500
2.4621 4.2904 -1.4184 0 15507
2.6787 2.4162 -0.42186 0 16415
2.827 3.914 0.33762 0 15674
2.9367 0.64944 0.49414 0 19736
3.0352 1.9892 0.084255 1 17356
3.0371 3.58 0.109 0 15860
3.0567 1.7119 0.24498 0 17839
3.0726 0.9084 -0.29893 2 19260
3.1216 -0.82243 -0.22573 0 21633
3.126 3.5796 -0.33232 0 15905
3.1415 -1.1378 0.62952 0 21867
3.2151 1.1253 0.55964 1 18917
3.2308 2.2952 0.55697 0 17128
3.265 -3.2332 0.21428 0 18
3.352 -2.124 -0.27749 1 22475
3.3707 1.965 -0.54834 2 17706
3.4145 -0.77387 0.5752 0 21571
3.4463 -1.8363 0.090661 0 22278
3.4628 -2.7891 0.73052 0 22732
3.6819 1.8566 -0.1923 0 18122
3.7323 0.11012 0.61346 1 20835
3.7452 2.88 -0.33037 0 16895
3.7494 -2.8948 0.2209 1 22711
3.7584 3.2926 -0.11601 0 16493
3.7728 -1.5813 -1.3823 2 22003
3.963 -2.5111 -0.43771 1 22474
4.054 1.3785 0 0 18971
4.1583 2.2362 0.44049 0 17961
4.215 -0.87748 -0.20077 0 21535
4.2288 -1.4767 0.84392 0 21832
4.2676 0.98369 -1.2558 0 19677
4.3833 -2.2867 -0.34571 1 22250
4.3874 -1.3071 0 0 21702
4.3897 0.77244 -0.31167 1 19990
4.4256 -2.0234 -0.6839 0 22111
4.5965 -0.19908 0.10682 0 21136
4.6324 -0.79933 0.21922 0 21472
4.6434 1.6699 0.46037 2 18859
4.6641 -1.201 0.33678 0 21624
4.6817 1.532 0.80931 0 19058
4.7312 -0.038811 -1.3567 0 20992
4.7644 1.2891 -1.2921 0 19443
4.8943 0.28563 0.57332 0 20696
-1.3291 1.7981 0 0 9576
-14.969 -0.65355 -1.3978 2 2132
-13.377 1.8752 -1.2602 1 2937
-13.301 -0.54121 -1.242 0 2147
-13.079 -2.4194 1.8694 0 1721
-12.304 -1.7599 1.4535 0 1796
-12.055 -2.2647 2.0152 0 1717
-11.779 5.3531 -0.90474 1 4687
-11.674 4.3531 -1.457 1 4167
-11.56 -1.7587 0.81769 0 1773
-11.417 6.1836 -0.90795 2 5264
-11.389 -8.1448 0.9791 1 1638
-11.378 -1.8306 1.0751 0 1755
-11.34 1.8224 1.6141 0 3037
-11.321 0.2925 1.3244 0 2444
-11.274 0.62044 1.5869 2 2563
-11.268 -7.9135 2.2622 0 1642
-11.227 -7.3135 0.93697 1 1687
-11.104 5.2395 -1.4359 2 4791
-11.053 0.86597 -1.2965 2 2653
-11.008 -1.2523 1.8203 0 1878
-10.984 0.89338 0.51391 1 2672
-10.91 0.66349 1.5362 0 2585
-10.848 5.7898 -1.4379 0 5211
-10.688 -0.90317 1.5075 0 1976
-10.62 0.58444 0.99227 0 2561
-10.568 9.151 -1.3042 1 7312
-10.538 -0.55044 0.49211 1 2101
-10.521 0.85577 1.2344 1 2674
-10.473 9.7252 -1.3334 0 7655
-10.443 1.6186 1.4853 1 3010
-10.387 8.7341 -0.94897 0 7175
-10.175 1.3377 1.2001 0 2904
-10.124 2.3316 0.72644 0 3375
-10.083 8.9963 -0.94492 0 7454
-10.005 9.568 -1.2916 1 7805
-9.9334 10.013 -0.65776 1 8080
-9.8624 -0.85939 1.8652 0 1968
-9.8163 0.79842 1.8556 1 2677
-9.7776 -8.9783 2.501 0 1450
-9.7314 3.1207 1.4363 2 3875
-9.7282 1.3067 1.3795 1 2918
-9.7206 9.0836 -1.2412 0 7683
-9.6842 2.6166 1.89 0 3589
-9.6733 3.3213 -0.95419 0 3996
-9.5745 8.3877 -0.89009 0 7369
-9.4654 -0.026432 1.7834 2 2316
-9.4078 0.7933 1.3269 0 2688
-9.3638 7.0331 1.6459 0 6649
-9.3418 3.4223 1.8745 0 4144
-9.2991 5.317 0.74905 0 5487
-9.2957 5.8267 1.8025 1 5876
-9.2937 10.096 -1.2802 1 8469
-9.2373 3.7208 1.6361 1 4376
-9.0543 4.7677 -0.4772 0 5164
-8.9187 -1.7288 1.2768 1 1710
-8.9031 -0.8557 1.4695 1 1934
-8.8799 -0.17981 1.6734 1 2238
-8.8115 -0.38472 1.0314 0 2141
-8.7894 8.2135 1.1223 0 7699
-8.767 -6.8225 1.5612 0 1607
-8.7223 12.023 -1.3858 0 9656
-8.6986 8.18 -1.3964 1 7712
-8.6286 -0.0994 1.2128 2 2276
-8.5703 1.3773 0.80983 2 3036
-8.5564 2.2336 1.2428 2 3537
-8.5192 3.7539 0.86854 0 4617
-8.5089 -0.050496 -0.79385 0 2294
-8.4446 -0.61569 1.5953 0 2024
-8.4319 1.9653 1.4224 2 3394
-8.3707 1.5983 0.99657 0 3178
-8.3689 6.5526 2.0026 0 6848
-8.3207 2.6683 0.81522 1 3871
-8.259 3.897 1.2835 0 4810
-8.2347 -10.681 2.2159 0 1139
-8.1345 6.0346 1.4235 2 6595
-8.0623 1.5147 1.1529 1 3165
-7.9912 -0.25672 0.74592 0 2187
-7.9727 -0.74381 0.37341 0 1942
-7.9061 -5.2827 1.5622 1 1676
-7.8973 -5.4399 0.4472 0 1651
-7.8744 0.664 -1.1106 0 2678
-7.8729 6.0564 1.6319 1 6759
-7.8187 -6.197 0.93078 0 1597
-7.7827 1.3457 0.92363 0 3091
-7.6798 4.662 0.62823 0 5731
-7.669 -6.0436 -0.68278 0 1598
-7.6553 -5.3087 -0.43444 0 1646
-7.6369 -4.9122 1.4918 1 1692
-7.6051 5.0509 1.4999 1 6115
-7.5828 -6.2664 1.1504 0 1565
-7.5739 -8.277 1.0467 0 1289
-7.4788 6.1432 0.67678 0 7069
-7.4406 -6.0771 1.81 0 1577
-7.3919 6.3267 0.90774 0 7272
-7.2958 7.7475 0.74416 0 8363
-7.2753 -6.6807 -0.22932 0 1445
-7.2549 -5.7832 0.43267 0 1591
-7.2478 6.276 1.5752 2 7332
-7.2413 8.6421 1.8524 0 8967
-7.2284 -9.96 1.1481 0 1116
-7.1565 4.3136 1.3728 1 5711
-7.1354 -4.915 0.80835 0 1652
-7.1033 -0.10415 -0.16494 0 2258
-7.0588 6.4072 1.1148 2 7552
-6.9994 5.8193 1.2793 0 7133
-6.9855 7.0813 1.8741 0 8131
-6.9766 4.373 0.57577 2 5868
-6.8909 4.8989 0.39428 0 6399
-6.8895 -1.1085 0.16201 0 1753
-6.8667 -7.0784 1.6202 0 1342
-6.8463 -8.2172 0.99785 0 1204
-6.8303 9.762 1.9574 0 9854
-6.8289 7.2087 0.69436 0 8333
-6.7888 5.1288 1.1958 0 6675
-6.7383 -6.5596 1.0997 0 1388
-6.6983 7.9461 1.7075 1 8937
-6.6756 -5.3539 1.4059 0 1589
-6.6426 -5.2347 0.5914 0 1599
-6.6329 7.0831 0.90532 1 8394
-6.6163 -7.4025 1.161 0 1268
-6.604 11.522 1.239 0 10734
-6.5295 -6.8903 1.3341 0 1324
-6.4429 0.20698 0.45077 0 2465
-6.4424 -8.6086 -0.50142 0 1126
-6.3703 2.6949 0.80887 1 4509
-6.3506 -4.8836 0.74741 0 1612
-6.3217 7.0308 0.8821 0 8604
-6.3159 4.8306 1.3064 1 6732
-6.3127 11.235 2.1173 0 10820
-6.2654 7.2611 0.67064 0 8810
-6.1946 10.053 1.1017 1 10429
-6.0135 5.6827 -0.19209 0 7751
-6.0062 -4.6187 1.4275 0 1613
-6.001 11.445 2.4348 0 11082
-5.9893 -0.052268 0.27931 0 2287
-5.9874 -4.6897 0.53182 0 1603
-5.9538 7.7255 1.1406 2 9377
-5.9209 8.4121 0.71933 0 9816
-5.9146 11.054 1.7619 2 11002
-5.9098 2.7257 -0.91465 1 4726
-5.8867 8.2103 1.6598 0 9737
-5.8755 -4.0745 0.166 0 1648
-5.8414 -5.179 1.4708 0 1496
-5.7494 10.381 1.1071 2 10870
-5.7257 -6.9532 1.4798 0 1194
-5.6903 -0.19871 0.26553 0 2174
-5.6831 -6.9015 0.41692 0 1191
-5.6706 -5.6469 1.3148 2 1374
-5.6572 8.4442 1.4285 1 10061
-5.6187 1.3096 0.81082 0 3393
-5.5904 10.448 2.2326 0 11005
-5.59 -0.40756 0.92084 0 2023
-5.5439 1.2088 0.39677 0 3309
-5.53 7.7585 0.44431 0 9757
-5.4877 -4.5624 -0.49904 1 1555
-5.4694 0.42853 -0.51183 0 2654
-5.4415 11.162 2.3396 0 11350
-5.3833 -12.482 1.5896 0 995
-5.3621 5.4356 0.53392 0 8122
-5.3597 7.5196 1.5171 0 9767
-5.3479 7.6433 1.0909 2 9850
-5.3128 -6.3766 -0.1927 1 1201
-5.2642 11.461 2.3762 0 11560
-5.2516 -5.1123 1.3809 0 1391
-5.2508 -4.1127 -0.46639 1 1601
-5.2427 10.589 1.6606 0 11294
-5.2084 2.5516 -0.40556 0 4911
-5.1923 -3.9455 1.2287 0 1617
-5.1649 11.97 2.4562 0 11768
-5.159 -5.4156 0.6978 0 1326
-5.1584 2.7729 0.13597 0 5248
-5.146 2.4281 0.39789 0 4804
-5.1219 -6.2577 1.1365 0 1186
-5.0615 2.6281 -0.66694 1 5109
-5.0308 -4.6733 0.32021 0 1433
-5.012 -3.6952 0.58095 2 1630
-5.0053 5.0456 0.66306 0 8092
-5.0017 0.5107 0.58795 2 2771
-4.9374 -3.4239 -0.1395 0 1647
-4.8829 7.5739 1.2665 2 10234
-4.8616 7.2567 0.61079 0 10055
-4.8129 1.4065 -0.4678 0 3693
-4.7611 3.7279 -0.99347 0 6819
-4.6947 11.821 1.4874 0 12017
-4.6756 7.8902 1.0725 1 10596
-4.6558 -4.5578 1.2276 0 1385
-4.6382 -8.7231 1.6232 0 1026
-4.6167 -11.229 0.56617 1 988
-4.5884 -4.9291 0.15635 0 1310
-4.571 13.919 -1.3668 2 12489
-4.5282 -3.676 -0.13541 0 1579
-4.4721 5.0602 -1.2724 0 8703
-4.4348 11.963 1.7931 0 12213
-4.3822 11.125 0.8361 1 12040
-4.3519 9.5495 -0.73384 0 11569
-4.3188 4.5305 0.29189 0 8300
-4.295 -3.4042 -0.12724 0 1594
-4.2108 -6.0925 -0.17195 0 1103
-4.1773 -4.1846 0.97143 1 1370
-3.9964 11.273 1.6809 0 12321
-3.995 3.7752 -0.38436 2 7747
-3.9926 -6.0002 1.3579 0 1093
-3.9774 13.699 2.6877 0 12794
-3.9705 -8.9095 1.3709 0 998
-3.8525 4.0668 -0.65509 0 8317
-3.8382 -11.785 1.1563 0 941
-3.8113 -7.3246 1.1604 0 1023
-3.8053 -3.3149 -0.11717 1 1513
-3.7547 -12.258 1.1961 0 935
-3.7324 -8.1259 1.4691 0 1003
-3.7206 -5.2861 0.45202 0 1108
-3.7146 4.3049 -1.0713 0 8817
-3.7023 -3.3606 0.94205 0 1461
-3.7003 -4.3111 0.53004 0 1227
-3.6946 8.7039 1.1058 0 11813
-3.6877 6.3899 0.86277 0 10707
-3.6665 3.8935 0.24941 0 8361
-3.6461 3.5494 0.2373 0 7906
-3.6138 -4.7147 0.13792 0 1133
-3.5881 13.687 2.6658 1 13002
-3.5527 4.8649 0 1 9635
-3.5296 6.0353 -0.65229 0 10636
-3.5219 13.757 1.9957 0 13052
-3.4464 4.5802 0 0 9485
-3.4339 7.8974 -0.19994 0 11731
-3.3686 -5.6847 0.46207 0 1054
-3.3306 -5.6928 1.0836 0 1051
-3.2651 9.3028 1.3856 0 12341
-3.2564 -11.093 0.26841 0 931
-3.2155 6.7932 1.416 0 11457
-3.1961 14.585 -1.393 1 13347
-3.1821 4.9987 -0.69296 0 10271
-3.178 -8.8032 1.7634 0 953
-3.1656 -3.9839 0.95872 0 1159
-3.1466 -9.3017 1.38 0 947
-3.1288 -5.1399 0.98861 1 1067
-3.0973 -7.3539 1.1215 0 993
-3.0748 5.7853 -1.3926 0 11030
-2.9762 -5.5598 0.14641 0 1027
-2.9503 6.233 -1.4658 0 11455
-2.9121 9.4132 0.22877 0 12644
-2.8675 -8.3138 -0.41012 0 948
-2.8657 -10.195 1.7399 0 928
-2.8559 -9.0467 1.5586 0 939
-2.8536 4.8155 -1.0546 0 10600
-2.8444 -4.4392 -0.24587 0 1084
-2.8149 -7.7212 0.76673 0 954
-2.8007 -5.4217 -0.14168 0 1021
-2.7804 -8.5369 0.41869 0 940
-2.6832 8.5882 0.2089 0 12619
-2.6702 -5.3556 0.13894 0 1017
-2.6304 13.482 2.5881 0 13549
-2.6117 -5.6861 -0.2918 0 1001
-2.5725 10.418 2.0219 0 13128
-2.5112 -7.9547 0.5833 0 938
-2.4964 -7.6019 0.37313 0 943
-2.4952 -6.4935 -0.32441 0 965
-2.4927 -7.5907 1.1228 0 944
-2.4531 -6.7288 1.1767 0 955
-2.3966 5.4701 0.55717 0 11711
-2.3789 -9.8859 1.429 0 917
-2.2581 6.812 0.50183 1 12475
-2.2314 -6.795 0 0 942
-2.1515 7.6594 -0.18471 0 12851
-2.1385 7.0608 1.0368 0 12698
-2.0727 -8.5027 -0.20319 0 918
-2.0296 6.5605 0.4802 0 12647
-1.9886 -9.06 1.5239 0 907
-1.9565 -9.1729 0.87504 0 904
-1.9511 -11.597 1.9322 0 884
-1.9484 11.005 1.5707 0 13681
-1.9237 -8.6557 1.2462 0 909
-1.9063 11.129 0.26214 0 13715
-1.883 8.4657 -0.40444 0 13325
-1.8674 -5.4141 0.53431 0 949
-1.8457 -5.3061 -0.26199 0 951
-1.8144 5.8651 -0.2863 0 12639
-1.7516 -7.6603 0 0 913
-1.7375 -10.704 0.50571 1 877
-1.6626 5.7867 0.84617 0 12815
-1.653 -5.8144 0.70689 0 930
-1.517 5.5227 1.0791 0 12912
-1.4881 5.7377 0.27643 0 13019
-1.4878 9.5229 0.67399 0 13824
-1.4573 6.5519 0 0 13328
-1.4069 9.5621 1.3583 0 13890
-1.3305 5.3886 -0.38813 2 13110
-1.3144 4.8446 -1.4394 0 12929
-1.2771 -10.067 0.94675 0 823
-1.2598 -9.3051 1.0981 0 834
-1.25 8.653 1.4364 0 13911
-1.1922 -6.3033 0.29916 0 895
-1.1578 9.8413 1.628 0 14080
-1.1531 7.3803 1.2273 1 13831
-1.1428 -10.22 1.6896 0 807
-1.1285 -6.8314 0.64597 0 882
-1.1271 -6.3594 0.90769 0 891
-1.0996 -7.9348 1.3161 0 838
-1.041 8.0482 1.529 0 14010
-1.0207 10.818 1.7853 0 14207
-1.0124 5.1131 0.24307 0 13517
-1.0116 5.3537 0.76573 1 13591
-1.0104 -6.5956 1.0963 1 866
-1.003 -12.576 2.377 0 767
-0.96426 11.294 0.26316 0 14243
-0.96068 11.252 1.0536 0 14248
-0.92565 -5.3202 0.25183 0 889
-0.8715 -6.1542 0.72687 0 845
-0.81762 12.024 0 0 14329
-0.75196 -8.4925 -0.19794 0 773
-0.72017 5.9686 -0.56088 1 14051
-0.65937 -4.9682 0.35046 0 830
-0.62127 -9.1132 0.85219 0 755
-0.52055 -5.3474 0.50124 0 783
-0.4992 -5.4432 0 0 776
-0.43717 -7.3368 1.0329 2 744
-0.42048 -8.3003 0.38757 0 732
-0.41328 -7.3006 0.6822 1 739
-0.40155 -9.541 0.22171 0 723
-0.37891 -6.359 -0.1479 0 741
-0.28315 -6.7278 1.1063 0 724
-0.27409 11.296 1.0541 0 14507
-0.26723 -8.0555 1.3242 0 714
-0.26163 12.087 -1.1279 0 14514
-0.24317 -8.8721 0.82804 0 709
-0.20361 -12.819 2.1063 0 698
-0.12053 -12.115 1.9905 0 692
-0.1079 8.4681 1.1902 0 14542
-0.10014 -6.3044 0.29403 0 697
-0.09942 7.8027 -1.0967 0 14535
-0.067959 -5.3337 1.005 0 694
0.011208 -8.0273 -0.37434 0 684
0.041364 9.1157 -1.4977 0 14579
0.052891 -11.655 1.6381 0 682
0.053659 -11.825 1.1032 0 681
0.10513 -6.4761 -0.30205 0 671
0.15317 6.0933 -1.4442 0 14653
0.29773 6.5565 -0.76752 0 14702
0.34056 5.4434 1.0276 0 14749
0.38562 -5.4195 0.89264 0 599
0.39052 -6.242 1.0275 2 613
0.41282 5.3286 -0.12408 0 14783
0.41785 -6.9716 0.16215 0 614
0.42061 6.7229 0 0 14746
0.43233 -7.6135 1.2529 0 618
0.4465 11.314 1.5913 0 14694
0.4572 -5.3112 0.49734 1 585
0.49749 -5.2531 0.12251 1 579
0.50286 -6.0646 0.28379 0 589
0.56564 -9.9613 -0.23164 0 617
0.58654 -9.7861 1.3778 0 615
0.64627 -12.67 -0.29454 0 621
0.67673 -5.4487 -0.12747 0 560
0.6933 7.3072 0 0 14822
0.79086 -11.541 2.1796 0 606
0.80072 -6.6168 0.62182 2 564
0.80162 -9.3123 1.5356 0 586
0.88703 6.9629 -1.492 1 14893
0.9774 6.2344 0.58875 0 14947
1.0029 6.655 -0.78704 0 14933
1.0399 5.3201 -0.37906 0 15031
1.057 -7.964 -0.18652 0 555
1.0954 6.6095 -0.46848 0 14965
1.1034 -6.2197 1.1902 0 533
1.1808 9.4937 -1.1188 0 14880
1.1813 11.731 -1.1 0 14835
1.1883 -6.1709 0.88319 0 523
1.1899 -6.818 0.48397 0 535
1.2015 -7.9819 0.1874 0 547
1.2282 -9.0486 -0.21201 0 553
1.2794 -10.572 1.7496 0 565
1.3264 -6.7856 0.97171 0 520
1.4184 7.2567 0.17167 0 15034
1.4211 -7.2704 0 0 519
1.4292 -7.9191 0.75075 0 531
1.4381 -6.6345 1.279 0 501
1.5222 7.3311 -0.69855 0 15053
1.5836 -6.4039 0.30764 0 479
1.5932 6.4376 -1.4096 0 15112
1.7698 8.6525 -0.20504 0 15051
1.8457 -8.0651 0.96754 0 490
1.8713 9.7086 0.22955 0 15027
1.8958 -6.5941 0.47979 0 452
2.0003 -8.3001 0.19822 0 482
2.0187 7.6839 -0.55554 0 15129
2.0855 5.982 1.0408 2 15235
2.1413 9.8705 0.9423 0 15073
2.1616 -5.0875 0.77686 0 367
2.2022 8.1846 0.19678 0 15140
2.2087 5.1507 0.39189 0 15322
2.2381 7.8621 0.76264 0 15159
2.2393 6.803 -0.16628 0 15208
2.2632 -7.7045 0 0 445
2.2681 -5.8504 -0.43877 0 398
2.3598 -4.5004 -0.35534 0 279
2.3947 -5.3359 0.54565 0 335
2.4133 7.6308 -1.1248 0 15194
2.417 -7.8861 0.76952 0 436
2.443 6.4617 0.97087 0 15270
2.5194 -4.4223 0.3559 0 248
2.5394 12.05 2.0233 0 15063
2.5426 5.7431 0.58596 1 15339
2.5621 -7.1596 0.88925 0 412
2.6258 7.825 0.19163 0 15220
2.6381 -7.4374 0.36801 0 413
2.6668 11.057 2.143 0 15101
2.6814 4.3467 0.59725 0 15576
2.686 4.5562 -0.49344 1 15531
2.7225 9.8976 0.23833 0 15149
2.7318 6.9244 0.52052 0 15286
2.7556 4.6465 0.25192 0 15543
2.7757 12.287 0.29246 1 15084
2.7766 9.2372 0.44981 0 15179
2.8101 8.5369 1.4766 1 15211
2.8671 4.3301 -0.36315 0 15614
2.9133 5.8329 0 0 15391
2.9213 4.0955 0.707 0 15663
2.9221 -8.8046 1.0848 0 422
2.9462 -5.0357 0.68227 0 245
2.9614 -5.5719 0 0 276
2.9707 4.3778 0.12283 0 15625
3.0233 -6.8386 0.87438 1 343
3.028 -4.1478 0.35911 0 151
3.0325 8.2332 0.81856 0 15256
3.0342 -8.1025 1.4215 0 406
3.0875 -7.9642 0.19831 0 399
3.1401 5.0565 0.97791 0 15582
3.2019 4.5457 -0.65021 2 15651
3.2683 5.4718 -1.3548 0 15549
3.2961 9.5456 1.6591 0 15230
3.2981 -5.4933 1.2072 0 240
3.3418 -7.7447 1.3858 1 357
3.3708 -8.1985 -0.41338 1 380
3.4078 -4.501 -0.5267 0 127
3.413 -7.2662 0.18638 0 310
3.4257 10.109 -0.74639 0 15224
3.4308 -9.764 1.7003 0 415
3.4397 -6.2079 1.3372 0 261
3.4487 -4.2135 0.63674 0 89
3.4493 6.479 0.17041 0 15453
3.4618 -6.6529 0.52443 0 280
3.4646 -4.9831 -0.4244 0 184
3.5047 3.74 -1.0895 1 16027
3.5091 -5.7693 0.3149 0 233
3.5135 5.1121 -0.57872 0 15632
3.5624 6.4667 1.213 0 15469
3.5786 -5.3761 -0.4516 2 198
3.5872 8.2342 1.4756 0 15333
3.6091 -4.8809 0.85313 0 144
3.621 7.4175 -0.77007 0 15368
3.6232 4.782 0.98569 0 15725
3.6279 5.1812 0.29497 0 15647
3.6338 5.8516 0.64263 0 15581
3.6343 -8.0303 -0.41105 0 330
3.6531 9.4133 0.23443 0 15280
3.7461 7.6197 0.39596 0 15374
3.7691 5.9923 -1.1631 1 15586
3.7777 -7.0101 1.3083 2 275
3.8241 3.5936 0.98871 0 16326
3.8286 5.2081 -0.75591 0 15686
3.8301 -7.7941 0.8102 0 289
3.831 -8.8064 1.3497 0 353
3.8711 -5.3028 0.61253 0 152
3.877 -8.6388 0.66213 0 334
3.8802 7.6615 0 1 15414
3.89 -3.8522 0.89944 1 19
3.8999 -10.503 1.5746 0 407
3.9207 -6.2793 1.2162 1 225
3.9642 8.6905 1.5693 0 15349
3.9673 -7.015 0.94245 0 251
3.99 -6.0328 1.0165 0 203
4.0051 -7.2284 0.57786 0 260
4.0233 -5.0058 -0.75103 0 99
4.0466 6.3494 -0.70245 0 15593
4.0481 -5.4132 1.1105 0 137
4.0715 4.123 -0.67762 1 16141
4.1317 3.6605 0.9069 1 16470
4.1586 -12.057 0 0 417
4.1818 -7.6477 1.225 0 268
4.1924 7.4556 1.6116 0 15485
4.1928 6.4146 0.53587 0 15608
4.2147 -3.1968 0.61862 2 22700
4.2264 4.2073 -0.2781 0 16175
4.2584 -3.8356 0.53469 0 22745
4.2784 6.1834 1.2354 0 15638
4.314 -5.6261 -0.82908 0 124
4.328 8.4832 0.22111 0 15424
4.3471 -4.7524 -0.90518 0 42
4.3633 -7.6127 0.40919 0 247
4.4011 -2.9153 -0.49251 0 22536
4.4439 6.1911 0.71099 0 15669
4.465 -5.3005 0.3232 0 78
4.4681 -5.459 -1.4995 0 91
4.4714 7.8488 1.7019 0 15501
4.4824 6.6856 0.94129 0 15620
4.4904 4.1465 0 1 16355
4.5066 -4.3338 0.14516 0 10
4.5069 -5.2825 1.3083 0 75
4.5099 5.9524 -0.17338 0 15722
4.526 4.5562 -0.59915 0 16152
4.5498 -3.8408 -0.97824 0 22736
4.5555 3.0221 -0.89815 0 17315
4.5999 5.2341 0.16178 0 15913
4.6059 -5.2743 0.81886 0 62
4.6535 4.5507 1.0693 1 16224
4.6608 -7.763 0.84476 0 238
4.69 6.9505 -0.98054 0 15621
4.7079 2.1217 -1.4807 0 18437
4.7278 3.3798 0.27102 0 17104
4.7599 -2.9397 0.12989 0 22447
4.7719 -3.8436 -0.28574 0 22731
4.7788 1.5178 0 2 19115
4.8541 6.2174 0.18313 0 15760
4.8704 -2.8369 -0.92603 0 22378
4.879 -7.0174 0.79738 0 185
4.8838 -6.4904 0.94988 0 132
4.9062 -3.5685 0.99672 0 22654
4.9423 -4.5384 1.2642 0 5
4.976 1.7095 0.86443 0 18958
5.0068 -2.3753 0.91047 1 22158
5.0242 6.7503 0.39242 0 15700
5.0273 -2.4934 0.52354 1 22204
5.0406 12.248 2.176 0 15310
5.0484 1.6364 0.49511 0 19078
5.0542 -0.76708 0.96316 0 21430
5.0593 2.1402 1.035 1 18572
5.064 -2.6982 -0.40124 0 22275
5.0919 1.3453 0.12227 0 19479
5.0924 -3.0853 0.55549 0 22423
5.0951 9.6393 0.25314 0 15449
5.0981 -11.176 1.4366 0 327
5.1212 12.041 1.2208 0 15318
5.1213 -3.9326 -0.30112 0 22707
5.1342 1.8636 0 0 18838
5.1623 9.3015 0.74388 0 15476
5.1782 -3.4092 -0.72501 0 22526
5.1986 -2.3582 -1.2134 2 22108
5.258 -5.5836 -0.35767 0 33
5.2911 0.35515 -0.37083 0 20638
5.2978 -3.5559 0.74615 0 22554
5.2988 -2.7831 -0.84116 1 22256
5.3134 -2.7132 0.98018 0 22232
5.3836 -4.8 0.67291 0 1
5.3979 4.9532 -0.34164 0 16369
5.4001 -8.4797 1.4129 0 221
5.4218 -0.98238 0.90528 1 21491
5.4898 -5.1014 1.412 0 7
5.4977 6.8745 -0.41049 0 15785
5.5143 -4.2343 0.32422 0 22708
5.5369 5.0523 1.2315 0 16395
5.549 9.8038 1.5832 0 15493
5.5717 -2.9066 0.1459 0 22253
5.5862 7.8839 0.67566 0 15658
5.601 5.7056 -0.74592 0 16131
5.6153 -8.8177 1.7175 0 223
5.6354 10.743 1.4187 0 15444
5.6381 -3.3251 0.61067 2 22399
5.6487 2.7258 0 0 18257
5.7201 0.92134 0.40515 0 20085
5.7341 -1.9465 1.1409 0 21808
5.7592 -10.183 1.9221 0 252
5.7612 4.4576 -1.1968 1 16873
5.7792 -6.2454 0.79385 1 40
5.8599 1.5855 0.99737 0 19446
5.8636 2.0144 0 0 18951
5.8695 -7.3447 1.5447 0 106
5.896 -7.1194 0.86241 0 85
5.9035 0.34453 0.27577 0 20695
5.9125 -0.048502 0.97143 0 20996
5.9254 -1.7271 0.72176 0 21692
5.9395 -8.1361 -0.7044 0 149
5.964 3.2261 -0.31621 0 17934
5.9642 4.237 0 0 17120
5.9693 1.3037 0 0 19749
6.0039 -1.6189 0.14437 0 21647
6.0217 8.0406 0.70245 0 15709
6.0334 -2.9063 -0.62479 0 22168
6.0443 3.9855 0.16809 1 17337
6.0976 6.7389 1.7123 0 15967
6.1148 -3.8746 1.1893 0 22480
6.1244 -1.092 0.58039 0 21486
6.154 -6.9656 -1.3063 0 54
6.1811 1.071 -0.29254 0 20010
6.2144 -0.52184 -0.14479 1 21266
6.2207 5.3545 0.19056 0 16541
6.2498 -9.5725 1.3369 0 211
6.2835 -2.9621 0.81236 0 22148
6.2863 -5.6622 0.98937 0 22746
6.3162 -6.905 1.3152 0 44
6.3298 6.6377 0.42773 0 16063
6.3332 -5.2244 1.3488 2 22733
6.3499 -4.3121 0.35795 0 22566
6.3785 -2.501 0.47909 0 21931
6.4002 2.2175 0.95194 0 18937
6.5339 1.2488 -0.15444 0 19906
6.5622 2.5558 -0.32841 0 18716
6.5877 13.007 2.3955 0 15420
6.5968 -4.3432 1.2976 0 22532
6.604 3.0013 0 0 18410
6.6406 2.2813 0.65507 0 18955
6.6464 5.6226 -0.20212 0 16592
6.6632 -3.2096 0.51717 0 22174
6.6693 -1.7771 0.64393 1 21641
6.7362 -4.2158 -0.55568 0 22461
6.8152 -0.68986 0 0 21312
6.8159 -6.2939 0.64874 0 6
6.816 5.3694 1.0147 0 16833
6.8252 -1.4209 0.97978 0 21538
6.8904 -0.15877 0.96864 0 21060
6.8975 2.4805 0.17018 0 18857
6.9025 5.2127 0.20082 0 16949
6.9081 -7.1262 1.6306 0 24
6.9244 5.9918 1.7252 0 16535
6.93 10.213 1.4433 0 15626
6.9315 8.4627 -0.25397 0 15816
6.9423 2.9855 1.4238 0 18540
6.9506 7.4614 -0.23675 0 16013
6.9906 8.8995 1.5905 0 15766
6.9978 -4.019 0.18736 0 22368
7.032 -7.1284 0.46695 1 22
7.0434 2.9796 -0.35664 2 18563
7.1017 -0.45178 1.0001 0 21201
7.1198 2.9666 0.53936 0 18597
7.1199 7.0065 0.46583 1 16202
7.1269 -6.51 1.5859 0 4
7.1328 -0.99737 -0.33587 0 21402
7.1885 -6.5273 1.1355 0 3
7.2065 5.8461 1.5246 0 16745
7.2386 -0.7787 1.1961 0 21328
7.2427 -5.4281 -1.272 0 22685
7.2688 3.561 0.566 0 18216
7.2713 10.008 -0.28721 0 15679
7.2866 -0.23026 -0.50978 0 21093
7.3087 -5.7143 -0.64874 0 22719
7.3168 -9.1035 1.9189 0 103
7.3605 3.0669 -0.18513 0 18593
7.4083 5.3293 0 0 17084
7.4322 3.1441 0.18736 0 18567
7.5743 3.4136 0 0 18430
7.5968 2.1025 1.295 0 19402
7.6039 3.8627 -0.39773 0 18101
7.6074 -8.4134 1.3264 0 47
7.6091 8.7563 1.9059 0 15900
7.616 1.4556 1.0897 1 19913
7.7068 -7.7203 1.0177 0 20
7.7391 -1.5661 0 0 21525
7.7511 3.1505 0.39018 0 18643
7.8072 -4.1285 1.451 0 22270
7.9033 0.32434 0 0 20780
7.9037 -1.9136 0 0 21598
7.9063 -3.8084 -1.2334 0 22166
7.9594 -0.69076 0.37257 0 21274
7.9693 -9.5684 0.58071 1 82
8.0726 -2.1766 1.5753 0 21651
8.0741 -4.0344 -0.63116 0 22207
8.1014 0.44869 -0.18838 0 20709
8.1276 -6.0163 0.94341 0 22675
8.1532 -4.6524 0.87579 0 22361
8.1628 -4.9455 1.568 0 22425
8.3164 -0.67497 -0.19372 0 21257
8.3224 1.3658 0.19581 0 20066
8.3718 -3.9466 0.6472 0 22147
8.3992 -1.4704 0.79553 0 21479
8.4115 -0.65609 1.1858 0 21249
8.4488 1.7912 -0.40276 0 19782
8.4551 -1.8652 0.80779 0 21556
8.4946 12.277 2.0982 0 15637
8.4961 0.91697 1.404 0 20405
8.7137 -7.6203 1.08 0 22743
8.9156 -0.12605 1.4649 0 21025
9.0696 3.9323 -0.22951 0 18514
9.1501 -5.691 1.7704 0 22457
9.1711 -5.6288 1.2584 0 22440
9.2386 -7.846 0.28141 1 22739
9.2961 -0.53601 0.21619 0 21182
9.3225 -5.2809 1.7603 0 22353
9.3291 8.4651 0.88088 1 16403
9.413 -1.6784 0.22199 0 21485
9.4297 -2.3406 0.90644 0 21607
9.4881 6.4191 -0.53422 0 17264
9.5022 0.99872 0.89139 1 20422
9.5787 2.7394 0.92948 1 19336
9.6367 0.25571 0.89938 0 20845
9.6566 8.3119 2.0933 1 16552
9.6626 2.1988 1.8671 0 19700
9.6684 1.6752 1.6121 0 20019
9.7062 1.4194 0.91517 0 20173
9.7611 6.8933 2.2514 1 17147
9.833 -4.085 0.99339 0 21994
9.8639 -4.2685 1.7658 0 22047
9.876 9.0624 1.2505 0 16374
9.8911 8.8188 0.92664 1 16449
9.8914 7.2473 2.3103 1 17041
9.8943 9.1815 1.5785 0 16345
9.9263 9.2112 2.5514 0 16351
9.9598 2.2957 1.6792 0 19680
9.9848 9.4885 1.6108 0 16293
10.017 8.9309 2.2048 1 16455
10.089 9.2575 2.2496 1 16379
10.283 9.4363 1.9615 2 16377
10.302 6.8342 0.28702 1 17322
10.393 -1.7001 -0.2445 0 21453
10.42 -1.3016 0.24381 0 21369
10.483 0.034766 1.9752 0 20949
10.483 6.3585 2.31 2 17592
10.532 6.3887 1.1493 1 17587
10.571 5.8425 1.4124 0 17884
10.584 -5.7588 1.1242 0 22306
10.683 8.2657 0.6299 1 16879
10.695 3.5681 0.78839 0 19012
10.763 10.05 1.7221 0 16333
10.768 7.8463 2.189 1 17059
10.795 10.319 1.0443 1 16271
10.801 8.0095 0.31219 1 16997
10.841 8.2407 2.2373 2 16941
10.849 -3.861 1.8919 0 21848
11.028 -0.28301 2.0785 0 21075
11.054 6.1499 2.3833 1 17866
11.088 2.4217 0.52928 1 19752
11.161 6.5955 0.90656 1 17676
11.235 9.1698 0.6763 1 16717
11.292 6.6276 1.8401 2 17701
11.365 6.1912 1.5134 0 17924
11.442 8.1286 0.98147 1 17123
11.504 8.8465 0.67676 1 16899
11.533 2.7604 1.3868 0 19619
11.559 6.7842 1.5673 2 17700
11.638 -0.53456 1.914 0 21149
11.646 1.292 2.2078 0 20390
11.655 0.88246 0 0 20592
11.684 6.4577 0.62254 2 17878
11.686 -2.0164 1.1063 0 21473
11.699 0.95777 1.9286 0 20563
11.808 -2.2802 1.6901 0 21512
11.839 8.2591 1.3467 0 17180
11.873 7.7816 2.6747 1 17369
11.896 9.0429 2.8154 0 16943
11.924 -2.4498 1.9999 0 21531
12.057 1.3738 1.9938 0 20371
12.06 6.7541 2.6043 0 17845
12.125 -2.3831 2.3281 0 21516
12.137 6.7084 1.949 2 17885
12.18 1.5301 0.85842 1 20296
12.194 -4.3396 1.819 0 21846
12.277 5.4047 1.8852 0 18489
12.281 -2.4473 0.29074 1 21520
12.291 -1.7515 1.4519 0 21410
12.336 -1.6153 2.044 0 21382
12.336 3.2224 2.4022 0 19504
12.402 1.2291 0.58117 1 20455
12.418 7.7839 2.7614 0 17500
12.512 0.8047 0.8767 1 20661
12.566 7.981 1.7409 1 17457
12.593 7.9979 2.4509 0 17461
12.665 7.8862 2.0968 1 17517
12.783 5.3261 1.9462 0 18600
12.811 -3.9802 1.5687 0 21741
12.818 5.2546 1.6201 0 18630
12.951 6.44 1.6914 0 18173
13.036 -5.9134 1.674 0 22107
13.104 5.4602 1.3245 0 18598
13.143 5.209 1.6533 0 18692
13.234 6.581 0.34315 1 18166
13.307 6.6609 1.3884 1 18148
13.313 6.7135 1.7437 1 18129
13.363 6.5004 2.7999 0 18247
13.37 5.9358 0.33962 1 18468
13.43 5.9625 0.68524 1 18470
13.828 1.818 2.2914 0 20265
14.028 -4.5795 2.4244 0 21776
14.32 -2.3834 2.7351 0 21460
-14.972 -0.65367 -1.7525 1 2131
-13.356 1.5193 -1.8891 0 2812
-11.078 9.8218 -1.7313 1 7422
-8.9531 9.2293 -1.5037 1 8196
-7.8497 -8.1429 -1.8582 0 1331
-6.4292 11.846 -1.5762 1 10933
-5.3454 3.5933 -1.6861 2 6163
-4.2848 4.2195 -1.7244 2 7968
1.9832 8.6593 -1.8883 0 15089
2.0903 7.1116 -1.5756 0 15173
3.2056 5.5478 -1.9993 0 15512
3.2131 4.4224 -1.8471 0 15680
3.3779 10.166 -1.5056 0 15212
4.1224 -6.4734 -1.6313 0 222
4.6053 1.6426 -1.5257 0 18874
5.3258 -7.5191 -1.9585 0 174
6.1245 -0.08659 -1.7564 0 21020
6.6855 2.4267 -1.8619 1 18843
6.7663 10.552 -1.7617 0 15595
7.5867 7.1694 -1.9667 2 16313
7.6348 5.0342 -1.723 0 17349
8.2605 -7.0153 -1.5231 0 22737
8.5876 6.2164 -1.9974 2 17078
9.7546 5.4628 -1.8368 0 17826
10.75 -7.6737 -1.5446 0 22625
