VERSION .7
FIELDS x y z intensity index
SIZE 8 8 8 8 8
TYPE F F F F F
COUNT 1 1 1 1 1
WIDTH 896
HEIGHT 1
VIEWPOINT 0 0 0 1 0 0 0
POINTS 896
DATA ascii
-4.5809 1.0812 0.10928 1 3016
-4.2888 1.725 0.32325 0 3939
-4.2423 -0.7947 0.70912 0 1564
-4.2058 -0.21821 0.1964 1 1915
-4.1773 -0.64519 -0.098135 0 1594
-4.0343 2.4452 0.44012 0 5204
-3.9299 -0.59645 0.092286 0 1601
-3.81 -0.40919 0.44811 0 1733
-3.6309 -2.5114 -0.1025 1 1521
-3.5449 -3.3983 0.229 0 1383
-3.4661 -2.3238 0.58648 0 1537
-3.4225 2.384 -0.5862 0 5785
-3.4023 -0.4051 0.48154 2 1698
-3.2455 0.39735 0.38237 0 2543
-3.1953 1.1579 -0.47764 0 3690
-3.1064 -2.6513 -0.28558 1 1413
-3.0884 0.036116 0.28815 2 2141
-2.9729 0.78381 0.21499 1 3156
-2.9311 -3.2484 0.71884 2 1372
-2.7982 -3.5507 -0.10496 0 1342
-2.7891 -3.3762 0.20422 0 1355
-2.7846 2.6731 0 2 7341
-2.7269 1.7279 0.4537 0 5391
-2.7096 -4.0277 0.68223 0 1324
-2.7025 3.9 0.22127 0 9378
-2.65 3.6181 -0.10412 0 9125
-2.5487 3.5416 0.30511 0 9218
-2.3743 2.2912 0.38585 0 7380
-2.0214 -2.8955 0.49629 0 1329
-1.9653 3.7338 0.19677 0 10547
-1.846 3.2936 -0.35225 0 10281
-1.7982 -3.4869 0.4588 0 1257
-1.7207 3.1132 -0.082584 0 10348
-1.4123 3.2295 0.57909 1 11276
-1.276 3.5134 -0.61411 0 11877
-1.0796 3.2952 0.56969 1 12196
-0.78887 -3.2808 -0.15736 0 1022
-0.19788 -4.7018 0.55032 0 840
-0.15348 -3.6468 0 1 838
-0.15045 -4.9243 0.22975 0 827
-0.12902 3.9099 0 0 14580
0.049823 -3.8574 0.45113 0 785
0.16956 4.2964 0.60429 0 15066
0.16989 3.5241 -0.16453 0 15110
0.17653 4.1597 -0.19416 0 15075
0.28667 3.2312 0.30264 0 15361
0.47759 4.0473 -0.66956 0 15554
0.70555 -3.41 -0.16239 0 593
0.71201 4.6368 0.77072 0 15765
0.73882 4.5415 -0.97802 1 15815
0.92682 3.6574 -0.087598 0 16200
0.93679 4.7182 -0.33637 0 15999
1.0289 3.7844 0.18289 0 16245
1.1537 -4.7398 0.9191 1 545
1.425 -2.6688 0.3538 0 302
1.446 -3.4131 0.43347 0 411
1.5092 -3.0337 0.6384 0 330
1.5378 -4.3887 0.65356 0 455
1.7115 -2.9323 0.31676 0 280
1.7377 -3.4445 0 2 319
1.8875 -3.3456 0.35838 0 285
1.9326 -2.4106 0.58212 0 194
2.0136 2.4228 -0.29391 0 16898
2.104 -3.7539 -0.20068 0 288
2.1138 -3.6014 0.38959 0 279
2.1481 -2.411 0.074971 0 169
2.1691 -4.121 -0.21717 0 306
2.3703 -3.9841 0.76164 0 276
2.4274 -2.6621 -0.50631 0 166
2.4904 -3.6811 0.73019 0 238
2.5283 -1.7888 0.071907 0 22549
2.6437 -2.1424 0.39793 0 71
2.6651 -4.2239 -1.0616 0 265
2.7183 -2.5633 0.70395 0 135
2.7472 -2.4305 0.17105 0 106
2.768 -3.5569 -0.31516 0 199
2.8018 -4.092 0.69698 1 235
2.8436 -1.1982 0.58138 0 21777
2.8559 2.494 0.35373 0 17074
2.8621 1.161 -0.28815 2 18502
2.8744 -1.7149 0.07771 0 22356
2.8824 -2.7816 0.1868 1 140
2.8888 1.0566 0 1 18703
2.891 -3.6501 0.54451 0 196
2.9603 3.8468 0 0 16851
3.0163 -2.7795 0.57646 0 130
3.0224 1.4892 0.31435 1 18098
3.0534 1.5706 -0.2401 0 17999
3.0627 -3.4789 0.21615 0 171
3.1432 0.58142 0.14907 0 19785
3.1477 -1.3922 0.56548 0 21859
3.1579 -2.087 0.62189 1 22470
3.174 -3.5624 -0.44514 0 168
3.1832 -2.3572 0.091961 0 3
3.2013 0.074883 -0.22392 0 20685
3.2514 0.84752 0 0 19287
3.2764 0.71317 -0.71272 0 19563
3.3125 -3.5485 0.68223 0 164
3.3517 -1.7321 -0.26382 1 22148
3.4116 -3.1992 0.2181 0 134
3.4795 0.42599 0.24512 0 20141
3.4927 2.1011 -0.57284 0 17623
3.5435 3.3592 0.11336 0 17022
3.5464 -2.4796 -0.2018 0 22531
3.599 -0.42724 -0.33813 2 21204
3.6031 0.032073 -0.25196 1 20748
3.687 2.8445 0.10812 0 17180
3.7009 -2.5712 0.42043 0 22526
3.7852 2.3515 0.62628 1 17540
3.8759 -1.6733 0.29521 1 21817
3.9046 -3.0156 -0.69336 0 41
3.9129 -0.74359 0.092472 0 21359
3.9385 -1.1711 -0.095396 1 21491
4.0462 -0.16322 -1.0601 0 20961
4.0699 2.7462 0.69002 0 17362
4.1249 -2.3328 0.22099 0 22292
4.1446 0.99121 0.39758 2 19422
4.2364 -0.70361 0.80911 0 21321
4.2371 -1.2857 0.5178 0 21502
4.2932 0.71535 0.50897 0 19899
4.5149 0.11981 0.85096 0 20679
4.5705 1.8373 0.80931 1 18530
4.5868 1.9849 -0.34948 1 18347
4.5909 -0.025641 -0.2141 0 20813
4.6919 1.2677 -0.33985 0 19232
4.7525 0.63834 0.44737 0 20080
-2.7754 -0.38809 0.46042 0 1637
-2.4714 -1.6771 -0.20885 0 1530
0.97758 2.2312 -1.2236 0 16477
1.0276 -2.3678 0.12037 0 396
1.8777 0.74191 -0.3317 0 18546
2.1713 -0.97491 0.44844 0 21890
-14.953 -0.29755 0.69745 1 2034
-14.923 -0.42987 2.0982 0 2000
-14.808 -0.59992 0.34408 1 1955
-14.707 0.81196 1.7225 0 2279
-14.585 -1.1428 2.4036 2 1830
-14.291 -2.0364 1.3467 0 1626
-13.961 -1.6623 2.3099 1 1699
-13.726 -1.3918 1.6133 2 1750
-13.652 -1.4662 1.281 1 1732
-13.598 -1.4196 2.5758 1 1744
-13.505 -0.82127 2.5492 2 1888
-13.417 0.27167 1.252 1 2170
-13.292 0.076555 2.1838 0 2123
-13.276 0.0023149 0.92832 1 2102
-13.262 -2.1694 1.5715 0 1579
-13.232 -1.6551 1.8741 1 1677
-13.159 -1.7582 0.30824 2 1646
-13.058 -1.7122 0.92092 2 1656
-12.761 -1.8594 0.60139 2 1614
-12.716 0.1154 2.3959 0 2133
-12.678 -0.69547 2.3922 1 1909
-12.639 -1.6572 1.7914 1 1659
-12.615 -1.208 1.1823 2 1768
-12.446 -0.57607 1.7511 0 1940
-12.297 -1.2838 1.1535 1 1741
-12.259 -0.31886 1.1441 0 2010
-12.165 3.859 1.7937 0 3451
-12.104 3.1169 1.7566 0 3128
-12.056 2.9545 0.57885 1 3059
-11.781 -1.3006 1.1058 1 1724
-11.723 -0.64312 1.0954 0 1906
-11.65 0.27048 2.1955 0 2181
-11.641 1.5967 1.3741 0 2600
-11.545 3.9955 1.4287 0 3608
-11.514 1.377 0.81085 0 2530
-11.354 8.1076 -1.3016 0 5905
-11.228 2.3109 1.6111 2 2887
-11.178 1.5988 2.1274 2 2628
-11.166 4.2685 1.6801 0 3822
-11.157 2.9083 1.0757 0 3141
-11.056 1.1581 1.3 0 2472
-10.998 4.1668 2.2159 1 3804
-10.916 2.8455 1.5855 2 3143
-10.914 2.5417 1.5749 2 3005
-10.896 1.7219 1.5504 1 2686
-10.798 4.3079 1.0846 0 3919
-10.764 0.62441 1.5153 0 2288
-10.755 1.5058 1.27 2 2613
-10.71 2.4294 1.0246 2 2974
-10.709 3.809 2.1415 0 3669
-10.696 1.7822 2.043 1 2726
-10.651 0.95996 0.49872 1 2405
-10.628 4.1352 0.79746 0 3857
-10.567 3.2509 0.51559 1 3391
-10.56 1.0448 0.99004 0 2446
-10.326 0.41834 1.4524 0 2233
-10.174 0.94741 1.9252 1 2424
-10.154 -1.5683 1.688 0 1599
-9.9776 -0.31879 0.93133 0 1989
-9.6979 0.62033 1.5966 2 2311
-9.6926 2.9818 1.1859 2 3395
-9.6226 -0.80803 -0.67524 0 1804
-9.6085 1.3743 0.67873 2 2624
-9.5318 4.8714 1.7587 0 4587
-9.3441 4.9454 0.98633 2 4700
-9.3184 2.3995 1.1253 1 3127
-9.2142 2.6022 0.66952 0 3250
-9.1483 11.828 -1.3951 2 8849
-9.1435 2.9286 1.8089 1 3472
-8.9671 -0.98998 -0.20945 0 1720
-8.9537 -0.5445 -0.41832 0 1883
-8.935 -6.2936 0.25374 0 1514
-8.8845 -1.7157 1.4866 1 1563
-8.848 6.3955 0.76341 0 5975
-8.8293 -1.3117 0.62418 0 1608
-8.7615 6.8084 1.0352 0 6317
-8.7505 1.8791 0 0 2916
-8.7345 6.1569 0.49835 1 5860
-8.6998 6.9674 2.1 0 6474
-8.6973 -6.6713 0.76648 0 1480
-8.6847 -7.2796 1.8618 0 1423
-8.6347 6.315 0.99803 0 6032
-8.5758 -6.2261 1.9967 0 1505
-8.3588 -1.4649 1.3942 0 1565
-8.2657 4.531 1.776 2 4826
-8.2462 -1.3238 0.77918 0 1586
-8.2132 -8.8416 1.4112 0 1374
-8.2091 4.6843 1.1053 0 4974
-8.1735 7.1857 1.5295 0 6927
-8.1342 -0.21158 1.3368 0 2012
-8.1261 7.3116 0.76439 0 7031
-8.1251 7.4871 1.2921 1 7146
-8.0699 7.8778 2.1248 1 7448
-8.068 5.1478 0.89288 0 5414
-8.065 3.3786 1.2289 1 4049
-8.0596 7.8239 0.78546 0 7407
-7.9879 -0.29989 0.93478 0 1967
-7.9303 0.30188 1.1153 1 2222
-7.9247 7.1305 2.0085 2 7041
-7.9043 7.3657 0.50385 1 7197
-7.8773 1.8114 0.7541 2 2989
-7.8493 4.2423 1.4659 2 4778
-7.8423 3.7507 1.6379 2 4402
-7.8115 10.221 -0.5999 0 8913
-7.8027 10.15 -0.89525 1 8880
-7.7876 -9.71 2.045 0 1347
-7.7603 -7.2265 0.9893 0 1391
-7.7065 -0.75971 1.0883 0 1760
-7.6904 4.9694 0.85423 1 5469
-7.6891 7.6865 0.50701 1 7551
-7.5815 8.1701 0.51978 2 7935
-7.5743 8.3066 1.3146 0 8028
-7.5609 7.0088 1.2056 1 7175
-7.4412 4.1332 0.99541 0 4870
-7.3219 7.8904 1.5128 1 7942
-7.1986 -8.4583 0.77667 0 1364
-7.1956 6.1457 0.66171 2 6779
-7.144 4.7321 1.4079 2 5580
-7.1038 8.4991 0.77458 0 8467
-7.0303 2.8747 -1.0675 0 3974
-7.0257 8.5108 1.8132 0 8535
-7.0239 7.7899 1.4741 0 8092
-7.0191 0.26719 0.82142 0 2221
-7.0107 -6.0858 0.86612 0 1408
-7.0091 -5.0607 1.011 0 1507
-6.8962 9.0231 1.0595 0 8925
-6.8729 5.5339 1.0319 1 6496
-6.8693 8.4678 1.2751 2 8625
-6.8496 -4.648 -0.19219 0 1531
-6.8318 8.1303 1.7447 0 8444
-6.8123 -5.6437 0.6186 0 1429
-6.7505 7.3155 1.1641 0 7969
-6.7481 4.6691 1.3482 2 5781
-6.7452 -6.0309 0.42195 0 1401
-6.7012 6.0296 1.0542 1 7035
-6.6305 -5.7274 0.20342 0 1410
-6.624 3.9346 1.4516 0 5131
-6.5682 -4.4037 0.1836 0 1536
-6.5253 -6.9027 0.88619 0 1376
-6.5084 5.6917 1.4205 1 6900
-6.4757 3.1444 0.67161 1 4435
-6.4649 6.1693 1.2559 0 7323
-6.4588 1.8435 -0.31323 0 3263
-6.4577 -5.8064 0.8102 0 1399
-6.4547 -8.5409 2.017 0 1335
-6.406 -8.3757 1.7324 0 1338
-6.3587 1.4423 0.15138 0 2972
-6.3441 -5.3479 0.97032 1 1418
-6.3108 2.5612 1.119 0 3970
-6.2835 -0.14479 -0.2931 0 2018
-6.2433 -7.0024 -0.21781 0 1368
-6.2262 1.3564 -0.14795 0 2929
-6.1673 10.932 1.171 1 10266
-6.1212 4.3711 1.4172 2 5928
-6.1158 -5.3766 0.37975 0 1405
-6.115 10.553 0.56878 1 10160
-6.1119 -6.8142 -0.64009 0 1370
-6.0887 2.4291 0.76659 0 3921
-6.0491 1.6129 0.87985 0 3175
-6.0419 -0.82549 0 0 1640
-5.9835 -4.0603 1.188 0 1533
-5.977 -7.1917 -0.6539 0 1357
-5.9379 3.5019 1.1326 0 5103
-5.9123 -10.614 1.996 0 1280
-5.8793 -7.8733 1.6144 0 1333
-5.8503 -9.6943 1.0564 0 1305
-5.816 9.0454 1.7668 1 9717
-5.7735 -5.4731 0.37099 0 1388
-5.7357 11.708 1.2163 1 10836
-5.7295 -7.3124 0.86668 0 1341
-5.7021 -5.3734 1.2872 0 1390
-5.6639 11.561 1.5055 0 10838
-5.6586 1.5629 -0.13629 2 3214
-5.6356 -6.5844 -0.60604 0 1365
-5.6337 7.6918 1.34 0 9138
-5.577 -6.4747 1.404 0 1366
-5.5477 11.569 0.59832 1 10916
-5.5394 4.2767 1.1498 1 6292
-5.5171 -11.666 2.1202 0 1220
-5.428 -6.8879 0.20361 0 1343
-5.3804 -6.4738 0.19543 0 1358
-5.359 9.2485 1.5022 2 10167
-5.3576 3.353 0.14674 0 5329
-5.3562 -0.7023 0 0 1653
-5.3288 9.7778 1.0389 0 10410
-5.3163 6.8316 0.8076 1 8833
-5.3128 -6.3182 -0.38497 0 1360
-5.2805 3.982 1.2461 2 6178
-5.2662 4.315 1.2827 2 6589
-5.2603 0.4445 -0.49251 1 2375
-5.2511 11.635 2.4051 0 11160
-5.25 2.4559 0 0 4328
-5.2367 -7.8818 0.66171 0 1321
-5.2031 2.6775 -0.27289 1 4596
-5.1677 2.6764 0.2714 0 4626
-5.1587 2.5788 0.81054 0 4520
-5.1566 2.3391 -0.79579 0 4240
-5.1528 11.508 1.1764 0 11182
-5.1239 1.0397 -0.24382 0 2869
-5.0801 -4.6518 -0.15992 0 1395
-5.0727 3.2143 -0.41993 0 5376
-5.0719 6.716 1.5856 0 8996
-5.0706 0.44273 0.47486 0 2396
-5.0243 -5.9371 1.2778 0 1362
-5.0158 7.1899 0.61302 0 9353
-5.0045 -10.747 1.9477 0 1209
-5.0023 0.84967 0.47338 1 2735
-4.9903 -5.6944 1.0641 0 1367
-4.949 -4.7195 0.31891 0 1384
-4.9263 10.507 1.9065 0 11011
-4.9252 5.5591 1.0438 2 8181
-4.9222 7.5105 1.262 0 9633
-4.9198 4.8889 0.97477 2 7529
-4.8982 -6.8015 1.178 0 1331
-4.8694 -10.145 1.8488 0 1229
-4.8639 -4.9999 0.98034 0 1381
-4.8551 7.0064 1.198 0 9384
-4.8289 11.595 0.58574 1 11439
-4.8074 -7.1032 1.616 0 1325
-4.8045 3.0655 0.66647 0 5416
-4.8008 4.3961 1.2264 0 7123
-4.8001 10.086 1.8352 2 10953
-4.7664 -5.6683 0.17195 0 1361
-4.7517 4.5076 0.92049 0 7293
-4.7382 -8.5656 1.6082 0 1277
-4.6746 2.7569 0.63465 1 5100
-4.672 -6.4493 0.9313 0 1332
-4.6627 11.861 1.7912 1 11645
-4.5641 5.0921 0.15876 0 8113
-4.56 -8.3015 1.1076 0 1275
-4.5442 -7.4798 1.23 0 1306
-4.5395 -7.373 0.80779 0 1308
-4.5072 14.174 -1.3876 0 12262
-4.4825 13.048 -1.2871 0 12043
-4.4438 -2.8881 0.61978 0 1542
-4.4417 6.0289 1.0524 0 9110
-4.4405 11.696 0.58341 1 11749
-4.3957 7.2438 0.79051 1 9967
-4.3546 10.529 0.53133 1 11467
-4.3434 7.9696 1.7101 1 10417
-4.3285 -5.5243 -0.16294 0 1340
-4.1646 11.892 2.374 1 12012
-4.1589 -12.315 0.30179 1 1089
-4.148 -3.7983 -0.39329 0 1394
-4.1425 -7.1894 0.97032 0 1289
-4.1376 -3.4682 0.75877 1 1422
-4.1079 4.1266 -0.54323 1 7569
-4.0983 -5.2626 -0.15486 0 1339
-4.0953 -6.5285 1.2662 0 1312
-4.093 4.5665 -0.14238 0 8109
-4.0669 -13.881 -0.33581 0 1073
-4.064 -5.3444 0.94359 0 1336
-4.0445 -4.9221 1.0467 0 1353
-4.0199 -3.7224 0.64069 0 1392
-3.9362 -11.536 1.1372 0 1091
-3.936 3.6041 0.4979 1 7116
-3.9154 8.9534 1.8412 2 11278
-3.9 4.057 0.52503 0 7760
-3.8043 -5.7259 0.96614 0 1322
-3.7715 -7.3607 1.1624 0 1255
-3.7383 -3.5649 0.48192 0 1385
-3.7019 -4.5325 -0.68436 0 1350
-3.7004 -6.5967 1.063 0 1283
-3.6985 -7.0656 1.3103 0 1261
-3.6965 6.7826 -0.72066 0 10397
-3.5737 -4.4816 0.40082 0 1346
-3.5693 -8.2838 0 0 1175
-3.5461 5.2414 0.14692 0 9486
-3.5298 -7.2986 1.5275 0 1234
-3.4726 9.9161 0.48996 2 12000
-3.4667 11.468 1.6837 2 12427
-3.4606 6.9591 0 0 10771
-3.4496 -3.846 -0.24093 1 1371
-3.4065 11.627 1.9905 1 12513
-3.4 8.4366 1.7138 0 11563
-3.3671 -9.5083 1.4176 0 1105
-3.3669 -5.6908 0.15352 1 1296
-3.3348 -7.1094 1.2902 0 1214
-3.2942 -4.1802 0.2482 0 1344
-3.2663 -10.908 1.0623 0 1079
-3.2348 4.4704 0.90658 1 9197
-3.2117 -5.2165 1.0064 0 1309
-3.1025 10.942 0.5304 1 12582
-3.0025 8.4929 0.6299 0 11974
-2.9368 -8.2934 0 0 1100
-2.9175 -5.1315 0.96981 0 1286
-2.8567 -10.294 -0.24803 0 1062
-2.8144 -5.2312 0.55419 2 1269
-2.8053 -5.3959 -0.56738 0 1258
-2.788 -10.157 1.2317 0 1061
-2.7698 11.537 0.82968 0 12957
-2.761 4.2942 -0.59701 0 9695
-2.74 7.6149 0.9464 0 11924
-2.7278 5.4855 0.71642 0 10781
-2.6549 -7.4972 1.3067 0 1106
-2.6514 -6.3013 1.1232 0 1174
-2.5562 -5.3689 -0.13806 0 1222
-2.555 -12.167 1.1598 0 1005
-2.5189 -9.0768 1.1016 0 1063
-2.4749 -9.334 1.5865 1 1053
-2.4599 -6.4689 0.80934 0 1126
-2.4126 5.562 -0.70898 1 11282
-2.4034 -7.6974 1.3248 0 1082
-2.3856 6.5686 0.81724 0 11897
-2.3769 -5.182 0.66671 0 1198
-2.3013 14.48 1.0253 1 13666
-2.2491 -6.1229 0.30419 1 1116
-2.2355 -8.3255 1.4163 0 1057
-2.2004 -12.634 1.8023 0 973
-2.1822 12.363 0.58546 1 13514
-2.1686 -5.4136 0.95813 0 1146
-2.1527 -11.382 0.81001 0 993
-2.1191 6.1684 -0.15143 0 12049
-2.1036 -7.9336 0.19056 1 1052
-2.0996 7.4049 1.2645 0 12591
-2.0811 13.909 2.3105 0 13736
-2.0429 12.407 1.4705 0 13621
-2.0373 -14.72 2.0884 0 937
-2.0322 -5.4384 -0.27074 0 1122
-1.851 4.8322 0.12014 1 11719
-1.8481 -9.0595 1.5191 0 1001
-1.8093 -6.2317 1.0661 0 1071
-1.7573 -5.4053 0.93381 0 1087
-1.6839 -11.906 2.2655 0 939
-1.6515 -6.7849 0.4883 0 1028
-1.6468 11.206 1.0567 1 13753
-1.6014 14.765 1.0385 1 14016
-1.5944 -9.8222 0.92836 0 960
-1.586 -5.0302 0.24596 0 1084
-1.547 14.645 1.3739 0 14040
-1.4805 -6.756 1.3031 0 1011
-1.4577 -6.6522 0 0 1010
-1.4301 -6.81 0.81375 0 1006
-1.4092 11.427 0.80513 0 13916
-1.3905 -5.7128 0.27419 0 1027
-1.3705 14.608 2.062 0 14130
-1.2362 10.524 1.4892 1 13962
-1.1225 -7.4661 0 0 945
-1.1176 -6.8853 0.98034 0 962
-1.0401 -10.666 0.49975 1 899
-1.0277 -6.7083 0.63315 0 950
-1.0072 -6.3233 0.2986 0 955
-0.99009 4.9414 0.58935 0 13320
-0.96968 -7.4763 1.2386 0 930
-0.96247 -10.182 -0.23745 0 897
-0.93003 -7.0169 -0.33009 0 933
-0.92335 7.675 1.2701 1 13943
-0.86928 -6.0175 0 1 941
-0.84618 5.4346 -0.51314 0 13676
-0.83087 4.9544 0.9465 0 13599
-0.81181 6.9106 0.16155 0 13954
-0.80654 5.7315 0 0 13793
-0.795 -7.2708 0.85533 0 910
-0.71972 5.3302 -0.12487 0 13831
-0.71043 10.529 -0.24501 0 14326
-0.70677 11.425 1.8806 0 14384
-0.70554 -11.277 2.1289 0 863
-0.68881 11.698 2.2078 0 14405
-0.68621 -6.6403 0.46681 0 905
-0.67888 -7.9188 0.92944 0 888
-0.62837 5.7937 0.27177 0 14014
-0.62813 -6.8491 1.13 0 894
-0.61094 -6.0992 0.86148 0 902
-0.60556 -10.697 -0.49965 0 853
-0.56546 14.521 0.33739 1 14536
-0.55547 -12.375 2.0353 0 844
-0.52175 -8.3394 -0.194 0 861
-0.49522 -7.2456 0.67755 0 870
-0.4505 -5.6485 -0.13156 0 882
-0.43103 6.1028 1.0051 0 14317
-0.39138 14.558 2.3926 1 14636
-0.35397 -6.9634 0.32515 0 848
-0.32929 -5.5102 0.9069 0 858
-0.29187 12.116 1.1307 0 14652
-0.22205 7.3945 1.3938 0 14615
-0.20475 6.8185 -1.45 0 14613
-0.20096 7.4748 0.69762 1 14630
-0.18856 -5.6543 0.52781 0 830
-0.1696 10.917 1.0187 0 14714
-0.16438 -5.38 -0.12497 0 826
-0.1374 -10.496 0.24371 0 810
-0.11874 9.3191 0.43462 0 14731
-0.11257 6.142 0.42956 0 14694
-0.099902 -9.7014 0.90514 0 808
-0.051237 12.763 1.4925 0 14792
-0.036755 -8.0997 -0.18805 0 802
0.041376 -5.6443 -0.13105 0 792
0.068282 -5.2865 0.99612 0 786
0.077847 7.3118 0.6822 1 14885
0.2003 7.1707 1.0082 0 14995
0.22162 -5.6658 0.3965 0 760
0.24276 14.796 2.788 0 14926
0.38126 7.9087 1.3009 0 15118
0.44161 -6.2063 0 0 737
0.49735 -9.8519 1.8586 0 750
0.49883 9.2405 -0.43155 0 15144
0.50226 5.1502 -0.12014 1 15415
0.61391 13.519 1.2626 0 15097
0.6433 -10.86 1.529 0 742
0.66903 5.3866 0 0 15597
0.67062 -8.1049 0.95104 0 729
0.72493 -8.4908 0.19785 0 726
0.8423 -8.1647 0 1 712
0.90517 7.6707 0.17933 0 15561
0.9199 -8.6794 0 0 710
0.92928 -9.8675 1.6283 0 721
1.0375 12.077 1.9915 0 15352
1.0896 -6.3745 0.30158 0 648
1.2991 -12.593 1.7792 0 713
1.3407 -9.3039 1.5444 0 676
1.3512 -5.6936 0.40919 1 552
1.3841 7.8018 -0.73923 0 15887
1.463 12.398 0 0 15559
1.6576 6.7945 -1.4866 1 16178
1.685 -5.4535 0.80219 0 491
1.688 -10.065 0 0 651
1.7697 -9.0791 1.5197 0 621
1.7954 -6.7004 0.8112 0 519
1.8132 6.4507 0.31248 0 16262
1.8456 6.7884 -0.98869 0 16242
1.8651 6.946 0 0 16238
1.9024 7.4254 -1.2594 0 16210
1.9148 5.2071 0 0 16404
1.9333 -10.575 1.2572 0 636
1.9384 6.1403 -0.30028 0 16322
2.0012 10.735 2.0574 0 15948
2.1669 -6.2399 1.0852 1 457
2.1976 -8.1109 1.3806 0 516
2.2158 -6.9557 0.34043 0 480
2.2401 -8.5509 1.4523 0 527
2.257 -6.4994 0.64188 0 456
2.2695 5.3054 -1.0872 1 16469
2.2799 -4.9729 0.38254 0 362
2.2885 5.5221 -0.27876 2 16454
2.3 6.3123 -0.78564 0 16393
2.3735 -5.425 0.41407 0 390
2.3747 10.385 -0.24733 0 16120
2.4112 5.4592 0.9805 0 16483
2.4161 -7.7431 1.5282 0 488
2.4447 9.6473 1.3987 0 16206
2.4472 6.0539 -0.91771 0 16441
2.4484 4.4242 -0.23581 0 16580
2.4906 5.3459 0.27503 0 16501
2.5488 -7.7796 0.76376 0 469
2.6155 -6.1737 0.62553 0 410
2.6284 4.6838 -0.37557 0 16588
2.6306 7.4909 0.37025 0 16380
2.6866 11.749 1.9801 0 16126
2.6873 9.347 1.5979 0 16282
2.6899 -9.5954 0.23137 0 512
2.7148 8.6896 1.7152 0 16319
2.7165 5.0429 -0.40054 0 16569
2.7371 -7.9627 0 0 458
2.7503 5.3653 0.99056 0 16550
2.7992 5.1256 -0.68297 0 16574
2.8131 8.0104 0 0 16379
2.8467 -5.7675 1.0567 0 333
2.8729 7.4803 1.5097 0 16428
2.8802 -7.0226 1.247 0 419
2.8959 -4.7109 0.90852 0 271
2.9124 8.6993 1.2893 0 16355
2.9148 4.1459 0.47282 0 16768
2.9282 4.4039 0.12279 1 16695
3.042 -6.1146 0.79865 0 329
3.0473 -9.9736 0.97295 0 494
3.1156 -7.9912 1.616 0 434
3.1195 12.036 0 0 16223
3.2027 -5.6768 0.91604 0 286
3.2151 -4.2573 -0.37306 0 209
3.2322 -10.912 1.3309 0 502
3.2429 8.0915 1.4322 1 16438
3.2524 7.9856 -0.80444 0 16446
3.2905 5.522 0.59971 0 16622
3.3126 7.865 -1.1994 0 16460
3.3336 -7.0555 1.282 0 351
3.3681 -9.9792 1.2317 0 461
3.408 -4.4334 -0.65393 1 204
3.4172 4.6588 0.26944 0 16819
3.5191 6.8652 -1.2675 0 16546
3.6079 -4.1228 0.1272 0 172
3.6284 -5.5702 0.46486 0 254
3.645 -5.0059 0.14377 0 217
3.6466 6.3724 -0.34239 0 16602
3.6797 -11.01 1.3576 0 464
3.6905 -4.07 -0.25621 0 167
3.7049 8.0698 0.20616 0 16497
3.7168 -4.8072 0.99834 0 203
3.7546 -3.7743 -0.62257 1 151
3.7624 -3.6308 0.73483 0 142
3.7701 7.3548 1.1615 0 16549
3.7778 -5.7995 -1.4712 0 256
3.8186 -11.314 0.55686 1 460
3.8801 -7.6912 1.4153 0 322
3.8802 -7.0203 -0.37406 0 291
3.8951 -7.8916 -0.61539 0 332
3.9591 4.4907 -1.1279 0 16935
3.9852 6.8692 0.74091 0 16607
4.0334 9.1321 -0.46555 0 16482
4.064 -5.3194 0.94081 1 207
4.0994 -7.956 1.2578 0 314
4.1019 -4.3452 0.27866 0 159
4.1028 3.0906 0.11926 0 17201
4.1467 -5.1427 0.15338 0 188
4.1505 6.3644 -0.88855 0 16672
4.1634 4.8609 0.59711 1 16920
4.1826 -5.6752 1.3283 0 215
4.1855 -6.4673 0.90086 0 258
4.2061 10.405 1.0471 0 16443
4.2259 7.6363 -0.20263 0 16581
4.2873 -2.9786 0.61049 0 22527
4.3237 8.1971 -0.21516 0 16561
4.339 -7.8504 1.4737 0 292
4.342 -4.5995 1.0392 0 160
4.3507 -7.1697 1.5801 0 274
4.3568 7.4617 0.80612 0 16611
4.3606 -8.0512 0.85423 0 296
4.3801 -8.7392 -0.45587 0 325
4.3993 6.4564 0.91364 0 16726
4.4378 8.3533 0.88247 0 16565
4.442 -6.6958 0.93966 0 246
4.4432 -7.6681 0.41329 0 282
4.4666 7.6498 0.4131 0 16610
4.5013 7.0765 -0.98078 0 16652
4.5015 4.9575 -1.1001 0 16953
4.5483 -2.5025 -0.36301 0 22247
4.5632 8.4148 -0.89306 0 16572
4.5733 -7.2036 0.39792 0 262
4.5958 -2.5454 0.86313 2 22263
4.6259 -3.1155 0.91631 0 22492
4.6799 6.1522 -0.17947 0 16840
4.683 -2.2176 -0.48341 1 21975
4.685 7.9125 0.21349 0 16617
4.6939 -2.0108 0.23813 0 21801
4.6947 7.6222 0 0 16639
4.6961 3.0137 -0.65253 0 17456
4.7115 -7.7095 1.2698 0 273
4.7248 7.777 -0.63632 0 16631
4.8156 4.9763 0.8098 0 16981
4.8633 -6.9713 1.3965 0 230
4.9068 2.932 0.3997 0 17642
4.9093 -1.5526 0.60213 1 21519
4.9108 1.6203 0.72676 1 18892
4.916 -7.7435 0.85572 0 263
4.9418 -10.232 1.0601 0 340
5.0137 -1.7313 0.24736 0 21563
5.0478 7.8869 1.316 0 16659
5.0591 -1.4087 0.86281 2 21469
5.0711 -1.3968 0 0 21464
5.0874 -0.75486 0.84497 0 21282
5.1075 1.3313 -1.3817 0 19295
5.1135 0.99026 -1.3635 0 19732
5.1261 -4.0092 0.60714 0 51
5.1377 0.84317 0.98094 0 19919
5.1826 11.289 2.0408 0 16498
5.2107 4.9934 1.0143 0 17014
5.2231 -0.2253 0.85891 0 20974
5.2375 -6.3831 1.1604 0 185
5.2698 -0.42677 -0.49326 2 21091
5.313 -6.9971 1.2347 0 208
5.3186 5.9611 1.3125 0 16944
5.3197 6.748 0.80166 0 16864
5.3532 0.5617 -0.50217 1 20235
5.4396 1.4697 0.79189 0 19245
5.4398 3.2055 0 0 17671
5.4589 -7.1014 -0.83566 0 205
5.4717 -2.1952 0.27494 0 21709
5.5065 4.1 0.48006 0 17215
5.523 -10.948 0.85745 1 320
5.5443 8.034 -0.22663 0 16742
5.5576 -4.2676 -0.98479 0 36
5.5727 4.8103 -1.0346 0 17082
5.5759 -9.5535 1.8174 0 281
5.5805 1.4204 -0.13369 0 19322
5.6011 -4.3259 1.1627 0 44
5.6097 -6.5589 0.40248 0 181
5.628 2.6316 -0.43444 1 18192
5.632 5.9599 0 0 16971
5.6335 0.62493 0.93122 0 20212
5.6396 -0.27582 0.92765 0 20993
5.7346 -6.6624 -0.61469 0 179
5.7909 4.079 -0.66083 0 17287
5.8019 1.316 -1.4096 0 19499
5.8366 3.6033 -0.80214 1 17546
5.8786 -0.37294 0.54955 0 21039
5.8806 -2.262 0.44058 0 21659
5.8933 2.9447 0 0 18065
5.9079 0.55118 0.69388 0 20318
5.9328 1.51 1.0058 0 19331
5.9354 3.339 0.15811 2 17779
5.972 5.0361 0 0 17104
5.98 3.4345 0.64337 0 17738
5.9834 6.4389 -0.82005 0 16963
5.9851 -8.9068 1.2549 0 241
6.0092 9.8911 -0.53972 0 16632
6.0313 7.382 0.88935 0 16888
6.0396 0.1244 0.70643 0 20701
6.0438 5.1273 1.3022 0 17101
6.0674 5.8859 -0.78865 0 17006
6.0704 -1.9385 0.4456 0 21523
6.0863 -6.0145 0.39903 0 148
6.0931 3.6655 1.1682 1 17636
6.1121 5.3999 0.18935 0 17061
6.1151 7.1019 0.43705 0 16921
6.1208 -0.69088 1.1605 0 21192
6.1255 5.7704 0.78512 0 17028
6.1298 -2.6057 0.77891 0 21790
6.1951 6.1456 -1.2264 0 16989
6.2132 7.6508 -0.68919 0 16882
6.3047 2.0194 -0.1537 0 18935
6.3279 -0.86232 0.44658 0 21252
6.3544 0.8727 0 0 20058
6.3648 4.0035 1.2354 1 17508
6.3852 -0.25757 -0.44686 0 20959
6.4051 -1.2172 0.60826 0 21360
6.4257 -5.0529 -1.343 0 52
6.435 3.5714 -1.0343 1 17807
6.4571 -4.3488 -0.54438 0 22487
6.4748 8.938 -1.2907 0 16801
6.4768 0.34171 0.6051 0 20560
6.4907 3.8784 0.70542 0 17644
6.5349 -2.318 0.97449 0 21585
6.5711 -8.7012 1.2751 0 210
6.5974 2.4339 0 0 18684
6.6145 -2.4337 0 0 21613
6.6307 -2.528 0.33093 0 21649
6.724 7.4468 -0.23294 0 16949
6.7443 -11.413 2.4977 0 278
6.7552 8.8258 -1.2997 0 16844
6.7564 -0.1545 0.1569 0 20888
6.7572 -3.7935 0.90621 0 22284
6.7773 -0.15498 1.1138 0 20893
6.7959 1.9615 0.6599 0 19137
6.8557 -0.75325 0.80655 0 21181
6.8769 1.4154 0.98674 0 19654
6.9184 0.74547 -0.3245 0 20221
6.9434 0.97212 0.98535 0 20046
6.9645 6.9089 0.68599 0 16993
6.9685 4.4121 0.96452 0 17492
7.0563 -2.4808 1.2289 0 21578
7.1476 -5.6875 0.85219 0 60
7.1571 8.0216 1.5109 0 16943
7.1705 1.7374 0.68833 0 19404
7.1937 -0.83489 0 0 21199
7.2245 -3.5518 1.5168 0 22060
7.2264 -2.1049 0.88019 0 21484
7.274 4.6968 0.40379 0 17448
7.2943 5.3641 1.0588 0 17228
7.3252 -5.6922 -1.3038 0 45
7.3376 8.7199 1.3327 0 16908
7.4069 -2.6769 0.73478 0 21599
7.4651 -4.9036 0.20737 0 22460
7.476 -0.6909 1.4146 0 21133
7.4861 9.1625 2.2292 0 16890
7.5171 5.3619 0.21437 0 17269
7.5325 -4.5224 -0.81968 1 22360
7.5353 5.5413 0.87263 0 17226
7.5883 6.2508 0.91722 0 17127
7.6483 -7.9118 1.0266 0 156
7.6847 -1.7614 0 0 21406
7.6895 3.979 0 0 17986
7.7034 0.42529 0.5395 0 20544
7.7471 -12.128 2.3644 0 261
7.7746 -5.6735 1.8134 0 22582
7.808 6.7397 1.9434 0 17087
7.8609 -1.3296 0.55749 0 21328
7.8841 3.5466 1.215 0 18276
7.9691 3.6133 -0.81633 0 18249
7.9894 -0.69196 0.9378 0 21113
7.9929 0.93188 -0.75075 1 20166
8.0125 -3.8803 1.4627 0 22025
8.0278 -2.9537 1.2022 0 21616
8.0756 1.013 1.3372 0 20127
8.0993 -0.91421 1.3391 0 21190
8.1136 7.9122 1.0573 0 17005
8.1755 5.4462 1.3806 0 17382
8.2389 -6.0455 1.6789 0 22588
8.2498 -6.2597 1.9511 0 28
8.2519 2.8269 -0.60995 0 18813
8.2715 -2.6956 0.20198 0 21531
8.3382 -8.0972 0.26985 0 144
8.3416 -6.4821 0.98558 0 48
8.4833 4.4237 -0.22213 0 17968
8.5687 -4.6834 1.6043 0 22243
8.5714 1.5052 -0.40583 0 19831
8.5835 3.5098 0.64846 0 18490
8.6074 0.027046 1.2097 0 20778
8.6275 4.5295 -1.3695 0 17946
8.6462 -0.19772 0.80686 0 20889
8.662 -0.47215 0.6066 0 21011
8.6828 0.47936 0 1 20540
8.6941 5.6828 0.7263 0 17421
8.7083 -1.2642 -0.2043 0 21275
8.7151 1.3741 1.6623 0 19954
8.7308 0.56001 1.4374 0 20497
9.0222 -4.9313 1.2024 0 22242
9.0602 7.9121 -0.84112 0 17073
9.1221 2.6054 0.66338 0 19156
9.1348 4.5286 0.95121 0 18084
9.2084 -3.2085 0.2264 0 21568
9.2308 -6.8754 0.80485 0 10
9.2711 0.40641 0 0 20597
9.3281 -3.4025 1.8708 0 21609
9.3949 -1.1153 0.66157 0 21207
9.5281 0.52603 0.89028 0 20545
9.5748 3.4377 -0.23619 0 18739
9.582 2.2616 0.45913 0 19438
9.6502 -4.7757 1.0045 0 22072
9.6735 -3 0.9449 0 21509
9.7345 -0.33483 1.3689 0 20941
9.7506 6.5398 1.9289 0 17372
9.8709 -6.0418 1.3534 0 22386
9.9309 0.89679 -0.2315 0 20329
9.9673 -9.9083 1.6435 0 150
10.061 0.17914 0.46928 1 20712
10.248 1.2274 0.7217 0 20157
10.333 0.18398 0.96422 0 20714
10.355 2.5722 0.99543 0 19366
10.518 1.8471 1.2489 0 19840
10.598 3.3275 2.093 0 18986
10.642 -3.3656 1.0413 0 21518
10.681 -3.8243 0.2634 0 21591
10.691 7.4858 2.1442 0 17301
10.935 -0.15651 1.0203 0 20852
11.002 0.67294 0.25592 0 20509
11.03 -8.4701 2.6203 0 40
11.199 6.2154 1.8001 0 17817
11.225 2.5461 0.80485 0 19497
11.272 4.9551 2.0229 0 18327
11.467 -7.4354 1.275 0 22448
11.534 -1.9509 1.368 0 21329
11.631 -3.4189 1.1311 0 21487
11.675 -4.4117 1.4595 0 21639
11.869 3.3497 0.28633 1 19171
11.977 -1.9892 1.9947 0 21320
11.979 -1.8458 0 0 21295
11.981 -5.0488 2.1361 0 21775
11.998 -0.41268 2.2618 0 20944
12.329 6.5665 2.295 0 17924
12.335 5.1244 2.1945 0 18459
12.397 1.0148 1.1604 0 20389
12.562 3.7424 2.4696 0 19081
12.599 5.5805 2.5962 0 18313
13.193 -0.41459 2.1685 0 20930
14.149 4.7124 1.0429 1 18869
14.255 4.3854 1.7441 0 19022
0.32522 14.555 -1.7025 2 14948
0.41874 7.3516 -1.5652 0 15170
1.6431 14.626 -1.7211 2 15519
3.4911 2.018 -1.6843 0 17718
3.8024 6.0969 -1.5273 0 16643
3.8375 -6.1604 -1.5427 1 268
4.2933 -2.3136 -1.7751 0 22217
4.5343 -7.6733 -1.8945 0 277
4.7116 7.508 -1.8841 0 16648
4.7925 4.7541 -1.7672 0 16994
5.6754 9.3417 -1.5362 0 16629
5.9146 2.8707 -1.7211 0 18125
5.9517 0.59091 -1.715 0 20278
7.6184 1.2694 -1.6417 1 19900
7.9075 -2.4523 -1.7598 0 21510
8.0654 2.5569 -1.7984 0 18966
8.3959 -5.5867 -1.6569 0 22471
9.1352 -0.39406 -1.9436 1 20973
13.957 2.4962 -1.9927 2 19807
