VERSION .7
FIELDS x y z intensity index
SIZE 8 8 8 8 8
TYPE F F F F F
COUNT 1 1 1 1 1
WIDTH 1008
HEIGHT 1
VIEWPOINT 0 0 0 1 0 0 0
POINTS 1008
DATA ascii
-4.8239 -0.42967 0.45183 1 2732
-4.7409 1.1838 0.80282 0 4196
-4.4249 -0.41984 -0.1032 0 2711
-4.16 2.3316 -0.22239 0 5862
-3.9617 0.89208 0.094282 0 4060
-3.7078 1.5716 0.75875 0 5232
-3.6508 2.4867 0.30888 0 6425
-3.4874 -3.2623 0.55845 0 1928
-3.4529 0.2245 0.16137 0 3334
-3.4312 -0.49689 0.65322 0 2570
-3.4102 1.5765 -0.087226 0 5416
-3.4032 0.59151 0.16109 0 3835
-3.2935 1.1877 0.5752 0 4837
-3.2061 -3.7196 -0.11401 0 1645
-3.1763 3.3145 -0.53685 0 7612
-3.0721 0.3881 0.28889 2 3624
-3.0112 -0.43606 0.21276 0 2566
-2.9885 -2.8439 0.77727 0 1910
-2.89 -3.9851 -0.11429 0 1402
-2.8634 3.2048 -1.341 1 7787
-2.8564 -2.3908 -0.26047 0 2083
-2.8227 2.8604 0.46995 0 7546
-2.7743 2.0967 -0.24317 1 6721
-2.7663 -2.8396 -0.27721 0 1821
-2.7351 3.6349 -0.74738 0 8174
-2.693 2.5183 -0.25782 0 7332
-2.5621 2.7198 -0.88535 0 7666
-2.5318 -2.1072 -0.23034 1 2093
-2.5014 3.8283 0.6427 0 8512
-2.4662 2.618 0.67766 0 7671
-2.4584 1.9731 -0.22043 0 6891
-2.4467 -2.1601 0.38167 0 2007
-2.4203 2.6293 -0.41791 0 7714
-2.4047 3.1566 0.74764 0 8157
-2.3515 -2.5429 0.24219 1 1748
-2.347 3.5472 -0.19835 2 8483
-2.3462 -3.4419 0.19425 0 1328
-2.2344 -3.0251 -0.26298 1 1422
-2.2167 2.9978 -0.97603 0 8220
-2.1608 -4.2445 -0.22211 0 1016
-1.9253 4.2522 -0.99215 2 9177
-1.8271 4.4416 -0.1115 0 9240
-1.8062 4.5021 -0.45257 1 9257
-1.7525 -3.2753 0.69987 0 1070
-1.7339 -4.6748 0.58308 0 788
-1.6955 -2.7517 -0.22601 0 1219
-1.6574 4.3449 0.54382 0 9298
-1.6201 -4.3309 0.7597 1 790
-1.5582 -4.0234 0.50456 0 798
-1.1325 2.9214 -0.44034 0 9278
-1.071 -4.8109 0.22984 0 667
-0.9554 3.1152 0.15196 0 9438
-0.81377 3.1717 -0.1527 0 9552
-0.74668 4.1292 -0.7906 0 9769
-0.73226 -4.5922 0.87614 0 611
-0.63402 3.6898 -0.98008 0 9789
-0.6327 -4.4624 0.31516 0 596
-0.56247 3.1105 0.44424 0 9768
-0.29458 -3.5452 0.67025 0 528
-0.28636 -4.5771 0.42786 0 513
-0.22766 -4.7225 0 0 504
-0.19632 4.0576 0.379 0 10048
0.075696 4.9281 0.11443 0 10144
0.18717 -4.5034 0.52709 0 414
0.21889 4.6416 -0.10788 0 10179
0.47065 4.1244 0.58341 0 10249
0.60762 4.2323 -1.226 0 10280
0.71441 3.0969 -0.22224 0 10381
0.86789 3.9213 0.65983 0 10370
0.89126 -4.7214 0.22407 1 312
1.0086 4.3723 -0.20925 0 10382
1.8301 3.1813 -1.2401 0 11204
1.8601 3.3891 0.72839 2 11112
1.9103 3.0882 -0.42465 1 11370
1.9538 2.286 -0.069818 0 12264
2.1236 2.7142 -0.16071 0 11990
2.3675 3.9542 0.64771 1 11296
2.3708 -4.2595 0.4548 1 92
2.3918 3.8174 0.10459 0 11405
2.4874 -2.5821 -0.2507 1 20313
2.4951 3.388 -0.69128 0 11803
2.5052 2.7321 0.69839 2 12483
2.6141 -1.7394 0.51587 1 20127
2.6294 3.6565 -0.63296 0 11741
2.6811 1.4196 -0.86991 0 15012
2.7424 3.4637 -1.3786 0 12027
2.8526 3.1838 -0.80541 2 12415
2.9737 1.2172 -1.0026 0 15881
2.9754 -3.8138 0.79471 1 20444
3.0638 -3.2365 0.41578 0 20318
3.154 -2.3441 0.18326 0 20227
3.2307 3.5655 0.7905 1 12447
3.2443 -0.62476 0.23103 0 19372
3.2473 1.7078 -0.085184 0 15032
3.2544 1.299 -0.40978 1 15940
3.2904 2.2792 -0.46809 1 14059
3.3288 3.2896 0.65773 0 12801
3.3548 0.16819 0.47208 0 18332
3.3614 -2.668 0.30009 0 20260
3.5633 -2.2824 0.39479 0 20090
3.7162 -0.34213 -0.17404 0 19016
3.7272 -1.9527 -0.29423 0 19954
3.7292 1.5646 -0.28279 0 15796
3.8696 1.6107 0.49016 0 15837
3.9191 -0.12248 0.36581 0 18736
3.9192 -0.21294 -0.36618 1 18854
3.9317 -2.1037 0.20795 0 19973
3.9348 -1.1558 0.67377 0 19562
3.9435 -0.15632 0.74357 0 18787
3.9441 -1.0975 0.28628 0 19539
4.0831 2.8283 -1.0558 0 14074
4.0845 -1.6652 0.41151 0 19742
4.0945 1.8307 0.20916 0 15579
4.1161 -1.3932 0.81874 0 19625
4.1242 -2.7256 -0.69475 0 20115
4.1498 0.6937 -0.19621 0 17617
4.2005 0.16137 0.69063 0 18397
4.2393 2.4693 0.34306 1 14680
4.2434 -1.7881 0.10691 0 19766
4.2473 -0.98604 0.5099 0 19450
4.3172 1.9005 -1.2349 2 15638
4.3641 -1.548 0.65077 0 19651
4.4569 -0.21564 0.62711 0 18832
4.487 -0.51917 -0.31586 1 19125
4.4994 -1.9723 0.2291 0 19801
4.5899 -0.84324 0.10835 1 19349
4.6732 1.469 -0.11373 1 16583
-2.7832 1.0857 0.56286 0 5025
-2.1952 -1.5251 0.50361 0 2366
-1.4612 1.6733 -1.1158 0 7843
2.2068 -1.0763 0.28712 0 19886
2.9503 0.51915 0.35031 1 17566
-14.214 0.26299 -1.3263 1 3120
-14.126 4.1387 1.7214 0 4434
-14.06 1.901 -1.3237 1 3659
-13.233 5.43 -1.3345 2 5133
-13.192 4.8433 -1.3111 1 4861
-12.601 3.7708 -1.2271 1 4462
-11.761 -0.057475 -0.27305 0 3027
-10.986 5.6681 -1.1533 2 5659
-10.744 -8.7345 2.6088 0 2139
-10.743 -8.1277 2.5381 2 2257
-10.68 6.2782 -1.1558 1 5981
-10.519 -10.011 2.3858 1 1909
-10.504 -9.326 0.65506 1 1998
-10.374 5.7386 1.6662 0 5836
-10.359 6.1314 1.4077 0 6007
-10.221 5.9295 2.2263 0 5963
-10.176 -0.93508 -0.23726 0 2719
-10.17 4.877 -0.26186 1 5494
-10.168 -10.376 0.67751 1 1830
-10.11 -7.9297 1.5025 1 2197
-10.086 -7.6306 1.1799 0 2254
-10.048 -9.9606 2.3245 0 1864
-10.046 -9.7286 1.6354 0 1889
-9.9646 -9.7105 1.2981 0 1881
-9.9116 5.5553 0.79453 0 5867
-9.9008 4.8589 1.2897 1 5553
-9.8891 5.8135 1.6122 0 5990
-9.79 -7.0998 1.1283 1 2313
-9.7715 -0.92712 0.91573 0 2714
-9.6874 6.7229 1.3789 1 6480
-9.6041 -8.0902 1.1716 1 2078
-9.5905 1.0978 1.3567 2 3570
-9.5758 -0.046797 1.3458 0 3030
-9.5728 -7.8716 1.4493 0 2119
-9.559 -7.9136 2.3381 0 2111
-9.5471 -7.7615 0.86038 1 2136
-9.5293 -7.7002 1.7218 2 2147
-9.5191 8.1502 2.3611 0 7079
-9.505 2.8444 1.8693 0 4478
-9.4834 -8.5179 1.4907 0 1984
-9.418 6.8652 1.3629 1 6619
-9.3791 5.7746 2.0752 0 6127
-9.3389 2.2714 1.5791 0 4163
-9.318 0.66138 0.87151 2 3364
-9.305 9.1631 -1.2184 0 7463
-9.2574 -10.434 1.6312 0 1694
-9.2506 -8.3586 0.87182 1 1974
-9.1676 3.4258 1.6079 0 4919
-9.1664 -9.3018 1.2184 2 1837
-9.1098 7.0535 2.1707 0 6801
-9.0973 7.3432 1.0907 0 6915
-9.0857 -10.422 2.6051 0 1672
-8.9139 1.3354 1.6982 0 3736
-8.8521 -10.27 2.2275 1 1651
-8.792 -6.6953 0.77276 0 2243
-8.7833 -6.2558 1.7717 0 2338
-8.7794 0.39099 1.0277 0 3240
-8.7259 -7.3505 2.1496 0 2082
-8.7241 -9.7164 2.4603 0 1713
-8.7117 -12.092 2.808 0 1401
-8.6835 -11.616 2.7325 0 1445
-8.6671 -9.4817 0.59906 1 1733
-8.6166 -8.7438 2.3129 1 1840
-8.5762 -6.8487 1.2835 1 2165
-8.5399 -5.4678 1.4251 0 2450
-8.5388 1.5348 1.4254 2 3865
-8.4652 -8.5364 1.4059 0 1844
-8.4417 -9.6837 0.89832 2 1667
-8.3825 -11.42 2.3274 1 1420
-8.379 -8.8513 0.85228 1 1781
-8.3736 5.4587 1.4048 1 6307
-8.3637 -11.188 1.9632 1 1443
-8.3622 -10.415 2.1945 2 1538
-8.3609 -9.1467 1.7416 2 1737
-8.3438 -6.7422 1.0008 2 2145
-8.2936 -8.7152 1.9766 0 1795
-8.2803 -6.154 0.48111 1 2279
-8.2678 -6.8812 2.0267 2 2102
-8.2069 -10.531 2.5155 2 1504
-8.1805 6.9229 1.5061 1 7046
-8.1753 -5.3702 0.45614 1 2429
-8.1611 -8.0902 0.5359 1 1860
-8.1602 -7.2859 2.0611 0 1994
-8.1033 10.021 1.8112 0 8004
-8.0997 -8.461 1.9244 1 1804
-8.0938 1.2385 0.57256 1 3746
-8.0769 -0.76634 0.37835 0 2713
-8.0734 -10.36 0.91841 1 1499
-8.0551 10.894 -0.31455 0 8217
-8.039 -9.2217 1.7193 0 1670
-8.0051 0.03353 1.5082 0 3068
-7.9954 -7.7915 1.3055 1 1882
-7.995 -11.098 1.9223 0 1399
-7.9897 -7.2193 1.5134 0 1977
-7.9843 -8.4846 1.3624 0 1774
-7.9753 -1.5113 1.5294 0 2475
-7.9164 -5.2318 1.7878 0 2428
-7.8775 4.5389 0.21108 0 5935
-7.8666 -5.3663 0.88842 0 2386
-7.8622 3.8584 1.6501 0 5558
-7.837 -9.1955 1.985 1 1631
-7.817 -5.0358 1.0874 0 2445
-7.8136 -6.9372 1.2219 0 2000
-7.7306 5.9469 0.22644 0 6773
-7.7234 -8.9036 2.2207 2 1663
-7.7089 2.3333 1.5175 0 4498
-7.7058 -6.9213 1.9515 0 1987
-7.7031 -10.241 0.89609 1 1449
-7.699 7.4974 1.5103 0 7438
-7.6423 -8.8101 0.27078 0 1656
-7.6379 -10.928 1.8738 2 1365
-7.6272 3.6576 1.1888 0 5501
-7.542 -11.857 1.6433 0 1254
-7.527 -10.191 2.387 2 1428
-7.5168 -10.687 2.4618 2 1374
-7.5045 -0.14409 -0.35003 0 2962
-7.5021 2.2222 -1.4742 2 4458
-7.4894 -11.693 2.6162 0 1265
-7.4888 7.7225 -1.0036 0 7587
-7.4832 -10.577 0.906 1 1378
-7.4344 7.3211 0 0 7466
-7.393 7.6237 1.4925 0 7593
-7.3698 4.0499 1.3816 0 5821
-7.3579 -0.46034 1.389 2 2813
-7.301 7.6187 -0.73788 0 7615
-7.2489 4.2904 0.78587 0 6005
-7.2102 5.9268 -0.2167 0 6957
-7.2029 1.1241 0.16925 0 3758
-7.1922 -9.1693 1.6378 0 1510
-7.187 -9.8487 1.7135 0 1411
-7.1784 3.8636 0.57005 0 5762
-7.151 -8.4921 0.51773 1 1609
-7.1354 -7.0315 1.8874 1 1870
-7.0811 8.1086 1.0043 0 7849
-7.0269 3.4212 0.36447 0 5533
-6.9175 -6.9757 0.68696 0 1842
-6.9047 5.9831 0.85238 2 7111
-6.8937 -10.905 2.1196 2 1249
-6.8835 9.8379 0.55993 1 8352
-6.8621 -9.9361 1.6971 0 1351
-6.8159 -0.94578 -0.48118 0 2580
-6.7964 -5.1122 1.1952 0 2265
-6.7953 4.8042 0 0 6523
-6.765 3.2703 -0.17445 0 5512
-6.7455 6.9196 0.45065 0 7577
-6.7382 -5.0684 1.5886 0 2267
-6.6937 -10.451 0.57875 2 1259
-6.6525 -4.3136 0.55442 0 2438
-6.6511 -10.521 2.3451 0 1250
-6.6499 -4.2577 0.9234 0 2449
-6.575 -12.728 1.3365 0 1030
-6.5559 6.7251 -0.43798 0 7573
-6.4988 3.7703 1.2344 0 5961
-6.4922 -7.8925 0.95344 1 1569
-6.4811 6.8011 1.7701 0 7643
-6.4706 -10.04 0.83526 1 1267
-6.4482 2.7119 0.98312 0 5209
-6.4136 2.2272 0.95417 0 4760
-6.3214 10.659 -0.28772 0 8715
-6.3128 -7.3238 1.3589 2 1650
-6.3052 -10.04 2.2337 2 1245
-6.2466 3.7193 0.16879 0 6021
-6.1312 10.076 0.27384 0 8658
-6.0934 6.0341 1.0028 1 7487
-6.0912 0.78786 1.1572 0 3643
-6.0646 -9.2359 0.77262 0 1287
-6.0551 4.6884 0 0 6790
-6.0365 5.514 -0.18982 0 7259
-5.9733 -13.316 1.7067 1 903
-5.9313 -8.4865 1.9508 2 1367
-5.9302 0.97855 0.13954 1 3796
-5.8323 -10.25 0.82466 0 1140
-5.8175 5.6652 -1.1412 0 7430
-5.7841 -6.442 -0.20101 0 1707
-5.7686 -10.069 1.6308 2 1149
-5.7527 -5.288 -0.18142 0 1948
-5.7483 -6.0723 -0.5847 0 1778
-5.7304 -9.3001 2.0582 0 1226
-5.7222 -5.4169 0.36745 0 1912
-5.6966 -9.5523 0.51866 1 1186
-5.6933 6.116 -0.194 0 7690
-5.6898 6.3681 0.19827 0 7785
-5.6755 0.3342 0.53041 1 3307
-5.6223 -9.4277 1.8034 1 1191
-5.6053 -8.0202 1.6076 2 1366
-5.5812 3.0468 0.7436 0 5802
-5.579 11.021 2.0294 0 9021
-5.5661 5.1417 0.52987 0 7302
-5.5421 -10.144 1.8991 2 1092
-5.5087 7.321 0.42726 0 8183
-5.4933 -10.336 1.645 0 1059
-5.4703 -9.2978 0.75435 0 1172
-5.4102 4.2147 -0.15923 0 6809
-5.3825 -3.8096 0.1531 0 2342
-5.3639 3.3025 0.73663 0 6122
-5.3528 5.617 0.54257 0 7635
-5.2591 7.1988 1.6797 0 8250
-5.2328 3.478 -0.29301 0 6355
-5.2198 2.3744 0.13314 0 5384
-5.1598 -4.5553 1.2968 0 2010
-5.1484 0.65039 0.36287 0 3623
-5.1413 -4.1293 -0.1531 0 2152
-5.1396 7.3455 0.8364 0 8355
-5.028 2.4828 0.52317 0 5570
-5.0135 -0.93463 0.47579 1 2476
-4.9793 1.0748 0 0 4016
-4.8654 10.187 -0.2621 0 9116
-4.8483 7.3277 0.40975 0 8486
-4.8216 2.1933 0.49419 0 5390
-4.8134 2.8659 0 2 6020
-4.7737 -8.7957 0.6998 0 1081
-4.7654 8.2572 -0.44459 0 8770
-4.7254 -4.3209 0.89989 1 1959
-4.6596 9.6863 1.257 0 9109
-4.6261 12.127 1.2109 0 9296
-4.6006 2.4421 -0.12093 0 5725
-4.5771 9.3142 1.4585 0 9071
-4.5546 -3.1644 -0.25863 0 2359
-4.3414 2.9771 0.6156 1 6442
-4.2619 -9.008 0.23137 0 946
-4.2205 9.852 0 0 9218
-4.2151 9.5254 1.7113 0 9198
-4.2136 10.413 1.3137 0 9254
-4.1968 6.631 -0.36596 0 8572
-4.1906 -3.0391 -0.12019 0 2309
-4.1691 -6.724 -0.73812 0 1227
-4.1484 5.0684 -0.92049 0 7966
-4.1214 -12.543 -0.30652 0 746
-4.0498 7.8329 1.0312 0 8982
-4.0116 5.7676 -0.65545 1 8362
-3.9907 12.246 1.8101 0 9408
-3.9402 9.1228 -0.23072 0 9213
-3.9381 7.4033 0.78234 0 8925
-3.8611 -10.591 -0.26172 0 779
-3.8457 -9.6785 0.72826 0 805
-3.8339 -9.1027 0.92149 1 844
-3.8067 -10.442 -0.51829 0 778
-3.8035 4.3816 0.95327 0 7866
-3.8028 -7.9158 0.81931 0 961
-3.791 -8.3186 1.0691 0 917
-3.7836 -7.222 -0.38021 1 1042
-3.7734 -3.5522 0.24167 0 1919
-3.7084 -6.0992 0.16573 0 1207
-3.6683 9.7905 0.24274 0 9311
-3.6632 9.603 0 0 9294
-3.6592 5.1642 1.0398 0 8321
-3.655 5.1928 -1.3498 0 8337
-3.6528 8.0043 0.41031 0 9170
-3.6197 -8.8832 0.89492 0 820
-3.5901 -4.7178 0.13764 0 1464
-3.5801 -3.9165 -0.24745 0 1730
-3.4365 -8.796 0.21925 0 801
-3.3528 -6.3537 -0.16679 0 1047
-3.3501 -4.428 0.12891 0 1455
-3.3177 -5.7164 1.0859 0 1163
-3.317 -8.565 1.509 0 799
-3.2263 -4.8819 -0.27289 0 1292
-3.2137 -5.0174 0.13834 0 1258
-3.191 6.2143 0.65173 0 8994
-3.1834 8.1398 -1.2283 0 9272
-3.1505 4.7026 -1.0665 1 8460
-3.1473 5.138 0.42133 0 8643
-3.124 5.4837 0.29431 0 8798
-3.0879 8.461 0.8403 0 9336
-3.0528 12.975 2.1899 0 9628
-3.0444 -5.6897 0.30093 0 1064
-3.0106 -6.8713 -0.34984 0 874
-2.9694 -8.006 0.79664 0 787
-2.9544 6.0952 0.95194 0 9097
-2.9206 -8.9726 0 0 743
-2.8338 9.3389 -0.45512 0 9446
-2.8269 -10.057 0.97462 0 713
-2.8212 -7.6719 1.5401 0 784
-2.8157 -7.3275 0.73236 0 794
-2.8043 4.6689 -0.50812 0 8683
-2.7853 4.6686 1.0243 0 8709
-2.7773 -8.5324 0.83714 0 744
-2.7612 10.255 0.99079 0 9523
-2.7605 5.0463 0 0 8864
-2.7378 -9.8454 1.6789 0 711
-2.7375 9.3072 0.45242 0 9464
-2.7063 5.0877 0.94678 0 8928
-2.7003 -6.6801 1.0126 0 816
-2.6413 7.0494 1.058 0 9314
-2.6093 4.8038 0.63929 0 8884
-2.5898 -8.7318 0.63688 0 721
-2.5378 5.784 -0.14665 0 9201
-2.5318 8.3434 1.4325 0 9450
-2.5276 4.5901 0 0 8854
-2.5133 -6.8345 0 0 782
-2.4945 -5.7343 0.73128 0 871
-2.4569 8.4401 0.40993 0 9471
-2.4362 6.0207 0.30289 0 9252
-2.3158 -9.2605 0.44515 0 688
-2.2839 -10.546 0 0 664
-2.2484 7.9829 -0.96986 0 9485
-2.2469 -9.9621 1.9241 0 671
-2.2369 10.597 1.2665 0 9708
-2.1943 -7.891 0.76413 0 710
-2.1797 -8.1178 1.1813 0 696
-2.1788 -9.7877 -0.2328 0 666
-2.1531 -9.1656 0.87839 0 679
-2.1082 10.927 1.8284 0 9742
-2.1024 9.5462 1.606 0 9681
-2.035 7.9315 -0.76394 1 9550
-2.0112 -10.464 1.7506 0 643
-1.9939 7.8568 0.18819 0 9560
-1.9487 8.7324 -0.83473 0 9665
-1.9343 5.0707 -1.4207 0 9297
-1.9095 -5.0613 0.88874 1 792
-1.8055 -8.458 0.40332 0 661
-1.8043 10.317 1.7207 0 9785
-1.7969 -7.0962 0.68294 0 690
-1.7759 11.1 -1.0488 0 9807
-1.7701 -7.1687 -0.17143 0 686
-1.7498 8.0657 1.356 0 9692
-1.7199 -9.8543 -0.23225 0 630
-1.6607 5.5248 -0.53822 0 9451
-1.6547 -10.172 0.23926 0 613
-1.6523 -8.4533 1.0073 0 645
-1.5921 9.1033 0.21456 0 9781
-1.572 7.7823 0.74072 0 9726
-1.5617 12.259 -1.4451 0 9886
-1.5508 5.8323 -1.4299 0 9531
-1.5225 -7.5642 -0.17914 0 650
-1.3645 -8.0931 1.1535 0 622
-1.36 -6.0298 0.28826 0 670
-1.3502 11.981 0.27992 1 9927
-1.3004 6.3521 -0.75823 0 9719
-1.2752 8.1157 -1.1546 0 9810
-1.2576 -7.3419 1.0469 0 628
-1.2524 6.8106 -0.8098 0 9756
-1.2465 -10.286 0.96663 0 573
-1.2445 -12.36 1.1589 0 546
-1.1598 7.5353 0 0 9819
-1.1362 9.5855 1.5859 0 9914
-1.1215 6.7528 0.47867 0 9799
-1.1174 -7.2767 0.68684 0 606
-1.0911 -8.7977 1.4565 0 579
-1.025 -9.3742 1.7767 0 553
-0.95173 -9.7591 0.9148 0 544
-0.95102 4.9293 0.46836 0 9740
-0.90421 -5.8884 0.41659 0 605
-0.90066 -7.7961 0.73217 0 564
-0.86311 -6.3586 0.90184 0 592
-0.85698 9.0323 -1.2751 0 9962
-0.84358 -6.6496 0.62535 1 583
-0.84352 9.7791 -0.91573 0 9988
-0.77129 10.306 0.72268 0 10008
-0.76433 -6.8034 1.1248 0 558
-0.75587 12.538 0.29162 1 10031
-0.73354 -11.162 0.52164 1 515
-0.72869 8.4478 0.79107 0 9992
-0.64466 7.2233 0 0 9984
-0.59965 5.3209 -0.12432 0 9926
-0.5065 7.707 -0.36018 0 10019
-0.49408 8.1955 0.76599 0 10032
-0.44557 7.7985 -1.0978 0 10034
-0.43773 -10.273 1.2024 0 497
-0.41618 -5.1839 0.12074 0 524
-0.39848 -5.8301 0.40863 0 517
-0.27488 -5.7018 -0.13253 0 503
-0.2217 11.239 1.5799 0 10092
-0.21896 -8.8331 1.0333 0 474
-0.21472 -13.371 2.1971 0 461
-0.19351 -10.078 0.94044 0 464
-0.18248 11.004 0 0 10097
-0.18184 10.966 0.7669 0 10098
-0.12567 -7.8261 1.1 0 460
-0.089685 -6.7609 0.47281 0 456
0.042551 -10.6 1.7415 0 442
0.044301 12.088 1.4136 0 10125
0.076785 -6.11 1.1513 0 437
0.080853 8.7404 1.4361 0 10136
0.11483 5.3918 -0.75794 0 10150
0.14846 9.665 1.1304 0 10146
0.16338 -8.8301 -0.20504 0 433
0.16599 10.807 1.5189 0 10147
0.17445 5.8436 0.68366 0 10167
0.19039 7.9031 -0.36866 0 10153
0.21797 -10.152 0 0 430
0.22691 -10.568 0.49295 1 431
0.23581 -7.8074 0.54619 0 424
0.2524 9.4496 0.88192 0 10162
0.26847 -8.1357 0.56921 0 420
0.32812 -6.932 0.97533 0 408
0.35878 -9.297 0.43388 0 416
0.37452 -5.5078 0.12817 0 395
0.40285 5.5121 1.0413 0 10214
0.41507 -9.9865 -0.46611 0 413
0.43173 8.1292 0.75948 0 10188
0.45552 9.6594 -1.1308 0 10178
0.45752 7.7696 1.4664 0 10196
0.5496 9.3333 0.21707 0 10194
0.56353 7.3912 1.2178 0 10217
0.65127 10.071 0.94155 0 10204
0.74829 7.0957 -0.66566 0 10237
0.75038 -7.5045 -0.1751 0 376
0.80021 5.5738 1.0609 0 10281
0.83765 12.953 -0.30137 0 10202
0.8707 -11.368 -0.2647 0 391
0.88567 -10.373 0.24172 0 386
0.89705 -8.9715 0.42046 0 377
0.92613 -6.0594 0.86148 0 338
1.0165 5.0776 -0.24149 0 10340
1.0567 -4.9628 0 0 290
1.061 6.565 -0.1544 0 10298
1.0871 8.8155 0.62111 0 10258
1.1069 -7.8463 0 0 347
1.1117 11.871 0.55602 1 10229
1.1369 10.216 -1.4446 0 10244
1.1516 4.992 -0.59911 2 10380
1.1989 -9.0701 1.7238 0 356
1.2044 -9.5473 1.581 0 359
1.214 6.4433 1.2353 0 10327
1.2144 8.6191 0.81206 0 10277
1.22 -5.4224 0 0 275
1.2307 4.8814 0.46966 0 10423
1.2399 -6.3667 0.91158 0 304
1.3483 -6.8222 -0.16145 0 301
1.3594 -7.9698 0.75428 0 326
1.3819 7.7111 -0.73087 0 10314
1.4362 7.7488 0.55108 0 10319
1.4568 -7.6077 0.17984 0 309
1.563 -4.7681 0.94539 0 193
1.5897 -8.1632 1.3664 0 305
1.6102 7.8028 1.309 0 10349
1.6182 7.7258 -0.3681 0 10351
1.7496 -6.0378 0.88347 0 219
1.7496 6.5386 0.31565 0 10444
1.7632 10.525 0.99562 0 10304
1.7763 7.0456 0.1687 0 10420
1.79 -4.8391 0.48137 0 161
1.844 6.2374 -0.15101 0 10487
1.8955 5.5175 0 0 10562
1.9182 -10.682 1.5253 0 320
2.0298 -5.1188 -0.38506 0 153
2.0767 -7.7559 0.74908 0 234
2.0807 -8.5612 -0.41087 0 257
2.0839 -5.2554 0.66113 0 154
2.2475 -10.881 1.8255 1 297
2.2499 4.5925 0 0 10914
2.294 9.8189 0.2341 0 10389
2.3245 -8.7793 0.63506 0 237
2.3734 7.6203 0.74462 0 10513
2.3786 -11.171 1.6052 0 291
2.4004 -8.0212 1.5775 0 212
2.4623 10.4 0.9971 0 10395
2.4811 7.7231 0.18833 0 10528
2.5021 -10.295 0.24599 0 258
2.5298 4.7419 -0.12478 0 11062
2.6122 11.033 1.8628 0 10399
2.6189 12.164 2.0443 0 10359
2.6507 -9.5644 1.6306 0 227
2.6968 4.7802 0.90171 0 11167
2.7274 5.5233 0 0 10926
2.7488 8.7394 0.2127 0 10520
2.7701 -10.462 1.7781 0 238
2.7702 -4.9425 -0.26422 0 90
2.7975 9.9925 -0.48391 0 10462
2.9004 6.0105 -0.46667 1 10890
2.9261 4.1696 0.47524 1 11688
2.9826 -5.1474 -1.2645 0 87
2.9981 -8.9657 0.44087 0 181
3.0042 -7.9129 0 0 160
3.0903 -5.1574 0.13959 0 81
3.1601 -9.45 1.6371 0 183
3.222 -3.9379 -0.71507 0 20405
3.2411 11.325 1.9354 0 10475
3.2691 -4.9541 0.69412 0 51
3.2966 6.0514 -0.80585 0 11093
3.3019 9.3451 0.23011 0 10576
3.3257 7.0996 -0.73143 0 10840
3.3374 -11.905 0 0 224
3.3824 -8.6042 1.2993 0 157
3.3997 3.9777 0.73539 1 12275
3.4152 -8.1883 0 0 149
3.4774 -6.4663 0.85859 0 105
3.4837 12.038 2.0589 0 10480
3.494 -7.1259 1.4953 0 131
3.4972 8.4639 0 0 10692
3.5066 -6.9964 0.73013 0 126
3.5469 -5.6237 0.31006 0 72
3.5569 -8.604 1.7541 0 152
3.5584 6.9062 0.54326 0 11000
3.5791 11.491 1.6915 0 10514
3.6184 5.8131 -0.47881 0 11389
3.7252 8.5186 -0.21586 0 10756
3.737 -5.0263 -0.73245 1 20482
3.7405 6.1666 0.50434 0 11323
3.7709 -11.179 1.6581 0 178
3.7855 3.7842 -0.12427 0 12753
3.7909 -8.7309 1.5638 1 147
3.7926 5.9738 0 0 11432
3.8129 3.6398 0.99316 0 12925
3.8303 -4.239 0.53301 0 20333
3.8812 -3.2683 -0.47338 0 20281
3.9168 -7.2349 1.1563 0 102
3.9533 7.5108 -0.19706 0 11042
3.9538 -8.4984 -0.65543 1 137
3.9655 5.1886 -1.0729 2 11899
3.9924 9.8172 0.98874 0 10675
4.0627 -7.2993 -0.77936 0 91
4.0661 -11.288 1.1193 0 164
4.1448 -4.2045 0.82975 0 20306
4.1576 -7.5253 1.0054 0 94
4.2135 -4.9142 1.0635 0 20366
4.233 9.7632 1.7483 0 10749
4.2377 -10.78 1.3545 0 156
4.2488 10.122 0 0 10711
4.3574 -7.6735 0.41152 0 88
4.3612 -6.6977 0.55889 0 58
4.3688 6.0753 0.87508 0 11751
4.3918 -5.0647 -0.46876 0 20355
4.3998 -3.5135 0.92506 0 20262
4.4059 -4.0021 0.97791 0 20292
4.4665 -2.9518 1.0087 0 20120
4.5009 -7.0001 1.1696 0 67
4.5331 3.3165 -1.4704 0 13881
4.5448 2.6643 0.7404 0 14665
4.561 7.5699 1.0335 0 11309
4.5975 6.5077 0.18499 0 11700
4.6338 2.4534 -0.36664 0 15001
4.6412 5.6243 -0.1693 0 12153
4.6703 5.0346 -0.4802 1 12505
4.6995 -7.8991 1.0749 0 83
4.7201 3.2903 -0.26832 1 14041
4.8244 3.509 0.2782 0 13899
4.8276 -3.523 0.13875 0 20205
4.8366 -4.0254 -0.44002 2 20276
4.8808 7.1282 1.2141 0 11630
4.906 10.09 1.312 0 10905
4.9134 -5.7978 0.35441 0 20375
4.9636 4.7383 0.15932 0 12914
4.9998 -7.2558 0.20458 0 25
5.0069 6.7986 0.59042 0 11810
5.0233 -4.2812 0.15324 0 20282
5.0286 -0.012287 0.11675 0 18586
5.0366 1.0229 0.35939 0 17387
5.0391 -2.7726 0.80832 0 19992
5.0504 -0.45074 -0.23646 0 19004
5.0775 -3.5263 0.72292 0 20163
5.1041 1.0366 -0.24289 1 17382
5.1159 0.84052 0.85178 0 17646
5.1164 11.801 1.2 0 10746
5.1173 -7.5639 0.852 0 35
5.165 -3.4134 1.0171 0 20118
5.1805 -5.3777 -0.87322 0 20312
5.2219 6.6742 0.991 0 11997
5.241 12.281 2.1938 0 10729
5.2427 -3.044 0.14075 0 20027
5.246 -0.36039 0.73901 0 18925
5.2513 -3.0099 -0.70782 1 20017
5.2769 -7.4971 0.42754 0 20528
5.2775 -4.8241 0.166 0 20293
5.2783 9.7498 2.0889 0 11090
5.2899 -8.3292 1.3867 0 71
5.2899 -3.883 1.0781 0 20216
5.2963 -5.2193 -0.51996 0 20300
5.32 -1.5476 0.12863 0 19554
5.3473 5.47 1.2568 1 12691
5.4087 -0.67273 0.50849 2 19170
5.432 1.5034 -0.39412 2 16849
5.4457 -5.0622 1.4009 0 20296
5.4538 -2.4866 0.55921 0 19830
5.464 -6.7211 1.4231 0 20414
5.4962 -4.2357 1.14 0 20247
5.5731 -2.8396 0.58355 0 19929
5.5885 -5.9035 0.3791 0 20317
5.6247 -8.579 1.6854 0 55
5.626 -1.1682 -0.4018 2 19401
5.6586 6.0279 0.19195 0 12549
5.7478 -1.2123 0.82557 0 19414
5.7534 -4.0226 0.82095 0 20169
5.7585 -0.24639 -0.26879 0 18793
5.8223 -8.2936 -0.70859 0 8
5.8308 1.7238 0.85452 2 16727
5.8883 8.6514 0.24297 0 11605
5.91 -8.4718 1.6971 0 17
5.9232 5.5895 0.56949 0 12956
5.963 3.9036 0.66492 0 14268
6.0002 -3.9145 0.3341 0 20103
6.0117 -1.5974 0.14442 0 19513
6.0478 -3.4426 0.48662 0 20014
6.1024 4.3592 0.69966 2 13964
6.1026 2.0953 0.1498 0 16373
6.1099 -4.143 1.3909 0 20142
6.1701 0.058154 0.14326 0 18532
6.1928 8.3538 0.97016 0 11830
6.1958 -1.2684 0.14683 0 19396
6.1991 0.72603 0.72989 0 17926
6.218 -0.39229 -0.14465 0 18892
6.2516 -7.9187 -0.47049 0 20432
6.3249 0.88891 0.29785 0 17782
6.3439 -5.6621 -0.5946 0 20288
6.3829 -4.6853 0.18383 0 20212
6.4214 8.8774 1.0222 0 11764
6.4221 -1.1405 1.0716 0 19335
6.4666 -1.2663 0.61476 0 19379
6.4877 4.8358 1.5245 0 13817
6.4888 -3.2834 -0.50852 1 19920
6.5047 -3.7283 -0.69948 0 20018
6.5254 8.965 1.2967 1 11781
6.541 0.53547 0.30605 0 18141
6.5435 4.0445 0.71768 2 14477
6.554 -2.0526 1.1284 0 19589
6.5807 -0.56763 0.92828 0 18995
6.5877 -2.799 1.0059 0 19772
6.5951 -4.3322 -0.55177 0 20109
6.5992 2.3291 1.1498 1 16307
6.6383 -4.0092 -0.54229 0 20054
6.7044 8.3685 1.254 2 12067
6.7132 -3.1319 -0.69112 0 19846
6.7253 8.9054 1.0411 2 11875
6.74 1.2674 -0.15923 0 17482
6.7451 1.1481 0.15885 0 17602
6.7669 -2.9199 0.34369 0 19787
6.7709 8.8592 1.5671 2 11916
6.8232 5.695 1.6745 2 13408
6.8281 0.4607 1.2894 0 18239
6.8421 -7.2708 1.1675 0 20320
6.8675 9.8516 1.973 1 11676
6.8882 -7.4048 0.2348 1 20324
6.9237 -1.8397 1.3498 0 19520
6.9277 -2.035 0.5049 0 19559
6.9461 2.658 0.86974 0 16087
6.981 13.163 1.39 0 11054
6.9817 7.5264 1.2005 0 12514
7.0085 1.9397 0 0 16853
7.0313 -5.3506 0.82432 0 20243
7.0388 -2.6808 1.0586 0 19696
7.0607 0.37251 0.9937 0 18316
7.0742 -3.1748 0.18002 0 19818
7.0806 -1.1303 0.33438 0 19291
7.0903 1.3975 0.84511 0 17430
7.1099 -9.504 1.388 0 20479
7.1279 1.2351 -0.33736 0 17578
7.1574 4.806 1.2116 2 14184
7.1654 -0.24396 1.0076 0 18753
7.1692 0.96677 0.33736 0 17819
7.1716 -2.3815 1.2415 0 19614
7.2149 -7.9849 1.7681 0 20336
7.231 2.741 0.54075 0 16111
7.2368 -4.7537 -0.80779 0 20108
7.2757 9.5784 2.2663 1 11898
7.2995 2.964 0.92131 0 15908
7.3021 1.1997 0.17181 0 17639
7.3061 7.7395 1.7486 2 12580
7.3181 7.2748 0.72156 0 12777
7.3219 0.72824 0.68647 2 18035
7.3365 12.93 1.7385 0 11177
7.3693 -2.2376 0.90063 0 19572
7.3766 0.60388 1.0402 0 18147
7.4365 -2.8591 -1.309 0 19699
7.4805 5.9183 -0.8899 1 13581
7.481 3.6358 0.19311 0 15299
7.5015 -1.5139 0.71397 0 19391
7.593 3.9645 0.19887 0 15061
7.6424 6.415 1.4023 0 13383
7.6502 -4.1814 1.2253 2 19988
7.6506 -7.6693 1.7798 0 20305
7.6775 0.89918 1.4564 0 17930
7.7812 8.052 1.0447 2 12653
7.8111 11.991 1.0007 1 11495
7.8294 -9.1832 1.4112 0 20370
7.8379 7.35 2.0245 2 12985
7.8648 4.8916 0.43192 2 14451
7.8713 5.2853 1.7863 2 14188
7.8726 6.3796 1.185 2 13512
7.8786 -2.7946 0.58456 0 19650
7.8819 -6.2181 1.6494 0 20256
7.882 11.81 1.3246 0 11558
7.9101 -8.8594 0.27574 0 20342
7.9257 6.1235 1.6455 1 13681
7.9314 7.7022 1.8164 2 12860
7.977 7.9742 1.5852 1 12763
8.0317 2.6531 1.3897 2 16477
8.0322 0.33103 1.1298 0 18381
8.0559 -0.55344 0.75335 0 18923
8.0853 8.4137 0.27092 0 12628
8.0904 -4.7923 0.87727 0 20044
8.1158 -4.5283 -0.86705 0 20001
8.1307 9.2355 0.57381 1 12353
8.1313 11.45 2.3073 0 11723
8.1663 9.8364 1.1927 1 12178
8.1687 6.0137 1.9111 0 13865
8.2005 4.2217 1.2963 0 15119
8.2264 -5.4739 -0.92186 0 20122
8.2323 3.8826 1.0644 0 15402
8.2415 5.7088 1.8889 2 14077
8.2473 9.1019 1.1459 2 12441
8.2542 0.58153 1.1629 0 18221
8.2594 -4.118 1.0793 0 19908
8.2918 -6.0133 1.6828 0 20200
8.3035 4.2455 0.4349 0 15138
8.3244 5.4163 0.23058 0 14284
8.3249 -3.5663 0.84495 0 19779
8.3346 2.2801 0.60423 2 16882
8.3366 6.7124 1.2516 2 13532
8.3439 4.7342 0.22273 0 14765
8.3612 8.1195 0.27059 0 12850
8.3719 3.6558 1.7212 2 15673
8.4028 1.2558 1.3959 0 17731
8.4098 10.877 0.64117 1 11952
8.4472 -7.1993 1.5599 0 20283
8.4605 4.9598 1.1469 1 14664
8.4701 8.3235 1.669 0 12821
8.4901 6.139 1.4725 1 13927
8.5059 5.5344 0.94675 2 14290
8.5757 9.1867 0.87879 1 12532
8.5906 -6.1889 1.9948 0 20196
8.5906 -4.6954 0.68459 0 19987
8.6105 6.1101 0.98503 1 13985
8.6112 8.2636 -0.83457 0 12890
8.6215 3.6756 1.5398 0 15757
8.623 5.122 1.8897 2 14623
8.6532 -0.5702 0 2 18904
8.6637 7.665 1.0792 1 13182
8.675 7.4118 0.79787 0 13312
8.6796 9.4654 1.5018 0 12478
8.6813 9.2479 0.59152 1 12551
8.7109 2.9332 0.2134 0 16420
8.7263 6.347 1.2619 0 13905
8.7678 8.6643 0.57484 2 12794
8.7774 4.2659 1.6034 2 15308
8.79 11.501 1.6928 0 11914
8.7924 7.2067 1.3295 2 13469
8.8083 5.232 0.7164 0 14614
8.8206 1.5283 1.4708 0 17588
8.8267 11.491 2.0364 0 11937
8.8271 1.0338 0.82915 0 17924
8.8451 5.6458 1.724 1 14365
8.8563 9.9401 1.871 2 12395
8.8755 -7.1259 1.5997 0 20265
8.8768 2.7054 0.43276 2 16654
8.8923 -6.7276 1.832 0 20240
8.8933 -4.2096 1.3828 0 19860
8.9196 2.4401 1.7423 0 16891
8.9374 9.8014 1.2375 1 12459
8.9418 -3.5547 -1.1253 0 19722
8.9672 3.9475 1.846 2 15645
9.0232 7.8881 0.55891 1 13224
9.0428 4.9919 0.96366 2 14868
9.0525 10.708 2.3037 0 12238
9.0532 6.2291 0.76844 0 14090
9.0619 10.846 1.9863 0 12198
9.0684 0.55783 -0.21094 0 18264
9.0701 7.0077 1.3404 1 13679
9.0825 4.2217 1.6455 1 15461
9.1341 3.9565 1.399 0 15697
9.1384 2.7852 -0.2218 0 16650
9.1925 5.9811 1.8018 1 14294
9.241 8.4175 2.3551 0 13080
9.2717 0.8128 1.5291 0 18110
9.2831 9.721 2.5325 0 12620
9.2957 8.5659 0.29348 2 13031
9.308 1.0358 0.21744 0 17960
9.3139 8.2402 1.7477 2 13185
9.3366 1.6177 0.44189 0 17583
9.3668 11.481 1.7327 1 12122
9.3688 2.1871 1.8126 0 17187
9.3801 5.7211 1.2849 0 14523
9.3808 -7.7605 2.0002 0 20274
9.3894 8.4542 2.0758 1 13118
9.4183 7.1049 1.3796 0 13769
9.4376 -0.92536 0.66311 0 19047
9.4758 7.0194 2.2218 1 13842
9.4931 10.234 0.65096 1 12508
9.5775 10.029 1.949 0 12618
9.5779 5.5053 1.5526 1 14727
9.5958 5.1884 1.0177 1 14940
9.6045 4.9107 0.25044 2 15136
9.6378 -3.2941 0.23647 0 19628
9.664 3.6344 0.72198 1 16138
9.6716 2.9182 1.9034 0 16687
9.6745 6.6566 2.2126 1 14098
9.6815 10.617 2.0194 0 12463
9.7029 7.3196 2.29 2 13773
9.7195 3.3031 0.95772 2 16400
9.7466 6.062 0.80262 0 14453
9.785 -3.9236 -1.4816 2 19726
9.8178 10.4 0.33205 1 12568
9.8232 7.3647 2.0171 1 13793
9.8309 -8.182 1.7976 0 20278
9.8372 11.107 2.4376 2 12381
9.8506 2.7559 0.47701 2 16834
9.8619 3.0057 1.2056 2 16658
9.8849 7.2771 1.1452 1 13859
9.8867 6.1109 0.26985 0 14472
9.8888 3.2992 0.48614 2 16444
9.9261 4.0629 1.0006 0 15883
10.015 1.2013 1.6572 0 17910
10.027 5.7635 0.53934 2 14721
10.029 4.5197 0.51298 1 15554
10.032 -4.5024 -1.0259 0 19817
10.061 9.7094 0.32463 1 12871
10.091 6.6893 2.2811 0 14230
10.097 -3.518 0 0 19638
10.119 10.413 0.33711 1 12666
10.126 0.74007 -0.23573 0 18194
10.127 6.0972 0.82661 0 14567
10.129 6.3862 1.4003 0 14412
10.15 -3.1108 1.7441 1 19577
10.151 9.7958 1.3161 0 12877
10.169 6.9551 1.4407 0 14117
10.211 10.035 0.66763 1 12813
10.227 3.8768 1.2791 0 16115
10.239 -2.7876 1.241 0 19528
10.275 9.6351 0.98496 1 12977
10.276 3.7279 0.25379 0 16227
10.36 5.9982 0.55826 1 14700
10.386 5.0096 2.1726 0 15334
10.508 4.9557 1.0839 0 15400
10.555 0.16213 0.49229 1 18504
10.57 10.507 0.34603 1 12773
10.584 3.061 0.51382 2 16768
10.586 8.0819 0.30921 2 13713
10.617 9.2293 1.9771 0 13253
10.689 10.204 0.68916 1 12916
10.69 8.6626 0.64164 1 13506
10.737 6.0919 1.7349 0 14773
10.751 4.3283 0.54046 1 15928
10.881 4.4181 2.2126 1 15913
10.902 9.7617 0 0 13126
10.919 -2.5008 1.3099 0 19445
10.943 -4.1328 1.9218 0 19690
10.952 2.9963 0.26363 0 16879
10.963 3.7257 0.26883 0 16396
10.966 8.8294 0.65655 1 13526
10.986 2.7635 1.8611 0 17044
11.043 -5.7045 1.4535 0 19943
11.066 -5.2026 2.009 1 19854
11.066 3.3053 0.5386 1 16700
11.067 9.1297 1.0032 1 13442
11.075 2.0186 1.0502 0 17526
11.09 4.8037 1.4133 0 15695
11.114 8.1311 1.9353 1 13883
11.116 1.2036 0.78183 0 17979
11.124 3.217 1.0803 1 16770
11.13 7.5697 1.5741 0 14140
11.216 3.8511 0.82926 0 16375
11.231 3.2479 0.27143 0 16766
11.232 -6.1801 2.1063 0 19993
11.262 8.3422 0.65357 1 13832
11.3 3.9151 0.27765 0 16348
11.301 9.3725 0 0 13417
11.311 -1.6763 1.0668 0 19249
11.316 3.9207 1.1173 2 16353
11.317 8.031 1.6229 1 13986
11.39 9.1219 2.0509 0 13554
11.394 -9.7111 2.4597 0 20284
11.406 -0.58781 0.53263 1 18842
11.462 7.7957 0.96934 1 14137
11.49 -4.3759 1.147 0 19695
11.697 3.5649 1.7185 1 16660
11.773 8.3051 1.6849 0 14007
11.789 0.52091 1.101 0 18361
11.811 8.749 1.3713 1 13836
11.87 9.0031 0.69475 1 13739
11.891 -8.5666 2.4078 0 20194
11.942 -3.2871 2.3337 0 19537
12.003 3.6948 1.765 0 16637
12.037 8.7547 2.0918 0 13906
13.263 -4.7044 2.6514 0 19654
13.35 -2.772 1.5945 0 19406
13.805 0.36633 0.32063 1 18448
-14.027 -2.3196 -1.6626 0 2507
-4.5487 12.463 -1.5515 0 9331
-0.6238 4.1345 -1.9791 0 9824
3.3576 10.261 -1.5173 0 10531
4.6313 9.8867 -1.7937 0 10836
5.0094 -2.1615 -1.9858 0 19785
5.4716 13.132 -1.9994 1 10697
6.7552 8.1859 -1.9996 0 12167
6.9573 -0.17611 -1.8219 1 18704
8.7499 -5.2201 -1.9197 1 20050
