VERSION .7
FIELDS x y z intensity index
SIZE 8 8 8 8 8
TYPE F F F F F
COUNT 1 1 1 1 1
WIDTH 837
HEIGHT 1
VIEWPOINT 0 0 0 1 0 0 0
POINTS 837
DATA ascii
-4.8962 0.34066 0 0 3339
-4.8114 -0.22522 0.11183 0 3269
-4.7424 0.095199 0.66664 1 3307
-4.7226 0.49386 0.78012 0 3385
-4.708 1.3892 0.22891 0 3654
-4.6358 0.47171 0.43473 0 3382
-4.5028 -0.54011 0.21149 0 3224
-4.3869 -0.10338 0.51315 0 3283
-4.3508 1.6788 0.76618 0 3859
-4.2994 2.392 0 0 4343
-4.2602 1.8312 -1.3297 0 3956
-4.213 1.6817 -0.85466 0 3886
-4.1747 -0.63584 0.098042 0 3212
-4.1739 0.55989 -0.49248 1 3418
-4.1428 -0.38724 -0.096603 0 3240
-4.1131 1.3714 -0.81689 0 3746
-4.0761 2.3934 -0.89058 0 4445
-4.0665 1.8893 0.63018 0 4051
-3.8969 2.3019 0 0 4450
-3.8884 1.5647 -0.19546 0 3891
-3.8159 1.4222 0.37993 0 3836
-3.8068 1.4949 -0.57478 0 3866
-3.7064 -3.3279 0.81838 0 3061
-3.6778 2.5666 -1.1741 0 4796
-3.644 2.2983 0.70782 1 4586
-3.6198 -2.8721 -0.10728 2 3123
-3.4435 3.4495 -0.34083 0 5862
-3.3207 0.075937 0.62581 0 3310
-3.307 -2.986 0.52105 1 3057
-3.2574 3.2631 -1.4387 1 5869
-3.1796 0.73115 0.61471 0 3559
-3.1441 -2.7254 -0.096603 0 3082
-3.1121 0.98782 -0.075806 0 3702
-3.108 2.5684 -0.66242 0 5272
-2.9727 3.5053 0.42879 0 6278
-2.8931 1.7212 0.15699 0 4465
-2.8657 3.2425 -0.2018 0 6182
-2.8579 -3.5774 0.53545 0 2923
-2.8381 3.4064 -1.4981 0 6331
-2.7505 2.5399 -0.98008 0 5642
-2.678 2.4729 0.42627 0 5643
-2.6578 1.5506 -1.0397 0 4431
-2.6311 -2.1882 0.56223 0 3100
-2.519 2.2451 -0.15736 1 5528
-2.3937 -3.6207 0.50758 0 2837
-2.3149 -2.3888 -0.15512 2 3020
-2.1353 -3.9941 0.21121 0 2775
-2.1129 -4.0057 -0.10514 0 2767
-2.0454 3.6931 -1.1052 0 7526
-1.7255 -3.7915 0.48714 1 2693
-1.6166 -4.1082 -0.1025 0 2604
-1.5596 -4.6584 0.57448 0 2498
-1.3222 -4.4184 0 0 2451
-1.1899 -4.1468 0.70879 1 2445
-1.0357 3.0045 0 1 8561
-0.93078 -4.8563 0.1148 0 2331
-0.71691 -4.696 0.89503 0 2277
-0.70073 -2.9574 0.49933 0 2400
-0.68412 -3.684 -0.086994 0 2322
-0.59692 4.5097 0.21214 0 9963
-0.59259 -4.1952 -0.098367 0 2253
-0.53524 3.6378 0.085369 0 9859
-0.40434 3.3511 -1.4099 1 10038
-0.38621 3.3636 0.23675 1 10084
-0.20247 3.2635 -0.30506 2 10413
-0.15224 -4.2741 0.50014 1 2002
-0.085338 -4.6562 0.21717 0 1954
-0.084348 -3.5269 0.6647 1 1970
0.063613 4.7956 0 1 10891
0.092996 -3.3086 0.23145 0 1890
0.35048 3.2003 -1.1718 0 11510
0.35854 4.8134 -0.11206 0 11288
0.36519 -3.0808 0.50971 0 1824
0.39709 -4.305 0.40334 2 1843
0.41368 4.8057 -1.2627 0 11367
0.61334 -3.507 0.58493 0 1785
0.85367 -3.4444 0.33107 2 1736
0.93195 3.8611 -1.1389 0 12262
0.94548 4.7576 0.91391 0 12039
0.99899 4.0856 0.79245 0 12284
1.0092 4.0295 0.38755 0 12312
1.0877 3.3025 0.080727 0 12766
1.1196 4.3575 -0.3146 1 12341
1.1785 -4.4259 0.4273 0 1723
1.3602 -3.0238 -0.30933 0 1661
1.4476 -3.2181 0.32921 0 1662
1.4573 -3.4248 0 0 1675
1.5013 3.4743 -0.26466 0 13291
1.6927 3.4386 0.62968 0 13595
1.7284 3.7269 0.38327 0 13460
2.0032 -2.4597 -0.22183 0 1271
2.1438 -3.945 0.63101 2 1608
2.2025 4.4099 -1.4135 1 13621
2.3523 -2.3672 0.46901 0 970
2.5107 -2.2765 0.078685 0 871
2.5501 3.6636 -1.3929 1 14269
2.6145 -3.3476 0.29702 0 1321
2.679 3.5539 -0.946 0 14411
2.6923 4.1426 -0.2304 1 14154
2.735 3.6949 -0.21438 1 14368
2.7365 3.4193 -1.2558 0 14522
2.7474 3.3139 0.5034 0 14580
2.8419 -1.7689 -0.3123 2 382
2.8534 3.4006 0.20702 0 14593
2.8621 -1.0958 0.28592 0 17915
2.8812 1.9114 -0.24178 1 14857
2.8854 -0.85251 -0.14031 0 17755
2.8858 -2.298 0.085648 0 752
2.9411 3.7429 0.78207 0 14487
2.9474 2.0931 0.08393 0 14835
2.9616 -1.1446 -0.67488 2 17925
3.0725 0.061678 -1.3683 1 17045
3.0952 0.61792 -0.29447 0 15940
3.0979 -1.5297 -0.32234 2 18272
3.0981 -0.25254 -0.21736 0 17365
3.2258 1.3753 -0.32717 0 15087
3.2711 1.0591 -0.16034 0 15422
3.3251 -0.0011607 0.077199 1 17135
3.375 1.7494 0.35466 0 14935
3.3898 -2.5442 0.59566 2 685
3.4042 -2.4624 0.19593 0 628
3.4261 1.6518 -0.35485 0 14975
3.4373 -0.35036 0.080217 0 17419
3.4375 2.8722 -1.2845 0 14780
3.4377 3.1347 0.54405 0 14745
3.4589 1.7185 -1.2052 1 14951
3.4973 -1.2923 0.70247 0 17884
3.4975 2.625 0.40798 0 14818
3.535 -1.135 0.43417 2 17791
3.5729 -3.2947 0.33985 0 883
3.5932 1.3987 -0.17981 0 15203
3.7529 1.3482 0.18596 0 15297
3.7644 -2.2834 0.10222 0 344
3.8073 2.1593 0.82467 0 14898
3.8239 0.82186 0.73691 0 15886
3.8596 -2.1757 0.72792 0 229
3.9397 -0.1603 0.091543 0 17260
3.9948 1.5406 -0.29939 0 15213
4.1067 0.94433 -0.89568 2 15828
4.3244 -1.4285 0.42489 1 17808
4.4066 0.21629 0.51594 0 16903
4.4165 -0.42448 0.10301 2 17403
4.419 0.73633 0.62962 0 16098
4.4978 0.26092 -0.95764 0 16847
4.659 1.0014 -1.487 1 15880
4.7531 1.2098 -0.22872 2 15716
4.8948 -0.68617 0.23049 0 17510
-2.5985 1.4262 -0.77596 0 4322
-2.5291 -0.40012 0.29944 0 3209
2.3915 0.63811 0.28945 1 15675
-13.055 1.7906 2.165 0 3424
-12.539 2.6149 1.195 0 3515
-12.481 -0.29414 2.0511 0 3285
-12.466 -0.15014 1.4579 0 3292
-12.347 2.1283 2.3607 0 3477
-12.289 -0.18233 0.57316 1 3289
-12.271 2.2279 1.1636 0 3483
-12.122 7.4048 -1.3252 2 4511
-12.089 -1.3068 1.4219 0 3233
-11.749 -0.75357 -0.27333 0 3258
-11.708 1.2926 0.54931 1 3391
-11.603 -0.94577 0.54288 1 3250
-11.588 8.5964 2.7184 0 4951
-11.52 7.6917 -1.2923 2 4697
-11.109 4.3625 -0.27709 0 3870
-11.072 -1.8508 1.5777 0 3206
-10.982 -8.1054 -0.63652 0 3149
-10.856 1.4562 -0.2543 0 3420
-10.583 -0.34183 0.49378 1 3278
-10.565 -7.4719 0.60344 1 3169
-10.56 0.55158 -0.49313 0 3324
-10.522 -1.6345 0.99339 0 3210
-10.508 6.4975 2.3277 0 4552
-10.462 -9.1751 2.2862 0 3075
-10.279 0.65391 1.6922 0 3335
-10.233 -0.0017874 -0.71556 0 3297
-10.22 0.73792 -1.1982 0 3343
-10.216 4.6043 0 0 4013
-9.9963 3.7255 0 0 3835
-9.9164 -1.6897 0.23355 0 3203
-9.9143 1.4764 1.6468 0 3440
-9.7378 0.67752 0.22663 0 3340
-9.6636 0.3611 1.5888 0 3316
-9.5782 5.5501 0 0 4419
-9.5385 -6.999 -0.27468 0 3154
-9.5056 0.66136 0.88898 0 3341
-9.4679 8.8972 1.826 0 5703
-9.4608 -0.085866 1.5544 0 3294
-9.4143 6.0927 1.576 0 4634
-9.4134 1.1525 -0.44226 0 3406
-9.3676 0.32549 -0.87448 0 3315
-9.3393 -0.59904 1.5376 0 3259
-9.2498 -0.32624 0.21489 0 3275
-9.2297 2.2619 1.7904 0 3581
-9.2073 11.658 1.0388 1 6477
-9.1308 -0.56166 0.42661 0 3262
-9.1238 0.42069 -0.21205 0 3321
-9.0364 5.098 0.24088 0 4370
-8.9927 -1.2895 1.2768 0 3216
-8.9905 2.0674 -1.0788 0 3549
-8.9871 -0.36882 1.0519 0 3272
-8.9757 11.929 1.7457 1 6608
-8.8707 -0.54566 -1.0393 1 3260
-8.8698 12.07 2.1051 0 6684
-8.7882 7.2187 -0.26405 0 5259
-8.6942 -0.99058 -0.40807 0 3227
-8.6939 -0.83712 -0.81485 0 3239
-8.6782 -1.6068 1.45 0 3200
-8.6582 -6.2744 1.7567 0 3161
-8.6309 0.92695 -0.40481 0 3387
-8.6178 -0.47578 0.60353 0 3265
-8.5937 -0.3031 -0.6013 0 3274
-8.5764 -0.10329 1.4092 0 3293
-8.5559 -0.95063 1.4143 0 3231
-8.4981 -5.7883 1.6893 0 3177
-8.4696 5.0389 1.3851 1 4471
-8.3755 8.8383 1.7113 0 6022
-8.3118 2.4022 0 0 3646
-8.2962 12.463 1.7509 0 7005
-8.2889 -0.8478 1.171 0 3235
-8.2833 0.33414 -0.77342 0 3318
-8.2797 0.14308 1.3605 1 3306
-8.2627 1.5001 0.19497 0 3482
-8.2387 -6.3058 1.7045 0 3139
-8.2314 -7.1781 1.7944 1 3079
-8.207 1.7116 1.1782 0 3516
-8.2041 -7.0691 0.75728 0 3087
-8.1769 5.4307 -0.6864 0 4685
-8.1748 12.44 2.0921 0 7047
-8.1732 -0.42977 -0.76357 0 3266
-8.086 -6.1889 1.1908 0 3138
-8.0293 2.9669 1.203 0 3828
-7.9835 5.8881 0 0 4924
-7.9725 0.78733 0.3736 0 3377
-7.9432 12.722 1.7539 0 7202
-7.8932 1.815 0.3777 0 3556
-7.8658 1.9539 0.75614 0 3586
-7.8516 1.8778 -0.94407 0 3570
-7.8431 -0.52644 1.1048 0 3257
-7.8087 3.2249 0.98798 0 3914
-7.7702 12.522 2.0712 0 7225
-7.7685 0.6073 -0.72697 0 3351
-7.75 0.17722 0 0 3309
-7.7283 0.043161 1.2697 0 3302
-7.7243 12.448 1.7132 0 7224
-7.6536 -0.58085 -0.35795 0 3254
-7.6396 4.9745 1.2812 0 4648
-7.5882 2.5566 -0.37341 0 3750
-7.5529 3.5928 1.3741 0 4084
-7.5519 -7.5255 1.2468 0 3027
-7.549 1.1471 1.2545 0 3450
-7.4875 1.5166 1.2551 0 3505
-7.4572 1.0003 0.17468 0 3421
-7.3971 3.1308 0.56168 0 3939
-7.3724 -1.0151 0 0 3219
-7.3651 7.5525 0.24492 0 5926
-7.3602 2.768 0.3667 0 3843
-7.3572 1.1179 0.69427 0 3449
-7.3224 5.6635 1.301 0 5065
-7.3059 -0.04463 -0.16962 0 3295
-7.2767 -6.4947 1.1406 0 3065
-7.2286 -0.86707 0.67923 0 3225
-7.2136 12.178 2.3255 1 7356
-7.1891 9.3218 0 0 6542
-7.1567 5.4401 0.20871 0 5007
-7.0921 -0.91229 -0.50001 0 3221
-7.0597 1.4941 0.16754 0 3520
-7.0257 13.225 1.3971 1 7621
-6.955 3.6098 0 0 4236
-6.8729 -6.6186 0.44496 0 3036
-6.8588 -1.0043 0.64671 0 3214
-6.817 -7.4109 -0.70412 0 2996
-6.817 5.0572 0 0 4942
-6.8083 9.3194 0.53822 1 6701
-6.7757 -0.41679 -0.63334 0 3261
-6.7635 5.7521 1.2478 0 5380
-6.7571 -5.1718 0.59502 0 3137
-6.746 3.4003 0.88344 0 4181
-6.7434 0.36875 -0.47225 0 3326
-6.6592 2.772 -1.359 0 3926
-6.6133 -0.53906 0.61903 0 3251
-6.5909 2.9262 1.1848 0 3998
-6.5891 5.0087 1.1632 0 5013
-6.5707 6.2092 1.0572 0 5718
-6.5517 2.1199 -0.15988 0 3718
-6.549 -10.633 1.1651 0 2812
-6.5369 -0.21114 1.0745 1 3280
-6.5333 -0.57159 0.15226 0 3246
-6.5001 -5.1242 0.38599 0 3127
-6.4288 7.8544 0.94694 0 6386
-6.4264 3.5009 -0.51173 0 4308
-6.4188 3.6419 0 0 4383
-6.3791 -0.51997 -0.59711 0 3249
-6.3505 2.1175 0.94081 0 3745
-6.34 0.8313 0.59655 1 3417
-6.3099 1.278 0.60064 0 3504
-6.2603 -8.0794 1.6792 0 2909
-6.159 -12.645 1.3122 0 2727
-6.1486 11.726 -1.2353 2 7645
-6.1423 1.9496 0.14962 0 3703
-6.1229 1.6544 -0.44351 1 3616
-6.1083 -1.0408 -0.14386 0 3202
-6.0826 3.3842 1.1436 1 4348
-6.0715 8.6261 1.7331 0 6826
-6.0351 -6.4133 0.41068 0 3007
-6.0227 -8.9424 1.7713 0 2846
-6.004 -9.6234 1.0582 0 2818
-5.9906 6.0684 -0.59628 0 5897
-5.9699 -0.48662 0.98407 1 3252
-5.862 3.1064 0.15403 0 4271
-5.8549 12.004 -1.2461 2 7812
-5.8411 3.7312 1.1387 1 4610
-5.8398 -6.6147 1.4497 0 2980
-5.8266 5.2574 -0.1822 0 5564
-5.8136 5.755 1.344 0 5838
-5.7571 -0.9108 0.54379 0 3208
-5.7429 4.4707 -1.3712 0 5086
-5.7254 -5.7414 1.1395 0 3026
-5.614 3.3161 0.15138 0 4451
-5.612 -0.8217 -0.2645 0 3213
-5.6099 -9.1081 0.24836 0 2811
-5.506 -7.2328 1.7127 0 2897
-5.4869 12.619 -1.2838 2 8065
-5.4574 12.07 -1.2358 2 7983
-5.4331 -0.94139 0.90593 0 3201
-5.4271 13.541 2.3968 1 8248
-5.4194 7.1579 -0.62781 0 6586
-5.3692 8.4311 0.69896 0 7139
-5.3691 1.1363 0.25593 0 3521
-5.3689 13.972 1.7504 0 8341
-5.3445 -4.9699 -0.51034 0 3040
-5.3396 9.9751 1.8589 0 7605
-5.3395 1.9024 0.79663 1 3802
-5.2539 3.9448 0 0 4976
-5.1949 0.074353 -0.48471 0 3303
-5.1521 11.946 -1.2137 2 8080
-5.1378 2.0508 0.25798 0 3884
-5.1229 0.47524 -0.60166 0 3366
-5.0827 -9.5712 -0.25161 0 2770
-5.0777 -5.1779 0.3382 0 3025
-5.04 -4.9632 1.3327 0 3032
-5.0377 -6.1571 0.37099 0 2935
-5.021 2.5132 0.78911 0 4165
-4.9862 -6.8303 1.3894 0 2880
-4.9706 12.192 1.8504 0 8211
-4.9388 3.2975 -0.13787 0 4699
-4.9268 -3.9542 1.0379 0 3118
-4.9146 -7.1614 1.427 0 2854
-4.7775 2.8604 -1.4577 0 4482
-4.7646 5.0278 0.81004 0 6021
-4.7376 -3.3284 0.40487 0 3172
-4.7363 2.3019 0 1 4110
-4.7143 1.7094 0.11643 0 3816
-4.6937 5.191 0.32636 0 6130
-4.6702 -5.5795 0.33931 1 2949
-4.6401 11.877 2.0949 0 8302
-4.6124 -5.809 0.86741 0 2920
-4.5348 2.9348 -0.88745 0 4624
-4.5196 11.762 1.7708 0 8342
-4.4553 12.129 1.8159 1 8431
-4.4483 2.5776 -1.0928 0 4424
-4.4351 12.407 2.4825 2 8495
-4.428 4.8391 0.76706 0 6104
-4.369 -8.4612 0.88842 0 2756
-4.3544 -9.5681 0.73509 0 2692
-4.3084 -8.1131 0.85702 0 2771
-4.3056 -9.461 1.7078 0 2694
-4.2549 5.3877 -0.48006 0 6472
-4.2327 -4.4447 0.86259 1 3012
-4.2012 10.133 1.8021 0 8177
-4.1208 3.6728 -0.51499 2 5525
-4.1083 11.918 1.7717 2 8570
-4.0013 4.1031 0.53469 0 5928
-3.9809 -9.5401 1.6984 0 2655
-3.961 13.078 2.245 2 8848
-3.9606 -3.8569 0.64649 0 3035
-3.9525 3.3037 -0.97057 0 5331
-3.9477 -6.2495 0.5169 1 2822
-3.9458 3.1095 0.58749 0 5125
-3.9435 5.3332 0.93218 0 6665
-3.936 7.6161 1.4085 2 7688
-3.9352 -6.032 -0.33587 1 2830
-3.9253 6.7579 -1.284 0 7400
-3.9048 -5.69 0.80702 0 2853
-3.8394 -5.7007 1.295 0 2847
-3.8189 4.321 0.94743 0 6184
-3.8165 12.601 2.4807 0 8850
-3.736 12.735 1.552 2 8911
-3.7359 -6.3932 1.2166 1 2798
-3.7268 3.4414 0.11777 0 5635
-3.7171 -3.6197 0.24195 0 3034
-3.7165 3.7465 0.99427 0 5890
-3.6616 4.3176 -1.482 0 6279
-3.6504 12.849 0.93404 1 8970
-3.6171 13.788 1.3298 1 9107
-3.6122 -6.6612 1.065 0 2780
-3.609 -5.8595 1.1306 0 2814
-3.5319 -5.447 0.60566 0 2829
-3.4685 4.4203 0.92311 0 6498
-3.2854 -5.6997 0.3068 0 2794
-3.2837 -5.7337 1.0856 0 2792
-3.2141 -13.378 1.2836 0 2403
-3.1761 -7.4284 0.75373 0 2667
-3.1501 -8.4342 1.4792 1 2566
-3.1257 5.2061 0.14098 0 7312
-3.1196 10.411 1.014 0 8867
-3.1073 -4.6137 0.12914 0 2844
-3.1007 9.7274 1.4349 0 8736
-3.0344 -10.237 0.99617 0 2450
-2.9959 -11.307 0.54549 1 2425
-2.9395 -10.033 0.48754 1 2448
-2.8957 13.03 0.93334 1 9363
-2.8785 -8.6834 1.2857 0 2492
-2.8429 4.3827 0 0 7082
-2.8259 5.3192 0.42119 0 7619
-2.7235 7.2766 0.36233 0 8395
-2.6966 -6.359 0.48299 0 2662
-2.696 6.8442 0.17079 0 8279
-2.6777 6.2595 1.2827 0 8108
-2.6738 -4.8617 0.38799 0 2784
-2.6521 -7.1542 -0.17714 0 2552
-2.6509 7.8452 -0.38618 0 8600
-2.6391 -8.3701 1.4419 0 2472
-2.6304 -5.0573 0.13235 0 2761
-2.6172 4.6905 -1.2727 1 7508
-2.585 7.0945 -1.2405 0 8435
-2.5176 -4.3677 0.94983 0 2795
-2.4513 -9.0409 0.87393 0 2429
-2.4392 8.6835 0.20941 0 8990
-2.3526 -7.2406 1.07 1 2482
-2.3446 5.5234 1.1305 0 8124
-2.2729 -8.3829 1.427 0 2430
-2.2457 14.406 1.0196 1 9797
-2.2168 -5.5368 0.55642 1 2620
-2.2017 14.124 2.6932 0 9804
-2.1694 14.446 1.7083 0 9842
-2.1619 9.4543 0.67817 0 9322
-1.9788 7.2037 1.0499 0 9030
-1.9088 -6.8046 1.1611 0 2439
-1.8839 9.9796 1.6685 0 9586
-1.8823 -7.4495 0.89854 0 2416
-1.6652 -6.9308 0 0 2402
-1.6313 -8.65 0.61553 0 2327
-1.5909 7.0595 0.67514 1 9345
-1.5777 8.2237 1.1768 1 9566
-1.5764 10.113 0.23763 0 9796
-1.5165 -6.7457 0.97171 0 2378
-1.4691 14.24 2.352 0 10161
-1.3251 -8.5008 1.2091 1 2282
-1.3153 -7.4366 0 2 2307
-1.2004 -12.026 1.9857 0 2156
-1.1238 -10.328 -0.24121 0 2172
-1.0983 8.8805 0.62572 0 10020
-1.0138 -5.2011 0.87059 0 2335
-0.89974 -6.1226 0.14367 0 2264
-0.85052 -7.6307 -0.17826 0 2182
-0.78349 13.883 2.6199 0 10461
-0.78111 -10.221 0.238 0 2107
-0.56932 -10.151 -0.23605 0 2055
-0.56373 13.563 2.5577 0 10549
-0.43198 -7.7024 0.71973 0 2060
-0.39482 5.8064 0.40696 1 10383
-0.29536 -6.2399 0.5828 1 2036
-0.24432 9.0291 1.0563 0 10632
-0.20318 -11.086 1.0344 0 1956
-0.091223 -6.0072 0.56051 0 1948
-0.090839 -7.2284 1.016 0 1941
-0.060141 14.981 2.4613 1 10784
-0.043964 -6.8081 1.2827 0 1933
-0.011246 9.2055 -0.21373 0 10795
0.084978 7.9815 0 0 10871
0.087723 -8.2393 -0.1913 0 1906
0.089214 -6.5529 0.61141 0 1903
0.1596 14.991 1.0483 1 10873
0.17874 7.16 0.334 0 10965
0.19924 8.9874 -0.20871 0 10945
0.22015 -7.8324 0.3654 0 1889
0.29907 -6.5606 0.923 0 1871
0.3202 -8.6908 1.017 0 1881
0.33214 9.0578 -0.63381 0 11032
0.33309 -7.8169 0.72994 0 1874
0.34761 -12.367 2.0327 0 1891
0.5191 -6.9362 1.3105 0 1853
0.56056 -6.9519 0.81561 0 1851
0.65835 -5.1606 0.9802 0 1816
0.718 7.5534 -0.53057 0 11416
0.80523 -11.179 1.8414 0 1854
0.82604 -6.8061 1.1264 0 1820
0.86592 -6.0843 1.0097 0 1805
0.89126 -7.519 1.0641 0 1823
0.89549 -6.0424 -0.14182 0 1801
0.9129 5.9312 0.84339 0 11789
0.94529 7.9868 1.5153 0 11578
0.96423 -5.3323 0.37892 0 1781
0.98245 6.3831 -0.14994 0 11784
1.0358 5.2843 0.37655 0 12016
1.0474 -12.579 0.58863 1 1849
1.0513 -8.8695 -0.20737 0 1822
1.0583 5.1649 -1.1206 0 12070
1.068 7.8475 -1.3012 0 11664
1.0865 -6.3233 1.0541 0 1787
1.0873 -7.4895 0.17571 0 1803
1.1273 5.751 0.13606 0 12013
1.1459 -5.9394 0.9938 0 1775
1.2162 6.5114 -1.408 0 11966
1.2396 -9.303 0.8756 0 1811
1.3566 -13.038 -0.30434 0 1834
1.3585 9.7774 0.46034 0 11693
1.4216 12.324 1.7436 1 11556
1.4505 -8.4416 1.6138 0 1788
1.472 -9.5413 1.8189 0 1798
1.5111 7.0605 -0.5049 0 12106
1.5651 -5.3767 0.65486 0 1706
1.5853 10.934 -0.51521 0 11731
1.6749 14.52 1.0221 1 11551
1.677 -5.8872 0.5711 0 1710
1.7071 4.8531 -0.11944 0 12887
1.7447 -10.337 1.7224 0 1790
1.8034 4.8962 -1.4962 1 12989
1.8134 14.601 2.4172 2 11610
1.8831 7.8984 -0.18852 0 12243
1.9277 6.6919 0 0 12534
1.9325 -9.5583 0.90978 0 1771
1.9389 -8.9302 0.85256 0 1758
1.9442 -8.9545 1.5055 0 1759
1.9764 11.106 0.26191 0 11913
2.0631 -10.204 0.48549 1 1770
2.0661 8.5598 -0.20444 0 12258
2.102 -6.7778 0.99731 0 1702
2.1183 -13.24 -0.3113 0 1794
2.1307 -6.5969 -0.32329 0 1698
2.1325 6.6062 0.64764 0 12733
2.1336 14.397 2.7421 0 11761
2.1363 8.5301 -1.2359 0 12302
2.1471 6.9232 0.67625 0 12661
2.1634 -9.1877 0.88062 0 1743
2.254 12.257 0.28935 1 11945
2.3024 -6.09 1.0697 0 1691
2.3245 -7.4953 -0.36596 0 1701
2.3315 5.2269 -1.0783 0 13374
2.3561 7.2989 0.89692 0 12735
2.3802 -7.4448 0.7292 0 1700
2.3809 12.947 2.4803 0 11953
2.3937 -4.899 0.12659 0 1640
2.4439 8.6711 0.84049 0 12501
2.4751 -9.4079 0 0 1726
2.5022 6.336 -0.15816 0 13116
2.5273 5.7573 -1.3365 0 13336
2.5348 -9.103 1.5525 2 1713
2.5823 6.1162 1.0907 0 13252
2.5978 11.05 -0.26354 0 12224
2.5996 -4.8159 0.63999 0 1611
2.6121 -5.6325 1.0201 0 1658
2.6956 4.228 0.4678 0 14123
2.7922 -8.1599 1.4169 0 1696
2.7974 7.4622 -0.37164 0 13015
2.8538 5.1063 0.40905 1 13837
2.8814 14.7 1.7518 0 12019
2.8888 -10.028 1.7146 0 1708
2.9032 4.1446 0.71117 1 14283
3.0938 4.8845 0.40431 0 14112
3.1144 -4.8868 -0.54063 0 1565
3.1256 -7.5908 0.38282 0 1679
3.1524 -11.982 2.0356 0 1727
3.1734 -8.6859 0.2147 0 1693
3.2433 -10.041 0.98447 0 1699
3.2436 13.438 1.9429 1 12264
3.2803 4.5416 0.39175 0 14328
3.2979 4.1729 -1.3924 0 14500
3.3136 13.728 -1.3176 2 12256
3.4257 8.6744 -1.3107 0 13109
3.4268 -6.9641 -0.36195 0 1636
3.4634 -3.987 0.86767 0 1190
3.4823 -10.371 1.0207 0 1697
3.566 -7.2471 0.75354 2 1637
3.6156 -13.419 1.6252 0 1721
3.6338 8.6065 1.313 0 13251
3.6637 7.0259 1.3018 0 13712
3.686 -10.278 1.5345 0 1694
3.7911 4.464 -0.54639 0 14606
3.7988 -4.4746 0.27372 0 1213
3.7997 -6.1933 0.1687 0 1583
3.8201 -4.5818 -0.41714 0 1236
3.8357 -6.7768 0.54452 0 1599
3.8447 -7.2247 0.57228 0 1614
3.8548 -11.151 2.2229 0 1695
3.8613 -3.626 0.49419 2 899
3.8642 7.0086 -0.37323 0 13805
3.8693 10.505 0.25991 0 12988
4.0198 -5.9551 0.67031 1 1500
4.0241 -9.0937 1.3976 0 1665
4.0394 4.814 0.88319 0 14596
4.1019 -10.036 -0.50562 0 1680
4.1053 -5.3831 0.79168 0 1357
4.1378 -6.3693 1.0675 0 1541
4.1745 -7.0785 0.19079 0 1594
4.2403 7.1929 0.77899 0 13966
4.3021 -7.2484 1.3848 0 1592
4.3523 -3.1679 0.75655 0 640
4.3786 6.9991 0.5773 0 14088
4.3847 -7.7944 1.0458 0 1602
4.3993 6.0174 -1.2247 0 14343
4.4035 -3.8549 0.13588 0 838
4.4445 -5.9693 1.2227 0 1393
4.4765 -3.6941 1.0935 0 790
4.4855 7.0355 0.19372 0 14120
4.5041 -4.1071 0.56868 0 880
4.5667 -5.2571 0.97867 0 1189
4.5805 -6.9178 1.3631 0 1523
4.5812 2.5814 -1.2459 0 14900
4.6207 -10.77 2.2081 0 1674
4.6444 3.7449 -0.55661 0 14790
4.6538 8.4408 1.5836 1 13812
4.6715 -4.2359 0.88625 0 874
4.7082 -9.6362 1.2542 0 1642
4.7659 -8.9557 1.1864 0 1615
4.7684 3.8655 -0.14251 0 14789
4.7883 8.6276 0.46015 0 13821
4.7927 6.3578 -0.18485 0 14406
4.8242 3.8899 0.57816 0 14791
4.8313 -2.4362 1.0194 0 18316
4.8775 4.9964 1.1472 1 14711
4.9024 -8.2011 0.66813 0 1589
5.0241 1.4188 -0.12121 0 15591
5.0379 3.1566 -1.2637 1 14875
5.047 7.6659 0.85628 1 14179
5.0624 -5.658 1.2474 0 1145
5.0829 5.8493 0.90621 0 14634
5.0978 3.6672 1.0317 0 14832
5.0995 0.35391 -1.0865 0 16759
5.1013 9.9947 1.0469 0 13665
5.1123 2.8806 0 0 14899
5.1284 -12.158 -0.92274 0 1678
5.1425 3.3883 -0.14298 0 14861
5.1624 4.7073 1.1478 0 14746
5.17 -2.4593 0.53413 0 18214
5.2132 6.961 1.017 0 14396
5.2187 -2.594 -1.2387 0 33
5.2356 -1.7803 0.25789 0 17825
5.2458 -0.092481 0.12181 0 17200
5.2499 2.476 0.13476 0 14989
5.26 -6.3088 0.57437 0 1239
5.26 -4.0669 1.0924 1 723
5.2756 4.1754 0 0 14797
5.2878 -3.641 -0.59897 0 545
5.3048 -2.8504 1.1346 0 157
5.3541 4.3917 -0.8098 0 14784
5.3593 3.8059 -0.76869 0 14833
5.3854 -2.8719 0.28462 0 144
5.4117 7.6801 0.87653 0 14293
5.4207 5.7826 -1.1139 0 14685
5.4442 -8.4315 -0.93635 0 1546
5.484 2.4888 -0.13982 0 15026
5.5171 -11.134 0.86889 1 1634
5.5199 -2.547 0.4251 0 18161
5.5404 2.1735 -0.41617 1 15192
5.5573 -1.6948 0 0 17770
5.5626 -1.4707 0.26832 0 17710
5.576 -7.5798 1.546 0 1409
5.5767 -1.0992 0 0 17614
5.5818 -5.686 0.18499 0 982
5.5904 6.1052 -0.7723 0 14667
5.6044 -0.67126 0.13105 0 17465
5.6259 -0.16402 -0.39357 0 17234
5.6375 2.9422 -0.29655 0 14929
5.6666 0.14641 -0.13161 0 17022
5.6952 6.0057 1.1632 0 14696
5.6975 -2.8332 0.29674 0 18288
5.698 4.1963 -0.99453 0 14822
5.7365 3.2986 0.61736 0 14891
5.7784 3.1675 1.0826 0 14913
5.7797 3.7376 1.2968 0 14865
5.8269 -1.2014 0.69574 0 17630
5.837 -0.66297 0.54806 0 17450
5.8581 -4.6949 1.2334 0 758
5.8652 -4.013 0.49695 0 539
5.8781 -1.1394 0.27922 0 17608
5.8879 -7.2296 0.43481 0 1272
5.8998 6.9914 0.42661 0 14601
5.9076 -2.5003 0.90156 2 18029
5.9207 -1.5467 0.57091 0 17706
5.9847 3.5098 0 0 14881
5.986 -7.9466 1.8745 0 1376
6.0686 -6.1431 1.2136 0 978
6.0847 2.9769 0.79215 0 14966
6.0929 -1.3296 1.175 0 17649
6.1427 -7.1491 1.5486 0 1203
6.1784 4.4692 -0.53322 0 14828
6.1834 -3.1167 0.32292 0 54
6.1991 -10.794 1.4556 0 1598
6.2243 5.3199 0.57256 0 14771
6.2481 -6.2875 1.6701 0 972
6.2583 -5.8441 0.39931 0 891
6.2661 -1.2737 -0.59655 0 17622
6.3545 0.21857 -0.14762 0 16975
6.43 -7.2704 1.5946 0 1162
6.4344 -1.443 0.1531 0 17658
6.4703 6.8231 -0.87727 0 14694
6.4911 3.9606 0 0 14876
6.5194 -5.8086 0.20272 0 851
6.5369 1.8043 -0.95306 0 15623
6.5425 3.2963 -1.0296 0 14941
6.5528 9.1833 2.1255 0 14313
6.5627 2.9783 -0.84279 0 15024
6.5938 2.3052 1.3161 0 15338
6.6133 1.8253 0.31994 0 15632
6.6494 0.87187 0.78425 0 16327
6.6781 -4.0508 1.4716 0 349
6.7086 1.5008 -0.96614 0 15842
6.7442 8.2811 0.74681 0 14550
6.761 -1.8928 0.98674 0 17731
6.9119 9.9933 -0.2821 0 14257
6.966 0.64744 0 0 16579
6.9665 5.0708 0.80389 0 14826
7.0139 -1.6154 1.1825 0 17666
7.0351 -0.79906 -0.33018 0 17449
7.0545 5.4563 0.4159 0 14808
7.1147 -4.7773 1.2044 1 509
7.1226 -0.66576 1.0054 0 17396
7.1449 -3.9182 1.3388 0 188
7.1587 4.749 0.40062 0 14859
7.1684 2.9093 1.271 1 15156
7.222 5.5496 0 0 14811
7.2274 -3.6429 1.5249 0 58
7.2291 -3.0596 0.73236 0 18028
7.2303 1.8175 -0.87183 0 15728
7.3003 1.4124 -0.69372 0 15966
7.3331 5.6005 1.079 1 14814
7.4011 -0.49677 -0.69204 0 17329
7.4026 0.27791 0.69112 0 16965
7.4074 7.4152 0.24334 0 14722
7.4244 -1.9173 0.17803 0 17700
7.4254 -1.2853 0.35143 0 17572
7.4494 -2.8045 1.1187 0 17899
7.4867 4.305 -1.4189 0 14890
7.5998 7.9639 1.027 0 14700
7.6159 -3.5142 1.378 0 18163
7.6228 -6.5937 1.6559 0 835
7.6395 -5.9772 1.5936 0 735
7.663 -3.7541 0.5967 0 18266
7.7005 -1.4717 0.18202 1 17601
7.7658 4.6791 1.4896 0 14878
7.7666 2.3153 -1.139 1 15514
7.7735 6.8847 1.4594 0 14758
7.8088 2.1553 0.94733 0 15637
7.8396 3.6141 -0.80537 0 15006
7.8551 3.2168 1.3946 0 15145
7.8589 -9.4762 2.0226 0 1251
7.8682 -1.5994 0.74908 0 17625
7.9316 -2.2444 1.1585 0 17737
7.9337 -2.2705 0.76989 0 17743
7.962 1.9292 0.76431 1 15772
7.9838 3.7944 -0.20523 1 14984
7.9844 -0.48835 0.37304 0 17316
7.9879 -3.3267 1.2161 0 18007
8.0033 -2.0668 -0.578 0 17699
8.0748 -3.8117 0.83305 0 18199
8.0809 0.98648 -1.3375 0 16378
8.0887 3.7564 -1.2534 0 14999
8.0899 4.716 1.0951 0 14886
8.1021 6.1142 1.4265 0 14816
8.1656 4.4761 0 0 14910
8.2224 -6.0953 0.23763 0 665
8.236 6.8377 1.7587 0 14783
8.243 4.3977 1.535 1 14922
8.2793 -3.421 0.41776 0 17995
8.2974 8.2081 1.0889 0 14726
8.3309 0.84622 1.3758 0 16534
8.3377 6.5259 -1.488 0 14802
8.3715 5.5158 0.23276 0 14862
8.3829 3.0959 -0.41674 0 15261
8.6114 0.27213 -0.20003 0 16991
8.6553 -4.7131 0.22881 0 175
8.735 4.6915 0.46239 0 14918
8.7557 2.6368 1.2851 0 15510
8.8645 -6.1038 1.2586 0 551
8.8758 -2.6798 0.21526 0 17766
8.9183 0.12609 1.043 0 17078
8.9283 -1.4925 -0.42214 0 17560
8.9983 5.6731 1.7477 0 14873
9.1 6.6651 -0.52602 0 14823
9.1305 0.26301 0.85219 0 17013
9.148 5.365 0.24622 0 14882
9.1665 -1.5323 0.86705 0 17561
9.2123 -2.7218 0 0 17756
9.3488 3.3584 -0.69463 0 15294
9.4868 7.6494 2.0022 0 14793
9.5876 -1.8324 1.6037 0 17602
9.6181 3.9997 -0.7284 0 15114
9.6367 -0.8431 -0.45111 0 17379
9.6434 -1.3828 0 0 17517
9.6605 2.9093 0.47049 1 15505
9.6761 -2.6761 1.8915 0 17729
9.7102 -1.0754 0.91146 0 17441
9.7287 -8.2243 2.093 0 812
9.7708 4.0632 1.4872 0 15121
9.8079 2.5566 1.9097 0 15701
9.8248 -5.428 2.1148 0 200
9.8969 2.795 0 0 15592
10.059 10.247 2.3592 0 14715
10.088 6.7306 1.4182 0 14854
10.11 -5.0274 1.0534 0 18290
10.15 -3.4239 1.76 0 17820
10.173 -6.3323 0.55881 1 386
10.276 2.6154 -0.24617 0 15718
10.288 -9.8282 1.3274 0 916
10.338 4.369 1.0471 0 15097
10.359 6.6987 0.86261 1 14864
10.436 6.7046 2.0379 0 14867
10.447 5.5736 -0.82801 0 14920
10.453 -5.0827 1.0844 0 18253
10.539 2.7139 0.25267 0 15704
10.626 5.9096 1.9976 0 14904
10.66 -0.8689 -0.24831 0 17366
10.663 -1.0249 1.76 0 17405
10.725 0.84031 1.7674 0 16694
10.789 1.096 1.0118 0 16530
10.868 -5.1697 1.9772 0 18216
10.973 -0.57508 1.0252 0 17294
11.205 -1.3083 1.0525 0 17457
11.263 -3.9398 1.9604 0 17844
11.265 4.6453 1.1368 0 15129
11.282 2.6274 1.0807 0 15810
11.59 -2.8126 0.2769 0 17682
11.671 3.5547 1.7146 0 15496
11.675 -4.3952 2.3503 0 17902
12.105 -0.071835 1.1294 0 17162
12.17 -4.1809 0.60009 1 17831
12.332 2.7587 2.0761 0 15854
12.96 3.9029 2.2236 0 15512
13.289 3.3823 -1.2793 0 15714
13.777 1.482 0.96892 1 16494
13.881 3.9647 0.67322 1 15580
14.911 1.3858 1.3971 0 16586
2.1741 7.8079 -1.7228 1 12485
4.0428 -5.843 -1.6835 0 1469
9.9557 2.8435 -1.9508 0 15586
