VERSION .7
FIELDS x y z intensity index
SIZE 8 8 8 8 8
TYPE F F F F F
COUNT 1 1 1 1 1
WIDTH 1297
HEIGHT 1
VIEWPOINT 0 0 0 1 0 0 0
POINTS 1297
DATA ascii
-9.8941 -1.4504 1.1694 0 5321
-9.8891 -0.29005 1.6254 0 5535
-9.8836 1.0074 1.6322 0 5721
-9.8431 1.5854 0 0 5829
-9.4648 1.8363 1.355 0 5902
-9.4149 -1.3232 -0.22073 0 5331
-9.3067 -0.2177 1.5294 0 5545
-9.1357 0.90542 1.7297 0 5716
-9.1106 3.6145 -0.91443 0 6627
-9.082 1.2199 0.21275 0 5772
-9.0163 0.70643 0.63241 0 5687
-8.8718 4.3501 1.3887 0 6908
-8.8586 1.4522 1.0498 0 5837
-8.6571 4.5316 0.45568 0 7051
-8.6567 3.7587 1.5505 0 6756
-8.6253 4.14 -0.22213 0 6873
-8.4629 0.91189 1.3985 0 5730
-8.4307 0.88313 1.5971 0 5725
-8.4272 0.7358 0.78921 0 5700
-8.3823 3.4378 -0.63353 0 6675
-8.2658 3.5291 1.2631 0 6736
-8.1957 5.1452 1.36 0 7396
-8.1535 0.14089 1.3398 0 5605
-7.9633 -5.3976 0.89752 0 5203
-7.9588 3.5103 0.40565 0 6771
-7.8971 -5.7607 1.606 0 5163
-7.8493 -0.093163 0.18225 0 5561
-7.836 0.54382 1.1039 0 5675
-7.8297 2.7419 -0.77398 0 6455
-7.6957 3.6345 -0.39689 0 6856
-7.6788 0.42259 1.0808 0 5659
-7.5851 5.6024 1.1027 0 7813
-7.4589 5.8506 -0.44208 0 7948
-7.438 2.7028 -0.18374 0 6505
-7.3931 5.4248 -1.2887 0 7786
-7.3716 1.1873 1.0494 1 5832
-7.3712 3.456 -0.37965 0 6845
-7.3657 -5.5747 -0.64594 0 5140
-7.3311 -0.32008 0.51313 0 5507
-7.3237 0.8746 0.86254 0 5747
-7.164 5.1954 -0.82562 0 7758
-7.1566 -0.43897 0.16647 0 5473
-7.0605 0.65623 1.165 1 5708
-7.0509 0.67768 1.3346 0 5712
-7.0407 -5.6588 1.4841 2 5099
-7.0234 -0.30665 -0.16322 0 5506
-7.0185 3.5422 -1.4812 0 6971
-6.9857 6.772 0.22589 0 8472
-6.9658 0.50543 -0.16215 0 5679
-6.9511 -5.4877 1.6686 2 5114
-6.9303 0.58561 -0.48634 2 5696
-6.9254 4.8709 -1.1899 1 7680
-6.8915 -5.6386 0.62265 0 5085
-6.8817 2.2759 -0.50685 1 6384
-6.8531 -5.6413 0.62069 0 5081
-6.8035 -4.4674 0.37956 1 5210
-6.7787 -0.97199 0 0 5325
-6.7653 -5.2439 0.19873 1 5124
-6.75 -0.31596 1.1102 0 5502
-6.74 -5.1662 0.99309 0 5134
-6.7394 0.19531 -0.15653 0 5621
-6.7333 2.2713 -0.16498 0 6406
-6.7308 -5.189 0.39633 0 5128
-6.7157 2.801 0.85092 0 6702
-6.6754 -5.2098 0.1966 0 5121
-6.6687 1.4955 0.63761 0 5999
-6.6639 -1.2351 0.9525 1 5247
-6.654 3.5306 -0.88089 1 7071
-6.6409 -5.2128 0.98728 1 5118
-6.6345 -5.2377 0.39419 0 5112
-6.6157 7.4149 0.46341 0 8891
-6.6099 0.71223 0.15435 0 5729
-6.603 -0.94681 1.0959 0 5329
-6.586 -4.409 0.73942 1 5206
-6.5591 -0.74731 1.0846 1 5372
-6.5473 -6.1656 1.4776 0 4946
-6.5328 -6.1176 1.4704 2 4951
-6.5272 -5.2124 1.5738 0 5104
-6.4772 0.2443 0.60473 0 5637
-6.4666 0.26198 0.6038 1 5642
-6.4411 0.1113 0.60101 1 5604
-6.4322 3.8572 -1.4131 0 7296
-6.4212 -0.78729 1.0629 2 5358
-6.4038 0.072651 0.59748 1 5594
-6.3924 -0.78376 0.45035 0 5356
-6.3917 -4.6626 0.73812 2 5161
-6.3838 0.185 0.74685 0 5623
-6.3641 0.64868 0.29832 0 5720
-6.3274 -6.1359 1.0307 1 4929
-6.3215 2.6573 1.292 0 6718
-6.2904 0.7512 0.29543 0 5746
-6.2534 -5.4571 0.58037 1 5030
-6.2426 3.0609 -0.81305 0 6902
-6.222 6.698 0.42633 0 8762
-6.1903 -5.5992 0.38925 0 4987
-6.1839 -5.4653 1.1599 2 5022
-6.1801 -0.90598 1.1768 0 5323
-6.1774 -6.1301 0.60856 2 4909
-6.1714 -6.232 0.6133 0 4898
-6.1395 -5.1754 0.18643 0 5058
-6.135 -0.59073 1.0126 2 5401
-6.1348 0.17779 0.28621 0 5622
-6.107 -0.48063 1.0064 1 5436
-6.0933 0.15849 0.28425 0 5617
-6.0918 -4.2324 0.69204 0 5192
-6.0897 -0.49853 1.0039 1 5430
-6.087 -0.40856 1.1494 0 5465
-6.0803 3.0038 -0.79308 1 6914
-6.0763 -0.60328 1.0032 2 5395
-6.0659 0.97704 0.71851 0 5831
-6.0213 -5.1664 0.92781 0 5046
-6.0107 -0.68483 1.1398 0 5373
-6.0012 -6.5012 0.82544 0 4855
-5.9911 -0.57688 0.84589 0 5400
-5.9871 6.5936 0.62279 0 8835
-5.9803 -0.55898 1.1316 1 5407
-5.9672 -5.2738 0.9313 2 5021
-5.9669 -0.38377 0.84033 1 5469
-5.9364 -1.1711 0.70759 1 5238
-5.9157 -0.34421 1.1165 2 5481
-5.9083 -5.3106 1.4968 1 4996
-5.893 -0.36147 1.1124 0 5476
-5.8929 6.4175 1.6416 0 8801
-5.8656 -0.84106 0.27633 1 5326
-5.8471 3.5537 -0.63835 1 7316
-5.844 -0.59773 0.54806 1 5388
-5.8227 -0.017276 0.54323 2 5576
-5.8027 -0.60989 0.54435 2 5383
-5.8021 -5.5932 0.94245 0 4934
-5.7884 -5.141 1.4586 0 5015
-5.7809 0.13321 0.95003 0 5613
-5.7732 -0.15219 0.81166 2 5540
-5.7482 0.23288 0.94516 1 5643
-5.747 -0.16856 0.80804 0 5534
-5.7457 -0.33431 0.80887 2 5480
-5.7398 2.3728 0.87289 0 6690
-5.72 -0.68612 0.53747 0 5362
-5.7011 -5.4633 0.9234 2 4938
-5.688 1.8459 0 2 6360
-5.6853 -0.31487 0.80025 0 5485
-5.6683 -4.8893 1.2298 0 5041
-5.6648 -4.2348 0.49457 1 5147
-5.65 2.0163 0.84311 0 6484
-5.6498 2.2964 1.1491 0 6670
-5.6405 -0.21373 0.79329 0 5521
-5.6234 1.5384 0 0 6185
-5.6168 6.8379 1.2437 0 9168
-5.6102 -5.1318 1.0686 0 4975
-5.5878 7.8136 0 0 9604
-5.5803 3.9001 -0.15807 0 7670
-5.5779 -0.8177 0.52595 2 5320
-5.5716 -4.4271 0.33186 0 5107
-5.559 7.4934 -1.3113 0 9491
-5.5548 -0.7965 0.52354 1 5327
-5.5506 1.1444 0.52874 1 5946
-5.5293 3.1232 0.59246 0 7185
-5.5056 -0.30492 0.51444 1 5484
-5.4996 -6.0972 0.38292 1 4837
-5.4844 -5.9747 0.56712 0 4851
-5.4828 -6.0786 0.57242 1 4838
-5.4651 -0.97939 0.64928 0 5253
-5.4533 2.2544 0.96948 0 6692
-5.4208 3.1651 0.29273 0 7238
-5.4183 1.0356 -0.6451 1 5888
-5.4 0.18668 0.63186 0 5632
-5.3939 5.5389 -0.90412 0 8624
-5.3883 1.9229 0.53376 0 6480
-5.377 -6.0669 0.75633 2 4821
-5.3607 0.17128 0.62721 0 5628
-5.3585 4.4852 -1.4853 0 8088
-5.348 5.7572 -0.7331 0 8754
-5.3356 -5.9865 0.74815 2 4825
-5.3299 7.0117 1.2378 0 9428
-5.2992 1.0598 -0.25202 1 5921
-5.2939 1.514 -0.51369 0 6232
-5.2787 -8.3694 0.92316 1 4363
-5.2757 -0.093931 -0.12251 1 5552
-5.2724 -8.418 0.92669 1 4356
-5.2669 1.1647 0.25155 0 5987
-5.2656 2.2677 0.94192 0 6746
-5.2647 4.1059 -1.0969 0 7928
-5.2631 -5.7336 0.91016 0 4852
-5.2491 -8.3807 1.3898 2 4358
-5.2475 -8.1644 0.22533 0 4384
-5.2468 2.3668 -0.40249 0 6798
-5.2228 -7.4424 0.424 0 4498
-5.2119 -7.5157 0.42652 1 4484
-5.2114 -5.9824 0.92781 2 4805
-5.2108 1.7577 1.0361 0 6416
-5.2021 -7.8388 1.1002 0 4432
-5.1974 -8.1395 0.22422 0 4376
-5.1859 1.3711 0.88129 0 6154
-5.1819 -8.4363 1.3915 0 4334
-5.1764 -7.8983 0.21925 0 4410
-5.1216 -6.0542 0.92735 1 4777
-5.1198 3.2982 -0.85591 1 7444
-5.0928 1.4258 0.12279 0 6212
-5.0883 -6.0511 0.92456 2 4770
-5.0809 -8.0559 1.3386 2 4365
-5.0654 -5.954 1.0986 0 4785
-5.0604 -5.844 0.72121 0 4798
-5.0549 2.0382 -0.50849 0 6652
-5.0433 -7.9438 1.3224 0 4372
-5.0388 6.5904 0.77398 0 9406
-5.0347 -3.5424 0.7199 0 5187
-5.0304 0.81025 -0.59585 1 5826
-5.0158 -7.233 1.4461 2 4488
-5.0146 -3.658 0.87234 0 5162
-5.0084 3.7892 -0.88264 0 7857
-5.0069 -8.0974 1.5641 2 4344
-4.999 -7.8288 1.3054 0 4380
-4.9912 5.8979 0.72084 0 9065
-4.9868 -0.24739 0.70171 0 5495
-4.9811 -3.5477 0.28518 0 5180
-4.9504 -6.9658 0.19841 0 4512
-4.9326 -5.6305 0.69836 0 4811
-4.9249 -7.7127 1.7241 0 4382
-4.916 1.8517 -0.36734 0 6558
-4.9156 0.071213 0.80768 0 5599
-4.9119 -8.6606 1.6358 1 4241
-4.8972 -5.6217 0.69557 0 4804
-4.882 -0.07158 0.80217 2 5557
-4.8756 -8.6493 1.6313 2 4232
-4.8708 2.1829 0.75014 0 6791
-4.8594 -4.4983 -0.46304 0 4960
-4.8097 2.0218 0.48675 0 6712
-4.7879 -7.7431 1.7152 2 4345
-4.77 1.0113 0 0 5963
-4.7682 1.7638 0.47431 1 6538
-4.7627 -8.3976 1.8189 1 4242
-4.7557 -0.20764 0.78207 0 5510
-4.7493 0.99304 0 0 5953
-4.7361 -7.7104 1.7049 1 4336
-4.735 -4.3587 1.0574 2 4969
-4.7233 -4.5804 0.61383 2 4928
-4.7112 -8.7716 0.92892 0 4168
-4.7106 -0.4951 0.77818 2 5385
-4.7085 3.4994 0.54732 0 7828
-4.6909 8.0436 -0.21619 0 10236
-4.688 -8.3745 1.5768 2 4223
-4.683 -8.6575 1.1511 0 4176
-4.6752 2.1761 0.84724 1 6839
-4.6569 -8.6706 1.617 2 4170
-4.6516 5.0339 0 0 8777
-4.6462 -8.5288 0.67915 0 4184
-4.6268 -0.80251 0.65996 0 5261
-4.6153 2.2152 0.84108 0 6878
-4.5978 -8.44 1.5791 1 4188
-4.5967 -8.804 0.6945 0 4130
-4.5681 -8.8089 0.92576 2 4122
-4.5441 -8.1709 1.7615 1 4215
-4.544 -8.1173 1.0879 0 4221
-4.5219 4.7552 -0.45886 0 8690
-4.5177 -8.5903 0.90551 2 4140
-4.5059 -8.1022 1.0842 0 4212
-4.4995 -4.5963 0.60008 0 4894
-4.497 7.6588 0.8286 0 10226
-4.4919 -8.3634 1.1102 1 4169
-4.4883 -8.4733 1.1213 0 4149
-4.4848 0.82879 -0.10589 0 5876
-4.4666 5.8421 -0.34295 2 9399
-4.4614 -8.0818 0.64553 1 4200
-4.4499 -8.1178 0.64734 1 4192
-4.4332 -8.254 1.7652 0 4171
-4.4231 4.8439 0.92188 0 8819
-4.4173 7.7853 -0.8351 0 10297
-4.4092 -3.738 -0.1342 0 5053
-4.3943 3.4061 -1.1818 2 7926
-4.3902 2.1072 -1.3964 0 6874
-4.3661 5.9918 -0.69167 0 9546
-4.3629 -3.5279 0.92182 0 5094
-4.3556 1.2737 0 0 6252
-4.3503 7.2173 1.3845 0 10168
-4.3459 2.6227 0.83395 0 7310
-4.3212 0.32567 -0.60902 0 5680
-4.2853 2.9596 0 0 7633
-4.2688 -8.2318 1.0844 0 4123
-4.2515 -3.0102 -0.36427 1 5181
-4.2381 7.3141 -0.78865 0 10251
-4.1814 0.6488 -0.19733 0 5812
-4.1758 4.095 -0.54565 0 8498
-4.171 0.83421 -0.29744 2 5920
-4.1694 -8.0402 1.2729 2 4124
-4.1607 -8.1377 1.0688 0 4103
-4.1479 -7.9443 1.2595 0 4133
-4.1472 -8.2351 1.5149 2 4085
-4.1353 4.0794 -0.54193 0 8512
-4.1345 -7.9187 1.0447 1 4132
-4.1219 -8.242 1.0776 2 4075
-4.1118 0.51579 0.38662 0 5760
-4.1093 0.60021 0.096418 0 5793
-4.1047 4.9057 0.74801 0 9106
-4.088 0.30809 -0.19118 0 5683
-4.0842 6.4331 -0.89111 0 10000
-4.0706 1.0497 -0.39219 2 6115
-4.0704 0.9502 0.29228 0 6031
-4.0674 3.9886 -1.2109 0 8507
-4.062 7.4565 -0.79218 0 10391
-4.0292 4.5703 -1.1479 0 8934
-4.0287 -8.293 1.7371 0 4046
-4.0259 1.115 -0.19481 0 6198
-4.0235 0.36263 0.66372 0 5704
-4.0211 -2.6253 0.33581 0 5212
-4.0058 0.82591 0.286 0 5945
-3.9875 -8.3263 0.86129 2 4025
-3.9822 3.2178 0.47765 0 8014
-3.9706 -7.7127 1.2192 0 4114
-3.9663 7.1319 1.3407 1 10355
-3.9603 3.416 0 0 8146
-3.9339 -3.2579 0.47654 0 5077
-3.9053 -0.1828 0.54946 0 5501
-3.8933 -7.5626 1.3975 2 4115
-3.8861 0.29288 -0.36358 0 5682
-3.869 1.2661 0.094514 0 6372
-3.8633 0.7258 0.36674 0 5885
-3.8608 0.82979 0.091683 0 5971
-3.8506 0.9344 -0.27707 0 6060
-3.8403 4.3805 1.0976 0 8955
-3.829 5.6257 0.9564 0 9774
-3.8138 5.8907 -0.6547 0 9941
-3.8058 -4.097 0.65393 0 4859
-3.7906 7.1502 -0.9464 0 10453
-3.7857 7.1955 -0.95081 0 10468
-3.773 6.4697 0.69873 0 10243
-3.7634 2.9711 0.67388 0 7965
-3.7598 -0.26291 -0.087505 0 5456
-3.7513 2.4473 -1.1726 0 7483
-3.7425 -2.9208 0.44291 0 5122
-3.7383 -7.806 1.2164 0 4027
-3.7381 0.23846 -0.34946 1 5668
-3.72 4.1694 0.52131 0 8894
-3.7123 1.3117 0.64686 0 6472
-3.7057 5.7237 0.31798 0 9949
-3.669 3.9705 -0.25211 0 8774
-3.6563 0.40559 0.60439 0 5734
-3.6488 5.5295 0.77473 0 9889
-3.6389 -8.7461 1.3313 2 3894
-3.623 4.2812 -0.13021 0 9059
-3.621 -8.8508 1.1183 2 3874
-3.6099 -8.7453 1.3297 0 3885
-3.6011 1.2498 0.17776 0 6443
-3.5949 1.4379 -0.18056 0 6640
-3.5919 1.0273 -0.17422 0 6233
-3.574 -2.8726 0.86392 1 5100
-3.5603 -4.5767 -0.13462 0 4642
-3.5267 -4.5597 -0.13383 0 4631
-3.4931 4.382 -0.26133 0 9258
-3.4837 -9.1952 1.1499 0 3804
-3.4456 -8.716 1.5398 1 3846
-3.4441 -8.8565 1.3355 0 3831
-3.4268 3.0436 -1.3142 2 8226
-3.4197 0.38781 0.24066 0 5739
-3.4163 0.13841 -0.079381 0 5641
-3.4057 3.8171 -1.3392 0 8895
-3.4007 0.12826 -0.07901 0 5636
-3.3967 3.4881 0.7999 0 8636
-3.3891 -0.34664 0.3984 0 5389
-3.3792 -3.8356 0.47691 1 4817
-3.3781 8.1232 -0.20425 0 10861
-3.3541 2.3165 -0.3803 0 7628
-3.3452 2.3224 -0.37993 0 7647
-3.3416 3.4123 0.78466 2 8619
-3.3323 -9.1159 0.90551 2 3761
-3.3175 3.0677 0.85133 2 8343
-3.2972 -9.1835 1.1411 0 3747
-3.287 4.6804 0.93965 0 9666
-3.2609 4.0154 0.60491 0 9207
-3.252 4.6306 -0.13137 0 9656
-3.2493 1.81 0.52273 0 7165
-3.2464 -2.3838 -0.18782 0 5155
-3.2359 2.959 -0.1018 0 8302
-3.2351 1.0499 -0.31732 0 6359
-3.2334 3.4384 0.55195 0 8731
-3.2195 4.0853 -0.48527 2 9294
-3.2194 -9.2139 0.6825 2 3721
-3.2036 9.1635 -0.22538 0 11039
-3.1796 1.0209 -0.31156 1 6347
-3.1795 6.0432 -0.31844 0 10472
-3.1758 -9.26 0.91331 2 3706
-3.1717 1.6829 -1.2132 0 7076
-3.1376 -9.1484 0.45102 1 3704
-3.1366 0.0909 0.51554 0 5624
-3.1273 2.9969 -0.30288 1 8434
-3.1172 2.0081 -1.3496 0 7451
-3.0992 -9.1298 0.44962 0 3698
-3.0671 2.4058 -0.92362 0 7953
-3.055 1.422 0.23564 0 6834
-3.0473 -3.3987 0.10598 0 4832
-3.0429 2.7331 0.47831 0 8259
-3.023 3.6129 -0.10937 0 9099
-3.0127 1.6672 -0.98733 0 7151
-2.9911 7.3077 1.2973 0 10892
-2.9905 8.4777 -1.2634 0 11025
-2.9839 -1.9348 0.58428 0 5213
-2.9733 2.3473 0.443 0 7964
-2.9612 5.2876 0.1407 0 10333
-2.9493 2.6818 0.27875 0 8290
-2.9449 2.3383 0.43975 2 7979
-2.9442 3.2607 0.30721 0 8853
-2.8868 2.5783 0.27066 0 8240
-2.8851 4.9137 0.39845 0 10224
-2.8797 1.8909 -0.32141 0 7490
-2.8603 1.866 -0.31862 2 7476
-2.854 6.3327 -0.16127 0 10727
-2.8461 6.731 0 0 10834
-2.8214 -7.5784 1.1365 0 3784
-2.8046 -3.3758 0.61682 0 4754
-2.7999 -9.204 1.125 0 3629
-2.7884 1.8779 -0.23508 0 7552
-2.773 5.2706 0.27773 0 10475
-2.7705 1.672 0.3019 0 7306
-2.7673 -2.4303 0.085509 1 5025
-2.75 3.553 0.84652 0 9368
-2.7097 1.7117 0.52657 1 7414
-2.7041 2.5154 -1.059 0 8359
-2.7 -4.726 0.63651 0 4247
-2.6985 3.4865 0.10236 0 9360
-2.6584 2.9442 0.37008 0 8855
-2.6479 3.748 -0.214 0 9637
-2.6381 5.5532 0 0 10646
-2.6325 -1.9203 -0.15196 0 5159
-2.602 2.6571 -0.79048 0 8618
-2.5312 4.1452 0.45313 0 10131
-2.5151 -2.1451 0.3084 0 5049
-2.5135 -5.9014 0.44853 0 3915
-2.472 4.5059 0.35939 0 10383
-2.4664 2.3495 0.55964 0 8427
-2.4524 -2.031 -0.22266 1 5074
-2.4345 -3.3855 0.38903 2 4530
-2.4293 7.58 1.1187 0 11115
-2.4104 4.2483 0.8025 0 10309
-2.3889 -3.8634 0.42377 1 4341
-2.3826 7.9116 1.5568 0 11156
-2.3499 -5.3863 1.1072 0 3943
-2.341 -7.1708 0.70375 0 3674
-2.336 8.3553 1.4254 0 11198
-2.3358 -5.3925 1.1072 0 3934
-2.3176 -6.6328 0 1 3718
-2.3067 5.9255 -0.7436 0 10936
-2.3003 -7.046 -0.34565 0 3671
-2.2889 -9.1191 0 0 3571
-2.2821 6.4125 0.63501 0 11023
-2.2694 6.259 0.46555 0 11007
-2.2518 8.2481 0 0 11207
-2.2234 7.7847 0 0 11187
-2.2228 2.3236 -1.2556 0 8676
-2.2168 -5.8022 -0.28966 1 3807
-2.2087 -2.9056 0.68765 1 4608
-2.2066 5.4369 0.27363 0 10899
-2.1979 -2.9104 0.5992 1 4597
-2.1978 -2.5833 -0.23717 0 4781
-2.1667 7.5068 1.2837 1 11182
-2.158 5.8432 0.58113 0 10992
-2.142 4.8658 -1.0017 0 10771
-2.1319 4.052 0.75224 0 10481
-2.1106 -3.9297 -0.41616 0 4163
-2.065 -2.4557 0.14963 0 4767
-2.0508 7.257 0.70356 0 11193
-2.042 4.0199 0.10468 0 10549
-1.9864 8.3058 0 0 11276
-1.9563 4.2415 0.21782 0 10693
-1.923 4.9399 0.49456 1 10943
-1.9113 4.241 -0.43399 0 10721
-1.9062 3.9502 0.51292 0 10628
-1.9024 3.745 -1.0996 1 10553
-1.8954 5.8543 -0.86482 0 11102
-1.8953 4.8688 0.73428 0 10945
-1.8486 2.4461 0.57767 0 9449
-1.8372 -5.7359 0.70434 0 3661
-1.8371 -8.2186 0.58888 0 3549
-1.828 5.3822 0.79885 0 11065
-1.78 3.0719 -0.58331 0 10248
-1.6914 -9.0293 1.7308 0 3522
-1.6914 5.7321 -1.2703 1 11166
-1.6811 -4.4371 0.22127 0 3801
-1.6707 9.2022 1.5366 0 11442
-1.6217 3.2174 -0.083652 2 10560
-1.619 4.0892 0.51432 1 10926
-1.6182 3.1856 -0.082955 2 10548
-1.6181 6.6028 -0.15783 0 11263
-1.5753 3.4953 0.44834 0 10732
-1.5713 5.1077 1.0069 0 11141
-1.557 3.4839 0.44625 2 10746
-1.5443 8.2442 1.378 0 11424
-1.5406 4.2885 0.10579 0 11013
-1.5333 -6.9509 1.0004 0 3546
-1.5035 -4.5596 0.44792 0 3682
-1.4909 5.1116 0.8748 0 11175
-1.4542 5.7217 0.41282 0 11245
-1.4492 8.2607 0.98078 0 11459
-1.4414 -8.8212 1.4685 0 3505
-1.4343 -5.5141 0.93608 2 3581
-1.4278 9.2445 -1.3146 0 11516
-1.4235 6.281 0.14952 0 11303
-1.4216 -8.2562 0.19451 0 3512
-1.3884 -5.3956 0.91533 0 3579
-1.3732 2.6858 -1.343 1 10534
-1.3727 -2.8896 0.52559 1 4021
-1.3553 -3.0088 0.23075 0 3969
-1.3189 -3.6734 -0.090615 0 3741
-1.31 -3.551 0.087876 1 3767
-1.299 5.1637 0.8748 0 11255
-1.278 -8.2837 -0.1946 0 3496
-1.2706 3.2092 0.24136 0 10924
-1.248 5.1509 0.74485 0 11272
-1.2215 -3.3415 0.41605 2 3762
-1.2085 -7.3959 0.17399 0 3503
-1.1735 4.9069 -0.95057 0 11280
-1.1718 3.5851 -0.80171 0 11100
-1.169 3.6107 -0.8067 0 11111
-1.1652 -3.7899 -0.092054 0 3632
-1.16 3.5118 0.60763 0 11090
-1.1478 3.5117 0.60698 2 11101
-1.116 -5.2819 0.12534 0 3541
-1.0913 5.5522 -0.13137 0 11389
-1.0602 -4.3823 0.84948 0 3563
-1.0547 -3.6978 0.35875 0 3610
-1.0238 8.0138 0.94477 0 11585
-1.0146 4.4159 0.31683 0 11295
-1.0056 -3.0496 -0.074553 0 3679
-0.96053 4.6099 -0.77364 1 11345
-0.95515 4.5169 -0.10719 0 11340
-0.95205 3.2265 0 0 11165
-0.93907 -4.2012 -0.099946 0 3547
-0.9357 3.6816 -0.53387 0 11240
-0.89585 -3.1407 0 2 3606
-0.8958 3.6063 0.34667 0 11260
-0.8938 5.0127 0.83654 1 11451
-0.88598 -3.1415 0 2 3600
-0.84959 -8.4079 1.3884 0 3449
-0.83016 -3.39 0.16276 0 3565
-0.80143 -3.3127 -0.15894 0 3560
-0.78852 -6.3216 0.74499 0 3467
-0.77964 -3.2625 -0.15643 0 3558
-0.76632 -3.681 0.17534 0 3539
-0.72464 -2.9953 0.43311 0 3562
-0.71784 3.5441 -1.412 0 11370
-0.70048 -4.0012 0.28405 0 3514
-0.69814 -6.71 -0.15663 1 3451
-0.67368 -3.2819 -0.15624 0 3535
-0.67177 -3.9718 0.28168 0 3510
-0.6486 7.7402 1.4634 0 11693
-0.64478 3.2327 -0.70066 1 11384
-0.64385 -7.2 0.84534 0 3438
-0.63746 -4.132 0.58759 0 3498
-0.59761 3.5258 -0.58752 1 11473
-0.59085 4.5184 0.74867 0 11574
-0.59031 -4.0613 0 0 3488
-0.58807 3.7382 -0.44253 0 11510
-0.58014 -3.7605 0.08834 0 3497
-0.57767 -8.0393 0 0 3427
-0.5698 -4.0037 0 2 3482
-0.55474 -4.7871 0.56356 0 3459
-0.45844 -6.3799 0.44728 0 3428
-0.44603 -6.4596 0.30195 0 3424
-0.42482 4.5968 -1.2085 0 11672
-0.41355 4.6064 0.21568 0 11678
-0.40553 -3.7884 0 0 3454
-0.40252 4.6475 0.21754 0 11683
-0.39346 -3.7816 0 0 3452
-0.38501 -3.2432 0 0 3461
-0.36805 4.3921 -0.93685 1 11692
-0.34472 -4.6061 -0.2154 1 3430
-0.34027 -5.6442 0.13128 0 3419
-0.32567 3.7602 -0.44137 0 11679
-0.3189 3.1505 0.14767 0 11650
-0.30555 -8.9744 1.4753 1 3397
-0.2846 -3.9607 -0.092193 0 3426
-0.25424 4.6493 -0.54451 0 11755
-0.24233 3.2381 0.075389 0 11709
-0.20702 4.2479 -0.69874 0 11768
-0.19684 -4.3017 0.81134 0 3409
-0.19628 4.3057 -0.70814 0 11778
-0.16079 -4.3642 0.82282 0 3401
-0.15955 -3.9897 -0.092704 0 3404
-0.1593 3.4946 0.16314 0 11784
-0.1434 -3.8923 -0.090429 0 3400
-0.13306 3.5943 -0.94159 0 11811
-0.099289 -7.2006 1.3568 0 3381
-0.090222 -3.5399 -0.082213 0 3390
-0.047428 3.4396 -0.56515 0 11881
-0.044702 -4.0653 0.18959 0 3379
-0.038366 3.489 -0.57326 1 11891
-0.0308 5.8821 0.82669 0 11915
-0.030717 3.8259 0 0 11907
-0.0083141 -4.3305 0.50642 0 3371
0.0072966 -8.361 0.97776 0 3368
0.017272 4.9483 -0.57866 0 11932
0.018354 5.2583 -0.73901 0 11931
0.044461 4.8064 -1.0217 0 11972
0.050888 3.3511 0.31267 0 11991
0.05213 5.6354 -0.65904 0 11961
0.087881 -4.1266 -0.19248 0 3358
0.08955 3.0173 0.21108 0 12028
0.098899 3.013 0.2108 0 12037
0.11232 -8.9375 1.2562 0 3363
0.16886 -4.3558 0.40668 1 3349
0.17262 -4.4529 0.73214 0 3350
0.19129 -3.602 -0.083745 0 3340
0.19947 7.4679 -1.4075 0 12021
0.21417 -4.828 0.22537 0 3345
0.25583 7.1822 -0.67049 0 12044
0.30738 -6.9291 0.64709 0 3346
0.30985 5.0371 0.11717 0 12111
0.3177 -4.3056 0.20133 0 3333
0.31927 -6.7451 0.62999 0 3343
0.35094 -3.7335 0.17487 0 3317
0.35208 -5.9791 -0.27931 1 3334
0.35294 6.0115 -0.56181 0 12101
0.3585 -3.3882 0.079102 0 3309
0.35983 -6.416 0.59952 0 3338
0.36773 -3.5829 0.59174 0 3312
0.36996 9.6303 0.22375 0 12054
0.37516 4.9093 -1.4118 0 12147
0.38317 4.3447 0.71657 0 12172
0.38371 5.4328 -0.50812 0 12132
0.39086 5.7779 -0.81388 0 12123
0.39164 4.3201 0.71268 1 12182
0.40774 4.3458 -1.1427 0 12189
0.40774 6.6286 -0.61959 0 12109
0.41215 3.6977 -0.4351 1 12222
0.42063 3.5015 0.32902 0 12247
0.43399 4.3557 0.30609 0 12200
0.43681 -4.0079 0.18801 1 3307
0.43894 7.1358 -0.83605 0 12108
0.44687 4.7629 0.78596 0 12190
0.46169 -8.2321 0.3845 0 3337
0.4778 -3.3826 0.56126 0 3290
0.47878 5.2814 0.37083 0 12178
0.50754 4.0233 -1.2654 0 12258
0.51357 -6.2201 0.29105 0 3328
0.5271 4.8679 0.80444 0 12220
0.53758 9.5852 -0.89566 1 12095
0.5531 3.8478 -1.1147 0 12291
0.60551 5.1701 0.48564 0 12241
0.61761 5.7037 1.0809 0 12221
0.63082 -3.5095 0.41698 0 3268
0.64875 3.9358 0.092611 0 12343
0.69934 -4.2427 0 0 3274
0.70265 3.6081 -0.78133 0 12419
0.70572 3.804 0.089826 0 12390
0.71519 6.4165 0.45146 0 12229
0.72287 3.8293 0.090476 0 12399
0.74111 -7.3988 0.51996 0 3314
0.79647 7.9937 0.93943 0 12201
0.7984 -3.4944 0.33441 0 3245
0.8166 -4.4669 0.31753 0 3266
0.84994 -6.5801 0.30941 0 3295
0.85056 7.4192 0.5222 0 12234
0.85359 -3.2935 0.15866 0 3224
0.85525 -6.9255 -0.16201 0 3299
0.8606 8.9051 1.6856 0 12195
0.88693 7.0306 -0.99592 1 12252
0.92769 -4.6174 0.66191 0 3257
0.95551 8.5726 0.20026 0 12228
0.97717 7.5548 -0.35525 0 12261
0.97885 -9.251 1.0879 0 3310
0.98279 -4.4221 0 0 3248
1.0117 -9.2825 -0.21679 0 3306
1.0192 3.8439 -0.65335 0 12602
1.0277 -4.2709 0.10199 0 3237
1.0288 -2.9312 0.28982 0 3209
1.0311 3.8427 -0.65367 0 12612
1.0357 -4.2517 0 0 3234
1.0524 -4.3205 0.10324 0 3235
1.0556 9.2074 1.5226 0 12235
1.0924 -9.0539 -0.21173 0 3301
1.1632 3.1111 0.5457 0 12833
1.1655 5.8066 0.1375 0 12431
1.1835 -5.0498 0.12042 0 3241
1.2279 2.9412 -0.52365 0 12883
1.2408 3.9739 0.58508 0 12751
1.2867 2.9367 0.2242 0 12924
1.3103 -3.696 0.64427 0 3208
1.3302 4.6361 -0.56403 0 12669
1.3597 7.688 -1.0972 0 12365
1.3643 -3.6143 0.36042 0 3202
1.4082 9.7966 -0.22979 0 12289
1.4158 -3.8544 0.38309 0 3204
1.4185 2.7448 -0.43422 0 13058
1.4275 3.7539 0.65983 1 12841
1.4292 4.8249 0.46948 0 12701
1.4319 8.2384 1.3738 0 12363
1.4421 -3.3151 -0.2528 1 3181
1.4464 3.8037 -0.66859 0 12837
1.4471 -3.3521 -0.25531 0 3183
1.4528 2.9813 -0.15466 0 13014
1.4583 4.767 -1.4295 0 12731
1.4668 3.8213 -0.67248 2 12842
1.4793 2.9247 -0.85802 1 13042
1.4879 -5.7408 0.97434 0 3225
1.4914 3.2985 -0.94767 0 12954
1.5043 -9.4658 0.67022 0 3278
1.5056 3.6637 -0.46321 1 12879
1.533 6.0716 -1.3311 0 12580
1.5417 4.1587 -1.2718 0 12829
1.5428 -6.1062 0.88514 0 3229
1.5602 3.0423 -0.079381 0 13053
1.5712 3.5591 0.27205 0 12935
1.5751 -4.3228 0.32172 0 3206
1.5907 3.9058 -0.49318 0 12874
1.6049 3.3392 -0.69802 0 13006
1.6221 3.1387 -0.082027 0 13060
1.6326 6.1575 0.1479 0 12608
1.6378 -3.5905 0.27596 0 3165
1.6539 2.7911 -1.3551 0 13165
1.6693 -7.0286 -0.33689 0 3239
1.6895 -2.4907 0.49447 0 2940
1.7108 -3.8138 0.68674 0 3169
1.7158 4.6734 0.46446 0 12823
1.7158 6.2549 0 0 12636
1.7162 -3.8546 0.69323 1 3172
1.7346 -8.7602 0.41646 0 3259
1.7524 -9.1171 0 0 3262
1.7562 4.5752 -0.11378 0 12844
1.8013 6.4908 0.78773 0 12647
1.8055 5.2915 -0.91857 0 12795
1.8062 2.4285 -1.2642 0 13408
1.8136 5.0736 0 0 12814
1.8877 6.2407 0.91632 0 12723
1.8889 -6.8763 0.66529 1 3221
1.8907 -7.3852 0.53308 0 3227
1.9553 2.3754 0.28704 1 13586
1.9611 6.9167 1.0104 0 12664
1.966 8.5022 1.0205 0 12522
1.9871 -5.0419 0.89037 0 3199
2.0152 -3.7116 0.69388 0 3083
2.0213 -4.0224 0.73959 0 3127
2.0335 -4.199 0.76651 1 3146
2.0391 -6.0311 0.44519 0 3213
2.0447 -5.0179 0.50552 0 3194
2.048 3.4328 -0.94714 0 13172
2.0534 -3.8104 0.50618 0 3087
2.0743 3.6948 0.69615 0 13121
2.0755 3.6714 0.6929 0 13127
2.0767 -8.4104 1.0131 0 3232
2.1117 -4.4592 0.34502 0 3155
2.1236 7.401 0.35907 0 12674
2.1636 5.7348 0.57184 0 12836
2.18 3.3188 0.65237 0 13287
2.2257 3.6122 -0.098507 0 13207
2.2399 3.8057 -0.51641 0 13155
2.2404 -8.2575 0 0 3222
2.241 3.0131 0.52774 0 13411
2.2414 -6.6295 0.16248 0 3211
2.2518 6.9967 -0.68573 0 12769
2.2626 3.4867 -1.1919 1 13272
2.269 3.7569 0.40947 1 13187
2.2928 -4.2832 0.68278 1 3091
2.2932 3.7702 0.4117 0 13197
2.3029 3.813 -0.94683 0 13188
2.3422 3.4975 -0.49225 0 13299
2.3585 1.8693 -0.35194 0 14455
2.3597 3.1543 -1.1296 0 13418
2.3872 4.7197 -0.86897 0 13035
2.3887 1.8824 -0.35565 0 14468
2.3961 -6.6957 0.83164 0 3207
2.409 3.5314 -0.099249 0 13316
2.4584 3.5824 -0.10087 0 13321
2.459 -7.2732 0.35804 0 3212
2.4739 1.8353 -1.458 1 14597
2.4767 -2.5089 -0.24652 1 2242
2.4933 3.6784 -0.83726 1 13312
2.5009 -5.7027 0.58095 0 3179
2.5062 3.1361 0.56421 0 13529
2.5141 5.0469 -0.13091 0 13030
2.5277 3.421 0.39683 0 13402
2.5459 2.7832 0 1 13813
2.5562 1.8173 -0.29261 0 14669
2.563 4.2436 -0.81449 0 13180
2.5918 -8.205 0.80277 0 3217
2.6006 2.7771 0.5347 0 13874
2.6062 1.5511 0.28295 0 15042
2.6138 -8.8126 0.85758 0 3219
2.6241 -3.4835 0.20338 0 2784
2.6306 -2.9587 -0.46298 2 2430
2.6426 5.2247 1.1031 0 13043
2.6534 3.2627 0.19612 0 13560
2.6596 4.9045 0.91663 0 13088
2.6608 -4.1783 0.81385 0 3018
2.6698 -1.5253 0.50517 2 1034
2.6744 4.895 0.6523 0 13095
2.6846 1.9198 -0.15391 1 14657
2.6979 -2.2671 0.4121 1 2009
2.7023 -2.2587 0.41187 0 1998
2.7048 1.5055 0.43506 0 15196
2.7074 3.8238 -1.3435 0 13352
2.724 4.0187 -0.45294 0 13309
2.7312 2.4782 -0.34407 0 14202
2.7369 1.3801 -0.071164 0 15422
2.7728 3.2306 -0.19854 1 13681
2.7766 4.6856 -0.76545 0 13161
2.7793 4.453 -0.48973 1 13217
2.7824 -4.05 0.69058 0 2921
2.8079 -4.0627 -0.23031 0 2911
2.818 -2.2191 0.67581 0 1874
2.8463 -4.8339 0.52335 0 3059
2.8539 -5.4038 -0.42733 1 3098
2.8578 -5.3387 -0.28239 0 3090
2.8789 4.4655 0.37152 0 13262
2.8859 -6.5804 1.0098 0 3180
2.9354 -1.4368 0.53694 0 665
2.9487 1.2184 -0.14879 2 15934
2.9604 -0.53852 0.28072 0 18832
2.9668 3.2628 0.51571 0 13804
2.9748 6.2396 -0.32236 0 12997
2.9756 6.4279 -0.66083 1 12973
2.9769 1.1101 -0.073764 0 16163
2.9771 6.1942 -0.32049 0 13002
2.9912 3.2701 0.51826 0 13819
3.0121 -7.5118 0.37742 0 3196
3.0127 -5.1495 0.98018 1 3062
3.0221 -9.3847 0.45978 0 3215
3.0296 -0.74191 0.072418 0 5
3.0318 -4.5823 0.12757 0 2969
3.0449 6.3866 -0.66009 1 12995
3.0454 4.3012 -0.74068 1 13346
3.0745 5.0547 -0.55196 0 13190
3.0804 0.36895 0.50971 2 17799
3.1034 -1.9809 -1.34 0 1315
3.1112 -0.8319 0.15018 0 18970
3.1166 -7.1644 0.54633 0 3182
3.1171 -4.5678 0.51592 0 2927
3.1191 -0.80316 0.52916 1 28
3.122 -6.4467 0.66826 0 3144
3.1299 3.9888 0.71257 0 13502
3.1343 6.292 0.65582 0 13031
3.137 5.227 0.85675 0 13179
3.1436 0.36651 -1.1519 0 17812
3.1482 0.36704 0.52073 1 17818
3.1516 4.425 -0.7635 0 13356
3.1855 1.3699 0.24247 0 15833
3.191 4.4803 0.12771 0 13359
3.2099 -0.028012 0 0 18340
3.2384 5.2557 -0.86761 0 13203
3.2511 5.5614 0 0 13152
3.2627 5.6195 0 0 13147
3.2706 -1.7193 0.25838 0 829
3.2751 -6.7628 1.056 0 3145
3.2768 4.5418 -0.13003 0 13372
3.2774 2.0029 0.089176 0 14976
3.2809 -0.91603 0.55964 0 62
3.2897 -0.38354 0 0 18673
3.2997 5.3198 -1.0285 0 13210
3.3043 2.4674 0.28837 0 14590
3.3077 5.3997 -0.14702 0 13201
3.3264 5.1934 -0.86677 0 13247
3.3372 -0.019221 0.39027 0 18329
3.3404 -8.0566 0.20249 0 3192
3.3441 -6.6145 -0.69149 1 3118
3.3835 2.0799 -0.18522 2 14957
3.3889 5.2909 -0.73477 1 13248
3.3937 2.1972 0.76172 0 14839
3.4062 -0.73209 0 0 18888
3.4096 2.1099 -0.18699 0 14939
3.4242 6.6772 0.17422 0 13056
3.4626 6.6573 0 0 13065
3.4658 4.9847 1.1439 0 13334
3.4848 -2.0576 0.093957 0 1115
3.499 3.0118 0.32283 0 14313
3.5143 3.1888 0.44272 0 14208
3.5325 0.92279 0.25531 0 16942
3.5487 4.495 -1.4992 0 13511
3.5576 -6.4659 0.34416 0 3076
3.5589 0.8413 -0.084905 0 17110
3.5635 1.0983 -0.26075 0 16618
3.5883 3.1083 0.44291 0 14304
3.5957 -3.5794 0.35478 1 2218
3.5989 -9.1317 1.8493 0 3200
3.5996 3.0983 0.44309 0 14315
3.6085 8.6434 1.5388 0 12886
3.6234 3.0286 -0.33023 0 14363
3.6238 0.09426 -0.084162 1 18207
3.6284 1.9766 0.48319 0 15239
3.6285 -3.2136 0.56682 0 2079
3.6343 6.4288 -1.2133 0 13122
3.6378 -1.0047 0 2 54
3.6467 -6.8125 -0.54033 0 3089
3.6496 5.7353 0 0 13241
3.6642 1.9961 0.78616 0 15240
3.6679 -2.5096 0.62461 0 1504
3.6863 -8.7522 -0.66408 0 3189
3.6889 -1.03 0 0 59
3.6991 2.0018 0.79245 0 15257
3.6996 -0.81815 0.087969 0 18900
3.7192 -2.4673 0.20813 0 1415
3.7288 -6.2875 0.16972 0 3054
3.7335 -0.91427 0.17925 0 6
3.7366 -0.91502 -0.089315 0 4
3.7399 -3.2557 0.4626 2 2061
3.741 4.6562 1.1254 0 13543
3.7655 1.1004 -0.091079 0 16727
3.768 4.8858 -0.72153 0 13460
3.792 -3.0762 0.45554 2 1935
3.8115 5.3514 0 0 13358
3.8161 -5.2581 -0.30298 0 2845
3.8196 5.3947 0 0 13348
3.8327 0.91802 -1.3317 1 17091
3.8609 -6.7333 1.0908 0 3067
3.8694 6.1996 0.16967 0 13221
3.876 0.91624 -1.3458 1 17113
3.8763 3.7946 -0.50608 0 14058
3.8778 0.91668 0.37175 0 17115
3.885 -5.0961 1.0528 0 2767
3.8861 -1.0391 0.47041 0 18971
3.8906 -3.1561 0.35032 0 1934
3.8991 0.86298 -1.0454 1 17210
3.9151 -7.3662 1.1724 0 3095
3.9188 0.85443 -1.05 1 17228
3.9717 4.2191 -0.13453 0 13882
3.9839 8.4854 1.0962 0 12988
4.0022 4.0798 0.66833 1 13969
4.0084 -8.8612 1.5979 0 3168
4.0303 -2.3325 0.32562 1 1066
4.0391 -0.86811 0.77838 1 18889
4.0486 3.5493 -0.25108 1 14272
4.0573 6.1766 0.17157 0 13283
4.0911 -8.5771 0.6645 0 3152
4.0968 -1.1562 -0.098832 1 65
4.1171 6.386 1.2483 0 13267
4.1193 6.1907 -0.17264 0 13297
4.1235 -0.89982 0.59316 0 18895
4.1421 3.8477 0.66113 0 14167
4.159 -1.1863 -0.10041 0 69
4.1745 -3.467 0.50626 1 1985
4.2247 -1.113 0.10143 0 35
4.2269 2.6856 0.94354 0 14885
4.2398 -1.2093 0.41133 0 70
4.2412 4.6075 -0.14539 1 13827
4.2452 3.7637 0.5293 0 14252
4.2676 3.4632 0.2563 0 14420
4.2792 -4.6764 0.74127 0 2382
4.2987 4.0184 0.13662 0 14153
4.3225 2.538 0.23376 0 15070
4.3255 -1.0737 0.10347 0 11
4.3477 2.2556 0 0 15356
4.3606 6.0084 -0.17236 0 13380
4.3616 -8.2585 0.21684 0 3100
4.372 2.5671 0.47301 0 15074
4.3724 0.063345 0.10152 0 18249
4.3851 4.9949 0.93413 0 13732
4.3871 -1.102 0.74316 0 20
4.4025 2.0632 0 0 15603
4.4252 5.2217 -0.31919 0 13649
4.4317 0.24467 0.72922 0 18097
4.4509 0.42701 0.84244 1 17914
4.4586 2.5648 -0.47988 0 15109
4.4618 2.9813 0.25025 0 14775
4.4832 -7.1303 0.98496 0 3028
4.5206 -1.1254 0.32576 0 18943
4.522 -6.8762 0.57549 0 2981
4.5421 2.1762 0.23487 0 15551
4.5482 3.039 -0.25509 1 14770
4.5557 8.3383 0.4431 0 13093
4.5797 1.4836 0 1 16507
4.5946 -1.0447 0.55102 0 18908
4.6119 -6.8426 0.96498 0 2946
4.6608 -8.076 1.3105 0 3064
4.7732 -0.30616 0.67221 0 18527
4.7897 -5.4828 -0.50908 0 2467
4.8131 4.9064 1.295 0 13973
4.8263 3.8253 -1.309 0 14467
4.875 -1.6387 0.84497 0 139
4.8754 3.056 0 0 14908
4.8945 3.0679 0.94905 0 14916
4.9277 -0.88131 0.5854 0 18826
4.929 4.3439 0.45942 0 14265
4.9462 3.4313 0.56162 1 14708
4.9494 2.1469 0.75822 0 15816
4.9499 0.013823 0.34613 0 18293
4.9628 3.0927 0.96073 0 14931
4.9669 2.7839 0.26553 0 15178
4.9792 6.3457 0 0 13496
4.9894 1.1647 -1.4691 1 17134
5.014 3.2042 -0.13815 0 14861
5.0667 -3.9657 0.75242 0 1857
5.0703 -4.1132 0.30447 0 1933
5.0821 1.6955 -1.4025 1 16445
5.0964 -4.2824 1.0937 2 2011
5.1444 3.679 0.59005 2 14665
5.1673 5.7167 0.17891 0 13787
5.1685 -1.2867 1.0035 0 18946
5.1856 5.0182 -0.33652 0 14084
5.2253 3.131 0.56831 0 15027
5.284 8.196 -0.90978 0 13259
5.3013 0.13789 -0.37083 2 18205
5.3243 5.2431 1.4079 0 14053
5.3261 -0.37057 -0.37334 0 18541
5.3269 0.43421 0.12408 0 17978
5.3386 4.4385 -0.81189 1 14374
5.3499 2.7377 -1.2774 1 15394
5.3828 4.0195 -0.94415 1 14581
5.398 2.9029 -1.3028 0 15272
5.4041 3.8904 -0.31053 0 14648
5.4299 2.858 0.71758 0 15322
5.4531 3.2675 -0.29646 0 15019
5.465 -1.3262 0.52465 0 18933
5.4709 3.5869 -1.3905 2 14814
5.4751 6.1257 1.3498 0 13768
5.4792 2.7438 1.0068 0 15446
5.5142 -1.4579 1.0746 0 18966
5.5166 0.38479 0.51592 0 18032
5.5549 5.4702 0.72734 1 14048
5.5716 3.3597 -0.45495 0 15004
5.5944 4.1019 -0.48509 0 14621
5.5962 0.98273 0.93349 0 17486
5.5963 4.8477 -0.34528 0 14297
5.602 6.5684 -0.60367 0 13665
5.6063 4.5789 0.67532 0 14412
5.6105 5.3354 0.72233 0 14125
5.6215 -8.1824 0.23048 0 2919
5.6408 8.1131 -0.22942 0 13330
5.7385 -6.3822 0.80073 0 2413
5.7503 5.0678 -0.71508 0 14258
5.7704 4.4647 0 0 14514
5.7705 -0.20151 0 1 18442
5.8061 -0.7448 0.27298 0 18709
5.8061 1.9 0.42719 0 16488
5.8183 -4.3924 0.33997 0 1770
5.8656 -7.5157 -0.44459 0 2714
5.8718 4.1008 1.1767 0 14701
5.8742 -1.3529 0 0 18914
5.9057 3.6546 0.48564 0 14946
5.9307 -0.43136 -0.13806 0 18549
5.9882 -1.6719 0.28994 0 60
6.1019 -1.6316 0.14665 0 18969
6.1143 6.7243 -0.84792 0 13798
6.1292 -0.76886 1.0149 0 18700
6.1641 3.0652 -0.15983 0 15457
6.1694 -1.2518 0.29357 0 18871
6.2751 -2.4807 0.94833 0 265
6.3005 5.8897 -0.4022 0 14151
6.3017 -5.8518 0.19966 0 2137
6.5339 1.3258 0.622 2 17317
6.5559 -1.2316 0.78007 0 18843
6.6416 7.011 -0.22422 0 13896
6.6605 1.6347 -0.15923 0 17047
6.6695 1.9921 1.1436 0 16695
6.6721 1.3332 0 0 17334
6.6749 4.2115 1.1092 0 14899
6.6759 2.3131 1.1608 0 16351
6.7043 2.1087 0.82188 0 16584
6.755 -1.7218 0.48746 0 18953
6.7802 -7.1548 1.3853 0 2316
6.7946 -1.7965 -0.16317 1 18963
6.8339 -4.2504 0.18685 0 1251
6.8448 -5.8522 1.6967 0 2042
6.8758 3.6467 -0.54424 0 15293
6.8901 -1.903 -0.16596 0 53
6.9221 -3.1429 0.88902 0 509
6.9592 5.7143 -1.053 0 14395
6.9791 -0.75201 0.65489 0 18645
7.0363 -3.8843 -0.37481 0 939
7.0813 2.1825 0.17204 0 16624
7.1007 2.5298 1.0594 0 16279
7.1231 1.2317 1.362 0 17504
7.1801 2.1651 1.2321 0 16675
7.1859 -1.655 0.1712 0 18915
7.2104 -1.6819 0.1719 0 18921
7.2756 -1.4564 0.34602 0 18866
7.3122 -2.2272 0.8939 0 96
7.3151 1.9546 0.3531 0 16897
7.437 -1.846 1.0769 0 12
7.4617 1.9701 0.90249 0 16923
7.5107 -2.0505 -0.36307 1 48
7.523 -1.7327 -0.17923 0 18913
7.5993 4.4336 1.4455 0 15091
7.6082 -1.911 0.91736 0 18
7.6795 -1.5108 0.91527 0 18859
7.7023 -0.78509 1.272 2 18627
7.7796 -2.0496 0.75057 0 36
7.8503 -0.63989 0.92108 0 18572
7.9015 3.0521 1.3916 0 16096
8.0037 3.0355 0 0 16128
8.0532 1.3679 0.76209 0 17519
8.0586 3.4107 0.6119 0 15878
8.0865 5.8215 0 0 14651
8.1074 1.1596 1.5431 0 17679
8.1132 -1.3795 1.3521 0 18811
8.1137 4.9274 1.5596 0 14998
8.1217 -1.8945 -0.19362 0 18920
8.1424 -2.5018 1.6049 0 102
8.2582 2.3633 0.19943 0 16774
8.3319 -2.0928 0.80147 0 17
8.4908 5.1889 0.92836 0 14980
8.4987 4.7907 0 0 15161
8.5055 0.71872 0.9982 0 17966
8.5134 -0.098072 0 0 18352
8.5142 1.5749 0.40379 0 17428
8.527 -1.8607 -0.20263 0 18894
8.6581 -2.499 0.20922 0 75
8.6725 -2.5032 1.0556 0 76
8.7064 -0.0015196 1.2236 0 18306
8.7832 -3.1847 1.535 0 185
8.8469 2.036 1.0616 0 17156
8.883 3.4616 0.44459 0 16073
8.9228 -0.90949 0.83677 0 18625
9.1244 1.5498 1.3007 0 17520
9.1443 -1.7725 1.3091 0 18853
9.2673 2.8847 1.5946 0 16609
9.4216 1.0985 -0.22022 0 17810
9.843 -1.1476 1.8671 0 18675
-12.215 5.6857 -1.8936 2 6831
-11.734 5.0098 -0.29622 0 6732
-11.234 0.91372 -0.26168 0 5692
-10.974 1.8994 1.8297 0 5854
-10.849 8.0631 1.8997 0 7829
-10.81 -1.875 1.283 0 5260
-10.56 1.5123 -0.74598 0 5787
-10.545 2.5588 1.7827 0 6064
-10.536 7.3145 2.1072 0 7660
-10.045 0.23145 1.4121 0 5612
-9.8832 9.471 1.2771 0 8442
-9.7258 5.6447 1.0491 0 7228
-9.4268 -7.8068 1.7202 0 5078
-9.1709 -7.0295 1.8984 0 5135
-8.9435 7.4013 1.3576 0 8063
-8.904 6.5335 -1.8145 1 7785
-8.8728 5.4287 1.4619 0 7340
-8.8719 6.354 -1.0181 0 7728
-8.8458 11.294 2.7029 0 9328
-8.7845 -6.3332 2.0404 0 5173
-8.7494 8.9346 -1.7575 2 8605
-8.334 -7.7147 1.3281 0 4962
-8.2768 -9.4479 1.7653 0 4812
-8.2579 5.9887 0.47571 1 7767
-7.1141 -9.5304 2.2407 0 4580
-6.8418 8.4249 -0.25198 0 9200
-6.7626 -9.4563 0.81294 0 4522
-6.6336 10.053 2.2692 0 9894
-6.4186 9.3147 0 0 9715
-6.3775 9.1386 0.51968 1 9679
-6.2161 -11.261 1.5042 0 4202
-6.169 -9.9768 1.3717 2 4342
-6.1372 -11.035 0.88298 1 4210
-6.0985 13.326 2.4078 0 10709
-6.0364 8.5953 0.24385 0 9659
-5.8421 9.202 -1.7908 2 9999
-5.7791 -12.165 1.575 0 4019
-5.7037 11.653 2.1316 0 10609
-5.4411 8.4042 1.6449 0 9957
-5.0266 -14.124 0 0 3734
-5.019 9.3408 1.4903 0 10435
-4.7728 -8.8234 1.89 0 4179
-4.656 11.565 -0.28944 0 10904
-4.5019 11.673 1.7583 0 10955
-4.4119 -10.269 0.78155 0 3922
-4.1994 -11.905 2.3785 0 3733
-4.1582 9.2266 1.6627 0 10734
-4.0954 -11.941 1.4763 0 3707
-4.0194 7.5341 -1.8151 1 10450
-3.9351 9.533 -0.23944 0 10874
-3.871 5.9043 -1.8482 2 9912
-3.7861 -10.078 0.75281 0 3793
-3.2913 3.3609 -1.8369 2 8612
-3.239 2.6341 -1.8588 2 8022
-3.2024 10.514 1.8057 0 11149
-3.125 10.058 -0.98261 1 11128
-3.1038 -12.062 1.4565 0 3578
-3.0259 10.955 0.53003 1 11201
-2.9354 0.4728 -0.069029 2 5828
-2.7029 -0.46882 -0.06369 0 5258
-2.58 11.229 2.1707 0 11298
-2.5516 10.669 1.5418 0 11279
-2.3872 -10.259 1.9845 0 3555
-2.26 11.498 1.3703 0 11394
-1.9603 -10.994 1.0419 0 3515
-1.8702 8.7165 -1.8949 0 11334
-1.7727 7.8216 -1.9003 0 11307
-1.7289 12.38 2.0537 0 11556
-1.5395 10.777 1.7885 0 11546
-1.3568 -1.9333 0.27621 0 4501
-1.1745 -11.936 1.9704 0 3447
-1.128 9.962 -1.8889 0 11623
-0.75614 13.828 -0.32152 0 11758
-0.69402 -11.512 -0.26776 0 3418
-0.42945 0.83993 0.15499 1 10541
-0.089882 -11.444 1.0677 0 3376
0.2111 1.4092 0.2341 2 12309
0.25043 10.472 0.97722 1 12011
0.35495 -11.82 1.662 0 3354
0.36736 11.192 1.5738 0 12040
0.47061 4.0182 -1.915 0 12237
0.55524 12.616 -0.58891 0 12070
0.85244 -0.72088 0.13055 1 2020
1.0821 -12.245 -0.2854 0 3322
1.1611 2.3638 0.18416 0 13020
1.4659 2.5752 -1.4884 0 13128
1.5058 11.152 1.8488 0 12275
1.6938 -13.407 0 0 3297
1.7392 -1.0965 0.24043 0 1290
1.7788 -10.995 1.0391 0 3276
1.8278 3.5641 -1.5641 0 13054
1.846 -0.22568 0.26137 1 18691
1.8831 -1.2649 -0.26529 2 1443
1.9118 12.508 -1.7784 0 12311
1.9949 -1.638 0.12037 0 1960
2.1338 10.169 -0.96942 0 12447
2.4197 4.0319 -1.7115 0 13177
2.5813 0.54678 0.24616 1 17264
3.0217 8.3746 -1.8924 0 12819
3.1888 -10.983 1.879 0 3220
3.1918 -9.8116 1.6951 0 3214
3.3199 0.45595 -1.6832 0 17699
3.5837 -11.591 1.7051 0 3218
3.6 12.153 -1.7814 0 12696
3.6175 -9.6703 0.72198 0 3203
3.8121 9.599 1.9459 0 12862
3.944 11.679 2.0252 0 12794
4.1884 12.041 -1.1894 0 12801
4.4729 -13.89 2.3974 0 3216
4.6975 9.2873 -1.4627 0 13036
4.7139 -12.172 2.1445 0 3201
4.731 -7.1018 -1.8138 1 2965
5.0896 2.1353 -1.865 1 15896
5.0969 -11.806 2.1128 0 3186
5.325 -9.5435 1.5359 0 3071
5.3574 8.98 0.48764 1 13171
5.3651 13.387 -1.6865 0 12863
5.4728 -12.385 2.2246 0 3176
5.6491 5.0367 -1.7933 2 14241
5.6958 9.4906 -1.2944 0 13174
5.9293 -8.3156 0.71417 0 2873
6.2498 10.013 1.9393 0 13223
6.3585 -8.8652 1.7924 0 2867
6.513 10.102 1.1214 0 13263
6.6782 -8.3536 1.5031 0 2672
6.7903 12.429 1.3213 0 13094
6.8484 -9.4363 0.81531 0 2846
7.0184 -5.0154 -1.6253 0 1634
7.2159 -12.168 2.3242 0 3057
7.2558 10.248 0.58555 1 13350
7.7483 -7.1074 0.98094 1 2128
7.7889 8.8721 -1.6592 2 13724
7.9997 6.3405 -0.95233 1 14457
8.176 -5.2852 -1.5995 0 1342
8.2376 9.4363 2.058 0 13721
8.2981 2.8492 -1.653 2 16378
8.4166 -7.9508 1.6272 0 2161
8.5092 9.5203 0.89288 1 13763
8.9242 6.074 0.25063 0 14737
9.0626 -6.9665 -1.878 2 1805
9.2093 4.2514 -0.70928 0 15639
9.2339 4.2941 1.6731 0 15630
9.2692 10.013 -1.5957 2 13840
9.2927 7.4983 -1.6781 0 14426
9.3907 -11.676 1.0477 1 2654
9.454 7.86 1.147 0 14381
9.5263 6.6531 -1.084 0 14692
9.6343 -10.715 -1.3443 2 2409
9.7772 -11.319 -1.3954 1 2493
9.848 1.9392 -0.46807 0 17351
9.8643 2.3318 1.6653 1 17118
10.051 -5.7795 2.1844 2 1053
10.087 -3.2309 0.98818 0 115
10.095 -6.7373 0.84866 2 1434
10.096 -7.3489 1.1651 0 1677
10.124 -3.3736 1.7532 0 134
10.175 -3.9222 1.5326 0 240
10.191 1.5812 1.4493 0 17609
10.31 7.3733 1.7814 0 14667
10.495 -8.0678 1.5481 0 1816
10.652 -0.40363 0.9945 0 18451
10.81 -0.40961 -1.5203 0 18447
10.866 -3.621 0.53413 1 132
10.938 -4.1813 -1.3694 1 228
10.99 0.51251 0 0 18130
11.003 0.51313 0.77025 0 18131
11.023 6.694 -1.5081 2 14984
11.079 8.8889 -1.3252 0 14437
11.08 6.0363 -1.7733 2 15225
11.144 -0.97104 -1.8378 2 18582
11.202 2.3729 -1.8812 2 17251
11.31 -7.4544 0.63167 1 1400
11.317 -0.55944 -0.26307 0 18485
11.465 6.5952 0.30708 1 15115
11.47 -0.29836 1.0705 0 18411
11.653 -2.6839 1.1156 0 18916
11.848 -1.5935 0.83596 1 18726
11.887 3.2474 1.1496 0 16858
12.089 0.87927 -1.7035 2 18009
12.103 -0.13942 1.1292 0 18353
12.218 -6.7005 1.6296 0 929
12.294 -6.3289 0.64481 1 775
12.408 0.72198 1.4535 0 18083
12.648 -0.95544 2.0839 0 18558
12.878 2.2268 1.2193 0 17501
12.962 -6.9618 2.7721 0 886
13.136 -5.0216 2.3105 0 233
13.315 4.2698 -1.6352 2 16522
13.937 1.0553 -1.6345 2 17997
13.945 -2.1215 -1.6496 1 18770
14.094 2.9008 1.3425 0 17297
14.423 1.2187 2.378 0 17968
14.45 -1.0916 -1.6946 2 18554
14.6 0.081542 2.3987 0 18284
14.721 0.17215 0 0 18259
