VERSION .7
FIELDS x y z intensity index
SIZE 8 8 8 8 8
TYPE F F F F F
COUNT 1 1 1 1 1
WIDTH 937
HEIGHT 1
VIEWPOINT 0 0 0 1 0 0 0
POINTS 937
DATA ascii
-4.8461 0.98243 -0.1148 1 3002
-4.841 0.40736 -0.33971 1 2499
-4.4629 1.6917 0.22258 0 3895
-4.1584 1.1485 0.81282 0 3360
-4.0789 1.064 -0.19658 1 3276
-4.0421 0.49487 0.47622 0 2666
-3.9155 -2.8667 -0.2263 0 1397
-3.8055 0.85203 0.6407 0 3106
-3.791 2.93 -0.56031 1 6489
-3.7174 -2.6252 0.31823 0 1429
-3.6679 0.21213 0 0 2394
-3.6245 2.5426 -1.3815 0 6061
-3.4906 -2.4505 0.099017 1 1434
-3.4286 -3.4502 0.34013 0 1233
-3.2898 -0.20121 0.23048 0 1911
-3.211 -2.7795 0.098599 0 1298
-3.1725 -2.1853 0.63292 0 1457
-3.1638 -2.7223 -0.29186 2 1301
-3.0545 2.7043 -0.19025 0 7156
-3.0353 3.8628 0.2291 0 9003
-3.021 3.3741 0.31669 0 8348
-2.9931 3.2859 -0.1032 0 8249
-2.9779 1.158 0.52495 1 3961
-2.967 1.1939 0.22364 0 4039
-2.7679 -3.7625 0.21782 0 1141
-2.6111 -1.8543 0.45009 0 1426
-2.4671 2.6764 0 2 8193
-2.4453 3.1857 0 0 9114
-2.4136 3.5316 -1.2266 1 9666
-2.4112 3.2764 -0.57172 0 9304
-2.3434 -3.7957 0.10357 0 1125
-2.3046 -3.5461 0.49457 0 1130
-2.288 -4.4215 -0.46446 0 1108
-2.1868 -4.2259 0.78175 1 1109
-2.164 4.3651 -0.34069 0 11043
-1.9355 3.512 0 2 10617
-1.8497 -3.498 0.6501 1 1110
-1.8306 4.2342 0.21512 0 11570
-1.82 4.1109 0.73862 2 11490
-1.8105 2.9326 -0.40304 0 10121
-1.6187 -2.8963 0.23201 0 1118
-1.5995 3.5842 -0.091126 0 11444
-1.5393 3.1956 0.082352 0 11161
-1.3288 -3.3089 0.41698 0 1065
-1.2409 4.0014 -0.19537 0 12618
-1.2342 4.0622 0.39609 0 12688
-1.1524 -4.1779 0.71203 0 952
-1.038 3.4909 -0.68617 2 12746
-0.83315 -4.002 0.57451 0 902
-0.81574 2.8962 -0.28072 0 12849
-0.78877 4.3533 -0.83355 0 13678
-0.7364 -4.6865 0 0 873
-0.56911 3.6933 0.26131 0 13891
-0.5558 -3.7458 0.5322 0 850
-0.54832 3.2978 0.077617 0 13791
-0.48669 -4.8165 0.45164 0 818
-0.39838 -4.7641 -0.11099 0 791
-0.379 -3.4495 0.16183 0 824
0.19455 -4.4029 0.20553 0 671
0.25971 -3.8592 0.72876 0 653
0.397 3.8748 0.36339 0 15649
0.48244 -4.47 0 0 615
0.52788 -4.2022 0.69582 0 603
0.54385 3.7881 0.088851 0 15818
0.65657 4.0673 0.28809 0 15876
0.71567 4.5135 -1.3104 0 15864
0.73957 4.6642 0.33023 0 15863
0.7418 -3.3488 0 0 533
0.75489 -4.5208 0.86355 0 575
0.78322 3.792 0.63616 0 15993
0.92388 -4.5451 0 0 547
0.94409 4.8524 0.69475 0 15957
1.052 -4.687 0.7892 1 531
1.0931 -4.7424 0.22695 0 525
1.3293 -4.4962 0.32786 0 442
1.4978 3.3959 -1.1581 0 16359
1.6504 4.5419 -0.67916 0 16265
1.7146 2.7164 -0.68278 0 16556
1.734 4.4111 0.55427 1 16307
1.7515 -4.4602 0.78726 1 381
1.7758 4.057 0.7276 0 16354
1.874 3.5801 0.76135 2 16450
2.0172 -3.2841 0.72617 0 243
2.2029 -2.8656 -0.50798 0 184
2.4149 -2.8923 0.17571 0 165
2.526 -3.8062 0.42619 0 216
2.5605 1.7591 -0.28982 2 17537
2.5904 2.9549 -1.0287 0 16833
2.5904 4.1295 -0.11318 1 16551
2.6058 -3.0114 -0.27847 0 155
2.6995 -2.3064 -0.33125 0 115
2.7566 2.9665 -0.18885 0 16856
2.8105 4.0771 0.34627 0 16689
2.8721 -2.1455 0.083234 1 22944
2.9546 2.5494 -0.27289 0 17060
3.0233 -0.40823 0.28462 0 21614
3.0928 -3.1649 -0.30944 0 139
3.0977 -3.2427 0.41839 0 144
3.1674 -3.7256 0.34195 0 161
3.1808 3.6941 -0.4548 2 16822
3.1938 2.248 -0.5489 0 17469
3.2464 0.17582 -0.075482 1 20936
3.2557 2.6809 0.6929 0 17127
3.3234 1.5987 0.34407 0 18464
3.4215 1.8841 0 1 18130
3.4836 0.44317 -0.9193 0 20525
3.5734 -2.5273 0.10162 0 22875
3.6505 1.32 -0.18102 1 19127
3.6642 2.0596 -0.49155 2 18082
3.6684 0.75034 -0.88719 0 20068
3.7014 -2.9995 0.89762 0 74
3.742 2.2476 -1.0343 1 17922
3.7578 -3.0452 -0.22556 0 73
3.805 -2.9461 0.33651 0 22988
3.8308 1.0544 -0.84454 0 19604
3.8385 2.1277 -0.1019 0 18114
3.8417 -1.8704 0.80504 2 22443
3.8693 -2.3655 0.21149 0 22701
3.8838 0.99576 0.75542 0 19723
3.9183 0.47486 -1.1318 0 20557
3.9294 0.16675 -0.091311 0 20990
4.03 -2.5114 0.89465 0 22724
4.1081 -0.25342 -0.48133 1 21415
4.121 -0.0633 -0.1922 1 21252
4.127 -2.5231 -0.79471 0 22694
4.2249 -1.1447 0.20413 0 21822
4.261 0.54207 0.20031 0 20523
4.6356 1.1756 0.33441 0 19739
4.6402 0.30495 0.87614 0 20884
4.6477 -0.40989 0.43529 0 21497
4.6764 -1.1816 0.79245 0 21800
4.6919 0.036852 0 0 21154
4.7083 0.13152 -1.3506 1 21059
4.7131 0.96404 0.6761 0 20069
4.7221 -1.397 0.57588 0 21852
4.7671 1.1788 -0.229 0 19774
1.6548 2.2568 -0.45977 0 16728
-14.899 -1.4766 1.7509 0 1778
-14.229 3.93 -1.3772 2 3348
-13.713 -1.7202 0.96641 1 1698
-13.144 -1.9996 0.92971 1 1622
-13.016 2.95 -1.2451 1 3112
-12.499 0.9047 1.1691 1 2455
-12.409 0.39431 2.0398 0 2287
-12.029 1.8579 2.2933 0 2802
-12.025 2.5077 2.0181 0 3038
-11.812 2.0021 1.401 0 2859
-11.658 2.3974 1.9555 2 3025
-11.6 2.9158 1.3987 0 3236
-11.585 -0.84466 1.6325 0 1869
-11.578 0.83805 1.9072 0 2458
-11.531 1.1733 2.1837 0 2578
-11.439 0.62952 1.0688 0 2383
-11.432 1.9049 0.81043 0 2843
-11.426 3.5873 -1.1173 0 3544
-11.422 2.6602 1.3715 0 3148
-11.412 0.62806 1.6063 0 2385
-11.363 -8.1205 2.2947 0 1422
-11.331 -0.56209 1.5944 0 1956
-11.113 -1.07 1.569 1 1788
-10.973 -0.16089 1.5423 0 2094
-10.934 1.0797 2.07 0 2565
-10.734 -8.9145 1.6317 0 1317
-10.646 0.67909 1.2475 0 2420
-10.531 1.5044 0.99246 2 2749
-10.418 -9.6673 1.3259 0 1261
-10.351 1.2361 1.9641 2 2656
-10.273 -0.32822 1.2019 2 2021
-10.268 10.038 -1.3397 1 7645
-10.266 0.92168 1.2054 2 2526
-10.153 -0.41133 0.71054 2 1986
-10.038 0.25935 0.70217 0 2260
-9.9421 -1.0151 1.4045 2 1770
-9.9081 -6.9094 1.6976 0 1442
-9.9014 3.4597 0.97852 0 3731
-9.8904 -0.77839 1.63 1 1849
-9.7724 6.8122 2.2444 0 6045
-9.7653 1.9478 0.69631 0 2990
-9.7535 -0.1975 1.1408 0 2066
-9.6147 4.6707 1.25 0 4601
-9.604 2.8631 1.8882 2 3473
-9.5677 -0.19373 1.5722 1 2068
-9.4166 -1.2916 1.7908 1 1667
-9.3092 0.2958 0.43434 1 2283
-9.2097 -7.1207 1.0861 0 1363
-9.1583 3.7785 1.6277 2 4116
-9.0502 -0.60587 1.709 1 1894
-8.9633 0.12985 1.689 0 2219
-8.7899 5.3612 1.204 0 5457
-8.7616 1.7476 1.4678 2 2994
-8.6597 6.2617 0.49835 1 6197
-8.5896 6.6796 1.5292 0 6540
-8.5589 1.1222 1.6264 2 2707
-8.5193 1.6483 1.6349 1 2964
-8.4989 1.7477 1.2194 1 3024
-8.4921 5.8824 -1.4519 0 5994
-8.4449 4.0407 0.43658 0 4544
-8.4232 -8.4763 1.9633 0 1234
-8.3085 1.4083 1.3845 1 2861
-8.1189 -5.4187 1.6037 0 1495
-8.0787 6.2439 1.9237 0 6514
-8.0472 6.447 0.96199 1 6687
-8.0293 -0.30284 1.1293 2 2000
-8.0234 -7.2726 1.0103 0 1272
-7.9769 0.2061 1.5034 0 2264
-7.8585 -5.5169 1.3494 0 1437
-7.7965 -1.5338 1.1167 0 1546
-7.737 5.036 1.7393 2 5736
-7.734 7.0522 0.97648 2 7306
-7.68 -8.5836 -0.80541 0 1184
-7.6527 3.7722 1.6075 2 4658
-7.6231 12.508 -1.0243 0 10181
-7.6008 -0.22293 1.2493 0 2034
-7.5471 -0.92399 0.53168 0 1708
-7.445 -5.9667 1.1157 0 1339
-7.4391 9.0244 0.5454 1 8770
-7.4256 -6.8907 1.6643 0 1262
-7.4141 9.1035 1.65 0 8838
-7.3959 5.3184 -0.2115 0 6162
-7.3927 6.4355 0.91443 1 7081
-7.3427 1.554 1.2331 0 3052
-7.3381 6.8861 1.4143 0 7453
-7.3 8.202 1.5432 1 8383
-7.1693 -0.92222 0.50546 0 1689
-7.1011 -1.3328 1.187 2 1553
-7.098 9.1409 1.3534 0 9065
-7.0483 -4.7954 0.79534 0 1469
-7.0065 -7.1324 1.8837 0 1226
-7.0039 -5.4485 0.20602 0 1353
-6.9663 -6.3522 1.5489 0 1269
-6.9653 5.7153 0.63004 0 6795
-6.9569 -8.7994 1.0465 0 1148
-6.9544 7.4629 0.47571 1 8137
-6.9453 2.9839 0.70524 2 4219
-6.8647 6.4418 1.1009 0 7451
-6.8635 -1.0037 0.32348 0 1639
-6.7553 7.9123 1.4622 0 8594
-6.7376 5.3039 -0.79999 0 6581
-6.7247 -7.6491 1.9189 0 1181
-6.6072 -4.4953 1.1231 0 1471
-6.599 -7.2497 -0.22761 0 1189
-6.5931 7.7222 1.6682 2 8596
-6.5529 6.2972 1.4931 0 7576
-6.5462 -9.0632 1.8368 0 1139
-6.5457 -7.4456 -0.69324 0 1178
-6.5452 3.4174 -0.86346 0 4831
-6.5349 12.358 -1.3042 1 10786
-6.5128 -12.673 -0.3308 0 1107
-6.5096 1.6146 -0.62572 0 3216
-6.5045 13.413 -1.3908 0 11125
-6.5022 -7.0588 1.8082 0 1193
-6.4091 0.67023 0.75359 0 2588
-6.3604 -6.9047 1.3194 0 1192
-6.3164 6.9343 -1.3182 0 8239
-6.2767 0.32565 -0.2931 0 2367
-6.2641 -5.7119 -0.59279 0 1268
-6.22 13.117 -1.3544 1 11206
-6.191 -7.2105 -0.44319 0 1172
-6.1521 0.7881 0.144 0 2689
-6.1042 10.922 2.0557 0 10569
-6.0975 -4.9447 0.91806 0 1334
-6.0922 -5.3634 0.94918 0 1286
-6.0839 9.5424 2.1322 1 9995
-6.0517 6.0559 1.613 2 7791
-6.0503 -6.159 0.20045 1 1222
-5.9777 -6.7995 0.2102 0 1180
-5.9771 12.894 -1.3259 0 11294
-5.9734 -4.1655 0.85162 1 1441
-5.9222 0.7944 0.69876 0 2717
-5.8988 0.37629 0.9711 0 2422
-5.8843 -4.7718 0.17589 0 1330
-5.8647 -9.8851 1.8884 0 1121
-5.8499 -6.3107 0.60172 0 1195
-5.8029 9.1018 0.50338 1 9985
-5.7895 9.0807 1.0047 0 9988
-5.7601 9.8335 1.3327 0 10369
-5.7499 -5.5604 1.3141 0 1253
-5.6799 3.911 -0.16011 0 5975
-5.6524 6.0977 1.366 0 8176
-5.623 2.3579 0.28435 0 4151
-5.6145 -4.6069 1.1932 0 1322
-5.5649 -6.833 -0.41096 0 1153
-5.5596 -4.1955 0.48704 0 1382
-5.5255 -6.5897 -0.19966 0 1165
-5.4815 5.0264 1.4012 0 7339
-5.4709 -0.6069 0.64371 0 1741
-5.4619 -0.1602 0.50979 1 2031
-5.4402 -0.57083 0.25509 0 1761
-5.4024 6.5536 0.59391 0 8772
-5.3944 -11.119 -0.28693 0 1103
-5.3469 -8.7186 0.95419 1 1124
-5.3226 3.9443 0.30894 0 6310
-5.3154 9.1364 0.98614 1 10397
-5.3071 -4.9247 0.16809 0 1259
-5.2874 -3.826 1.0723 2 1411
-5.2118 -4.1769 0.62312 0 1338
-5.2049 -3.52 1.1839 0 1480
-5.1632 -9.4976 1.2642 0 1116
-5.1605 8.8701 1.2001 0 10399
-5.1277 1.0852 -0.48898 1 3043
-5.1212 8.8559 1.9274 1 10428
-5.1203 5.5546 0.88344 0 8201
-5.0963 -0.71352 0 0 1653
-5.0963 -0.46111 -0.59841 0 1798
-5.0608 10.276 1.8819 2 11090
-5.0607 1.0711 0.60491 0 3051
-5.0594 9.5676 1.0097 0 10802
-5.0477 8.1221 1.1183 2 10110
-5.0473 -4.1652 -0.4576 0 1319
-5.0431 4.7891 1.1426 0 7516
-5.0402 6.9321 0.79961 1 9382
-5.0092 5.189 -0.50434 0 7953
-4.9552 -11.277 1.4405 0 1090
-4.9386 -11.506 1.7597 0 1086
-4.8781 10.357 1.0681 2 11252
-4.7756 9.4869 2.0011 0 11008
-4.7632 2.0959 -1.233 0 4289
-4.7516 8.0571 0.43621 2 10335
-4.7342 -7.1499 1.6156 0 1131
-4.6126 -7.3275 0.80779 0 1126
-4.5982 8.818 0.9278 1 10860
-4.5929 9.1958 1.4446 2 11031
-4.5918 9.398 1.7185 1 11117
-4.5892 -6.5129 -0.37155 1 1136
-4.5786 10.178 0.78044 0 11422
-4.5746 -11.685 1.7636 0 1059
-4.572 -4.2934 1.0304 1 1255
-4.5527 3.457 0.13272 0 6414
-4.521 -5.4513 0.16443 0 1159
-4.4832 10.286 2.1141 0 11553
-4.4268 -3.3009 -0.25751 0 1387
-4.3902 -4.3933 0.4343 0 1237
-4.3831 -5.3819 1.1404 0 1154
-4.3709 -8.1516 0.21475 0 1111
-4.3349 -4.5172 -0.43779 1 1210
-4.3323 6.925 -0.76209 0 10061
-4.2943 -4.6619 0.14716 0 1191
-4.2714 -10.911 1.925 0 1060
-4.2458 7.5443 1.2167 2 10539
-4.1959 -7.773 1.2414 0 1114
-4.1959 6.4984 0.90458 0 9930
-4.1455 -6.4623 -0.35804 0 1128
-4.1111 -3.1786 0.12065 0 1361
-4.0622 5.4857 0 0 9286
-4.0614 -3.1777 0.84724 0 1350
-4.0127 -8.7161 0.22278 0 1098
-4.0067 4.3466 -0.27568 0 8189
-3.9756 4.0485 0.39677 0 7871
-3.9685 6.729 -0.72883 0 10323
-3.9511 10.915 1.6314 1 12178
-3.9119 -4.862 -0.14488 0 1150
-3.8597 -3.7521 0.37641 0 1250
-3.8587 -5.6503 0.15885 0 1133
-3.8415 -5.3856 0.61717 0 1138
-3.7654 9.7787 1.2254 2 11976
-3.7141 6.2977 1.3775 1 10345
-3.7121 14.1 -0.33851 0 13000
-3.6675 11.234 1.382 0 12489
-3.6623 3.5801 -0.35813 2 7647
-3.6268 -9.5077 1.4301 0 1055
-3.5799 13.445 1.9554 0 12987
-3.5679 -4.5129 0.94516 0 1149
-3.5447 -5.0009 0.86148 0 1137
-3.5284 -3.9201 0.74124 0 1186
-3.4446 3.9625 0.7379 0 8504
-3.444 -7.9661 1.2197 0 1087
-3.4375 -4.0505 1.0009 0 1169
-3.4362 -5.9468 0.64077 0 1120
-3.382 5.622 0.30596 0 10249
-3.3729 6.2932 0.16577 0 10734
-3.3626 11.18 1.3652 0 12716
-3.3609 13.55 1.6326 0 13126
-3.3574 -7.5871 1.3631 0 1094
-3.3523 -6.2103 -0.65842 0 1113
-3.3191 -12.457 2.1179 0 944
-3.295 10.845 1.3255 0 12690
-3.2603 5.0493 -0.13954 0 9918
-3.2343 -8.6968 1.0851 0 1044
-3.1897 6.2954 -0.65842 0 10958
-3.1562 -8.4867 1.4876 0 1045
-3.1233 -4.8372 0.40263 0 1129
-3.029 -4.9702 0.13513 0 1122
-3.0061 -8.5362 0 0 1029
-2.9843 5.6843 0.59897 0 10832
-2.9165 4.1374 0 0 9523
-2.8916 -12.769 0 0 910
-2.8588 -5.3316 0.56441 2 1112
-2.8538 8.032 0.99681 2 12232
-2.8431 -5.1588 -0.54955 0 1117
-2.8333 4.8371 -0.65555 1 10350
-2.8158 -6.8383 1.0393 0 1077
-2.7965 5.8975 0.30438 0 11218
-2.7744 -7.949 1.1832 0 1026
-2.7451 -7.1962 0 0 1052
-2.7294 -5.9754 0.76822 0 1097
-2.7203 6.7161 0.33792 0 11799
-2.7188 -9.7573 0.47236 1 953
-2.6933 -10.867 1.3093 0 931
-2.6706 -4.382 0.96686 0 1123
-2.6063 13.297 1.5845 0 13554
-2.5082 -5.7085 0.29077 0 1089
-2.5015 10.356 0.99394 0 13171
-2.435 -6.1126 1.081 0 1062
-2.4178 -5.5925 1.1479 0 1088
-2.4075 -13.516 2.5866 0 891
-2.3755 -6.4495 1.295 0 1042
-2.3619 -10.86 1.0369 0 904
-2.3451 4.4973 0.8333 0 10866
-2.3013 -5.3616 0.54435 2 1085
-2.2932 5.6109 -0.28267 0 11763
-2.2319 14.758 2.8121 0 13923
-2.1995 -8.2549 0.79701 1 943
-2.1898 -8.3173 1.413 0 942
-2.1753 -5.7026 0.28462 1 1053
-2.1433 -7.9543 0 0 945
-2.1367 -10.578 0.75463 0 901
-2.077 5.2113 0 0 11852
-2.0728 4.6079 0.11731 0 11418
-1.9965 -6.1813 0.75963 0 996
-1.954 4.6303 0.58772 0 11664
-1.947 -4.7284 0.35757 0 1076
-1.9417 7.4703 -0.7201 0 13021
-1.9127 -7.9181 0.18912 0 927
-1.898 -5.8764 -0.28798 0 993
-1.897 -6.6508 0.97198 0 963
-1.8942 7.0252 -0.33931 1 12951
-1.8815 6.7523 0.65396 0 12890
-1.8307 -7.6665 0 0 922
-1.8301 -7.384 0.53196 0 930
-1.8148 -6.4391 0 0 957
-1.7936 7.4254 1.0736 0 13174
-1.7759 14.257 1.3404 0 14128
-1.6732 -6.0662 0.58708 0 951
-1.6507 -10.306 0.24232 0 877
-1.6502 5.3212 0.78299 0 12634
-1.6422 6.2377 -0.45105 1 12996
-1.6 6.5388 1.106 0 13152
-1.5384 -11.515 -0.26971 0 840
-1.5362 5.6385 0 0 12933
-1.5127 13.746 2.6055 0 14246
-1.46 6.5371 -0.15551 0 13305
-1.3838 -5.1357 0.49623 0 946
-1.2438 6.3455 -0.45216 0 13544
-1.2121 4.9534 -0.3566 0 13137
-1.2104 4.8801 0 0 13118
-1.2051 10.676 1.7652 0 14222
-1.1732 -9.3919 0.66185 0 834
-1.1697 4.9674 0.59678 0 13219
-1.094 -8.3777 0.394 0 838
-1.0025 5.8281 0.69156 1 13747
-0.85242 -10.526 0.98521 0 789
-0.8306 -9.2884 -0.21651 0 794
-0.8172 5.1076 0.12009 0 13839
-0.76644 5.4953 0.38799 0 14004
-0.74831 5.1484 -0.9802 1 13965
-0.74329 -8.312 1.5723 0 796
-0.71141 7.2295 0.67774 0 14326
-0.70839 7.0227 0.32916 0 14301
-0.6882 -11.382 1.8735 0 771
-0.67325 -8.6315 -0.20101 0 786
-0.59093 -9.3148 0.2167 0 774
-0.57006 5.6513 0 0 14298
-0.51323 8.9827 1.4782 1 14613
-0.49775 -6.1462 -0.14316 0 788
-0.47117 11.012 0.514 1 14708
-0.34327 -5.6775 -0.26525 2 769
-0.29629 -7.4092 1.0421 0 755
-0.26901 -7.199 0 0 751
-0.26274 -9.1767 1.7297 0 743
-0.26188 -10.275 1.6886 0 739
-0.19446 7.6822 0.71694 0 14828
-0.12934 -9.1487 1.07 0 725
-0.1065 -6.3559 1.0444 0 730
-0.07489 -9.1293 1.4999 0 717
-0.035153 6.945 0.48564 0 14974
0.04931 -5.4329 0.89264 0 703
0.23956 -8.9688 0 0 689
0.25951 -14.434 0.67322 1 696
0.26103 -5.5558 0.25938 0 668
0.2818 10.551 1.4833 0 15200
0.30494 -6.9014 -0.16039 0 670
0.30613 8.5942 -0.19966 0 15240
0.31195 -9.6061 1.5791 0 684
0.3212 -7.8269 0.36531 0 674
0.33017 6.609 0.61736 0 15342
0.33614 -9.4834 1.1097 0 681
0.36658 -8.9326 1.4688 0 675
0.49058 -12.829 2.1092 0 677
0.52407 -5.9662 0.70039 0 642
0.5269 -10.584 0.24603 0 663
0.58725 10.504 -0.73565 0 15373
0.59665 -6.5943 0.61773 0 637
0.66591 10.826 0 0 15416
0.68365 -4.9714 0.46818 0 595
0.69992 -7.7357 1.4634 1 638
0.79456 14.212 0 0 15376
0.81369 8.6726 -0.60911 0 15605
0.86381 6.2653 -0.59005 0 15792
0.8861 -5.3065 0 0 573
0.92451 -5.8437 0.13736 0 580
1.0003 -12.193 2.01 0 648
1.0036 -7.4426 0.17436 0 597
1.0329 -7.3492 0.86788 0 591
1.0999 5.1001 0.48675 0 16011
1.1317 -11.046 1.0359 0 623
1.1456 8.1308 0.38292 0 15806
1.1704 6.1122 -0.29021 0 15948
1.1838 5.8183 -1.1187 0 15987
1.2868 -9.3577 0.44049 0 593
1.3075 -12.398 1.4579 0 619
1.3108 8.5862 -0.20166 0 15846
1.3279 6.825 -0.4862 0 15953
1.334 8.111 -0.57479 1 15880
1.337 6.5715 1.1018 0 15986
1.3609 -9.8965 0.69854 0 594
1.3621 -5.753 0 0 516
1.3816 5.7548 0.55215 0 16062
1.3899 -9.2999 0.87727 0 586
1.5144 5.9981 -0.14363 0 16086
1.5156 -6.4013 1.2394 0 519
1.5273 -7.6227 0.7253 1 551
1.543 -8.0811 0.38366 0 557
1.564 7.5721 1.4568 0 15995
1.5811 7.9998 -0.76079 0 15961
1.6414 10.542 -0.24771 0 15854
1.6435 -7.8467 1.5105 0 544
1.697 -5.7399 0.27913 0 441
1.7041 6.8348 -0.82374 0 16076
1.736 8.9228 1.7127 0 15959
1.7549 6.6278 0.63965 0 16106
1.8067 4.7116 -0.47078 0 16290
1.8152 11.448 1.3555 0 15866
1.8359 -6.711 0.97783 0 481
1.8615 5.2595 -0.91663 0 16250
1.889 6.1213 0.59767 0 16179
1.8968 10.058 -0.23763 0 15940
1.9428 -11.414 1.0801 0 571
1.9775 5.9135 -1.4774 1 16216
1.9872 8.7186 0.6253 0 16033
2.033 5.2604 0.6595 0 16299
2.0533 6.9408 -0.33754 0 16161
2.055 12.267 1.1604 0 15893
2.0584 -5.4244 0.4057 0 390
2.0866 6.1222 0 2 16228
2.1257 7.423 -0.90296 1 16144
2.1433 13.517 0 0 15861
2.1969 -10.059 1.6916 0 538
2.2661 -7.5105 1.1025 0 436
2.3276 -12.571 0.29682 1 561
2.3429 6.273 1.1001 0 16281
2.4805 -6.4216 0 0 385
2.4871 9.6169 -0.23062 0 16094
2.4915 11.711 1.9672 0 16005
2.4983 -7.2105 1.0725 0 403
2.5178 -5.8519 1.0467 0 352
2.5564 -7.304 0.72196 0 401
2.5607 7.047 -0.34966 0 16267
2.5756 6.6027 -1.3353 0 16303
2.5775 -5.301 0.54992 1 328
2.608 10.46 0.50273 1 16079
2.6657 7.2025 0 0 16274
2.6698 -13.325 1.5892 0 552
2.6906 7.7482 -1.3475 0 16237
2.7289 6.7105 0.33782 0 16318
2.7558 6.2957 0.96586 0 16353
2.7735 5.0159 -0.80553 1 16482
2.7973 -5.7126 1.045 0 326
2.8369 9.4799 0.46146 0 16165
2.8476 -6.6761 0 0 354
2.8818 -7.8664 1.1774 0 400
2.9048 -7.79 0 0 394
2.9252 -7.9205 0.59042 0 397
2.94 9.4336 0.92186 1 16186
2.9481 -5.9312 1.2479 0 324
2.9501 10.652 -0.25662 0 16126
2.9798 -9.9702 0 0 438
2.9824 4.192 -0.11944 0 16715
2.9833 5.6226 -0.29683 0 16457
2.9992 -4.1479 0.11884 0 200
3.0524 -9.235 1.367 0 410
3.0575 5.3107 0 0 16508
3.0763 6.8165 1.051 0 16371
3.0863 -4.9257 0.5423 0 234
3.1156 -5.8374 -0.30857 0 286
3.1682 -9.3173 0.91814 0 407
3.1776 8.2867 1.4581 0 16296
3.1916 -8.2626 0.82637 0 386
3.2017 7.6841 1.3676 0 16326
3.2128 -9.3572 1.6254 0 405
3.3488 -10.032 1.4864 0 409
3.3623 -7.2369 0.18527 0 333
3.3817 -5.3617 1.0415 0 232
3.3845 -3.981 -1.1107 0 162
3.4266 6.372 1.0168 0 16468
3.4423 -4.3229 0.2577 0 175
3.4425 -6.1471 0.6573 0 263
3.4939 7.9217 0 0 16358
3.5028 5.3042 0.59302 0 16605
3.5512 -4.3791 -1.1984 0 171
3.5657 3.7496 0.2413 0 16872
3.6298 8.3598 1.4973 0 16349
3.656 4.3725 0.93641 0 16806
3.6641 8.7164 1.5534 0 16333
3.6706 10.19 1.0105 0 16263
3.6813 7.3418 0.38301 0 16429
3.6933 7.1618 0 0 16444
3.7233 5.4663 0.46249 0 16670
3.7281 4.933 0.28835 0 16746
3.7468 -10.145 1.7768 0 399
3.7591 3.953 -1.2925 0 16874
3.7967 9.8241 -1.2317 0 16297
3.9027 6.3835 0 0 16539
3.9179 -5.2219 0.15157 0 193
3.9232 -7.1039 1.529 0 271
3.9278 3.7443 0.12599 0 16953
3.9614 12.45 1.2189 0 16197
3.9695 7.865 1.0303 0 16436
3.9913 -6.3283 0.34891 0 229
4.0507 -3.7118 0.51258 0 130
4.0867 7.443 -0.79218 0 16478
4.1065 -9.0443 0.92669 0 339
4.1106 5.3435 1.1076 2 16760
4.1261 -4.9699 1.0612 0 167
4.184 -8.9319 0.229 0 331
4.2112 -4.335 -0.56385 0 140
4.2136 4.0876 0.54769 0 16932
4.2287 3.2226 0.87351 0 17296
4.2907 -4.9586 0.76683 1 157
4.3377 5.8814 0 0 16736
4.3384 3.6793 -1.3478 0 17078
4.3784 4.0987 0.27969 0 16967
4.3817 -5.2145 0.95723 0 164
4.3948 3.5767 1.0676 0 17155
4.4297 -7.3985 1.0084 0 247
4.4454 -8.1062 1.2993 0 274
4.4574 8.9559 -1.1699 0 16416
4.4984 4.0675 0.70922 0 17004
4.5106 -2.6857 -0.98908 0 22673
4.5345 7.979 1.0732 0 16500
4.5385 3.7599 -0.41212 0 17108
4.5463 -8.8918 0.93171 0 314
4.5495 -3.9772 0.70666 0 119
4.5672 -6.6304 -0.94152 0 207
4.5929 -2.1222 0.59167 0 22363
4.6333 3.2023 0.39385 0 17524
4.6532 12.695 2.2214 0 16272
4.6894 -4.1488 0.29198 0 123
4.6991 -5.7617 -1.0449 0 170
4.7042 -7.6049 0.41701 0 239
4.7579 4.9754 -1.4633 0 16877
4.7825 -9.0901 0.95827 0 298
4.7942 5.9777 1.0769 0 16784
4.8074 6.2493 -1.1081 0 16757
4.8108 -4.836 -0.47699 0 136
4.8128 5.7909 0.35115 0 16801
4.8357 -9.3251 0.73454 0 307
4.8396 6.1016 0.18081 0 16772
4.8447 6.4478 0.94314 0 16745
4.8677 6.0694 -0.72586 0 16782
4.8829 2.4526 0.50979 0 18355
4.9088 5.4061 0.85394 2 16849
4.9213 -3.4574 0.13964 0 22867
4.9882 4.7254 1.2946 0 16959
5.0005 5.5732 0.52359 0 16843
5.0027 3.2476 0.13848 0 17695
5.0056 7.6785 0 0 16580
5.0133 3.1938 -0.55456 0 17745
5.0427 3.6169 -0.72571 0 17421
5.0452 -7.6544 0.21284 0 217
5.0532 -5.8397 0.72047 1 156
5.0581 -2.8187 0.13444 0 22605
5.066 -0.020337 0.83233 0 21206
5.099 2.0456 -0.25621 0 18894
5.106 -1.3044 0 0 21803
5.1105 1.1386 0.86021 0 19953
5.1461 9.9067 -1.0415 0 16447
5.1463 -4.7157 0.16206 0 129
5.175 5.9364 1.4838 0 16828
5.1867 11.23 2.0323 0 16384
5.1909 6.0286 0.74221 0 16824
5.2039 5.6315 -0.89668 0 16853
5.2092 2.1258 -1.3331 1 18872
5.2135 -4.9163 1.1773 0 132
5.2169 -3.9814 1.2364 0 14
5.2275 -2.075 0.39329 0 22084
5.2665 -5.2353 0.3463 0 135
5.2687 6.6048 0.394 0 16779
5.2894 0.40978 -1.3888 0 20814
5.3244 3.0333 -0.8612 0 18046
5.3433 9.5922 0 0 16490
5.3478 8.9817 1.4691 0 16526
5.3546 0.36786 0.75432 0 20867
5.3598 -0.33064 0.88226 0 21420
5.3877 -4.3148 0.32189 0 60
5.3918 -2.4153 1.1131 0 22314
5.4005 -7.9854 0.89938 0 213
5.4021 -7.3352 -0.63702 0 194
5.4027 3.1621 0 0 17979
5.4168 -2.957 -0.86733 0 22578
5.4283 12.913 0 0 16329
5.435 0.10625 0 0 21099
5.4458 -7.3946 0.21321 0 195
5.4683 3.4382 1.0612 2 17793
5.5022 -3.0037 -0.43835 0 22581
5.5416 5.3421 0.53824 0 16940
5.5641 -5.7557 -0.93617 0 142
5.5734 -4.1634 1.1429 0 22947
5.6208 -2.8368 0.88486 0 22494
5.6212 4.2574 1.1585 0 17309
5.6341 6.063 1.1632 0 16857
5.6642 6.6932 1.0254 0 16816
5.6907 -8.1121 1.628 0 204
5.6987 -3.0033 -1.0583 0 22540
5.7423 2.3037 1.1657 0 18906
5.7523 -1.363 0.41338 0 21772
5.7548 2.4073 0 0 18808
5.7874 1.7749 1.1405 0 19423
5.794 -2.457 -1.3377 2 22204
5.8244 6.3428 1.007 0 16851
5.9091 -10.478 1.6907 0 261
5.9092 5.252 -0.18355 0 17021
5.9129 4.643 0 0 17219
5.9601 10.779 2.0236 0 16487
5.971 0.44477 0.27922 0 20831
6.0085 -4.9232 0.18035 0 83
6.0166 -6.8752 0.42605 0 153
6.0187 -3.1505 -0.47504 0 22534
6.0405 -0.28592 -0.42286 2 21371
6.0745 5.4275 0 0 17015
6.085 -6.2639 1.4348 0 141
6.0939 0.79362 0.28658 0 20507
6.1001 2.3857 -0.45802 0 18946
6.118 -3.5736 -0.66102 1 22650
6.1224 -2.4512 0.30754 0 22097
6.1293 -3.7472 0.16679 0 22699
6.1577 2.4704 0.30941 0 18899
6.1659 2.0284 -0.3027 0 19304
6.1902 9.868 0.27045 0 16552
6.1936 -0.095134 0.14381 1 21254
6.1959 -1.8919 0.91047 0 21864
6.203 1.9225 0.45411 0 19405
6.2415 -1.9464 0 0 21873
6.248 -6.6978 1.0711 0 146
6.3138 6.6394 0.85479 0 16873
6.3186 8.3094 1.2207 0 16750
6.3195 0.25161 0.59005 0 21004
6.3322 7.4377 -0.68306 0 16818
6.3466 4.4407 -0.17984 0 17488
6.3525 -4.3529 1.2652 2 22841
6.3562 -2.1675 0.4696 0 21919
6.3827 -8.4578 1.7409 0 192
6.4119 -12.9 -1.344 0 323
6.4407 -0.7566 0.30242 0 21572
6.4493 1.2431 0.45928 0 20142
6.5042 0.96393 0.76892 1 20405
6.5051 -2.4296 0 0 22003
6.55 3.4112 1.2133 1 18275
6.562 -1.8816 1.1215 0 21844
6.5931 1.8148 -0.63798 0 19590
6.64 4.175 -0.36577 1 17781
6.667 7.0947 1.1385 0 16864
6.6948 7.956 0 0 16809
6.6984 -6.7713 0.8886 0 138
6.7002 5.4841 -0.80779 0 17133
6.7095 4.2187 0.73942 0 17787
6.7543 1.0179 0.31854 0 20384
6.7588 -2.7061 0.85138 0 22100
6.7705 -4.3034 0.56098 0 22746
6.784 7.8317 -1.2117 0 16825
6.7852 0.13265 0.63315 1 21101
6.7879 -2.0081 0.49499 0 21851
6.8126 7.771 1.4524 0 16834
6.8273 2.7169 -0.1706 0 18913
6.8421 8.6264 1.8089 0 16775
6.8476 -2.4007 0.50741 0 21938
6.8557 -8.1155 -1.493 0 163
6.8559 -7.7874 -1.2133 0 152
6.9066 -1.2614 0.49095 0 21703
6.9417 -5.1516 0.80649 1 22938
6.9444 8.2526 0.75421 0 16811
6.9479 -7.4847 -1.1943 0 148
7.0403 -8.2315 0.75742 0 159
7.0995 1.1143 0.50253 0 20352
7.1197 7.1471 0.94118 0 16901
7.1257 9.7183 -0.27978 0 16732
7.1508 -4.0375 -1.3492 0 22615
7.1569 8.3589 1.0266 0 16821
7.1712 6.3378 -0.89288 0 17031
7.1858 -5.6486 1.2846 0 43
7.2051 9.6488 2.2689 0 16743
7.2526 -1.2371 1.2088 1 21685
7.282 9.1285 1.6411 0 16780
7.3002 7.4991 1.7195 0 16885
7.3138 -5.7183 0.43295 0 37
7.3468 -0.36832 -0.17079 0 21382
7.3474 -1.5416 1.2334 0 21743
7.3547 7.383 -0.24195 0 16899
7.3595 6.5755 0.92074 0 17016
7.363 10.945 2.1672 0 16644
7.379 -0.4371 0.34472 0 21409
7.4463 5.4399 1.7375 0 17392
7.5338 0.69491 0.35282 0 20727
7.6283 0.2344 0.17719 0 21043
7.6292 -3.0006 1.3469 0 22075
7.6531 -0.60634 1.2613 0 21473
7.6872 2.2596 -0.56028 0 19475
7.7323 2.4187 -0.1881 0 19384
7.7444 -3.257 1.1807 0 22186
7.8168 1.6715 0.93478 0 20011
7.9365 2.5359 0.77732 0 19359
7.9559 6.1003 1.409 2 17280
7.9644 -3.0286 0.39736 0 22028
8.0117 3.3235 -0.20138 0 18828
8.0326 0.92656 -0.18773 0 20586
8.0406 -0.63705 -0.18726 0 21469
8.0445 8.4122 1.6358 0 16876
8.1156 -1.8498 -0.19325 0 21762
8.2259 -4.0619 0.85591 0 22464
8.2361 7.7586 0.2627 0 16963
8.2923 2.6768 -0.20231 0 19338
8.3421 -10.982 2.5984 0 190
8.3544 -4.3731 0.43975 0 22538
8.3599 -1.3286 1.1897 0 21661
8.3671 -0.68937 1.3793 0 21482
8.3826 -0.96101 1.5897 0 21567
8.3874 1.1161 0.59167 0 20493
8.4049 3.0111 0 0 19147
8.426 3.5247 -0.21205 0 18806
8.4636 6.4499 0.24706 0 17289
8.5487 0.19101 0.79776 0 21087
8.5633 -2.4006 1.04 0 21834
8.5664 7.0115 0 0 17134
8.5696 -3.5164 1.7452 0 22144
8.5732 -7.4947 1.8709 0 120
8.612 -6.5322 1.7759 0 7
8.6571 6.7978 -0.25555 0 17218
8.6584 7.6522 1.3513 0 17034
8.6622 0.82492 1.4296 0 20713
8.7545 -0.87382 1.4455 0 21530
8.8413 -2.9548 1.7564 0 21911
8.8422 -6.2537 0.50506 1 22877
8.9299 -1.2344 0.84104 0 21621
8.9895 -1.1356 1.2734 0 21594
8.9914 5.4004 1.2266 0 17921
9.0518 2.2955 1.092 1 19742
9.091 3.3142 1.5898 0 19119
9.1714 8.3952 -0.86944 0 16991
9.1992 -2.0715 1.5492 0 21759
9.2352 3.429 0.91907 0 19074
9.3302 1.4061 1.5502 0 20388
9.3893 6.4506 0.53124 1 17543
9.5136 0.82063 1.1167 0 20763
9.8009 3.2243 1.6951 0 19315
9.8283 3.8437 -0.24501 0 18949
9.8308 -4.07 0.74402 0 22155
9.8858 8.5302 -1.2182 0 17059
9.918 -1.2248 0.23202 0 21585
10.099 -0.15513 1.6595 0 21257
10.218 1.5398 -0.23991 0 20380
10.237 -1.2642 1.9434 0 21587
10.337 0.95352 1.214 0 20730
10.393 0.62473 1.4633 0 20911
10.402 0.83697 1.7146 0 20799
10.436 -7.4661 2.1082 0 22895
10.453 4.0544 1.842 0 18979
10.467 6.3292 2.0096 0 17909
10.517 2.7649 1.7866 0 19684
10.594 -1.998 0.25031 0 21713
10.643 1.9226 1.7768 0 20217
10.726 -0.53772 -1.0019 1 21379
10.728 -0.84999 0 0 21470
10.732 -2.6779 2.0841 0 21795
10.956 -8.0362 0.63363 1 22921
11.02 7.1073 1.8429 0 17721
11.046 0.46877 0.51559 1 20992
11.278 6.4692 1.5204 0 18040
11.281 6.7758 0.61369 1 17916
11.303 -1.8611 0.53422 1 21675
11.311 -1.626 -0.53291 0 21634
11.339 -3.2513 1.3794 0 21842
11.356 1.683 1.071 0 20404
11.367 -5.2138 1.1667 0 22350
11.424 -2.9885 2.2248 0 21812
11.462 6.9802 1.5694 1 17890
11.468 1.2236 1.8949 0 20645
11.535 7.9724 2.3037 0 17530
11.609 7.111 2.2366 2 17873
11.609 7.1114 1.9134 0 17871
11.665 0.8689 1.9218 0 20835
11.691 7.8352 0.98412 1 17618
11.785 -4.9565 2.4088 0 22189
11.907 3.0926 0 1 19695
11.919 7.5934 2.3219 0 17756
11.948 -0.4945 1.1156 0 21353
12.033 -1.201 -0.28076 0 21527
12.152 6.4665 0.64192 1 18219
12.174 -2.8845 1.7583 0 21773
12.237 6.195 2.2535 2 18340
12.267 3.2251 0 0 19675
12.414 6.3281 0.97436 1 18318
12.475 5.7351 2.2557 2 18588
12.479 5.6029 1.5996 0 18646
12.489 5.4383 1.9145 0 18721
12.565 -0.44977 2.0657 0 21337
12.588 6.0987 1.3049 0 18444
12.622 6.3399 2.3206 1 18358
12.783 5.8338 2.3086 2 18607
12.922 6.8768 1.7118 1 18224
13.109 6.9763 2.087 0 18226
13.13 6.8877 2.436 1 18258
13.147 6.9433 0.69335 1 18235
13.205 6.4493 1.0277 1 18424
13.205 6.5896 1.3768 2 18372
13.209 5.4337 0.99877 1 18851
13.216 5.4364 2.3478 0 18857
13.264 0.33344 -0.30805 0 21072
13.304 5.8373 0.67751 1 18695
13.316 6.8849 1.3986 2 18285
13.643 3.6711 0.65888 1 19635
13.662 4.8006 1.6935 0 19195
13.824 2.6647 1.3135 0 20143
14.105 -0.91211 -0.32815 0 21427
14.125 4.6905 1.3885 0 19297
14.222 2.7413 2.3796 0 20145
-14.34 3.9149 -1.7383 1 3332
-13.005 2.9118 -1.5585 2 3097
-11.494 6.7409 -1.8727 2 5276
-3.5878 7.4482 -1.7573 2 11170
0.60343 14.642 -1.7137 2 15273
1.3198 11.269 -1.8641 0 15710
3.6871 -2.0818 -1.5411 0 22619
4.2548 13.236 -1.954 0 16201
4.3201 6.7138 -1.697 0 16569
4.9952 7.7125 -1.5097 0 16570
6.441 6.1724 -1.6808 0 16948
6.7056 8.0198 -1.7175 0 16805
9.2594 6.2409 -1.5693 0 17593
