VERSION .7
FIELDS x y z intensity index
SIZE 8 8 8 8 8
TYPE F F F F F
COUNT 1 1 1 1 1
WIDTH 1004
HEIGHT 1
VIEWPOINT 0 0 0 1 0 0 0
POINTS 1004
DATA ascii
-4.9282 -0.21086 0.11452 0 1908
-4.5534 -0.15423 0 0 1939
-4.4978 1.7872 -1.0287 2 3309
-4.3894 1.4542 0 0 3109
-4.0667 1.3623 -0.099574 0 3115
-3.9991 1.9635 -0.20776 0 3726
-3.9369 0.025423 0.091404 0 2092
-3.8846 2.7678 -1.3677 1 4817
-3.812 1.8453 -0.49527 0 3691
-3.7749 3.2584 -0.11578 2 5495
-3.6885 -0.17846 0.43185 0 1888
-3.5991 3.1988 0.5631 0 5613
-3.5969 2.1604 0.39145 1 4237
-3.5678 -0.32972 0.083187 0 1752
-3.4645 1.4005 0.26131 2 3334
-3.375 -0.43114 0.55899 0 1656
-3.3381 2.0721 -0.36655 0 4328
-3.3237 2.036 0.54779 0 4302
-3.2181 3.3465 -0.10779 0 6192
-3.1607 2.5558 -1.2684 0 5263
-3.1205 2.0514 -1.1653 1 4506
-3.0984 -2.9076 0.69809 0 1339
-3.0286 -3.404 0.42507 2 1182
-2.9302 2.7439 -1.4611 0 5798
-2.8348 3.351 0.20469 0 6736
-2.8239 2.3796 -0.43185 0 5406
-2.5756 3.6029 -0.10282 0 7473
-2.5718 3.2263 -0.28851 0 6996
-2.5479 -1.8187 0.29205 0 1518
-2.5035 3.8936 -0.21587 0 7888
-2.4619 3.9292 0.10765 0 7986
-2.4393 -2.0374 -0.22224 1 1431
-2.4243 -4.3094 -0.4613 1 944
-2.0478 -3.3601 0.36711 0 992
-1.9548 2.2848 -0.28053 1 6680
-1.935 2.3283 0.49739 2 6823
-1.5379 -2.5912 0.069957 2 979
-1.2174 -4.8005 0.46204 0 484
-1.1338 -3.252 0 0 575
-1.0873 4.7322 -1.0321 0 10208
-0.76921 2.9872 -1.0423 0 10119
-0.66578 -4.1706 0.19695 0 384
-0.63494 -4.2946 -0.20245 0 370
-0.40292 -4.6807 0 0 321
-0.16066 -4.7926 0.56078 0 267
-0.022811 -4.8407 -0.22574 1 236
0.26892 -4.7652 -0.22258 0 192
0.30525 -3.0528 0.57804 0 162
0.34683 -3.5693 0.16723 0 164
0.61594 -4.6534 0 0 137
0.82428 -4.572 0.76326 1 91
0.84418 -4.0764 0.09665 0 59
1.0103 3.6431 -0.98971 0 11339
1.1273 2.8647 -0.21527 0 11752
1.1792 4.3976 -0.53243 0 11308
1.2375 -3.7572 -0.18447 0 25039
1.2385 2.873 -0.81902 0 11921
1.2952 4.3752 0.5336 0 11401
1.4349 -4.7737 0.11573 0 25054
1.6139 -4.545 0.44997 0 25030
1.705 -3.5973 0.55948 0 24937
1.7255 -3.5853 0.092379 0 24924
1.7464 -4.1384 0.73797 0 24995
1.8035 -4.6091 0.69559 1 25008
2.0455 3.6948 0.49387 0 12515
2.0629 -3.9847 0.31376 0 24853
2.141 4.2979 -1.4983 0 12251
2.1742 2.069 -1.172 0 14748
2.5442 4.1878 -0.34264 0 12782
2.5924 -3.656 -0.95265 1 24429
2.9098 1.4167 -1.1779 0 17003
2.9195 1.6706 -1.4976 1 16502
2.9929 -0.5693 -0.21304 0 21135
3.0475 0.85489 -0.073485 0 18317
3.0504 -0.041529 -0.14227 0 20268
3.1134 -3.1495 -0.7276 0 23752
3.1804 0.61821 -0.30227 0 18819
3.3068 -1.1541 0.65988 0 21609
3.3412 2.9137 -1.0504 0 15105
3.3583 -3.1503 0.53847 2 23651
3.5116 2.6713 -1.2652 0 15547
3.5324 -2.5076 0.71171 1 23105
3.5619 -0.85053 0 0 21286
3.9525 -0.83436 -0.18838 0 21202
4.0539 1.788 -1.1599 0 17286
4.1284 -0.53912 -0.19416 2 20912
4.147 -1.0294 0.099203 0 21310
4.2657 1.5231 -1.2988 0 17825
4.2845 -1.2213 -0.20776 2 21405
4.3586 0.041081 0.1012 0 20108
4.3656 2.4149 0.70115 1 16624
4.5782 -0.2095 -0.21372 0 20475
4.705 1.5269 0.46149 0 18050
4.7207 -0.92617 0.11169 0 21155
4.9039 0.089023 -0.22872 0 20052
-1.9717 2.1114 0.13472 0 6314
1.7332 -1.2372 0.34986 1 23119
1.9811 0.11631 0.23207 2 19784
2.0421 1.7398 0.50547 0 15193
-13.956 4.9915 -1.0364 0 3168
-13.886 5.0567 -1.3787 0 3186
-13.851 4.4125 2.3884 0 3091
-13.845 4.9518 -0.68571 1 3169
-13.011 1.1108 -0.91311 0 2380
-12.738 -2.0016 0.29937 1 1587
-12.644 -0.76006 -1.1818 0 1841
-12.628 4.7666 -1.2592 2 3233
-12.62 4.7636 -0.94325 1 3234
-12.57 -0.90321 -1.4737 1 1807
-12.12 -0.26869 0.28145 1 1982
-11.014 5.7309 -1.4519 0 3849
-10.822 6.4129 2.0667 1 4203
-10.799 6.527 1.7733 0 4260
-10.636 3.4907 1.8391 0 3105
-10.615 9.0565 -1.3018 0 5452
-10.593 10.039 1.0205 1 5840
-10.556 -0.51072 1.9911 0 1891
-10.52 7.68 2.14 0 4912
-10.474 10.218 1.7111 0 5948
-10.406 5.6453 1.1045 1 3953
-10.365 6.685 0.86247 1 4455
-10.306 -0.77127 1.4524 0 1805
-10.255 -1.4304 -0.72407 0 1618
-10.241 -1.7027 1.214 0 1575
-10.23 -1.1529 1.4468 0 1697
-10.183 -0.22576 0.95028 0 1983
-10.105 4.5329 1.5565 1 3540
-10.009 7.3979 1.1611 0 4948
-9.9406 -0.54184 0.23113 0 1865
-9.906 -7.1182 -0.85298 0 1515
-9.8779 -1.5822 1.1699 0 1584
-9.8773 10.76 1.0214 1 6393
-9.8578 -9.7483 1.2934 0 1310
-9.7437 0.85932 0.91257 2 2395
-9.7413 4.6798 1.7755 2 3688
-9.6667 -0.66409 0.45186 0 1821
-9.5222 -1.7528 1.5907 0 1564
-9.4956 5.6268 1.5512 2 4201
-9.4805 -6.5646 1.8945 0 1530
-9.4794 6.6326 0.53953 1 4745
-9.4784 10.823 1.006 1 6589
-9.4758 11.544 2.099 0 6874
-9.4584 11.523 2.8088 0 6878
-9.4207 5.5448 0.76439 0 4176
-9.3968 9.6058 1.2537 2 6130
-9.3345 1.9892 1.7982 1 2884
-9.3214 5.9361 0.77276 1 4421
-9.3066 6.0784 1.037 0 4490
-9.2761 11.102 1.3497 0 6791
-9.116 6.3005 1.8206 1 4711
-9.098 11.279 1.6946 0 6952
-9.0772 -1.5908 0.21396 0 1565
-9.0475 7.277 1.3578 0 5248
-9.0359 -6.2567 2.0707 0 1531
-9.0346 9.284 0.90586 1 6151
-9.0095 -0.018872 1.6975 2 2066
-8.9473 -0.22648 0.62586 0 1973
-8.9381 6.5681 1.0348 1 4927
-8.8953 5.5909 1.2286 2 4386
-8.8827 10.631 1.6201 0 6793
-8.8805 9.5098 1.2139 0 6318
-8.847 6.6232 2.0822 0 5002
-8.7822 -0.52791 1.0289 0 1847
-8.7356 -11.117 2.3229 0 1066
-8.7017 7.25 1.8608 2 5379
-8.6978 -0.4467 1.4309 2 1878
-8.6808 1.7173 1.2437 2 2817
-8.6568 -8.3132 1.6868 0 1326
-8.6559 10.731 0.64294 1 6947
-8.6314 -0.39497 0.80612 1 1899
-8.5909 0.28349 1.208 2 2191
-8.5764 -5.8636 1.9574 0 1536
-8.5763 2.1415 0.82469 0 2996
-8.5704 5.0786 -1.165 0 4188
-8.5306 8.8708 2.022 2 6205
-8.5218 10.756 1.6047 0 7038
-8.5046 8.2964 2.2385 0 5953
-8.4684 12.063 2.4214 1 7560
-8.4646 11.982 1.7155 0 7534
-8.4464 3.8172 1.7464 0 3560
-8.4448 3.4686 1.7201 1 3364
-8.4134 0.51901 0.78642 0 2300
-8.4121 10.553 0.62934 1 7004
-8.3022 -5.7874 1.6627 0 1528
-8.2657 6.9653 -1.0084 0 5408
-8.2553 1.0165 1.5671 2 2535
-8.1953 -0.94823 0 0 1685
-8.1727 -6.3554 0.96589 0 1496
-8.1549 2.2631 1.5945 1 3041
-8.1169 11.143 1.6122 1 7407
-8.1018 11.333 2.2888 0 7487
-8.0822 8.8047 2.2518 2 6402
-8.0714 9.5411 1.7564 2 6743
-8.0016 5.9144 1.1636 0 4950
-7.9357 12.342 2.4107 1 7902
-7.9322 7.2583 1.7665 1 5723
-7.9287 10.065 1.4983 2 7065
-7.89 2.4378 0 0 3079
-7.845 10.707 1.5522 2 7382
-7.8448 9.8411 2.0677 2 7014
-7.7531 6.8521 0.96533 1 5591
-7.7185 8.2655 2.1307 1 6326
-7.6544 0.87752 0.7188 0 2497
-7.6154 5.9456 -0.45055 0 5137
-7.604 4.5365 -0.61916 0 4210
-7.5971 6.7143 1.1857 0 5593
-7.58 1.8927 -0.91364 0 2989
-7.5744 9.0076 2.2174 0 6772
-7.5715 11.553 2.6025 1 7828
-7.5628 11.69 2.2875 0 7877
-7.546 7.4883 2.003 0 6019
-7.5328 9.5621 1.9999 0 7069
-7.5311 -7.7147 1.0058 0 1288
-7.5197 5.6295 -0.21809 0 4986
-7.4941 5.1447 1.7127 2 4692
-7.4734 8.9445 1.915 2 6797
-7.445 7.7419 1.2561 0 6201
-7.3893 6.2666 1.3617 1 5445
-7.3864 -0.50744 -0.69074 1 1816
-7.3525 11.083 1.2409 2 7771
-7.3379 11.867 2.6288 2 8048
-7.3124 3.1795 1.5023 0 3476
-7.3061 8.0547 2.0489 0 6451
-7.2972 12.116 1.654 0 8144
-7.2581 9.6109 1.6926 2 7265
-7.2456 5.0396 -1.0321 0 4716
-7.2439 7.1509 1.9178 1 5995
-7.2363 5.5145 1.0639 0 5060
-7.2348 10.906 1.8393 0 7775
-7.221 5.7398 1.5155 2 5213
-7.1935 10.312 2.3688 0 7585
-7.1772 11.384 1.2555 1 7967
-7.164 5.2644 -0.62167 1 4920
-7.1369 8.848 1.8676 1 6956
-7.1176 3.81 0.37649 0 3917
-7.0913 3.5883 -0.74146 0 3785
-7.0698 2.117 -0.34416 0 3063
-7.0422 13.106 2.8032 2 8581
-7.0108 11.558 2.547 0 8123
-7.0053 13.22 1.3958 2 8619
-6.9939 9.9624 0.85117 1 7552
-6.9787 8.808 1.5793 1 7040
-6.9442 10.875 2.1199 0 7926
-6.9219 -5.5118 1.6671 0 1479
-6.9179 0.42675 1.1387 2 2303
-6.8471 4.3035 -0.37714 0 4375
-6.8378 -1.1553 -0.81096 0 1567
-6.8233 -5.3694 -0.4049 0 1486
-6.7999 11.434 1.5557 1 8196
-6.7883 0.40092 0.15788 0 2286
-6.7801 1.925 -0.16364 0 3048
-6.7461 6.2077 0.64106 0 5739
-6.7364 1.2924 -0.80214 1 2786
-6.7345 12.709 2.0214 1 8623
-6.7263 -4.9211 1.3693 0 1513
-6.6814 5.3108 -0.79627 0 5197
-6.5893 9.7397 0.82229 0 7695
-6.578 3.6688 -0.17487 0 4020
-6.5687 1.6817 -0.63259 0 3003
-6.538 0.74954 0.30689 0 2496
-6.5147 8.3716 1.7428 2 7126
-6.4954 -0.80904 0.61067 2 1662
-6.4666 11.319 1.8321 0 8350
-6.4477 -5.014 0.18963 0 1495
-6.4429 -6.1548 0.62306 0 1329
-6.4369 -4.4009 0.36363 0 1535
-6.4329 7.3456 1.8397 2 6599
-6.4314 11.565 2.174 1 8462
-6.3853 6.229 1.2537 1 5950
-6.3698 -4.7479 -0.55554 1 1510
-6.3644 1.7471 1.2435 0 3037
-6.3132 0.90975 -0.44602 1 2605
-6.2709 9.3321 1.8472 2 7726
-6.2657 8.9816 1.7992 1 7583
-6.259 8.1924 1.2056 0 7215
-6.2538 10.797 1.7536 1 8301
-6.205 7.3791 1.355 1 6768
-6.1793 -7.5874 0.45633 0 1099
-6.1181 11.793 1.8671 0 8693
-6.0412 1.2313 -0.86649 0 2831
-6.0216 -9.2055 0.51298 1 999
-6.0179 -5.0837 0.73496 0 1426
-6.0165 -4.0888 0.67867 0 1538
-6.0097 3.7772 0.1648 0 4379
-5.9976 8.1379 0.23471 0 7352
-5.9918 6.8011 0 0 6559
-5.9886 0.68655 -0.56237 1 2491
-5.9108 7.1576 1.7489 0 6851
-5.9012 4.6321 0 0 5158
-5.8978 -3.9081 1.1624 0 1542
-5.8791 6.2213 0.19873 0 6268
-5.8712 -8.2311 1.6611 0 1024
-5.865 5.6875 -0.18968 0 5918
-5.8165 8.6559 0.48633 1 7716
-5.7999 -4.3737 1.3686 0 1507
-5.782 11.226 1.7747 0 8717
-5.7512 -5.4596 0.18411 0 1330
-5.7305 7.1044 -0.21191 0 6942
-5.7088 -3.9796 0.48662 0 1527
-5.7004 4.4233 1.1854 1 5129
-5.6665 6.7819 -0.20518 0 6784
-5.6477 4.6788 0.34202 0 5352
-5.64 -7.2163 1.7256 0 1059
-5.6221 1.7028 -0.82557 1 3067
-5.6168 9.3259 -1.0157 0 8129
-5.5978 1.5724 -0.13499 0 3044
-5.5763 8.5671 0 0 7840
-5.5513 -1.0379 0.52688 0 1563
-5.5407 -4.3335 0.16331 0 1491
-5.5375 0.10149 0.38729 0 2132
-5.5235 -3.8964 0.95 0 1524
-5.5125 -7.7282 0.88563 0 1023
-5.4293 9.3136 1.2607 0 8276
-5.4239 1.5912 0.7944 0 3059
-5.3373 -4.4833 -0.32506 0 1427
-5.2423 -4.0284 0.6168 1 1504
-5.2218 1.5815 -0.25444 0 3068
-5.2008 1.8091 -0.64394 1 3138
-5.1802 0.77603 0 0 2629
-5.1337 7.8331 0.21744 0 7814
-5.1313 4.0787 -0.30568 2 5199
-5.1233 7.1667 0.20453 0 7476
-5.1216 6.8636 1.2036 0 7315
-5.1191 -10.108 1.8615 0 862
-5.1173 9.7926 0.77262 0 8663
-5.1133 0.049085 0.35757 0 2103
-5.0979 -7.0607 -0.60897 0 1025
-5.0874 -7.3994 1.4753 0 1015
-5.0705 2.2216 0.9095 1 3494
-5.0336 -4.9776 1.1631 0 1311
-5.0256 -5.2977 0.51062 0 1257
-5.0213 1.0847 0.844 0 2893
-5.0136 0.7672 0.8333 0 2643
-4.9689 -3.2541 0.83476 0 1543
-4.8677 6.2551 0.92688 2 7123
-4.8427 -3.9949 1.0314 1 1447
-4.724 1.7672 0.35269 0 3226
-4.7132 5.0737 -0.48425 0 6336
-4.7123 2.6477 -0.63209 0 4037
-4.6281 -3.1642 -0.39203 0 1533
-4.4883 -5.9562 1.2253 0 1041
-4.4681 4.8675 0.61643 1 6395
-4.4647 2.8235 0.12265 0 4400
-4.4576 -7.8723 1.4863 0 952
-4.4461 -5.5536 0.99982 0 1084
-4.4451 5.5108 0.16438 0 6945
-4.3724 -9.8022 2.0222 0 760
-4.3153 -7.671 1.237 0 947
-4.2794 -12.159 0.60111 1 582
-4.2585 -6.1524 1.0516 0 1019
-4.1234 5.7341 -0.49388 0 7445
-4.1209 -8.1936 0.21294 0 851
-4.0939 5.979 0.50671 0 7647
-4.0736 7.5308 0 0 8548
-4.0573 11.401 2.28 0 9699
-3.987 6.0099 -0.33633 0 7763
-3.9643 3.0761 -0.58679 1 5112
-3.9592 -6.9468 0.18564 0 954
-3.8979 -8.7385 0.89269 0 756
-3.8917 7.4473 -0.39186 0 8657
-3.8679 -6.2261 1.2042 0 996
-3.8637 -9.8642 1.4889 0 635
-3.8418 7.6221 -1.4023 0 8763
-3.8365 6.3699 -0.17264 0 8133
-3.7453 -7.8947 0.81522 1 804
-3.7296 -5.6327 0.47239 0 1006
-3.6698 -4.6702 0.27699 0 1064
-3.6603 5.6927 0.79145 1 7898
-3.6014 -7.1605 0.74778 0 853
-3.5847 -3.984 0.7532 2 1198
-3.545 6.8331 -0.17872 0 8682
-3.5327 4.5103 0.5345 1 7093
-3.5085 7.0155 0.18211 0 8794
-3.4425 -8.1535 0.61888 0 704
-3.3937 6.5893 -0.34565 0 8704
-3.3453 -9.6879 0.23796 0 573
-3.3404 6.3037 0.16563 0 8613
-3.3152 9.6663 1.6789 0 9770
-3.2084 8.8487 1.7734 0 9664
-3.1741 5.2994 -0.28807 0 8160
-3.1687 -7.6993 0.77676 0 684
-3.1494 14.277 -0.33943 0 10238
-3.143 -8.9301 1.5554 0 584
-3.0313 9.374 1.6186 0 9873
-3.0225 -7.2862 1.296 0 695
-2.9622 11.102 1.072 0 10086
-2.9475 -5.5764 1.0363 0 897
-2.9288 -8.4008 1.4617 0 580
-2.9046 -5.2335 0.27913 0 934
-2.871 -9.6552 1.4157 0 521
-2.8349 5.0974 -0.54416 0 8442
-2.8215 -5.6939 0.74313 0 838
-2.8081 -8.6169 1.2737 0 560
-2.7966 10.861 0.26038 0 10118
-2.7863 -8.7254 0.21266 0 553
-2.7775 5.3538 0.28127 0 8686
-2.653 -6.6063 0.66418 0 657
-2.6282 -8.0648 0.99193 0 559
-2.619 10.687 -0.76941 1 10156
-2.6061 10.005 -0.48214 0 10107
-2.5034 -6.0348 0.76404 0 693
-2.4408 -11.582 0.27482 0 438
-2.4249 4.5759 0.60561 0 8621
-2.4049 -7.3795 1.4623 0 561
-2.3628 10.425 0.99729 0 10219
-2.3369 -8.1177 0.5907 0 510
-2.2923 9.4681 0.90885 0 10170
-2.0927 -5.63 0.13945 0 597
-2.0812 -9.7328 0.92855 0 450
-2.039 -7.1627 0.8709 0 508
-2.0103 5.4964 0.82251 0 9640
-1.9817 -5.4773 0.81862 0 591
-1.9021 -7.24 1.2298 0 493
-1.891 -8.6006 1.0298 0 456
-1.8859 -6.6249 0.64263 0 507
-1.8667 5.0545 0.25127 0 9616
-1.8614 6.8136 -0.65898 2 10062
-1.794 -6.0332 0.14614 1 520
-1.7577 -10.061 0.47627 1 403
-1.7086 5.4991 -0.13369 0 9916
-1.6601 10.541 -0.24775 0 10435
-1.6081 -6.421 0.61755 1 481
-1.5205 -5.651 0 0 498
-1.4991 11.719 2.2259 0 10495
-1.4425 -5.7597 0.27689 0 479
-1.3621 -8.8599 0 0 381
-1.3237 8.9102 0 0 10457
-1.3104 7.7393 0.36605 0 10405
-1.3104 12.945 -1.2139 0 10526
-1.2733 -6.6062 1.1053 0 421
-1.071 -10.346 1.4619 0 334
-1.0491 6.4137 -0.30307 0 10419
-1.0026 14.483 0 0 10565
-1.0022 -6.278 0.89349 2 386
-0.91014 6.387 1.0599 0 10470
-0.87896 9.8099 0.91889 0 10543
-0.86488 10.343 0.96831 0 10549
-0.79897 8.1048 -0.56949 0 10531
-0.74924 -6.6482 0.94025 1 343
-0.71366 6.1398 -1.0155 0 10508
-0.64551 7.438 0.17334 0 10546
-0.62236 5.9513 0.9831 1 10525
-0.61714 -9.3657 0 0 308
-0.60218 9.5184 -0.22143 0 10575
-0.59192 -11.604 1.084 0 295
-0.54617 -5.1276 0.11972 0 337
-0.54217 -7.9121 0.55456 0 312
-0.52511 -9.219 -0.43062 0 300
-0.48539 -7.7366 1.0894 0 305
-0.43857 -9.0974 0 0 291
-0.41055 -11.25 1.3165 0 270
-0.31559 -7.9616 1.5012 0 277
-0.2981 8.0527 1.5182 0 10614
-0.27725 5.0863 -0.47524 0 10587
-0.2573 11.338 1.058 0 10634
-0.24076 -6.0738 0.71084 0 276
-0.21827 9.618 -0.67273 0 10632
-0.19705 6.9244 -1.4724 0 10623
-0.19601 -5.8471 0.13583 0 266
-0.19043 9.6541 0 0 10638
-0.11433 10.235 1.4385 0 10655
-0.087389 -8.3447 1.5723 0 245
-0.082927 7.4235 0.17236 0 10652
-0.056879 6.9338 1.3064 0 10661
-0.048616 -10.316 1.4499 0 238
-0.03613 6.9001 0.96976 0 10668
0.012097 -9.9012 -0.46173 0 231
0.1107 -8.6879 -0.40518 0 223
0.12983 10.627 -1.4936 0 10699
0.16675 -13.087 0.30388 1 224
0.16872 13.81 2.269 0 10704
0.1976 13.164 2.163 0 10710
0.22636 9.5349 -0.44478 0 10722
0.2307 11.014 2.0756 0 10721
0.23757 6.2123 -0.43472 0 10743
0.24576 9.2617 1.3021 0 10731
0.26526 -6.7814 -0.31649 0 207
0.26914 -6.4484 0 0 204
0.27564 7.2078 -1.0137 0 10742
0.3007 6.424 0.2999 0 10758
0.34187 -7.1959 0.16726 0 200
0.38268 -4.9962 0.82325 1 184
0.38808 8.2907 0.1927 0 10757
0.40452 -11.246 1.5816 0 209
0.48681 -7.5076 0.70189 0 188
0.49282 -6.4341 0.30093 0 183
0.50945 -5.9546 0.13875 0 177
0.54673 11.68 -0.27147 0 10756
0.6494 10.527 0.24487 0 10783
0.66845 -10.744 0.24993 0 189
0.67336 9.9799 0.93319 0 10795
0.6844 -7.477 1.0552 0 171
0.78504 -6.6626 0.31285 0 148
0.8568 6.4993 -0.6116 0 10917
0.86293 -7.9049 0.9299 0 155
0.96045 -5.2537 0.49827 0 86
1.0325 7.8321 -0.18341 0 10919
1.1092 9.4566 0.22106 0 10891
1.1113 6.2896 0.29785 0 11023
1.1433 10.558 0.74263 0 10876
1.2256 -7.4271 1.4183 1 109
1.2361 -6.1469 1.0301 0 66
1.2909 11.6 1.0889 0 10881
1.2982 -12.983 1.8337 0 161
1.3486 -7.0161 0.4996 0 76
1.3798 -7.0721 1.1838 0 73
1.3904 -7.9832 1.3313 0 101
1.4116 12.035 1.1305 0 10893
1.4291 -5.371 0.51852 0 25078
1.4731 -5.6838 0.27382 0 17
1.5304 8.115 0 0 11058
1.5804 -7.9817 0.75911 1 70
1.6141 -6.7963 0.98173 0 33
1.6322 -7.7723 0.18439 0 55
1.6728 -9.4484 1.5765 0 96
1.6822 -6.8179 0.32748 0 24
1.7191 10.649 -0.25044 0 10975
1.7273 8.3555 -1.1991 0 11109
1.7823 9.9354 0 0 11031
1.795 -6.6851 0.64578 0 7
1.8032 -13.623 2.5892 0 138
1.8809 -8.8188 1.4815 0 52
1.8819 -5.6671 0.41756 0 25037
1.9236 8.0123 0 0 11220
1.944 5.7564 -1.4396 0 11553
1.9643 -8.064 0.1927 0 26
2.0346 -8.3524 0.80203 0 27
2.0557 -6.8391 0.83512 0 25055
2.0909 -8.3673 0.4022 0 22
2.0951 9.5769 -0.22761 0 11153
2.2032 -6.2044 0 0 25029
2.2218 -7.7128 0.56126 0 25064
2.2519 -7.9953 1.1674 0 25069
2.2619 -5.1921 0.66229 0 24977
2.2793 7.7844 -0.37826 0 11387
2.2837 -6.6741 0 0 25033
2.2863 -10.433 1.7548 0 46
2.3589 8.2264 -1.2027 0 11365
2.3598 12.324 1.1706 0 11074
2.3636 4.451 -0.58935 0 12395
2.3703 8.2663 1.0056 0 11372
2.3703 8.8397 0 0 11312
2.3809 -5.4653 0.83782 0 24978
2.4078 -4.687 0.99279 0 24865
2.4188 -6.3409 0.63315 0 25019
2.428 -5.9974 0.15022 0 25000
2.4286 -5.0463 -0.39161 0 24922
2.4304 -6.5457 1.1472 0 25023
2.4509 -6.9675 0.34444 0 25032
2.4598 9.5114 1.6141 0 11280
2.4638 10.537 1.5209 0 11205
2.465 -7.3458 0.72289 0 25036
2.4706 9.9091 1.1943 0 11255
2.5284 -4.4328 0.59678 0 24761
2.5564 -9.7515 0.47012 1 14
2.578 -5.0903 0.80192 0 24883
2.6129 -8.9761 1.5359 0 25061
2.6189 11.49 2.2203 0 11188
2.6637 7.0678 1.4231 0 11693
2.7034 -5.2625 -0.55196 0 24858
2.746 9.0724 1.5573 0 11421
2.7765 -11.838 1.9976 0 35
2.7807 5.8378 1.2183 0 12152
2.7974 -6.1754 0.47407 0 24961
2.8156 7.3465 -1.4823 0 11718
2.8214 -10.626 0.5127 1 11
2.8502 5.3312 0.42272 0 12419
2.9199 8.9071 0.21762 0 11506
2.9376 6.9307 0.52638 0 11891
2.944 5.5067 -0.14497 0 12415
2.979 4.7453 0.78744 2 12901
2.9949 -4.3026 0.24447 0 24455
3.0027 4.168 0.60073 0 13354
3.0611 9.7144 0.23647 0 11460
3.0691 -6.5728 0 0 24944
3.0706 -7.3368 0.74202 0 24997
3.0769 -7.724 1.1685 0 25005
3.0817 5.925 1.2583 0 12360
3.0874 4.8555 -0.40236 0 12932
3.0935 4.2672 0.12237 0 13369
3.1121 8.5597 1.4964 1 11640
3.145 6.3135 1.1588 0 12258
3.1831 5.9117 -0.15588 0 12432
3.1876 -4.0785 -0.2414 0 24247
3.2074 -9.3734 0.92427 0 25034
3.2185 5.2604 -0.43123 2 12803
3.2332 -9.1913 0.22621 0 25031
3.2891 5.0726 1.1391 0 13005
3.3449 6.668 1.2256 0 12273
3.464 -7.8243 0.79831 0 24971
3.4829 -4.7328 0.82585 0 24370
3.525 5.2359 -0.88709 0 13109
3.5541 -3.9946 -0.49883 1 23958
3.6334 7.2432 1.5268 0 12275
3.6721 -6.3577 0.85859 0 24746
3.6747 7.8339 1.2161 0 12114
3.6811 -6.7265 0.17803 0 24797
3.7264 4.8388 0.28481 1 13570
3.8866 3.4885 0.12125 0 14992
3.8984 5.508 0 0 13285
3.9024 -3.5985 0.24754 0 23626
3.9041 -5.7125 -0.48383 0 24487
3.9209 6.9869 -0.18601 0 12549
3.925 -5.5702 0.1582 1 24434
3.9548 -4.0739 -0.26478 0 23786
3.9797 -6.4866 1.4338 0 24675
3.9802 -7.9138 -0.4131 0 24887
3.9849 5.1429 0.45495 0 13594
4.0126 12.24 2.1163 0 11511
4.0282 -11.244 1.9623 0 25027
4.0832 -12.53 1.5411 0 25042
4.0833 6.1785 0.51787 0 13057
4.3035 8.966 -0.2309 0 12160
4.3798 -6.7366 -0.37472 0 24581
4.4269 4.4392 0.73314 0 14543
4.4551 8.0471 0 0 12510
4.4841 8.0995 1.521 1 12519
4.4861 2.6204 -0.36329 0 16439
4.5006 5.2196 0 0 13971
4.5274 -7.3334 1.6238 1 24667
4.5381 -2.8401 -0.62605 1 22782
4.5574 -3.8718 0.55791 0 23505
4.6037 4.5351 -0.15003 0 14599
4.6214 3.5384 -0.13513 0 15524
4.622 3.4552 0.67484 0 15607
4.7114 5.3704 -0.16586 0 14038
4.7139 -5.6497 0.34313 0 24111
4.7209 1.8729 -1.3296 0 17564
4.7631 3.3068 0.13462 0 15862
4.835 5.7053 1.051 0 13911
4.8721 9.5745 1.2563 0 12303
4.9111 -1.3694 -0.23776 0 21388
4.9124 7.0261 1.4085 0 13251
4.9244 2.6504 -0.39105 1 16706
4.9874 4.6379 -0.31761 0 14844
4.9899 -3.8109 -0.58578 1 23269
5.048 -1.1284 -0.12009 0 21240
5.0673 2.0617 0.8988 0 17508
5.1073 7.8316 -0.43602 0 13011
5.1132 -2.6493 0.67344 0 22362
5.1365 9.476 -1.2605 0 12447
5.1383 -0.86908 0.36441 2 21066
5.1462 -3.7665 0.89627 0 23178
5.1483 8.6432 0.93858 0 12726
5.229 -8.8101 0.7164 0 24712
5.2597 5.3374 0.6991 0 14500
5.2814 3.5116 0.14725 0 16006
5.2899 5.785 1.1017 0 14205
5.2917 -8.7998 1.687 0 24699
5.3731 -10.308 1.3594 0 24845
5.4075 -0.50069 -0.76323 1 20716
5.4545 6.5165 0 0 13853
5.4658 2.0949 0.9617 1 17654
5.4688 0.83391 0 0 19107
5.5034 -0.99716 0.9189 2 21111
5.5176 1.8258 -0.4064 2 17998
5.5293 -8.2939 1.1657 0 24538
5.5681 1.1835 0.13216 0 18707
5.6138 -0.046051 0 0 20225
5.6575 -7.1124 1.0628 0 24215
5.6645 2.4607 0.72223 2 17328
5.6673 -4.4055 0.33475 0 23313
5.6864 -3.2659 0.61179 0 22590
5.7181 -5.8903 1.1537 2 23792
5.7325 8.7903 0.73384 0 13016
5.7446 -7.806 1.1334 0 24368
5.755 -1.7321 0 0 21452
5.7819 -3.0368 0.30456 0 22391
5.795 -2.9171 1.2224 0 22300
5.7953 8.7691 1.7269 1 13065
5.8218 0.30817 0 0 19820
5.8554 11.101 1.7639 0 12388
5.859 2.9583 0.92244 2 16907
5.8821 8.737 -0.49118 0 13115
5.8848 4.3165 0.51034 0 15673
5.9218 1.9047 1.172 0 18080
5.9486 7.449 0.66659 0 13688
5.951 4.4487 0.1725 1 15604
5.996 8.121 1.6585 0 13436
6.0138 3.7754 0.49653 0 16205
6.055 9.5818 1.593 0 12923
6.0889 -4.1894 1.2143 2 23030
6.1237 -6.1623 1.4273 1 23750
6.138 6.6377 0.84346 2 14245
6.1449 3.4724 -0.16387 0 16551
6.1496 -10.781 1.7444 0 24762
6.1758 5.7429 0.78679 2 14854
6.1852 -6.4072 0.20676 0 23798
6.2244 -9.703 0.80611 0 24606
6.2652 5.9621 0.40332 0 14752
6.3115 -3.7 1.0282 2 22643
6.3138 2.6567 0 1 17410
6.318 -7.802 1.4109 0 24177
6.3899 -12.519 0.98287 1 24871
6.4059 5.5509 1.3926 2 15129
6.4066 10.138 0.27844 1 12914
6.4417 6.6892 1.7497 2 14421
6.4497 6.8971 0.66031 0 14292
6.4851 11.796 1.2559 0 12494
6.4954 -10.447 0.86024 1 24651
6.5402 9.2405 1.0562 1 13291
6.6427 5.3009 1.6012 2 15398
6.6736 9.429 0.80778 0 13289
6.6747 -7.5021 1.1743 2 23965
6.6883 1.0617 0 0 19065
6.7609 -11.391 1.2358 0 24713
6.7675 2.8004 -0.17004 0 17456
6.7879 -11.288 0.92106 1 24694
6.7886 -0.82512 0.31891 0 20872
6.817 11.445 1.8722 1 12730
6.8244 -11.421 0.30889 1 24701
6.831 -1.6728 0.98841 1 21305
6.8336 -6.3391 1.5314 2 23638
6.8694 -0.45385 0.96753 2 20586
6.923 -11.066 1.2178 0 24642
6.9241 9.6644 2.24 0 13339
6.9574 -7.3316 0.70677 0 23833
6.9781 9.3891 1.368 0 13452
7.0072 -6.0613 1.3021 2 23535
7.0123 -11.735 1.5987 1 24705
7.018 -3.1599 1.4501 1 22049
7.0321 0.86717 1.3349 1 19313
7.056 -11.66 0.95301 2 24685
7.1173 -3.6343 1.1231 2 22332
7.1441 7.7691 1.734 1 14226
7.1457 8.2871 1.0209 2 13979
7.1544 -12.812 0.34069 1 24776
7.1644 -5.7748 0.85851 1 23393
7.2105 -8.6913 0.26219 0 24122
7.2157 6.8666 1.8767 0 14762
7.2466 -1.8175 0.87369 2 21320
7.2639 10.389 1.1827 1 13246
7.3044 7.9881 1.2658 0 14203
7.3123 -9.3559 1.1078 1 24251
7.3135 -10.904 0.61229 1 24523
7.323 1.2268 1.0435 2 19010
7.3261 11.157 0.93334 1 13036
7.3698 -3.3928 1.5286 0 22099
7.3842 3.3078 0.37733 0 17239
7.4033 9.1097 1.9286 2 13757
7.4204 1.6668 1.0688 0 18635
7.4207 -6.0868 1.3489 1 23433
7.4275 -10.803 0.91674 1 24477
7.4472 -11.455 0.95538 1 24584
7.45 -7.2777 0.97165 0 23707
7.4516 11.87 0.65357 1 12895
7.537 8.0065 1.5454 1 14325
7.5441 7.5652 0.74709 0 14539
7.5549 4.2102 0.60479 0 16596
7.5655 11.31 1.2695 1 13101
7.5827 8.8469 1.9143 2 13959
7.6152 -8.1207 1.829 2 23861
7.6252 5.2289 0.86259 0 15903
7.661 0.65139 0.71731 2 19595
7.6662 -8.3194 1.323 0 23896
7.6835 -10.904 2.5133 2 24442
7.6977 -6.7341 0.95419 0 23548
7.6991 -4.8184 0.84736 0 22789
7.7027 10.364 1.8148 0 13454
7.7291 4.7568 0.21071 0 16272
7.7426 11.716 2.6458 0 13067
7.7518 0.048709 -0.17998 1 20126
7.7545 -9.4607 1.4305 0 24150
7.757 0.50163 1.4646 0 19750
7.7745 11.194 0.63558 1 13222
7.7782 10.99 1.8922 0 13295
7.779 11.481 0.96975 1 13142
7.7871 -5.2941 1.7741 2 23003
7.8072 10.197 1.1981 0 13553
7.8179 10.981 2.2146 0 13317
7.8222 -10.894 0.93781 1 24403
7.8238 -10.01 1.7856 1 24255
7.8248 6.9423 0.97592 0 15039
7.8273 11.133 1.5915 0 13270
7.8441 -7.7543 2.0781 0 23728
7.8617 5.5622 1.1262 0 15804
7.9168 -9.7139 0.87628 1 24160
7.9188 -1.3394 0.37453 1 21065
7.9202 -3.7574 1.0251 0 22165
7.9361 4.126 1.6853 0 16827
7.9475 -0.59478 0.93199 1 20632
7.9521 -9.5309 0.28819 2 24110
7.9554 3.3719 0.80612 0 17391
7.9627 2.9471 1.5997 0 17743
7.9673 -2.5504 0.58498 1 21510
7.9722 11.548 1.641 0 13209
7.9742 4.4731 1.7227 2 16582
7.9775 9.7571 0.8813 1 13769
7.9821 -10.402 0.91688 1 24289
7.9825 8.6809 0.54996 2 14219
7.9939 10.191 0.90572 1 13631
7.9984 -1.2111 1.3291 2 21005
8.0096 -10.82 1.5743 0 24358
8.0282 -6.7413 0.24339 1 23479
8.0414 -0.74457 0.1875 2 20723
8.0428 0.19095 0.75057 1 20014
8.053 -10.879 0.63121 1 24355
8.0547 -11.018 2.5714 1 24379
8.06 -1.3633 0.76264 2 21067
8.0714 4.2538 0.63799 0 16777
8.0902 6.6123 0.48726 1 15320
8.0919 6.6137 1.2221 0 15323
8.0946 9.7258 1.7784 2 13840
8.1089 -5.7563 1.3976 0 23104
8.1226 11.001 1.5992 0 13432
8.2126 -9.8992 1.5042 0 24127
8.2127 -10.325 1.2308 0 24213
8.2204 -9.9086 0.90028 1 24124
8.2299 -4.4778 1.7652 2 22474
8.2516 -6.4887 1.7246 2 23342
8.2632 -6.6604 1.9996 2 23396
8.2692 2.0097 1.3981 2 18533
8.3091 -1.4308 0.58958 2 21078
8.3158 -0.21195 1.3667 0 20362
8.3487 -8.1103 1.0859 1 23698
8.3718 -9.0313 0.28591 1 23880
8.3814 -8.6822 2.2737 0 23804
8.4006 -6.1867 1.22 2 23193
8.4007 11.949 2.3997 1 13274
8.4032 -11.216 1.3075 0 24335
8.4174 -11.796 2.0367 0 24417
8.4211 7.5161 2.1267 2 15024
8.4253 -5.1368 1.6212 0 22734
8.4299 -5.8372 1.9319 1 23046
8.4466 3.2677 0.84495 2 17625
8.465 -9.6832 1.8076 1 24002
8.479 -4.9052 1.8456 2 22611
8.4933 -3.8242 1.0893 0 22044
8.5152 -5.1245 1.1622 2 22704
8.5343 -1.4925 1.4234 0 21090
8.5412 4.0374 1.5521 2 17098
8.5781 -9.1475 0.58481 1 23857
8.5842 -10.924 1.9526 1 24241
8.5867 8.22 1.3901 2 14732
8.598 -1.5037 0.40705 0 21088
8.6133 -10.021 1.5453 0 24039
8.6144 10.665 0.63931 2 13726
8.641 -0.34404 1.6293 2 20456
8.6484 0.68368 1.6345 0 19642
8.6485 -7.975 1.9328 1 23631
8.6489 -0.22044 0.20087 2 20352
8.6495 -0.47298 0.80816 2 20524
8.651 -6.2554 0.99599 0 23149
8.6527 -11.901 1.7207 0 24385
8.6927 -2.3976 1.699 0 21387
8.7499 -9.0639 1.7706 1 23803
8.757 -7.7068 1.0883 1 23555
8.7713 9.5387 0.30086 1 14217
8.8147 -8.4677 2.3029 1 23684
8.8161 6.6676 2.0826 0 15572
8.8353 -9.3692 1.2015 1 23847
8.8449 -7.1701 1.6002 1 23407
8.8648 -6.41 1.2793 2 23150
8.8977 6.7684 1.043 2 15548
8.904 -9.7205 1.5416 0 23909
8.9133 -5.5783 1.9811 2 22792
8.9375 -10.591 0.96906 1 24084
8.9408 5.9808 2.0267 0 15993
8.9546 8.4768 1.1504 2 14781
8.9886 8.4557 1.7344 0 14807
9.0241 -11.76 1.383 0 24290
9.0338 1.5134 0.6405 2 19005
9.0457 -2.2688 0.4349 2 21319
9.059 9.3515 0.60717 2 14432
9.0691 0.37377 1.2757 0 19902
9.0744 9.4231 0.91479 2 14414
9.0928 -0.44153 0.21136 2 20492
9.0945 -8.0972 0.56785 2 23570
9.1012 -4.4174 1.4218 0 22216
9.1276 -6.1266 1.2856 2 22966
9.149 0.80526 1.7304 0 19581
9.1614 10.689 0.9844 1 13952
9.1911 9.0037 1.5046 0 14631
9.1953 9.2727 2.1455 0 14524
9.1977 -0.20551 0.42903 2 20332
9.2002 -9.8109 1.8902 0 23860
9.2024 7.7464 1.9762 1 15234
9.2127 -8.0142 0.2835 1 23537
9.2234 -10.61 0.65562 1 24011
9.2297 -7.3891 0.82675 0 23378
9.2555 5.732 1.0157 1 16253
9.2944 0.98181 1.3135 2 19444
9.305 9.1664 1.8357 0 14609
9.3088 -3.3111 1.8615 0 21631
9.3316 -9.1733 1.839 0 23718
9.3397 0.4666 0.87244 2 19844
9.3537 7.645 0.84475 1 15321
9.3621 8.9623 0.90628 1 14728
9.3674 -1.3899 0 0 20987
9.3712 3.1011 1.3873 2 18009
9.396 5.7466 0.51363 1 16297
9.3984 1.6318 1.1155 0 18966
9.4053 -5.5867 1.2793 0 22671
9.4134 -4.1048 0.95809 2 21975
9.4623 5.0928 0.75142 0 16712
9.4918 3.513 1.1836 1 17738
9.4918 8.6703 1.8067 0 14928
9.5194 -8.0388 0.87126 1 23491
9.5258 -5.8856 1.0447 1 22761
9.5712 -9.8595 0.6408 2 23788
9.5715 8.6455 1.2033 1 14974
9.5797 3.6428 0.71668 0 17669
9.5896 10.429 0.99068 1 14221
9.5915 0.06027 1.348 0 20133
9.6061 10.695 1.3412 0 14133
9.6075 10.57 2.0074 0 14182
9.6202 -1.2563 0.90514 2 20916
9.6307 -5.6458 2.1033 1 22645
9.6309 4.2157 0.24408 1 17305
9.64 -7.7176 0.2867 1 23376
9.641 6.1301 1.877 1 16166
9.6472 -9.8205 0.31961 2 23765
9.6569 -6.8122 1.6609 1 23090
9.6825 -1.2386 -0.45521 0 20897
9.6826 -4.9442 1.2714 0 22331
9.6914 -3.1022 0.94936 2 21511
9.6986 5.4805 2.0989 0 16561
9.7087 -7.2366 2.2814 1 23226
9.7189 5.9441 1.0629 1 16299
9.7364 -3.0232 0.47543 2 21481
9.7579 1.4322 1.8582 0 19155
9.7666 -7.4591 1.7271 0 23277
9.7765 6.1375 1.3499 0 16207
9.8127 -4.6238 0.75853 2 22147
9.8139 11.187 1.3884 0 14045
9.8376 -0.96805 0.92223 1 20758
9.8394 -8.4572 0.30123 1 23522
9.85 -4.6729 2.0541 2 22170
9.8694 -5.8623 1.6133 0 22672
9.8716 -0.16542 1.3876 2 20298
9.922 11.172 1.0448 1 14087
9.9318 -8.0944 0.29747 1 23415
9.9454 -2.7432 0.72142 0 21382
9.9769 1.7897 1.6653 1 18930
9.9771 -4.2515 2.0433 1 21930
9.9788 -6.951 1.4221 0 23058
9.9993 -10.475 1.351 1 23823
10.029 -6.7749 1.701 2 22984
10.034 4.3921 -0.2543 0 17304
10.052 -5.2797 0.79397 0 22392
10.058 0.82696 1.9015 1 19622
10.061 -10.669 0.34046 1 23844
10.066 -3.288 0.24585 0 21528
10.079 -3.6148 0.74877 0 21636
10.101 -0.37393 1.9045 2 20439
10.149 -4.9632 0.52686 1 22230
10.162 -4.3302 1.0305 2 21925
10.206 9.0553 0.31678 1 15034
10.235 3.6547 0.50683 1 17823
10.311 8.6798 1.5762 0 15232
10.354 10.143 2.3812 0 14633
10.357 -10.609 2.0837 0 23779
10.375 8.7331 0.94827 1 15230
10.385 10.472 0.68776 1 14516
10.392 -0.96225 1.2205 1 20727
10.393 0.21769 0.96979 0 20035
10.413 4.0975 0.52183 1 17584
10.415 -4.4726 0.26316 1 21939
10.415 10.444 2.0728 0 14544
10.426 0.42968 0.48661 1 19898
10.433 -6.4865 1.7266 1 22777
10.444 -9.4605 2.6551 1 23607
10.452 -3.7487 1.2986 1 21638
10.497 -0.66411 0.73551 0 20567
10.55 -4.6751 1.3494 0 22008
10.556 0.80482 0.49369 1 19654
10.563 -0.48337 1.7373 2 20484
10.583 -9.3664 1.3185 1 23562
10.593 -2.0457 1.0066 0 21147
10.658 -1.3294 0.50087 1 20885
10.72 -5.1639 1.6723 0 22198
10.73 0.19478 1.0012 2 20056
10.756 9.7701 1.6993 0 14951
10.852 1.0182 0.76216 2 19526
10.875 0.7967 0.5085 2 19676
10.876 -9.2992 1.335 1 23515
10.888 1.824 1.03 0 19006
10.94 -6.0366 1.4612 1 22501
10.946 -2.8167 1.3218 0 21339
11.007 1.2891 1.0339 0 19351
11.014 -6.7574 1.2056 0 22747
11.052 -1.183 1.5621 0 20811
11.064 -9.7924 1.7279 0 23563
11.084 -7.9646 1.2734 0 23132
11.097 -3.5862 1.9159 0 21524
11.11 -9.0546 1.6761 0 23419
11.121 -10.021 0.6981 1 23591
11.232 0.16861 1.048 0 20075
11.264 5.8112 -0.29427 0 16839
11.308 2.507 -0.26892 0 18648
11.474 -9.4114 0.34454 1 23428
11.595 -8.9582 1.0246 1 23301
11.952 -0.12934 -0.55742 0 20246
13.261 1.1275 -0.30898 0 19591
13.566 1.7908 1.9231 0 19245
-10.933 6.3939 -1.78 1 4150
-4.5073 9.7816 -1.5136 2 9035
-3.8617 12.429 -1.522 2 9912
-2.0169 14.154 -1.6719 1 10465
-0.43932 4.7447 -1.9903 0 10540
-0.28201 10.915 -1.5345 0 10625
2.3755 9.0807 -1.9951 0 11291
3.5197 2.5685 -1.82 0 15690
5.0725 5.2035 -1.7218 1 14459
