VERSION .7
FIELDS x y z intensity index
SIZE 8 8 8 8 8
TYPE F F F F F
COUNT 1 1 1 1 1
WIDTH 749
HEIGHT 1
VIEWPOINT 0 0 0 1 0 0 0
POINTS 749
DATA ascii
-4.8672 0.77525 -0.45982 1 3785
-4.6802 1.1271 0 0 3864
-4.6325 0.73786 0.21876 0 3786
-4.6295 1.7309 0.46112 0 4055
-4.5626 1.9367 0.11508 1 4123
-4.5456 0.058711 0.85651 0 3696
-4.4419 0.082962 0.41448 0 3700
-4.3265 1.3368 0.85318 0 3944
-4.233 -0.68788 0.808 0 3522
-4.2191 1.5082 0.41801 0 4028
-4.1969 -0.20086 -0.29381 1 3647
-4.168 -0.11424 0.4876 0 3669
-4.161 1.4206 0.10208 0 4002
-4.0571 2.0949 -0.97053 0 4343
-4.0468 1.7596 -0.10245 0 4138
-4.0144 1.1277 0.29158 0 3907
-3.9909 -2.8921 0.11443 0 3453
-3.9387 0.41814 -0.36952 0 3752
-3.8634 1.5359 0.19388 0 4079
-3.8609 -0.028302 -0.08964 0 3684
-3.842 1.1155 -0.37324 1 3918
-3.762 -2.6627 -0.21494 1 3464
-3.6694 0.016011 0.69136 0 3690
-3.6387 2.242 -1.1189 0 4578
-3.5331 1.1835 -0.61217 2 3986
-3.4874 0.32842 0.32679 0 3742
-3.3484 3.499 0.56635 0 5804
-3.3415 1.2169 0.16584 0 4040
-3.168 -2.4556 0.65853 0 3424
-3.0704 3.6039 -1.2394 1 6163
-3.0652 2.9169 -0.69517 0 5505
-2.9731 1.8795 -0.24596 1 4619
-2.9722 3.7688 -1.4977 1 6360
-2.9426 3.2373 -0.10157 0 5964
-2.9329 -2.6334 0.18382 1 3361
-2.8612 2.4662 0.6206 0 5285
-2.7679 4.0078 0.22714 0 6718
-2.7557 1.9985 0.64137 1 4913
-2.7362 2.2102 -1.3735 0 5125
-2.7117 1.7806 0 0 4708
-2.6542 4.0669 -1.2713 0 6852
-2.6148 2.9796 -1.1367 0 6076
-2.5315 2.0216 -0.6886 0 5107
-2.4313 -3.9706 0.43436 0 3081
-2.4056 3.3366 -1.0768 0 6619
-2.2128 -3.2659 -0.09159 0 3125
-2.0784 3.6058 0.38829 1 7167
-1.8355 3.967 0.82356 0 7741
-1.7745 3.343 0.53192 0 7399
-1.7456 3.6351 0.37621 0 7650
-1.7379 4.3737 -1.3495 0 8040
-1.7159 -3.7652 0.48388 0 2861
-1.7095 3.6412 -1.3592 0 7697
-1.626 3.5695 -0.83373 0 7770
-1.5187 -4.3611 0.43083 2 2698
-1.4722 -2.6747 0.5016 0 3026
-1.3558 -4.4236 0.10742 2 2641
-1.3319 3.7968 0.18764 0 8265
-1.2659 4.5616 0 0 8669
-1.2177 -3.3114 0.16453 0 2718
-1.1502 -4.6548 0.2236 0 2545
-1.022 4.3573 0.52338 0 8951
-0.88664 3.5935 -0.96894 1 8874
-0.85565 -3.5504 0.17031 0 2537
-0.84062 4.5983 -1.2237 0 9276
-0.78681 4.5933 0.54498 0 9358
-0.54255 -4.584 0 0 2274
-0.48787 3.3772 -1.4253 1 9514
-0.21021 -3.3412 0.2341 0 2132
-0.10988 -3.9338 0.55307 0 2075
0.014953 -3.725 -0.086483 0 2034
0.24022 -3.2556 0.15223 0 1993
0.39969 -4.3918 0.51571 0 1979
0.72524 4.9232 -1.3027 0 11300
0.8559 4.3828 0.52221 0 11591
1.0974 -3.1621 0.54991 0 1834
1.0974 3.9094 -1.372 0 12049
1.2888 3.9244 0.67864 0 12291
1.2916 -2.9327 -0.14944 1 1812
1.498 -4.4874 -0.22062 0 1837
1.5322 -4.2581 0.74348 0 1828
1.9246 3.5729 0.47459 0 13221
2.1021 -3.0144 0.085323 0 1607
2.2137 3.0169 -0.97958 0 13776
2.4618 2.6335 -0.083698 0 14065
2.4702 -2.0486 0.074507 0 901
2.5602 -3.1025 0.56532 2 1351
2.6544 -1.9901 0.54505 0 793
2.6934 -1.4369 0.28481 0 248
2.7024 3.4047 -0.10092 0 13862
2.7095 3.4555 0.72144 0 13853
2.7817 -1.9856 0.23899 0 712
2.8342 2.2111 -0.5052 0 14202
2.9351 2.3998 -0.80587 0 14182
2.9621 2.4653 0.45066 0 14175
2.9736 -2.8556 0.67734 0 1012
3.0053 3.2877 -0.73181 1 14039
3.0062 2.0132 -0.94716 0 14245
3.0342 0.29698 -1.2734 0 15906
3.0399 3.7648 0.91169 0 13887
3.0776 -0.20873 -0.14385 0 16769
3.1173 1.2931 0.4743 0 14554
3.153 3.7897 -1.0479 0 13926
3.1564 3.7723 0.22938 1 13931
3.1863 0.20047 0.44869 0 16194
3.235 2.957 0.10176 0 14136
3.2627 2.529 0.38513 0 14204
3.335 0.50258 -0.79912 0 15574
3.36 3.5124 -0.11285 0 14078
3.3907 -0.63946 0.40351 0 17028
3.4289 0.50755 0.16164 0 15586
3.4854 -3.5654 -0.58308 2 1067
3.547 2.8672 0.31893 0 14188
3.6066 -2.6707 0.73732 0 775
3.8467 0.67205 0.090661 0 15463
4.1853 -1.212 0.2032 0 17162
4.2213 -0.80831 0 2 17033
4.2372 -0.18722 0.79912 0 16713
4.2975 -1.9821 0.77753 0 12
4.4939 -2.1195 0.11536 0 46
4.4941 -0.44857 -0.42136 1 16846
4.512 -0.016537 0 0 16553
4.5421 -0.10863 0.63853 0 16646
4.6038 -1.703 0.45796 0 17281
4.6896 0.69418 -0.11007 0 15582
4.7081 0.87855 0.56008 1 15413
-2.5407 0.15139 0.11869 0 3718
1.6909 -2.1098 0.44421 2 1398
-14.542 0.65272 -1.3581 0 3709
-14.095 4.9471 -0.34682 0 4017
-13.046 -1.8498 -0.30592 0 3538
-12.528 1.9552 0 0 3783
-12.121 -0.54194 1.9934 0 3652
-12.103 -0.68727 -0.28145 0 3639
-11.644 -2.0636 1.9429 0 3508
-11.17 0.47012 1.5713 0 3708
-10.925 -0.29945 1.7956 0 3670
-10.831 -1.8552 1.0252 0 3511
-10.784 0.48402 1.2623 0 3711
-10.561 -0.32268 1.736 1 3667
-10.497 1.2368 -0.24538 0 3763
-10.492 2.1117 -0.49909 0 3829
-10.313 1.5505 -0.24214 0 3779
-10.221 1.1157 0.9592 0 3757
-10.127 1.6421 0.95716 0 3789
-9.95 2.0298 -0.47357 0 3831
-9.8861 -0.61505 1.6274 0 3633
-9.8522 -0.30101 -1.1527 0 3665
-9.8234 -6.4062 2.2096 0 3487
-9.6426 9.7271 -1.2778 2 5697
-9.6209 7.9648 0 0 5191
-9.5495 0.89933 1.348 0 3743
-9.5442 0.70758 0.89288 0 3725
-9.4438 0.15 -0.88117 0 3697
-9.3844 -6.9315 2.1981 0 3446
-9.3794 0.91305 -0.43947 0 3744
-9.3651 -8.8098 1.807 0 3335
-9.3174 0.44429 0 0 3712
-9.3103 -0.17552 0 0 3677
-9.2509 1.1162 0 0 3764
-9.1937 -0.28089 0.42894 0 3666
-9.0709 2.8339 1.1113 0 3950
-9.0162 3.2834 -0.22278 0 4039
-9.0133 -1.4647 -0.21201 0 3519
-8.984 -1.0061 -0.42158 0 3593
-8.9459 4.4583 -0.23206 0 4302
-8.9084 0.76372 1.0456 0 3734
-8.819 3.7725 0 0 4129
-8.8101 3.4402 0 0 4070
-8.7719 2.7405 0 0 3948
-8.7408 -1.6263 1.4607 0 3507
-8.6452 1.0707 1.4312 1 3767
-8.6092 1.3189 -0.20221 0 3782
-8.603 -7.6327 -0.26702 0 3367
-8.5589 -0.06274 0.59851 0 3685
-8.5165 7.2584 1.8384 0 5258
-8.5099 7.8692 1.9043 0 5442
-8.4701 10.55 -1.2622 2 6308
-8.4562 0.50387 0.79032 1 3719
-8.3919 1.5115 -0.79553 0 3807
-8.3916 1.3847 0.79348 1 3793
-8.3696 5.0888 1.1455 0 4565
-8.3605 -0.76528 0.58707 0 3603
-8.3087 1.4232 1.5882 0 3801
-8.297 1.2948 1.1802 0 3784
-8.2177 2.6717 1.0105 0 3970
-8.197 0.29627 -0.76524 0 3706
-8.1812 0.12995 0.95685 0 3698
-8.119 4.8073 0.21906 0 4518
-8.0638 -6.0237 0.23369 0 3440
-7.9473 -0.26642 -0.9299 0 3663
-7.9413 2.4537 0.58121 0 3943
-7.8417 0.71641 -0.92084 0 3736
-7.8382 1.7406 -0.74908 0 3842
-7.7728 12.625 1.3832 1 6999
-7.6935 6.9516 0.96738 0 5376
-7.6905 2.4514 1.3261 0 3957
-7.69 -1.2689 0 0 3515
-7.6826 4.054 -1.2208 0 4359
-7.6488 -0.098793 1.4412 0 3681
-7.6287 -5.9132 0.90049 0 3423
-7.6026 12.835 1.0431 1 7087
-7.5975 11.142 -1.2581 2 6743
-7.5941 -0.51771 0.35497 0 3627
-7.5804 1.4104 0.71936 0 3818
-7.5524 0.95811 0.71025 0 3768
-7.5259 0.38125 0.52694 0 3714
-7.5069 7.1437 -0.48326 0 5511
-7.5041 -9.178 1.3864 0 3213
-7.49 -0.51062 1.2334 0 3629
-7.4795 -11.535 2.2587 0 3106
-7.4767 -0.9273 0.17492 0 3578
-7.4685 -0.33392 0 0 3651
-7.4367 5.1379 1.703 0 4813
-7.3902 1.9374 0.89343 0 3893
-7.3863 1.2652 0.34947 0 3800
-7.3637 4.9594 0 0 4759
-7.3581 1.8838 -0.53113 1 3885
-7.283 8.3487 -0.77472 0 6088
-7.2731 4.1941 0.19492 0 4474
-7.2202 12.7 1.3629 1 7207
-7.2178 2.5093 1.2555 0 4013
-7.1756 11.276 -1.247 2 6916
-7.1717 12.19 1.9877 0 7110
-7.1616 5.0072 1.0219 0 4832
-7.1424 6.0486 -0.2173 0 5239
-7.1398 2.0271 -0.17232 0 3911
-7.0873 2.722 0 0 4063
-7.0346 0.93362 0.33093 0 3773
-7.0055 3.5173 1.2879 0 4313
-7.0033 1.6632 -0.16712 0 3859
-6.9852 3.6069 0.36661 0 4341
-6.9789 6.1247 0.64929 0 5319
-6.9653 0.90216 0.65526 0 3771
-6.9394 2.9228 -0.35115 0 4115
-6.9387 2.7332 0.69576 0 4075
-6.9225 -9.0379 1.3313 0 3183
-6.875 -0.39039 0.64244 0 3640
-6.8526 10.983 1.5139 0 6968
-6.8013 0.070038 0.7954 0 3694
-6.7385 11.532 -1.2461 2 7118
-6.7164 4.0054 0.72957 0 4531
-6.6944 5.1871 -0.39493 0 5047
-6.6925 7.9928 0.97258 0 6207
-6.6687 5.8175 -0.20546 0 5306
-6.6633 0.66979 0.62479 0 3747
-6.6579 1.001 0.31397 0 3781
-6.6328 -5.108 -0.19437 0 3427
-6.6316 -5.3586 1.6064 0 3406
-6.6284 2.2204 0.81747 0 3992
-6.6171 -0.6057 -0.30987 1 3602
-6.6005 8.0241 0 0 6253
-6.4775 -4.6101 0.55596 0 3463
-6.4504 5.5954 0.59712 0 5295
-6.3951 -0.25015 0 0 3659
-6.3329 0.72715 1.0473 0 3761
-6.313 4.6069 1.0984 0 4922
-6.2583 8.5259 1.7376 0 6570
-6.2331 -8.2867 -0.24074 0 3173
-6.2242 -8.0329 1.4282 0 3188
-6.2027 3.0683 0.16067 0 4293
-6.172 -9.5186 1.5944 0 3105
-6.1648 -8.1454 0.23717 0 3177
-6.1455 -7.7398 1.3889 0 3198
-6.1089 5.025 0.92502 0 5181
-6.0908 2.1772 -0.15017 0 4027
-6.0783 1.2964 -0.57983 0 3834
-6.0299 -7.375 1.5651 0 3214
-5.942 4.3361 0.86021 0 4921
-5.9174 -4.032 0.50071 0 3477
-5.8973 -10.289 0.55304 1 3048
-5.8812 13.748 2.4568 0 7901
-5.8713 1.2523 0.41979 0 3836
-5.8523 -10.933 -0.28791 0 3005
-5.8088 6.9374 0.42195 0 6205
-5.8 2.8264 0.75451 0 4278
-5.7713 4.0592 1.3294 0 4847
-5.7607 12.083 -1.2488 2 7658
-5.7275 6.7226 0.20504 0 6161
-5.7268 1.2717 0.82446 0 3846
-5.6347 -4.5239 -0.16777 0 3409
-5.5874 7.2501 1.5038 0 6419
-5.5627 -4.7949 0.34248 0 3378
-5.5522 -0.75168 0.92052 1 3557
-5.4052 4.6345 1.0007 0 5269
-5.3909 1.6842 -0.26338 0 3947
-5.3537 -11.656 1.5 0 2867
-5.3446 1.8247 0.52688 0 4003
-5.3384 -5.139 0.17204 0 3333
-5.3343 -11.434 1.1771 0 2879
-5.331 1.2976 0.64162 0 3874
-5.3231 -5.3343 1.0591 0 3326
-5.3017 2.6422 -0.27624 0 4301
-5.2761 6.0481 0 0 6091
-5.2183 2.0209 0.26096 0 4066
-5.2181 6.9828 1.4322 0 6523
-5.1318 -8.1145 1.8089 0 3093
-5.0063 6.5386 0.38403 0 6433
-5.0022 8.1725 1.3466 0 7015
-5.0011 -0.79657 0.832 0 3523
-4.9888 -5.1194 1.1744 0 3321
-4.9541 7.7405 -0.85739 0 6897
-4.8871 1.1463 0.35101 0 3857
-4.862 2.7295 0.52019 1 4427
-4.8468 7.2455 -1.4322 0 6780
-4.8266 -8.7687 -0.23239 0 3025
-4.7939 12.707 -1.267 2 8129
-4.7884 -4.2738 0.75057 2 3364
-4.7444 -4.6493 0.77682 0 3331
-4.7025 -4.4485 1.0635 0 3334
-4.6685 5.9199 0.70338 1 6362
-4.6506 3.584 -1.3912 0 5041
-4.6059 2.7828 -1.0139 0 4558
-4.5854 6.6842 0.18819 0 6732
-4.5789 14.076 2.4318 0 8387
-4.5609 -8.9591 1.6517 0 2965
-4.5137 -5.2644 0.32338 0 3244
-4.5095 2.5659 -1.2293 0 4450
-4.489 -10.319 1.0499 0 2818
-4.4796 -4.8989 0.15412 1 3288
-4.4715 3.5913 0.94224 0 5118
-4.3952 3.0162 -0.12376 2 4794
-4.3754 -14.126 0.68962 1 2646
-4.3317 -4.0521 -0.41477 0 3338
-4.3259 -14.256 0 0 2632
-4.2909 -10.183 0.51531 2 2797
-4.2892 -6.1325 1.2295 0 3142
-4.2864 6.5679 1.2885 0 6855
-4.2706 -6.6674 0.18383 0 3098
-4.2308 5.6617 0.82653 0 6522
-4.2254 4.2372 0 0 5680
-4.2187 -6.8896 1.1354 0 3083
-4.2166 -9.4661 0.48326 1 2836
-4.1644 -8.4782 0.44049 0 2923
-4.1409 3.0775 -0.72509 0 4953
-4.1174 3.1537 -0.24186 2 5025
-4.0798 3.559 0 0 5307
-4.0777 -13.592 0.32945 1 2626
-4.0126 4.9657 0.59562 0 6302
-4.0003 4.326 0.82808 0 5917
-3.9728 -4.101 0.26627 0 3317
-3.926 13.976 2.3851 1 8658
-3.92 3.4609 -1.1115 0 5335
-3.9196 8.0434 0.20774 0 7608
-3.9062 4.9782 0.88932 0 6377
-3.8563 6.222 0.85603 0 6984
-3.8422 -3.5306 0.85729 0 3348
-3.8275 13.934 2.7225 0 8695
-3.8258 4.1854 0.13165 0 5948
-3.8052 6.8761 1.1045 0 7289
-3.7979 -7.1942 0.37938 0 2993
-3.7967 14.493 1.752 1 8772
-3.7809 -5.3757 -0.15259 0 3145
-3.761 4.0459 0.90755 0 5900
-3.7511 -6.9115 0.73366 0 3018
-3.7457 -4.475 0.95878 0 3229
-3.7023 4.5557 0.13629 0 6287
-3.701 -8.8607 1.1229 0 2794
-3.6813 4.6916 -0.2781 0 6372
-3.6231 6.8661 -1.4627 0 7418
-3.6088 -4.1617 -0.12789 1 3255
-3.5983 3.8913 0 0 5910
-3.5789 7.0758 0.36978 0 7517
-3.5626 4.882 -1.1387 0 6586
-3.546 10.901 0.26614 0 8384
-3.4226 -6.8707 -0.17821 0 2937
-3.3415 -9.7821 0.9644 0 2691
-3.2517 4.5386 -1.1868 0 6635
-3.1398 3.9557 0.70978 0 6345
-3.1126 5.4747 -1.4922 0 7210
-3.1116 -9.278 1.8437 0 2683
-3.0499 5.6595 0.29981 0 7359
-3.0396 7.1677 0.36307 0 7914
-3.0274 8.2461 1.4432 0 8183
-2.9792 -11.348 1.6489 0 2567
-2.9575 7.383 1.3067 0 8030
-2.9445 6.3202 0.32515 0 7716
-2.9283 5.9198 -1.4038 0 7579
-2.8918 -7.9279 1.3865 0 2715
-2.7952 -7.8109 0.77398 0 2707
-2.7735 -12.795 -0.30397 0 2501
-2.7641 5.2381 0.97305 0 7417
-2.7492 8.5423 -1.2612 0 8390
-2.7318 4.3785 0.84789 0 6970
-2.7071 10.445 0.50319 1 8790
-2.6489 -5.6369 -0.1446 0 2882
-2.623 4.7712 0.38073 1 7305
-2.5945 4.4399 0.23981 0 7125
-2.55 -4.4797 0.11967 0 3043
-2.5433 14.365 1.0201 1 9314
-2.5403 14.104 2.0141 0 9296
-2.4879 -6.3094 -0.15746 0 2751
-2.4787 -8.9137 1.52 0 2587
-2.4615 8.7628 0 0 8652
-2.4571 4.6289 -0.12167 1 7391
-2.3952 -7.5051 0 0 2659
-2.3921 -5.33 0.6832 0 2847
-2.3437 5.0652 0.91695 1 7739
-2.3378 -8.3115 0 0 2588
-2.3203 -10.002 0 0 2528
-2.308 14.789 1.7504 2 9446
-2.2025 -6.7626 0.33167 0 2670
-2.1957 -7.3985 0.90249 0 2623
-2.1189 -5.2419 0 0 2771
-1.9905 14.703 1.7351 0 9574
-1.9186 -8.6187 1.4507 0 2514
-1.8974 8.4194 0.80519 1 9007
-1.8074 9.5563 0.90737 0 9236
-1.7476 -7.4394 -0.17742 0 2532
-1.7262 12.205 2.0252 1 9539
-1.7164 7.8326 1.3174 2 9047
-1.6883 7.3012 0.34947 0 8966
-1.6867 9.5268 1.3597 0 9318
-1.626 -5.6592 0.82752 0 2605
-1.5829 14.886 1.0468 1 9756
-1.4284 9.153 0.86427 1 9445
-1.3464 -7.4529 0.52959 0 2430
-1.3438 -6.4777 1.2464 0 2485
-1.318 8.5932 -0.20184 0 9457
-1.2983 6.4621 0.92634 0 9166
-1.213 -8.195 1.5608 0 2344
-1.1838 -6.553 0.62126 0 2431
-1.0904 9.0242 0.63562 0 9663
-1.0865 -7.6536 1.2701 1 2325
-1.0094 -5.684 0.53859 0 2420
-0.96922 -9.0842 1.0684 0 2251
-0.9243 8.4946 -0.39847 0 9732
-0.91269 9.6913 -0.68068 0 9825
-0.8636 14.536 2.7436 0 10082
-0.7939 -7.0556 0.16484 0 2263
-0.7903 -10.61 -0.24701 0 2160
-0.7886 -7.0085 0.99119 0 2265
-0.7358 8.8926 1.6812 0 9918
-0.72693 -7.896 -0.36978 0 2205
-0.67803 13.431 1.89 1 10127
-0.66816 9.0554 0 0 9967
-0.64661 -7.7653 0.72697 0 2186
-0.63729 -8.9124 0.83361 1 2156
-0.63712 13.361 2.1977 1 10146
-0.61004 7.3727 0.51731 0 9909
-0.46076 -14.91 2.0965 0 2079
-0.43236 14.232 1.6651 0 10251
-0.25282 -5.933 0.97564 0 2099
-0.21299 -7.625 0 0 2072
-0.19831 7.2353 0.16805 0 10265
-0.19149 -7.6707 1.2606 0 2069
-0.13229 10.242 0.47767 1 10347
-0.12103 -5.4592 -0.12678 0 2064
-0.075009 7.6743 0.71601 0 10365
-0.064941 8.859 1.4555 1 10385
0.079487 10.844 0.50571 1 10465
0.1151 -5.3609 0.25006 0 2023
0.12685 -8.1656 0.7619 0 2026
0.19664 -8.1039 1.1393 1 2020
0.2092 -7.7311 0.17956 0 2016
0.3017 -12.434 2.0434 0 2021
0.30372 -6.0372 0.70689 0 2002
0.30766 -8.5951 0.8024 0 2010
0.37252 -7.0145 0.32757 0 2000
0.48303 -7.4291 1.0463 0 1996
0.53563 -10.086 0 0 1999
0.59903 -8.1185 0.95197 0 1994
0.68129 13.402 -1.252 2 10710
0.70293 5.9658 0.70248 1 11117
0.76067 -6.1773 0 0 1951
0.77359 -7.7504 0.91085 0 1971
0.78393 -5.6786 -0.13309 0 1940
0.83413 -9.4581 0.88582 0 1981
0.8359 -6.1906 0.43682 0 1942
0.85659 -5.7179 0.26962 0 1930
0.90127 -11.35 1.6002 0 1989
0.90164 5.3593 -1.1552 0 11434
0.99167 -5.3454 0.76406 0 1915
1.0014 -8.3117 1.3754 0 1955
1.0088 7.2885 0 0 11239
1.0418 5.7785 0.27382 0 11504
1.0596 -9.257 -0.21632 0 1959
1.0825 -7.3749 0.34761 0 1932
1.1611 -10.705 1.5134 0 1965
1.1862 -7.7606 1.2898 0 1928
1.2376 -12.806 1.2003 0 1973
1.2777 5.9907 0.57147 0 11700
1.293 5.9751 -1.2994 0 11720
1.3328 -9.2606 1.3149 0 1935
1.4788 5.7098 -1.1113 0 11941
1.482 5.2163 0.3792 0 12067
1.5656 -5.5885 0.27065 0 1855
1.6591 -8.7974 1.6867 0 1913
1.6644 7.0083 -1.3572 0 11828
1.6726 -11.856 1.9672 0 1938
1.7083 -6.771 1.3157 0 1872
1.7487 8.8152 0.83844 0 11609
1.8817 -8.9759 1.5067 0 1900
1.9397 -10.13 1.2061 0 1911
1.9918 -5.5873 0.83365 0 1829
2.013 14.811 2.8162 0 11231
2.1 -12.509 2.0839 0 1922
2.1282 7.5816 1.1067 0 12055
2.2165 -4.6933 0.85275 0 1801
2.2838 11.195 0.53282 1 11644
2.2988 -6.9427 1.3779 0 1839
2.4241 -6.0119 -0.45328 0 1818
2.4416 11.78 -1.4068 2 11656
2.4723 -12.328 2.0657 0 1905
2.4785 14.732 2.8147 1 11437
2.497 -7.5414 0 0 1838
2.5048 14.638 2.4399 1 11456
2.5083 4.9592 0.91306 0 13079
2.514 -4.6148 0.49028 0 1767
2.5363 -5.3318 0.55085 0 1798
2.6058 5.809 -1.046 0 12822
2.656 6.3588 -0.48188 1 12683
2.6648 8.5296 0.62488 0 12206
2.67 -13.521 1.937 0 1908
2.7586 -4.2091 0.23469 1 1672
2.7771 12.496 2.103 0 11755
2.8759 6.8851 0.69613 0 12691
2.8873 4.9095 -0.93576 0 13395
2.9543 4.0737 0.46948 2 13759
2.985 -8.4386 1.0468 0 1830
3.0352 -7.6583 0.96335 0 1820
3.0999 4.7808 -0.26571 0 13567
3.1085 13.594 1.6308 0 11782
3.1902 4.6505 0.52614 0 13668
3.2456 4.239 0.49809 0 13823
3.2566 5.2523 0 0 13494
3.2653 6.4559 0.84604 0 13077
3.3128 -6.2541 -0.66028 1 1776
3.3575 -4.1639 0.37403 0 1383
3.3643 -4.1016 0.87156 0 1360
3.3707 3.8871 0.8453 0 13984
3.4114 -6.4404 0.33987 0 1777
3.5431 3.5767 0.23478 0 14099
3.5803 5.2525 0.74336 0 13658
3.6745 -4.272 1.0617 0 1286
3.6916 -7.1615 0.75168 0 1785
3.7165 -4.0064 0.89782 0 1149
3.7305 4.5094 -0.13588 0 13912
3.7505 7.3134 0.38329 0 13102
3.8169 3.8963 -0.50886 0 14092
3.8189 4.2295 0.1323 0 14031
3.8908 4.7032 -0.85786 0 13907
3.9038 7.0981 0.94733 0 13270
3.9488 6.4087 1.4183 0 13488
4.0277 -6.2259 1.0421 0 1689
4.1506 -8.354 1.311 0 1791
4.1512 3.7747 -0.92182 0 14139
4.1592 -4.304 0.69992 0 1084
4.1599 6.9783 0.5681 0 13431
4.1803 3.3996 0.25127 0 14185
4.202 -3.7623 0.3944 0 957
4.2419 -4.7912 -0.89934 1 1229
4.2697 8.6964 1.1329 0 13014
4.312 13.659 -1.3363 2 12214
4.3149 -3.6002 -0.52428 2 905
4.3181 9.4097 -0.24037 0 12876
4.4302 2.3725 -1.441 2 14318
4.441 2.6832 0.60677 0 14269
4.4499 5.2845 0.32217 0 13941
4.4622 -7.2137 1.3936 1 1735
4.4666 -8.0813 0.21437 0 1764
4.6054 5.0383 0 0 14042
4.6916 6.2034 1.2778 0 13812
4.7192 2.3694 0.1226 0 14350
4.7221 -2.5543 0.50087 0 269
4.7496 -2.3248 0.74318 0 107
4.7698 3.744 -0.56571 0 14199
4.812 13.703 -1.3549 2 12378
4.8305 9.0353 0.95586 0 13202
4.8513 -5.8788 0.89134 0 1350
4.8749 8.1777 1.7938 0 13435
4.9942 2.7866 0.6688 0 14296
4.9998 4.0879 -0.14994 0 14181
5.0231 -7.1578 -0.40779 0 1596
5.0334 -6.4309 1.3417 0 1439
5.0616 -7.824 1.0897 0 1688
5.1128 4.3591 0.62683 0 14167
5.1416 -6.8107 1.402 2 1500
5.1539 11.144 0 0 12889
5.1656 4.2235 -0.93775 0 14179
5.1661 -8.4073 1.6212 0 1740
5.1661 -0.049593 -0.24093 0 16582
5.1663 3.6823 -0.1473 0 14228
5.1664 3.8187 -1.3656 0 14219
5.174 5.6306 1.0747 0 14050
5.2 12.554 -0.31548 0 12669
5.2192 -0.39793 -0.2441 0 16791
5.2257 -2.0185 0 0 17321
5.23 -3.9468 1.0765 0 803
5.2321 4.4861 0 0 14162
5.2893 -0.58862 0 0 16877
5.3298 -5.8451 1.1117 0 1181
5.3328 5.3833 0.52987 0 14100
5.4095 3.0593 1.021 0 14294
5.4609 -6.4988 1.193 0 1323
5.4643 0.93796 -0.64835 0 15473
5.4701 1.2017 -0.13003 0 15278
5.5411 -0.58435 0.51982 0 16863
5.5638 -0.053411 0.65068 1 16586
5.6234 -5.1818 0.71341 1 985
5.6286 6.055 0.38552 0 14059
5.6837 -12.035 0.62068 1 1800
5.7087 5.4344 0.73533 0 14126
5.7192 -7.3519 1.3091 0 1450
5.7708 7.7647 0.6765 0 13790
5.8284 8.7129 1.2259 0 13627
5.856 11.669 1.8349 0 13061
5.8773 -6.7921 1.6923 0 1275
5.9332 -2.988 1.2516 0 157
5.9609 -1.2681 1.0013 1 17065
5.9664 8.179 1.9074 0 13768
5.9784 0.46421 0.13922 1 16079
6.0059 -6.1438 0.19947 0 1070
6.0166 4.779 0.89854 0 14195
6.1371 -8.3333 1.7003 0 1532
6.1446 -7.711 1.6199 0 1409
6.1505 6.0631 -0.80574 1 14112
6.1567 -3.2846 0.16201 0 245
6.2059 1.7059 0.60045 0 15046
6.2572 4.6538 0.72753 0 14216
6.2667 -0.93769 1.1939 0 16962
6.2681 -1.314 0.44784 0 17059
6.2795 1.1525 1.0489 1 15430
6.3127 8.3985 1.2286 0 13805
6.3751 -0.46816 1.0502 0 16784
6.3832 3.8324 0.87067 0 14273
6.41 1.9255 0.62442 0 14953
6.4189 -2.6536 1.3087 0 17395
6.4616 7.4123 0.45857 0 13989
6.5121 1.8121 -0.47267 0 15026
6.5207 10.319 2.0054 0 13530
6.5348 0.79427 -1.3992 0 15748
6.5409 -4.645 1.318 0 702
6.5613 2.4793 -0.16285 0 14665
6.6042 7.5759 -0.93765 0 13986
6.6379 -4.8298 0.38282 0 743
6.639 3.6785 0.17622 0 14300
6.6501 5.2501 1.1908 0 14198
6.6607 -2.4414 0 0 17271
6.6965 -6.8097 -0.66785 0 1060
6.7431 -0.22016 0.31462 0 16676
6.7573 3.6187 -1.2594 0 14317
6.791 -2.6014 0.50852 0 17314
6.8422 1.4631 0.48927 0 15304
6.8509 6.7937 -1.1283 0 14106
6.8876 2.3099 -1.1935 0 14808
6.9282 1.6928 0 0 15181
6.9853 -4.8369 1.1941 0 659
7.0899 1.028 0 0 15601
7.0937 -2.6947 0.88739 0 17305
7.2012 -1.2918 0.85557 0 17017
7.2141 -2.1575 0.35115 0 17173
7.2149 -0.72014 1.019 0 16848
7.2304 4.9954 -1.4438 0 14233
7.245 0.32899 0.67662 0 16305
7.2644 -1.5879 -0.34677 1 17073
7.3095 3.2819 -0.56028 0 14462
7.3617 -5.6529 0.86594 2 826
7.3859 2.5475 -0.54633 0 14778
7.4079 -2.9121 1.1187 0 17342
7.4381 8.6844 1.0668 0 13965
7.4725 -2.1187 0.9083 0 17156
7.4995 2.9829 0.75298 0 14604
7.5035 2.2754 1.102 0 14940
7.5054 -3.1781 0.76041 0 17421
7.6613 3.2805 -1.1713 0 14511
7.6645 6.2332 -0.92167 0 14184
7.6968 1.8578 0.18383 0 15194
7.7635 -1.2532 0 0 16983
7.769 6.3929 -1.414 0 14176
7.8053 2.0987 -1.1359 0 15064
7.8196 -0.61816 0 1 16799
7.844 8.5363 1.3557 0 14049
7.8472 -6.3955 0.70789 0 884
7.863 6.7037 0.72254 0 14166
7.8734 8.3201 0.26595 0 14071
7.8791 4.7605 -1.2938 0 14267
7.9842 -2.4639 -0.194 0 17183
8.0054 3.2133 1.6253 0 14597
8.0622 4.6829 0.86984 0 14283
8.0752 6.7615 1.2317 0 14173
8.0889 2.2235 0.39121 0 15043
8.197 2.8802 -0.81058 0 14755
8.1989 4.8585 1.7956 0 14278
8.1996 5.2863 0 0 14253
8.2 -1.3472 0.77528 0 16988
8.3262 -2.9436 1.2411 0 17248
8.3701 -5.1715 1.8537 0 478
8.4011 7.1626 0 0 14165
8.4165 1.9524 1.6279 0 15241
8.4395 3.3006 0 0 14622
8.4561 5.6246 1.6685 0 14248
8.4955 7.5426 -1.0599 0 14146
8.5753 -5.1995 0.93561 0 447
8.5798 6.3418 1.4995 0 14218
8.7001 -4.0163 0.89399 0 17549
8.7296 -5.8971 1.7308 0 617
8.7672 -4.5135 1.1531 0 191
8.8344 -7.5507 1.0842 0 929
8.843 -2.812 0.64887 0 17194
8.8792 2.583 1.7423 0 14989
8.8797 6.0983 1.5139 0 14236
8.9156 4.129 -0.45819 1 14432
8.9354 0.12321 -0.41674 0 16468
8.9608 -3.8258 1.6008 0 17432
9.0924 -1.4417 0.85888 0 16978
9.1698 6.983 1.0753 0 14210
9.188 3.9665 -1.4065 0 14502
9.208 -3.4391 0.45838 0 17290
9.3447 4.5901 -0.24172 0 14369
9.3467 -2.2716 1.8123 0 17109
9.3508 3.1651 0.69031 0 14802
9.4051 -5.1555 1.0006 0 291
9.4389 8.7283 0.59953 1 14135
9.4582 -2.2428 1.3661 0 17102
9.5048 -3.3602 0.23406 0 17246
9.5664 -0.035063 0.89251 0 16557
9.5686 -3.2276 1.9026 0 17220
9.631 5.556 1.5626 0 14286
9.732 2.9512 1.6708 0 14942
9.7694 -0.88736 1.3786 0 16827
9.9034 -2.0437 1.9052 0 17055
9.9325 1.2072 -0.69966 0 15737
10.003 -3.2482 1.7279 0 17202
10.088 2.8374 -1.4727 0 15010
10.318 -3.5467 1.0179 0 17230
10.368 7.1203 2.0664 0 14237
10.379 -4.6101 1.0595 0 17488
10.428 6.2609 1.1348 0 14272
10.5 -0.58887 1.2298 0 16738
10.516 -1.2968 1.7409 0 16902
10.818 5.3983 1.9863 0 14359
10.978 -0.16862 0.2549 0 16608
11.1 6.9765 2.1539 0 14259
11.18 5.5788 2.354 0 14361
11.189 -0.072256 2.1081 0 16574
11.223 -4.1516 1.6818 0 17282
11.355 5.9516 -0.29766 0 14321
11.432 -4.6094 1.4414 0 17368
11.675 -1.5391 1.9347 0 16925
12.247 -1.6885 1.7374 0 16938
12.336 0.27562 2.0272 0 16430
12.675 -1.5967 2.0988 0 16911
12.873 -2.0044 0.30248 1 16973
14.488 0.03034 0.67565 1 16526
14.967 0.37886 0.69819 1 16411
-8.857 5.8556 -1.7444 0 4716
2.9512 2.9092 -1.5083 0 14114
5.5482 7.9917 -1.833 0 13695
