VERSION .7
FIELDS x y z intensity index
SIZE 8 8 8 8 8
TYPE F F F F F
COUNT 1 1 1 1 1
WIDTH 1544
HEIGHT 1
VIEWPOINT 0 0 0 1 0 0 0
POINTS 1544
DATA ascii
-8.3043 3.3568 0.83566 0 6839
-8.2443 -1.0766 1.1685 0 5714
-8.0884 3.7992 -0.62488 0 7087
-8.0713 1.5236 1.3495 0 6396
-8.0667 1.7913 1.3576 0 6458
-8.0385 2.9004 0.99936 0 6699
-7.9689 -0.45669 0 0 5864
-7.9573 0.35438 1.3086 0 6114
-7.9314 -1.1981 0.93803 0 5661
-7.8185 2.9762 1.3745 0 6752
-7.752 1.7697 1.3064 0 6470
-7.7232 -1.3049 0.91596 0 5638
-7.692 1.3148 0.36391 0 6361
-7.6441 2.9358 0.76394 0 6759
-7.6279 -0.015978 0.1771 0 6011
-7.5586 -5.634 1.3249 0 5454
-7.4406 -5.0871 1.6982 1 5546
-7.3974 -4.9652 1.6786 1 5562
-7.3549 -4.9684 1.6723 2 5558
-7.3351 0.60435 0 0 6195
-7.3049 2.0753 0.17631 0 6538
-7.2979 -4.7448 0.6087 0 5587
-7.2688 -4.7566 0.60744 0 5582
-7.262 -0.0976 1.1932 0 5983
-7.2078 -6.4197 1.8186 0 5255
-7.1378 1.3049 -0.33838 0 6383
-7.1185 1.0258 -0.16698 0 6316
-7.106 -6.3625 1.7971 1 5249
-7.1029 -6.2137 1.3263 1 5274
-7.0784 2.2781 -0.17264 0 6613
-7.0709 -5.6305 1.485 2 5399
-7.0647 1.6987 -0.33885 0 6488
-7.0623 0.1689 0.32944 0 6071
-7.044 -6.2342 1.7723 2 5261
-7.0267 -4.4834 0.97474 2 5597
-7.0058 -4.4976 0.97358 1 5594
-7.0018 0.7829 0.6573 0 6257
-6.9755 -4.6205 0.97845 2 5573
-6.9742 -4.6512 0.98031 0 5567
-6.9634 -5.1264 0.60465 2 5464
-6.9543 -5.8416 1.7112 1 5343
-6.9523 -5.1482 0.60493 2 5458
-6.9205 -5.2834 0.60883 0 5431
-6.8573 -5.4604 1.6516 0 5400
-6.8312 5.9971 0.42391 0 9019
-6.824 -4.6359 0.96475 1 5551
-6.8192 0.065462 0.79749 0 6038
-6.8093 -6.6148 1.1102 0 5154
-6.8049 -4.5969 0.96033 0 5556
-6.781 2.1407 1.3398 0 6600
-6.7772 4.8914 0 0 8367
-6.7648 0.20314 0.79145 1 6085
-6.7612 -6.7991 1.1213 0 5114
-6.7543 0.2217 0.79029 1 6093
-6.7483 -5.6987 1.6641 1 5333
-6.7313 0.10339 0.78727 0 6052
-6.7118 -1.0943 0.63445 2 5645
-6.6874 -6.6131 0.65766 0 5133
-6.6744 2.9021 0 0 6951
-6.6481 -6.5354 1.0902 2 5142
-6.6478 5.6717 0.40751 0 8938
-6.6343 -4.5648 0.75131 0 5536
-6.6246 -5.5292 0.60339 2 5349
-6.6009 -6.0148 1.4672 0 5224
-6.5926 -6.6295 1.7615 1 5117
-6.5856 0.14025 0.77031 2 6065
-6.5853 6.2013 -0.21001 0 9226
-6.5389 -6.5025 1.7375 2 5131
-6.524 -7.0799 1.353 0 5033
-6.5111 -6.7424 1.766 1 5088
-6.4923 -6.6483 1.7508 1 5102
-6.4746 3.8367 -0.17473 1 7658
-6.4616 0.70309 -0.76009 1 6248
-6.4565 -6.3847 1.7108 2 5138
-6.4557 3.1014 1.3494 2 7141
-6.4487 -6.1927 1.6845 0 5168
-6.4399 -5.9384 1.2311 2 5208
-6.4384 -5.8667 1.2242 2 5223
-6.4333 3.7608 0.34751 1 7620
-6.4325 1.7056 1.0933 0 6505
-6.4288 -5.7561 1.0091 2 5246
-6.4278 -6.2116 1.6841 0 5164
-6.4057 -4.1918 1.4423 0 5586
-6.3726 0.71255 -0.74987 1 6252
-6.3659 -4.9503 1.5194 2 5419
-6.3593 4.5027 0 0 8298
-6.3375 -5.6446 0.39577 2 5252
-6.331 5.4957 1.3774 0 8989
-6.3296 3.8258 0.17171 2 7721
-6.3129 -6.5762 1.066 0 5078
-6.3094 -5.9187 1.0117 0 5186
-6.299 4.6576 0 0 8457
-6.2965 -6.5203 1.06 0 5085
-6.2825 -6.1759 0.82191 2 5141
-6.2615 0.58858 0.73547 0 6224
-6.2589 3.279 0.8263 1 7340
-6.2503 0.71545 -0.7357 0 6258
-6.2354 -4.397 1.4375 0 5511
-6.2306 -4.287 1.4249 1 5539
-6.2082 -5.7247 1.3874 2 5209
-6.2056 6.6804 0 0 9647
-6.1993 -4.5355 0.53712 0 5470
-6.1947 2.844 -0.63594 2 7044
-6.1826 -5.1292 0.93943 2 5359
-6.1791 0.040982 0.86844 2 6031
-6.1754 0.14769 1.0149 2 6073
-6.1713 1.5227 -0.59302 0 6491
-6.1695 -6.6183 0.63269 0 5040
-6.1661 -4.5961 0.7175 1 5453
-6.1658 -4.2694 0.52443 0 5528
-6.1625 6.3726 1.2459 0 9527
-6.16 0.13118 1.0123 0 6066
-6.1474 -5.9406 0.39866 0 5158
-6.1365 -0.10069 0.28621 0 5975
-6.126 -5.3308 0.94965 2 5281
-6.1239 -7.5167 0.45214 0 4864
-6.1176 -7.6882 1.8512 0 4839
-6.1135 -4.4466 0.52861 1 5474
-6.1079 3.408 0.81793 2 7504
-6.1055 -7.5829 0.454 0 4849
-6.105 7.4774 -1.3567 0 9992
-6.1016 3.0875 1.1235 1 7258
-6.0982 0.71638 -0.71804 1 6262
-6.0924 -5.4263 0.76116 2 5253
-6.0764 -4.6946 0.71638 2 5421
-6.0615 -5.4616 0.38049 2 5236
-6.0595 -4.6513 0.71267 2 5426
-6.0475 -7.6001 1.365 0 4837
-6.039 -4.7796 0.90063 0 5403
-6.0307 -5.5943 0.96196 2 5201
-6.0288 -5.7593 0.58302 2 5169
-6.0266 -5.4607 0.95104 2 5231
-6.0066 -4.422 1.4053 2 5467
-6.0013 -5.5011 0.37965 0 5213
-5.9975 3.3464 1.1284 2 7508
-5.9908 -4.1995 0.51159 1 5514
-5.9831 -4.9059 0.90481 2 5370
-5.983 -6.3446 0.60981 0 5055
-5.9722 -5.8016 1.1702 1 5155
-5.9704 -6.1138 1.404 2 5101
-5.9593 -4.3091 0.51424 0 5482
-5.9537 -7.4368 1.3388 0 4845
-5.9515 -5.3287 0.55861 0 5244
-5.9482 0.71665 -0.70062 1 6268
-5.9376 -6.869 -0.2108 0 4951
-5.9334 -5.1907 0.36764 1 5271
-5.9218 -7.9015 1.8604 1 4756
-5.9188 -5.8184 0.58037 2 5140
-5.914 -7.5235 1.5722 2 4821
-5.9105 4.3959 0.68721 1 8478
-5.8955 4.3593 0.68406 2 8460
-5.8934 -4.0036 1.3424 1 5552
-5.8811 0.72627 -0.83281 1 6272
-5.8701 -4.2696 1.0201 0 5476
-5.8662 4.234 0.67495 2 8373
-5.8597 -5.0082 1.4523 2 5309
-5.848 -6.3065 0.40108 1 5036
-5.8451 -4.2265 1.359 2 5486
-5.8416 2.4197 -1.4982 0 6883
-5.8392 -7.9871 1.8641 0 4730
-5.8284 6.0948 1.1852 0 9562
-5.8231 -6.357 0.60284 2 5025
-5.8155 -4.7143 1.4105 0 5386
-5.8146 -5.1173 1.4594 1 5268
-5.7997 -7.7894 0.45288 0 4745
-5.789 -6.3531 0.60102 0 5019
-5.783 -4.7417 1.409 0 5373
-5.7824 -3.807 0.48411 0 5577
-5.7815 -6.9293 1.0553 0 4901
-5.773 -3.8501 0.48523 0 5565
-5.7612 -6.6275 1.6545 2 4965
-5.7549 -4.2615 0.66808 2 5459
-5.7534 -6.8179 1.6808 2 4921
-5.7527 6.0156 1.5682 1 9565
-5.7518 -5.3356 0.36587 0 5198
-5.7503 -4.4717 0.6796 0 5416
-5.7483 3.2509 0.46179 1 7535
-5.7456 3.2719 0.46235 0 7551
-5.7157 4.1726 0.49485 2 8417
-5.7072 -4.4622 0.67588 0 5411
-5.6823 3.998 0.6482 1 8280
-5.6626 4.0361 0.64876 2 8325
-5.6604 -4.4018 0.50141 2 5415
-5.6576 -4.5602 1.0213 1 5389
-5.6495 -3.697 0.94888 0 5584
-5.6364 -6.9579 1.6871 0 4862
-5.6234 -5.3066 1.4568 1 5183
-5.6144 -3.6964 0.94471 0 5579
-5.6139 -6.0223 1.5512 2 5044
-5.6133 -5.3287 1.4583 0 5180
-5.608 -7.3032 0.42941 0 4784
-5.5978 -6.0748 1.5564 2 5034
-5.5947 -6.509 1.6171 0 4948
-5.5844 -6.5385 0.40099 2 4933
-5.5836 2.1445 0.69946 0 6761
-5.5816 5.8022 0.75112 0 9542
-5.5716 -6.5629 0.602 0 4925
-5.5714 -6.8386 1.6619 2 4869
-5.5676 -6.9545 1.4636 1 4846
-5.5652 -6.516 0.59921 2 4934
-5.5621 -4.3738 0.82746 2 5407
-5.5599 -1.0074 0.79412 1 5628
-5.5582 2.5518 1.0048 1 7052
-5.5578 -3.6134 0.61847 2 5588
-5.5552 -1.0547 0.79468 0 5619
-5.5494 1.4021 0.26692 0 6493
-5.5442 4.3021 0.6547 0 8627
-5.541 -7.0896 0.6292 0 4811
-5.5405 -5.7034 0.74184 0 5092
-5.5405 1.9816 -0.82697 1 6687
-5.538 -4.2787 0.8184 2 5422
-5.5376 -5.9404 1.3343 0 5043
-5.5365 -6.1836 0.77435 2 4998
-5.5365 7.1144 0.84104 0 10116
-5.5304 7.64 1.5495 0 10289
-5.5288 -5.1864 1.4283 0 5188
-5.5164 0.21385 0.12817 0 6103
-5.5147 -7.0992 1.4769 2 4806
-5.5139 -7.0145 0.6239 0 4817
-5.5087 6.0688 1.3466 0 9719
-5.4986 -5.8636 0.5621 2 5047
-5.4974 -4.351 0.49025 0 5402
-5.4949 -5.724 0.55484 1 5077
-5.4691 2.8458 0.57519 2 7323
-5.4681 -6.6334 0.4009 0 4880
-5.4612 -5.4651 1.4557 0 5124
-5.4582 -4.9457 1.0352 1 5232
-5.4492 -5.7103 1.4871 2 5074
-5.4445 1.0455 0.51722 0 6401
-5.4415 -4.4618 0.98896 2 5371
-5.44 -3.7193 0.46081 0 5542
-5.4389 -6.4452 0.58972 0 4916
-5.4308 -7.0342 1.2489 1 4796
-5.4154 -3.4553 1.0554 1 5599
-5.4061 -5.132 1.2247 1 5179
-5.3813 -6.5677 0.39596 0 4872
-5.378 -3.633 0.45384 0 5554
-5.3633 -8.3063 0.22955 0 4587
-5.3582 -4.8279 0.50434 0 5237
-5.3569 -7.2845 0.42167 0 4732
-5.3565 2.2187 0.40542 0 6879
-5.3365 0.48566 0.12441 0 6214
-5.3301 -6.5797 0.1966 0 4857
-5.3225 2.2966 -0.54082 0 6936
-5.3215 -4.9071 1.3638 2 5210
-5.3169 -7.0943 1.0368 2 4754
-5.303 -6.5862 0.19632 1 4848
-5.2994 -1.056 0.88777 1 5613
-5.2904 -5.944 0.37108 0 4989
-5.2858 1.9952 0.26348 0 6737
-5.2784 -5.5974 0.35879 2 5054
-5.2692 -6.862 -0.20087 2 4783
-5.263 -5.1737 1.3905 1 5145
-5.2629 -6.4968 0.97776 0 4860
-5.2586 -5.6077 0.35851 2 5046
-5.256 -5.1059 1.2039 1 5156
-5.2559 -6.4513 0.97311 0 4866
-5.2482 -3.4121 1.1794 0 5590
-5.2405 7.2821 1.474 0 10304
-5.2357 -6.8184 0.80203 1 4786
-5.232 -5.8108 1.2846 1 5008
-5.221 1.8838 -0.38813 0 6697
-5.2151 -4.5896 0.48578 1 5264
-5.2132 -6.1039 1.1281 1 4937
-5.21 1.2364 0.49957 0 6485
-5.1924 -4.7049 0.48997 0 5229
-5.1919 -6.0064 0.37025 0 4952
-5.189 -6.2569 0.95058 1 4892
-5.1886 -5.7303 1.2701 0 5015
-5.1886 -0.83015 0.122 0 5647
-5.1884 -4.2059 0.62312 0 5382
-5.1869 0.57997 0.36497 0 6256
-5.1788 -4.4263 1.1193 2 5308
-5.1766 -6.5055 0.19302 1 4832
-5.1419 -4.7698 0.65433 2 5200
-5.1364 -5.4127 0.34798 1 5062
-5.1329 1.2342 0.86734 0 6489
-5.1326 3.7045 0.88959 2 8377
-5.129 1.8506 0.38129 0 6698
-5.1154 0.66165 0 2 6288
-5.1126 -6.4644 0.19135 0 4824
-5.1058 -4.1627 1.0823 2 5379
-5.0943 4.5516 0.79888 2 9074
-5.0909 4.8803 -0.32888 0 9295
-5.0818 -4.2415 1.0875 2 5352
-5.0569 4.5724 0.79726 1 9111
-5.0559 -5.9913 0.36559 1 4915
-5.0493 -4.264 0.3082 0 5327
-5.0466 0.90802 0.72064 0 6378
-5.0435 3.7062 0.58392 0 8440
-5.0421 -3.5344 0.86538 2 5517
-5.0408 1.0742 0 1 6435
-5.0406 -5.6297 0.88367 1 4999
-5.0396 -4.2815 0.30838 1 5315
-5.0358 3.6762 0.58169 0 8418
-5.03 1.2868 0 0 6494
-5.0241 -4.4216 0.31211 1 5263
-5.0176 -5.8376 0.35897 0 4942
-5.0084 -5.9351 1.2759 0 4920
-4.9949 0.74827 -0.11726 0 6327
-4.9908 -5.6075 0.87787 1 4992
-4.988 0.22214 0.70171 0 6113
-4.9841 -5.9378 0.72326 2 4909
-4.9729 -8.3787 1.6008 0 4503
-4.9597 -4.3895 1.0882 0 5260
-4.9559 4.3784 0.77333 0 9039
-4.9487 3.6806 1.0133 2 8484
-4.9443 -3.9853 0.44407 1 5388
-4.9413 -7.5081 0.41916 2 4605
-4.9395 2.9856 -0.26916 0 7720
-4.9285 -6.6556 0.57912 2 4739
-4.9182 -5.0364 0.65675 0 5098
-4.9152 -4.7748 0.31956 0 5151
-4.907 -3.8837 1.179 1 5405
-4.9055 -4.851 0.80678 2 5135
-4.9036 -6.3125 0.37276 2 4801
-4.9012 1.5003 -0.47821 1 6577
-4.9009 4.2814 0.76102 0 9003
-4.9005 -4.8732 0.48327 0 5126
-4.9004 -4.8731 0.80818 0 5128
-4.8992 -5.5375 0.86463 2 4983
-4.8991 -5.6677 1.2308 1 4956
-4.8951 -4.8985 0.48425 0 5119
-4.8934 -6.3381 0.37341 0 4793
-4.89 -4.3278 -0.45663 0 5257
-4.8863 -5.0901 1.3294 1 5081
-4.8827 -3.6821 0.57054 0 5444
-4.8806 -7.0987 0.40174 0 4658
-4.8767 4.675 0.94944 0 9306
-4.864 -4.7815 0.31807 0 5139
-4.8638 0.83139 -0.57704 0 6358
-4.8623 -6.2595 1.1139 0 4805
-4.8613 4.5539 0.62145 0 9210
-4.8521 -7.6605 0.63409 0 4568
-4.8432 -7.221 1.0168 2 4629
-4.8411 0.1031 0.3386 0 6064
-4.8339 0.8837 0 0 6384
-4.8313 -6.8539 1.3777 1 4690
-4.8244 -3.4235 0.69179 0 5501
-4.8234 -5.1436 0.65786 2 5048
-4.8198 -6.8376 0.58498 2 4686
-4.8123 -5.9767 0.53657 0 4850
-4.8093 3.4482 0.69203 1 8351
-4.8029 0.12996 -0.11155 0 6077
-4.7963 6.8728 -0.98008 0 10366
-4.7949 -3.6382 0.70387 2 5438
-4.793 -7.2387 -0.20156 0 4612
-4.7924 3.6284 0.70294 2 8546
-4.7884 -6.7106 0.57647 2 4701
-4.7832 3.6438 0.70318 0 8567
-4.7734 1.6129 -0.23497 0 6655
-4.7705 -4.1983 1.0441 2 5267
-4.7653 4.333 0.90518 0 9133
-4.7619 4.3573 0.90713 0 9149
-4.7508 -6.9933 0.98867 0 4646
-4.7446 -7.0263 0.99146 2 4638
-4.7435 -4.8575 0.47476 1 5097
-4.7288 -3.3967 0.68088 0 5491
-4.7198 0.63814 0.11058 0 6300
-4.7196 -3.7798 0.84979 0 5394
-4.7118 3.3361 -0.81138 2 8290
-4.7107 -3.6632 0.83866 1 5417
-4.7054 -5.844 0.8774 0 4852
-4.6916 -3.825 0.42328 1 5375
-4.6863 2.2012 -0.48304 0 7086
-4.6765 -3.5484 0.82502 1 5439
-4.6733 2.2451 0.12037 0 7131
-4.6622 -4.2008 1.1824 0 5240
-4.6575 -7.7422 1.2698 1 4516
-4.6536 1.4379 -0.22714 0 6586
-4.6475 -3.5047 0.81806 2 5445
-4.6459 -8.723 0.92205 0 4393
-4.6455 -3.2359 0.66206 0 5521
-4.6399 -7.4167 0.40798 2 4554
-4.6372 1.781 0.81611 0 6764
-4.637 -4.6403 1.0778 1 5123
-4.6361 -5.3332 0.99314 2 4963
-4.6349 0.49042 -0.10821 0 6246
-4.6347 -6.6561 0.94849 1 4675
-4.6287 -5.8884 0.34928 1 4816
-4.6255 3.653 0.82836 2 8693
-4.6241 -3.2813 0.93154 0 5502
-4.6234 -6.9378 0.97497 0 4622
-4.6092 -5.2725 0.98423 2 4971
-4.6001 6.3923 1.4838 0 10305
-4.5981 -4.7333 0.77171 2 5093
-4.5977 -6.0638 0.35487 2 4766
-4.5903 -3.9945 1.1465 2 5283
-4.5872 -0.18263 0.32102 0 5915
-4.5865 7.3656 -1.0147 1 10609
-4.5846 4.5257 -1.3693 1 9402
-4.5804 -4.0796 1.0077 0 5254
-4.5783 0.33782 0.10658 1 6177
-4.5772 0.97543 0.65773 1 6437
-4.5651 -6.0559 0.35366 2 4758
-4.5579 -4.5611 0.75405 0 5121
-4.5562 -4.8315 1.0911 0 5059
-4.5467 -3.9776 0.9925 1 5275
-4.5444 -3.9994 0.56478 0 5265
-4.5443 -6.8631 1.5508 0 4617
-4.5409 -3.9044 1.1283 2 5301
-4.5317 -4.154 1.01 1 5217
-4.5219 -6.8708 1.5497 1 4611
-4.519 -6.8664 0.96126 1 4608
-4.5188 1.5851 0.11118 0 6678
-4.5177 -6.5269 0.92828 2 4667
-4.5167 -7.131 1.1863 0 4571
-4.5126 -5.9151 0.34695 0 4775
-4.5086 -6.9373 0.96754 0 4594
-4.4987 -2.8881 1.0072 0 5596
-4.4975 0.64811 0 0 6317
-4.4924 -4.6797 1.0658 0 5080
-4.4856 0.66077 0 0 6322
-4.4853 -3.9238 0.6969 0 5273
-4.483 -2.8979 1.0057 0 5593
-4.4813 4.7141 0.15101 0 9576
-4.4811 -4.5616 0.74778 0 5105
-4.4785 2.0732 -1.4151 1 7060
-4.4768 -7.1561 1.1863 0 4558
-4.4733 -4.996 1.2635 1 5002
-4.4706 -5.5187 0.33121 0 4858
-4.4682 -3.5784 -0.13291 0 5392
-4.4677 -5.8182 1.2052 1 4789
-4.4671 0.52476 0.63212 0 6267
-4.4648 -3.7266 1.0957 0 5353
-4.4586 -5.2203 1.2935 2 4939
-4.4568 -2.881 0.49511 1 5591
-4.4272 6.8855 0 0 10551
-4.4259 -3.8271 1.1024 0 5289
-4.4182 -5.6206 0.83605 0 4819
-4.4171 -3.4535 0.788 0 5412
-4.4135 0.59673 0.83911 0 6301
-4.3909 1.1503 0.53081 0 6501
-4.39 -3.1743 0.89004 0 5485
-4.3792 1.6225 -0.65634 0 6716
-4.3731 2.9664 -0.24643 0 8135
-4.3697 -3.8227 1.0939 1 5276
-4.3681 -3.2157 0.25295 0 5463
-4.3664 -4.3694 0.5763 2 5120
-4.3662 -3.9093 0.54676 2 5245
-4.3656 1.4896 0.32255 0 6662
-4.3655 -3.6217 1.0687 0 5362
-4.3633 -0.68561 0.72565 0 5654
-4.3493 -6.0952 -0.34919 0 4699
-4.3443 -4.124 0.55884 1 5176
-4.3332 -3.0004 0.12237 0 5526
-4.3255 -4.1321 0.55809 1 5170
-4.299 0.066032 0.30065 0 6050
-4.2948 -4.5006 0.58039 0 5069
-4.2946 -5.9788 1.2094 0 4711
-4.2788 0.75756 0.30386 0 6370
-4.2679 -3.6905 0.39454 2 5286
-4.258 -5.3839 0.6404 0 4826
-4.2579 -6.0025 1.2091 1 4696
-4.2489 -5.3073 0.31705 0 4841
-4.2462 -4.5028 0.57742 2 5056
-4.2439 -5.8735 0.50671 1 4714
-4.2431 -4.4464 0.71874 0 5070
-4.2397 -3.6895 0.39301 2 5279
-4.2359 -5.8624 0.67477 1 4715
-4.2338 -7.4256 0.99959 0 4463
-4.2324 -5.6844 1.1643 1 4748
-4.2318 4.8888 0.75614 0 9846
-4.2304 -5.7129 1.1679 2 4743
-4.2273 -5.6405 0.4929 2 4752
-4.2273 -4.0383 0.68366 1 5171
-4.2263 -4.5864 0.43612 0 5031
-4.223 -0.66357 0.099249 0 5650
-4.2211 -4.4481 0.71711 1 5064
-4.2137 1.7609 0.53406 0 6895
-4.204 -5.1308 0.61885 1 4874
-4.2027 -4.5322 0.43221 1 5037
-4.1947 -5.597 0.32618 1 4751
-4.1921 -3.4178 1.0191 1 5380
-4.1874 -7.4405 0.99843 2 4449
-4.1871 -3.8381 1.0702 0 5218
-4.1799 -3.4493 0.89037 1 5366
-4.1741 -4.6898 0.88236 0 4993
-4.168 -3.7979 1.0624 0 5225
-4.1675 -4.6026 0.57927 0 5012
-4.1566 -4.0605 0.54212 2 5146
-4.1527 -4.1296 0.82307 2 5129
-4.1517 -4.8904 0.29916 0 4924
-4.1504 -5.5743 1.3094 2 4749
-4.1443 -4.2438 0.83365 0 5100
-4.1063 4.2211 -1.3953 0 9511
-4.1055 -5.1595 1.0833 2 4838
-4.096 -3.6674 0.77269 2 5247
-4.0944 3.2336 -0.48675 1 8684
-4.0892 -4.0438 0.53654 1 5134
-4.0871 0.93306 0.78986 2 6472
-4.0802 -3.4663 1.0087 2 5321
-4.0781 -4.4755 0.99477 2 5022
-4.0763 -4.5019 0.42468 0 5011
-4.0654 -3.6631 0.76907 2 5239
-4.0509 3.3943 0.99575 0 8894
-4.0397 5.1594 1.2346 0 10103
-4.0375 3.4228 0.37013 0 8918
-4.0326 -5.5463 1.292 2 4724
-4.0291 -3.6508 0.89328 2 5233
-4.0261 4.043 -1.4937 0 9445
-4.0102 1.6472 -0.20217 0 6865
-4.0003 1.3923 -0.29619 0 6672
-3.9933 1.3758 -0.29535 0 6667
-3.9776 6.6883 1.2785 0 10716
-3.9682 -5.5612 1.2872 0 4705
-3.9645 -5.9875 0.83977 0 4616
-3.958 2.9967 -0.46316 0 8534
-3.9579 -6.4942 1.0688 1 4531
-3.9555 4.1363 0.53394 0 9560
-3.9546 1.5986 -0.39795 1 6831
-3.9506 -5.3722 0.93719 2 4735
-3.9477 -6.6091 1.0819 1 4510
-3.9447 2.7101 0 0 8183
-3.9355 -6.5009 1.068 0 4523
-3.9258 -5.7442 1.3109 0 4655
-3.9233 -3.8326 0.64138 0 5147
-3.9011 -4.9914 1.0408 0 4814
-3.8959 5.5826 0.7961 0 10378
-3.8771 -4.8725 0.43542 0 4834
-3.8751 1.1368 -0.37677 1 6552
-3.8744 -5.669 0.96503 2 4653
-3.8721 5.7973 0.97978 0 10472
-3.8706 -5.6296 1.2872 2 4663
-3.8701 -4.8933 0.43626 0 4825
-3.8629 -6.0988 1.1861 1 4572
-3.8619 -6.2554 1.2078 0 4546
-3.856 0.36246 0.089919 1 6222
-3.854 -5.3006 0.92105 2 4722
-3.8538 -6.452 0.70115 2 4508
-3.8472 -5.1036 0.89822 2 4762
-3.8468 -6.0732 0.8407 1 4570
-3.8292 -6.0455 0.33372 0 4567
-3.8272 -6.9415 0.55428 1 4426
-3.8267 -6.1169 1.1854 2 4559
-3.8235 -5.1353 0.74871 2 4747
-3.8142 0.48252 0.26884 0 6282
-3.8101 -5.2731 1.2257 1 4717
-3.7984 5.2166 0.30093 0 10273
-3.7898 -7.065 0.37388 2 4400
-3.7896 0.048285 0.17674 1 6043
-3.7878 -5.0541 0.88765 0 4755
-3.7821 4.2405 0.39733 0 9763
-3.7784 2.7766 -0.21866 0 8435
-3.7765 -6.2777 0.34164 0 4512
-3.7688 6.8187 -0.91109 0 10869
-3.7673 -6.2229 0.67867 1 4521
-3.7661 -6.1002 0.83838 1 4545
-3.7573 -5.2969 0.9127 1 4695
-3.7527 -5.3555 0.76474 0 4681
-3.7523 -6.6675 1.0753 1 4450
-3.7507 -5.5922 1.2687 0 4632
-3.7347 -6.3352 0.51424 0 4494
-3.7341 -5.0779 0.73709 2 4734
-3.7104 -5.8944 0.48704 2 4561
-3.7084 -5.967 0.65545 0 4549
-3.6982 -5.9115 0.4876 1 4555
-3.6955 3.648 -1.489 0 9400
-3.6912 0.2497 0.51995 0 6165
-3.6908 4.0433 0.1271 0 9697
-3.6729 -5.9492 0.65229 1 4544
-3.6726 5.6016 -0.94137 0 10503
-3.6609 -6.2099 0.67254 0 4495
-3.6606 -6.5046 0.34807 2 4446
-3.6534 -4.7888 0.98958 2 4779
-3.647 -5.016 0.72524 0 4721
-3.6469 -4.9883 0.86844 2 4729
-3.6429 -7.5123 0.38934 0 4305
-3.6406 -6.2152 0.84232 1 4488
-3.6214 6.38 0.51299 0 10819
-3.6145 -6.1314 0.83234 2 4496
-3.6074 -4.7285 0.69551 0 4778
-3.5959 2.5301 0.10208 0 8276
-3.5868 0.10771 0.33478 0 6084
-3.5835 0.23299 0.083373 0 6156
-3.5784 -5.8716 0.64151 0 4529
-3.5765 -4.7445 0.41547 2 4759
-3.5692 -6.8447 0.90272 0 4374
-3.5667 -4.4029 0.79635 2 4861
-3.5612 6.2739 -0.33643 0 10814
-3.5567 6.6638 0.5282 0 10962
-3.554 6.5648 -0.87299 0 10916
-3.5431 -6.8471 0.90156 1 4368
-3.5408 -5.0231 0.86371 2 4689
-3.5368 0.62619 0.59012 2 6372
-3.5351 8.2204 0.41729 0 11463
-3.5349 -6.9256 0.36261 0 4357
-3.5263 -4.3796 0.79022 0 4853
-3.5188 1.7406 0.18307 0 7195
-3.5144 -4.9252 0.85035 2 4703
-3.513 -6.0749 0.6547 0 4476
-3.5127 -4.2872 1.0443 2 4877
-3.4772 5.4455 0.3013 0 10565
-3.4723 0.30623 0.48989 0 6208
-3.4687 -6.8968 -0.17923 0 4339
-3.4662 -5.8031 0.47267 0 4507
-3.4629 5.4546 0.3013 0 10578
-3.4601 5.0495 -1.3011 0 10421
-3.4569 -4.8733 1.1257 0 4697
-3.4419 -5.7215 0.62293 2 4514
-3.4236 -6.4769 0.34164 0 4383
-3.423 6.5532 1.0391 0 11020
-3.4121 -4.5002 0.66043 2 4769
-3.4106 -9.1806 1.8452 0 4161
-3.3984 -4.5081 0.6602 0 4761
-3.394 -6.8974 0.53754 1 4318
-3.3931 -4.4188 0.78299 2 4788
-3.391 -4.899 0.97888 2 4669
-3.376 -8.0039 0.60744 0 4229
-3.3665 3.9334 -1.4846 1 9872
-3.3659 -6.5045 1.2033 2 4369
-3.3526 3.6091 0.80931 0 9652
-3.3503 -4.2362 0.75905 0 4828
-3.3485 6.8929 -1.4438 0 11192
-3.348 -4.8081 1.1039 0 4678
-3.3467 -4.1566 0.87675 2 4854
-3.3379 -4.8223 1.105 2 4670
-3.3335 -4.3178 0.8962 2 4797
-3.3291 0.051136 0.31063 0 6051
-3.3252 -4.411 0.90755 2 4763
-3.324 -6.609 1.3938 0 4345
-3.3224 -4.355 1.032 2 4780
-3.3204 1.0795 -0.24415 1 6620
-3.3022 1.0838 -0.24303 1 6627
-3.2876 -7.0923 1.2843 0 4272
-3.2843 -6.1226 0.6482 2 4402
-3.2679 7.0337 1.09 0 11292
-3.2625 4.5908 0 0 10330
-3.2581 -6.5233 1.3738 1 4336
-3.2555 2.0201 -0.35745 2 7801
-3.2542 6.8471 -0.70728 2 11230
-3.2124 5.2279 0 0 10645
-3.2114 7.8381 -1.3916 0 11565
-3.2091 -5.8615 0.78146 1 4422
-3.205 2.4134 0 0 8515
-3.1962 1.4795 0.41187 0 7063
-3.1891 -6.481 1.1867 1 4322
-3.1783 -6.5542 0.50936 0 4306
-3.1749 8.0889 0.20175 0 11668
-3.1626 -5.8957 0.78239 2 4403
-3.1597 1.6554 0.082816 2 7335
-3.1472 -5.1317 0.56162 0 4536
-3.1429 6.1896 0.9756 0 11090
-3.1416 -6.5277 0.50657 0 4300
-3.1386 6.5538 1.0213 0 11224
-3.1266 5.2931 -1.01 0 10717
-3.1201 -4.7121 0.52725 1 4615
-3.1135 -4.7308 0.52837 2 4607
-3.1043 4.6776 0 0 10482
-3.1012 -2.2424 -0.088851 0 5480
-3.1003 -5.821 0.92689 0 4395
-3.0894 -0.52197 -0.072743 0 5636
-3.0677 -6.0572 0.79401 0 4352
-3.0617 -6.2223 0.81096 2 4320
-3.0589 -5.787 0.91993 2 4387
-3.0496 1.3795 0.07771 0 7017
-3.0493 -3.3289 0.42117 0 5026
-3.0293 -6.0232 0.78843 2 4344
-3.0193 -4.676 0.65091 2 4590
-3.0157 3.8063 -0.33957 0 10067
-3.0103 7.0611 0 0 11478
-3.0011 -4.9243 0.67437 0 4530
-2.9738 -2.2564 0.086669 0 5436
-2.9683 7.9646 0.19734 0 11757
-2.958 1.6729 0.15848 0 7534
-2.9572 6.1281 1.282 0 11210
-2.9391 -4.855 0.66369 1 4522
-2.9371 -2.3946 0.35355 0 5376
-2.9358 4.7147 0 0 10617
-2.9038 -5.9458 0.92995 0 4313
-2.9024 -4.6107 1.0265 0 4565
-2.8863 -5.9521 0.92968 0 4308
-2.8841 0.91875 0.28239 0 6605
-2.8795 2.3991 -0.17478 0 8865
-2.8751 5.3508 -0.85369 0 10933
-2.8581 8.4877 1.4714 0 11944
-2.8541 -9.2086 1.5839 0 4082
-2.84 2.3528 -0.17199 2 8844
-2.838 3.9205 -1.0287 0 10288
-2.798 2.6348 -0.35856 0 9222
-2.775 -2.4276 0.25782 0 5272
-2.6827 -3.8058 0.54451 1 4688
-2.6594 5.511 -0.42789 0 11197
-2.6587 8.4633 1.4575 0 12039
-2.6432 5.8649 0.3 0 11357
-2.628 2.3896 -1.2928 0 9128
-2.623 2.634 -1.1599 0 9443
-2.6139 4.3093 0.47022 0 10675
-2.6069 6.6417 -0.66566 0 11663
-2.5983 4.0133 0.67193 0 10541
-2.5873 -4.7931 0.63697 0 4410
-2.5735 3.7557 0.31837 0 10417
-2.5657 5.3575 -0.55419 0 11213
-2.552 -6.0503 1.2372 0 4231
-2.5283 2.5389 0.083187 0 9442
-2.4885 -2.5482 0.41652 0 5099
-2.4882 4.184 -1.2744 0 10714
-2.478 -7.8355 0 0 4087
-2.4676 -8.6685 0.84086 0 4056
-2.4607 -6.1804 0.15444 0 4201
-2.4225 3.7938 -0.52639 1 10556
-2.4219 6.2214 -0.155 0 11682
-2.4177 7.5438 1.3015 0 12014
-2.4174 3.7598 -1.2817 0 10553
-2.409 3.0037 0.63259 1 10041
-2.408 3.0197 0.63454 1 10057
-2.3682 6.8312 -0.16786 0 11882
-2.3667 -2.2085 0.075157 0 5192
-2.3587 -7.0988 1.4094 0 4110
-2.3325 2.7089 -1.4931 1 9858
-2.3067 -3.6644 0.71138 1 4564
-2.3053 -9.0839 1.3171 0 4022
-2.2892 2.5666 -0.73102 0 9766
-2.2799 3.0554 -1.2882 0 10218
-2.2761 5.3778 -0.27233 0 11493
-2.2733 2.7362 0.24875 0 9956
-2.2425 2.2394 -0.82965 0 9430
-2.2223 2.1679 0.28964 0 9366
-2.2179 2.7011 -1.3647 0 9985
-2.2154 -4.3108 0.91317 0 4364
-2.1906 2.4997 -1.3883 0 9810
-2.1506 -4.8212 0.99464 1 4250
-2.1299 -4.2645 -0.2223 0 4330
-2.1103 -8.969 1.736 0 4000
-2.0893 -4.5072 0.34739 0 4269
-2.0646 3.111 0.34834 0 10485
-2.0527 4.2862 0.33232 0 11220
-2.0476 -5.6626 0.2808 0 4143
-1.9814 6.9328 -0.5042 0 12142
-1.9757 2.6798 0.54699 0 10249
-1.962 3.3215 0.45113 0 10729
-1.9593 3.3369 0.45252 0 10743
-1.9545 -3.2722 -0.35559 1 4505
-1.9253 -4.7132 0.59539 0 4216
-1.9074 8.2884 -0.79348 0 12295
-1.8978 -7.3013 1.0602 0 4028
-1.8689 4.4157 0.67388 0 11502
-1.8627 6.1812 -1.3722 1 12086
-1.8617 3.2154 -0.52218 0 10761
-1.8593 2.7317 0.1541 0 10431
-1.8584 -8.4456 -0.20077 0 3987
-1.8533 -4.5756 0.11461 0 4212
-1.8482 4.0669 0.20832 0 11339
-1.841 -6.6836 0.32329 0 4046
-1.7412 -3.2942 0.61217 0 4388
-1.7286 5.1335 0.37878 0 11937
-1.7146 4.64 0.11485 0 11773
-1.7003 3.3985 0.44439 0 11123
-1.6957 -6.0244 0.87957 0 4052
-1.6583 -3.3701 0 0 4316
-1.6471 5.1393 0.37738 0 12009
-1.6341 -4.3177 0.64883 0 4178
-1.6326 -6.4332 0.61922 1 4020
-1.5402 -6.9994 0.66864 0 3989
-1.535 -4.5718 0.67777 0 4115
-1.5145 8.0614 0.76524 0 12408
-1.4714 2.7384 0.14497 1 10944
-1.4529 -7.3111 1.2247 1 3975
-1.4455 6.4511 -0.92912 1 12319
-1.428 -2.8196 -0.14739 1 4347
-1.412 -2.8075 -0.14655 0 4338
-1.3815 5.4238 -1.1897 0 12241
-1.3554 3.5757 0 0 11729
-1.3158 -4.2038 0.41095 0 4084
-1.3137 -3.7347 0.46298 0 4133
-1.306 2.8317 -0.21806 1 11301
-1.2917 -8.239 0.58316 0 3916
-1.2894 5.9992 0.71758 0 12345
-1.2423 -3.2585 0.57293 0 4184
-1.2385 5.6802 -0.27112 0 12332
-1.2372 3.2062 0.40188 0 11703
-1.2353 6.1879 0 0 12383
-1.2263 5.1876 0.87578 0 12285
-1.2252 -7.8148 1.1117 0 3918
-1.2181 -5.6151 0.26795 0 3984
-1.1955 -8.9957 1.2754 0 3893
-1.1923 -8.7607 1.4526 0 3895
-1.188 3.4957 0 0 11915
-1.1771 3.0506 0.30506 0 11701
-1.1589 8.4601 0.59712 0 12495
-1.1493 3.1407 0.15596 0 11789
-1.1269 -3.0062 0.4512 0 4169
-1.1243 7.5407 0.89157 0 12474
-1.0998 8.2096 1.3608 2 12504
-1.0976 3.7173 0.54472 0 12111
-1.0869 5.7852 -0.54918 1 12404
-1.0753 8.1898 0.77063 0 12511
-1.0662 3.1665 0.46957 0 11942
-1.0562 -3.5519 0.52079 0 4068
-1.0552 6.3258 1.2083 0 12444
-1.0392 9.3978 1.3288 0 12542
-1.0269 -3.567 0.3463 0 4057
-0.99682 -5.7057 1.0913 0 3940
-0.96471 -3.5409 0 2 4042
-0.96215 -9.5551 0.22296 0 3851
-0.94952 -3.5264 0 2 4037
-0.93307 -9.2663 1.5301 0 3853
-0.92918 -7.1251 1.0098 0 3887
-0.92476 -4.5171 -0.10705 0 3978
-0.87891 -4.355 -0.10315 0 3976
-0.82552 3.5872 0.43045 0 12301
-0.80809 -7.1817 1.0157 0 3865
-0.7922 -3.2821 -0.15745 0 4003
-0.78258 3.1885 0.076224 0 12258
-0.77979 -3.2707 -0.1568 0 4001
-0.7737 3.1124 0.07446 1 12251
-0.76447 9.0659 1.4948 0 12594
-0.72494 -5.1001 0.72398 0 3901
-0.72295 5.5062 -0.78048 0 12505
-0.71711 -5.045 0.83719 0 3902
-0.71381 -3.5919 0.34166 0 3974
-0.71212 5.4237 0.76879 0 12513
-0.7114 5.4182 0.89782 1 12514
-0.70767 9.0524 0 0 12601
-0.70361 -4.3977 0.83911 0 3921
-0.65941 -8.2316 0 0 3834
-0.65195 -3.8669 0.64427 0 3932
-0.6512 -5.9365 0.55717 0 3860
-0.64193 3.1636 -0.22573 0 12374
-0.62502 -3.7673 0.62741 2 3928
-0.59988 -9.128 0.63967 0 3821
-0.589 -4.5165 -0.10575 2 3885
-0.57483 -8.7468 -0.20351 0 3820
-0.56951 -4.4767 -0.10477 0 3880
-0.54476 6.0561 -0.71107 0 12571
-0.53961 -4.0604 0.47901 0 3892
-0.48685 -3.3578 0.39677 0 3905
-0.4466 -4.6983 0.44031 0 3845
-0.4385 3.2733 -1.1159 0 12501
-0.42845 3.2632 -1.1121 0 12510
-0.4171 -9.7885 0.22747 0 3804
-0.39374 -4.1422 -0.096603 0 3844
-0.38773 4.1638 -0.39015 0 12565
-0.35881 -3.4545 0.080634 0 3855
-0.35738 7.7213 0.36046 0 12668
-0.33216 -3.2987 0.38771 0 3852
-0.3245 -3.3214 0.39027 0 3849
-0.32256 6.969 1.1462 0 12669
-0.30904 -6.0588 0.70945 0 3811
-0.29944 -3.3685 0.23647 0 3840
-0.29463 -5.4756 1.0331 0 3814
-0.28939 4.9886 0.82098 0 12649
-0.28496 -3.0952 0.51068 0 3842
-0.27951 5.6744 -0.53004 0 12659
-0.26156 4.1003 -1.2821 0 12634
-0.2464 -6.2161 0.58039 0 3801
-0.24112 4.3813 -0.93269 0 12654
-0.22488 9.7595 1.372 0 12704
-0.20949 9.0914 -0.6359 0 12700
-0.16462 5.7148 0.53339 0 12693
-0.1338 7.822 -1.0995 0 12710
-0.08237 -3.2767 0.3058 0 3789
-0.07081 4.1394 -0.38624 0 12712
-0.0415 -5.404 0.25202 0 3773
-0.040682 3.5314 -1.0127 0 12725
-0.030338 3.5472 0.24805 0 12731
-0.02119 3.679 0.25726 0 12737
0.040921 -6.0118 0.56088 0 3762
0.047316 -4.8409 0.79536 0 3759
0.049768 5.5914 1.0535 0 12772
0.057639 -3.0861 0.28797 0 3753
0.06159 5.2668 -0.36831 0 12773
0.077226 -6.0609 -0.28267 0 3757
0.086869 -4.0791 0 0 3750
0.096819 -4.5463 0.63908 0 3751
0.098335 5.5231 0.51536 0 12800
0.10288 7.0172 -1.153 0 12781
0.10901 9.3218 1.0902 0 12779
0.11033 5.4024 0.88777 1 12809
0.13518 5.8224 0 0 12813
0.14308 5.3922 -0.25155 2 12820
0.14315 4.4559 0.62656 0 12837
0.15163 -4.1953 0 2 3741
0.16883 6.3624 0.74429 0 12825
0.17707 -6.5017 0.91409 0 3745
0.17853 3.8285 -0.62968 0 12861
0.18263 8.9423 0.62544 0 12806
0.19027 5.9227 -0.83281 0 12831
0.19868 5.2676 0.86605 0 12851
0.22393 6.3805 -0.44644 0 12841
0.24554 -9.016 1.6993 0 3746
0.27038 -4.578 0 0 3727
0.28147 -5.0188 -0.1167 0 3729
0.28576 3.6309 -1.4222 0 12916
0.28689 -6.0386 -0.28192 1 3735
0.28908 -5.1545 0.11986 1 3730
0.30249 4.5066 0.10487 0 12894
0.30503 6.9863 0.48899 0 12859
0.31843 -6.7026 -0.15579 0 3736
0.37529 -7.0434 0.65805 0 3732
0.38611 5.1112 -0.47821 0 12907
0.39872 -5.0103 0.46892 0 3718
0.43434 -6.6624 1.2579 0 3724
0.46227 6.1195 -1.3044 0 12913
0.47059 4.4925 0.21065 0 12965
0.47711 3.7039 0.43673 0 13020
0.47841 3.6437 0.42976 0 13026
0.48672 5.7481 -0.94776 0 12921
0.49076 -5.9439 0.55642 2 3716
0.49976 -6.0528 0.28323 0 3715
0.5005 -3.8695 0.64102 0 3684
0.51492 3.521 -0.75638 0 13051
0.52131 -4.7832 0.7905 1 3702
0.536 3.5951 -0.7726 0 13057
0.54124 -7.0663 1.1643 0 3720
0.54242 -5.7597 0.81305 0 3710
0.56128 -3.8854 0.18307 0 3674
0.57832 -3.9354 0.1855 0 3671
0.58003 -8.1719 0.76431 1 3722
0.5895 4.9218 -1.2977 0 12996
0.59681 5.8349 0.96364 0 12960
0.59779 -5.6402 0.2645 0 3704
0.59909 6.4335 -1.0616 0 12934
0.60207 -5.393 -0.12599 0 3699
0.61032 -5.3237 -0.12441 0 3694
0.61149 -5.6106 0.2632 0 3701
0.62664 5.2319 0.99279 0 12998
0.6419 3.6516 -0.52106 1 13104
0.66311 -4.5124 0.31893 0 3672
0.66593 3.7197 -0.53108 0 13109
0.71629 7.4526 0.87554 0 12944
0.73765 5.4846 -0.25807 0 13030
0.74024 -3.3307 0 0 3622
0.74635 -6.5102 0.30559 0 3695
0.74874 -6.5311 1.08 0 3697
0.75104 -4.1741 0.69679 1 3654
0.75689 -3.2707 0.077942 1 3618
0.77328 3.1084 0.074367 0 13225
0.7774 -4.9758 0.46985 0 3666
0.7794 6.2044 0.29161 0 13011
0.80548 -6.3582 0.29888 0 3686
0.80792 5.2068 -0.49158 1 13065
0.8125 -8.6275 -0.20119 0 3709
0.92475 -6.4015 0.60343 0 3675
0.95248 -4.5355 0.87318 0 3632
0.95596 -4.9736 0.11759 0 3645
0.95904 -5.4224 0.12785 2 3656
0.96164 9.4019 0.88173 0 12959
0.98144 -6.1687 1.0262 0 3664
0.99905 -7.0728 0.66641 0 3677
1.0273 -7.578 0.53475 0 3680
1.0467 -8.4754 0.99866 0 3690
1.0534 -7.9689 1.3206 0 3682
1.1126 4.3649 -1.2916 0 13238
1.1227 4.3504 -1.2883 0 13246
1.1256 -5.5227 0.39412 0 3638
1.1317 5.0462 0.48248 0 13194
1.1369 -5.4898 0.39203 0 3634
1.1568 -2.8164 0.14199 0 3585
1.1678 4.94 0.7134 0 13213
1.217 -5.7952 0.27615 0 3631
1.269 5.8152 0 0 13183
1.27 5.9091 0 0 13176
1.2881 5.3777 0.90852 0 13217
1.3118 -3.7712 0.46693 0 3597
1.3399 4.3909 -0.32102 0 13322
1.3453 5.1498 -1.3934 0 13253
1.3871 -6.904 0 0 3640
1.3911 3.4517 0.52301 0 13485
1.4122 -4.6161 0.79309 1 3603
1.4146 -4.5782 0.78726 0 3601
1.4485 -3.9454 0.097578 0 3592
1.4726 4.3306 0.42675 0 13387
1.4835 -2.6797 0.50322 0 3465
1.4965 -7.2264 0.863 0 3635
1.5041 5.1435 -0.37473 1 13299
1.5122 4.3992 0.43399 0 13393
1.5421 8.8998 -1.0563 1 13097
1.5561 3.5331 -0.26996 0 13547
1.5823 -6.8372 1.153 0 3620
1.5827 3.5649 -0.27275 1 13554
1.5879 3.7535 0.19006 0 13516
1.6055 2.9036 -0.23201 0 13823
1.6068 -6.0558 0.73268 0 3609
1.6079 6.0133 1.0227 0 13266
1.6117 -2.8521 -0.22908 0 3455
1.6466 -3.5866 0.74357 1 3569
1.6476 -5.933 0.86538 0 3607
1.6519 8.6432 -0.2043 1 13128
1.6553 3.9398 0.39869 0 13510
1.6629 -7.1858 0.86254 0 3619
1.6971 8.2385 -0.58819 0 13158
1.71 5.9791 -0.43486 1 13291
1.7497 -3.7815 0.78504 0 3564
1.7649 9.2346 -0.43844 0 13127
1.7741 3.063 0.66692 0 13909
1.788 -3.5122 0.46089 2 3518
1.8261 9.7109 -0.92186 0 13125
1.8455 -4.21 0.10672 0 3577
1.8574 -7.9254 0.56921 0 3617
1.8891 -4.8804 -0.36594 0 3589
1.9225 2.5 0.51814 0 14339
1.9383 2.5052 0.52041 1 14346
1.9438 3.3317 0.35986 0 13917
1.9557 -5.2757 0.13063 0 3591
1.958 -2.8715 -0.24303 2 3324
1.9591 5.9867 -0.73663 1 13358
1.9806 -5.3948 0.67205 0 3593
1.9832 2.4578 -1.4948 1 14392
1.9944 4.6377 0.7095 0 13531
2.0201 3.4185 0.37045 0 13940
2.0433 -2.7165 -0.31713 2 3210
2.0614 -3.8253 0.30386 0 3478
2.0679 5.5962 0.98018 0 13432
2.1261 -5.1763 -0.26096 0 3584
2.1443 4.5078 -0.34906 0 13628
2.1843 -4.7578 -0.36608 0 3566
2.234 -6.1379 0.91799 0 3594
2.24 -6.2083 0 0 3595
2.2431 -3.7376 0.40668 0 3437
2.2565 -3.7853 0.41114 0 3440
2.2699 -5.6182 0.28258 0 3586
2.2733 -6.9882 1.3846 0 3599
2.283 -9.6126 0 0 3615
2.2927 -4.1142 0.55079 0 3461
2.2929 3.2456 -1.1395 1 14211
2.3058 -4.6614 0.97982 0 3536
2.3467 6.0251 0.75614 1 13463
2.3599 -3.7329 0.83207 0 3402
2.3766 6.6633 0.99425 0 13409
2.3995 -6.7163 0.16559 0 3596
2.4031 -3.8265 0.85133 0 3406
2.4119 3.0983 -0.27456 0 14348
2.4236 2.9674 0.35745 0 14412
2.4288 7.422 -1.283 0 13356
2.4526 -4.5837 0.1207 0 3483
2.4871 -4.1442 0.79407 2 3439
2.5028 2.3992 0.65322 0 14821
2.5134 -3.3621 -0.29354 1 3219
2.5223 2.2815 -0.078963 2 14914
2.5428 -2.9128 0.27038 0 2936
2.549 -2.7392 -0.34909 0 2853
2.5573 2.2994 -0.079845 2 14925
2.5613 8.7589 1.4993 0 13304
2.5827 5.1552 0 0 13682
2.585 -2.4038 0.66507 0 2752
2.5955 -4.4703 0.72648 1 3450
2.6011 -3.5867 0.72792 0 3258
2.6263 2.9969 0.466 1 14526
2.6268 -3.6449 0.10431 0 3262
2.6312 -3.3138 -0.19733 0 3122
2.6329 -4.4733 0.607 0 3444
2.6391 3.7357 -1.1974 2 14213
2.6421 2.2272 -0.90461 0 15047
2.6544 -3.4655 0.20357 0 3184
2.6639 3.5909 0.31265 0 14282
2.6819 -4.2986 0.11763 0 3407
2.691 3.2947 0 0 14409
2.6934 -3.7373 0.32214 2 3263
2.7281 4.8062 -0.38645 0 13871
2.7374 5.8436 0.30093 0 13612
2.7402 -7.0137 0 0 3588
2.7472 -6.3182 1.1319 1 3580
2.7584 3.1664 0.49109 0 14516
2.7673 -3.8159 0.66246 2 3256
2.7687 -3.8417 0.66553 2 3265
2.7718 -6.0849 0.78193 0 3572
2.792 -2.4202 0.25838 0 2691
2.7976 -1.1858 0.21248 1 1065
2.7992 5.391 -0.14103 0 13732
2.8091 -6.2128 -0.63612 0 3573
2.8106 7.2163 0.72251 0 13462
2.8232 -2.1994 0.50297 0 2486
2.8262 5.331 0.56293 0 13765
2.8293 3.529 0.21093 2 14385
2.838 -2.9813 0.38402 0 2829
2.8573 2.7391 -1.3374 2 14815
2.8639 -3.0253 0.38866 0 2835
2.8756 -3.0902 0.49364 1 2855
2.8822 -2.4408 0.53081 0 2657
2.8838 -9.5217 0.92818 0 3604
2.8869 -3.3873 0.41523 0 2984
2.906 -3.087 0.29647 0 2842
2.9319 -5.8447 0.30494 0 3526
2.9372 -3.3269 0.83615 0 2921
2.9447 2.7915 -0.18922 0 14832
2.9596 -0.57636 -0.070004 0 206
2.9631 -4.4835 0.25062 0 3363
2.9705 2.5932 0.64783 0 14988
2.9709 -6.8918 0.87763 0 3582
2.9709 -2.943 -0.39015 0 2782
2.9954 -5.9713 1.2587 0 3527
2.9998 -4.3992 0.8748 1 3329
3.0045 5.0162 1.1017 0 13962
3.0091 5.7144 -0.14994 1 13754
3.0248 -0.59727 -0.071582 0 218
3.0394 -3.7147 0.78855 0 3074
3.04 -1.592 0.64655 1 1477
3.0519 -1.9026 0.33553 2 1892
3.0665 -1.9243 0.33776 1 1909
3.0672 -1.4179 0.078452 0 1234
3.0698 -1.4074 0.078406 0 1217
3.0794 -3.7198 0.45053 1 3047
3.0878 -3.0418 0.50688 0 2779
3.099 3.5175 -0.65885 0 14530
3.1011 -1.0872 0.61915 0 764
3.1313 -6.8204 0.87763 0 3568
3.1537 -1.1678 0.47263 2 837
3.1597 -1.1914 0.47458 0 864
3.1741 -4.9253 0.96267 0 3392
3.1777 -3.0762 0.41263 0 2772
3.182 -3.2471 0.42414 2 2802
3.1832 -5.443 1.036 0 3449
3.186 -3.2319 0.4234 0 2796
3.2007 2.9308 -0.71301 2 14885
3.2109 -6.2638 0.98924 0 3511
3.2174 -6.8496 1.0636 0 3558
3.2181 -3.4997 0.89577 0 2868
3.2481 -3.5522 0.90688 0 2875
3.2554 3.7608 0.58168 0 14506
3.2602 5.4088 1.0376 0 13972
3.2612 8.296 0 0 13468
3.2725 -6.2015 1.152 1 3493
3.274 3.9171 -0.59701 0 14442
3.2906 6.1215 0.64839 0 13785
3.2922 -1.038 0 0 628
3.2986 4.3917 -0.64231 0 14298
3.2995 0.42912 0.46762 0 18785
3.312 2.7118 -0.70328 0 15096
3.3142 5.0225 0.28062 0 14113
3.321 -0.51768 -0.078035 0 20199
3.3296 2.6145 -0.19742 0 15186
3.3347 -2.0927 0.091404 0 1903
3.3391 2.638 -0.19845 0 15174
3.3394 0.73361 0.079381 0 18201
3.3444 2.8193 0.51153 0 15048
3.3452 2.803 0.51037 0 15061
3.3456 0.99419 -0.16276 0 17719
3.3858 2.7388 0.10111 1 15128
3.3982 3.4315 -1.3848 1 14736
3.3983 -7.0203 0.36372 0 3543
3.4069 2.7717 0 0 15115
3.4174 -5.2363 -0.58336 0 3376
3.4196 -4.4905 0.92733 0 3199
3.4218 -1.7292 0.44834 0 1404
3.4399 0.66241 -0.081331 0 18370
3.4431 2.8191 0 0 15101
3.4694 0.72036 -0.24778 1 18272
3.4808 -4.1073 0.88453 0 2998
3.4911 4.5645 0.13342 1 14324
3.4933 7.5706 -0.58302 1 13595
3.5179 2.031 0.57089 0 16068
3.5239 -2.8292 0.21074 1 2549
3.5269 -2.4796 -0.20105 0 2203
3.5303 -1.1471 0 0 659
3.5579 -2.5015 0.20282 0 2206
3.5592 -0.07704 0 0 19681
3.5694 -6.7187 0.17663 0 3487
3.5763 -7.2297 1.3252 1 3535
3.5775 6.6552 -0.35236 0 13782
3.5862 1.6616 -1.3355 0 16693
3.5985 -4.8401 0.42175 0 3229
3.6167 -2.8522 0.42972 0 2512
3.6228 -1.7389 -0.56476 0 1302
3.6306 6.4802 0.34639 0 13850
3.634 5.2403 0.29739 0 14189
3.6378 -5.6103 0.78193 0 3385
3.6411 -3.1932 0.45183 1 2702
3.6486 5.8187 0 0 14038
3.6536 2.6692 0.10505 0 15390
3.6703 3.058 -0.4457 1 15066
3.6799 -2.8833 0.21801 1 2497
3.6938 4.1927 -1.4628 0 14538
3.7011 0.6686 -0.087319 0 18450
3.7522 5.3112 0.30326 0 14210
3.7613 4.579 0.83281 0 14422
3.7648 -5.7313 0.47951 0 3372
3.7679 -2.0714 0.60429 0 1575
3.7719 3.9678 0.1271 1 14654
3.782 0.56995 0.62838 0 18652
3.7829 -1.2044 0 0 640
3.7867 -3.0752 0.68557 0 2577
3.7935 5.714 0.96391 0 14129
3.8221 4.4941 0.41254 0 14474
3.8476 -1.8056 0.59733 0 1268
3.85 4.37 0 0 14533
3.8517 -7.1474 1.3339 0 3479
3.8566 -1.6617 0.49109 0 1099
3.8691 0.64192 0 0 18547
3.8753 5.4511 -0.93998 1 14218
3.8797 4.0584 0.13035 0 14666
3.9001 4.5568 -1.4212 0 14486
3.9018 3.9195 0.38673 0 14745
3.9115 -0.015702 0.64265 0 19598
3.9446 -8.3335 -0.86018 0 3552
3.9472 -1.4234 0 0 794
3.9521 -2.354 -0.42916 0 1763
3.9742 1.0694 0.77542 0 17901
3.9831 0.51802 0.46971 0 18783
4.0226 5.4542 -1.1134 0 14271
4.0312 4.118 0.67391 0 14717
4.0366 -0.98178 0.68253 0 382
4.0438 -1.6593 -0.4078 1 995
4.0892 -2.5821 0.33818 0 1924
4.1001 2.9235 0.58888 0 15469
4.1255 4.1443 0.96073 0 14749
4.1289 -4.7297 0.88236 0 2939
4.1506 -1.7465 0.21 0 1047
4.165 -2.3211 0.89836 0 1609
4.1692 0.323 -1.413 0 19131
4.187 3.3281 -0.12418 0 15161
4.2105 0.14115 0.09781 0 19395
4.2405 3.9961 0.5436 0 14845
4.2521 -3.2746 -0.37529 0 2455
4.2532 3.0686 -0.12176 0 15423
4.2699 -5.9973 0.68684 0 3278
4.3073 7.7898 0.83045 0 13826
4.3185 -2.8162 0.48099 1 2006
4.3631 -0.39861 0.30637 0 19962
4.3764 2.7881 0.72927 0 15782
4.3913 3.1127 0.50217 0 15482
4.4326 -2.6403 0.36078 0 1771
4.4544 1.5086 0.77267 0 17477
4.4867 1.5056 0.77753 0 17497
4.4998 1.524 0.22155 0 17471
4.5443 2.3495 -0.71897 2 16377
4.5473 2.916 -1.4142 1 15763
4.5636 1.1998 -0.10955 1 17931
4.5676 -2.5611 0.12158 0 1617
4.6088 6.0259 -0.88716 0 14322
4.6249 -0.85885 0 1 173
4.6448 5.2408 -0.48969 1 14542
4.6562 5.8747 1.4123 0 14377
4.669 -4.4184 0.75173 0 2761
4.6764 7.0867 1.5997 0 14120
4.6816 1.2439 0 0 17912
4.7002 5.1782 0.98284 0 14583
4.7073 4.4624 0.15059 0 14833
4.7277 3.7579 0.42231 0 15166
4.7674 1.6611 -0.23543 0 17401
4.7781 7.0598 0.39754 0 14152
4.811 2.6144 -1.4334 1 16255
4.8347 -5.84 1.0655 1 3050
4.8562 -8.4725 0.91108 0 3453
4.8816 -6.1107 1.0992 0 3116
4.8885 1.6404 0.24046 0 17491
4.9227 5.7515 -1.2438 0 14480
4.9373 2.5178 0.64812 0 16432
4.968 -2.4198 0.2577 1 1336
4.9988 3.3705 0.70503 2 15615
5.0207 -3.3383 0.42161 0 2056
5.0486 4.4073 0.46862 0 14985
5.0701 6.8344 0.19757 0 14280
5.077 2.5524 0.13193 0 16468
5.085 6.1905 -0.74741 0 14417
5.0912 5.3258 0.86161 0 14671
5.0914 4.1421 0.61234 0 15120
5.1075 -2.5621 0.39957 1 1391
5.1108 8.044 1.5658 0 14062
5.1134 7.1082 1.024 0 14243
5.1317 6.958 0.20073 0 14272
5.1699 3.9171 0.15059 0 15279
5.1744 -0.60785 0 0 20054
5.1761 -7.5398 0.21233 0 3317
5.1864 1.2672 0.37334 0 18050
5.2017 5.5683 -0.17691 0 14621
5.2312 2.6471 1.1046 0 16457
5.2685 -4.6481 1.1543 0 2711
5.308 -5.445 0.88925 0 2808
5.3401 1.1088 1.0276 0 18285
5.3459 0.026125 1.0072 0 19553
5.3606 3.8477 -1.4026 0 15450
5.3644 -0.47404 0.62977 0 19953
5.3781 5.0362 0.17106 0 14850
5.397 -7.722 0.87894 0 3297
5.4035 6.3133 -0.77528 0 14481
5.4542 -6.359 1.3764 0 2975
5.4573 -2.3514 0.97629 1 1101
5.4687 2.6295 0 0 16592
5.4791 -4.4242 0.32841 0 2563
5.5165 -5.0391 0.69706 0 2738
5.5257 8.2698 0 0 14134
5.531 0.31504 0.51685 1 19264
5.5466 4.6476 -0.50601 0 15054
5.5479 -4.6685 1.1913 1 2645
5.5818 2.9268 0.44072 0 16348
5.6305 2.5695 0.57742 1 16735
5.6442 -5.7256 0.18666 0 2795
5.6539 7.0522 1.485 1 14390
5.6682 1.975 0.13936 0 17407
5.7185 -2.7448 0.2958 0 1309
5.7226 -0.65505 0 0 20043
5.7496 -2.9676 0.15022 0 1440
5.7665 0.86902 0.27195 0 18646
5.7727 4.7824 1.0535 0 15085
5.8739 4.894 1.2561 0 15074
5.876 -7.2718 0.65376 0 3092
5.9857 5.3218 -0.93664 0 14945
6.0421 -0.4278 0.42356 0 19891
6.0574 -2.8866 0.94304 0 1297
6.0769 4.658 0.71434 1 15249
6.0806 2.1581 0.45118 0 17368
6.0946 1.9861 1.0531 0 17555
6.1087 3.1827 -0.64263 2 16360
6.1113 4.6589 0.71694 0 15265
6.1132 4.306 0.69762 0 15495
6.1178 1.3641 0 0 18181
6.1323 -7.6763 1.149 0 3114
6.1792 5.4286 -0.38357 0 14969
6.1837 0.7516 0.29049 0 18841
6.2031 0.24589 0 0 19363
6.233 3.6715 0 0 16002
6.2442 -0.78994 0 0 20083
6.2451 -3.9694 0.69037 0 1941
6.2531 3.7084 0 0 15982
6.2584 1.7039 0.15059 0 17873
6.2859 5.7198 0.39633 0 14904
6.2939 3.0711 0.98423 0 16555
6.3227 -1.0785 0 1 119
6.4764 -0.006782 0.91019 0 19581
6.5082 1.3905 0.62089 0 18242
6.5326 -0.44305 0.61086 0 19880
6.566 3.843 1.2499 0 16030
6.579 -6.9498 1.345 0 2836
6.62 -3.3687 -0.51941 0 1410
6.6307 1.6815 0.319 0 17993
6.6469 -1.6585 0.9628 0 404
6.6895 6.4871 -1.3096 0 14794
6.7471 -3.4334 0.8853 0 1416
6.7884 0.82509 1.1235 0 18847
6.8224 -0.96369 0.15997 0 20141
6.8753 -2.869 0.34742 0 1030
6.9246 4.4952 0.96544 0 15729
6.9341 4.5013 0.38552 0 15723
6.9973 -2.803 0.35152 0 958
7.0055 1.6909 0.67235 0 18070
7.0131 -2.3235 0.17153 0 683
7.0135 1.1196 0.33121 0 18588
7.0171 -6.8716 0.22802 0 2775
7.0759 1.4049 -0.16749 0 18332
7.1532 0.65854 1.0096 0 19040
7.1733 2.1562 1.0527 0 17707
7.182 -3.3949 1.1164 0 1282
7.2066 1.849 0 0 17970
7.2078 1.8279 0 0 17990
7.2415 2.1974 -0.52917 1 17678
7.2844 -2.989 0.73459 0 1000
7.413 2.0182 1.4475 0 17881
7.4351 1.7699 0.71304 0 18091
7.5087 1.5823 0.35785 0 18260
7.5365 -3.6174 0.77992 0 1312
7.5586 5.7623 -1.3358 0 15252
7.6762 1.64 0.36605 0 18238
7.818 -1.4278 0.37062 0 164
7.8986 4.623 -0.4268 0 16020
8.0759 3.2678 0 0 17057
8.2005 1.0432 1.5575 0 18808
8.331 4.0059 1.5187 0 16601
8.3488 1.16 1.3848 0 18727
8.4277 2.0841 1.4263 0 18035
8.6021 -0.53366 0.40192 0 19855
8.6138 -3.0774 1.7234 0 790
8.6205 -0.53481 1.2139 0 19860
8.6238 -0.86229 1.218 0 19991
8.7081 -0.89836 1.0238 0 20002
8.7346 -0.16161 0.81503 0 19667
8.7637 -3.045 1.5243 1 748
8.7829 -2.5483 1.723 0 556
8.7943 -3.0832 1.5311 2 762
8.8704 -3.1988 1.5492 2 801
8.8814 1.8975 0.63506 0 18240
8.9496 -0.68392 1.4746 0 19914
8.9502 -3.4644 1.5768 0 907
8.9577 -3.5267 1.5816 2 935
9.0039 0.48763 1.4815 0 19285
9.0107 -3.6387 1.5966 2 976
9.0285 1.7681 0.42903 0 18354
9.1082 -3.3439 1.3636 2 825
9.1301 2.1465 1.7671 0 18115
9.1815 -3.5208 1.382 0 892
9.2024 -3.4993 1.3837 2 877
9.2508 -3.305 1.3806 1 786
9.2668 -0.0097042 1.0837 0 19579
9.2836 -3.3478 1.1541 1 798
9.2878 -3.3768 1.1557 1 811
9.2885 -0.27892 1.306 0 19727
9.2998 0.12336 -1.3071 2 19496
9.3249 -0.25232 -1.311 1 19702
9.3366 -2.0733 1.3441 1 307
9.4726 -3.0158 1.873 0 649
9.497 -1.6199 0.89882 2 123
9.5005 -1.907 1.1332 0 233
9.6119 -1.987 1.1478 1 253
9.62 1.679 0.4554 0 18491
9.6468 -1.734 0.91443 0 155
9.6481 -1.8789 0.91703 1 210
9.6626 -2.0274 1.3876 1 265
9.6946 -1.685 0.68808 0 134
9.6952 -1.3971 0.4568 0 8
9.6998 -1.6859 0.91852 1 135
9.7104 1.8699 1.3898 0 18378
9.7687 -1.6663 0.69296 0 122
9.7701 0.1586 -0.22686 0 19488
9.7722 -1.464 0.4608 0 34
9.7776 -1.6099 0.46211 0 96
9.8445 -1.7111 1.6416 1 136
9.851 -1.5074 0.69687 0 20188
-14.352 3.0977 0 0 6443
-13.667 -1.2197 0.63987 1 5784
-13.057 7.2318 -1.7455 2 7476
-12.945 0.38871 -0.30067 0 6083
-12.809 2.8444 1.844 0 6457
-12.567 -0.79068 1.7697 0 5849
-11.691 5.1636 -1.7962 2 6972
-11.532 -0.72556 1.3513 0 5848
-11.261 -1.271 1.8618 0 5744
-11.206 2.9001 1.9017 0 6497
-11.033 1.3957 1.8271 0 6283
-10.311 6.9943 -1.7511 0 8128
-10.065 0.39019 1.6549 0 6104
-9.9387 1.2855 1.4084 0 6289
-9.646 3.0451 0.23485 0 6598
-9.4685 5.2831 -1.7814 1 7493
-9.2745 6.7309 0.53441 1 8392
-9.2147 4.1027 1.6572 0 6995
-9.1357 3.3848 -1.8356 0 6722
-8.9593 4.4982 0.46751 1 7229
-8.4477 9.4715 1.4842 0 9765
-8.3343 9.1304 2.031 0 9700
-8.0752 2.9919 -1.8305 0 6721
-8.0211 -9.0122 -0.28011 0 4988
-7.8981 8.7012 -0.54801 0 9712
-7.8719 6.5215 1.1954 0 8851
-7.8146 9.0277 1.114 0 9844
-7.7789 9.363 1.9999 0 9960
-7.6268 5.1734 -1.7364 2 8152
-7.4602 6.8264 0.94341 0 9147
-7.2947 2.7288 -1.8454 2 6729
-6.954 8.3169 0.2517 0 9941
-6.8952 4.6772 -1.771 2 8150
-6.7731 7.5038 -1.6608 2 9722
-6.5763 2.4601 -1.8381 2 6728
-6.2309 -7.8306 0.46667 1 4833
-6.1017 -8.24 1.441 0 4742
-5.9178 -10.304 -1.1086 2 4465
-5.7018 10.467 -1.6751 0 10900
-5.6589 10.532 1.9643 0 10950
-5.3407 -14.008 1.0483 1 4182
-5.2567 -8.9171 0.24032 0 4493
-5.0237 11.147 1.4298 0 11361
-4.8156 -14.081 0.34552 1 4120
-4.7897 9.704 1.5209 0 11158
-4.0793 -10.425 -0.25991 0 4192
-3.7836 10.914 1.8978 0 11889
-3.7723 9.3649 0.94192 0 11621
-3.3508 -11.269 1.9315 0 4069
-3.0192 -11.616 1.1197 0 4027
-2.8548 0.91877 0.27979 0 6614
-2.8307 -12.203 1.7605 0 3999
-2.7997 -9.6242 0.46742 1 4061
-2.2667 -10.449 0.99747 0 3985
-2.2188 -0.02982 0.41807 0 5984
-2.1478 -9.9007 1.1847 0 3986
-1.8169 -1.2274 0.36023 1 5557
-1.7683 14.829 -1.7464 0 12531
-1.7479 -11.149 1.3197 0 3917
-1.5741 -12.988 1.8388 0 3874
-1.3612 0.036834 0.22373 1 6079
-1.0957 -10.549 0.98948 0 3856
-1.021 9.7798 -1.8526 0 12549
-0.97643 10.855 1.5317 0 12580
-0.96221 1.9367 -1.0862 0 11129
-0.88882 -1.011 -0.12559 1 4974
-0.81185 -11.817 1.3852 0 3823
-0.74378 -0.47457 -0.18754 2 5598
-0.65805 10.316 -0.72282 0 12629
-0.6391 -11.877 1.9542 0 3813
-0.62315 2.1561 -0.58754 1 12136
-0.55246 11.216 1.0476 0 12664
-0.36087 -11.678 1.09 0 3794
-0.24372 -10.994 1.0259 0 3786
-0.025237 9.6404 -1.8163 0 12748
-0.023148 8.8424 -1.8795 0 12746
0.15074 12.89 1.8118 0 12780
0.46401 11.355 1.0603 0 12854
0.61279 4.8781 -1.9198 0 13010
0.67863 10.111 -0.70859 0 12891
0.75266 -12.098 1.1309 0 3726
0.81467 10.784 0.25109 0 12911
0.99654 11.39 0 0 12926
1.2413 -10.828 1.0168 0 3696
1.3081 5.6796 -1.9694 0 13200
1.4128 13.09 -0.30569 0 12971
1.42 -2.6351 0.56397 0 3480
1.4769 -11.658 2.214 0 3687
1.6468 -10.737 1.7846 0 3668
1.7841 8.6606 -1.8795 0 13163
1.8377 10.993 0 0 13086
1.8916 1.2279 -0.94197 0 15719
1.9644 -10.918 0.25755 0 3652
1.9859 -11.228 1.3334 0 3657
2.0485 2.5234 -1.5385 0 14401
2.3314 -1.6288 -0.96099 2 2189
2.4807 10.626 0.50888 1 13205
2.6964 -11.965 1.1442 0 3621
2.9445 3.8291 -1.5072 0 14334
3.1372 12.453 2.1098 0 13234
3.2651 9.6854 1.6792 0 13382
3.3217 -10.858 1.3278 0 3602
4.0143 -9.2323 0.23373 0 3579
4.0364 -10.428 1.8371 0 3590
4.5446 -9.5365 1.2354 0 3551
4.6478 -2.8248 -1.9796 2 1819
4.7232 9.8494 0.76383 0 13638
4.7864 -3.3652 -1.977 1 2205
4.8577 -10.829 0.27556 0 3575
4.9327 6.6491 -1.7598 2 14286
5.0729 11.887 2.4351 0 13524
5.498 11.134 2.0401 0 13667
5.9867 9.6706 0.5304 1 14015
6.3498 -8.2901 0.73021 0 3185
6.6274 7.6563 -1.6637 0 14499
6.85 2.8178 -1.755 0 17022
6.866 8.3113 1.2607 0 14430
6.9067 7.2655 0.93524 0 14658
7.0574 7.6453 0.48521 1 14603
7.0987 -7.9005 2.0011 0 2896
7.1899 3.1816 -1.6712 1 16810
7.2182 -9.3123 1.6559 0 3169
7.5569 6.6787 1.1794 0 14964
7.6965 8.9417 1.9383 0 14497
7.7698 -6.814 1.4524 0 2704
7.9798 -3.0344 -1.8147 2 878
8.0119 10.108 0.29947 1 14371
8.1731 0.36971 -1.9385 2 19335
8.347 8.8359 1.997 0 14647
8.4541 -6.667 1.2591 0 2513
8.5325 11.431 1.3308 0 14292
8.6341 6.2294 2.0059 0 15434
8.7332 9.2902 -0.29603 0 14630
8.8549 -9.9176 1.5548 0 2903
8.8955 3.42 -1.7956 1 17202
9.0517 5.5122 0.98874 0 15915
9.0807 6.0492 0.25332 0 15645
9.1823 0.87283 -1.7378 2 19022
9.4439 3.7926 1.9174 0 17092
9.5681 -6.6031 -0.54214 0 2154
9.5938 8.1881 2.0722 0 15027
9.5985 -11.459 -1.7481 0 3012
9.6465 2.5361 -1.6387 2 17922
9.6896 3.4046 1.6874 0 17392
9.7133 5.241 0.25625 0 16269
9.8747 7.3953 2.3244 0 15325
9.9906 1.8625 -1.1885 1 18403
