VERSION .7
FIELDS x y z intensity index
SIZE 8 8 8 8 8
TYPE F F F F F
COUNT 1 1 1 1 1
WIDTH 1017
HEIGHT 1
VIEWPOINT 0 0 0 1 0 0 0
POINTS 1017
DATA ascii
-4.9386 0.16642 -0.69447 0 2147
-4.8641 1.0401 -0.58168 0 2792
-4.8415 0.82931 0 2 2643
-4.6305 -0.48914 0.54451 1 1596
-4.5951 1.15 0.2209 0 2935
-4.403 0.7542 -0.20832 0 2641
-4.3246 -0.66098 0.10157 0 1442
-4.2195 -0.039769 0.29507 0 1973
-3.9565 -0.25655 0.6514 0 1743
-3.8163 -0.57239 0.089594 0 1450
-3.7325 -0.42724 -0.2627 0 1560
-3.5232 1.6805 0.45647 0 3995
-3.3396 -0.041969 -0.23354 1 1954
-3.3028 -3.2287 0.87021 0 966
-3.2843 1.0267 -0.32103 2 3160
-3.0458 0.30669 -0.071071 0 2435
-2.9548 2.1429 -0.17022 0 5416
-2.9149 0.79306 0.28183 1 3016
-2.6512 -2.2804 0.081191 1 1043
-2.5858 -3.0642 0.75542 0 864
-2.5662 -4.0484 0.44718 2 651
-2.5551 4.1177 0 0 8844
-2.4525 3.8527 0.21298 0 8749
-2.43 -3.6895 0.51664 0 667
-2.1874 -2.5921 0.23717 2 861
-1.5262 -4.1728 0.3107 0 549
-1.5035 3.2717 0.6784 0 9957
-0.95756 4.2421 -0.92438 1 11073
-0.8787 4.2959 0.82615 2 11134
-0.82418 -4.4555 0.52988 0 370
-0.76533 4.035 0.09535 0 11170
-0.52723 -4.197 0 0 320
-0.50795 -4.1489 0.38996 0 318
-0.18846 4.4409 -1.2745 1 11328
-0.14145 -3.4467 0.24122 0 241
-0.1343 4.3708 0.10152 0 11342
-0.038461 3.5542 -1.4846 0 11373
-0.015362 -4.8899 0.92132 0 205
0.04445 4.6305 -0.32381 0 11394
0.08979 -3.9567 0.18456 0 188
0.096489 -4.8917 -0.22817 0 190
0.23869 3.2426 -1.0986 0 11477
0.25644 3.2367 0.61174 0 11485
0.26366 -4.8215 0.22518 0 163
0.29222 -3.9046 0.64329 0 148
0.41689 4.727 0.66692 1 11495
0.42313 3.6073 -0.16938 0 11554
0.44634 3.1089 -1.3984 1 11616
0.51866 -3.6443 -0.085462 0 60
0.5411 4.8546 -0.22779 0 11543
0.65879 3.2381 0.1541 0 11832
1.0774 -4.3341 0 1 25893
1.1999 -3.4302 0.68469 0 25819
1.4041 3.6981 0.18447 0 12583
1.4171 3.0712 -0.80142 0 12969
1.518 4.2961 -1.3065 0 12464
1.5459 -3.1837 0.4974 0 25632
1.6459 -4.1933 0.10459 1 25795
1.6792 -3.8472 0.68966 0 25734
1.7988 -4.4321 0.44625 0 25782
1.8813 3.3842 0.54417 0 13392
1.9379 3.3244 0 0 13491
1.9395 4.3015 0.32995 0 12917
1.9669 4.1969 -0.21615 1 12995
2.4492 -2.2466 0.62618 1 24365
2.4656 2.9342 0.62968 0 14608
2.5115 -2.9065 -0.35838 0 24742
2.5533 1.8246 -0.82155 0 16483
2.5926 1.7852 0.51716 0 16622
2.5945 3.3971 -1.4444 1 14289
2.7068 -3.0083 0.76246 0 24667
2.7404 -2.7577 0.54639 0 24485
2.9361 -2.3827 -0.62125 1 24165
2.9561 -3.7136 0.89428 0 24918
2.9594 -0.57739 -0.070004 1 22244
3.0457 -2.5 0.27554 1 24191
3.1802 -2.8846 0.30023 0 24347
3.1993 0.72804 -0.076178 0 19644
3.2514 -1.2468 -0.40722 1 22797
3.2752 3.3317 0 0 15140
3.2766 2.385 -1.1621 1 16407
3.2907 3.5475 -0.22565 0 14924
3.3194 -2.7246 0.70555 2 24195
3.3312 0.45988 0.63359 0 20231
3.3361 2.5176 -0.19491 1 16262
3.3847 -2.3621 0.77764 0 23871
3.4386 1.562 -0.2641 1 18015
3.4872 2.2122 -0.8778 2 16898
3.5273 1.7918 0.27665 2 17679
3.7051 -0.51347 -0.43742 1 22002
3.7142 0.98272 0 0 19399
3.7308 1.9363 -0.49155 2 17598
3.7853 -1.3271 -1.3554 0 22697
3.7918 2.6442 -0.32325 0 16567
3.8014 1.8755 -0.098414 2 17763
4.0494 1.3651 -0.19928 0 18865
4.0789 2.3303 -0.43826 2 17256
4.081 -1.7306 -0.41355 2 22936
4.1116 1.9418 -0.74705 1 17895
4.1335 0.50899 -1.4072 0 20328
4.2344 1.88 -0.21605 1 18084
4.274 -2.0643 -0.3319 0 23165
4.3432 -1.0572 0 0 22395
4.3453 1.1497 -0.10436 0 19397
4.3808 -0.29865 -0.40965 0 21668
4.7302 -0.86559 -0.67582 2 22195
4.7449 1.1234 0.68529 0 19588
1.1582 -0.031542 0.16283 2 21436
1.4381 1.817 -0.43659 0 14415
-11.951 4.0035 0 0 3246
-11.837 2.3826 -0.5631 0 2746
-11.374 1.0131 1.8761 0 2398
-11.317 1.2054 1.0618 0 2458
-11.107 -9.1691 -1.0071 0 1085
-10.888 -1.2136 0.76607 0 1573
-10.768 -0.63406 0.50301 1 1764
-10.76 9.7805 1.3566 0 6302
-10.729 9.4689 1.335 0 6185
-10.727 5.4659 1.1232 0 4172
-10.681 7.6977 0.92065 1 5396
-10.667 5.2049 1.388 0 4052
-10.547 -1.516 0.24738 0 1467
-10.398 -1.3099 1.2256 1 1528
-10.287 3.1863 1.0047 0 3152
-10.216 3.1642 0.49872 1 3151
-10.184 8.086 1.2132 0 5757
-10.106 -1.6349 0.71584 0 1418
-10.081 4.558 2.0844 0 3855
-10.063 0.10538 0.7037 0 2059
-9.9541 -1.1095 1.8871 0 1577
-9.9104 9.2707 1.9072 0 6431
-9.8821 4.6081 1.2751 1 3927
-9.8776 1.963 1.8974 2 2742
-9.8544 10.531 2.0269 0 7065
-9.8464 0.73344 1.6222 1 2337
-9.837 2.1322 0.70384 0 2812
-9.7921 7.6807 2.3448 1 5718
-9.7868 8.9994 0.92971 1 6349
-9.782 0.7836 0.45764 0 2355
-9.775 5.0842 1.0279 1 4236
-9.7632 -0.8868 0.45717 0 1645
-9.7517 -0.63232 0.68333 0 1741
-9.7166 4.6346 1.0043 0 3993
-9.6796 7.6857 1.4454 0 5759
-9.6667 -9.2894 1.5678 0 968
-9.6542 -6.4873 2.1915 0 1301
-9.635 6.4112 -1.3534 2 5097
-9.6178 5.8477 2.1207 0 4773
-9.6132 9.2059 1.2418 2 6530
-9.6052 6.0323 0.79313 0 4876
-9.5147 -0.034875 0.66534 2 1996
-9.4574 3.8537 1.1943 0 3600
-9.4278 5.0086 0.99599 0 4301
-9.408 1.1402 0.88415 0 2497
-9.4026 -0.52898 1.3235 0 1778
-9.4002 -1.5478 0.66617 0 1410
-9.3901 6.6093 -0.2666 0 5307
-9.3694 -10.29 0.32309 1 929
-9.3626 -1.7369 1.5645 1 1370
-9.3279 5.7453 0.76607 0 4808
-9.3108 7.6562 1.9805 1 5909
-9.3072 -6.4904 1.0586 1 1261
-9.3068 3.7621 0.93654 0 3582
-9.2982 -6.4048 1.855 0 1275
-9.2928 11.504 2.0784 1 7730
-9.2774 9.0946 -1.2121 0 6623
-9.2765 -1.4178 1.5418 0 1445
-9.2752 4.8944 1.723 2 4285
-9.2571 4.3502 1.1961 2 3951
-9.2199 6.7282 1.6041 0 5450
-9.1663 0.63132 0.42847 0 2309
-9.1281 9.3148 1.8329 0 6826
-9.1014 4.4705 1.666 1 4073
-9.0852 10.236 1.6006 0 7300
-9.0665 1.2887 0.64036 0 2558
-9.0078 4.6852 1.913 1 4243
-8.9963 9.2349 0.90153 1 6847
-8.9502 8.9252 -1.4781 1 6695
-8.9214 8.3954 2.3081 2 6458
-8.918 1.0019 1.6908 1 2476
-8.9142 7.3771 1.901 1 5934
-8.8596 3.9149 -1.1327 0 3777
-8.8562 -6.4486 2.0641 2 1212
-8.8479 9.9692 2.1899 0 7304
-8.8373 10.675 2.611 2 7625
-8.8243 8.8489 1.4614 1 6737
-8.8203 11.445 1.6898 0 7941
-8.8081 0.5017 0.41142 0 2259
-8.7987 5.5645 0.72798 0 4905
-8.7886 5.957 2.0004 0 5187
-8.7838 8.7075 1.1539 0 6681
-8.7669 1.5017 1.2501 1 2646
-8.743 4.8125 1.1671 0 4417
-8.7372 7.3574 1.0657 0 5993
-8.7215 7.5628 0.80722 0 6114
-8.6591 2.707 1.4905 2 3167
-8.6544 2.1658 0.83231 0 2937
-8.6537 12.074 2.4406 2 8271
-8.6114 0.86712 1.2164 0 2439
-8.5848 -9.1578 1.4679 0 943
-8.5752 3.7304 1.7619 0 3756
-8.5737 6.179 1.7363 0 5404
-8.5289 6.5753 1.0047 2 5644
-8.4855 10.438 2.21 0 7705
-8.4847 4.1401 0.66018 0 4048
-8.4665 -0.0073892 1.391 2 2013
-8.4608 7.2109 1.5624 0 6047
-8.429 -6.1375 0.97276 2 1208
-8.398 11.37 1.9866 0 8135
-8.3873 -9.1595 2.0404 0 934
-8.3795 0.042411 0.78178 2 2035
-8.3536 -8.6564 1.1223 0 957
-8.3228 -5.3514 1.3906 0 1337
-8.3212 6.5694 1.7418 2 5739
-8.2247 8.0627 1.3469 2 6634
-8.2218 12.441 2.45 2 8599
-8.221 -8.7179 0.2782 1 946
-8.2122 8.1893 0.81099 0 6707
-8.2036 -5.7592 -0.23271 2 1254
-8.1578 7.7658 1.0508 2 6503
-8.1334 1.7125 -0.19297 0 2780
-8.124 5.4714 1.6092 2 5162
-8.1106 -0.66682 0 0 1674
-8.028 12.611 1.0454 2 8751
-8.0275 1.4256 -0.38021 0 2662
-8.0008 3.1017 -1.4098 0 3479
-7.9467 9.9512 1.7898 1 7784
-7.9297 11.133 2.2457 1 8296
-7.9253 -5.0958 1.7752 0 1339
-7.8707 9.7439 2.3599 0 7734
-7.8636 1.6328 0.37453 0 2770
-7.8296 9.6309 1.7444 2 7703
-7.7066 9.8817 1.1691 0 7886
-7.647 -6.8926 0.71989 0 1004
-7.5903 4.675 1.4646 1 4816
-7.5593 6.1062 -0.45316 0 5822
-7.5572 -5.3054 1.7397 2 1260
-7.5473 9.1167 1.3841 0 7619
-7.5096 0.91009 1.2428 1 2499
-7.4907 5.7044 -0.2186 0 5594
-7.4848 9.5388 1.704 0 7863
-7.4543 6.6183 1.6377 1 6215
-7.4167 -6.42 0.45745 0 1037
-7.4074 1.4909 -0.17543 0 2747
-7.3578 4.802 -1.0275 0 5028
-7.3398 12.806 1.0321 1 9167
-7.2729 2.6012 -1.0856 0 3338
-7.2362 12.717 2.4039 0 9200
-7.1934 -5.1424 1.666 2 1232
-7.1864 12.707 2.0517 0 9224
-7.1641 -4.9054 0.4049 0 1279
-7.1492 0.74005 1.0101 1 2449
-7.1067 -6.2192 0.4404 0 1025
-7.0743 -4.8439 -0.19906 0 1278
-7.0469 8.5669 2.09 0 7651
-7.0337 0.48444 -0.32879 0 2306
-6.8613 4.7404 0.58316 0 5248
-6.851 2.4976 0.1693 0 3372
-6.8309 7.9249 -0.97611 0 7416
-6.8053 9.3805 1.3552 1 8215
-6.7928 3.1921 0.70022 1 3949
-6.7675 7.3622 1.8841 0 7152
-6.7324 -4.9328 1.3712 1 1203
-6.7291 11.74 2.5495 1 9176
-6.6957 -1.2011 0.31723 0 1378
-6.6766 -6.2676 0.21261 0 977
-6.6671 -7.9908 1.9608 0 852
-6.6662 -4.3126 1.3044 0 1334
-6.6596 0.49606 0 0 2332
-6.6566 0.24409 0.62145 0 2170
-6.6393 7.3504 0.92409 0 7223
-6.6202 -7.3113 0.92019 0 926
-6.6137 -0.043864 0.46249 0 1986
-6.5616 12.01 1.9234 0 9346
-6.5497 -5.2173 1.1768 0 1114
-6.5087 4.6908 1.5116 2 5406
-6.4465 -5.4497 0.78754 1 1064
-6.433 8.4538 2.0015 2 8000
-6.4166 8.4321 1.4892 0 7996
-6.4099 6.2442 1.686 2 6615
-6.3824 3.8806 0.69688 2 4765
-6.3124 -7.1373 1.5654 0 909
-6.3001 4.5154 -0.90644 0 5363
-6.2751 -5.1215 0.18805 0 1096
-6.2632 9.7785 1.9078 2 8733
-6.2379 10.744 1.4528 2 9116
-6.2338 -6.9648 0.65362 0 919
-6.2138 -5.7319 -0.19627 2 990
-6.173 -1.0352 0.29189 0 1400
-6.1579 9.6141 2.1511 2 8735
-6.1548 -6.4904 1.6853 0 948
-6.1466 7.3879 1.1239 0 7593
-6.0409 8.6401 1.9863 2 8372
-6.0174 2.2319 1.0544 2 3407
-6.0008 5.7466 -1.3651 0 6513
-5.9941 9.6037 1.591 0 8828
-5.9756 3.3096 0.96002 2 4437
-5.9754 10.362 1.9652 1 9147
-5.8916 3.1962 0.31257 0 4366
-5.888 0.43859 -0.55085 0 2328
-5.8749 5.3065 1.4916 0 6286
-5.8679 -8.5827 0.96998 0 692
-5.8227 1.172 0.41533 0 2750
-5.7685 -12.811 0.3262 1 610
-5.7636 -5.1677 0.54131 0 1009
-5.7596 5.9455 0.19219 0 6874
-5.7399 3.844 -0.16039 0 5126
-5.7173 5.2261 -0.17984 0 6321
-5.6947 4.9959 -0.52973 1 6154
-5.6542 1.0214 -0.26795 1 2670
-5.6389 0.42003 1.0654 2 2338
-5.6281 -4.2999 0.49527 0 1155
-5.623 10.656 1.9795 0 9481
-5.6028 8.8014 1.4663 2 8757
-5.5149 2.7496 0.14307 2 4106
-5.5088 0.91296 0.653 0 2626
-5.4986 -0.24392 0 0 1817
-5.4888 6.6727 1.4195 0 7649
-5.4726 6.5778 0.39903 0 7587
-5.4611 9.2158 -0.49956 0 9026
-5.4586 5.0494 0.34677 0 6373
-5.4536 -0.068537 0.25435 0 1959
-5.4278 3.1934 1.0347 0 4669
-5.3798 9.8468 2.1141 1 9350
-5.351 1.4558 -0.77937 0 3011
-5.3411 -6.8338 1.6342 0 805
-5.2766 6.8891 0.20147 0 7961
-5.267 6.1105 0.37621 0 7426
-5.2633 -10.303 0.80904 0 624
-5.2401 0.040243 -0.61281 0 2040
-5.1897 -4.2356 0.31239 0 1097
-5.1753 -5.3014 1.2172 0 961
-5.1227 -6.4772 0.77045 0 817
-5.0986 -6.0419 0.73756 0 862
-5.0952 -5.7268 0.53601 0 914
-5.056 3.8252 0 0 5570
-5.055 -3.7241 -0.43905 1 1194
-5.0522 -9.7509 0.51214 1 625
-4.9885 0.44433 -0.46725 1 2389
-4.9455 6.735 -0.194 0 8150
-4.9329 3.4489 -0.70387 0 5281
-4.8987 4.275 -0.60658 0 6128
-4.8601 -5.3374 0.67347 0 931
-4.8417 1.3327 0.58726 0 3028
-4.8372 6.1647 0.73106 0 7859
-4.8041 5.9093 -0.35515 0 7691
-4.7978 7.1669 0.4022 0 8534
-4.7946 -11.069 0.28006 1 607
-4.761 9.3479 -1.2268 0 9591
-4.689 3.9963 0.43082 0 6041
-4.683 2.3165 0.73428 0 4092
-4.6808 7.9527 0 0 9055
-4.6595 12.337 2.4847 0 10452
-4.6529 -6.4799 0.74425 0 734
-4.6427 -13.787 -0.33776 0 523
-4.6305 3.3581 -0.39998 0 5414
-4.547 -4.574 1.0596 0 963
-4.509 -7.3957 1.4231 0 642
-4.4602 -5.2537 1.1322 2 870
-4.4579 -6.2406 0.53629 0 728
-4.4567 3.116 0 0 5287
-4.3893 -5.8205 0.16925 0 773
-4.3152 -4.9641 0.61364 0 893
-4.3088 6.9929 0.1907 0 8872
-4.3046 4.6551 -0.1472 0 7113
-4.2566 5.763 -0.50099 0 8122
-4.2484 -5.7373 0.66604 0 760
-4.2105 7.5991 -0.2017 0 9288
-4.1448 -5.9106 1.3601 0 715
-4.1326 11.981 2.0823 0 10608
-4.0572 5.7323 0.49109 0 8314
-4.0284 6.5378 0.53699 0 8875
-3.9896 3.1294 -0.23646 1 5704
-3.9875 -10.076 1.7804 0 578
-3.9712 5.7846 1.322 0 8444
-3.9694 6.7441 -0.36493 0 9052
-3.9301 -6.2361 1.211 0 649
-3.9291 -7.8054 0.40751 0 618
-3.9164 4.3864 -0.13653 0 7268
-3.8865 -5.6846 -0.15988 0 688
-3.8222 -4.1017 0.13017 0 940
-3.8199 5.0453 0.14692 0 8016
-3.7691 5.163 0.447 0 8184
-3.7119 8.9568 0.45214 0 10232
-3.7027 -8.6142 1.5405 0 606
-3.6945 4.3594 -1.2146 0 7514
-3.6659 -6.7349 0.17803 0 629
-3.6104 -9.6925 0.96496 0 555
-3.6066 5.7028 0.47183 0 8775
-3.519 6.9094 0.18002 0 9601
-3.4759 11.119 1.0868 0 10743
-3.4391 -10.509 1.8167 0 517
-3.4175 7.0569 -1.2882 0 9762
-3.3262 -7.7383 0.39279 0 605
-3.3134 3.9825 -0.12028 0 7582
-3.2977 -6.6402 -0.34574 0 615
-3.2891 -11.019 0.53627 1 459
-3.2702 -5.3302 0.73128 0 643
-3.2681 9.3011 1.8574 0 10579
-3.2144 9.0622 0.22324 0 10555
-3.1959 -8.2141 1.0307 0 572
-3.1629 -9.1339 0.90179 0 536
-3.1419 5.5218 -0.29627 1 9187
-3.1041 8.3689 0 0 10477
-3.1024 -4.7392 0.79607 0 663
-3.085 7.4441 0 0 10229
-3.0712 4.6755 0 2 8614
-3.0389 7.4579 0.37556 0 10277
-2.9737 -9.0874 0.4459 0 514
-2.8537 6.7755 0.85975 0 10194
-2.7999 6.5898 0 0 10169
-2.7863 -9.7492 1.9104 0 447
-2.739 10.683 1.2897 0 10965
-2.6862 -8.9991 0.21804 0 458
-2.6167 -8.0869 -0.19734 0 506
-2.547 -5.8354 0.29692 0 609
-2.5273 -8.7446 0.84922 0 449
-2.3757 8.8352 1.7238 0 10924
-2.3672 -9.0685 1.5398 0 430
-2.3284 6.2777 -0.46821 2 10474
-2.2873 -5.3212 0 0 604
-2.2108 -5.356 0.95197 1 598
-2.1666 -7.9306 1.1554 0 438
-2.0852 -11.463 -0.2705 0 365
-2.0363 12.741 2.1199 0 11203
-2.0209 -9.6652 1.8604 0 386
-1.9726 -9.5845 -0.22719 0 383
-1.9533 -5.8615 0.14344 2 520
-1.9007 -7.7499 1.1215 0 418
-1.8815 9.3398 0.2212 0 11141
-1.876 -7.4576 0.17854 0 423
-1.8716 8.1783 0.19478 0 11062
-1.8327 7.3179 1.0602 0 10988
-1.8326 7.3173 1.4212 0 10992
-1.8192 -4.84 -0.12005 1 558
-1.8186 7.2616 0.3491 0 10986
-1.813 9.1229 1.5281 0 11150
-1.7812 5.1177 0.37892 0 10588
-1.7081 -5.1739 0.1265 0 519
-1.7041 -6.0951 0.74011 0 443
-1.6182 -12.032 0 0 326
-1.5925 -6.1007 0.29403 0 429
-1.4836 -8.2954 1.3845 0 363
-1.4231 -9.5338 -0.2238 0 330
-1.3951 8.266 0.98031 0 11197
-1.3725 -8.6757 0.20393 0 343
-1.3457 9.4789 1.3455 0 11222
-1.3167 6.3467 0.60473 0 11124
-1.2573 10.9 1.0237 0 11245
-1.2567 -8.0989 0.19028 0 337
-1.2473 -11.262 -0.26307 0 305
-1.2076 -10.599 -0.24766 0 307
-1.1745 7.7933 1.4849 0 11214
-1.1688 -7.2562 1.0329 0 348
-1.1678 -6.4196 0.30428 0 366
-1.1592 -9.9277 0.46611 1 310
-1.1491 -5.0577 0.12042 0 406
-1.1062 9.5898 -0.22412 0 11244
-1.1051 -11.476 -0.53767 0 293
-1.0854 6.1057 -1.3182 0 11191
-1.0407 10.652 1.5042 0 11266
-1.01 6.4352 0.91548 0 11209
-1.0051 8.0924 -0.76079 0 11236
-0.9849 -6.7348 0.63501 0 328
-0.9828 7.2215 -0.16921 0 11225
-0.96791 -6.2379 0.58893 0 340
-0.95517 -12.11 1.4205 0 280
-0.95035 -7.9228 1.5034 0 314
-0.87147 -14.933 0 0 258
-0.86852 10.818 -0.25198 0 11286
-0.8667 -7.0791 0 0 317
-0.84773 -9.3876 0.43956 0 288
-0.84278 13.396 2.2052 0 11303
-0.82606 8.2036 -0.3845 0 11261
-0.79842 -5.0467 0.83946 1 344
-0.75066 5.9007 0.97726 0 11234
-0.69574 7.811 -0.73162 0 11273
-0.67626 -7.2486 0.16902 0 290
-0.63442 -9.891 -0.23011 0 262
-0.62617 -9.3534 1.5401 0 269
-0.59804 -7.3053 1.2042 0 283
-0.50639 9.3503 1.316 0 11310
-0.50313 -6.9008 0.48383 0 273
-0.4914 11.58 2.1837 0 11329
-0.48569 13.246 1.2366 0 11336
-0.43326 -11.434 1.0675 0 238
-0.39086 -9.5243 1.3397 0 242
-0.38206 7.9252 -1.4949 0 11322
-0.26256 8.5447 -0.39866 0 11340
-0.23934 7.7892 0.91132 0 11344
-0.22459 13.835 0.64527 1 11365
-0.14909 -8.2924 0.57996 0 217
-0.033597 -10.694 0.49872 1 204
0.017135 -7.0124 -0.32702 1 201
0.033458 8.3351 -0.97474 1 11380
0.037873 5.5643 0.3891 0 11389
0.040568 10.106 1.6604 0 11386
0.073655 -5.2748 0.8667 0 194
0.089953 -10.737 1.0017 0 198
0.14811 5.4735 -1.4334 0 11420
0.2172 -6.9115 0.80864 0 181
0.25691 8.6055 1.0068 0 11423
0.27779 -7.4341 0.86997 0 176
0.28144 7.2928 -0.85348 0 11433
0.30762 5.7923 0.13467 0 11452
0.34812 -6.7324 1.2701 0 165
0.3526 -8.779 1.0275 0 173
0.50695 -6.287 1.0363 0 141
0.54845 -9.071 0.21099 0 157
0.58706 -8.862 0.8286 0 155
0.59314 -8.2144 -0.19121 0 149
0.60498 -8.3784 1.5827 0 151
0.61417 -7.6168 1.4397 0 142
0.61895 -7.4019 0.69297 0 137
0.62622 8.5072 1.1988 1 11479
0.633 -10.469 0.97852 0 158
0.67454 -7.07 -0.16489 0 122
0.6915 9.394 -0.21869 0 11476
0.77715 -6.5563 0.15328 0 93
0.78105 -10.817 1.0118 0 150
0.80552 -9.3006 0.87095 0 133
0.83195 4.9662 0.94872 0 11695
0.85169 -6.3831 1.058 0 74
0.86958 -8.1101 0.76097 0 106
0.99052 -9.5039 0.22185 0 110
0.99513 -6.8381 -0.16043 0 56
1.045 5.0638 -1.099 0 11851
1.0609 -8.716 1.4425 0 89
1.1103 -7.8017 0.92154 0 61
1.1235 -5.7961 0.82975 0 25949
1.1242 9.3581 -1.3246 1 11562
1.2051 -6.8834 0.16224 0 12
1.2839 6.3107 0.60083 1 11834
1.2899 -12.743 1.8001 0 114
1.3395 -7.6515 -0.18035 0 11
1.3689 9.7154 -0.45754 0 11609
1.3942 7.1657 0.34043 0 11794
1.3974 -6.5912 1.107 0 25929
1.4152 -7.6431 0.909 0 25958
1.4451 -10.604 0.49909 1 68
1.5023 8.6704 0.2043 0 11714
1.5275 -9.1874 -0.21623 0 27
1.5463 5.7828 -0.55847 0 12073
1.5983 -6.5069 0.78355 0 25896
1.5988 8.9127 1.2726 0 11737
1.6101 7.9138 1.5216 0 11838
1.6157 11.468 0.26887 0 11610
1.7141 -8.9774 0.21219 0 25952
1.7419 -8.4486 1.4173 0 25935
1.7733 8.0054 -1.1524 0 11894
1.8491 -6.3274 0 0 25861
1.9013 10.092 -1.4432 0 11761
1.9218 6.1028 -0.59692 0 12293
1.9578 -5.8174 0 0 25825
1.9676 4.7223 -0.47728 1 12747
1.9721 -11.465 1.0853 0 17
1.9818 -7.5921 0.91759 0 25884
2.0219 -7.0744 1.0341 2 25865
2.0518 6.94 -1.189 0 12207
2.1214 -6.422 1.1112 1 25829
2.1411 5.3612 -0.53859 1 12667
2.169 -12.838 1.2147 0 21
2.1793 7.9609 -0.19163 0 12102
2.2393 6.9082 -0.33866 0 12332
2.2411 -4.9751 0.12668 0 25709
2.2834 5.6205 0.70945 0 12706
2.2874 8.8577 0.85349 0 12042
2.2904 9.2 -1.3324 1 12002
2.3037 7.708 1.1306 0 12227
2.3154 -5.3893 0.41017 0 25743
2.3277 5.5865 0 0 12749
2.3341 -9.8739 1.6669 0 25903
2.3516 -11.092 0.79285 0 25928
2.3909 -6.9714 0.68759 0 25822
2.4008 7.1174 0.70078 0 12397
2.4139 -10.773 1.8138 0 25913
2.4282 9.8637 -1.4276 0 11992
2.43 8.2194 0.59935 0 12213
2.4307 5.2294 -0.67437 0 12977
2.4624 12.29 2.0593 0 11823
2.468 -7.5421 1.3038 0 25832
2.4937 7.2586 1.446 0 12425
2.5558 4.626 0.36957 0 13372
2.577 -11.343 1.6347 0 25910
2.5944 11.712 1.6859 0 11906
2.6362 -8.3917 1.0286 0 25845
2.6633 5.0599 0 0 13251
2.7569 -6.12 0.78495 0 25712
2.8294 -5.0233 0.81027 0 25477
2.8476 -9.2449 -0.45111 0 25852
2.9257 -8.2894 0.61469 0 25817
2.9382 8.2424 -0.40807 0 12474
2.9494 4.052 -0.35046 0 14130
2.9525 -5.4996 0 0 25519
2.9766 -10.186 1.4914 0 25862
2.9943 5.1675 0.13866 0 13475
3.003 4.8871 0 0 13632
3.0624 9.0788 -0.22245 0 12391
3.096 5.8031 -0.92439 0 13285
3.0972 -6.5227 0.67365 0 25652
3.1001 -14.007 2.3569 0 25916
3.1028 -9.4819 0.93078 0 25831
3.1232 4.8278 -0.40208 0 13784
3.1333 -7.293 1.3041 0 25746
3.1514 -10.032 1.7276 0 25846
3.1909 11.656 0.28057 1 12103
3.2413 5.6345 -0.15092 0 13462
3.2789 -6.5136 1.0249 1 25595
3.3387 4.0705 0.12223 0 14520
3.3988 5.8304 -0.62962 2 13488
3.4739 -6.6083 -0.52206 0 25544
3.4885 -9.7004 1.9422 0 25813
3.4995 7.2005 -0.18587 0 13072
3.5279 9.2921 -0.23076 0 12581
3.5319 -9.1579 0.22788 0 25798
3.5481 8.8843 0.66896 0 12673
3.5572 -8.1498 0.41469 0 25732
3.5788 -6.9547 0.36475 0 25569
3.6134 8.2044 -1.0484 1 12865
3.6721 4.196 -1.0506 0 14739
3.7515 -8.0159 -0.41273 0 25664
3.7888 -9.2565 1.6433 0 25779
3.7932 8.4798 -0.21567 0 12900
3.8406 6.0123 0.3327 0 13752
3.8413 3.4794 0.97649 0 15610
3.8587 5.0233 0.14706 1 14309
3.895 6.8149 0.36605 0 13447
3.9151 -5.5192 -1.4383 0 25149
3.9293 4.4381 -0.69319 2 14762
3.9593 5.1209 -0.30186 0 14327
4.125 -9.9932 1.7762 0 25774
4.136 -10.457 1.0491 0 25794
4.1931 -6.133 -0.86881 0 25202
4.2168 4.024 0.81917 0 15403
4.2235 7.5975 0.40537 0 13386
4.3103 7.1992 0.3913 0 13559
4.3112 10.517 1.5974 0 12723
4.3144 -2.8481 -1.4824 0 23756
4.3544 -10.729 0.26883 0 25781
4.4302 7.4524 1.4244 1 13549
4.4639 3.7258 0.13499 1 15902
4.4836 5.4006 -1.492 0 14569
4.5341 -7.6333 0.41403 0 25410
4.5652 4.8665 -1.2572 0 14982
4.5792 -3.5213 -0.94905 0 24072
4.6154 -3.7669 -0.41659 0 24178
4.788 -5.1076 -0.48955 0 24582
4.7885 7.4019 -1.4484 0 13780
4.8293 10.152 2.1181 0 13033
4.8507 -1.8776 0.48527 0 22814
4.8966 4.1351 -0.29888 0 15854
4.9002 7.0716 1.2091 0 14000
4.9711 -3.9613 -0.59302 0 24137
4.979 -9.0232 1.2052 0 25497
5.0184 8.6607 -0.69994 1 13473
5.1069 1.7068 -0.12501 0 18891
5.1853 -10.15 -0.79704 0 25575
5.188 -6.8424 1.4108 0 25025
5.1897 1.7496 -0.64046 1 18859
5.2852 5.4406 0.70765 2 15102
5.3249 5.8091 1.2947 0 14897
5.3404 12.925 1.9654 0 12741
5.3601 -5.0901 0.68963 2 24402
5.3782 2.3519 0.68645 0 18143
5.4212 -10.686 1.4012 0 25587
5.4238 7.9719 0 0 13932
5.4545 4.0686 1.118 0 16321
5.5226 -6.0629 0.38245 0 24639
5.533 0.10431 0.25807 0 21101
5.5928 -0.20312 -0.12993 0 21487
5.6835 -7.0992 1.0635 0 24901
5.6988 0.38651 0.80275 0 20761
5.7326 -3.3687 0.62033 2 23530
5.7478 -4.0606 0.65656 1 23893
5.834 -6.0793 1.5875 1 24548
5.8633 0.75735 0 0 20284
5.9311 0.64433 0.98018 0 20443
5.9356 -1.7391 1.0162 1 22528
5.9728 -10.604 0.56757 1 25474
5.9773 -6.6806 1.689 1 24679
6.0054 -4.3217 1.2156 1 23937
6.058 -10.405 1.1232 0 25438
6.074 0.41196 0 0 20751
6.1481 3.7293 0.67087 2 17056
6.16 -2.6746 0.4696 2 22975
6.1624 -4.1176 0.86672 2 23781
6.2251 -11.842 1.8802 2 25549
6.2832 1.9366 -0.30661 0 19082
6.289 -6.9479 0.21758 1 24649
6.3015 6.5597 -0.42419 0 15053
6.3147 -4.3513 0.71545 2 23841
6.3242 12.542 1.974 0 13162
6.3256 0.77893 0.89572 1 20336
6.3581 -11.066 0.29631 1 25451
6.3914 -2.2822 0.31649 2 22717
6.3955 -10.836 0.58676 1 25419
6.4188 -10.528 1.1504 0 25378
6.4456 9.2464 1.5841 0 14018
6.4695 -9.0066 1.8219 1 25131
6.4851 4.2212 -0.17965 0 16798
6.4877 0.17782 0.45384 0 21043
6.5131 13.401 2.448 0 13081
6.5339 8.8172 1.0239 1 14197
6.6108 12.211 1.2955 0 13328
6.6257 -8.8407 1.0307 1 25044
6.6477 9.7708 1.6609 0 13943
6.6513 8.9756 2.1048 1 14204
6.7032 2.5678 0.33475 0 18529
6.7601 -10.461 0.87098 1 25304
6.7715 -7.6108 0.71235 0 24686
6.8045 2.2741 0.50169 0 18897
6.8355 -7.4205 0.47049 2 24618
6.8361 -4.8599 1.378 2 23909
6.8366 4.5923 -0.19121 0 16693
6.8533 -10.741 2.0933 1 25326
6.8883 -9.5896 0.55062 1 25125
6.8964 10.73 1.4916 0 13774
6.9269 8.391 1.0151 2 14545
6.9723 7.649 1.95 1 14876
6.9764 -11.01 0.91144 1 25329
7.0159 -9.1366 1.8926 0 24997
7.0232 5.1723 1.2258 0 16363
7.0309 9.5469 1.1062 2 14176
7.0349 8.675 -0.25931 0 14478
7.0414 -9.9266 1.7104 0 25148
7.0444 -7.7826 1.7246 2 24654
7.0526 -7.1393 1.4104 0 24495
7.0545 2.6095 -0.52596 1 18620
7.0671 6.0018 0.86501 2 15841
7.0706 -0.42255 0.66083 1 21624
7.0982 -8.0711 1.5106 2 24713
7.1149 3.3344 0.36643 1 17928
7.1271 11.598 1.592 0 13641
7.1564 1.4118 0.68053 0 19842
7.1688 -6.3134 0.89121 1 24306
7.1705 -1.703 -0.34369 0 22378
7.1812 -9.8191 1.9986 1 25100
7.1813 -1.0157 1.0193 0 22025
7.2076 5.09 1.4497 0 16535
7.2264 -6.5548 1.8382 1 24351
7.2305 -11.117 0.61844 1 25293
7.2385 -10.784 1.8254 1 25243
7.2535 9.331 1.1026 0 14353
7.289 -11.143 1.5571 1 25285
7.2986 1.6421 0.87485 1 19671
7.3361 -1.365 0 0 22211
7.3559 4.1719 1.3894 0 17299
7.3662 3.7419 -0.77082 0 17670
7.3719 6.1923 0.44897 2 15881
7.387 -11.507 1.9217 0 25316
7.4246 -5.7778 1.1002 0 24101
7.4434 9.2346 1.9487 2 14470
7.4491 -7.9966 1.5359 0 24600
7.4625 10.638 1.8262 0 14036
7.4872 7.0629 1.4466 0 15450
7.4948 -6.0822 1.8186 1 24174
7.5022 6.191 1.8326 0 15954
7.5353 7.9851 1.2839 0 15000
7.5449 -11.46 1.6045 0 25273
7.545 -12.958 2.4636 1 25442
7.5653 5.3704 0.86557 0 16507
7.5699 -1.3852 0.35888 0 22200
7.5812 -4.455 1.6567 0 23535
7.5826 1.292 0.17858 0 20019
7.6157 3.7573 1.3952 1 17775
7.6255 6.5938 0.47012 1 15773
7.6262 11.788 1.9732 0 13793
7.6491 -10.023 1.772 2 25010
7.6721 -0.72658 1.452 1 21811
7.6929 -9.4999 2.0083 1 24879
7.7095 6.2119 1.3915 0 16040
7.7392 -2.3676 0.37742 0 22561
7.7556 -9.6322 2.33 2 24892
7.757 -9.35 0.56655 1 24825
7.7613 -2.2285 0.75335 1 22507
7.7861 -0.91742 0 0 21911
7.8003 -10.408 0.30197 2 25041
7.8252 -2.5925 1.3544 1 22648
7.8279 -6.0917 0.92539 2 24100
7.8294 7.6031 1.2763 1 15330
7.8297 -7.6567 1.7992 0 24447
7.8307 -5.6352 0.4499 0 23932
7.8387 -8.2631 0.53114 1 24564
7.8395 -1.5295 -0.37248 0 22243
7.8406 -9.9779 2.0849 2 24945
7.8442 -6.8719 0.72923 0 24297
7.8677 -7.7803 0.2569 0 24457
7.8795 -3.8926 0.61455 2 23210
7.899 4.9493 0.21642 0 16934
7.9074 -10.876 0.31219 1 25104
7.9273 10.57 1.8568 1 14241
7.9486 2.179 0.96382 0 19339
7.9771 -3.4074 0.80927 0 22952
7.9964 9.1375 0.84908 1 14731
8.0131 -9.8953 0.89037 1 24874
8.0381 5.4997 1.6001 1 16642
8.0945 9.3018 0.28628 1 14707
8.1239 6.1664 0.71319 1 16247
8.1445 -10.232 1.8379 0 24916
8.1625 1.4643 1.3625 2 19972
8.1688 -6.2095 0.71752 1 24052
8.1712 -5.4598 1.3812 0 23782
8.2081 -8.2598 1.3618 0 24484
8.2308 -9.5794 2.3796 0 24762
8.2545 -7.8387 1.8702 2 24405
8.2557 -11.016 2.5936 1 25049
8.2701 -6.8684 0.50133 2 24214
8.2859 9.415 2.0606 2 14758
8.3071 7.3108 1.0324 1 15709
8.3184 -8.3709 0.82522 1 24482
8.3237 -5.5954 1.8897 2 23797
8.3382 -7.7864 1.0644 1 24382
8.3519 -7.0654 2.0611 0 24253
8.3633 -8.5642 1.6823 0 24516
8.3751 -8.9341 2.0119 2 24589
8.3907 3.522 1.7145 2 18271
8.4117 -11.646 1.68 0 25116
8.4252 -9.7504 1.5069 0 24747
8.4258 3.0601 1.689 0 18688
8.4379 5.8842 1.9382 0 16583
8.4474 -6.4585 1.747 2 24069
8.4569 9.6094 2.4118 0 14759
8.4818 -0.82567 0.99657 2 21821
8.5111 3.4612 0.42847 2 18365
8.5305 3.2934 1.2851 1 18510
8.5546 9.6624 1.8137 0 14775
8.557 2.9114 0.84327 1 18850
8.5622 10.313 2.2022 0 14570
8.5702 0.38317 0.80036 2 20924
8.572 -8.8364 1.7302 0 24526
8.5829 12.086 1.0366 1 14061
8.596 10.058 0.30717 1 14656
8.6279 -10.586 1.5971 2 24866
8.6425 -11.126 2.6543 0 24971
8.724 9.4046 1.8028 0 14935
8.7355 -4.4413 1.3773 0 23265
8.7366 4.5035 1.8519 0 17638
8.7385 -0.62178 1.4393 0 21693
8.7428 -7.9721 2.2292 0 24359
8.7518 2.7292 1.0721 2 19066
8.7559 10.797 1.6256 0 14488
8.7765 -9.3102 1.4963 1 24576
8.7804 7.6408 1.0859 1 15755
8.7871 9.6976 2.15 2 14854
8.8067 -1.7965 0.62851 1 22280
8.8087 6.0653 1.5031 1 16620
8.8136 -9.4614 2.4362 2 24602
8.8196 -6.3469 1.2707 0 23935
8.8269 5.9695 0.74514 2 16678
8.8348 -3.6541 0.66855 0 22904
8.8534 -10.555 0.96334 1 24803
8.8703 -8.2371 1.7013 0 24376
8.9382 -5.1459 1.2061 0 23492
8.9439 -7.7392 1.9432 1 24287
8.95 10.472 2.2632 1 14665
8.9638 -8.7657 2.3622 0 24448
8.9677 6.6454 2.103 0 16344
8.9724 -7.0682 0.79871 0 24119
9.0027 -2.0851 1.0807 0 22364
9.0096 -1.7856 1.509 0 22263
9.0399 2.1136 0.86612 2 19608
9.0477 -10.976 1.3271 2 24840
9.0478 -5.9728 1.5237 2 23759
9.0553 -11.865 0.34654 1 25003
9.095 -11.633 2.7821 2 24958
9.0976 0.64415 0.85089 0 20733
9.1146 0.61817 1.5009 0 20763
9.1169 -0.51769 0.21201 2 21605
9.1252 1.637 1.3029 2 19970
9.1293 9.6136 1.5504 1 15021
9.134 -2.564 1.7875 0 22496
9.1348 -0.094068 1.7212 2 21312
9.1356 -11.626 -0.68953 2 24937
9.1374 -11.148 0.33465 2 24849
9.1377 3.653 1.8541 0 18422
9.1415 -11.692 -1.3846 1 24949
9.1473 -7.5539 1.3873 0 24204
9.1581 4.1929 0.93969 1 17999
9.1633 -7.0465 0.53906 1 24078
9.1663 -7.9822 0.2822 2 24289
9.168 4.3926 0 0 17858
9.1685 -11.25 2.7343 1 24869
9.1749 3.4249 1.1452 2 18606
9.1769 -11.463 2.0637 2 24902
9.185 -6.9819 1.3492 2 24054
9.2144 4.885 0.24214 0 17533
9.2215 -11.453 1.7195 2 24889
9.222 -11.519 1.0318 1 24898
9.2312 3.112 1.1392 2 18875
9.2358 9.8454 0.62953 2 14972
9.2368 -7.6278 2.257 0 24207
9.2417 -1.8853 0 0 22277
9.2496 -3.7634 1.4034 1 22884
9.2707 9.8826 2.2262 0 14981
9.2729 -11.517 -1.0339 1 24883
9.2799 -8.4618 0.29157 1 24352
9.2808 -8.8133 0.89498 1 24401
9.3094 -1.9856 0.66562 0 22311
9.3099 -6.8238 2.1748 1 23981
9.321 9.6454 0.93795 1 15080
9.3744 4.5237 0.97109 2 17840
9.3786 -3.9462 1.9171 1 22933
9.3976 -5.0537 2.0104 1 23373
9.4089 -8.8356 1.814 0 24390
9.4158 -8.1046 2.0411 1 24281
9.4178 0.86041 1.3291 0 20577
9.4945 1.1977 1.5722 0 20314
9.5085 5.804 0.5195 1 17029
9.5163 1.8515 1.3625 0 19866
9.5397 -2.4405 1.1515 1 22429
9.5716 -3.1396 1.178 0 22634
9.5812 3.23 0.47152 2 18871
9.6209 9.2907 1.8797 0 15353
9.6339 -2.3449 0.46239 0 22396
9.6375 -1.6491 0.9122 2 22165
9.6518 2.4047 0.92799 2 19502
9.6721 -3.4232 0 0 22707
9.679 -8.988 1.2323 1 24374
9.6918 3.5199 0.2394 2 18678
9.694 -9.2057 1.8788 1 24404
9.7064 -7.6905 0.86596 2 24130
9.7499 -7.1909 0.56496 1 23988
9.7568 1.638 -0.22969 0 20035
9.7606 8.3925 0.90014 1 15797
9.7728 -1.9936 1.1664 2 22281
9.7877 8.0282 1.181 0 15971
9.8017 -0.41424 1.6118 2 21534
9.8118 -4.952 2.0707 2 23255
9.8328 -4.101 0.99394 0 22915
9.8547 -11.014 1.7283 1 24676
9.8704 -6.0675 2.1829 2 23619
9.8799 0.9879 0.46304 0 20501
9.8932 -1.7516 0.46854 1 22181
9.8966 -6.2467 1.0919 0 23664
9.9188 -7.6716 -0.87684 0 24088
9.9389 -0.50522 0.69589 0 21573
9.9397 -8.7077 0.3068 1 24295
9.9501 0.99491 1.4054 0 20508
9.955 -6.4846 1.9519 0 23733
9.9743 -7.6259 1.1714 1 24066
9.9803 5.8554 1.3532 0 17175
9.9809 -4.5401 1.8015 2 23060
9.9813 -0.50738 1.883 2 21582
9.9834 -1.7999 1.4257 2 22193
9.9946 -1.2679 1.8982 1 21960
10.015 -9.9664 1.9857 2 24469
10.029 8.5172 2.1617 2 15844
10.054 -11.037 2.4529 0 24644
10.077 2.5106 1.7062 2 19508
10.091 -10.042 0.33052 1 24464
10.1 8.1874 1.213 0 16016
10.103 3.1797 1.2386 0 19041
10.108 -8.0085 0.60139 1 24129
10.121 -2.037 1.2073 0 22271
10.147 -8.4274 0.30624 2 24213
10.151 1.1637 0.71445 0 20394
10.16 -0.57691 0 0 21604
10.166 -7.8627 1.8062 1 24092
10.173 2.8192 0.98484 0 19316
10.223 -0.63781 0.71626 0 21639
10.236 -6.0945 0.27658 0 23552
10.246 -10.311 0.33748 1 24480
10.246 -0.6123 1.2003 0 21626
10.249 0.069768 1.4404 1 21191
10.262 0.72662 1.6903 1 20739
10.308 4.7564 1.5955 0 17977
10.316 -1.9511 0.24376 1 22222
10.318 -9.6352 1.9841 0 24383
10.33 -0.91463 1.4574 1 21781
10.364 -1.1607 0.97295 1 21891
10.368 3.1006 0.75672 0 19158
10.38 0.82423 0.97146 1 20666
10.388 -10.638 2.4428 1 24517
10.397 -0.35035 0.48512 1 21469
10.419 -1.3495 1.2286 0 21970
10.426 -3.2873 0 0 22588
10.451 -7.0256 0.88061 2 23791
10.476 4.9475 0.54027 2 17907
10.482 -10.365 2.0717 1 24461
10.541 -1.4289 1.7477 2 21997
10.568 -4.0524 1.8595 0 22805
10.605 3.1393 1.817 0 19186
10.606 0.69147 2.0026 0 20787
10.622 -9.1911 0.32611 2 24283
10.622 3.8577 1.0543 0 18681
10.658 -10.364 0.34514 2 24433
10.658 -6.3032 0.57745 1 23540
10.674 4.8869 0.82089 0 17997
10.711 -6.8473 0.29515 1 23687
10.742 0.32444 1.2568 1 21026
10.744 10.135 0.34292 1 15441
10.835 0.01324 0.25156 0 21223
10.889 0.92778 -1.0196 0 20607
10.908 -0.84312 0.51018 1 21717
11.034 -6.2705 0.88744 1 23466
11.066 2.5875 -0.26386 0 19601
11.09 9.0444 0.33224 1 15988
11.149 -6.4655 1.5072 0 23505
11.19 -4.8217 1.4249 0 22964
11.19 -4.7086 1.7063 0 22929
11.226 -5.5457 1.7597 0 23213
11.29 -5.74 0.88563 2 23262
11.384 -6.6898 0.30657 1 23527
11.439 -5.8988 0.60018 2 23288
11.552 -4.5456 0.86805 1 22836
12.055 2.2713 1.7241 0 19906
12.117 2.6509 0 0 19703
12.166 2.4001 0.28791 1 19839
13.654 -5.1486 1.3614 0 22778
-12.644 7.6874 -1.7304 0 4755
-11.605 9.4882 -1.7529 1 5865
-0.51975 10.781 -1.517 0 11315
1.5785 9.7566 -1.6238 0 11663
2.3469 13.545 -1.932 0 11707
2.8006 4.3027 -1.602 0 13805
3.3524 5.7856 -1.7505 0 13479
3.5953 1.7613 -1.5634 0 17788
