VERSION .7
FIELDS x y z intensity index
SIZE 8 8 8 8 8
TYPE F F F F F
COUNT 1 1 1 1 1
WIDTH 1275
HEIGHT 1
VIEWPOINT 0 0 0 1 0 0 0
POINTS 1275
DATA ascii
-9.8171 -1.1637 -0.69129 0 4339
-9.8092 0.2089 0.91536 0 4719
-9.703 1.7179 1.6189 0 5029
-9.4506 -0.21116 0.88192 0 4568
-9.3072 -0.55947 1.7567 0 4442
-9.1726 0.72673 1.076 1 4922
-9.0587 2.5156 0.21827 0 5151
-9.0408 -0.91196 1.2771 0 4352
-8.9858 -0.85574 1.0556 1 4359
-8.7957 -1.1986 1.4584 0 4334
-8.766 3.8097 1.3433 0 5475
-8.6528 0.89112 0.40565 0 4966
-8.564 2.7282 -0.62851 0 5205
-8.5462 3.9815 1.7763 0 5589
-8.5236 2.6336 1.0433 0 5196
-8.5162 4.7518 0.68194 0 5982
-8.4919 3.3759 -0.85256 0 5343
-8.458 1.5966 1.0066 0 5040
-8.4115 0.30109 0.39251 0 4769
-8.3506 4.253 -0.8743 0 5735
-8.345 1.204 -0.58958 0 5005
-8.3269 0.58958 -0.77881 0 4897
-8.2911 1.1446 1.1763 0 5002
-8.1292 5.7197 0.69505 0 6501
-8.1266 0.93165 -0.18991 0 4981
-8.1099 4.07 0.6345 0 5716
-8.0733 5.5424 1.6089 0 6447
-8.0713 0.99675 -0.95104 0 4987
-8.0341 1.4427 1.3411 0 5033
-7.818 1.666 0.93478 0 5062
-7.8174 0.64408 0.18211 0 4927
-7.712 6.3099 1.6371 0 6808
-7.6727 6.0595 1.6063 0 6731
-7.6624 2.6878 -0.56782 1 5245
-7.6454 1.7665 0.5487 0 5079
-7.5687 1.1123 0 0 5009
-7.4814 4.7332 -1.2442 0 6240
-7.412 -1.1183 -0.34956 0 4329
-7.3264 -5.2937 0.84327 0 4267
-7.308 1.8261 0.88089 0 5101
-7.2584 5.6302 -0.42838 0 6688
-7.2169 -6.808 0.23034 0 4113
-7.2004 5.1001 -0.82321 0 6508
-7.1877 3.5306 0 0 5672
-7.184 0.76013 -0.16772 0 4970
-7.1777 5.2072 0.20588 0 6560
-7.1498 3.5119 -0.93153 1 5668
-7.1076 2.1513 0.17241 0 5191
-7.0377 4.5668 1.1791 0 6322
-7.0375 0.91026 0.16475 0 4994
-7.0145 4.3238 0 0 6190
-6.974 2.7725 -0.87763 0 5342
-6.9458 4.7381 0 0 6423
-6.9203 -1.0664 0 0 4328
-6.9197 -1.044 0 0 4330
-6.8967 1.3631 -0.16322 0 5049
-6.8919 -4.5928 0.77268 0 4292
-6.8623 2.7503 1.2146 2 5363
-6.8567 2.2292 0 0 5213
-6.8127 -0.32843 -0.31807 0 4473
-6.8094 2.9835 1.2214 0 5487
-6.8048 -4.5091 -0.38068 0 4294
-6.8021 1.0822 1.1316 0 5019
-6.6043 2.9875 0.84767 0 5531
-6.6003 1.069 -0.9397 0 5020
-6.5706 2.8352 -0.33372 0 5455
-6.561 5.06 0.96893 0 6682
-6.5499 2.0664 0.64077 0 5202
-6.4841 1.758 -0.15598 0 5130
-6.4795 -6.2571 1.6971 1 4090
-6.479 4.9375 -1.1448 0 6647
-6.4549 -7.0864 1.5748 2 3968
-6.451 -7.1219 1.5787 0 3961
-6.4441 0.6239 0.45272 0 4957
-6.4322 0.66243 0.45216 0 4967
-6.4048 -5.7025 1.0028 0 4165
-6.4047 -5.7325 1.0052 1 4161
-6.3978 1.4207 -0.92105 0 5070
-6.3968 1.8742 -0.46611 0 5180
-6.3896 -0.98459 -0.30149 0 4327
-6.3813 -4.3091 -0.17877 0 4289
-6.3649 0.95579 -0.45007 0 5011
-6.3077 -6.4188 1.4785 2 4043
-6.2789 -1.0046 1.0447 0 4325
-6.2591 -6.4431 1.0505 0 4032
-6.2057 -5.7224 0.59028 0 4134
-6.2004 -7.1303 1.328 0 3923
-6.1793 -7.4908 1.3647 0 3868
-6.1274 -4.0081 1.2029 0 4298
-6.1271 1.4914 0 0 5087
-6.1197 -5.7067 0.78066 2 4125
-6.1117 -4.0498 1.2046 0 4295
-6.0851 -7.3374 1.3397 1 3875
-6.0658 -5.4943 0.95708 2 4150
-6.0361 1.9426 1.0418 0 5210
-6.0328 -0.91022 0.42663 0 4332
-6.0288 -7.1417 1.3135 2 3892
-6.0083 2.1489 0.29757 0 5257
-6.0034 -4.418 0.52122 0 4256
-5.9782 0.21399 0 0 4768
-5.9738 7.6269 1.1329 0 7560
-5.9657 -6.9431 1.2865 2 3910
-5.9579 -5.6538 1.5475 1 4109
-5.9498 1.7816 -0.4343 0 5188
-5.9476 5.0119 1.2778 0 6878
-5.9472 -6.4517 0.61358 0 3976
-5.9459 0.38555 -0.13834 0 4883
-5.944 5.0089 0.54354 0 6874
-5.9192 7.7898 0.91276 0 7614
-5.9144 1.6792 0.71897 0 5167
-5.9041 -5.8364 1.5642 2 4069
-5.8902 5.4524 1.3187 0 7009
-5.8861 3.3751 -1.1147 0 6034
-5.8402 1.9348 0.14284 0 5220
-5.8072 -5.4782 0.74481 2 4114
-5.8023 -6.2945 0.79868 2 3977
-5.7926 0.45894 0.54212 0 4921
-5.7858 -7.9081 1.6099 0 3782
-5.7831 -5.4879 0.55749 2 4105
-5.7684 -6.7135 1.4542 0 3911
-5.7536 -0.56415 0.81249 0 4356
-5.744 4.6464 -0.34453 0 6774
-5.7334 7.3649 -0.2167 0 7566
-5.7115 -4.4112 -0.67328 0 4232
-5.6934 -5.4028 1.1031 2 4107
-5.6608 1.1373 0.40375 0 5052
-5.6547 -6.5812 0.60674 1 3908
-5.6516 4.2034 -0.65712 0 6601
-5.6497 -6.8903 1.2523 0 3864
-5.6491 0.64763 0.79913 0 4982
-5.6436 0.36594 0.66136 0 4887
-5.6379 4.669 -0.68294 0 6828
-5.6357 1.3895 0.67878 0 5094
-5.6245 4.5222 1.0143 0 6771
-5.6036 -6.4804 0.59907 1 3916
-5.6027 -4.8978 0.69427 2 4172
-5.6019 0.0048888 -0.26124 0 4650
-5.5808 -6.3435 1.1874 2 3937
-5.5654 -6.8288 1.2381 2 3858
-5.5541 1.0485 0.92863 0 5041
-5.5512 2.3187 0 0 5409
-5.5398 2.1822 -0.55549 0 5332
-5.5048 6.5418 0.1985 0 7427
-5.5009 4.5008 -0.83117 0 6792
-5.4924 7.3579 1.2904 0 7645
-5.4908 -6.8585 1.2347 2 3840
-5.4635 4.8832 -1.2039 0 6940
-5.422 6.3709 1.1757 0 7404
-5.4062 4.4502 -0.81886 0 6810
-5.4024 3.2422 -0.58782 0 6136
-5.3925 -5.4875 0.35879 2 4041
-5.3578 -0.8745 0.37961 0 4321
-5.3552 -6.7687 0.60353 0 3830
-5.3504 -7.054 -0.20555 0 3804
-5.3503 2.5703 -0.8342 0 5630
-5.3457 3.2311 0.14502 0 6155
-5.2864 5.927 0 0 7303
-5.2818 4.0251 -0.77658 1 6648
-5.2604 2.777 0.1381 1 5822
-5.2271 -4.7613 0.9937 0 4144
-5.1832 -6.9134 0.40295 0 3795
-5.1572 5.6163 0.71137 0 7246
-5.1292 2.2644 0.92117 0 5498
-5.0748 -5.3142 0.51383 0 4009
-5.0721 6.7949 0.79107 0 7644
-5.0604 -5.3307 0.51397 0 4002
-5.0591 -3.7463 0.29357 0 4253
-5.0024 2.9243 -0.13453 1 6078
-4.9973 3.2627 -0.55679 2 6326
-4.9897 -3.3884 0.28127 0 4287
-4.9896 1.6695 0.86443 1 5224
-4.9826 3.2742 -0.55624 0 6339
-4.9731 -4.4277 0.9358 0 4166
-4.9719 0.0043389 0.34767 0 4654
-4.9584 1.132 0 1 5077
-4.9583 8.2749 1.5849 0 8007
-4.9535 4.5854 -0.78936 1 7001
-4.9501 2.4842 -0.38729 1 5710
-4.9258 1.6807 -0.12084 0 5231
-4.9141 5.673 0.70022 0 7362
-4.8952 3.3006 0 0 6399
-4.8926 3.8391 0.5802 2 6715
-4.8801 3.4145 0 0 6485
-4.8751 -4.3895 1.0778 0 4157
-4.8724 3.8952 0 0 6750
-4.8709 -0.52055 0.22845 0 4345
-4.8589 5.1688 0 0 7209
-4.8252 7.1349 -1.2105 0 7796
-4.8179 1.7545 -0.35855 0 5267
-4.8176 0.86509 0.11364 0 5032
-4.8027 4.4209 0.609 0 6998
-4.7955 3.479 0.97337 0 6566
-4.7554 6.1439 1.4638 0 7578
-4.6987 -6.3801 0.73923 2 3785
-4.6905 -6.3342 0.73533 1 3788
-4.6901 -6.9429 1.5786 0 3748
-4.6842 -0.77798 0.78012 0 4318
-4.6539 4.0871 0.72432 0 6925
-4.65 6.9592 0.19432 0 7827
-4.6499 6.1194 0.35841 0 7612
-4.6444 3.1103 -1.0531 0 6393
-4.6336 -3.6646 0.27549 0 4227
-4.6254 -0.6723 0 0 4333
-4.6244 1.6077 0.92243 0 5242
-4.5754 2.1006 0.23478 0 5554
-4.5723 3.5466 0.67669 0 6694
-4.572 5.3117 -0.32683 0 7373
-4.5476 4.2096 0.43333 0 7006
-4.5303 -7.4775 1.4364 0 3696
-4.5283 -0.0094853 -0.42247 0 4641
-4.5246 5.676 -1.0201 1 7527
-4.5022 4.216 0 0 7024
-4.5012 2.5956 0 0 6052
-4.4904 -5.9894 0.52345 1 3796
-4.4819 7.2455 0.1978 0 7944
-4.4627 8.0246 0.42819 0 8132
-4.4437 -2.8902 0.87091 0 4299
-4.4435 6.098 1.4216 0 7684
-4.4252 1.5099 0.43622 1 5232
-4.4242 0.22334 0.51803 0 4834
-4.4147 -3.1898 0.76545 0 4268
-4.4125 2.5795 -0.59771 1 6074
-4.4113 3.8509 0.40947 0 6918
-4.3924 -3.3728 0.25826 0 4238
-4.3905 2.6193 0.23841 0 6128
-4.3748 -0.80529 0.62517 0 4316
-4.3355 3.2245 -0.63186 0 6599
-4.3282 1.6623 0.54219 0 5311
-4.3106 -7.0702 1.1638 0 3700
-4.3089 -0.77996 0.61542 0 4317
-4.3044 1.4144 0.10519 0 5216
-4.2904 -6.4722 0.90807 0 3743
-4.2712 2.5149 0.23115 0 6099
-4.2622 3.4478 0.77046 2 6782
-4.2292 -2.9273 0.35966 0 4282
-4.2262 -5.4386 1.1316 0 3820
-4.2244 2.7058 -0.70505 0 6279
-4.1966 3.7063 0.78688 0 6935
-4.1931 -3.6245 -0.12868 0 4179
-4.1824 2.801 -0.58865 0 6377
-4.1656 6.6896 1.1075 0 7937
-4.1489 -0.45584 -0.3894 0 4341
-4.1402 7.4907 0.39913 0 8144
-4.135 3.5668 -0.89718 0 6904
-4.1224 8.9341 -1.3828 0 8416
-4.112 1.648 0 1 5356
-4.1077 2.2294 0.43603 0 5919
-4.0918 -3.5582 -0.1259 1 4175
-4.0657 -7.9622 1.4688 0 3542
-4.0458 8.0232 0.20862 0 8284
-4.044 0.0035292 0 0 4651
-4.0385 2.2367 0.53987 0 5967
-4.0267 0.085754 0.18782 0 4718
-4.0143 -0.52279 0.56894 0 4338
-4.0061 3.3377 -1.365 0 6854
-3.9813 3.3372 -1.36 2 6863
-3.9709 3.964 -0.92182 0 7103
-3.9558 -0.52712 0.56087 1 4335
-3.9269 2.8156 0 0 6536
-3.9124 0.15167 0.45787 0 4782
-3.8781 1.8898 0 0 5658
-3.8631 1.4705 0.19276 0 5299
-3.8608 2.3034 0.73862 1 6133
-3.8568 1.4813 0.19267 0 5307
-3.8453 3.0917 0 0 6765
-3.8411 0.64553 -0.090429 0 5024
-3.8367 2.2744 0.73278 1 6118
-3.8115 1.5153 0.57646 0 5350
-3.8003 3.0741 0 0 6777
-3.7852 3.0434 0.45313 0 6769
-3.7815 0.41147 0.17739 0 4974
-3.7426 1.4742 0.56532 0 5338
-3.7274 -7.145 1.1326 0 3558
-3.714 -6.1713 0.67198 0 3688
-3.6955 -7.8426 -0.20128 0 3484
-3.6779 3.5455 0.11861 0 7060
-3.6691 1.6721 -0.28196 0 5537
-3.6611 1.1783 -0.81751 0 5209
-3.6523 -5.9114 0.81259 0 3708
-3.6363 1.4456 0.73728 0 5353
-3.6255 4.8889 0.71177 0 7656
-3.6191 6.685 -0.3545 1 8171
-3.6152 7.3244 0 0 8322
-3.6103 0.48813 0.25475 0 5000
-3.6017 1.691 0.5592 1 5602
-3.6013 -0.54336 0.16984 0 4331
-3.5819 0.47411 0.25266 1 4998
-3.5756 -3.9254 0.62094 0 3967
-3.566 3.4763 0.58238 0 7077
-3.5643 -0.27676 0.083002 0 4394
-3.5532 7.253 1.1351 0 8335
-3.5347 1.5856 0 1 5512
-3.5297 1.5967 0 0 5524
-3.524 1.4959 0.53804 0 5439
-3.5203 1.9497 0.2814 0 5964
-3.5083 6.0159 0.16169 0 8054
-3.5079 3.667 0.11782 0 7179
-3.4898 3.6289 0.11689 0 7167
-3.4891 7.2822 0.75335 0 8372
-3.4783 7.3121 -0.37761 0 8381
-3.4749 0.27531 0.48989 0 4923
-3.4624 1.2609 0.43092 0 5270
-3.4602 7.3268 0.75595 0 8399
-3.4437 6.0253 0 0 8093
-3.4432 3.8605 -0.97464 0 7310
-3.4349 8.4549 0 0 8581
-3.4345 -5.4878 0.60398 0 3714
-3.425 1.8845 0.73654 2 5954
-3.4122 -3.9713 0.98649 0 3912
-3.3984 -0.017201 0.55834 1 4637
-3.3721 -3.6582 0.81741 0 3978
-3.3648 3.1322 0.21438 0 7015
-3.3641 1.929 -0.545 0 6035
-3.3526 -3.6574 0.81514 0 3973
-3.3479 4.3789 -0.90561 0 7594
-3.3447 0.18817 0 0 4856
-3.3383 -8.6649 0.86631 0 3284
-3.3332 3.9864 -0.85373 1 7432
-3.333 8.9431 0 0 8699
-3.3282 3.4791 0.67666 2 7184
-3.3259 1.5269 0.68951 0 5561
-3.3235 -4.598 0.5293 0 3775
-3.3074 0.82646 0.079149 1 5098
-3.3051 3.0767 -0.74186 0 7010
-3.2802 7.3882 1.3281 0 8475
-3.2703 -4.1812 0.24754 0 3824
-3.2589 6.9005 0.53364 0 8397
-3.252 1.8145 0 0 5978
-3.2503 -4.5249 0.91533 0 3772
-3.2445 1.8469 -0.52468 1 6021
-3.2424 -0.28025 0.15177 0 4373
-3.2369 4.4963 0.64789 0 7701
-3.2361 -0.24162 -0.075342 0 4402
-3.2262 6.7336 -1.0494 1 8361
-3.2168 3.8692 -0.58842 0 7449
-3.2155 -0.24967 -0.074878 1 4393
-3.2109 3.7304 -0.34418 2 7372
-3.184 1.4949 0.24596 0 5598
-3.1714 7.6829 0.19297 0 8561
-3.1613 1.2568 -0.72312 0 5351
-3.1594 7.2904 0.74128 0 8503
-3.156 1.1387 0.077895 0 5262
-3.1536 9.3654 1.8619 0 8810
-3.136 -3.4428 0.21717 0 3964
-3.1313 -2.8693 0.69777 0 4139
-3.13 -5.6374 -0.60157 1 3618
-3.1189 2.871 -0.49573 1 6993
-3.0876 1.1043 0.076131 2 5256
-3.0752 -6.0225 -0.157 2 3536
-3.0738 -2.3188 0.63259 0 4246
-3.0726 -2.2201 0.26507 0 4266
-3.0682 3.6462 -0.44458 2 7422
-3.0624 0.5875 0.5123 0 5044
-3.0533 3.8537 -0.11415 0 7542
-3.0526 -4.3289 0.49419 0 3765
-3.0505 0.6679 0.36518 0 5069
-3.0421 -2.3639 0.2694 0 4231
-3.0217 2.716 -0.094329 1 6958
-3.0164 8.7853 1.3054 0 8794
-2.999 -0.4895 0.14171 0 4320
-2.9842 3.4244 -1.0763 0 7351
-2.9841 -4.5916 0.25537 0 3732
-2.9787 4.0167 -0.1161 0 7653
-2.9668 -8.9132 0 0 3138
-2.9631 -6.7437 0.68721 0 3416
-2.9475 6.7498 1.2101 0 8493
-2.935 1.2756 0.37424 0 5473
-2.8853 6.8773 -0.17315 2 8536
-2.8839 -2.3495 0.34704 0 4216
-2.8832 3.4263 0 0 7426
-2.8819 7.0937 -1.0761 1 8575
-2.8733 6.3696 0.65192 0 8453
-2.8592 -2.0903 0.41419 0 4261
-2.859 6.8145 1.3923 0 8540
-2.8413 1.2853 0.29094 0 5529
-2.8281 4.1818 0.82941 1 7808
-2.8281 5.224 0.97597 0 8176
-2.8277 -7.2751 1.2824 0 3297
-2.8267 -2.458 -0.17469 0 4174
-2.8142 1.5916 0.60915 0 6019
-2.8052 1.1152 0.14078 0 5345
-2.7982 5.5491 1.1709 0 8291
-2.7903 4.6567 0.76295 0 8006
-2.7896 2.4352 -0.25894 1 6917
-2.7844 -3.165 0.69258 0 3938
-2.7817 4.6756 0.76462 1 8020
-2.7766 -5.0009 0.39998 0 3621
-2.7585 3.3179 0.10018 0 7453
-2.7564 -4.0061 0.79893 0 3754
-2.7528 5.3794 0.70666 0 8264
-2.7465 5.7323 -0.14757 0 8368
-2.7446 -2.2107 0.16435 0 4220
-2.7402 7.484 -0.18504 0 8721
-2.7359 -2.2569 0.33088 0 4213
-2.7176 -8.0151 0.78958 0 3156
-2.7174 -2.3217 0.16668 0 4186
-2.7124 1.9318 0 0 6521
-2.7116 -2.1974 0.16276 0 4218
-2.6939 -3.7739 -0.32423 1 3768
-2.6818 4.3901 -0.2399 0 7963
-2.6791 -4.957 0.79189 0 3591
-2.6694 2.1841 0.080077 0 6802
-2.6664 -2.0593 0.39398 2 4234
-2.6561 1.9511 -1.2869 0 6582
-2.6469 -2.0325 0.39027 0 4239
-2.6386 -3.1986 0.68123 0 3869
-2.6355 6.0815 0 0 8501
-2.602 1.5211 0 0 6080
-2.5999 1.6227 -0.28592 0 6213
-2.5795 6.1968 0.15584 0 8548
-2.5636 4.2248 -0.8119 0 7969
-2.5633 6.7586 0.50546 0 8678
-2.5338 4.0159 0.89465 0 7921
-2.5268 -3.3496 0.39145 0 3801
-2.5224 -3.3255 0.3894 0 3806
-2.5191 -3.0722 0.4646 0 3863
-2.5173 5.2918 0.68529 0 8387
-2.4643 2.0409 -0.60286 0 6841
-2.4523 5.2734 -0.27121 0 8413
-2.4494 1.9456 -0.6649 0 6744
-2.4449 1.9545 -0.66532 0 6759
-2.4402 -2.5411 0.081795 0 4016
-2.4388 4.1818 0.45164 0 8057
-2.4364 5.8072 1.0347 0 8539
-2.4287 7.5781 1.1184 0 8860
-2.417 -6.4991 1.3064 0 3252
-2.4129 4.1659 -0.33664 2 8065
-2.4091 -3.6591 0.6157 0 3739
-2.4086 -3.6807 0.61821 0 3736
-2.4052 2.1242 -0.52722 0 6927
-2.3929 -2.7997 -0.25754 1 3900
-2.3607 4.8188 0 0 8331
-2.3317 -2.9812 0.26466 0 3825
-2.3234 -8.9259 1.2963 0 2972
-2.2775 -2.6043 0.56839 0 3931
-2.251 -4.605 -0.47821 0 3509
-2.2424 -3.1023 0.44764 0 3776
-2.23 -2.5644 0.55834 1 3924
-2.2157 2.3041 -0.67946 1 7171
-2.1878 4.099 -0.653 0 8190
-2.1684 8.9424 1.2932 0 9196
-2.1584 -4.6521 0.23916 0 3471
-2.1278 -2.8381 0.49852 0 3797
-2.1171 2.6559 -1.0598 0 7535
-2.1132 -5.0867 0.90496 0 3368
-2.1075 -5.2425 0.9283 0 3331
-2.1019 2.4558 0.15074 0 7387
-2.1014 2.4259 -0.60471 0 7365
-2.0877 2.7806 -0.080727 0 7632
-2.041 2.3846 -0.59138 0 7393
-2.0315 2.5176 -0.84687 0 7511
-2.0275 3.1936 0.53164 1 7911
-2.0158 3.1556 0.43789 0 7902
-1.9869 -4.7405 0 2 3372
-1.9783 4.0996 0.85762 0 8360
-1.9432 3.567 0 0 8163
-1.93 3.5651 0 0 8173
-1.9262 -4.5224 0.92613 0 3394
-1.9258 7.9423 1.3427 0 9198
-1.8941 -4.8306 0.9776 0 3304
-1.8934 2.8337 -0.64211 1 7832
-1.8781 7.9448 -1.1473 0 9212
-1.8326 -5.11 0.76295 2 3209
-1.8186 4.9215 -1.1152 0 8714
-1.7919 -3.4614 0.64038 2 3553
-1.7883 5.3632 -1.48 0 8820
-1.7835 3.3641 -1.3859 0 8207
-1.7629 4.7707 0.71479 2 8713
-1.7135 -7.277 -0.17357 0 2908
-1.7002 2.8218 0.15363 1 7988
-1.7002 5 0.86767 0 8802
-1.6808 8.803 0 0 9357
-1.65 -5.4823 0.94062 0 3073
-1.6156 8.7342 -0.41422 0 9376
-1.6155 5.0836 -1.005 0 8873
-1.609 6.8065 -0.16238 0 9218
-1.5754 2.7924 -0.37493 1 8112
-1.4797 2.914 -0.53694 0 8266
-1.3399 -8.3558 1.3903 0 2759
-1.3187 -5.1925 0.75293 0 2959
-1.317 3.4726 0.1732 0 8677
-1.2681 3.3437 0.58752 1 8681
-1.266 -2.9482 0.14963 0 3395
-1.2526 3.421 0.25475 0 8723
-1.249 -4.1501 0 1 3067
-1.2489 3.3798 0.25196 0 8710
-1.2454 3.7352 -1.129 0 8818
-1.183 -5.9418 -0.14066 0 2825
-1.1655 3.7863 -1.2362 0 8915
-1.1634 -7.1358 0.16786 0 2762
-1.1581 3.7206 -1.2159 2 8897
-1.1538 -6.7077 0.15802 0 2775
-1.1359 -3.1073 -0.15428 0 3221
-1.1221 3.3949 -0.93602 0 8829
-1.1106 -3.8104 0.092147 0 3043
-1.063 3.5635 0.43487 0 8964
-1.0575 -4.3217 0.20748 0 2933
-1.0537 -6.0249 0.71526 0 2781
-1.0436 3.5299 0.43045 1 8977
-1.0197 -3.0635 0.53046 0 3142
-0.9339 -4.9143 0.46669 0 2810
-0.88176 -9.8605 1.8652 0 2706
-0.86641 4.0831 -0.68577 1 9291
-0.85472 -3.2837 -0.078777 0 2965
-0.84079 -4.1549 0.49573 0 2836
-0.83401 7.7401 0.91039 0 9683
-0.78093 -3.2704 -0.1568 0 2915
-0.76679 -3.7892 0.54333 1 2837
-0.75527 -3.7935 0.54361 0 2831
-0.72091 -8.3406 1.1766 0 2702
-0.68136 8.9987 1.0553 0 9835
-0.67631 -5.422 0.25481 0 2729
-0.64957 -4.1292 0 1 2755
-0.62073 4.5255 -1.3098 0 9547
-0.60696 -3.3532 0.23829 0 2792
-0.60391 -5.2195 0.24503 0 2724
-0.58207 -8.81 1.2409 2 2682
-0.56969 3.1348 0.29725 0 9394
-0.55583 3.0585 0.14497 0 9393
-0.54311 8.5139 0.59656 0 9891
-0.53775 7.729 -1.4597 0 9866
-0.51664 -4.7023 0.77721 2 2721
-0.50398 -3.3324 0.15717 0 2751
-0.49299 6.0611 -0.42524 2 9799
-0.47478 9.6045 0.89715 0 9957
-0.46134 -3.3854 0.39956 1 2740
-0.45236 9.7368 1.6014 1 9974
-0.45085 -7.8429 0.73292 0 2674
-0.44974 6.1984 -1.1709 0 9852
-0.42783 -4.4925 -0.10477 2 2711
-0.41858 -4.9951 0.11638 0 2696
-0.41628 -4.9678 0.81903 0 2698
-0.40449 3.3086 -0.46846 0 9598
-0.4032 3.5444 -0.84523 0 9656
-0.39407 3.2999 -0.46706 1 9613
-0.38031 -3.4614 0.40722 0 2720
-0.36168 -4.8214 0.91095 0 2688
-0.31889 -6.9424 0.97672 0 2662
-0.31157 -5.1532 -0.11986 0 2676
-0.30665 3.2994 0.5444 1 9753
-0.3059 3.4007 -0.97906 0 9764
-0.28243 -9.9249 1.6313 0 2642
-0.23307 3.6536 0.42813 2 9894
-0.22377 -4.8716 0.22742 0 2661
-0.22056 3.2945 -0.62211 0 9881
-0.21673 4.9639 0.23171 0 9984
-0.20606 -3.4081 0.15922 0 2677
-0.20025 -3.8859 0.36302 0 2668
-0.13056 -5.1579 0.48137 0 2638
-0.12567 -4.4161 0.51664 0 2641
-0.070719 3.4925 -1.0017 0 10107
-0.015322 5.486 0.25584 0 10184
0.00072559 4.1687 0.78542 0 10207
0.00090826 5.2182 -1.366 0 10202
0.00094453 5.4265 -1.0224 0 10206
0.0013603 7.8152 1.284 0 10205
0.014636 5.2414 -1.3721 0 10219
0.020019 7.1691 0.83838 0 10220
0.02287 3.9709 0.46437 0 10233
0.039361 6.8343 1.1228 0 10235
0.045571 5.2219 0.9839 0 10251
0.057389 3.9141 -1.3227 0 10274
0.066749 -7.0821 0.99537 0 2615
0.072077 6.073 0.28323 0 10259
0.088201 -5.7422 0.67158 0 2612
0.089428 -5.822 0.54323 0 2611
0.13877 -4.2277 0 2 2600
0.17591 -5.3593 0.25006 0 2601
0.17933 -7.5538 -0.17543 0 2606
0.19108 -7.1074 0 0 2604
0.21049 8.0383 0.7502 0 10325
0.21108 -9.9938 1.6423 0 2608
0.213 3.4926 0.081238 0 10479
0.21727 3.5626 -0.67247 0 10485
0.24931 3.5744 0.083187 0 10520
0.31211 -4.8264 0.67972 0 2584
0.35367 -6.3457 0.89321 0 2590
0.39978 -4.5512 -0.10607 0 2572
0.42366 3.1542 -0.14841 0 10769
0.45669 -4.442 0.84133 0 2565
0.4687 8.0796 -0.37742 0 10461
0.48362 -7.8398 1.2905 0 2585
0.50789 -8.6508 -0.20119 0 2587
0.54851 -8.482 -0.19734 0 2583
0.55892 -5.7835 -0.1349 0 2568
0.58298 -3.8915 0.091358 2 2535
0.59915 -4.3457 0.10185 0 2542
0.63069 3.6475 0.52023 0 10897
0.63795 -8.3673 0.78289 0 2578
0.70536 3.8169 -0.45392 1 10928
0.75024 6.6156 0 1 10700
0.76223 -3.1749 0.075806 0 2482
0.78352 -9.196 1.2971 0 2574
0.79706 6.2134 -0.14544 0 10749
0.82354 -5.3881 0.38115 0 2532
0.84921 -3.4496 0.33144 2 2478
0.86077 -3.4549 0.33218 0 2474
0.90676 -5.9326 0.98602 0 2533
0.92475 -7.8839 0.92828 0 2554
0.94624 -8.7245 -0.20374 0 2559
0.96385 4.7502 0.79634 0 11001
0.98934 5.0241 0.11889 0 10979
0.99058 8.4964 1.2022 0 10712
1.0034 -7.9654 1.319 0 2549
1.0356 7.7105 1.2782 0 10777
1.0796 6.8395 -0.16076 0 10844
1.1155 7.9472 0.74871 0 10794
1.1354 -5.1216 0 0 2491
1.1444 2.9158 0.21904 0 11699
1.1455 -2.9903 -0.22392 0 2433
1.1487 -5.7276 0.95975 0 2505
1.1802 2.882 0.51165 0 11740
1.2247 6.8479 -1.4787 0 10916
1.2253 -8.3483 0.1959 0 2537
1.2399 2.8818 0.4409 0 11793
1.2569 -3.1426 0.55607 0 2430
1.2686 3.3153 -0.84108 0 11675
1.2693 -5.1561 0 0 2477
1.2737 7.4986 0 0 10884
1.2827 3.295 0.4135 0 11692
1.3114 -3.5434 0.44184 1 2437
1.3129 -3.5153 0.43882 1 2436
1.3222 -4.1987 0 0 2443
1.3392 -3.5553 0.7158 0 2435
1.3404 2.8178 0.2182 0 11922
1.3446 -6.9044 0.16331 0 2509
1.3794 -3.1275 0.56159 0 2419
1.4385 2.939 -0.53759 0 11964
1.4653 -5.0044 0.60979 0 2453
1.4727 2.9837 -0.54667 0 11974
1.4742 -2.6661 -0.21304 0 2328
1.4829 -7.8629 0.93571 0 2512
1.5276 4.1364 -0.93727 0 11637
1.5281 3.6692 -0.65302 0 11749
1.5706 -6.4575 0.46472 0 2480
1.5932 -9.8694 0.46621 1 2527
1.6002 3.0635 -0.16118 0 12052
1.6473 -9.323 0.21981 0 2518
1.6801 4.7577 -0.59005 1 11585
1.6869 -2.6206 0.14534 0 2234
1.7117 -3.0728 0.24596 1 2326
1.7127 -3.0974 0.2475 0 2330
1.7237 -9.4475 0.22296 0 2515
1.7238 -6.5103 0.31407 0 2466
1.7375 -2.8599 0.15605 0 2289
1.7799 -3.71 0.67604 0 2396
1.8004 -2.5157 0.43478 0 2062
1.8054 -8.1434 0.97543 0 2492
1.8145 2.4176 0.56953 1 12462
1.8283 2.7897 -0.70898 1 12308
1.9092 -3.5473 -0.37584 0 2347
1.9935 -4.1553 -0.32227 0 2394
2.0178 -6.2734 0.46081 0 2442
2.0324 4.6521 -0.9565 0 11811
2.0349 4.5877 0.82455 0 11832
2.0511 -3.247 0.63097 1 2255
2.0694 3.0032 0.42651 0 12368
2.0727 4.6335 0.83395 0 11843
2.0737 -6.7871 1.166 0 2448
2.0786 2.9422 0.33608 0 12395
2.1058 -8.452 1.2242 0 2475
2.108 -4.4595 -0.46019 1 2399
2.1188 2.335 -0.44313 0 12595
2.1238 -3.7129 0.39906 0 2316
2.1417 4.6415 -0.71841 0 11866
2.1463 2.5533 0.31119 0 12536
2.1625 3.9418 0 1 12108
2.1987 -5.1899 0.92603 0 2423
2.2068 -3.778 0.20404 0 2309
2.2324 -3.7256 0.20254 0 2296
2.2365 7.7332 1.3226 0 11376
2.2461 6.6092 0.81631 0 11555
2.2531 -2.0959 0.071443 0 1301
2.2538 3.4389 0.77468 1 12309
2.2946 -2.148 0.072975 0 1307
2.3048 2.1719 0.44508 0 12721
2.31 4.753 -0.12269 0 11958
2.3328 2.0975 0.072835 0 12752
2.3484 -6.8318 0.33689 0 2440
2.3491 3.541 0.19817 0 12320
2.3536 7.8798 -1.3511 0 11405
2.3774 5.8053 0.29254 0 11739
2.3971 4.7911 0.75293 0 12001
2.4042 2.2138 0.53694 0 12739
2.4206 4.4122 -0.82681 0 12103
2.4346 -8.679 0.63032 0 2459
2.4473 -3.9749 0.87947 1 2280
2.4606 -5.1681 0.40026 1 2398
2.4747 6.755 -0.16702 0 11627
2.476 3.4635 0.39721 0 12411
2.5112 -2.8324 0.62189 1 1606
2.512 2.8343 -0.62222 0 12574
2.5166 3.8871 -0.32381 1 12289
2.523 -4.1268 0.91132 0 2287
2.5337 1.9197 -0.83218 0 12887
2.5357 5.8485 1.0473 0 11803
2.5367 2.8946 -1.1037 0 12566
2.5441 2.3157 0.48349 0 12745
2.5545 1.7668 0 0 13024
2.5557 2.3117 0.48432 0 12748
2.5689 2.1663 -0.15671 0 12792
2.5784 -3.3688 0.59622 1 1934
2.5931 2.4436 0.082723 0 12719
2.6039 7.2446 1.0819 0 11612
2.6129 -5.8797 0.75242 0 2418
2.6373 2.8411 -0.27107 0 12617
2.6919 1.8619 0.075992 0 13025
2.6948 2.8858 -0.2761 0 12621
2.7078 3.202 0.49039 0 12541
2.7085 1.9198 0.23215 0 12985
2.7134 -1.9326 0.54732 1 947
2.7232 -4.5736 0.4966 0 2300
2.7237 -1.9285 0.54829 0 937
2.741 2.1531 0.24373 0 12851
2.7416 -3.2385 0.4962 0 1697
2.7492 3.1748 -0.68998 0 12557
2.7509 2.1469 0.24401 0 12859
2.7522 2.4895 -0.78882 0 12749
2.7882 -2.5656 0.087969 2 1291
2.7927 3.0778 0.38773 1 12601
2.793 -1.4231 0.36657 1 451
2.8011 4.3019 -0.35897 1 12295
2.8116 5.8265 -1.3751 0 11952
2.8473 5.605 0.58652 0 12020
2.8719 4.2465 -0.23907 2 12340
2.88 1.8696 -0.98458 1 13134
2.9073 2.2292 0.69025 0 12879
2.9117 -7.0363 0.71044 0 2427
2.9341 5.0312 0.68111 0 12186
2.9469 -9.4499 1.3912 0 2444
2.9566 -1.1957 0.52397 1 103
2.9595 -5.6973 0.59897 0 2367
2.9765 2.0834 -0.42488 2 13005
2.9835 5.0812 -0.1368 0 12193
2.9997 2.5296 -1.1252 0 12795
3.0007 -3.5233 0.76035 0 1686
3.0114 0.20688 -0.94188 0 15861
3.0192 1.0026 0.52268 2 14186
3.0259 2.9353 -0.29479 1 12698
3.0303 0.28805 0 0 15659
3.0437 -0.32259 0.28555 2 16531
3.048 -0.96162 0.29818 1 16868
3.0481 1.9418 0.16854 0 13163
3.0724 -0.31588 0.28815 0 16523
3.0788 -1.2646 0.15522 0 121
3.0844 8.7344 1.3018 0 11592
3.0864 -7.4586 0 0 2425
3.0878 -6.3903 -0.66213 0 2391
3.1019 -0.98935 0.30376 1 16872
3.1087 0.6178 0.52073 1 14876
3.1089 2.9297 -1.2249 0 12720
3.1275 -1.6741 0.24805 0 524
3.135 -5.7452 1.2331 0 2341
3.1556 4.8149 0.67321 0 12307
3.1594 -0.82767 0 0 16807
3.1667 -1.7065 0.25154 0 538
3.1794 -3.4419 0.43715 0 1529
3.1888 -2.8823 0.7062 1 1272
3.1956 -0.84729 0 0 16810
3.2016 -0.61421 0.45816 0 16712
3.2187 9.2015 0.68166 0 11580
3.2263 -9.3859 1.6306 0 2441
3.2282 2.3592 0.65691 1 12946
3.2342 3.6288 0.4535 0 12583
3.2456 -4.7348 0.13328 0 2132
3.2672 -2.3703 0.47204 0 974
3.2736 -6.8233 0.17571 0 2395
3.2898 2.0302 -0.18028 0 13213
3.2917 0.87524 0.64174 1 14491
3.3085 -1.2482 0.16491 1 16978
3.3235 -0.93295 0 0 16826
3.3244 2.0388 -0.18186 0 13226
3.3606 -8.8377 1.3288 0 2434
3.3648 3.0436 -1.1877 0 12747
3.3653 -3.2817 0.32869 0 1353
3.3662 2.0644 -0.36841 0 13225
3.3715 -0.6578 -0.079752 0 16716
3.3815 -3.7032 0.8239 0 1554
3.4036 2.8207 0.62127 0 12813
3.41 -7.214 0.74444 0 2402
3.4117 -1.3336 0.25615 2 67
3.4185 -1.0464 0.083002 0 16856
3.4238 1.137 -0.59271 0 14170
3.4305 1.1292 -0.59336 0 14187
3.4315 -0.073078 0.16006 0 16291
3.4405 -0.43525 0.48738 0 16583
3.4592 8.3061 0.2089 0 11755
3.4994 0.16931 -0.24498 0 15980
3.5013 3.8587 -0.60933 0 12596
3.5235 -6.7831 0.35646 0 2366
3.5322 -2.1909 -1.1919 0 748
3.5324 -2.0932 0.48017 0 682
3.5529 -3.6079 0.35408 0 1409
3.5536 1.1464 0.61346 0 14233
3.5804 -7.989 1.4383 0 2416
3.5834 4.2119 0 0 12546
3.5994 4.0613 0.37948 0 12578
3.6201 4.0135 -0.75961 0 12588
3.6207 4.1112 0.51109 1 12572
3.6471 -3.9482 0.37585 0 1528
3.6715 2.0226 -0.39108 0 13415
3.672 0.28448 0.085509 0 15794
3.6842 4.7909 -1.1387 0 12482
3.7068 -2.0827 -1.4367 0 598
3.7107 3.476 0.23711 0 12724
3.7298 1.8216 -0.096371 0 13643
3.732 -2.562 0.1051 0 892
3.7445 0.56429 0.2648 0 15249
3.7569 3.5814 0.85275 0 12714
3.7736 0.55858 0.26675 0 15276
3.7775 -8.3004 0.21173 0 2414
3.7842 1.4043 0.56727 1 14042
3.8076 3.2314 0.58401 0 12789
3.8094 -1.3872 0.28349 0 16946
3.8221 -0.049367 0.53721 0 16257
3.8273 -1.9233 0.19975 1 428
3.8275 -7.525 0.98728 0 2377
3.8342 -5.0423 0.59098 0 1943
3.843 5.1802 0.75428 0 12449
3.866 -6.8948 0.55275 0 2322
3.8843 -1.7302 0.59761 0 239
3.8964 -1.432 0.58341 0 16956
3.9369 4.5998 -0.8509 1 12547
3.95 3.5342 0.24717 0 12755
4.0111 5.4725 1.1147 0 12437
4.0202 -7.8528 0 0 2374
4.0261 3.4961 -0.24866 0 12767
4.0296 1.4167 0.19919 0 14105
4.0385 2.6067 0.1116 0 13144
4.049 1.7087 0.10203 0 13862
4.0595 -7.5426 1.0017 0 2351
4.0702 3.4543 0.87707 0 12790
4.0827 -5.6338 0.97783 0 2039
4.0972 -5.9415 1.1857 0 2126
4.0976 2.7639 -0.23049 2 13058
4.119 6.1692 0.51871 0 12328
4.128 2.2581 0.88651 0 13439
4.1407 2.7751 -0.23245 0 13070
4.1476 3.3972 -0.75348 0 12820
4.1567 -0.88657 0.59733 0 16744
4.1688 -0.34347 0.58787 0 16471
4.1778 6.1382 -1.0435 0 12345
4.1967 3.4154 -0.76044 0 12826
4.2337 3.657 -0.12989 1 12772
4.2584 4.6391 -1.1865 0 12612
4.266 -3.3474 0.1259 0 1074
4.2684 -5.0724 1.249 0 1715
4.2686 -6.386 0.53712 0 2181
4.3577 4.8313 0.15106 0 12593
4.3816 -5.3628 1.1378 0 1783
4.3829 4.036 -0.55587 0 12735
4.3871 3.5072 0.92279 0 12840
4.3964 1.9299 -0.56147 1 13800
4.398 4.0726 -0.55921 0 12730
4.4093 2.5478 0.23748 0 13341
4.4542 1.3236 -0.10788 0 14340
4.456 3.5002 -0.79635 0 12848
4.5003 8.1455 0 0 12117
4.5237 4.597 1.0596 0 12671
4.5517 4.8743 0.62219 0 12624
4.5598 8.2532 0.87969 0 12119
4.6046 8.283 -1.3319 0 12121
4.6217 -7.8649 1.2821 0 2307
4.6258 5.7369 -1.0357 0 12509
4.6357 -2.1953 0.8427 0 344
4.64 -1.644 0.22956 0 16926
4.6458 0.72834 -0.32883 2 15187
4.6462 -1.363 0 1 16841
4.6628 5.7478 -1.0402 0 12514
4.673 -0.78451 0.33134 0 16666
4.7051 2.4005 0.74235 0 13571
4.7205 3.5134 0.54899 0 12918
4.7495 -1.0251 0.45331 0 16749
4.7775 -3.466 -0.55066 0 970
4.8125 2.0626 -0.98649 0 13845
4.8392 -4.0779 0.14692 0 1171
4.8437 -0.6265 0 0 16590
4.857 -0.55682 0.4561 0 16558
4.8596 -3.5697 0.56255 0 993
4.8707 -0.87638 0.93243 0 16691
4.8746 -1.4922 0.71646 0 16857
4.8869 -3.3124 0.6904 0 875
4.8926 2.6953 -0.65323 1 13414
4.9078 4.761 -1.2883 0 12702
4.9155 4.3703 0.92439 0 12757
4.9405 2.1502 0.25127 0 13817
4.9442 -3.6093 0.5711 0 984
4.9447 3.859 -0.14562 0 12857
4.9738 4.5274 1.105 0 12746
4.9961 5.2593 0.16842 0 12641
5.0125 -4.7186 0.64225 1 1313
5.0242 -0.87414 0.83784 0 16679
5.0273 -1.5389 0.86378 0 16859
5.0276 -1.2237 -0.2413 1 16786
5.0372 1.5295 -0.24549 0 14311
5.0665 -6.1287 0.9299 0 1749
5.0707 2.0518 -0.25509 0 13921
5.0878 1.5448 -1.1302 1 14319
5.0964 4.8329 -0.65526 0 12715
5.1033 2.5846 -0.13281 1 13579
5.1222 1.9365 0 0 14015
5.1274 -2.2125 0.3905 0 189
5.1317 6.8373 0.79757 0 12459
5.1719 -4.2573 0.31239 0 1137
5.205 4.4675 1.2924 0 12780
5.2509 7.2087 -1.2534 0 12425
5.2923 5.378 1.4216 0 12672
5.3003 5.5136 0 0 12653
5.3011 4.6588 0.65842 0 12760
5.3031 5.8444 -0.73626 1 12597
5.3184 2.6935 -0.27801 0 13578
5.3389 7.7478 -0.87783 1 12361
5.3977 -3.8444 -0.30903 0 944
5.4009 3.643 1.0703 0 13064
5.4036 -1.4509 0.91922 1 16815
5.4332 -4.1901 0.80237 0 1052
5.4355 -6.1653 1.1551 1 1617
5.4526 2.3551 0.41533 0 13829
5.4661 -8.3341 0.92985 0 2211
5.5272 6.276 1.5756 0 12573
5.5418 -3.5496 0.76961 0 793
5.5854 -3.7165 0.62591 0 851
5.5973 -1.1755 1.0776 0 16740
5.6058 1.9708 0.55438 0 14108
5.6508 3.3074 0.61086 0 13320
5.6541 5.2357 -0.17891 0 12733
5.6546 2.5401 1.0184 0 13779
5.6769 -3.9455 1.1358 0 912
5.6904 3.1128 0.45356 0 13433
5.6907 1.0444 -0.26981 0 14977
5.6935 1.8741 0 0 14194
5.6993 1.8562 0 0 14209
5.702 5.2506 0.90644 0 12737
5.7039 2.2514 0.71711 0 13965
5.7189 -3.6392 0.31612 0 782
5.7195 5.2373 0.9069 0 12742
5.7241 -4.7963 0.34826 0 1162
5.7277 2.1849 -1.4525 0 14010
5.7443 -1.6667 0.84061 0 16836
5.8175 5.9116 -0.77379 0 12668
5.8317 6.896 1.2693 0 12542
5.8321 -4.0293 0.49569 0 901
5.8322 6.3536 0.80463 2 12610
5.8373 -0.32942 0.54546 0 16404
5.8681 6.3927 1.4257 0 12611
5.8718 3.3682 1.1121 1 13358
5.8937 5.2106 -0.5501 0 12758
5.9216 2.5994 -0.30158 0 13803
5.9226 1.9495 0.29077 0 14196
5.9253 -5.3878 1.3158 0 1282
5.9433 1.4895 -1.3024 2 14566
5.9635 -4.9969 0.72586 0 1163
6.0215 1.7335 -1.3319 0 14389
6.0732 5.9639 1.3985 0 12693
6.0786 -5.4006 0.37919 0 1241
6.0902 -4.0036 1.1974 0 830
6.0926 -3.6362 1.3368 0 693
6.1162 -3.6013 0.83001 0 672
6.1502 -2.0376 0.30214 0 16888
6.2225 -4.9408 0.74128 0 1088
6.2316 -0.99145 0.88681 0 16648
6.2546 -3.98 1.3968 0 785
6.294 -4.1612 0.70394 0 840
6.3185 2.4508 -1.1134 0 13979
6.322 0.78521 0.74499 1 15446
6.3781 1.3813 0 0 14748
6.3872 -0.73224 -0.29981 0 16557
6.4192 -0.65996 0.30093 0 16522
6.4221 -1.0401 0.60696 0 16653
6.4291 -0.15488 -0.2999 0 16302
6.4294 1.748 0.31071 0 14455
6.4386 -0.17422 -0.30037 0 16314
6.4762 0.21823 0.60454 0 16062
6.4777 0.42684 1.2231 0 15889
6.4779 2.4905 -0.16113 0 13993
6.5004 -1.0528 0.77008 1 16654
6.5581 2.1359 0.4823 0 14215
6.5798 3.4033 -0.69112 0 13539
6.591 2.0201 -1.1326 0 14292
6.6026 -3.0104 0.677 0 279
6.6061 -2.9883 0.67644 0 265
6.6123 -5.0354 0.97195 0 1035
6.6603 -0.18022 1.2553 0 16320
6.6687 0.94672 -0.471 1 15314
6.701 -0.26094 0.94248 0 16360
6.7478 1.7715 -0.32534 0 14497
6.8163 -4.945 1.3835 0 975
6.8165 -1.7451 0.32813 0 16800
6.8391 -2.5136 0.85208 0 13
6.8541 1.527 -0.16303 0 14710
6.9099 0.6763 -1.4758 0 15646
7.03 4.7115 1.1894 0 13077
7.032 -5.39 1.6693 0 1046
7.0354 -3.9529 1.3258 0 601
7.0476 -6.1523 0.65418 0 1219
7.0484 -4.2871 0.96475 0 720
7.0823 -0.77189 0.33223 0 16539
7.1132 6.3957 1.8023 0 12753
7.1343 5.0253 0.40695 0 12996
7.1829 -1.0568 1.3679 0 16625
7.2095 3.5992 0 0 13606
7.2138 2.5843 0.7149 0 14083
7.2552 4.7098 1.6297 0 13139
7.2757 -3.6561 0.75967 0 430
7.2974 -3.301 1.1256 0 266
7.3174 -2.7358 0.72883 0 16970
7.3292 3.4739 0.7567 0 13695
7.3676 -1.8862 1.0688 0 16801
7.3708 4.4009 -0.40034 0 13279
7.4083 2.6789 0.73496 0 14071
7.4509 0.55501 0.69706 0 15820
7.4624 5.8618 1.1097 0 12853
7.463 -3.4531 1.1557 0 305
7.5027 -4.0431 0.39745 0 536
7.5066 3.2952 -0.57326 0 13802
7.5083 -2.7595 0.37304 0 16955
7.5138 1.674 0 0 14712
7.5148 1.5152 0 0 14847
7.5264 2.188 0.73125 0 14375
7.5352 -2.2106 1.2902 0 16842
7.6071 6.4149 0.92836 0 12796
7.6443 -5.0252 0.42661 0 828
7.6764 -1.7074 0 0 16759
7.7367 1.3725 -0.36643 0 15019
7.8442 -4.199 0.83008 0 525
7.8596 3.1564 -0.19664 0 13934
7.8983 5.7364 0.91071 0 12953
7.9048 4.5675 -0.21196 0 13339
7.9108 -1.4962 0.75112 0 16706
7.9185 0.12993 0.73886 0 16140
7.9487 3.4331 0.80779 0 13831
7.9724 -1.5555 0.75781 0 16717
7.9839 1.0383 0.94152 0 15403
8.0041 -0.89498 1.3232 1 16550
8.0863 -2.3968 0 0 16846
8.0939 -4.6693 1.3132 0 642
8.1315 -4.8839 0.22022 0 701
8.1474 -4.7001 1.5453 0 643
8.2027 1.7765 0.39139 0 14751
8.2035 0.68166 0.19112 0 15755
8.33 -2.8422 1.237 0 16903
8.3353 3.2598 1.2578 0 13978
8.4231 -1.3884 -0.3981 0 16660
8.4412 1.6011 0.19947 0 14931
8.5193 5.1514 -0.69617 0 13252
8.6825 -2.0604 -0.20718 0 16778
8.6886 -2.2519 1.4746 0 16805
8.691 3.3414 1.5298 0 14000
8.7262 1.2388 0.82228 2 15323
8.7426 -1.3113 0.41226 0 16631
8.785 2.2017 -0.84495 0 14553
8.7963 4.0775 -0.2251 0 13723
8.8238 2.7348 0.86185 0 14288
8.8918 -2.0823 0.852 0 16773
8.9306 0.89927 1.2615 0 15625
8.9634 -0.86781 1.4795 0 16508
8.9764 -1.6977 1.5009 0 16707
9.0321 -0.11666 1.4841 0 16259
9.0458 -1.4392 1.0711 0 16647
9.051 0.6472 -0.42316 0 15834
9.0719 -1.3105 -0.42745 0 16619
9.0774 -2.1257 1.5317 0 16774
9.1249 0.44149 1.5009 0 15988
9.1882 -1.0274 0.6465 0 16548
9.2112 -1.0039 0.86445 0 16540
9.3086 2.5064 -0.89938 0 14463
9.3259 -1.5941 1.5544 0 16673
9.3379 1.5727 -0.21985 0 15096
9.3862 -0.93853 -0.88006 1 16513
9.5162 -2.0853 0 0 16754
9.598 -0.42913 -0.44804 0 16375
9.6196 -2.0201 1.3814 0 16739
9.6337 0.3802 1.355 0 16035
-14.835 -1.0217 2.0898 0 4418
-13.457 2.2953 2.2428 0 5026
-12.934 6.3981 2.028 0 5693
-12.412 -1.9859 1.47 0 4323
-12.373 1.2742 -1.1604 0 4964
-12.019 3.7135 2.0667 0 5197
-11.969 3.0999 2.0314 0 5108
-11.892 -1.5488 -0.27844 0 4336
-11.862 4.0889 0.2913 1 5235
-11.368 -1.0146 1.8751 0 4368
-11.353 1.7697 -0.80346 0 5016
-11.066 2.4229 -0.79215 0 5067
-10.879 6.7903 0.29775 1 6218
-10.871 7.0112 1.2069 0 6305
-10.794 2.9976 -0.2601 0 5150
-10.594 1.5285 2.0167 0 5007
-10.501 1.3582 0.98781 0 4995
-10.476 -1.3643 0.98558 0 4337
-10.438 1.6272 -0.49267 0 5017
-10.351 4.0065 -1.8235 2 5312
-10.291 4.2626 1.83 0 5404
-10.273 -10.758 1.3878 0 4010
-10.263 2.2471 0 0 5068
-10.218 4.6911 -1.8472 2 5547
-10.177 0.21673 -0.23633 1 4716
-10.16 5.9392 1.6539 0 6089
-9.8698 2.4663 -0.23619 0 5097
-9.4855 4.6592 1.2358 0 5678
-9.2764 6.2546 1.8381 0 6407
-9.1753 6.1446 1.2914 0 6390
-9.0779 7.4726 1.375 0 6824
-9.0727 4.488 0.94434 0 5690
-8.9396 8.6722 2.3466 0 7069
-8.9049 -8.2547 2.2877 0 4132
-8.4747 -5.7941 1.2005 0 4285
-8.4221 7.2288 0.25769 0 6898
-8.2982 5.8062 1.9082 0 6493
-8.2568 5.3252 -1.8512 0 6309
-8.1922 5.9433 -1.1836 0 6554
-8.0987 12.353 2.0759 0 7864
-7.9842 9.9516 1.7931 0 7523
-7.5984 12.284 2.7214 0 7948
-7.554 7.4104 1.2375 0 7088
-7.4575 8.6092 1.6008 0 7364
-7.4203 8.6697 -0.53217 0 7385
-7.413 12.97 -1.3938 2 8089
-7.3797 3.9222 -1.7764 2 5857
-7.3011 9.7242 2.2911 0 7637
-7.269 7.0861 -1.9126 0 7078
-7.2058 8.7196 0.52751 1 7463
-7.0582 7.961 -1.748 0 7313
-6.938 -9.8938 1.9853 0 3762
-6.8935 -7.8827 1.973 0 3932
-6.6837 10.463 0.86819 1 7898
-6.4912 2.4502 -1.8163 2 5295
-6.3552 7.8761 1.6627 0 7514
-6.2597 -8.2528 1.4558 0 3807
-5.9813 12.665 2.3011 0 8400
-5.894 13.497 -1.3741 2 8488
-5.7113 9.0519 -0.24849 0 7917
-5.2932 9.5178 1.0161 0 8134
-4.7389 9.3977 1.7292 0 8290
-4.417 8.217 -1.5327 0 8177
-4.4078 8.9974 0.46723 1 8332
-4.3402 -9.9533 1.784 0 3413
-4.1936 7.698 -1.8633 0 8165
-4.0315 3.8204 -1.5926 0 7038
-3.514 10.131 1.254 0 8783
-3.3982 13.67 1.6472 0 9168
-3.3901 -9.5417 0.94471 0 3198
-3.3682 4.38 -1.5844 0 7589
-3.2538 13.949 -1.3363 2 9226
-3.2463 12.295 1.1864 0 9109
-3.2115 11.479 0 0 9040
-3.0503 1.8553 -1.6899 0 6163
-2.9791 7.3958 -1.8892 0 8593
-2.5413 -10.006 0 0 2953
-2.4578 10.96 -0.52378 0 9262
-2.2969 4.7262 -1.9126 0 8344
-2.2449 -11.464 1.9192 0 2824
-2.0142 10.721 0.25328 0 9369
-1.9649 13.452 0.634 1 9513
-1.9195 3.4261 -1.6404 0 8123
-1.8925 4.3671 -1.988 0 8499
-1.8793 10.341 -0.49015 0 9388
-1.6473 6.0298 -1.9505 0 9066
-1.536 13.174 0.92748 1 9637
-1.4103 -10.799 -0.25286 0 2732
-1.3189 -10.1 1.4315 0 2735
-1.0832 -0.75484 0.21692 1 4280
-0.71194 -13.061 2.1491 0 2671
-0.68328 10.711 0.24919 0 9890
-0.6685 2.9048 0.139 0 9240
-0.28345 6.101 -1.9058 0 9968
-0.14562 -13.036 -0.30267 0 2626
-0.023088 -11.024 1.0285 0 2620
0.40412 6.3178 -1.6573 0 10495
0.45005 10.349 1.7019 0 10403
0.51102 11.751 1.6531 0 10401
1.1423 9.3171 -1.7686 0 10732
1.1637 10.261 0.72212 0 10701
1.4659 -12.203 0.57316 1 2552
1.53 14.2 -1.3324 2 10676
1.6325 -9.9257 0.4691 1 2524
1.6538 -11.505 1.0844 0 2539
2.1861 -10.726 1.0213 0 2501
2.2292 -10.937 0 0 2500
2.3155 10.062 -0.48149 0 11101
2.7587 5.7579 -1.8308 0 11936
2.848 -10.153 0.49173 1 2458
2.9071 9.7329 1.6689 0 11416
2.9765 0.21284 -0.93116 0 15840
2.9819 8.9379 -1.7752 0 11542
3.0314 1.9936 -1.5155 1 13106
3.0521 5.0296 -1.9879 0 12227
3.2406 10.521 2.0741 0 11456
3.6445 5.5971 -1.5826 0 12300
3.6756 10.226 2.0474 0 11614
3.9191 -9.8834 0.74346 0 2432
4.0455 11.355 0 0 11597
4.3537 9.8804 1.0073 0 11818
4.4923 9.59 -1.7399 0 11892
4.6244 -3.4595 -1.656 0 1015
4.737 3.3577 -1.52 0 12987
4.7388 11.014 -1.6851 0 11786
4.7412 5.4101 -1.8832 0 12567
5.2932 10.134 1.8783 0 12057
5.414 -9.8561 1.0491 0 2335
5.4872 8.8121 1.7055 0 12252
5.7947 8.6202 0.96905 1 12336
5.9994 7.2211 -1.5424 0 12529
6.5959 8.1307 1.7201 0 12518
6.987 10.016 -1.7163 0 12374
7.3876 8.997 1.0861 0 12525
7.5425 6.9454 1.441 0 12738
7.5674 -11.833 2.3076 0 2244
7.6662 -7.2167 0.49099 1 1312
7.8524 11.256 -1.605 0 12375
7.9168 5.0106 -1.7652 2 13178
7.9968 -6.0173 1.6442 0 1022
8.3885 -9.5148 0.2945 1 1611
8.5251 -7.0978 0.25755 0 1154
8.5876 -5.5365 0.95326 0 802
8.7188 11.97 2.0812 0 12431
8.7192 -6.7244 -1.2876 0 1049
8.8304 8.9202 2.0622 0 12677
9.1235 -7.0362 1.8929 0 1053
9.1336 5.4534 -0.99246 0 13278
9.2673 1.4811 -1.7682 1 15179
9.3341 -5.9396 1.8177 0 783
9.3462 4.7334 0.73258 0 13584
9.4061 6.912 2.1992 0 12938
9.5333 -4.5145 0.9841 0 342
9.5713 3.1784 -0.23415 0 14176
9.7163 5.5736 1.045 0 13354
9.7501 -10.678 1.6909 0 1552
9.7684 4.1868 0.99153 0 13842
9.7866 4.993 1.8051 0 13573
9.8376 5.019 0.51503 1 13567
9.8412 5.1252 -1.0352 0 13525
10.038 6.0361 0.27194 0 13267
10.043 0.57203 -1.8952 2 15944
10.164 -2.4739 0.97592 0 16787
10.271 -2.4716 1.7357 0 16783
10.365 7.4809 2.1001 0 12965
10.373 2.4082 1.7496 0 14667
10.444 -0.34647 1.7169 0 16342
10.595 -9.5233 1.3291 0 1261
10.673 0.79501 -1.7584 0 15804
10.823 -0.86126 1.0129 0 16463
10.853 3.2252 0.79174 0 14345
10.868 5.7398 0.57316 1 13502
10.88 -3.5707 1.8812 0 16884
10.965 0.75328 1.8057 0 15868
10.975 1.9195 1.303 0 15056
10.993 -0.29746 -0.25532 0 16316
11.034 -10.093 1.7488 0 1288
11.239 8.7277 -0.33038 0 12864
11.26 5.6214 2.0677 0 13614
11.291 -9.1302 1.0154 1 1109
11.322 -3.1442 -0.27282 0 16822
11.369 -0.34337 2.143 0 16333
11.497 -9.464 1.3893 2 1138
11.655 4.8755 -1.7756 0 13869
11.674 7.2045 -0.3185 0 13214
11.772 -0.48927 -1.9357 1 16362
11.827 -6.1566 2.1906 0 483
11.831 -6.1588 -1.2444 0 477
11.894 0.22838 -1.9545 2 16121
12.152 -2.6628 1.1606 0 16755
12.293 -2.1013 1.7527 0 16672
12.542 2.0044 -1.785 2 15159
12.565 -8.0481 -1.0434 2 790
12.728 -3.1782 1.8438 0 16793
12.861 3.5789 1.2455 0 14430
13.005 0.28605 -1.8282 2 16109
13.19 3.9622 0.31975 1 14328
13.29 -1.8773 2.2052 0 16613
13.368 2.8951 1.9223 0 14757
13.464 -0.36434 0.62813 1 16317
14.845 -0.83776 -1.7388 2 16401
14.901 1.7188 1.0489 1 15506
