VERSION .7
FIELDS x y z intensity index
SIZE 8 8 8 8 8
TYPE F F F F F
COUNT 1 1 1 1 1
WIDTH 888
HEIGHT 1
VIEWPOINT 0 0 0 1 0 0 0
POINTS 888
DATA ascii
-4.956 0.63575 0.23301 0 3390
-4.5332 1.6142 0 0 4096
-4.5325 -0.42046 0.85762 0 3008
-4.2647 2.4345 -0.229 1 4941
-4.2554 0.7358 0.50502 0 3515
-3.9385 -0.40006 -0.36934 1 2998
-3.7927 0.56479 0.72246 0 3453
-3.7702 3.1838 0.23012 1 5948
-3.7143 -3.3059 0.4639 0 2750
-3.6459 0.24472 -0.34091 1 3265
-3.5792 1.5883 -0.18261 0 4393
-3.5472 2.533 -1.3601 0 5493
-3.4987 -2.5569 0.60902 0 2863
-3.4333 1.4284 0.70062 0 4307
-3.4219 -0.56956 0.65359 0 2966
-3.3918 0.6274 0.64988 0 3550
-3.3517 2.0984 -1.3362 0 5169
-3.288 3.1763 0.86133 0 6414
-3.2524 3.1222 0.42061 1 6389
-3.2169 1.6682 -1.1307 0 4716
-3.1843 -3.0901 0.31028 0 2640
-3.1837 -2.8157 0.59733 0 2755
-3.1587 -2.6816 -0.19323 0 2770
-3.1446 0.82087 0 0 3778
-3.1228 2.797 0.78986 0 6156
-3.0737 2.2504 0.3554 0 5559
-3.006 2.8696 0.29061 1 6369
-2.9197 2.6604 0 2 6206
-2.8995 2.3936 0.70839 0 5886
-2.7489 -2.6223 0.62416 2 2646
-2.5812 -2.4623 0.24945 0 2644
-2.4519 -3.5147 0.39981 0 2465
-2.386 4.0702 0 0 8212
-2.3732 -3.859 -0.42266 0 2420
-1.9507 -4.4608 0.11304 0 2317
-1.911 -2.4119 0.071443 0 2524
-1.767 -2.9513 0.56515 0 2416
-1.6209 2.6234 -1.2881 0 8040
-1.4941 -4.2664 0.8517 0 2257
-1.1691 -4.814 0.34641 0 2155
-1.1388 4.2149 0 0 10152
-0.98425 -3.5563 0 0 2197
-0.38844 -3.6772 0.51967 0 1952
-0.1031 -4.311 0.70847 0 1804
0.094361 -3.7278 -0.086576 0 1691
0.14165 -4.558 0.42545 0 1681
0.28135 -3.6234 0.51077 0 1595
0.61334 2.9879 -1.1102 0 13300
0.72331 -4.8805 0.8106 1 1483
0.7565 3.014 -1.4709 0 13560
0.76891 -3.7591 0.089083 0 1447
0.78481 -4.1377 -0.1964 0 1458
1.003 4.6828 -1.3732 0 13361
1.059 4.1155 -0.39646 1 13597
1.3187 -3.683 0 0 1383
1.4248 -3.1971 -0.16323 0 1348
1.4496 -3.4118 0.25922 0 1356
1.7477 2.947 0.15978 0 15128
1.8454 4.4051 0.78466 1 14456
2.0614 -4.318 0.22313 0 1344
2.0852 4.0296 -1.1877 2 14853
2.1543 2.5393 0 0 15698
2.3415 -3.3917 0.57924 1 1224
2.4086 3.3993 -1.1946 0 15517
2.444 -3.5402 -0.9144 1 1225
2.5164 4.0523 0.78369 0 15233
2.5553 2.4876 0.5859 0 15863
2.5956 3.6835 -1.1796 0 15508
2.6471 3.6235 -0.52477 1 15560
2.6958 -3.7405 -0.32241 0 1168
2.9571 -2.0938 0.42372 1 356
3.1258 -2.6164 -0.3803 1 591
3.1414 3.6833 0.45164 1 15706
3.2059 -3.4463 0.77331 0 870
3.2487 3.3326 -0.98924 0 15824
3.2654 -1.8914 0.71098 0 19811
3.2656 2.8287 -1.0237 0 15924
3.2864 3.1067 0.85207 0 15884
3.3033 0.79549 0.23759 0 17037
3.3276 -1.8635 0.17786 0 19757
3.3484 -3.2619 0.32688 0 763
3.3543 -2.1625 0.092657 0 191
3.3992 2.6798 0.50618 0 15973
3.5452 2.6802 -0.62461 0 15991
3.6236 -1.2343 0 0 19107
3.6555 0.2191 -0.17077 2 18157
3.6856 -0.13193 -0.17199 0 18524
3.6952 -2.3532 0.10171 1 168
3.7942 -3.1758 -0.34599 0 592
3.8334 -0.31516 0.72469 0 18652
3.86 0.68549 -0.83331 0 17408
3.8667 1.3081 0 0 16632
3.8717 -3.1296 0.93798 0 546
3.9354 -1.4425 0.19546 0 19155
3.9558 -0.1416 0.27679 0 18525
3.9766 0.50519 -0.37398 1 17689
3.9902 -1.3073 -0.097485 0 19087
4.0115 2.0281 0.31432 0 16141
4.0886 1.3561 0.6054 1 16673
4.1673 -2.3963 -0.44848 1 19793
4.25 -2.436 0.57286 1 10
4.2935 -0.54087 0.3026 0 18774
4.3089 1.7998 -0.43566 2 16343
4.3638 -1.2777 0.74705 0 19047
4.3883 -0.65662 -0.20692 1 18830
4.4027 -2.155 -0.68891 2 19533
4.6119 -1.1064 -0.11011 0 18982
4.7409 1.5285 0.81838 0 16718
4.7579 -0.32186 0.22239 0 18613
4.875 -0.42994 0.68779 0 18666
1.5948 0.067956 -0.75555 0 18248
-13.813 0.60311 2.2716 0 3214
-13.793 5.8775 2.4633 0 4336
-13.515 4.7222 -1.3356 2 4075
-13.119 6.6066 1.3703 0 4655
-13.034 6.3795 1.697 1 4592
-12.942 7.0973 2.781 0 4850
-12.83 7.3241 1.7276 0 4947
-12.601 -0.95192 1.179 0 3023
-12.309 0.96656 1.7352 0 3294
-12.148 4.5225 2.1296 0 4151
-12.078 -1.7599 0 0 2970
-11.739 -0.64397 1.9315 0 3043
-11.718 -1.3952 1.101 0 2987
-11.307 7.1727 -1.2492 2 5194
-11.287 8.6706 0.99529 1 5678
-11.215 9.1989 1.3532 0 5864
-11.203 9.8591 1.3923 0 6089
-11.157 9.8186 0.69307 1 6087
-10.986 4.5348 1.6704 0 4291
-10.982 8.9532 1.9913 2 5845
-10.915 9.438 1.3462 1 6027
-10.894 -0.40709 -1.2749 0 3063
-10.804 2.257 1.2907 0 3616
-10.645 -1.2392 1.5061 0 2989
-10.504 3.334 1.8106 0 3992
-10.439 6.2873 1.7127 0 5079
-10.388 -1.7887 1.9859 0 2964
-10.383 1.6687 0.98112 0 3481
-10.302 1.4148 1.7084 0 3418
-10.3 10.122 1.0098 1 6472
-10.26 0.23821 0.71765 0 3164
-10.207 3.4709 1.7713 2 4056
-10.174 7.7253 0.29659 1 5647
-10.141 10.443 2.0458 0 6652
-10.138 9.4043 0.96696 1 6269
-10.096 9.8656 2.6595 0 6457
-10.092 9.5231 1.6226 0 6329
-10.044 -1.4635 0.94694 0 2971
-10.037 3.507 0.74346 0 4077
-9.9941 9.5941 1.947 0 6392
-9.9801 8.8328 0.93195 1 6108
-9.9108 -6.8166 1.9762 2 2919
-9.8213 4.4572 1.772 0 4444
-9.5966 1.0341 1.8186 0 3346
-9.5567 11.253 1.7265 0 7089
-9.5257 -0.99446 -0.22236 0 2996
-9.5218 -1.3026 0.67203 0 2977
-9.4691 1.7208 0.89789 0 3539
-9.4151 5.0568 -0.24812 0 4798
-9.4005 0.65735 0.21878 0 3273
-9.3641 0.70738 1.7693 0 3287
-9.3368 1.6413 0 0 3521
-9.3039 3.6537 0.69896 0 4217
-9.2994 8.7235 1.1896 1 6308
-9.1744 11.189 1.6921 1 7195
-9.1522 3.7779 0.46173 0 4287
-9.1386 10.761 2.6599 0 7094
-9.119 0.52899 0.85219 0 3242
-9.0181 8.918 1.1833 2 6496
-8.9956 9.5359 2.4699 0 6745
-8.9872 1.4186 0.84885 0 3475
-8.9805 5.7676 0.2478 0 5235
-8.961 6.5608 0 0 5556
-8.9341 1.2779 1.4828 0 3433
-8.9094 1.7803 -0.21094 0 3585
-8.873 8.8761 1.4677 0 6544
-8.8633 1.1653 -0.20755 0 3397
-8.7926 10.663 0.96641 1 7175
-8.7813 4.3629 0.9148 0 4621
-8.7736 -0.43217 1.4432 0 3048
-8.723 -1.502 1.4542 0 2963
-8.6814 9.3097 2.0914 1 6781
-8.6777 -0.29848 1.0154 0 3078
-8.6468 2.6915 0 0 3966
-8.584 -0.34627 0.60074 0 3062
-8.5807 3.0825 0.21168 0 4109
-8.5591 2.5548 1.2553 0 3924
-8.53 1.9348 -0.61162 0 3662
-8.5222 5.8287 -0.48149 0 5389
-8.4761 1.3152 1.0031 0 3469
-8.4556 9.8967 2.4525 1 7076
-8.4205 2.5375 0.61497 0 3934
-8.4198 4.4901 1.3411 0 4787
-8.4045 7.3965 -1.3093 2 6078
-8.3052 5.8262 0.4731 1 5449
-8.2375 -0.021568 1.3534 0 3122
-8.1772 1.5614 0.38823 0 3560
-8.0727 1.3466 1.3446 0 3499
-8.0501 1.2232 0.9522 0 3460
-8.0421 5.7427 0 0 5491
-7.9366 1.3466 0 0 3504
-7.8719 2.1506 0.95429 0 3828
-7.8276 -6.2666 -0.4676 0 2795
-7.7057 11.058 1.5762 0 7665
-7.687 -1.3043 1.469 0 2965
-7.6765 -0.17822 1.0791 0 3098
-7.5786 2.9502 0.95104 0 4207
-7.5264 0.1984 1.237 0 3170
-7.4606 10.97 1.2377 0 7737
-7.44 8.8604 1.0794 0 7125
-7.423 -8.2847 1.0378 0 2587
-7.3737 0.7503 0.69149 0 3331
-7.3667 -1.205 1.0491 0 2967
-7.3036 0.25632 0.3408 0 3195
-7.2972 4.6006 1.4173 2 5189
-7.2856 -12.082 2.318 0 2418
-7.2701 2.8301 0.36382 0 4203
-7.2533 3.6528 0.37872 0 4652
-7.2498 11.288 2.5277 0 7927
-7.1984 8.8797 -0.26539 0 7223
-7.1856 8.5574 1.5704 0 7128
-7.1271 0.70635 1.3494 0 3327
-7.1201 1.1672 1.014 0 3490
-7.1156 7.9892 1.7577 0 6950
-7.109 -0.78484 1.3475 0 2993
-7.0988 10.056 2.0223 1 7632
-7.0751 0.0012337 1.1624 0 3128
-7.0391 3.0973 1.0808 0 4385
-7.0113 10.122 1.7305 2 7687
-6.9807 11.219 0.92399 1 8022
-6.9669 3.4342 1.4634 0 4612
-6.9402 4.0718 1.516 0 5023
-6.9153 10.632 1.7825 0 7880
-6.8777 -7.3703 1.6562 0 2606
-6.8137 11.854 1.5989 1 8281
-6.8065 3.1378 0.87647 0 4474
-6.7707 11.246 2.4733 1 8138
-6.7642 4.6004 1.344 0 5381
-6.7334 10.966 0.89986 1 8065
-6.7163 -7.5808 0.9449 0 2583
-6.7141 0.23563 -0.78564 0 3190
-6.6675 0.71843 0.94248 0 3344
-6.6612 4.9362 1.3621 0 5589
-6.5771 0.88342 0.15407 0 3409
-6.547 -6.6949 1.316 0 2628
-6.5289 6.6811 0.21688 0 6623
-6.5176 0.0011365 -0.76218 1 3123
-6.4958 1.1419 0.61532 0 3524
-6.4815 -4.9735 0.18968 0 2824
-6.4704 7.1811 1.1304 0 6905
-6.4527 6.8402 -0.21832 0 6735
-6.4438 11.362 1.8357 0 8326
-6.44 -8.5836 1.2549 0 2495
-6.4141 -5.7712 1.4176 1 2741
-6.4009 2.2793 0.31686 0 4097
-6.3632 -0.44272 -0.74592 1 3026
-6.3054 -4.9547 0.74815 0 2810
-6.2476 10.304 1.4091 1 8111
-6.2276 -12.617 2.651 0 2350
-6.2274 -0.65013 0.29198 0 2997
-6.1558 9.6477 1.0677 1 7941
-6.1344 9.9908 2.2089 2 8074
-6.1242 2.9751 -0.31751 0 4577
-6.121 -7.77 -0.22965 0 2519
-6.1206 3.3788 0.98256 1 4867
-6.082 1.0145 0.72106 0 3497
-6.0339 8.9321 1.0056 0 7757
-6.0204 -0.36506 0.28127 0 3036
-6.0021 -7.5755 1.3583 0 2526
-5.985 4.8535 0.35934 0 5823
-5.9645 7.233 1.7664 0 7181
-5.963 -8.4406 1.4524 0 2470
-5.9573 4.254 -0.68294 0 5486
-5.9305 3.9806 -0.49946 0 5340
-5.9241 3.3599 -0.31761 0 4928
-5.9186 7.7049 1.5962 0 7387
-5.9137 0.51634 -0.55382 1 3307
-5.8898 -4.7984 0.70877 0 2783
-5.8555 -7.7536 -0.67943 0 2497
-5.8529 4.0031 1.165 0 5395
-5.8336 10.717 1.7149 1 8466
-5.742 11.24 1.476 2 8655
-5.7164 1.6144 0 0 3864
-5.6911 -7.5359 1.5515 1 2499
-5.6478 -1.0417 -0.5358 0 2961
-5.6245 -0.70355 0.79663 0 2984
-5.6244 6.9828 -0.41813 0 7240
-5.6074 -10.427 1.9451 0 2386
-5.5988 10.214 1.637 2 8442
-5.5967 13.23 1.0045 1 9174
-5.5934 12.61 2.5992 0 9050
-5.5883 10.559 1.3971 1 8552
-5.5727 4.1296 0 1 5585
-5.5507 -4.5481 0.16661 0 2780
-5.5216 6.2366 0.58247 0 6963
-5.5122 2.1646 0 0 4215
-5.4971 10.533 0.8308 0 8592
-5.4933 1.332 0.7944 0 3708
-5.4843 -6.0824 0.19014 0 2590
-5.4593 1.1724 0.52094 2 3633
-5.4548 3.756 0.30885 0 5407
-5.4522 6.8079 0 0 7259
-5.4466 13.195 1.6693 0 9240
-5.4416 -0.60075 -0.38282 0 2992
-5.4392 -4.6177 0.66566 1 2771
-5.4134 5.1677 -0.17376 0 6366
-5.3749 2.5545 -1.2649 0 4543
-5.3682 -10.876 -0.28159 0 2349
-5.3504 1.7158 0.78967 1 4002
-5.3164 -9.1786 0.24627 0 2408
-5.289 -4.7874 1.0026 0 2735
-5.2671 11.52 2.3866 2 8964
-5.2636 -5.7724 -0.18137 0 2595
-5.2541 11.06 1.4319 0 8859
-5.2459 11.123 0.85996 1 8878
-5.2359 0.79559 0.7443 0 3461
-5.169 9.9042 1.3065 2 8596
-5.1543 11.528 1.7747 1 9027
-5.138 13.199 0.9904 1 9384
-5.1268 1.9087 -0.12701 0 4146
-5.1241 10.548 1.9266 2 8802
-5.1202 -0.57975 0.84659 0 2991
-5.101 6.0404 0.92456 0 7107
-5.0961 -3.6377 -0.29198 0 2880
-5.0432 11.841 1.2007 2 9153
-5.0314 -9.1634 1.7175 0 2393
-5.0309 12.396 1.2481 1 9279
-4.9985 5.7157 0.70839 0 7002
-4.9886 9.624 1.2677 0 8615
-4.9742 -8.0886 0.44282 0 2421
-4.9705 10.463 1.0807 0 8857
-4.9636 9.8562 1.5509 2 8699
-4.9339 3.3973 0.13908 0 5406
-4.893 11.766 1.4902 0 9220
-4.8849 1.1242 -0.23376 0 3671
-4.8088 -3.6237 0.98926 2 2843
-4.807 10.192 1.0514 1 8880
-4.7836 3.0923 -0.39831 0 5246
-4.7707 -11.731 2.0807 0 2301
-4.7396 9.9771 2.0811 0 8865
-4.7157 4.7421 0.46765 0 6563
-4.7093 -7.4178 0.40975 0 2429
-4.6999 12.18 1.218 0 9408
-4.6745 4.7835 0.93998 0 6630
-4.6553 10.58 -0.26836 0 9058
-4.6312 -9.6618 1.7603 0 2338
-4.4346 -7.1217 1.1791 0 2423
-4.3759 4.7737 0.7573 2 6841
-4.3391 6.9333 -0.38143 0 7995
-4.3005 -9.9905 1.0148 0 2312
-4.2975 11.957 1.4858 0 9585
-4.2575 -11.303 1.9844 0 2277
-4.221 9.0851 1.8874 0 8930
-4.2176 3.9124 0.94516 1 6276
-4.1956 -3.9084 -0.40096 0 2677
-4.1844 -9.9641 1.7755 0 2311
-4.1671 -3.0846 0.85178 2 2856
-4.1316 -7.4261 0.99379 0 2398
-4.1192 -3.8844 0.26403 0 2659
-4.0869 -3.136 0.36022 0 2826
-4.0764 -7.7447 -0.81652 0 2374
-4.0736 -6.2969 0.52443 0 2435
-4.0522 8.8629 1.6011 0 8962
-3.9885 11.743 2.0375 0 9718
-3.9747 -10.29 0.77137 0 2285
-3.9251 12.009 1.4774 0 9799
-3.9133 -3.8888 1.0394 0 2636
-3.8716 -7.6777 0.80221 0 2359
-3.8339 10.773 1.8787 1 9611
-3.803 -3.9326 0.38254 0 2622
-3.7881 14.512 1.7539 0 10222
-3.7769 4.4473 -0.54435 1 7082
-3.7423 -8.6272 1.545 0 2314
-3.7115 4.8933 1.009 1 7424
-3.6833 -5.4117 -0.15198 0 2456
-3.6652 5.7069 0.63278 0 7921
-3.6164 3.5963 -1.3351 0 6520
-3.6011 -4.6009 0.54509 0 2516
-3.5937 10.879 1.6102 1 9781
-3.5819 -4.8301 -0.42049 0 2488
-3.5741 -10.916 1.8871 0 2244
-3.5561 -4.7953 0.98083 0 2490
-3.5088 8.9397 1.3497 0 9369
-3.5055 13.129 1.9097 1 10181
-3.499 -6.3726 0.16879 0 2392
-3.4894 -8.4409 1.0681 0 2306
-3.47 13.293 0.96069 1 10219
-3.4057 -6.8488 1.075 0 2353
-3.3302 -10.575 0.77527 0 2229
-3.3261 -7.6677 0 0 2313
-3.3042 13.627 0.9805 1 10330
-3.2913 11.27 1.65 0 10023
-3.2463 -6.4827 -0.16832 0 2356
-3.1771 8.2336 -1.2403 0 9394
-3.164 -8.6367 0.85814 0 2269
-3.1619 -6.8998 0.35394 0 2325
-3.1323 -6.5346 0.67607 0 2337
-3.0816 -11.517 0 0 2188
-3.0508 -7.3255 0.37006 0 2309
-3.0365 7.1294 -0.54187 0 9145
-3.0217 -10.221 0.74528 0 2212
-3.0122 7.55 0.75837 0 9321
-2.9253 -6.0567 -0.15616 0 2341
-2.9145 -6.6646 -0.16888 0 2316
-2.7871 -9.6371 0 0 2207
-2.7311 -7.8693 -0.19339 0 2254
-2.7141 -4.6858 0.63325 1 2409
-2.6985 12.376 2.3866 0 10499
-2.6769 6.5957 -0.33195 0 9272
-2.6736 -5.4988 -0.14196 0 2344
-2.6687 9.6557 1.6458 0 10119
-2.6605 -14.596 1.7351 0 2051
-2.592 6.3866 0.32143 0 9276
-2.4726 -7.4722 1.1061 0 2246
-2.4607 -13.941 0.66018 1 2043
-2.4012 -8.8684 1.2912 0 2193
-2.3003 6.0684 0.75893 0 9455
-2.293 -6.0396 0.14999 0 2279
-2.2614 -12.619 2.1063 0 2047
-2.1874 7.4083 1.2691 0 10006
-2.1842 -7.0865 0.86718 0 2224
-2.1723 -6.44 0.63408 1 2249
-2.144 -4.9026 0.37417 0 2318
-2.0851 -6.4248 0.315 0 2238
-2.0782 -9.7858 0 0 2091
-2.0536 5.1007 -0.3845 0 9294
-2.0516 -9.7864 0.4663 1 2083
-1.9913 14.481 2.754 0 11046
-1.98 5.5086 0.27298 0 9581
-1.9558 13.674 2.2694 2 11005
-1.9443 6.8031 -1.3331 0 10064
-1.9146 5.4763 -1.3746 1 9648
-1.8369 -6.2131 0.30214 0 2211
-1.8193 -7.3131 0 0 2164
-1.7683 -5.6152 0.96721 0 2231
-1.744 -13.864 0.65161 1 1984
-1.7347 -4.9536 -0.12186 0 2256
-1.7273 -12.002 1.9921 0 2009
-1.7253 5.3866 0.92927 1 9841
-1.6693 -9.6243 0 0 2039
-1.6432 -10.566 1.7567 0 2025
-1.6429 -5.4934 -0.26739 1 2214
-1.5939 7.1075 -0.16911 0 10448
-1.4464 -5.4704 0.79524 0 2185
-1.413 7.9005 0.18634 0 10753
-1.3769 12.412 2.3529 1 11224
-1.3505 -9.0258 1.2826 0 2016
-1.292 -14.65 2.4162 0 1913
-1.2882 -8.7763 0.41366 0 2011
-1.2689 14.533 1.0201 1 11376
-1.2492 14.784 2.0851 0 11401
-1.2267 -7.1842 0.50964 0 2036
-1.1899 14.081 2.6625 0 11405
-1.1853 -12.634 1.7834 0 1927
-1.1549 -6.7634 1.2927 0 2037
-1.0428 -10.79 1.7811 0 1937
-1.0196 -6.206 0.29329 0 2031
-1.0051 12.331 2.0327 1 11422
-0.9935 14.879 1.7439 0 11515
-0.95399 14.833 1.3867 0 11532
-0.93053 -6.7492 0.95751 0 2000
-0.88531 -5.1042 0.24158 0 2040
-0.86598 -6.2811 0.59154 1 1999
-0.83395 -9.456 1.3341 0 1912
-0.81984 -9.0435 0.84717 0 1919
-0.77442 -8.5425 1.0031 0 1920
-0.75809 5.7661 0.27121 0 11075
-0.74714 -6.3793 0.90268 0 1972
-0.74391 12.747 1.1912 1 11571
-0.74339 -10.961 1.544 0 1876
-0.72899 10.023 -1.4123 2 11464
-0.70401 -10.887 0.76286 0 1869
-0.57762 -5.3344 1.0109 0 1958
-0.57605 7.6079 0.3558 0 11453
-0.53346 -6.274 0.4403 0 1902
-0.50032 13.265 2.501 0 11729
-0.47127 -8.8738 0.41441 0 1854
-0.43664 -7.0782 0.82932 0 1866
-0.38663 -8.75 1.439 0 1845
-0.34822 -11.664 1.64 0 1816
-0.2772 13.573 1.5875 0 11847
-0.23332 -8.6785 -0.20156 0 1808
-0.20931 -7.011 0.16285 0 1814
-0.1945 13.11 1.8427 1 11889
-0.15302 5.8049 0.81611 0 11808
-0.11368 7.6619 0.7149 0 11885
-0.10217 -10.84 1.7811 0 1779
-0.085912 -9.1152 1.7175 0 1780
-0.045377 13.682 2.248 1 11961
-0.0066981 -7.6766 1.0789 1 1764
0.027707 10.584 1.4875 0 11998
0.030512 11.655 0.81503 0 11993
0.041632 7.2287 1.362 0 12020
0.044251 -8.7427 1.4364 0 1749
0.16344 14.407 1.3441 0 12049
0.1833 12.807 1.195 0 12068
0.31823 -5.5528 0.25938 0 1626
0.33139 -6.8741 0.64207 0 1650
0.33818 -9.9326 1.3967 0 1676
0.41905 14.636 1.7123 0 12169
0.42156 13.267 1.5522 0 12187
0.42194 -10.598 0.98948 0 1664
0.49058 7.7118 0.90365 0 12374
0.49424 14.224 1.6644 0 12208
0.54186 -6.0834 0.5698 0 1565
0.71034 -8.2184 0.38469 0 1571
0.74123 -8.5757 -0.19984 0 1568
0.75166 -5.1841 0.61258 0 1488
0.77323 -7.0376 0 0 1526
0.79803 -6.9077 0.97727 0 1521
0.80083 -5.4036 0.38199 0 1482
0.8278 -8.9745 1.054 0 1557
0.94191 5.1933 0.61722 0 13141
0.96467 -6.6532 0.62721 0 1487
1.0128 8.3082 1.1763 0 12763
1.0466 -10.693 1.51 0 1546
1.1063 -11.994 1.9788 0 1559
1.1271 5.3302 0.25407 0 13339
1.1321 -10.594 0.745 0 1532
1.1545 -8.3097 0.58665 0 1494
1.1587 11.118 1.3072 0 12646
1.1707 -9.4126 1.7871 0 1513
1.1769 -5.5848 0.93771 0 1444
1.2451 -5.9082 0 0 1443
1.2683 -10.197 -0.23856 0 1509
1.4027 -8.7669 0.41403 0 1475
1.5076 -12.121 1.7166 0 1511
1.5397 -7.9879 1.3365 0 1455
1.5607 -9.5831 -0.22542 0 1473
1.5762 5.2403 0.76907 1 13861
1.6097 10.836 1.022 0 12930
1.6221 -6.3966 0.77171 0 1420
1.6515 6.8368 -0.65619 0 13506
1.7375 -13.97 2.3128 0 1512
1.7914 10.057 0.47636 1 13117
1.8127 11.106 -0.26126 0 13025
1.8447 4.7119 -1.451 1 14342
1.8823 -9.7654 0.46378 0 1453
1.9427 6.5249 0 0 13837
1.9728 -6.7816 0.49388 0 1403
2.0113 5.1773 1.0465 0 14332
2.0662 5.4136 -0.13453 0 14299
2.1652 5.1686 0.65532 0 14455
2.2129 -11.667 0.2757 0 1459
2.2956 6.4008 0 0 14186
2.3019 -4.6168 0.84757 0 1337
2.3225 -8.8339 0.42596 0 1415
2.3664 -6.2657 -0.46834 0 1373
2.371 6.0008 0.1498 0 14354
2.3804 4.8356 0.8855 0 14758
2.3859 -6.2123 0.31034 0 1372
2.4213 -4.4613 0.47356 0 1307
2.4578 5.2206 -1.3672 0 14673
2.522 -9.2634 0.67134 0 1410
2.5939 5.3898 -0.27894 1 14709
2.627 -5.9874 1.0742 0 1350
2.7232 -4.7511 0.51091 0 1299
2.7787 7.748 1.5508 0 14196
2.7848 14.64 1.7427 0 13201
2.8749 -6.876 1.0474 0 1361
2.9016 -4.15 -1.1998 1 1213
3.0095 -8.1096 1.4211 0 1379
3.0156 8.2583 -0.20412 0 14220
3.1028 -4.7235 -0.52725 0 1260
3.1089 6.6579 0 0 14656
3.1275 8.5649 -0.42521 0 14219
3.2215 -12.403 1.4986 0 1417
3.3 7.575 1.5568 0 14534
3.3481 -3.9986 -0.36469 0 993
3.3545 -4.1766 0.37459 0 1053
3.3937 8.2419 0.83157 0 14424
3.3956 5.9171 -0.15839 1 15050
3.5017 -5.5349 0.61104 0 1279
3.5485 6.1836 0.83373 0 15054
3.5649 6.6041 0.87763 0 14936
3.57 -4.9536 0.85814 0 1170
3.5818 6.1198 1.165 0 15100
3.5936 11.349 2.2429 0 13951
3.6223 12.558 0.6095 1 13789
3.659 5.8922 0.64709 0 15231
3.6651 -4.0321 0.89523 0 897
3.666 4.1995 0.12942 0 15722
3.7062 3.7361 0.12218 0 15836
3.7849 9.5015 0.95419 0 14371
3.7893 3.5821 -0.60979 1 15882
3.7962 -6.8967 1.2934 0 1303
3.8314 -7.8001 -0.81076 0 1338
3.8659 9.2281 0.46658 1 14451
3.8758 8.4889 1.7582 0 14618
3.8937 5.8076 -0.16234 1 15410
3.9138 7.9505 -0.20574 1 14754
3.9353 3.1224 -1.4405 0 15968
3.9364 -3.5146 0.49233 0 675
3.9492 -5.7526 -0.65099 0 1228
3.9963 -11.161 1.9477 0 1385
4.0481 3.2293 -0.24149 0 15964
4.0491 -11.011 0 0 1380
4.05 5.6821 0.65099 0 15524
4.0522 -4.5385 0.85508 0 922
4.0912 -10.203 1.806 0 1368
4.0944 -5.2841 0.31174 0 1098
4.1525 4.1597 -0.41101 0 15841
4.1762 5.8204 -1.0068 1 15527
4.1777 -6.0132 -0.34146 0 1217
4.1894 3.7379 -1.3303 0 15908
4.2182 -2.9143 0.59957 0 313
4.2465 -3.2127 0.49679 1 459
4.2468 -9.9182 1.0066 0 1353
4.2735 -4.8713 -0.45314 1 939
4.3054 -3.563 0.12975 0 574
4.3413 4.2262 -1.2878 0 15862
4.3434 3.6111 -0.79384 0 15940
4.3605 -4.8547 0.76311 0 913
4.3636 14.344 1.0484 1 13876
4.3844 4.9037 0.45997 0 15746
4.4043 6.3299 -0.90179 0 15473
4.4231 -5.1605 -0.31695 0 962
4.4265 -7.5177 0.81392 0 1292
4.4408 4.8531 0.15273 0 15769
4.4424 -5.5609 0.83234 0 1062
4.454 2.5323 -1.089 2 16091
4.5003 3.3022 -1.4613 0 16005
4.5377 -3.0769 0.12729 0 277
4.5493 -3.9686 0.99185 0 648
4.5559 3.6565 0.40849 0 15960
4.5601 -2.0888 0.35074 0 19433
4.5644 6.3614 0.36512 0 15533
4.5716 6.6096 1.5142 0 15471
4.5784 -9.4541 -0.73454 0 1343
4.6012 -6.9174 -0.77509 0 1252
4.6014 -3.4813 0.40347 0 457
4.6322 -4.209 0.58392 0 694
4.6411 6.1971 -0.72233 0 15588
4.7105 3.269 0.80581 0 16026
4.7182 -5.667 0.51564 0 1004
4.7539 -8.244 1.3375 0 1297
4.7821 3.0395 1.0676 0 16060
4.7909 -9.609 0.24928 0 1335
4.8333 8.0918 1.3246 0 15142
4.8408 -3.8436 1.0155 0 522
4.8471 -3.0654 0.94224 0 160
4.8515 4.1319 1.047 0 15931
4.8717 1.2038 0.46818 0 17006
4.8775 6.0275 -1.0897 0 15658
4.8997 -6.969 0.79478 1 1202
4.9011 8.2053 -0.44571 0 15137
4.9024 -8.0599 1.1032 0 1288
4.9119 5.3679 0.33931 0 15770
4.9244 3.0902 0.27112 0 16064
4.9506 5.3163 -0.67774 0 15787
4.9595 -5.2134 1.1822 0 849
4.973 -2.0884 0.88615 0 19311
4.9742 -4.7335 0.96503 0 738
4.9865 4.3715 1.2494 0 15920
4.9879 -5.9909 -0.36354 0 1001
5.0131 6.9406 -0.19878 1 15544
5.0252 -0.22292 0.46929 1 18553
5.0474 -9.9104 1.0376 0 1329
5.0537 -12.396 1.5655 0 1364
5.059 -11.624 1.1827 0 1352
5.0961 8.7665 1.666 0 15082
5.1109 -10.105 0.52807 1 1332
5.1213 3.6882 0.29431 0 16012
5.2068 -0.85544 -0.12251 0 18862
5.2571 -2.2434 0.80331 0 19332
5.263 13.906 1.7388 0 14287
5.2636 -3.8172 0.91381 0 397
5.2749 3.6853 1.2124 0 16024
5.29 -9.1737 1.9952 0 1298
5.3151 4.769 0.66622 0 15906
5.3241 -6.5888 1.596 0 1045
5.3479 -4.2952 0.80214 1 537
5.3813 -3.0533 -0.57723 2 19773
5.3948 -8.2129 1.6144 0 1263
5.408 4.3141 0.64541 0 15966
5.4517 7.598 -0.21711 0 15531
5.4536 -2.088 0.27233 0 19198
5.5209 8.0359 0.9096 0 15456
5.5296 -4.0101 -0.31854 0 392
5.5319 -3.7977 1.1024 0 301
5.5375 -5.9905 1.1465 0 875
5.5387 -1.6375 0.26935 0 19051
5.5598 -3.0907 0.29664 0 19746
5.5711 2.0841 0.55494 0 16486
5.6007 6.6818 -1.0196 0 15685
5.6248 5.1958 1.2581 0 15892
5.625 1.2336 -1.085 0 17143
5.6288 0.61646 0.13147 0 17817
5.6463 -0.02168 0.92765 0 18427
5.6516 -5.35 0.72604 0 731
5.6943 1.4578 -0.68738 1 16954
5.7228 2.101 1.0016 0 16517
5.7298 10.189 0 0 15007
5.7563 4.1455 -0.82955 0 16011
5.7595 -5.4218 1.2996 0 728
5.7827 -2.8304 0.45021 0 19541
5.7842 9.1391 2.0378 0 15293
5.8542 2.9379 -0.45802 0 16145
5.8782 1.7256 -0.71642 1 16800
5.8809 5.693 0.3817 0 15868
5.9087 -0.5211 1.1176 0 18670
5.9113 -6.433 1.0217 0 882
5.9602 7.6369 -0.22491 0 15630
6.0113 -2.2034 0.74871 0 19156
6.0327 -1.7664 0 0 19044
6.0328 -9.5356 0.52621 1 1278
6.0531 3.6055 1.1575 0 16080
6.0676 5.5075 0.7645 0 15901
6.0684 6.478 0.41394 0 15793
6.1167 -2.242 1.0703 0 19159
6.1691 6.2887 1.2381 0 15826
6.1901 -1.6193 0.44742 0 19007
6.1953 2.757 -1.1141 0 16249
6.2268 -0.58422 1.0275 0 18684
6.2348 -9.3135 1.8414 0 1250
6.258 2.8295 1.1284 0 16236
6.3064 4.9147 -0.74592 0 15981
6.3232 -3.747 0.34276 0 61
6.3446 -5.635 0.19701 0 664
6.3476 1.2396 -1.3747 0 17300
6.3936 -2.9056 0.49109 0 19422
6.4477 0.08553 -0.45091 1 18363
6.4478 3.2811 0.67495 0 16139
6.4846 -4.1535 1.2652 0 183
6.4991 -7.0307 0.89325 0 874
6.5037 4.9778 0 0 15987
6.5061 -8.3455 1.2375 0 1092
6.5227 6.2769 -1.0586 0 15871
6.5304 1.8159 -0.15737 0 16855
6.533 1.3149 0 0 17245
6.5489 6.9544 0.89121 0 15799
6.5868 0.29911 1.0833 0 18242
6.6153 -11.861 2.5588 0 1300
6.6339 6.6455 -1.0981 0 15839
6.6627 -3.3335 1.224 0 19580
6.663 -0.39119 1.0966 0 18595
6.6671 4.0792 0.7292 0 16072
6.7356 4.012 -0.73143 0 16079
6.7526 -8.2091 1.7464 0 1019
6.7702 -0.49836 0.63334 1 18628
6.7724 3.2987 -1.2376 0 16160
6.7762 -6.1962 0.42819 0 698
6.7843 -1.5875 0.97922 0 18973
6.8159 0.52805 1.1232 0 18064
6.8417 8.3589 1.5181 0 15670
6.8592 1.95 0.66529 1 16839
6.8693 1.8226 -1.339 0 16927
6.8742 1.8471 -1.0004 0 16898
6.9068 -0.12659 0.64448 1 18479
6.9763 -2.741 0.69929 0 19228
6.9815 -4.446 0.38599 0 170
7.0107 -5.503 1.4643 0 507
7.0321 0.8734 0.16452 0 17713
7.0364 6.7713 0.22672 0 15873
7.0436 -3.1507 1.0844 0 19400
7.0684 3.6764 -0.37155 0 16125
7.0716 11.839 -0.32017 0 15138
7.0757 0.58795 -0.16484 0 18003
7.0814 -9.0833 0.53711 1 1090
7.0931 -2.5509 0.35152 0 19141
7.1215 7.7826 -0.24492 0 15768
7.122 -4.2777 0.77509 0 84
7.132 8.8672 1.8696 0 15657
7.159 -1.8728 0.69037 0 19008
7.1634 8.3992 0.77193 0 15705
7.2379 2.1467 -0.52792 0 16786
7.2736 -2.061 0.17552 0 19035
7.2916 0.096725 1.1981 0 18366
7.3037 -11.544 2.2444 0 1281
7.3495 4.0404 -0.39111 0 16102
7.3508 -2.4553 0 0 19098
7.3657 -4.8071 1.2361 0 215
7.3753 6.5068 -0.91759 0 15914
7.3826 -3.7227 0.77137 0 19591
7.4252 1.539 -0.70747 0 17201
7.4351 -5.662 1.7608 0 470
7.4758 -4.3127 0.40248 0 20
7.6013 -1.6379 1.2775 0 18951
7.6083 -1.4348 0.72233 0 18910
7.6258 2.8269 1.5323 0 16503
7.6312 -2.6724 1.3284 0 19124
7.6338 -0.05063 0 0 18435
7.6404 6.6981 1.1882 0 15919
7.6518 9.4054 1.704 0 15663
7.6802 2.873 0 0 16483
7.6808 -0.67739 1.2668 0 18668
7.6872 6.1696 1.1527 0 15961
7.6891 -2.9685 0.76896 0 19209
7.6935 1.8527 -0.36903 0 17031
7.701 -6.1147 0.45857 0 520
7.7177 0.14819 -0.53978 0 18343
7.7352 0.73392 -0.18039 0 17917
7.7406 -0.59017 -0.54284 0 18635
7.7547 -3.0468 0.19344 0 19226
7.8554 6.6478 -0.4799 0 15932
7.8585 2.1853 1.3401 0 16867
7.8933 5.3141 0.22092 0 16041
7.8934 5.8965 1.8563 0 15998
7.9129 -1.3256 0.74852 0 18869
7.9129 0.91136 1.3086 0 17784
7.932 3.9237 -1.4539 0 16151
7.9488 7.2152 -0.24924 0 15899
7.949 4.1345 1.2592 0 16128
7.9599 -5.9895 0.69659 0 448
7.984 -3.0568 0.59781 0 19199
8.0196 5.9537 0 0 16001
8.0216 -0.77522 0.75187 0 18691
8.0262 -2.5769 1.5882 0 19080
8.0483 -1.5178 0.95778 0 18911
8.0689 5.5332 1.375 0 16034
8.0826 2.5531 0.99123 0 16736
8.1634 -2.9922 1.2219 0 19157
8.1876 -4.4307 0.86854 0 19701
8.2748 1.2958 0.78141 0 17538
8.3406 9.4406 -1.1753 0 15734
8.4174 -6.5269 -1.2456 0 489
8.463 -0.35027 0.99053 0 18544
8.4842 -2.4842 0.61818 0 19045
8.512 -5.3832 -0.70426 1 155
8.5919 -3.2603 1.2915 1 19189
8.6237 -3.5633 1.533 0 19289
8.6476 2.6208 0 0 16769
8.6671 -6.3271 1.2549 0 408
8.684 2.6599 -1.4922 0 16759
8.7503 0.83023 0.20407 0 17920
8.8211 11.852 -0.34301 0 15584
8.9082 -6.3074 0.25342 0 352
8.9143 6.659 -0.77806 0 15995
8.9697 4.2113 1.628 0 16201
9.0164 -1.2159 1.4948 0 18798
9.0307 6.9949 1.8767 0 15984
9.1036 0.96807 1.7249 0 17847
9.1106 -2.0181 0.87058 0 18961
9.132 -3.0201 1.1248 0 19093
9.1799 1.3 0.21526 0 17614
9.2524 9.9359 0.94939 1 15789
9.2605 8.2103 2.0333 0 15911
9.3644 -4.9959 1.7438 0 19679
9.3981 -0.90824 1.7789 0 18694
9.4982 6.5133 -0.26739 0 16030
9.5327 -3.972 0.96348 0 19299
9.6585 -4.1217 1.7253 0 19334
9.7236 6.1803 1.3473 0 16057
9.7786 6.2153 1.9036 0 16059
9.9113 -5.8732 1.6191 0 63
10.003 2.872 0.97091 0 16829
10.027 4.8537 2.0989 0 16174
10.032 6.5849 1.4033 0 16050
10.189 4.3925 1.0352 0 16305
10.256 1.3612 0 0 17659
10.353 -1.3961 0.97462 0 18797
10.357 -0.45943 1.7032 0 18556
10.483 2.4279 1.2584 0 17080
10.562 6.4623 -1.1552 0 16070
10.741 3.9435 1.0675 0 16513
10.77 -1.2957 1.5245 0 18759
10.807 3.3103 1.0545 0 16764
11.045 2.2231 1.8511 0 17257
11.195 -3.0311 2.1852 0 19021
11.205 -1.2133 -0.26168 0 18724
11.207 3.2537 1.64 0 16819
11.227 -2.3536 -0.26632 0 18941
11.292 -2.4332 1.3508 0 18950
11.323 -1.4265 0.26497 0 18773
11.36 4.0609 1.9821 0 16558
11.431 6.2842 0.30285 1 16105
11.672 3.5375 -0.56878 0 16768
11.742 -6.1332 2.4959 0 19648
11.786 0.56816 -0.82508 0 18220
11.914 5.7209 1.8574 0 16178
12.292 2.2537 0.29013 1 17368
12.914 -3.1814 2.1851 0 18990
13.241 1.5672 0.93237 1 17755
13.5 -4.3343 1.3228 0 19077
14.388 0.73896 1.3441 0 18213
14.448 0.69649 0.67453 1 18223
14.45 1.2007 0 0 18005
14.684 1.4346 0.34254 1 17900
14.703 1.2683 0.68822 1 17988
-5.647 5.9507 -1.5456 2 6726
-0.11293 4.7922 -1.8718 0 11820
3.8838 -6.5125 -1.6117 0 1290
6.9414 -0.10783 -1.9907 1 18467
8.8908 12.024 -1.7488 0 15574
9.4192 9.4951 -1.8797 0 15834
10.051 -0.35976 -1.6523 2 18520
10.473 1.5166 -1.9937 0 17607
