VERSION .7
FIELDS x y z intensity index
SIZE 8 8 8 8 8
TYPE F F F F F
COUNT 1 1 1 1 1
WIDTH 1062
HEIGHT 1
VIEWPOINT 0 0 0 1 0 0 0
POINTS 1062
DATA ascii
-4.9479 0.12179 -0.69559 0 2199
-4.8937 -0.86994 -0.46372 0 1558
-4.6592 1.0645 -0.44588 0 2840
-4.5994 1.3371 0.78693 0 2962
-4.5608 1.6636 -0.11271 0 3240
-4.5048 1.6432 -0.44737 1 3239
-3.9153 1.339 -0.28935 1 3149
-3.9026 0.85733 0.18633 0 2832
-3.7989 -2.7108 0.21764 0 1498
-3.7451 -2.8406 -0.32869 1 1481
-3.6725 -0.3698 0.69543 0 1767
-3.6241 3.0582 0 0 5609
-3.5735 -2.6145 0.5178 0 1489
-3.5666 1.3363 -0.26633 0 3283
-3.5025 -2.8373 0.74057 0 1461
-3.224 -3.1319 0.10436 0 1323
-3.0806 -2.6172 0.5681 1 1435
-3.0452 2.1331 -0.17338 0 4907
-3.0044 -2.2937 -0.17627 0 1479
-2.9989 3.6561 -0.10979 0 7172
-2.8484 1.3604 0.1472 0 3769
-2.8453 -3.6196 0.42953 0 1070
-2.832 2.0591 0.24485 0 5056
-2.6836 3.121 -0.38402 0 6933
-2.6657 3.6636 -0.10519 0 7690
-2.6553 2.0993 -0.39584 0 5360
-2.6352 2.7432 0.17739 0 6454
-2.5895 2.2637 0.64803 1 5758
-2.5635 -2.8641 -0.17925 0 1201
-2.5578 4.0088 0.44365 1 8201
-2.4947 -3.2512 -0.28656 2 1046
-2.4826 -1.9417 0.51781 1 1473
-2.451 2.3251 -1.1415 0 6068
-2.4437 3.6864 -0.41263 0 8050
-2.1505 3.5259 0 0 8363
-2.1056 3.7645 -0.20115 0 8688
-2.0798 -2.523 -0.38237 0 1108
-1.9245 -3.543 0.66242 0 916
-1.9109 -3.2415 0.26312 0 957
-1.4543 2.953 0.46261 0 9098
-0.84473 4.4493 0.10514 0 10589
-0.74026 4.3081 -1.477 0 10636
-0.70547 4.7659 -1.3815 0 10703
-0.63007 -4.4494 0.7383 1 402
-0.61039 -4.7126 0 0 386
-0.60359 4.3332 0.8243 0 10722
-0.53947 4.4384 -0.31265 0 10749
-0.39851 3.9507 -0.65237 0 10770
-0.38218 -4.4488 0.20823 0 340
-0.37285 -3.4099 -0.15997 0 364
-0.29836 4.7422 0.55567 0 10818
-0.2979 4.533 0.10547 0 10808
-0.2561 4.9865 0.82033 0 10832
-0.10885 -3.9714 0.09224 0 284
0.015125 3.611 -0.083837 0 10917
0.028226 -3.7609 -0.087319 1 249
0.060686 4.8289 -1.2642 0 10937
0.094774 -4.309 0 0 237
0.29864 -4.7734 -0.11104 0 206
0.36851 3.8062 0 0 11092
0.38151 3.8155 0.72246 0 11102
0.40374 -3.7904 0.17776 1 158
0.56162 3.666 -0.43371 0 11187
0.59556 -3.7945 -0.089176 0 98
0.6111 -4.31 0.40612 0 115
0.6837 4.0725 0.19258 0 11233
0.91012 -3.7222 -0.17869 0 13
1.236 3.19 0.079427 0 11980
1.3577 -2.7961 0.51068 0 24896
1.3591 -3.8211 0.66632 1 25016
1.565 -3.0412 0.1595 0 24837
1.5915 3.7788 -1.3855 0 12109
1.5972 3.4252 0.62092 0 12289
2.1802 -2.2823 -0.22071 1 23749
2.2373 -2.0864 0.071025 0 23568
2.2769 -3.5453 0.69225 0 24568
2.2864 -4.2304 -0.22425 0 24781
2.2987 3.5655 -0.59622 0 13070
2.6778 4.1536 -0.34557 0 13073
2.7671 3.2652 0 0 13948
2.87 -3.519 -0.31753 0 24062
2.9042 -1.2961 -0.22238 1 21932
2.9226 4.0508 0.82065 1 13434
3.0183 -0.58232 0.57916 0 21058
3.022 3.7815 0.11239 1 13740
3.3156 -0.55127 -0.078035 0 20932
3.3182 1.8348 -1.1832 0 16664
3.4916 2.686 -0.30804 0 15595
3.5134 -0.18105 -0.41141 2 20402
3.6304 0.81615 -0.086391 0 18688
3.6774 -0.69884 0.52607 0 21043
3.7787 -0.34854 0.26535 0 20613
3.9069 -0.60204 -0.46228 1 20883
4.0198 2.1033 0.10533 1 16842
4.0291 1.1531 -0.0973 0 18316
4.15 1.0332 -1.3345 0 18539
4.2298 -0.9323 -0.20199 0 21139
4.46 1.8748 0 0 17448
4.5838 0.78187 0 0 18992
4.6848 -1.3806 0.6864 2 21352
4.7456 -0.68892 -0.56078 1 20849
4.9839 -0.15489 -0.4652 0 20280
-0.29144 1.9316 0.045354 1 10697
1.0796 -2.7762 -0.20829 2 25000
1.1568 0.55079 0.14983 1 17125
-14.254 2.1862 -0.67248 2 2647
-13.869 4.2057 -0.67583 0 3000
-13.862 -1.1519 0.32296 1 1817
-13.821 4.1913 -1.0099 2 2999
-12.628 3.9477 -1.2343 1 3029
-12.618 3.8674 -0.61546 1 3009
-12.558 -2.0834 -1.4886 0 1580
-12.092 0.89437 -1.1312 2 2372
-11.915 3.8027 0.87461 1 3061
-11.545 4.9483 2.3666 0 3553
-11.493 8.5538 0.6681 1 5147
-11.447 1.5193 -1.0774 1 2574
-11.309 5.9752 1.1933 1 4014
-10.985 5.1645 2.287 0 3747
-10.881 4.2206 1.0889 0 3351
-10.871 2.1585 1.8209 0 2789
-10.845 4.3509 0.54493 1 3415
-10.539 6.2526 0.85689 1 4354
-10.533 1.5836 1.4969 0 2642
-10.481 0.49793 -0.48931 0 2282
-10.25 8.7049 1.2546 0 5639
-10.025 0.10148 1.409 2 2155
-9.9695 6.1934 1.9283 0 4502
-9.9566 0.90963 1.8837 0 2446
-9.955 3.6647 0.74179 2 3258
-9.9386 2.6092 0.95864 0 2892
-9.9165 6.0412 2.1878 0 4442
-9.8782 3.7998 1.2377 2 3336
-9.7583 5.8287 1.3292 0 4374
-9.7224 4.6436 2.03 0 3780
-9.6539 4.473 0.99264 2 3708
-9.6493 1.7414 -1.1466 0 2736
-9.6372 9.088 2.1763 1 6054
-9.5213 -1.3517 1.8119 0 1646
-9.5026 -10.13 1.6243 0 1258
-9.4922 4.8052 0.24701 0 3910
-9.4897 8.7998 1.5134 1 5980
-9.4691 -7.8085 1.7249 0 1453
-9.4424 0.12031 1.3272 0 2165
-9.4408 10.849 1.3417 0 6891
-9.3659 -1.1085 1.3255 0 1707
-9.344 5.0081 1.9974 0 4056
-9.2471 -7.9959 1.4296 0 1418
-9.235 1.6666 1.5418 0 2743
-9.2176 -9.8882 2.547 0 1250
-9.2079 10.338 2.6084 1 6798
-9.172 11.25 1.6974 0 7209
-9.1423 4.4946 1.6737 1 3850
-9.1117 -0.014315 1.7167 2 2112
-9.1076 9.7565 1.8758 2 6590
-9.0097 6.5869 -0.78044 0 5071
-8.963 10.246 0.9519 1 6865
-8.9255 1.156 0.62934 0 2570
-8.8938 9.6415 1.2238 0 6636
-8.8037 10.676 1.6182 0 7153
-8.7971 8.5908 0.85982 1 6189
-8.7936 -1.3017 1.0395 0 1631
-8.7907 -0.50225 1.659 2 1916
-8.7871 -0.73015 1.2392 0 1820
-8.7806 11.094 1.32 1 7341
-8.7725 -1.6116 0.83213 0 1551
-8.7513 0.82416 0 0 2453
-8.7421 1.2115 -0.2049 0 2597
-8.7008 10.931 1.9635 0 7319
-8.6967 9.2126 2.387 0 6544
-8.6686 9.5668 1.5097 2 6715
-8.6231 -6.465 1.7707 0 1485
-8.6175 5.5302 1.439 1 4609
-8.5969 3.1358 1.7241 1 3249
-8.5958 8.0607 1.936 2 6029
-8.5809 6.2733 1.7464 2 5087
-8.4775 -1.3033 0.59977 0 1614
-8.4648 -1.578 0.80333 0 1548
-8.4622 9.6154 0.89567 1 6839
-8.4325 0.20756 1.1855 1 2206
-8.3924 3.7682 0.21359 0 3637
-8.3528 7.0487 1.2781 0 5615
-8.2593 8.0206 1.618 0 6172
-8.2588 9.1659 0.86275 1 6737
-8.2161 3.0784 0.81856 0 3289
-8.2112 5.6794 -1.1675 0 4857
-8.1928 11.545 2.6673 0 7803
-8.1755 12.102 2.7517 1 7997
-8.1222 4.2299 0.64036 2 3979
-8.1178 4.1989 1.5016 2 3970
-8.0872 0.93 0.95197 2 2523
-8.0649 12.481 1.0391 1 8152
-8.0369 5.122 1.7956 0 4591
-8.0188 6.81 1.2303 0 5641
-8.0051 8.333 1.8984 1 6464
-8.0034 8.0455 2.1381 0 6322
-7.9906 10.787 1.8866 2 7627
-7.9657 5.1119 0.66185 1 4605
-7.9492 5.1959 1.3347 1 4671
-7.9457 6.3203 1.1873 2 5394
-7.9423 4.1964 1.0505 1 4016
-7.9364 9.2825 1.4282 1 6969
-7.9363 11.828 2.0019 0 8017
-7.9178 8.1934 1.6013 1 6437
-7.8823 3.032 0.78791 2 3334
-7.8809 3.8489 -0.6133 1 3819
-7.8771 12.27 1.7051 0 8178
-7.8062 -0.6706 1.2872 2 1810
-7.801 8.3568 0.79941 0 6584
-7.7201 10.879 1.2446 1 7796
-7.7054 9.0698 1.6726 2 7001
-7.7028 -1.2987 -0.36428 0 1572
-7.6575 -1.154 0 0 1620
-7.6546 9.9648 1.1723 1 7477
-7.6328 7.2864 1.483 0 6098
-7.5974 -8.9522 2.2122 0 1143
-7.5866 9.4123 1.699 2 7266
-7.5862 9.6472 0.57232 1 7365
-7.5749 7.3099 1.9833 0 6151
-7.5686 0.67015 0.88855 1 2433
-7.5519 12.218 1.3401 0 8319
-7.5444 10.499 2.1241 1 7752
-7.5165 6.1216 0.9044 0 5487
-7.5043 7.6792 2.023 0 6395
-7.5014 5.8629 0.66576 2 5326
-7.5004 9.4767 1.4133 0 7343
-7.4814 12.353 2.0297 2 8397
-7.4665 -6.6081 0.93022 0 1393
-7.3485 11.086 2.5058 0 8068
-7.316 0.90736 0.17116 0 2547
-7.2864 1.8018 0.35003 0 2870
-7.286 6.1137 1.1123 0 5595
-7.2779 10.913 1.8435 2 8040
-7.2662 4.1698 -1.1774 0 4236
-7.2244 2.3766 1.0688 0 3105
-7.2108 11.38 1.5755 0 8227
-7.2013 2.2747 0 1 3046
-7.0885 2.9391 -0.35785 0 3479
-7.0346 3.2326 1.4586 2 3701
-7.0154 0.62117 0.49248 0 2432
-7.0047 5.0278 1.6245 1 5015
-6.9881 5.6589 0.62878 0 5461
-6.9864 4.0093 0.94198 0 4252
-6.9554 9.1104 0.8015 1 7501
-6.9331 12.57 1.0038 1 8736
-6.9126 3.6277 1.4708 2 4005
-6.8951 9.308 1.0807 2 7623
-6.8864 9.8788 2.2689 2 7876
-6.8493 -0.36975 1.2924 0 1926
-6.8438 2.3832 1.1906 0 3184
-6.8148 -5.8575 -0.41906 0 1419
-6.8022 1.7225 -0.49067 0 2875
-6.7224 -5.1639 0.39531 0 1478
-6.719 11.619 2.5288 0 8585
-6.6814 11.325 1.8479 0 8505
-6.674 2.8384 -0.67662 0 3523
-6.6569 2.8973 -0.16856 1 3575
-6.6437 1.6614 0.63891 0 2874
-6.6386 2.8234 0.16749 0 3524
-6.6383 0.39439 0 0 2326
-6.607 12.763 2.3611 2 8945
-6.5813 11.155 1.5146 0 8503
-6.5805 4.8392 1.539 2 5111
-6.5643 -5.7771 1.0226 0 1401
-6.5257 2.0001 -0.47727 0 3008
-6.5033 1.6686 1.1031 1 2885
-6.4827 -1.0546 0.45928 0 1590
-6.4735 6.3216 0.42195 0 6187
-6.4596 -4.9889 0.18949 0 1476
-6.4148 5.8084 1.6304 0 5894
-6.41 4.8321 -0.93873 2 5185
-6.3758 -4.3314 0.17896 0 1515
-6.363 -4.1132 1.4275 0 1518
-6.3512 9.0034 2.0759 0 7829
-6.3464 7.0434 1.3324 2 6743
-6.3317 1.3124 -0.15013 0 2801
-6.3309 -0.10277 -0.88987 0 2053
-6.3017 0.6501 0.29543 0 2484
-6.2819 -0.76242 0 0 1693
-6.2786 12.654 1.6519 0 9074
-6.2775 -1.1533 0.74638 1 1552
-6.2421 8.4758 -0.98205 0 7637
-6.2389 -5.7531 1.1927 0 1356
-6.2321 7.248 1.1178 1 6944
-6.2112 -5.4663 0.77193 0 1400
-6.1872 -6.4836 0.62669 0 1274
-6.1823 6.6227 -0.63353 0 6577
-6.1665 12.711 2.6617 0 9144
-6.1606 3.2084 0 0 3975
-6.1551 12.687 1.9818 0 9140
-6.1291 1.6469 0.44379 0 2901
-6.087 0.27215 -0.42607 0 2273
-6.0835 5.6058 1.5586 1 5962
-6.0757 -4.1043 -0.34192 0 1516
-6.0643 -4.251 0.69093 0 1505
-6.0597 7.6127 0 0 7310
-6.0472 10.25 2.2422 2 8508
-6.0369 -5.2812 1.5112 0 1408
-6.0253 -9.1032 1.0185 0 981
-6.0095 8.7341 1.7418 2 7920
-6.0059 10.889 2.3429 0 8744
-5.9954 10.301 1.3938 0 8557
-5.9947 -0.9034 0.14075 0 1621
-5.959 9.9018 2.1774 0 8426
-5.9075 -4.7582 -0.53043 0 1463
-5.9015 -4.2391 1.369 0 1495
-5.8372 0.72396 0.68784 0 2548
-5.8303 -10.654 0.28196 1 919
-5.8268 -11.265 2.3896 0 891
-5.7875 12.67 1.2996 0 9314
-5.7707 1.1615 0.13667 0 2794
-5.7623 3.7665 0.64225 0 4667
-5.7514 -7.3167 1.0883 0 1071
-5.7426 12.868 2.3151 0 9380
-5.734 10.465 1.677 0 8761
-5.7022 1.4101 -0.68692 1 2865
-5.6982 13.174 2.3582 1 9464
-5.6892 -6.3922 1.4059 1 1200
-5.6839 0.58637 -0.39957 1 2480
-5.653 7.9194 0 0 7766
-5.6423 3.6209 0.15565 0 4602
-5.638 -0.0088578 0 0 2106
-5.6055 4.8728 1.3994 1 5737
-5.588 -5.275 -1.08 0 1339
-5.5191 -6.6952 -0.60674 0 1109
-5.5183 -8.1751 0.45996 0 988
-5.4639 -8.202 -0.45959 0 983
-5.4594 1.1824 0.26049 0 2827
-5.4233 -9.91 1.5877 0 922
-5.4211 6.7691 -0.80909 0 7278
-5.3755 4.2499 0.31956 0 5368
-5.3709 5.2743 0.52638 0 6214
-5.3694 -8.3733 1.8741 0 972
-5.3603 7.8402 0.2205 0 7935
-5.3543 6.7652 0.20031 0 7336
-5.3335 1.5334 0.91177 0 2953
-5.3154 -3.7719 0.60807 0 1501
-5.2861 2.5988 0.54955 0 3845
-5.275 -7.5784 0.21437 0 999
-5.2667 1.4477 -0.25472 0 2911
-5.2542 3.524 -0.59024 0 4743
-5.1782 1.5545 0.5044 0 2992
-5.1058 4.2344 0.61885 0 5553
-5.0859 1.494 -0.99871 0 2973
-5.0828 -5.2948 1.2059 0 1281
-5.0072 -8.6137 0.23132 0 950
-4.9949 4.3943 0.31025 0 5771
-4.9754 6.517 0.38236 0 7499
-4.9231 -9.797 -1.0229 0 870
-4.9205 -8.4645 1.6086 0 952
-4.8944 5.6244 -0.52136 0 6882
-4.8605 2.4265 0.12613 0 3874
-4.8124 14.185 -1.3975 2 10019
-4.778 2.4188 -0.75265 0 3906
-4.7475 -5.4307 1.1851 0 1179
-4.6843 5.2928 0 0 6810
-4.6821 -8.6738 1.1527 0 912
-4.633 -3.1675 0.39245 0 1512
-4.5912 8.3238 0 0 8732
-4.5631 6.8008 0.19014 0 8009
-4.551 3.2259 -0.39008 1 4949
-4.5366 -8.4043 0.89102 0 911
-4.531 -13.773 1.3527 0 595
-4.4791 5.4938 -0.33056 0 7200
-4.4586 -4.6446 0.45021 0 1280
-4.3701 -4.1966 0.99542 1 1332
-4.3559 -4.0407 0.69481 0 1351
-4.2499 -6.2231 -0.35143 0 989
-4.2317 6.0705 0.69037 0 7868
-4.2044 -3.854 0.93706 0 1363
-4.1573 -5.7558 0.99787 0 1014
-4.1271 7.8012 0.2049 0 8862
-4.0641 10.286 2.0837 0 9703
-4.0283 -3.4624 0.62117 0 1424
-4.0219 4.0191 0.26515 0 6287
-3.9963 -8.6252 0 0 812
-3.9591 -7.1336 0.76116 0 928
-3.9112 -5.2857 0.92411 0 1022
-3.8994 6.4386 0.70226 0 8393
-3.8365 -12.138 2.3985 0 586
-3.8287 10.032 1.0017 0 9776
-3.8036 -6.496 0.52638 0 954
-3.7269 9.5987 0.48018 1 9734
-3.711 5.4606 -0.15328 0 7959
-3.6587 -8.3425 0.2115 0 770
-3.653 -4.5369 0.54342 1 1089
-3.6434 4.9472 0 0 7642
-3.6281 -8.3282 -0.42363 0 764
-3.6095 9.0566 -0.22635 0 9669
-3.608 -7.5542 0.78104 0 838
-3.5928 -3.6586 0.47839 1 1299
-3.5896 -7.3014 1.1434 0 865
-3.5797 -9.646 0.47981 1 631
-3.5723 -7.3733 -0.38208 0 849
-3.5528 -4.4394 1.0713 0 1083
-3.4627 6.1529 -0.32925 0 8663
-3.3968 7.0486 1.4742 1 9165
-3.2032 9.101 1.8178 0 9963
-3.1987 -7.0092 0.7188 1 802
-3.1681 6.1197 -0.48188 0 8926
-3.1651 -7.8853 0.39624 0 686
-3.1428 -7.8976 0 0 677
-3.1377 13.16 1.2622 0 10427
-3.0917 7.0364 0.35841 0 9414
-3.0252 6.0097 -0.15621 0 9024
-3.0089 -9.3323 0.22765 0 588
-2.9983 4.6401 -0.12826 0 8147
-2.9697 -9.9998 1.466 0 567
-2.9536 6.8813 1.0524 0 9482
-2.9441 -9.5051 1.6348 0 580
-2.8494 -7.0385 1.0672 0 700
-2.8492 5.7022 0.44574 0 9052
-2.8395 5.4038 0.71386 1 8891
-2.8206 6.1297 1.1086 0 9297
-2.8063 -12.432 2.0939 0 498
-2.7526 -7.9759 1.5897 0 607
-2.6658 -7.0547 0.52736 0 641
-2.6384 -7.3688 0.54731 0 615
-2.6041 5.9748 0.60807 1 9437
-2.5928 10.338 0.99432 0 10378
-2.4832 -6.4554 0.32254 0 652
-2.4451 -6.1442 -0.30838 0 676
-2.4129 10.965 1.8446 0 10492
-2.3989 11.865 1.7013 0 10553
-2.395 -7.2802 0 0 593
-2.3797 -5.9287 0.74708 0 689
-2.3699 6.608 0.16299 0 9916
-2.3662 -10.073 0.72351 0 507
-2.2831 6.9359 0 0 10065
-2.2342 -12.606 2.4122 0 435
-2.1497 -6.2932 0.1544 0 602
-2.0968 -9.6816 0 0 490
-2.0925 -4.6604 0.11861 0 789
-2.0457 -5.7674 0.57091 0 612
-2.0099 13.578 2.2551 0 10705
-1.92 -11.024 1.5727 0 433
-1.7927 -4.7045 0.82714 0 648
-1.7907 -5.4982 0.95003 0 590
-1.7882 -6.0213 0.73454 0 566
-1.7726 -5.6668 0.27689 0 582
-1.7488 -6.5086 1.2698 0 535
-1.746 -6.3475 0.92522 0 542
-1.7163 -7.5059 0.35907 0 501
-1.6823 9.1479 0.65041 0 10605
-1.5824 -5.3284 0.38868 0 564
-1.5742 -12.711 1.8001 0 381
-1.5711 8.2753 1.3839 0 10590
-1.5228 -7.1336 0.85301 0 485
-1.5151 10.236 0.96533 0 10704
-1.4556 12.28 -1.1537 0 10753
-1.4238 8.2861 0.78438 0 10637
-1.4146 10.877 -1.0233 0 10739
-1.2994 -8.973 0.84587 0 406
-1.2191 5.9549 -0.14112 0 10544
-1.2189 12.823 0.29905 1 10776
-1.1735 -13.66 2.2525 0 341
-1.167 13.076 -0.6122 0 10781
-1.1097 6.2426 -0.44337 2 10620
-1.0914 -8.6034 0.80909 0 384
-1.0573 9.9098 -1.1655 0 10766
-1.0456 11.358 1.603 0 10778
-1.0222 -9.8916 1.3976 0 357
-0.96606 -6.822 0.64281 1 401
-0.91196 -7.7399 1.0953 0 378
-0.83247 -7.0652 0.16517 1 376
-0.81208 -4.9974 0.9539 0 422
-0.81193 10.113 1.6669 0 10789
-0.74289 -7.1888 1.1874 0 358
-0.69339 -8.0715 -0.37779 0 339
-0.65293 -5.5414 0.52057 1 377
-0.61831 -13.015 2.1406 0 309
-0.61744 -8.6774 1.4293 0 330
-0.61692 -9.9162 0.23067 0 322
-0.61202 -11.411 -0.53291 0 315
-0.60106 -5.4971 0.90852 0 368
-0.5926 -5.4197 0 0 365
-0.5895 -7.9515 0.37183 0 333
-0.52169 8.292 1.1677 1 10819
-0.46109 5.1664 -1.4873 0 10782
-0.44644 13.18 0.92218 1 10855
-0.44128 10.356 0.24065 0 10841
-0.40072 8.2821 -0.19251 0 10834
-0.38683 7.1658 -0.33466 0 10826
-0.30649 7.7662 0.72511 1 10847
-0.29175 5.1063 -0.11875 0 10824
-0.28999 -5.407 1.0202 0 316
-0.28828 -7.3701 0.86254 1 299
-0.25428 10.115 -1.4221 0 10868
-0.16129 6.4162 0.75057 0 10874
-0.15793 -8.4558 0.78902 0 273
-0.14565 -11.431 0 0 267
-0.1289 12.107 1.1296 0 10894
-0.12299 -7.743 0 0 270
-0.11945 9.0048 0.20908 0 10888
-0.085102 -8.7069 1.4306 0 265
-0.066135 13.532 2.2233 0 10905
-0.058268 -8.1426 1.3378 0 262
-0.044494 9.1044 0.8494 0 10904
-0.0062208 -5.092 0.71563 0 255
0.087474 -11.655 1.915 0 250
0.12608 -5.7324 -0.26739 0 236
0.15422 12.272 1.145 0 10936
0.16122 -7.3299 1.2046 0 238
0.16826 9.0086 -0.42018 0 10943
0.21986 8.073 0 0 10960
0.251 -8.2152 -0.38329 0 231
0.27355 9.1095 1.7171 0 10967
0.28822 9.598 -0.89585 0 10964
0.29538 -6.9603 1.1446 0 221
0.39712 6.1245 0.28621 0 11029
0.40717 -7.1705 0.16675 0 211
0.4142 11.515 0.26753 0 10972
0.42499 12.879 -1.2022 0 10968
0.4643 8.7139 -1.2264 0 10999
0.47886 -8.8705 1.0389 0 214
0.49836 -9.2317 1.2993 0 215
0.52713 11.095 -0.51801 0 10991
0.52764 -7.3971 0.34584 0 202
0.58494 -10.301 1.6951 0 212
0.67072 11.323 -1.0582 0 11009
0.68655 7.7692 0.36372 0 11076
0.73252 -8.4922 1.4004 0 188
0.77082 5.5693 -1.1951 0 11165
0.81045 8.3709 1.5845 0 11095
0.86449 5.4336 -0.77325 0 11200
0.89289 -4.9426 0.11661 0 71
0.914 8.6381 0.81039 0 11111
0.94194 -7.7611 0.72939 0 139
0.9429 -7.0855 0 0 122
0.95317 9.845 -0.92279 0 11090
1.019 7.7088 0.18053 1 11156
1.0358 -6.9973 1.3327 0 108
1.1671 -12.701 1.1899 0 179
1.1704 10.738 2.0352 0 11119
1.197 10.705 1.5139 0 11125
1.2617 -8.0385 1.3368 0 99
1.262 -6.7695 0.64244 0 64
1.2797 7.755 0.73329 0 11223
1.3038 -8.9921 0.42372 0 112
1.3603 -7.53 0.89483 0 72
1.3771 -7.8821 0.93571 0 79
1.4316 -8.6288 1.437 1 89
1.4372 -7.2317 1.2114 0 52
1.4882 5.3553 1.0472 0 11608
1.4891 -12.007 0.2809 1 133
1.6818 5.9914 -1.3227 0 11619
1.6868 -8.0042 0 0 40
1.7111 -5.4502 0.13263 0 25038
1.7329 -13.972 2.3131 0 135
1.7407 9.8317 -0.93152 0 11255
1.8016 -8.6692 0.41292 0 43
1.8102 10.97 2.0948 0 11227
1.8335 -8.8227 1.4805 0 44
1.8442 8.0782 0.77305 0 11424
1.8456 7.48 -1.0828 0 11474
1.8656 12.93 0.91353 1 11172
1.9169 4.9886 0.24922 0 11967
1.9476 10.478 1.4978 0 11288
1.955 5.3163 0.79607 0 11905
1.9765 -12.149 2.0223 0 92
1.9909 -7.6651 0.36931 0 2
2.0188 5.3511 -1.4972 0 11939
2.0256 -4.8709 0.8667 1 24983
2.0913 -6.5293 1.1264 0 25033
2.0996 -8.7054 1.0472 0 16
2.1078 8.1327 1.3803 0 11544
2.1694 -13.575 1.932 0 95
2.225 -5.7691 0.28835 0 25004
2.2273 5.6515 -0.71038 0 12002
2.2628 -10.44 0 0 33
2.2637 6.5113 1.1326 0 11833
2.2884 -7.2888 1.2551 0 25039
2.2914 8.7468 0.63227 0 11556
2.3168 -10.835 1.8203 0 37
2.3246 6.8757 0 0 11788
2.3866 -6.0869 -0.45718 0 24998
2.3868 -6.1375 0.9255 0 25002
2.4204 -8.6747 0 0 25064
2.493 -9.5706 0 0 25077
2.4937 -7.5578 0.55652 0 25027
2.531 -7.3799 0.18114 0 25023
2.5428 -5.8286 0.29655 0 24964
2.5477 -6.4446 0.64653 0 24997
2.5655 6.0411 0.76752 0 12125
2.5836 7.0906 0.88251 0 11892
2.6062 10.056 0 0 11538
2.612 -8.4959 -0.4145 0 25042
2.6264 -9.509 1.3864 0 25069
2.6266 8.4072 0 0 11704
2.642 -6.1494 0.62442 0 24971
2.6632 -6.2987 -0.31891 0 24977
2.6825 5.1202 1.0891 0 12558
2.6881 4.5057 0.12181 1 12861
2.6916 -10.844 0.2594 0 25086
2.7183 7.8856 0.38897 0 11815
2.7298 7.7045 -0.18977 0 11856
2.7504 6.3772 -0.48564 0 12147
2.7643 -8.4675 0.83101 1 25028
2.7702 11.086 1.8774 0 11508
2.7748 5.2561 0.83532 0 12572
2.8109 -7.0455 0.53043 0 24995
2.8635 -11.425 1.0989 0 9
2.872 -4.4412 0.99649 0 24557
2.9027 6.5689 1.3531 0 12193
2.9095 -4.2779 0.48267 1 24464
2.9864 -4.3387 -0.36831 0 24438
3.0032 5.6529 -0.89961 0 12577
3.0119 4.9207 -0.81082 0 12924
3.0316 7.0868 0 0 12136
3.0358 -6.2519 0 0 24892
3.157 7.2055 -0.5501 2 12172
3.1902 -9.8595 -0.48326 0 25029
3.1993 8.7001 1.523 1 11906
3.2843 6.7337 0.17394 0 12390
3.3041 3.921 -0.35855 2 13925
3.3283 -12.335 0.29663 1 25072
3.3298 -11.057 1.8971 0 25048
3.3374 10.795 -0.26233 0 11693
3.3375 -8.2938 0.62516 0 24991
3.3441 -5.9762 0.63891 0 24741
3.3534 12.48 1.8162 0 11581
3.361 3.9659 -0.97945 0 13960
3.3935 -7.8986 1.6197 0 24973
3.3967 -5.5691 1.229 1 24639
3.4 -5.5745 0.76357 0 24635
3.4268 -6.3404 1.3579 0 24789
3.4335 -8.4642 -0.42596 0 24988
3.4523 8.3346 1.2679 0 12087
3.4655 -4.6494 -0.541 0 24289
3.4692 3.7268 0.35604 0 14291
3.4762 5.0334 0.42775 0 13301
3.5688 10.76 0 0 11769
3.5871 -8.7681 1.1078 0 24987
3.5923 -9.4816 0.2354 0 25006
3.6128 -8.0916 0.82674 0 24952
3.6197 6.2772 0.16823 0 12772
3.6649 10.253 1.7888 0 11873
3.6748 -7.4061 0.96684 0 24873
3.6788 6.0103 0.49276 0 12932
3.7644 -6.2526 0.6809 1 24651
3.7983 5.8199 -0.97672 0 13107
3.8013 -10.588 1.3155 0 25014
3.8653 6.6095 -0.71434 2 12802
3.8856 3.2883 -1.082 0 15246
3.93 10.687 -0.26437 0 11900
3.9717 6.8875 -0.55596 0 12769
3.9934 -8.471 -0.65487 0 24914
4.0381 7.817 -0.41031 0 12512
4.0526 -7.9331 -0.62293 0 24842
4.1638 -4.2609 -0.27782 0 23702
4.2 -6.7084 1.4912 0 24602
4.2263 10.034 0 0 12108
4.2488 -3.3207 0.5031 0 23266
4.2615 -8.1654 1.5132 1 24828
4.272 3.9698 -1.2396 0 14874
4.287 10.264 1.8274 0 12102
4.2892 6.9584 1.5401 0 12958
4.2944 4.9786 0.30661 0 14008
4.3078 5.4565 0 0 13705
4.3335 5.5227 1.1533 0 13698
4.3724 5.9155 -0.17079 0 13496
4.387 -4.6996 -0.29981 0 23796
4.4843 -6.5565 -0.37043 0 24450
4.4912 3.6904 0.81695 0 15360
4.5111 -5.065 -0.3163 0 23891
4.5172 9.7583 -0.24966 0 12266
4.5314 -9.4747 0.48978 1 24904
4.5676 5.2304 0 0 14045
4.607 -5.358 -0.32953 0 23959
4.6322 12.169 0.3023 1 11952
4.6327 -7.6948 1.2623 0 24653
4.6358 9.7938 1.5228 0 12321
4.7404 -7.4266 -0.61609 0 24570
4.8211 -5.8071 -0.52778 0 24024
4.8302 3.9003 -0.14414 0 15413
4.8383 -5.4668 -0.68108 0 23902
4.8432 -12.676 2.2295 0 25005
4.866 -1.8407 -0.6084 0 21626
4.8667 5.4145 0.50908 0 14160
4.9115 1.1773 -0.11726 0 18593
4.949 10.075 1.0473 0 12407
4.9788 4.7645 0.48188 0 14748
5.023 -6.1589 -0.74146 0 24061
5.0269 -1.4814 0.12167 0 21348
5.0813 12.788 1.9339 0 12022
5.0889 -6.024 0.7357 0 23989
5.1214 0.33029 0 0 19658
5.1987 -8.9215 1.2075 0 24697
5.2236 -10.151 1.335 0 24839
5.2337 1.1593 -0.12446 0 18706
5.2576 -1.7837 -1.1801 1 21503
5.2652 3.3466 -0.43626 1 16222
5.364 5.9323 -0.18569 0 14176
5.4291 8.9259 -1.4683 0 12906
5.4739 2.3575 0 0 17393
5.4831 -2.1665 0.27494 0 21693
5.5213 -6.1991 0.97079 2 23896
5.5631 8.0042 1.1399 0 13323
5.5759 -2.6859 -0.57742 0 22111
5.5865 -3.7004 0.62516 0 22860
5.5965 -5.759 -0.56154 0 23713
5.5994 -4.5359 0.1673 0 23336
5.7439 8.0141 0.68947 0 13408
5.8095 4.946 -0.3558 0 15212
5.8281 8.8657 1.7431 2 13146
5.8293 8.0351 1.6309 1 13452
5.9339 -2.3446 0.59525 2 21695
5.9347 -2.2071 0.88987 2 21607
5.9663 0.7516 0.28043 0 19244
5.9801 3.3312 0.80051 0 16644
6.0037 -12.271 0.63708 1 24888
6.0188 -3.3873 1.3012 0 22491
6.0391 -5.5319 0.19014 0 23547
6.0548 6.6169 0.83677 0 14226
6.0994 4.665 1.4468 0 15635
6.13 -5.206 -0.56238 0 23429
6.1315 5.8308 0.7894 2 14776
6.1361 -1.9819 -0.14971 0 21440
6.1918 -2.5079 1.0976 2 21742
6.2141 6.9917 1.3146 0 14121
6.2377 8.7031 2.0174 0 13416
6.2663 -11.672 1.5492 0 24794
6.2716 -12.187 1.2788 1 24838
6.3087 -10.006 0.82717 0 24586
6.326 -9.6598 2.1755 0 24535
6.3279 -1.6283 0 0 21239
6.3384 -6.9952 1.1039 0 23859
6.3457 -12.159 0.63959 1 24824
6.3468 -9.7546 1.6356 0 24543
6.3683 -13.315 1.0321 1 24905
6.3758 -8.004 0.71556 0 24129
6.3769 -4.8351 1.3148 0 23204
6.3956 0.56292 -0.44895 1 19492
6.4126 10.685 1.7514 0 12886
6.414 7.7449 0 0 13864
6.4142 9.3431 0.26312 0 13281
6.4381 3.8837 0.87926 2 16397
6.44 2.7495 -0.32655 0 17411
6.4419 -8.5892 1.5089 2 24284
6.4503 -3.8543 1.056 0 22631
6.4541 -12.108 1.6045 0 24801
6.506 5.4091 1.1891 1 15316
6.541 -7.007 0.44701 0 23798
6.5548 9.9711 1.3954 0 13142
6.5893 -1.373 0.62795 1 21104
6.6049 8.1681 1.2284 0 13787
6.6291 1.2694 1.1089 0 18877
6.6407 13.124 1.3722 1 12475
6.6444 -6.7993 0.88693 2 23706
6.6762 1.9763 0.81422 0 18263
6.6823 -12.19 1.297 2 24765
6.7173 -8.0423 0.48866 2 24013
6.7325 -10.218 0.2841 1 24516
6.7417 -12.132 1.9507 0 24752
6.7552 -10.583 0.87795 1 24572
6.7568 -3.9342 0.91434 1 22566
6.7674 -12.346 0.65655 1 24764
6.7741 -11.555 1.5664 0 24688
6.7992 -11.365 0.6176 1 24658
6.824 -11.188 1.2226 2 24634
6.8366 -11.139 1.8368 0 24627
6.8381 -12.306 0.32685 1 24748
6.8413 -11.979 2.5992 0 24721
6.8416 1.5996 -0.16313 0 18635
6.844 -12.151 0 0 24729
6.8873 -10.79 2.4118 0 24577
6.9156 -1.004 -0.16224 0 20852
6.9311 -8.061 0.24682 0 23960
6.9736 -9.7048 1.6795 0 24371
7.0064 -4.4395 1.1657 0 22759
7.0083 -11.563 1.9003 0 24644
7.0317 4.4952 0.77862 0 16208
7.0426 -11.62 0.63363 1 24641
7.0961 6.0735 1.0923 1 15200
7.1141 6.846 0.92112 1 14723
7.1143 -2.9309 1.0814 2 21769
7.1473 -8.8199 0.79383 0 24082
7.1536 -4.7998 0.8037 1 22890
7.1628 8.3984 1.0298 0 13973
7.1682 -8.4345 0.25699 2 23978
7.1823 2.7772 1.4509 0 17666
7.2057 9.6883 1.9837 2 13530
7.2263 -7.79 1.2426 2 23813
7.2506 -12.957 2.0868 0 24743
7.259 -10.352 0.88409 1 24411
7.2686 0.40511 1.3716 2 19726
7.27 0.93646 -0.17018 0 19223
7.2937 -7.1226 1.9208 0 23638
7.3022 -4.1347 -0.58679 0 22496
7.3233 -7.3182 0.96589 0 23665
7.3444 -1.7307 0.52764 1 21183
7.3712 -6.3336 1.3658 2 23458
7.3884 -11.07 1.8705 0 24499
7.3958 0.025817 1.3935 2 20066
7.424 -4.7369 0.41068 0 22770
7.437 -8.2077 1.0333 2 23858
7.4666 -9.4917 0.84447 1 24158
7.467 -5.7649 0.21902 0 23238
7.4718 -9.9624 2.046 2 24285
7.5016 1.3443 1.0711 2 18942
7.5056 -6.0412 1.5829 2 23329
7.5097 -10.517 2.4348 0 24385
7.5404 10.521 1.2076 1 13410
7.5568 -11.614 2.6106 1 24546
7.5676 -1.3235 1.0797 1 20975
7.5775 -0.30169 1.0658 1 20348
7.5977 0.57928 0.35534 0 19577
7.6327 12.549 2.0642 0 12919
7.6573 -9.8469 1.1638 0 24188
7.6656 -11.936 0.99194 1 24562
7.6831 -10.308 0.59953 1 24293
7.6962 4.4327 0.8286 1 16534
7.7042 12.499 1.3698 0 12951
7.7069 3.0312 0.96846 1 17615
7.7095 1.2238 0 0 19060
7.7122 5.4869 0.88303 1 15886
7.7198 -10.486 2.1393 0 24327
7.7232 9.4967 0.57083 1 13800
7.7331 3.7101 1.4092 1 17108
7.748 -0.49154 -0.36205 0 20461
7.7492 3.9672 0.20212 0 16911
7.7534 10.621 0.91953 1 13462
7.7646 1.3244 0.5508 0 18993
7.7966 8.0426 1.045 0 14448
7.7977 -7.3946 1.5103 0 23596
7.8086 0.0054535 1.4712 1 20084
7.8208 -10.367 0.90809 1 24266
7.8333 6.1399 0.92855 2 15535
7.8412 -10.145 1.1963 2 24204
7.8551 -6.8669 1.4663 1 23479
7.8579 -2.7934 0.58316 1 21549
7.8634 -2.3921 1.1551 0 21383
7.8685 -11.723 2.3196 2 24489
7.8735 1.4365 0.93594 1 18923
7.8797 6.9469 1.4763 0 15087
7.8924 12.645 2.449 1 12994
7.8998 -6.747 -0.96923 0 23440
7.9464 -1.3669 0.94291 0 20962
7.9629 10.393 2.151 1 13626
7.9698 2.1579 1.5556 1 18420
7.98 -11.668 0.98845 1 24452
8.0132 -11.938 0.67052 1 24483
8.026 5.2002 -0.22203 0 16162
8.0331 3.0003 1.6156 0 17756
8.0488 -9.8688 0.89051 1 24068
8.0504 7.7039 1.8307 0 14754
8.0641 -8.0164 1.0608 0 23658
8.0694 -6.8919 0.99004 1 23445
8.071 7.0756 1.0014 1 15107
8.0772 -1.535 0.19089 2 21038
8.096 -3.9574 1.2665 1 22155
8.1068 -11.492 1.9765 0 24404
8.1162 2.0975 0.39093 0 18489
8.1212 -5.7225 1.6322 1 23022
8.1271 -11.883 0.33424 1 24451
8.1358 -0.49048 1.5357 0 20455
8.1915 -10.73 2.2178 0 24243
8.2017 -9.4283 2.0531 0 23943
8.216 -1.1211 1.5623 0 20820
8.2166 -12.547 1.7539 0 24531
8.2407 -8.7296 2.2618 2 23779
8.263 -8.4026 1.0995 1 23694
8.2747 -11.377 0.98371 1 24345
8.2913 -0.47662 0.38729 1 20432
8.3058 -6.8883 1.2619 2 23386
8.3329 10.246 2.1698 1 13810
8.3597 1.8013 1.6112 0 18751
8.4345 -9.6414 -0.59739 0 23925
8.4371 1.8967 0.20077 0 18689
8.4426 7.4013 1.8446 1 15111
8.4553 -8.851 1.4314 0 23754
8.4632 -8.5076 1.4033 0 23675
8.4961 6.3052 1.7383 2 15741
8.4963 -12.344 2.462 0 24446
8.535 8.1164 1.9351 2 14780
8.5522 -8.5016 0.56236 1 23656
8.5581 -0.86477 0.19971 2 20654
8.5707 11.457 1.3349 1 13545
8.5759 -11.096 0.98064 1 24203
8.5819 -0.29219 1.6179 1 20315
8.5992 -10.865 2.6106 1 24150
8.6121 -9.9001 0.61192 1 23938
8.6452 9.5612 1.5074 2 14185
8.6639 4.6592 0.91777 1 16752
8.6755 9.2095 0.59003 1 14333
8.7131 -9.4456 0.29835 1 23821
8.7229 9.3705 1.7992 0 14297
8.723 3.9056 0.2219 1 17289
8.7362 -3.8987 0.66896 0 21939
8.737 0.4105 0.61162 0 19773
8.7912 8.859 0.28976 1 14530
8.8018 9.4025 2.4266 0 14321
8.8176 5.8962 1.9985 0 16075
8.8183 6.9943 1.5818 2 15492
8.8203 7.82 1.3785 0 15063
8.8207 5.5332 0.72812 0 16269
8.828 -10.325 0.94994 1 23969
8.8428 1.0889 0.20685 0 19262
8.8501 7.5747 2.1948 2 15204
8.8796 6.7914 0.25954 0 15624
8.8856 10.988 0.98817 1 13784
8.8971 6.1011 1.5162 0 15998
8.9057 -11.805 1.3796 2 24267
8.9085 -10.602 1.6194 0 24004
8.9194 -9.0701 1.7878 0 23696
8.9194 -8.7102 2.0482 2 23637
8.9566 -7.2944 1.8978 0 23353
8.9661 -3.9695 1.8474 0 21927
8.9666 2.3992 0 0 18431
8.9718 3.7714 0.68054 1 17450
8.9719 -11.824 2.7965 2 24261
9.0392 7.9691 1.9798 0 15088
9.0641 5.3605 0.49108 2 16450
9.0641 7.7579 1.6768 1 15201
9.0649 8.3765 2.0278 1 14898
9.0722 10.455 0.96794 1 14030
9.0724 10.273 1.9262 0 14100
9.0921 -6.0225 1.7918 2 22862
9.1075 -11.712 2.0851 0 24192
9.1236 11.283 0.33688 1 13780
9.1351 -5.424 0.74291 0 22612
9.1495 3.5673 1.6134 1 17642
9.1633 -6.2625 0.77611 2 22938
9.182 -11.808 2.4574 2 24193
9.2088 10.676 2.3164 0 14015
9.2136 8.2206 1.444 0 15038
9.2412 8.005 0.85494 1 15151
9.2499 -3.018 0.90774 0 21456
9.2697 -8.9485 1.5067 0 23619
9.2719 6.7587 1.3418 0 15804
9.275 -7.0324 0.81392 1 23201
9.2806 -9.7729 0.6285 1 23762
9.3052 4.8007 0.48829 1 16889
9.3179 -9.208 0.91604 1 23649
9.3291 -8.4948 0.88228 1 23541
9.3297 6.886 0.81085 0 15759
9.3783 -11.635 1.7476 2 24100
9.3959 2.2523 0.90142 0 18597
9.4029 -11.666 -1.0477 2 24091
9.4051 -11.668 -1.3982 0 24090
9.4235 7.2492 1.6709 2 15607
9.4453 -11.446 0.69204 1 24040
9.45 8.8308 1.5125 1 14850
9.5113 -5.5736 2.077 1 22585
9.5199 3.1502 1.8893 0 18051
9.5206 10.054 0.32147 1 14352
9.5366 -11.289 2.7843 1 23994
9.5394 -0.37981 1.1164 0 20346
9.5408 -7.8676 1.1537 1 23372
9.5533 -8.4017 0.59329 1 23483
9.5623 7.1405 1.1134 0 15717
9.57 -3.1854 0.941 0 21477
9.5987 -1.3661 0.45214 0 20841
9.6354 -5.7211 1.5749 0 22615
9.6495 1.9632 1.3839 2 18811
9.6536 -10.654 2.7088 2 23862
9.667 9.9097 1.2916 0 14469
9.6703 7.8085 1.4535 1 15421
9.6837 -6.7003 1.3771 1 22971
9.6979 8.5981 1.8215 0 15064
9.6985 -10.213 0.32699 1 23761
9.7024 -2.1652 1.873 0 21155
9.7242 -2.1131 0.46406 1 21129
9.7445 4.9544 2.0596 0 16942
9.75 7.4141 0.28438 1 15648
9.7501 -4.5943 0.50264 1 22062
9.7508 -7.4847 1.4375 0 23230
9.7604 8.7085 2.1491 2 15040
9.7692 2.4321 0.70398 1 18540
9.8073 -5.1141 1.2935 1 22311
9.8101 0.57767 1.8515 1 19709
9.816 -6.3381 2.2015 0 22805
9.8197 3.6013 1.4699 1 17799
9.8346 -7.8228 1.7661 0 23306
9.8366 7.7545 1.1686 2 15512
9.8874 9.188 1.2592 1 14870
9.8883 -11.04 1.7332 0 23883
9.9026 -10.366 2.3553 1 23755
9.9163 -3.045 1.2131 1 21392
9.9182 -5.7748 0.26646 0 22561
9.9305 -6.4563 0.275 0 22811
9.9554 9.6913 2.6177 0 14678
9.9819 4.2989 1.7856 2 17401
10.016 5.8064 1.0801 0 16512
10.077 -10.675 0.34083 1 23772
10.087 -10.38 2.7269 1 23721
10.155 -6.9406 1.1476 2 22939
10.158 8.2467 0.30378 1 15394
10.164 -10.217 1.3445 0 23674
10.186 9.139 2.2483 0 15016
10.209 0.30299 1.6779 2 19893
10.212 -10.509 2.4075 2 23720
10.23 7.9208 1.207 1 15581
10.262 4.4196 1.0424 0 17397
10.276 -6.9393 2.3362 0 22910
10.282 -1.9539 1.7195 0 21044
10.288 7.9142 0.60531 2 15602
10.334 -2.2135 0.98596 1 21121
10.353 -6.5603 -1.1435 0 22751
10.355 9.6765 0.66093 1 14844
10.365 -3.1175 2.0393 0 21376
10.374 0.85108 1.9611 0 19545
10.413 3.4801 1.2839 0 18025
10.418 -2.9341 1.7781 1 21320
10.42 -0.81095 1.7172 1 20548
10.431 9.6394 0.99319 1 14893
10.433 -4.2259 0.78713 0 21737
10.448 -2.177 0.4977 1 21102
10.45 -9.301 0.97826 1 23503
10.465 4.7626 0.80401 0 17249
10.478 3.8054 1.04 1 17817
10.505 -2.6367 1.7794 1 21229
10.519 3.5155 0.77555 0 18021
10.543 1.859 0.99877 0 18957
10.546 -9.7176 1.677 0 23556
10.556 6.3275 2.022 0 16420
10.562 3.8026 1.5777 2 17843
10.568 4.3342 0 0 17504
10.583 -3.0827 0.25592 0 21339
10.588 7.5329 0.90865 1 15885
10.595 -9.8245 1.0104 1 23562
10.597 3.3045 0.51764 1 18165
10.625 -0.20959 1.4936 1 20215
10.626 -10.377 2.0873 0 23636
10.644 -2.4105 2.0563 0 21162
10.646 -0.91834 0 0 20585
10.653 3.3896 2.1063 0 18130
10.741 4.9994 1.3854 0 17187
10.782 -6.6593 0.88619 1 22702
10.845 -2.0296 1.5507 1 21028
10.855 -5.3813 1.4168 0 22190
10.882 -2.4284 1.0402 2 21151
10.93 1.9273 0.25769 0 18955
10.984 -10.062 0.69465 1 23548
10.994 4.8122 -0.27862 0 17351
11.108 -7.6856 1.2602 0 22970
11.121 -5.3164 1.15 1 22101
11.137 -5.165 0.57251 1 22028
11.319 1.9632 -0.53571 0 18972
11.361 1.4312 -0.26586 0 19242
11.466 0.30826 1.0701 1 19908
11.479 -1.6664 0.26929 0 20854
11.533 -1.3691 -1.0835 0 20737
11.554 0.51054 0.80876 0 19792
11.777 2.7169 -0.28062 0 18655
12.14 5.1833 -0.30648 0 17412
12.316 -1.3206 -0.28758 0 20683
12.519 5.7394 2.5947 0 17235
13.605 0.36578 -0.31599 0 19904
14.132 1.6127 0.33024 1 19316
-8.4147 10.44 -1.568 1 7248
-7.6894 5.9388 -1.5962 2 5272
-4.3616 8.4758 -1.5661 1 8948
-0.38496 11.365 -1.8683 0 10851
0.30838 3.6193 -1.9314 0 11069
2.046 8.3932 -1.8363 0 11472
3.422 5.702 -1.9069 0 12882
4.6801 -8.0866 -1.986 0 24707
5.1538 2.715 -1.6704 0 16821
5.8096 8.5133 -1.9419 1 13272
9.875 2.1585 -1.9045 0 18732
10.824 3.3404 -1.8611 0 18175
