VERSION .7
FIELDS x y z intensity index
SIZE 8 8 8 8 8
TYPE F F F F F
COUNT 1 1 1 1 1
WIDTH 1094
HEIGHT 1
VIEWPOINT 0 0 0 1 0 0 0
POINTS 1094
DATA ascii
-4.8954 -0.53008 0.34432 0 2136
-4.7828 0.82184 -0.45276 0 2945
-4.7818 1.3019 0.34655 0 3310
-4.5517 1.2666 0.77623 1 3338
-4.3795 0.64827 0.30958 0 2859
-4.3651 -0.18142 0.10143 0 2265
-4.3012 0.72594 0 0 2937
-4.2732 0.034308 -0.19928 1 2376
-4.0993 0.34135 -0.19183 0 2619
-4.062 1.9245 -1.2889 1 4263
-4.0309 2.8036 0.34334 0 5566
-3.9806 0.54174 0.7569 0 2823
-3.8723 1.4895 -0.096325 2 3808
-3.8086 0.96657 -0.55224 1 3241
-3.7315 2.054 -1.3291 0 4713
-3.6782 -2.7607 -0.21447 0 1785
-3.5594 3.1436 -0.22146 2 6585
-3.4777 0.82851 -0.083002 0 3187
-3.4292 -2.496 -0.19779 0 1822
-3.4213 3.3939 -0.4496 2 7131
-3.1672 -0.10396 0.44535 1 2285
-3.157 -0.030306 0.0733 0 2332
-3.0928 3.3457 0.42507 0 7562
-3.0066 1.1965 0.37842 0 3876
-2.8428 -2.8122 0.56198 2 1414
-2.7854 1.7731 0.62211 0 5234
-2.732 -2.6254 0.087969 0 1442
-2.6385 3.9668 0.89762 0 9135
-2.6313 -3.1358 0.1909 0 1154
-2.4323 -3.672 0.82985 2 824
-2.3654 -2.8021 0.085137 0 1163
-1.9428 3.8983 0.7156 0 10133
-1.8968 -3.6344 0.19118 1 541
-1.776 3.5636 0.18568 0 10127
-1.7153 4.0099 0.30498 0 10458
-1.4401 -4.319 0.1057 2 236
-1.3768 -3.3655 0.33924 0 343
-1.2902 3.3023 0.24791 0 10602
-1.1652 3.5149 -0.25894 1 10798
-0.89536 -4.1134 0.29437 0 175
-0.85154 4.4261 -0.95806 0 10965
-0.76332 3.7925 0.27052 1 10955
-0.54185 4.9636 0.82033 0 11086
-0.50193 -3.0618 0.14469 1 141
-0.46487 4.6328 0.87725 0 11102
-0.45295 3.9388 0.3699 1 11077
-0.31381 -3.9873 -0.18652 2 73
-0.089487 3.5848 -1.3051 0 11202
-0.069762 -3.9571 0.18456 0 17
0.017593 4.2002 -1.3106 0 11247
0.074462 -3.5254 0.16444 0 26834
0.1846 3.8714 -1.1114 1 11324
0.18599 -3.502 0.57618 0 26805
0.19864 -4.7793 0.55938 0 26816
0.29319 3.9735 -1.4502 0 11380
0.40156 4.2719 -0.50177 0 11439
0.61079 4.9531 0.23273 0 11551
0.66339 3.3079 0.23592 0 11849
1.0746 -2.885 0.14357 0 26399
1.105 4.6634 -1.2546 0 12012
1.2192 -4.5062 0.54591 0 26565
1.2211 -2.9107 0.59471 0 26320
1.4142 4.077 -0.20124 0 12537
1.4539 -3.3043 -0.16835 2 26266
1.4984 3.4528 0.17553 0 12949
1.5067 4.6843 -0.22947 2 12412
1.514 4.4422 0.77105 0 12512
1.5539 4.4798 -0.5545 0 12533
1.63 3.1393 0.49713 0 13372
1.6887 4.051 -0.61682 0 12862
1.7868 3.1658 -0.59725 0 13568
1.8059 2.7378 0.30599 0 14039
1.9291 4.1768 0.10682 0 13076
2.0856 4.046 0.85762 0 13357
2.2073 -2.3555 0.22573 0 25028
2.2294 -2.8514 0.59466 1 25413
2.3026 3.8186 0.20795 2 13771
2.304 3.7001 -0.1012 0 13867
2.3144 4.0493 0 0 13613
2.4643 -3.388 0.48992 0 25567
2.6941 -1.9502 -0.23257 1 24354
2.7635 -1.6019 -0.22336 0 23868
2.768 1.5597 -0.073764 1 17679
2.8854 3.0215 0.38977 2 15341
2.9166 0.95556 0.071257 0 19200
2.9773 -1.2011 0.4512 0 23110
2.9852 0.4206 0.2108 1 20579
3.0887 2.749 0.096 0 15966
3.175 3.442 0.10872 0 15209
3.2113 0.19923 -1.4325 2 21211
3.3379 2.7692 -0.92188 0 16249
3.4926 1.7612 0.64265 0 18044
3.5058 -0.25991 0.49406 0 22063
3.5486 -1.2671 0 0 22926
3.6088 2.7066 0.31544 0 16623
3.6332 2.857 0 0 16437
3.6685 3.2274 0.92058 0 16024
3.6898 -2.0545 0.49387 0 23796
3.7524 0.59634 0.35448 1 20445
3.7575 -0.12662 0.35076 1 21857
3.7661 2.1954 -1.0329 0 17564
3.8462 1.8701 0.80578 1 18157
3.8834 2.2784 -0.42006 1 17524
3.9587 2.6083 -1.1233 0 17118
3.9788 2.3653 -0.10747 0 17484
3.9977 -2.8242 0.22826 0 24300
4.064 -0.05391 -0.37918 2 21719
4.0714 -2.4725 -0.4444 1 23971
4.1556 -1.47 0.51548 2 22919
4.2474 -2.5119 0.23012 0 23921
4.2525 1.8279 -0.10747 0 18496
4.4833 -1.2442 0.10802 0 22681
4.622 0.73453 0.65773 0 20449
4.7753 1.293 -1.2951 0 19598
4.9375 0.43632 0.93391 0 21024
4.9505 -0.022465 0.46186 1 21670
-2.2898 1.4672 0.4468 2 5255
1.8231 -1.5055 0.44548 2 24632
-13.59 4.7324 -0.3341 0 3637
-13.409 6.6886 -1.398 0 4398
-13.033 2.59 0.92916 1 3054
-12.476 -0.95125 0.29051 1 2189
-12.377 2.3475 1.1753 0 3019
-12.314 -0.40419 1.1494 0 2283
-12.149 8.6561 -1.3917 0 5654
-11.979 6.1063 -1.2544 1 4460
-11.906 7.7256 1.9946 0 5297
-11.857 8.7671 -1.3757 0 5802
-11.819 -0.59045 1.6631 0 2249
-11.703 -0.72397 1.0939 0 2219
-11.296 6.6965 -0.91827 1 4967
-11.263 9.8911 -1.0482 0 6558
-11.224 0.93462 -0.26149 0 2620
-11.199 9.8905 -1.3939 0 6581
-11.158 0.37796 -0.78071 0 2449
-10.803 8.3793 2.5758 0 6038
-10.79 1.0276 0.25165 0 2663
-10.719 5.1931 2.244 0 4331
-10.694 -0.56794 0.24863 0 2241
-10.604 0.26841 -0.24627 0 2421
-10.584 7.7749 1.8457 1 5792
-10.514 8.7075 2.5721 0 6313
-10.5 -7.008 1.4763 0 1934
-10.478 -9.5539 0.99152 1 1502
-10.473 9.3609 2.6466 0 6656
-10.422 3.2599 -1.277 1 3476
-10.419 -7.3147 0.29557 1 1867
-10.363 3.5762 1.0227 0 3624
-10.36 -10.672 0.34533 1 1359
-10.257 8.9009 0.94966 1 6513
-10.254 -8.0751 0.91269 1 1719
-10.218 0.88135 1.9322 1 2635
-10.126 8.2349 1.8343 0 6232
-10.097 4.0181 1.5273 0 3878
-10.091 9.3345 1.6075 0 6812
-10.076 -9.9124 1.3187 2 1419
-10.052 -7.5448 2.3681 1 1789
-10.044 8.365 2.1474 0 6337
-10.006 -6.724 1.1247 2 1923
-9.979 8.7083 1.2356 0 6541
-9.9452 0.59782 0.46462 0 2543
-9.9102 -7.8463 0.58947 1 1709
-9.9087 -7.6638 0.29083 1 1747
-9.9041 3.6754 0.98558 0 3745
-9.8865 10.945 1.7248 0 7680
-9.868 4.3276 -1.0053 0 4073
-9.8675 6.6107 1.6692 0 5418
-9.8489 9.1618 2.5344 0 6844
-9.7983 8.8565 0.92358 1 6701
-9.7978 -6.3385 1.64 0 1961
-9.7614 11.194 2.0873 0 7857
-9.7463 10.544 1.6791 0 7564
-9.7009 -7.822 0.8714 1 1687
-9.6323 -9.8054 0.64099 1 1374
-9.6282 -6.4261 1.08 2 1933
-9.6088 11.282 1.3826 0 7969
-9.6065 9.3647 1.2516 0 7061
-9.5871 -0.61829 1.81 0 2213
-9.569 9.4364 0.93976 1 7115
-9.5665 -9.5732 1.5827 0 1399
-9.5358 9.2959 1.8716 2 7065
-9.5311 2.0973 1.6034 1 3125
-9.5262 -11.285 2.4263 1 1169
-9.5169 -6.973 1.6581 1 1818
-9.5035 0.24056 1.5619 1 2425
-9.4559 -6.715 1.082 0 1853
-9.3779 -10.667 0.99319 1 1225
-9.3726 -11.711 2.8262 2 1090
-9.325 -0.33216 1.533 2 2279
-9.2991 8.2619 2.3437 1 6628
-9.2907 -9.4576 0.92706 2 1375
-9.2798 -9.2313 1.8396 0 1406
-9.2769 0.55765 0.86705 1 2545
-9.272 6.4059 2.1233 2 5547
-9.2681 -7.6972 1.6932 0 1655
-9.2008 2.1073 0.88062 0 3154
-9.1839 0.63092 -1.2938 1 2569
-9.1828 -7.2314 2.2022 1 1723
-9.1489 -10.584 -0.32481 0 1197
-9.1476 6.1632 1.8122 1 5445
-9.1276 -9.5082 1.5413 1 1347
-9.1243 -1.1478 1.7327 0 2102
-9.1154 -8.5539 2.0537 0 1471
-9.1132 -7.8386 2.2648 0 1606
-9.0614 1.557 1.7323 1 2956
-9.0535 9.3556 2.4529 1 7347
-9.053 7.8061 1.9639 2 6492
-9.0397 7.6608 1.3857 0 6413
-9.0363 4.4112 1.1759 0 4348
-9.0272 2.7134 1.776 1 3433
-9.025 5.5631 1.7418 1 5114
-9.0155 5.4149 1.478 0 5020
-9.013 -1.6998 1.289 0 1992
-8.9966 1.4104 -0.84959 0 2889
-8.9022 10.034 1.2514 1 7767
-8.8989 -9.5999 0.91534 1 1294
-8.8956 4.5345 0.93152 1 4469
-8.8752 1.525 1.4795 1 2955
-8.871 6.8365 1.3097 1 6004
-8.8618 10.405 2.5751 0 7976
-8.8607 6.0466 2.0211 1 5499
-8.8322 7.2265 1.6038 0 6259
-8.8078 1.2253 1.2498 0 2832
-8.8022 11.992 1.3878 1 8692
-8.741 8.1797 2.2555 1 6870
-8.7239 6.3313 1.0056 1 5736
-8.6923 2.0965 -0.2076 0 3200
-8.686 -11.251 2.3352 0 1042
-8.634 1.2257 -1.0198 0 2834
-8.6308 -12.167 2.0965 2 924
-8.6232 -11.573 2.3712 1 988
-8.6211 12.113 2.0895 0 8846
-8.5997 9.751 1.5204 1 7798
-8.5891 11.565 1.6846 0 8636
-8.5663 5.8852 1.9582 2 5523
-8.5634 -7.8085 1.3552 0 1503
-8.5475 -8.805 1.7246 1 1364
-8.5287 3.8026 0 0 4113
-8.5275 12.283 1.3951 2 8947
-8.5116 -12.075 1.7276 2 917
-8.5072 9.6461 1.8076 2 7800
-8.4673 3.117 0.84179 1 3728
-8.446 -11.907 0.33892 2 921
-8.4274 -8.2383 0.8241 0 1424
-8.4219 -11.237 2.6458 1 997
-8.3988 -10.685 1.91 2 1064
-8.3903 -10.357 0.93209 1 1102
-8.3689 -7.9975 1.08 2 1449
-8.36 10.048 1.2195 0 8079
-8.3586 -9.8492 0.60242 1 1173
-8.3353 9.1188 1.1526 0 7620
-8.3275 -9.7502 2.4159 1 1186
-8.3119 10.29 0.92497 1 8225
-8.2978 -9.8295 1.8079 0 1168
-8.2921 9.5625 1.1808 2 7882
-8.2903 1.8243 1.5993 0 3126
-8.283 -11.255 2.296 0 972
-8.2719 8.447 1.103 2 7282
-8.2484 -11.278 1.9637 0 964
-8.242 -1.5767 1.3787 2 1990
-8.2358 8.0286 1.345 0 7063
-8.2248 12.071 1.7081 0 9029
-8.2002 -11.698 1.3328 2 907
-8.1989 -11.004 1.2802 0 985
-8.1679 -11.652 2.681 2 911
-8.1379 -11.609 0.99138 2 906
-8.1148 -5.416 0.68222 0 1932
-8.1121 -10.887 2.5581 1 989
-8.1094 -7.6099 0.77765 0 1468
-8.0889 5.249 1.5842 2 5299
-8.0344 -8.04 1.5974 1 1400
-8.0281 -6.6249 0.72784 2 1661
-8.0263 9.7609 1.179 0 8136
-8.0196 -6.7007 -0.73077 0 1638
-8.0045 5.1289 0.88693 2 5250
-7.9999 10.517 2.4896 0 8527
-7.9988 -6.7979 1.9778 1 1621
-7.8812 4.7655 1.7352 2 5047
-7.88 -7.7032 1.5487 2 1427
-7.8634 3.7793 1.6438 0 4311
-7.8311 -12.764 1.3971 0 728
-7.8263 -0.64344 1.2902 1 2179
-7.8188 5.8152 0.68138 0 5839
-7.7905 -7.7498 2.0704 0 1408
-7.7718 -12.265 0.67714 1 758
-7.757 5.7357 1.3558 0 5817
-7.7176 -11.572 2.2853 2 832
-7.7025 4.8411 -0.21122 0 5169
-7.6964 -12.789 0.34654 1 706
-7.6478 6.9517 0.96422 2 6731
-7.6421 -11.178 2.2246 2 871
-7.6284 -7.1585 0.24288 0 1466
-7.6262 7.3903 1.4925 0 7039
-7.6233 -11.075 2.5333 1 883
-7.6193 0.43532 1.4379 0 2537
-7.5785 -12.933 0.69903 1 679
-7.5556 -0.35631 0 0 2253
-7.5369 4.7059 0.82897 0 5153
-7.5158 -0.44125 0.88042 0 2226
-7.4977 -12.37 1.3495 2 716
-7.4817 -8.1192 1.2911 1 1287
-7.4612 -9.2106 2.2333 1 1107
-7.4593 1.5719 -1.0714 0 3081
-7.4572 -12.554 0.33902 1 693
-7.3736 -12.414 2.3721 2 699
-7.3423 -6.6552 1.8671 0 1516
-7.3217 -11.699 2.6003 0 749
-7.292 4.5265 0.80073 2 5132
-7.2815 -8.3293 2.0844 0 1220
-7.2184 -0.38336 0.6744 2 2242
-7.2108 -12.464 1.684 2 664
-7.2018 9.9343 2.3118 0 8758
-7.2011 -5.9424 1.0918 0 1663
-7.1518 -11.503 0.63167 2 738
-7.1253 2.9777 1.2688 2 3978
-7.1249 -10.955 0.6094 1 793
-7.1155 -6.2292 0.88229 1 1576
-7.1105 8.2492 1.0161 0 7911
-7.0579 -11.066 2.4729 1 772
-7.052 10.09 1.4396 0 8923
-7.0034 -7.8274 -0.24385 0 1247
-7 1.3505 -0.66511 0 3025
-6.9895 -10.887 1.207 0 776
-6.9771 -11.978 0.96934 1 671
-6.9336 -9.0852 1.8777 0 1024
-6.9207 6.3283 -0.43733 0 6747
-6.8879 5.534 0.82432 0 6178
-6.8855 4.4972 0 0 5313
-6.839 -11.213 2.1578 0 723
-6.8206 -10.827 0.59673 1 751
-6.8183 -12.275 2.307 2 615
-6.8124 2.3284 1.3564 0 3614
-6.8076 4.1163 1.307 2 5045
-6.7722 4.3393 0.94059 2 5252
-6.7688 2.6486 1.0215 0 3844
-6.7679 -4.517 1.5331 2 1937
-6.767 -11.47 1.8716 0 691
-6.7416 -5.9708 1.6967 1 1562
-6.7253 -9.9632 0.84057 2 847
-6.7178 2.8557 1.3753 1 4018
-6.717 6.473 1.311 0 7015
-6.7037 -4.5047 1.1351 2 1925
-6.681 -6.5723 0.43705 0 1417
-6.6424 -6.8832 0.44608 0 1353
-6.6164 -6.9358 1.5748 1 1339
-6.5802 -10.179 0.56524 1 783
-6.5699 3.6163 -0.69966 0 4703
-6.5621 -5.5454 1.0047 0 1626
-6.5524 -10.013 1.6818 0 805
-6.5198 6.9721 0.44515 0 7504
-6.5171 -11.189 2.4396 2 676
-6.4956 -10.65 2.3503 2 724
-6.4869 -10.847 1.1792 2 702
-6.4864 -11.136 2.1173 1 675
-6.4825 -9.7201 0.81699 0 828
-6.4791 -10.56 1.4489 0 729
-6.4776 -10.156 1.4087 1 769
-6.4739 7.4237 0 0 7847
-6.4674 -5.1518 1.5579 1 1707
-6.4362 -5.834 1.0159 1 1513
-6.4123 -8.0125 1.6861 2 1089
-6.412 -8.4505 1.7428 0 1015
-6.3574 -7.1053 1.7963 2 1253
-6.3567 1.5543 0 0 3213
-6.3356 4.3771 0.71843 0 5540
-6.2753 -5.4936 1.3702 2 1579
-6.2722 -8.369 0.97574 2 993
-6.272 -9.1737 1.5618 0 870
-6.235 -9.84 2.1948 0 763
-6.2248 2.23 -0.15352 0 3678
-6.2134 -7.6702 0.92093 2 1103
-6.1995 -7.8415 1.8834 1 1073
-6.1651 0.64145 0.14391 0 2697
-6.1306 6.1521 1.6364 2 7203
-6.1201 -9.7147 1.3427 0 754
-6.1173 -4.7588 0.72307 0 1739
-6.0562 -4.2516 0.86532 2 1870
-6.0544 2.2673 0.30149 0 3759
-5.9811 2.9198 0.46542 0 4345
-5.9773 -6.2265 1.213 1 1348
-5.9071 -11.558 0.90767 1 514
-5.9029 -7.7346 0.90774 2 1021
-5.897 -7.5018 1.5677 0 1065
-5.8953 8.6975 0.24395 0 9049
-5.887 1.5093 0.28341 0 3256
-5.8812 -6.0583 1.5908 1 1365
-5.8528 -11.874 0.92567 1 472
-5.8464 -0.20825 -0.68413 0 2276
-5.8355 -6.6752 -0.62 0 1212
-5.8273 -6.4379 1.4267 1 1267
-5.7982 -11.434 0.59785 1 503
-5.78 -7.4381 1.1016 2 1050
-5.7691 10.864 1.1476 0 9966
-5.7642 -9.7041 1.053 0 696
-5.7171 2.2936 0 0 3887
-5.7115 -10.493 0.8354 1 589
-5.6837 2.552 1.1739 1 4141
-5.6712 -4.1038 0.81863 1 1833
-5.6529 -6.2826 0.59098 0 1256
-5.6317 -4.7323 -0.17079 0 1632
-5.61 5.2186 0 0 6832
-5.5664 -4.1521 -0.32385 0 1790
-5.5172 5.015 -0.3477 0 6722
-5.4164 1.4564 0.92149 0 3301
-5.3946 13.127 1.9946 0 10532
-5.3735 4.2194 0.15862 0 6076
-5.349 -5.6406 -0.36251 0 1327
-5.3331 -8.6316 1.426 0 736
-5.331 -5.3947 0.88693 0 1384
-5.2908 1.7416 -0.65137 1 3542
-5.2841 -0.43443 0.74513 1 2178
-5.2775 -5.9693 -0.93176 0 1230
-5.2736 11.481 2.0758 0 10320
-5.2705 5.5695 0.17803 0 7446
-5.2612 8.3806 0.46146 0 9362
-5.2411 1.1045 -0.24978 0 3084
-5.1786 4.0883 -0.46137 0 6094
-5.1038 5.1828 0 0 7246
-5.1014 3.2901 0.14094 0 5270
-5.0731 4.2013 0.30717 0 6304
-5.0654 -7.9419 0.43928 0 767
-4.9822 4.8568 -0.64913 1 7050
-4.9754 1.0186 0.95687 0 3074
-4.9729 2.7373 0.13179 0 4710
-4.9583 6.8395 -0.19613 0 8740
-4.9517 11.127 1.1363 0 10383
-4.9382 -6.5461 0.19037 0 999
-4.8657 -5.6969 0.17394 0 1181
-4.8492 6.4118 1.1298 0 8552
-4.7774 2.7772 -0.2577 0 4903
-4.7658 3.0338 -0.52707 0 5215
-4.7597 -5.3197 -0.33289 0 1246
-4.6812 2.3862 0.24503 0 4466
-4.6692 3.957 -0.1421 0 6404
-4.6331 -3.8711 -0.28155 1 1639
-4.6083 6.2781 0.18081 0 8686
-4.6002 -7.2126 -0.39894 0 765
-4.5731 10.868 0.54987 1 10486
-4.5694 3.3357 0.52781 0 5761
-4.391 -5.2946 -0.32077 0 1135
-4.3806 -6.7766 -0.3763 0 781
-4.1746 -5.6027 -0.48857 0 981
-4.161 -6.3976 -0.3559 1 791
-4.1097 4.0982 0.40584 0 7168
-4.1034 8.005 1.4779 0 10065
-4.0588 7.9179 -0.20658 0 10056
-4.0587 11.449 0.28201 1 10730
-4.0496 3.4319 -0.24754 0 6402
-4.0455 5.9372 0.50239 0 9025
-4.0372 12.658 2.5033 0 10832
-3.9637 -7.5947 -0.79924 0 538
-3.943 -7.1962 1.546 0 601
-3.8889 10.592 0.52621 1 10683
-3.819 3.5737 0.24391 0 6859
-3.8163 3.8753 0.63604 1 7255
-3.7802 3.685 -0.36915 0 7052
-3.6388 -8.2115 1.4756 0 389
-3.6151 6.5758 1.4138 0 9870
-3.585 6.4782 0.1719 0 9836
-3.5561 4.1256 0.38087 0 7909
-3.5432 -5.0867 0.57835 1 899
-3.543 -10.038 1.4961 0 247
-3.4978 -10.01 0.9893 0 245
-3.4972 8.8783 1.3411 0 10593
-3.4932 7.2746 -0.18736 1 10214
-3.4844 4.9854 0.14121 0 8916
-3.4773 7.8729 0.80296 1 10398
-3.4731 9.4599 0.23396 0 10681
-3.4563 -4.9307 0.2808 0 905
-3.4179 -8.3544 1.0556 0 344
-3.3874 12.767 -0.30666 0 10888
-3.3171 -8.04 1.4289 0 352
-3.2945 7.017 -0.17998 0 10265
-3.2478 8.1036 1.227 0 10572
-3.2418 5.5857 -0.14994 0 9671
-3.205 -5.93 0.62888 0 582
-3.1677 7.7083 -0.19349 0 10526
-3.1068 4.9163 0.27121 0 9334
-3.0946 -6.328 -0.16354 0 462
-3.0456 6.2032 0.32226 0 10165
-3.038 8.5695 1.713 0 10734
-2.9447 6.1324 1.1177 0 10222
-2.8624 -4.3477 0.48564 0 811
-2.8335 -5.5442 -0.14456 0 511
-2.812 11.677 0.83987 1 10916
-2.7863 -10.805 1.8333 0 193
-2.7616 -6.4839 1.1579 0 372
-2.7086 5.5558 -0.43221 2 10177
-2.6888 -9.3096 1.592 0 213
-2.552 10.469 1.0053 0 10912
-2.5398 8.1295 -0.7946 0 10840
-2.5269 -7.1596 1.4305 0 248
-2.4409 -5.7729 1.1809 0 369
-2.431 7.3335 0.17937 0 10799
-2.4166 5.2614 0.40487 0 10315
-2.3489 8.1807 0.59516 0 10876
-2.2445 8.8701 0.63981 0 10903
-2.2164 -6.1127 0.45467 0 256
-2.1828 8.1236 -0.1953 2 10886
-2.1685 -11.033 0.52434 1 161
-2.0786 9.7455 0.92966 0 10941
-2.0454 -11.058 1.0491 0 156
-2.0148 7.7793 0 0 10896
-1.996 4.5906 0.35004 0 10427
-1.869 11.109 1.8508 0 11003
-1.8204 6.2013 0.30139 0 10865
-1.8008 10.34 1.7243 0 10996
-1.7255 11.263 1.0631 0 11022
-1.6487 5.4403 -1.3469 1 10852
-1.609 8.2467 1.5831 0 10962
-1.6025 -10.546 1.7525 0 133
-1.5666 5.2785 0.51369 0 10861
-1.4574 -8.7373 0 0 145
-1.4253 -7.7052 -0.18193 0 154
-1.3885 7.9725 1.1373 0 10995
-1.3693 -9.7556 0.91907 0 126
-1.3557 -8.5887 1.6382 0 136
-1.3474 -9.8111 1.627 0 123
-1.3228 -7.3963 0.52541 0 150
-1.2411 -7.9987 1.1376 0 134
-1.2279 8.1575 -1.3553 0 11023
-1.1244 7.7838 1.2921 0 11037
-1.1239 -12.07 0 0 87
-1.12 -8.5184 0.19947 0 119
-1.1119 -6.6661 -0.1569 0 144
-1.0882 12.241 2.3155 0 11119
-1.0407 5.0207 -1.0899 1 10947
-0.99544 -10.062 -0.47152 0 92
-0.98565 -9.9629 0.70008 0 93
-0.96424 -11.435 0.53515 1 79
-0.95278 8.0741 -0.56852 0 11069
-0.93999 -9.7801 1.8512 0 89
-0.904 -6.1892 0.58355 0 131
-0.89103 9.1367 -0.4281 0 11105
-0.83655 -5.1029 0.97427 0 142
-0.82626 8.7409 -0.81912 0 11110
-0.81629 10.235 0.9579 0 11125
-0.76295 9.8704 1.8652 0 11131
-0.67342 12.475 1.4609 0 11160
-0.66262 8.9166 0.83417 0 11137
-0.65955 13.731 1.932 0 11169
-0.64254 -6.4948 1.0723 0 94
-0.58831 -8.0886 0 0 69
-0.56707 6.1951 0.58039 0 11116
-0.55955 7.8639 0.73552 0 11139
-0.53858 7.5691 1.2467 0 11140
-0.50536 -5.9931 -0.13964 0 78
-0.5041 8.4106 0.19562 0 11152
-0.48355 -8.731 1.0226 0 55
-0.43082 -5.7031 1.0776 0 71
-0.38511 -10.117 0.94453 0 38
-0.36296 -7.7831 0.36335 0 48
-0.32112 -6.107 0.57054 1 52
-0.2746 8.8861 0.41459 0 11195
-0.26385 6.2691 0.43877 0 11179
-0.26076 8.438 0 0 11193
-0.23754 8.5578 -0.59865 0 11198
-0.23006 8.2883 -0.96963 1 11196
-0.17952 -7.7322 1.2707 1 22
-0.14373 -12.29 1.7274 0 10
-0.054731 -9.2232 1.2963 0 6
-0.041981 -7.0746 0.49471 0 5
-0.025744 5.4627 0.63883 2 11235
-0.01055 -5.0374 0.94909 0 26861
0.0067961 -9.7342 0.68068 0 26859
0.056144 7.8457 -0.18216 0 11251
0.058236 -6.1789 1.0152 0 26850
0.066312 -7.0357 0 0 26848
0.068943 -5.486 0.90139 1 26845
0.092185 -7.3354 0.17032 0 26843
0.1313 5.3724 0 0 11277
0.17024 10.837 0 0 11264
0.19398 -9.184 -0.42838 0 26832
0.2138 -5.144 0.24009 1 26815
0.2291 -6.4319 0 0 26823
0.33385 -6.2863 0.29357 0 26804
0.35065 -9.1276 0.85219 0 26819
0.41963 -10.923 0.76439 0 26818
0.43848 -5.1569 0.48285 0 26781
0.45402 -10.275 0.23879 0 26812
0.45973 9.6413 1.1288 0 11325
0.46851 8.7641 -0.61372 1 11337
0.59191 -6.3206 -0.14739 0 26772
0.61011 -9.019 -0.20987 1 26795
0.64784 -9.2183 1.0807 0 26792
0.67022 6.519 0.76636 0 11480
0.67572 -13.478 1.2591 0 26807
0.70146 -8.5503 0.59991 0 26785
0.72276 9.4579 -0.22022 0 11385
0.77276 14.455 -0.33609 0 11338
0.8061 8.5755 -1.2105 0 11438
0.81055 -6.0108 0.42412 0 26730
0.8107 -6.5931 0.30978 0 26740
0.83045 9.4164 0.88192 0 11423
0.8427 -8.9986 0 0 26773
0.85954 7.1447 0.33559 0 11542
0.87893 -5.6579 0.26702 0 26712
0.91557 9.4566 1.7901 0 11462
0.93662 6.3736 0.60101 0 11639
0.94065 5.2384 -0.2482 0 11758
0.94262 -11.897 1.6773 0 26788
0.95818 6.6576 0.78657 0 11630
1.0167 6.2914 -0.2972 0 11686
1.0507 -10.545 1.9967 0 26766
1.0919 10.62 0.49788 1 11476
1.124 6.1545 0.14525 0 11774
1.1292 7.3882 -0.17352 0 11657
1.1319 12.041 0.84573 1 11445
1.1385 -4.9432 0.11777 0 26619
1.1676 7.7847 0.7344 0 11652
1.1901 8.6207 1.2231 0 11606
1.2637 -5.6306 0.94808 0 26629
1.3095 -5.6858 0.54435 0 26621
1.3398 5.1214 -1.1252 1 12129
1.3652 7.2457 1.2114 0 11802
1.3742 -14.246 1.3352 0 26769
1.4189 8.7801 0 0 11688
1.4463 5.1009 0 0 12229
1.4481 7.7903 -1.3018 0 11781
1.4615 7.5049 0.89413 0 11824
1.5156 7.4427 0.53113 0 11867
1.5768 -5.6974 0.27568 0 26555
1.6182 7.1983 0.34407 0 11964
1.6238 5.1562 -1.4152 0 12386
1.6462 -6.6969 0.9692 1 26600
1.7612 -7.9572 0.18921 0 26632
1.7753 -7.4982 0.9011 0 26612
1.7999 -8.8549 0.63185 0 26658
1.8006 -7.8177 0.56098 0 26620
1.8017 11.337 0.53534 1 11679
1.8609 -8.5137 1.6419 0 26636
1.8742 -8.2362 1.3878 0 26626
1.9168 -6.0978 0 0 26507
1.9687 6.3797 1.2579 0 12361
2.1108 6.4428 -0.79284 1 12438
2.1229 -10.135 0.96608 0 26650
2.1306 -9.2505 1.3341 0 26622
2.1678 -7.5005 0.3641 0 26542
2.1724 -5.4424 0 0 26350
2.1787 -4.9893 1.0257 0 26283
2.1802 5.9448 0 0 12621
2.2498 -8.6123 1.0409 0 26582
2.2549 10.917 -0.51987 0 11875
2.294 7.0018 0.51522 0 12443
2.4233 7.3967 1.0939 1 12445
2.4405 -6.7272 0.33372 0 26418
2.5002 -6.9599 1.0393 0 26425
2.5346 7.6594 0.18731 0 12453
2.5364 6.0844 -0.46095 0 12864
2.5578 4.9983 0.92247 2 13335
2.5648 -5.1307 0.4011 0 26121
2.5709 -6.2282 0 0 26326
2.5853 5.0154 -0.79301 0 13338
2.618 7.0095 1.0516 0 12656
2.7068 -5.448 -0.28369 0 26126
2.7284 -7.4517 0.74035 2 26410
2.7869 -6.2359 -0.63724 0 26243
2.8042 -10.48 1.7824 0 26571
2.8291 10.678 1.0305 0 12141
2.913 -5.6999 0.89961 0 26093
2.9721 -9.6431 1.6578 0 26521
3.033 -5.456 0.14493 0 25979
3.058 8.1876 0 0 12653
3.1021 4.7915 0.39915 0 13978
3.1589 5.1086 0.13945 1 13847
3.2202 13.081 2.2133 0 12056
3.2491 -5.4656 0.59321 0 25907
3.2492 -7.3219 0.56014 0 26260
3.2929 5.8013 0.31108 0 13595
3.3047 4.5956 1.0665 0 14319
3.3762 -7.6081 1.5682 0 26264
3.3847 5.5039 -1.0616 0 13821
3.4017 -7.6117 0.97497 0 26251
3.4407 -6.366 0.50601 0 26018
3.4569 -6.7642 1.4312 0 26095
3.5349 4.2321 -1.4435 1 14850
3.5702 4.1995 -0.25705 1 14906
3.5808 12.912 0.93697 1 12197
3.5914 3.633 -1.2104 0 15484
3.5964 -6.4695 -0.34518 1 25978
3.613 11.593 0.28192 1 12367
3.7172 4.0072 -1.0298 0 15241
3.7397 -9.0597 1.1462 0 26330
3.8138 -3.2423 -0.35004 0 24683
3.8258 -11.81 1.7447 0 26490
3.8939 -5.4209 1.0966 2 25593
3.9156 -3.677 1.012 0 24830
3.9194 6.8105 1.4805 0 13644
3.9307 3.5194 0 0 15940
3.9416 3.6538 0.50143 0 15808
3.9832 7.2574 -1.1635 0 13497
3.9908 13.936 -0.67602 0 12245
4.1226 -8.247 0 0 26119
4.1265 14.41 -1.3984 0 12243
4.156 5.8481 -0.50169 1 14268
4.1839 6.3864 0.7123 0 14020
4.195 12.309 0 0 12505
4.229 -7.2111 0.77992 0 25925
4.2312 6.4586 -0.53992 2 14012
4.271 5.7592 -0.16647 1 14407
4.41 -3.0971 -0.37682 2 24283
4.4418 9.4736 -0.24292 0 13109
4.4812 -6.5544 -0.92851 1 25674
4.4986 4.6002 -1.3676 0 15439
4.5324 5.002 0 0 15145
4.5425 -2.9398 0.76044 0 24111
4.5469 -3.7322 -0.54881 2 24613
4.5625 -7.5783 1.0344 0 25890
4.5628 4.4047 0 0 15647
4.6592 -5.5526 1.3657 0 25254
4.693 -8.6219 1.6128 0 26011
4.745 -8.8383 -0.70147 0 26025
4.7467 -2.8826 -0.78048 2 23969
4.8101 4.8353 0.63631 1 15503
4.8919 3.8717 0.87679 0 16424
4.9128 1.7359 0.60933 0 19020
4.9359 -3.1542 0.40961 0 24078
4.9702 0.84867 0.4704 1 20353
5.0089 -0.79781 0.8333 0 22362
5.0559 -3.2721 0.13982 0 24104
5.059 11.758 1.799 2 12938
5.0688 1.8579 -0.12534 0 18920
5.0723 3.095 0 0 17385
5.0768 10.755 2.2407 0 13134
5.1237 5.2725 0 0 15405
5.2039 2.6036 -1.3787 0 18065
5.2192 0.6899 -0.12223 0 20642
5.2222 13.864 1.7325 0 12673
5.3077 -1.5893 -0.12863 0 22743
5.3422 -8.7623 1.6861 0 25876
5.3525 4.7924 -0.50239 0 15935
5.3607 0.14599 0.50032 1 21464
5.3777 -3.2223 0.29236 0 23947
5.4165 -2.9741 0.86844 0 23765
5.4234 -1.0091 0.12808 0 22429
5.4295 5.6185 1.2837 1 15392
5.4501 12.082 2.1776 0 13037
5.4775 -9.2805 2.0304 0 25920
5.5294 -8.1853 0.69073 2 25705
5.5373 -0.10535 0.64766 0 21763
5.5566 9.2807 1.7772 2 13760
5.5667 12.938 1.314 1 12934
5.5707 9.8142 1.0528 0 13598
5.6036 -6.41 0.99564 0 25166
5.6154 -12.762 0.65021 1 26269
5.6732 -13.192 1.6793 0 26295
5.6804 11.101 0.87196 1 13328
5.7463 -9.1817 1.5223 1 25843
5.7541 -8.518 0.95902 0 25706
5.78 5.3881 0.18346 0 15778
5.7953 8.3073 1.1845 0 14223
5.802 7.9683 1.1527 1 14356
5.8091 -2.2288 0 0 23028
5.8228 -1.7613 -0.28369 0 22754
5.8509 -4.0574 1.0007 0 24263
5.8733 -3.3814 1.1134 1 23862
5.8901 -0.026728 0.8278 0 21674
5.9177 -2.3096 0.59265 0 23059
5.9939 10.62 0.56869 1 13576
5.9953 -2.8327 0.77542 0 23428
6.0233 1.2979 1.1609 1 20012
6.0344 7.7599 0.68738 1 14586
6.0835 12.887 1.6665 0 13129
6.1283 -3.6012 0.16503 0 23903
6.1571 13.43 2.4273 0 13068
6.1753 5.7909 -0.19655 0 15752
6.1799 8.3883 1.2184 1 14395
6.1883 -0.38608 0.14395 0 22003
6.1983 1.1309 0.44058 0 20262
6.1986 -13.446 1.3813 1 26211
6.2554 -3.8967 0.86184 0 24030
6.2904 -11.961 0.31376 1 26056
6.3125 12.983 2.7199 0 13204
6.3217 0.26275 -0.29506 0 21360
6.3465 -6.9284 0.43816 0 25072
6.3509 -2.9561 0.98451 0 23394
6.3698 8.4377 1.4858 1 14483
6.3923 -4.8292 0.93687 0 24453
6.4062 -0.90603 0.60361 0 22306
6.419 -9.5597 0.26734 0 25715
6.4196 -10.131 1.119 0 25823
6.4263 13.02 2.0406 2 13238
6.4478 11.905 0.94673 1 13467
6.4528 -6.9246 1.5551 2 25043
6.4626 6.6875 0.43369 2 15383
6.4728 8.0247 1.6938 1 14719
6.5178 9.8212 0.82424 0 14058
6.5267 -2.6781 0.49332 0 23140
6.5339 -1.3531 0.7803 1 22484
6.5422 -3.1387 0.33838 0 23458
6.6173 8.0188 0.727 0 14803
6.6409 -0.28182 1.092 2 21906
6.652 -1.2978 0.47393 0 22453
6.6963 9.3637 1.8913 2 14299
6.6996 -2.2209 -0.16387 0 22843
6.7501 11.124 2.1377 0 13800
6.7537 -3.385 0.88344 0 23565
6.7623 -4.0519 1.4853 2 23954
6.7694 10.456 1.1621 2 13980
6.7736 10.878 2.4144 0 13878
6.7862 8.3683 1.5142 1 14740
6.7985 -5.3231 0.80556 1 24522
6.8128 -3.6883 0.54173 0 23735
6.8344 7.8982 0.48708 1 14979
6.8635 -6.7142 0.22292 0 24879
6.8639 1.0283 -0.32366 0 20503
6.9668 0.59481 -0.16234 0 21034
6.9743 -9.9455 1.9957 1 25636
6.9941 -12.67 2.3777 0 25991
7.0353 7.4944 1.9367 0 15281
7.0379 -1.0179 0.66343 2 22316
7.0644 -10.202 1.4512 1 25655
7.0651 -10.203 0.28814 1 25652
7.0982 -5.7255 0.21173 0 24581
7.1351 -0.11707 -0.16568 0 21741
7.1383 -2.1158 0.87067 2 22737
7.1399 -0.38293 1.1747 1 21968
7.1417 -4.5078 1.5912 0 24058
7.1591 -5.4716 1.0537 1 24478
7.1728 6.3482 0.6698 0 15993
7.2138 -10.615 0.5985 1 25691
7.2345 -4.1366 0.58275 2 23844
7.2559 12.608 2.39 2 13642
7.2581 -10.104 2.344 0 25594
7.2587 -11.093 0.30778 1 25770
7.2601 -9.8007 1.4263 1 25531
7.2681 -0.074845 0.67811 1 21707
7.2843 5.7652 0.86668 1 16422
7.3055 12.115 0.98929 1 13772
7.3231 6.6309 0.92167 2 15896
7.3679 13.055 2.8243 1 13587
7.3786 12.739 1.7216 0 13658
7.3955 -1.5087 1.0608 0 22477
7.4089 -1.1139 1.4116 1 22335
7.4254 1.1349 -0.52527 2 20478
7.4453 6.3612 1.6089 1 16133
7.4553 -2.7356 0.37034 0 22969
7.4642 12.636 1.0263 1 13717
7.466 -1.523 0.35534 0 22475
7.4958 -0.013083 -0.34956 0 21649
7.4961 9.1357 1.382 0 14783
7.4972 -3.2817 0.57228 0 23264
7.5046 3.0519 1.5264 1 18658
7.5261 3.4983 0.97056 0 18285
7.5293 9.0145 0.82131 0 14847
7.5319 -10.809 2.4821 0 25647
7.5385 -10.177 0.29403 2 25526
7.5426 -4.0004 1.6086 0 23696
7.5508 4.3419 0.81262 2 17612
7.5581 -7.0579 0.96478 0 24820
7.5591 -4.2959 1.2219 2 23834
7.5708 -12.496 1.3631 0 25881
7.5793 -5.7613 1.338 1 24464
7.5915 -3.0134 1.1479 2 23086
7.5987 -10.325 2.1063 1 25548
7.6157 11.265 0 0 14113
7.6365 -1.1045 0.17914 0 22314
7.6731 -2.7898 1.3414 1 22960
7.7003 6.7744 1.1994 0 16020
7.7057 -1.9255 0.5554 0 22603
7.7076 -7.5399 2.0315 0 24885
7.7126 5.6118 1.5671 1 16747
7.7179 -1.2044 1.2833 2 22353
7.7369 8.7358 0.54419 1 15064
7.7374 11.951 2.3391 2 13986
7.7532 10.33 0.60232 1 14454
7.776 11.147 -1.268 2 14213
7.7779 11.149 -0.31562 1 14216
7.7782 11.15 -0.95064 2 14214
7.7802 11.153 0.31571 1 14218
7.7811 0.91407 0.9162 2 20775
7.7945 11.173 -0.6353 2 14215
7.812 -8.235 0.26354 1 25005
7.8207 12.011 0.66838 1 13997
7.8228 10.549 1.2252 0 14414
7.8286 6.0158 1.3876 0 16536
7.8883 9.7796 1.7658 0 14717
7.8921 -10.724 1.8713 1 25547
7.9044 7.0773 1.4911 0 15950
7.9263 10.127 1.1998 0 14610
7.9392 10.268 2.4455 2 14574
7.9491 8.4678 1.9082 0 15280
7.9923 8.3169 1.6211 1 15366
7.9954 -11.989 0.33456 1 25730
8.0125 10.12 0.60195 2 14648
8.024 -2.788 1.1938 2 22896
8.0362 -8.6753 1.9429 1 25054
8.0389 -10.045 2.424 0 25361
8.0393 12.585 2.4535 1 13947
8.0574 1.4701 0.76413 1 20264
8.0726 11.427 1.9662 0 14259
8.081 -8.3244 0.81127 0 24962
8.1028 -6.7294 1.7305 1 24642
8.1338 9.3437 2.334 0 15011
8.1443 2.2571 0.78847 1 19556
8.1746 -9.9732 1.8123 2 25306
8.1838 11.584 0.9918 1 14253
8.2503 -5.546 1.873 0 24198
8.259 -8.2187 1.6375 1 24906
8.2821 9.032 2.3088 0 15197
8.2947 11.89 2.0375 0 14225
8.327 4.0775 1.5233 2 18133
8.3318 3.9901 0.4308 0 18196
8.3329 -9.5859 1.4853 2 25176
8.3369 -11.399 2.3203 1 25558
8.4006 -0.86812 0.78791 1 22189
8.4074 2.9987 0.62418 1 18994
8.4314 -4.6008 1.8097 0 23752
8.4363 -10.86 2.591 0 25427
8.4393 11.106 0.65049 1 14497
8.4719 -6.3193 0.24538 0 24423
8.5013 -7.3563 2.1181 2 24718
8.5249 5.3042 0.93672 1 17317
8.5343 -4.4332 1.58 1 23649
8.5348 12.081 2.4302 0 14261
8.5361 -0.53256 0.39885 0 22004
8.5559 11.26 1.6538 1 14503
8.5572 -4.3526 1.1227 1 23601
8.5679 -6.0911 1.2293 0 24319
8.6054 10.928 1.9548 0 14635
8.6058 11.681 1.3536 0 14393
8.6559 -3.8484 0.88377 1 23296
8.6581 -4.8508 1.1606 1 23809
8.6814 -7.21 1.0528 2 24639
8.6825 -4.5102 0.68417 2 23645
8.7138 10.188 2.2026 2 14942
8.7371 9.9208 0.61649 1 15042
8.7423 -11.879 1.7248 0 25545
8.7759 9.7329 1.8418 0 15136
8.7872 -10.413 0.6354 1 25234
8.7882 -11.864 2.4256 1 25534
8.7901 -8.6955 1.1535 1 24897
8.8315 -8.247 2.2766 1 24822
8.8394 -9.5893 0.60819 2 25060
8.8613 1.8319 1.4866 2 20081
8.8617 5.6216 0.73384 0 17250
8.8764 -9.6294 2.1517 2 25065
8.8908 3.287 1.5573 0 18908
8.9074 -8.5092 0.57447 1 24846
8.9186 2.3032 1.0772 1 19686
8.919 11.395 1.0119 1 14608
8.922 10.131 1.8972 0 15050
8.944 7.0787 1.3339 2 16423
8.9462 11.571 2.403 0 14573
8.9484 -9.7689 1.8619 2 25075
8.9553 0.68593 0.20853 0 21104
8.9576 -2.6007 0.21656 2 22715
8.9599 -8.811 0.58602 2 24889
8.963 -2.826 0 0 22793
8.9643 -1.3733 1.2745 2 22344
8.9757 -1.3222 0.84643 0 22323
8.9819 -6.0015 1.2633 2 24183
9.0079 -10.8 0.98343 1 25262
9.015 -10.999 1.663 0 25304
9.0159 -9.7807 1.241 2 25062
9.0235 -9.6292 0.30638 1 25026
9.0334 -7.0729 0.26637 0 24519
9.0525 -5.3878 1.4805 0 23938
9.059 -5.718 1.5056 1 24056
9.0644 10.984 2.6832 2 14811
9.0667 -6.1317 2.0622 2 24212
9.1082 -7.9792 1.7018 2 24730
9.1429 2.5906 1.7904 1 19516
9.1547 7.8688 1.4117 1 16109
9.2037 3.0421 1.8263 0 19186
9.2211 10.113 1.9234 0 15175
9.2332 11.253 2.7425 0 14788
9.243 -2.5651 0.89492 2 22683
9.353 -6.4065 1.0577 1 24235
9.3893 5.3643 0.75616 2 17635
9.3925 -3.2341 0.69463 2 22883
9.4013 -0.17887 0.65752 0 21760
9.4093 -9.6353 1.2565 1 24950
9.4184 7.7226 2.2948 0 16295
9.4455 -4.5967 0.48987 1 23492
9.4522 -8.0872 1.7483 0 24698
9.4547 7.0064 1.3762 1 16673
9.4663 1.3338 1.5706 2 20585
9.4677 6.8459 0.81699 1 16766
9.481 -6.9061 2.21 0 24377
9.5047 10.918 2.3783 0 15010
9.5145 7.713 0.85647 1 16333
9.5326 4.0346 1.7006 2 18544
9.56 -0.37562 0.22213 0 21886
9.5666 -2.3906 1.1531 2 22605
9.5741 7.397 0.2809 1 16507
9.5784 7.8064 0.57624 1 16308
9.6373 -2.7344 1.8874 2 22708
9.6423 -3.5706 1.6893 2 22984
9.6622 -3.6742 0.24 1 23016
9.6741 -7.8507 2.3474 1 24599
9.6851 3.235 1.6776 1 19160
9.6858 -3.8447 1.2187 2 23085
9.6861 -4.0717 1.9796 2 23191
9.7316 4.0848 0.98465 1 18562
9.7538 -8.0547 1.7778 0 24631
9.7802 2.8303 1.6728 2 19471
9.8043 -3.4065 0.24097 0 22892
9.8088 -3.0607 0.23856 2 22783
9.8134 -7.1037 0.28127 1 24355
9.8284 -2.7886 1.1947 1 22703
9.8357 -1.2478 1.3934 0 22259
9.8615 0.18246 0.92019 1 21522
9.8716 -2.0138 1.6553 2 22478
9.889 -10.07 1.6505 0 24939
9.8964 5.7275 1.0668 0 17589
9.9049 -2.9659 1.6987 1 22751
9.9595 -8.2246 0.90321 1 24628
9.9751 -7.9972 2.4088 0 24574
9.9772 5.0661 1.3086 0 18019
9.9904 -8.9011 1.8805 0 24758
9.9918 -8.0107 0.29733 1 24569
9.9963 1.4085 0.47077 2 20578
10.015 -4.522 1.8054 2 23330
10.076 -3.7653 1.2579 0 22994
10.083 6.1935 1.3838 1 17368
10.087 -2.7992 0 0 22680
10.092 -9.5837 1.2984 1 24839
10.102 -8.4409 1.8502 0 24653
10.135 5.4455 1.6169 0 17839
10.216 -7.0397 0.28805 1 24244
10.222 1.2623 0.23912 2 20718
10.226 -6.7918 1.4356 0 24168
10.233 -8.8051 1.5787 0 24707
10.237 -0.19477 0.47748 1 21759
10.24 -7.3665 0.29287 1 24341
10.264 1.144 0.96348 2 20824
10.286 -7.8612 1.2078 2 24477
10.357 6.739 0.28689 1 17158
10.37 -2.3351 0.99171 0 22528
10.371 -8.4643 2.1993 1 24608
10.392 3.3046 1.5326 0 19270
10.423 -8.7087 0.31534 1 24648
10.435 -9.5722 1.3211 1 24798
10.461 -7.9516 2.1588 1 24465
10.464 -2.547 1.7694 1 22586
10.479 -7.7709 0.60838 1 24410
10.491 6.8262 1.4637 0 17164
10.494 1.9791 1.2489 0 20216
10.524 -3.897 0 0 22977
10.54 -2.0564 1.2558 0 22455
10.576 -2.0328 0.75309 2 22446
10.6 -1.9396 1.7704 0 22423
10.66 6.6767 1.7678 2 17297
10.664 -3.6721 0.26186 1 22880
10.714 -7.292 0.60437 1 24219
10.753 0.91806 1.5167 1 21045
10.78 -2.461 0.77318 0 22536
10.783 9.8255 0.33869 1 15870
10.784 7.1054 0.90307 1 17114
10.798 1.301 0.5072 1 20745
10.806 0.54362 0.75658 0 21302
10.807 -2.5348 1.2981 0 22555
10.848 -3.5582 1.0651 1 22836
10.856 5.0461 1.9668 0 18288
10.876 1.0223 1.7947 0 20975
10.879 7.127 1.5209 0 17140
10.907 7.4652 2.1714 0 16992
10.942 -5.2872 0.84977 1 23477
10.981 1.6451 1.0359 1 20510
10.986 -7.9529 0.94841 1 24359
11.018 -7.6403 0.62524 1 24257
11.122 2.2991 1.0595 2 20075
11.126 -0.66489 1.0398 0 21990
11.22 2.0816 1.6038 1 20242
11.387 1.0062 -0.26539 0 21009
11.504 -7.6868 -1.2908 0 24175
11.797 4.7137 0 0 18695
11.819 -1.8825 1.1166 0 22361
11.851 1.913 0 0 20418
12.026 -3.2247 2.0456 0 22660
12.045 3.7124 0 0 19330
12.216 0.3327 -1.4291 1 21455
12.407 2.3017 -0.29297 0 20233
12.928 -0.13313 -0.30016 0 21704
13.013 -3.3291 -0.31186 0 22619
13.051 3.334 -0.31274 0 19703
13.182 2.6029 0.31195 1 20145
13.446 -0.061018 0.31219 1 21667
13.472 1.1905 0 0 21011
13.687 3.2431 -0.32658 0 19839
-11.449 3.2936 -1.6743 2 3368
-5.073 6.9111 -1.6153 2 8698
-1.0526 6.2564 -1.9797 0 11002
0.18572 10.038 -1.8915 0 11270
3.2055 3.8844 -1.7017 1 14800
7.7774 11.149 -1.5896 2 14211
8.0369 1.8791 -1.7544 1 19873
8.0887 8.3236 -1.9069 2 15395
8.4222 11.997 -1.7142 2 14230
9.1104 -4.1135 -1.6423 1 23318
9.7875 3.5875 -1.7126 0 18910
11.141 10.035 -1.7534 2 15906
12.028 0.88748 -1.9814 2 21114
