VERSION .7
FIELDS x y z intensity index
SIZE 8 8 8 8 8
TYPE F F F F F
COUNT 1 1 1 1 1
WIDTH 646
HEIGHT 1
VIEWPOINT 0 0 0 1 0 0 0
POINTS 646
DATA ascii
-4.9157 0.24816 0 0 1883
-4.6938 -0.80402 0.89725 1 1179
-4.1601 1.0736 0.70587 1 2487
-3.9357 2.2778 0.63908 0 4295
-3.8226 3.0059 0.45368 1 5539
-3.8068 -0.38266 0 2 1369
-3.749 -0.20238 -0.43905 1 1527
-3.4031 1.7897 0.089269 0 3961
-3.3036 -2.4633 0.095675 1 974
-3.2747 -0.26118 -0.076271 0 1442
-3.1533 0.048435 0.51814 1 1774
-3.0414 0.76678 -0.14627 1 2456
-3.0392 3.5735 0.77072 0 7339
-3.0369 1.5089 -0.078731 2 3774
-3.0128 1.8268 -0.24638 1 4452
-2.7791 2.9429 0.66502 0 6897
-2.716 -3.2726 -0.098739 2 487
-2.689 -2.452 -0.25447 1 785
-2.6014 3.7029 0.74348 1 8023
-2.5944 2.4749 0.4193 0 6433
-2.4674 -3.4745 0.39758 0 335
-2.3443 -2.3054 0.22992 1 716
-2.2602 -4.2652 0.45034 1 69
-2.2217 2.5976 0.56159 0 7319
-2.0842 -2.5867 -0.23229 0 458
-1.9961 -4.0459 0.74122 0 47
-1.9495 -2.6794 0.5444 0 357
-1.9257 -2.8155 0.079195 1 300
-1.9246 3.7305 0.68966 0 8930
-1.8511 -3.2178 0.6099 1 133
-1.756 4.0118 0.71949 0 9190
-1.7524 4.645 0.23152 0 9345
-1.7429 2.6564 0.073764 1 8257
-1.6 -4.2098 0.73992 0 14
-1.5214 4.5895 -1.3865 0 9438
-1.517 -3.0748 0.40095 0 46
-1.4255 4.7065 -0.69113 1 9477
-1.1957 3.4414 0.42604 0 9412
-1.1581 3.2995 -0.32624 0 9403
-0.99696 2.8693 -0.87101 0 9411
-0.80691 4.6282 0.54939 0 9532
-0.7934 3.9455 -1.3599 0 9527
-0.76379 4.1697 -0.49573 0 9530
-0.66742 -4.2816 0.20208 0 17407
-0.64093 3.8758 -0.2747 1 9534
-0.38548 4.9757 -0.11587 0 9547
-0.34767 3.2586 0.076085 0 9538
-0.26945 -4.5622 0.42637 1 17373
-0.25548 -4.1182 0.38494 0 17375
-0.17254 4.7053 0.32925 0 9555
-0.16944 4.6209 0.7597 0 9556
-0.028916 -4.0408 0.093818 1 17343
-0.024603 -3.4382 -0.16034 0 17342
0.024771 -3.4615 0.24205 0 17335
0.26472 -3.7295 0.26145 0 17310
0.38551 3.7562 -0.17609 1 9655
0.58405 4.8691 0 0 9665
0.61644 -4.11 0.38773 0 17302
0.7482 4.4711 0.74478 1 9740
1.0325 4.255 -1.1462 0 9870
1.1508 -4.671 0.11169 0 17274
1.1554 -4.0319 0.79023 0 17261
1.3408 -3.1163 0.55737 0 17145
1.4396 -2.7737 0.58878 0 17119
1.4571 -3.7704 0.28265 0 17175
1.4576 4.6372 -0.56844 0 10014
1.7535 -3.4774 -0.27233 0 17124
1.8164 -3.7641 0.19491 0 17129
1.8392 -2.8813 0.15941 0 17102
1.8584 4.471 -1.0292 1 10287
1.9815 2.8821 -1.273 1 11138
2.105 -2.6302 0.55348 0 17059
2.2204 -3.3495 0.46995 0 17096
2.2589 3.147 -0.18065 0 11232
2.3562 2.5153 0.40304 1 11885
2.4379 1.8218 -0.87267 1 12908
2.4537 -2.4409 -0.32289 0 16982
2.4861 2.1181 0 0 12479
2.6517 -3.3904 0.81097 0 17070
2.8244 3.7509 0.88466 0 11351
2.8887 1.036 0.50419 2 14532
2.8952 3.7084 0.10923 1 11419
2.9277 -3.7663 -0.33358 0 17071
2.9303 2.541 -0.27121 1 12427
2.9446 -3.1411 0.30107 0 17005
2.988 -1.1374 0.074228 0 16779
2.9947 -1.9034 0.58299 0 16919
3.0076 -1.2048 0.37888 0 16797
3.1233 0.98838 0 1 14723
3.1765 0.67112 -0.84991 0 15220
3.2933 -1.6048 -0.69025 0 16852
3.3949 -2.283 0.67215 0 16932
3.5319 0.042536 -0.16472 0 16158
3.6091 -3.1785 0.5624 0 16978
3.6647 -1.4075 0.18307 0 16783
3.738 -1.5606 0.7632 0 16805
3.9897 -1.172 0.68318 0 16766
4.009 0.94473 0.67669 0 15110
4.1548 2.1481 0.76845 0 13865
4.2585 -2.2301 0.44848 0 16876
4.3998 -0.52153 0.72792 0 16565
4.4194 -0.85185 0.1045 0 16711
4.6392 0.59594 0.76845 0 15650
4.6639 -0.052099 0.54544 0 16242
4.7111 -1.3251 0.92206 0 16764
4.8528 -0.19491 0.22649 0 16336
-2.4059 1.0262 -0.1829 0 3325
-1.7347 0.13744 0.2035 1 1982
-1.6476 -2.131 0.315 0 418
-14.944 0.32347 2.4558 0 1790
-14.8 1.0453 2.7954 1 1957
-14.767 -0.75064 0.34329 1 1543
-14.718 -0.66319 2.7758 1 1566
-14.67 -0.32522 2.4107 0 1648
-14.657 -0.70404 1.0261 1 1553
-14.633 1.8044 1.7241 0 2119
-14.623 -0.65892 -0.68263 0 1561
-14.525 -0.61641 0.67798 1 1573
-14.501 -1.7522 2.0528 0 1305
-14.481 -1.6653 -1.3599 0 1317
-14.423 -1.702 1.3549 0 1312
-14.391 0.56039 1.6842 0 1845
-14.33 -2.581 1.3585 0 1159
-14.297 0.97219 1.6758 0 1947
-14.123 -0.71791 2.6643 0 1548
-14.1 0.58357 0 1 1853
-14.098 4.4831 -0.34347 0 2727
-14.009 1.3983 2.6525 2 2049
-13.979 2.3419 -0.32908 0 2227
-13.956 1.2284 1.969 1 2009
-13.81 -2.5695 2.6466 0 1155
-13.723 1.6072 -0.64434 0 2096
-13.651 1.565 2.5888 1 2091
-13.63 3.7775 0.32839 1 2548
-13.615 0.92578 0.31683 2 1946
-13.535 -0.14174 1.5829 1 1689
-13.527 6.4723 0.69931 1 3662
-13.514 -0.066044 2.5462 0 1710
-13.481 2.302 -0.31752 1 2235
-13.397 1.4507 -0.62841 0 2070
-13.38 6.6013 0.3464 1 3753
-13.339 0.55209 1.8763 0 1855
-13.323 0.47688 1.559 0 1835
-13.311 1.1341 1.5622 0 1999
-13.311 6.5151 1.3826 2 3734
-13.288 6.6918 1.0403 1 3824
-13.119 3.794 -0.31706 0 2596
-13.111 0.35478 2.1549 1 1807
-13.097 0.2835 -0.30415 1 1788
-13.008 7.3778 2.8176 0 4231
-12.975 -0.73678 0 0 1520
-12.961 6.8163 1.024 1 3965
-12.912 6.4154 2.0264 1 3786
-12.9 5.6816 0 0 3417
-12.848 -0.65309 1.5044 0 1545
-12.842 6.7052 1.6942 1 3944
-12.832 6.5128 0 0 3842
-12.776 7.7466 1.3939 0 4463
-12.716 -0.94492 -0.29603 0 1467
-12.587 1.6236 -0.88744 1 2132
-12.582 6.3858 1.9829 0 3852
-12.568 -2.1867 1.7928 0 1170
-12.547 -1.0007 1.1743 0 1447
-12.52 6.1279 1.6301 0 3736
-12.506 4.2526 -0.61602 1 2838
-12.491 -1.1456 -0.87712 0 1399
-12.48 5.5355 -0.31697 0 3437
-12.455 -1.4698 2.0606 2 1315
-12.454 -0.96046 1.4607 0 1460
-12.354 4.3628 0 1 2909
-12.284 2.2789 -1.1656 0 2272
-12.269 4.5751 -0.30402 2 3018
-12.223 5.1681 0.3081 1 3308
-12.184 -2.1945 1.7399 0 1161
-12.173 4.3755 -0.60326 1 2945
-12.162 6.7581 2.2859 0 4160
-12.13 -0.96741 0.85089 1 1446
-12.13 2.6138 -0.57866 0 2351
-12.13 4.403 -0.90237 2 2962
-12.103 6.2306 1.9131 0 3897
-12.09 6.2697 -0.63512 1 3907
-12.069 8.7784 -0.34649 0 5193
-12.068 3.7589 -0.58947 0 2694
-12.036 1.0594 -0.84489 1 2006
-11.988 4.9094 0.30077 2 3224
-11.972 7.9329 2.3595 0 4812
-11.942 5.9335 2.1909 0 3788
-11.885 -2.0357 1.1249 1 1176
-11.855 -0.91426 0 0 1456
-11.827 9.1904 1.7516 0 5491
-11.801 8.3738 2.0336 0 5098
-11.783 6.5473 1.2576 0 4155
-11.719 8.8408 -0.34083 0 5348
-11.714 5.2792 0.29831 1 3485
-11.703 8.2557 -0.33252 0 5059
-11.671 8.9586 2.4172 1 5437
-11.649 -1.134 2.2052 0 1386
-11.636 -1.1696 1.3676 0 1372
-11.611 6.1943 -0.61369 1 4004
-11.606 -0.18841 1.6314 0 1667
-11.6 -0.82744 0.81322 0 1478
-11.58 -1.3664 0 0 1310
-11.564 -0.1211 2.1789 2 1692
-11.543 -0.85779 1.9017 1 1471
-11.538 -1.5314 0.81392 0 1276
-11.503 6.7895 -0.62291 0 4353
-11.419 -0.085699 1.8761 1 1700
-11.347 7.3323 0 0 4707
-11.279 7.6192 -0.63475 1 4870
-11.259 7.5573 -0.31483 0 4847
-11.234 7.0773 -0.92846 2 4597
-11.21 5.6112 0 0 3797
-11.128 -0.019423 2.0967 0 1719
-11.109 1.2735 -1.0432 2 2087
-11.09 10.038 -0.34728 0 6189
-11.088 9.5843 -0.34027 0 5972
-11.024 7.3048 -0.30703 0 4801
-11.001 4.1394 0 0 3033
-10.97 -1.2616 1.2914 0 1323
-10.891 5.8914 -0.28749 1 4054
-10.884 -1.2208 0.51074 1 1329
-10.841 -1.4061 2.0596 0 1285
-10.822 7.7765 -0.3094 2 5138
-10.809 7.5799 0 0 5031
-10.736 6.808 0.29515 1 4630
-10.719 8.2283 -0.63018 0 5420
-10.687 7.5833 -0.61108 1 5085
-10.65 9.4226 -0.33015 0 6081
-10.602 -1.5335 1.76 0 1248
-10.569 6.788 -0.87837 0 4674
-10.498 -10.623 2.8139 0 694
-10.473 1.2915 -1.483 1 2111
-10.465 6.4258 -0.5727 1 4502
-10.458 7.8405 -0.30346 0 5323
-10.435 -8.8685 1.6015 0 852
-10.401 1.5266 -0.98075 1 2182
-10.398 1.8671 -0.98558 2 2254
-10.359 5.217 -0.26929 0 3818
-10.359 7.0427 -0.58416 0 4896
-10.25 9.4456 -0.65003 0 6267
-10.237 9.7658 -0.32848 0 6424
-10.215 7.9892 -0.60475 2 5507
-10.12 5.0281 -0.7902 2 3771
-10.087 9.734 -0.98022 0 6475
-10.073 5.83 -0.27022 2 4283
-10.029 10.139 0.99724 1 6687
-10.025 8.0232 -0.29812 1 5613
-9.998 5.1471 -1.0491 2 3882
-9.6782 -7.9384 0.8753 1 884
-9.6702 -9.6197 2.5699 0 709
-9.6469 -1.5918 1.1434 0 1193
-9.6058 10.65 2.3563 0 7114
-9.601 4.5939 -1.2447 1 3653
-9.5008 -10.485 0.98943 1 605
-9.455 8.6578 -0.59785 0 6239
-9.4316 0.092185 0 0 1753
-9.2591 -10.837 2.0033 0 516
-9.2472 1.7423 1.546 0 2284
-9.2074 -11.629 2.7947 1 447
-9.1862 8.9176 -0.89525 1 6500
-9.1427 -8.5796 2.0599 2 764
-9.1312 2.7569 1.3405 1 2657
-9.1257 3.0463 1.8126 0 2812
-9.1039 -6.7489 1.5927 0 985
-9.1013 4.2285 -1.1736 1 3568
-9.0847 -11.08 2.6995 0 480
-9.0723 -9.1231 1.2003 0 697
-9.0005 7.78 1.3913 0 5982
-8.9609 -7.0541 1.3336 0 921
-8.9577 5.7884 -1.4989 0 4697
-8.8772 -5.8579 0.99227 2 1116
-8.8678 5.7303 -0.98503 1 4699
-8.8657 2.7308 1.0848 1 2685
-8.811 1.265 -1.0409 1 2175
-8.7886 9.9163 2.177 1 7186
-8.7731 8.6666 1.4421 0 6589
-8.7652 -9.1851 0.59208 2 656
-8.7587 -9.1782 2.3903 2 660
-8.7242 4.8479 -0.93115 1 4143
-8.707 6.0695 -1.4917 2 4994
-8.7016 4.5124 -0.68543 1 3906
-8.6897 3.5887 1.3213 0 3254
-8.6793 -6.7907 1.0281 0 927
-8.6576 -6.498 1.7785 0 972
-8.6221 -7.682 1.0774 1 810
-8.3876 3.9881 1.5259 2 3649
-8.3649 -5.9425 0.4785 2 1040
-8.3635 -8.2706 1.9325 1 714
-8.3325 2.2545 1.6264 2 2530
-8.2605 -12.377 2.8036 1 284
-8.2425 2.2564 -0.99936 0 2533
-8.1307 -12.406 2.437 0 250
-8.1298 -9.6306 0.8813 1 503
-8.105 -12.301 2.0703 0 260
-8.0962 -7.8649 2.1267 2 734
-8.0275 -7.5753 1.5512 0 760
-8.0065 -0.54864 -0.37425 0 1482
-8.0009 -8.5799 2.2103 0 639
-7.8877 -12.348 2.7606 1 225
-7.8787 -11.958 2.3527 0 261
-7.8661 -11.424 2.2788 0 312
-7.8144 -8.4772 1.3483 0 621
-7.7923 0.61737 -0.91411 1 1977
-7.7744 -7.3828 2.02 0 757
-7.7201 -12.727 0.69419 1 183
-7.7133 -6.4037 0.46751 1 874
-7.6461 -7.2609 1.4819 0 756
-7.6135 -11.697 2.6295 0 245
-7.5941 -5.4952 0.43714 1 1019
-7.5617 -6.3879 1.3912 1 859
-7.4699 -5.8804 1.7912 0 924
-7.3135 5.1591 1.4704 0 5074
-7.2773 -9.584 1.1227 0 397
-7.2696 -11.757 2.271 1 201
-7.2681 4.5504 -1.4088 0 4566
-7.2641 -9.8636 2.0126 0 367
-7.2185 -8.3953 0.51633 1 521
-7.2076 -10.15 0.58052 1 334
-7.1649 -9.9674 1.7252 0 345
-7.1347 -11.391 0.9399 2 209
-7.1306 -5.8197 1.7341 2 892
-7.0816 10.594 2.0936 0 8203
-7.0343 0.70212 0.65953 1 2045
-6.9881 -10.403 0.58444 1 286
-6.9879 -6.0446 0.64608 0 835
-6.9874 -7.0708 0.92743 0 690
-6.9143 -12.52 1.6726 0 98
-6.9031 -7.8937 0.73328 0 553
-6.863 -7.8894 1.2228 0 544
-6.8526 -8.6087 0.76941 0 449
-6.8407 -8.2426 0.99933 0 489
-6.7763 -4.4427 0.75595 0 1120
-6.7259 0.16203 0.94554 0 1799
-6.7174 3.4331 1.0602 0 3875
-6.711 -0.65329 0.62906 0 1382
-6.6321 0.046301 -0.15398 0 1743
-6.624 12.839 1.3479 0 8926
-6.5412 -9.9278 1.3903 2 259
-6.5253 -12.492 1.6482 0 62
-6.5126 -9.8171 1.0991 1 269
-6.4935 5.8777 1.439 0 6200
-6.3349 -5.7764 0.59949 0 787
-6.3082 -9.5091 2.15 1 273
-6.2926 4.5769 -1.466 0 5206
-6.2497 2.5594 1.1096 0 3234
-5.9044 1.2917 0 0 2361
-5.8089 -6.6051 1.4451 2 568
-5.7473 -5.1206 0.90017 0 811
-5.633 0.94365 1.0761 0 2230
-5.6297 -6.4376 1.2019 1 555
-5.5976 3.573 0.77658 0 4661
-5.3427 0.79942 -0.25192 2 2190
-5.2633 -6.9745 -0.20286 0 389
-5.248 -5.5303 0.89157 2 652
-5.1623 3.1301 0.99185 1 4468
-5.1394 4.547 0.15932 0 6085
-5.0297 10.479 2.19 0 9057
-4.9863 1.442 0.607 0 2600
-4.8408 1.5523 0.35548 1 2743
-4.5465 2.2589 0.9565 0 3790
-4.5136 6.8791 1.3518 1 8265
-4.4964 7.5548 0.20412 0 8557
-4.4657 6.1645 1.4342 0 7926
-4.4495 2.6608 0.24177 0 4411
-4.4129 -8.2716 0.65557 0 73
-4.3382 10.748 1.9043 0 9287
-4.308 3.4477 0.77547 0 5626
-4.3074 -5.4113 1.3031 0 453
-4.2004 4.7394 -0.74058 0 7171
-3.9027 8.0731 1.0486 0 9041
-3.8766 7.5657 0.79311 0 8940
-3.8518 -4.1306 -0.26338 0 632
-3.6111 6.1896 1.1773 0 8621
-3.4643 -4.1256 1.015 0 502
-3.3812 -5.6496 1.2405 0 178
-3.3728 8.4283 1.0616 0 9295
-3.256 5.5055 1.0509 0 8586
-3.204 -10.585 1.817 0 4
-3.1911 -9.1893 1.5982 0 11
-3.1559 8.5959 1.7252 0 9372
-3.0486 13.152 2.2181 0 9523
-2.9932 -4.8087 -0.39608 1 203
-2.7694 -8.0565 0.59572 0 10
-2.3426 5.8538 0.29403 0 9294
-2.2533 -4.8058 0.74597 0 34
-2.1448 5.3979 0.67925 0 9303
-1.9836 7.932 -0.95615 0 9519
-1.811 7.074 -1.1997 0 9517
-1.7875 -9.179 0.87244 0 17411
-1.6761 5.9668 0.72478 0 9504
-1.6415 -5.058 0.74736 0 7
-1.6217 5.5892 -0.2714 0 9496
-1.6005 -10.267 1.9578 0 17408
-1.592 -4.8082 0.95427 0 9
-1.512 -5.9231 0.42747 0 17415
-1.4673 -5.7481 0.97467 0 17416
-1.4487 -7.0019 1.3472 0 17413
-1.2378 5.2077 -0.49939 0 9522
-1.0583 6.5056 -0.77078 0 9535
-1.0273 5.2606 0 0 9528
-0.9197 -12.435 2.0486 0 17384
-0.91389 -5.8628 -0.27671 0 17406
-0.81353 11.377 1.3339 0 9549
-0.75033 -10.571 1.2393 0 17382
-0.52181 -9.2463 1.7449 0 17371
-0.47258 7.5324 0.70412 0 9550
-0.35866 8.4865 1.3955 0 9554
-0.086317 7.9766 1.3106 0 9565
-0.028868 -7.1915 1.1815 0 17340
0.021372 5.3243 1.0032 0 9574
0.097519 5.3208 -0.74792 0 9580
0.28867 -7.9481 1.3067 0 17324
0.38611 5.9707 -0.84088 0 9625
0.42949 9.1075 1.7178 0 9612
0.43691 -11.12 1.8284 0 17322
0.46346 11.246 1.8491 0 9607
0.49057 -8.6928 1.0182 0 17313
0.50187 5.0459 -0.95538 1 9652
0.69921 7.2484 -0.16907 0 9649
0.71728 9.7909 1.148 0 9629
0.99872 -5.2009 0.7443 0 17295
1.1117 4.8892 0 2 9842
1.1312 6.2124 -0.44156 1 9765
1.2055 -5.7454 0.54769 0 17291
1.2958 5.699 0.13569 1 9843
1.3109 6.5546 -1.0982 0 9798
1.3124 -11.139 1.8427 0 17307
1.3429 -8.2913 1.38 0 17301
1.3697 -9.1321 1.5171 0 17303
1.379 -9.3724 1.7849 0 17304
1.4468 5.4148 -1.1913 0 9926
1.4527 -4.9583 0.84886 2 17259
1.5153 5.8007 0.41924 0 9904
1.6471 -8.1981 1.3738 0 17293
1.689 7.6375 0.72976 0 9833
1.7009 7.292 0.52359 0 9855
1.7811 6.9825 -0.1673 0 9892
1.8816 -4.8311 0.12037 1 17170
1.964 -6.9315 0.50378 0 17262
1.9784 -4.8697 0.61467 1 17159
2.0133 -8.0748 0 0 17272
2.0819 -4.5789 0 0 17135
2.2795 4.7322 0.12195 0 10477
2.3765 6.6156 0.65582 0 10111
2.3929 -6.0347 1.2231 0 17166
2.4081 -7.4868 1.2921 0 17243
2.484 4.5333 -0.72648 0 10680
2.5133 5.1394 -0.66903 1 10501
2.5691 7.0204 0.52276 0 10127
2.5735 5.4591 -0.42203 1 10442
2.585 -10.231 1.7337 1 17271
2.5872 -6.9309 0 0 17182
2.6784 -11.895 2.0032 0 17284
2.7227 -5.1751 0.96073 0 17118
2.7747 -5.0576 0.6746 0 17111
2.7924 10.45 -1.0092 0 9919
2.912 7.889 1.3816 1 10142
3.2237 -8.7149 0 0 17184
3.2259 -8.0005 1.4173 0 17163
3.2802 -4.4297 0.25705 1 17074
3.3488 3.9265 0.11981 0 11640
3.3927 5.6021 0.7659 0 10878
3.4229 -9.3332 1.873 0 17189
3.5317 -5.901 0.80423 0 17105
3.6123 3.836 -0.36845 0 11894
4.0216 -3.057 0.59074 0 16959
4.1157 5.9151 -0.1673 0 11168
4.2343 -7.4658 1.4101 0 17108
4.4003 8.3177 1.1004 0 10627
4.4606 -5.7031 -0.50629 0 17068
4.5085 -4.7543 1.0765 0 17000
4.5105 -6.632 1.3177 0 17091
4.5688 6.4839 0.92758 0 11198
4.5751 4.801 0.46374 0 11928
4.5905 -2.124 0.47189 0 16837
4.6338 -10.272 1.0514 0 17136
4.6342 -5.7534 0.86393 0 17056
4.6503 -3.5567 0.5462 0 16962
4.6846 5.3966 1.1741 0 11689
4.717 -3.6497 -0.55642 1 16964
4.7427 2.5218 1.012 0 13805
4.7585 -4.6827 0.155 0 16981
4.7673 -4.1985 0.44421 0 16977
4.7692 -1.767 0.71479 0 16775
4.7836 -3.0592 0.39705 0 16921
4.9351 1.9989 -0.12362 0 14320
4.9802 11.503 1.7617 0 10327
5.0121 4.0965 1.0635 0 12627
5.0228 -4.1729 -0.45663 0 16974
5.0675 -0.071645 0.47282 1 16251
5.1 1.3599 -1.3817 0 14966
5.1113 -1.2962 0.49196 0 16760
5.1477 1.0267 -1.3741 1 15277
5.1682 11.846 2.1235 0 10337
5.1701 -0.6284 0.85567 1 16573
5.173 2.6929 0 0 13846
5.1756 11.495 1.4742 0 10375
5.2416 12.5 2.2269 0 10298
5.2644 -2.7944 0.97921 0 16882
5.2802 13.453 2.0311 0 10218
5.3158 -6.7966 0.805 0 17069
5.3331 6.9528 0.61274 0 11382
5.3629 -9.3908 0.50431 1 17107
5.4189 12.421 2.5532 0 10339
5.4692 7.3912 1.5106 2 11310
5.5693 -0.75894 0.78995 0 16608
5.5706 -0.54817 1.0546 0 16513
5.6144 4.8943 1.2237 1 12420
5.6418 0.82306 0.93673 1 15554
5.6727 13.648 1.3789 0 10285
5.6954 2.0606 0.70829 0 14515
5.725 8.5908 1.2073 0 11080
5.7646 -6.909 -0.6292 0 17042
5.7818 5.533 1.3148 0 12157
5.8212 -8.4572 -0.71793 0 17088
5.9737 -2.0011 0 0 16771
5.9804 -3.9478 1.1773 0 16929
6.0508 1.0974 1.0103 0 15369
6.0851 13.316 2.0575 0 10400
6.0946 -1.0659 1.1657 0 16686
6.1016 -1.1938 0.28994 0 16715
6.106 -1.5655 1.0356 0 16761
6.1373 -3.2359 0.16108 0 16879
6.1417 -3.8274 0.84627 0 16915
6.1588 1.1905 0.58522 0 15308
6.1602 -0.78477 0 0 16588
6.2142 -4.8656 -1.1092 0 16965
6.2167 6.3019 1.6679 0 12022
6.2791 12.561 2.6458 0 10541
6.2998 -0.87641 -0.44477 0 16613
6.302 3.5409 0.6744 0 13691
6.3461 1.9475 -0.15412 0 14771
6.4243 10.82 2.0674 0 10839
6.4271 -3.2241 0.5028 0 16861
6.4311 5.7744 1.0107 0 12331
6.4456 0.80626 0.60603 0 15665
6.4488 11.152 1.2018 0 10780
6.4658 -0.78589 1.2272 0 16575
6.5064 11.329 0.91353 1 10767
6.6102 -8.1571 1.725 0 17054
6.6305 12.186 1.6224 0 10674
6.6471 -1.5823 0.96029 0 16755
6.654 5.9745 1.6849 1 12334
6.7083 11.375 0.61583 1 10814
6.726 1.4837 1.1316 0 15181
6.7269 6.2161 1.5048 2 12244
6.7516 -1.1808 1.1261 0 16685
6.7676 11.86 0.6368 1 10755
6.8086 11.467 1.2442 2 10833
6.8686 -6.953 0.91183 0 16984
6.8938 2.2719 0.67718 0 14661
6.8998 3.6194 1.2801 0 13834
6.9043 -5.637 1.6793 0 16973
6.9243 11.362 1.556 0 10890
6.9535 12.275 1.6498 1 10745
6.9573 12.282 0.98705 2 10742
7.0015 9.1278 1.89 0 11387
7.0259 5.6087 0.62865 0 12709
7.0297 -1.9985 0.68183 0 16765
7.0939 1.2457 0.50364 0 15398
7.1152 7.8223 1.7373 2 11818
7.1423 4.0689 0.96126 0 13659
7.183 -3.0965 0.72976 0 16816
7.2178 -0.66577 1.3657 0 16498
7.2472 7.605 1.9793 2 11935
7.2497 9.5649 1.1197 1 11359
7.2758 4.1131 1.3732 0 13675
7.3091 8.8258 1.6105 0 11576
7.3348 -6.8494 1.1736 0 16980
7.3981 -0.40584 1.0413 0 16386
7.4564 -2.5922 1.297 1 16774
7.5114 2.4015 0 0 14708
7.5216 10.479 2.1192 2 11243
7.5307 8.5179 1.868 0 11738
7.5896 -2.277 1.3018 0 16767
7.5954 10.779 1.8532 0 11200
7.62 -2.9755 1.344 0 16790
7.6253 0.91197 -0.89808 1 15687
7.6517 -1.5442 0 0 16725
7.7379 6.8628 0.72324 2 12363
7.8363 10.59 1.5406 0 11307
7.8749 7.277 0.50003 2 12236
7.8779 -0.36324 0.92224 0 16356
7.8814 11.463 1.9551 0 11147
8.028 -12.263 2.4081 0 17099
8.1022 -6.9322 1.7519 0 16976
8.1133 3.069 0.80927 0 14441
8.1138 10.965 1.2726 2 11305
8.1558 3.9515 0.8455 0 13994
8.1614 3.926 1.4879 0 14008
8.1756 5.1008 1.1269 2 13404
8.1916 0.098655 1.3459 0 16163
8.2173 2.3951 1.4062 1 14848
8.2305 1.0062 0.57982 0 15680
8.2485 -8.2572 1.0889 0 16983
8.2711 11.384 0.98398 1 11262
8.3195 3.9415 0 0 14033
8.3485 6.0544 0.48093 1 12990
8.3687 7.5538 2.1241 0 12316
8.3997 7.9878 0.54055 1 12164
8.4242 2.9931 1.2565 0 14547
8.4284 8.7952 2.2951 0 11952
8.4723 10.724 1.5982 0 11452
8.5523 -2.9498 0.84402 0 16773
8.6306 9.4882 1.1966 0 11813
8.6485 8.2243 1.3957 0 12170
8.66 1.7022 1.45 0 15294
8.677 6.3716 0.24993 0 12956
8.6867 11.956 2.077 0 11268
8.7113 6.9541 1.8313 0 12714
8.7335 8.3052 2.2707 0 12172
8.7359 3.3621 1.5379 0 14412
8.7621 9.3535 2.4148 0 11889
8.917 7.5062 1.915 0 12522
8.9517 11.888 1.3884 0 11346
8.9537 0.93791 1.0528 0 15769
8.9752 -0.54266 1.2637 0 16407
8.9967 -0.98689 1.487 0 16542
9.09 1.0068 -0.21233 0 15737
9.0909 8.0628 1.1337 2 12365
9.1239 8.2847 1.4412 0 12294
9.1393 7.2958 1.3676 0 12712
9.1963 7.924 1.4196 0 12453
9.2041 -2.2744 1.5577 0 16758
9.2986 7.5541 1.401 0 12650
9.3366 -1.9114 1.5658 0 16730
9.3851 7.2694 2.2366 1 12807
9.6603 3.6542 1.9459 0 14444
9.8933 6.4592 0.8262 0 13281
9.9033 -5.9764 1.9004 0 16908
9.9636 4.1006 2.03 0 14297
10.173 -4.1103 1.0237 0 16800
10.219 6.7948 0.85814 1 13232
10.263 1.0461 0 0 15781
10.325 0.21088 1.6968 0 16132
10.421 6.3832 0.85452 1 13459
10.501 -2.7882 2.047 0 16763
10.822 -6.5774 2.0807 0 16910
11.144 -1.5503 1.8485 0 16614
11.939 -0.8244 1.9662 0 16435
11.966 -2.9237 1.4405 0 16757
-11.762 5.4224 -1.5146 2 3547
-10.753 1.1643 -1.52 2 2066
-0.79159 13.169 -1.8541 0 9551
1.8727 6.6269 -1.9747 0 9953
3.8586 10.266 -1.8018 2 10155
