VERSION .7
FIELDS x y z intensity index
SIZE 8 8 8 8 8
TYPE F F F F F
COUNT 1 1 1 1 1
WIDTH 694
HEIGHT 1
VIEWPOINT 0 0 0 1 0 0 0
POINTS 694
DATA ascii
-4.8467 0.047373 -0.56682 1 1582
-4.8454 -0.54521 0 0 1400
-4.4107 1.0719 0.53081 0 1849
-3.8271 1.2909 -0.093772 0 2134
-3.7961 -0.25946 0.62514 0 1472
-3.7399 0.80654 -0.17841 0 1805
-3.7206 -3.301 0.34781 0 944
-3.525 1.0321 -0.085276 0 2025
-3.2502 -3.5333 -0.22388 2 756
-3.1194 -2.476 0.65432 2 1057
-3.0288 -2.5496 -0.55641 0 997
-2.9775 -2.5215 -0.18195 0 991
-2.8721 2.2895 0.085276 0 4204
-2.7406 -2.1105 0.080309 0 1079
-2.7086 2.9077 -1.1395 2 5492
-2.6791 -2.0262 0.47208 1 1100
-2.357 2.5596 -0.24331 1 5536
-2.2878 2.7275 0 0 5926
-2.2875 2.6964 -1.4769 0 5882
-2.0881 2.8385 -1.2826 0 6438
-1.8366 3.3996 0 1 7273
-1.753 4.1846 -0.31725 0 7672
-1.7528 2.5646 0.51036 0 6684
-1.7159 4.5339 -1.0304 0 7769
-1.6401 -4.616 0.45703 2 71
-1.4254 -3.9398 0.29298 0 72
-1.1549 -4.5473 0.43771 0 52
-1.0755 3.2944 -0.56937 0 7813
-0.97914 4.6303 0.10988 1 7838
-0.91424 3.8766 -0.092472 0 7832
-0.80656 3.5132 -0.67914 2 7836
-0.63281 4.3431 0.40947 0 7844
-0.60576 -4.3488 0.82726 0 40
-0.56589 -4.7598 0.56054 1 39
-0.55379 3.1568 0.52657 0 7843
-0.41504 -4.9322 0.8132 1 19
-0.38002 -4.0965 0.38383 0 25
-0.28133 4.064 -1.3765 0 7858
-0.21638 -4.1847 0.78949 0 4
0.18817 4.0503 0.76394 0 7899
0.25167 4.8346 0.79536 1 7900
0.30795 4.4261 -0.10301 0 7904
0.35216 3.3675 -0.88638 1 7918
0.36566 3.1411 0.59582 0 7925
0.37577 3.9097 -1.1263 0 7914
0.44104 3.5258 0.24847 0 7928
0.48665 3.268 0 0 7943
0.56356 -4.5117 -0.10556 0 19091
0.84088 -4.3462 0.10278 0 19086
0.90708 2.8892 0.42559 1 8047
0.98733 4.8056 0.34306 0 7984
0.99322 4.563 -0.87984 0 7991
1.0151 4.8677 -0.4639 0 7986
1.1985 3.309 0.2461 0 8100
1.3089 4.0842 0.50154 0 8053
1.3251 4.6426 0 0 8020
1.3362 4.2122 -1.1569 0 8050
1.5638 4.3557 -0.43176 0 8096
1.6344 3.7197 -0.094329 2 8257
1.6754 -4.3106 0.32339 0 19012
1.6908 4.4628 0.33371 0 8120
1.769 -4.1215 -0.20916 1 18979
2.0302 -2.3779 -0.36564 1 18396
2.3027 -3.2679 0.7532 1 18692
2.3132 3.5363 0.79615 0 8837
2.3193 3.5673 -0.69906 0 8812
2.3978 -3.182 0.27861 0 18579
2.4772 4.0904 0 0 8681
2.52 -2.409 0.40769 0 18155
2.638 -3.908 0.88836 0 18748
2.6493 3.3522 -1.4437 2 9265
2.6682 1.7721 0.52624 2 11180
2.7545 2.8217 0.55419 1 9912
2.7653 -1.3757 0.50744 2 16934
2.9643 -2.5823 0.64589 0 18070
2.9897 3.966 -0.23161 0 9139
3.1128 1.1527 -0.38818 1 12719
3.261 0.41369 0.076317 0 14349
3.34 3.0466 -0.10496 0 10262
3.4946 -2.7857 0.31251 0 17918
3.5784 2.2885 0.29702 1 11277
3.6464 -1.0119 0.44253 2 16168
3.65 3.3294 0.57773 0 10270
3.6656 2.6554 0.85281 0 10975
3.6977 3.0731 0 0 10560
3.7436 0.61707 -0.99325 0 14099
4.1294 -0.31629 0.19313 0 15467
4.1623 1.3927 -1.2586 0 12990
4.2818 0.46818 0.40185 0 14461
4.3246 -1.4462 0 0 16311
4.352 2.3091 -0.11438 0 11802
4.3951 0.88302 -1.1736 0 13866
4.6157 1.8321 0 0 12556
4.691 0.12939 -0.10895 0 14926
4.789 0.96215 -0.22779 0 13859
-2.1504 0.38575 0.35893 0 1755
2.1522 1.3849 -1.2855 0 11252
2.5876 1.3921 0.5536 0 11774
-12.359 3.8541 -1.2078 0 2068
-12.249 0.36568 -1.4331 0 1606
-12.094 4.7566 2.1351 0 2303
-11.94 8.075 2.0258 0 3574
-11.737 -0.70141 -1.375 0 1482
-11.61 2.7487 -1.3952 0 1836
-11.52 2.2747 -1.3731 0 1773
-11.487 8.4718 2.6891 0 3920
-11.457 -0.256 -1.3401 0 1535
-11.417 8.9396 2.7321 0 4146
-11.279 8.7238 0.9971 1 4094
-11.263 9.0819 1.0117 1 4253
-11.259 9.5784 1.3791 0 4484
-11.161 9.7192 2.7884 0 4587
-11.155 8.6839 1.3189 1 4119
-11.043 6.6144 0.90014 1 3173
-10.98 9.9626 1.0367 1 4747
-10.971 8.802 2.3109 0 4236
-10.819 9.6431 1.3521 1 4678
-10.788 8.1471 2.2211 0 4009
-10.775 7.8974 2.517 0 3897
-10.738 6.645 1.7747 0 3278
-10.534 4.8294 2.1833 0 2557
-10.511 1.1734 1.9926 0 1693
-10.488 8.3065 2.198 1 4189
-10.466 9.5503 2.6695 1 4782
-10.428 9.5655 0.6599 1 4796
-10.424 9.9614 2.7166 0 4975
-10.323 -7.807 2.1264 0 1101
-10.245 8.9215 1.2674 1 4579
-10.236 8.6042 1.2475 0 4437
-10.204 -8.3429 1.8524 0 1029
-10.171 9.1705 2.2499 0 4730
-10.096 1.2719 -1.4301 0 1705
-10.032 2.2241 1.2017 0 1814
-10.016 -9.8703 0.32648 1 853
-10.006 3.2453 1.7282 0 2105
-9.9428 8.7104 1.2332 1 4604
-9.9421 9.0721 0.94115 1 4772
-9.9305 -8.4098 2.4518 1 996
-9.9024 9.1922 1.8989 1 4849
-9.8961 -1.2888 0.69784 0 1376
-9.8879 -9.5754 0.9625 1 868
-9.819 -9.9016 2.6273 0 836
-9.7994 5.2324 1.5612 0 2874
-9.782 10.807 2.3948 1 5623
-9.7653 0.6332 1.8437 0 1642
-9.7639 2.9795 1.9234 0 2060
-9.7345 8.9294 2.4888 0 4806
-9.7228 -9.8046 1.2882 1 833
-9.6813 1.8538 0.91963 1 1767
-9.6684 8.8223 2.1504 1 4780
-9.6246 -9.8146 0.31915 1 820
-9.6107 7.9393 1.163 0 4355
-9.5041 -11.282 0.68794 1 648
-9.4142 2.519 1.6011 2 1910
-9.3844 1.349 0.88452 0 1725
-9.3661 2.8011 1.8419 1 2044
-9.3553 -10.17 2.2703 0 760
-9.33 -7.6692 2.2755 0 1024
-9.2971 -9.4245 1.2351 0 828
-9.2904 6.091 1.8252 0 3469
-9.2903 -11.485 1.033 1 596
-9.2421 0.33082 1.5194 0 1611
-9.2271 -8.8299 2.4062 2 882
-9.2266 5.1692 1.9926 0 3000
-9.2226 -8.7703 1.7887 1 886
-9.2192 -10.322 1.6184 0 731
-9.2097 1.8453 1.7697 1 1780
-9.2013 -8.6527 2.0751 1 895
-9.1997 -0.20556 0.85851 0 1537
-9.1774 -8.9372 0.59739 1 864
-9.1617 3.2102 0.9057 0 2172
-9.1538 7.7411 1.6848 0 4464
-9.1447 9.4795 2.164 1 5344
-9.0954 -9.1719 1.8154 0 834
-9.0771 -1.4214 1.2912 0 1338
-9.0535 5.1431 1.7107 0 3028
-9.0303 2.901 1.5583 1 2096
-8.9889 2.38 1.0874 1 1896
-8.9551 3.3126 1.3419 0 2236
-8.9344 -8.9562 0.29371 1 837
-8.923 -8.8919 2.0696 2 846
-8.9225 11.089 0.99529 1 6093
-8.9164 -10.096 1.2566 0 720
-8.9056 1.5175 0.63171 0 1744
-8.8946 -1.1315 1.6893 1 1386
-8.8575 -7.4113 1.8975 2 1008
-8.8391 10.853 1.3059 2 6041
-8.8261 -9.0508 1.4784 2 816
-8.7923 8.9035 1.7586 0 5236
-8.7749 -7.5183 1.3513 0 983
-8.7669 3.184 0.65222 0 2210
-8.7472 -8.3182 0.56291 1 884
-8.7335 -0.54794 1.4377 1 1480
-8.7172 -9.1508 0.58937 1 788
-8.7004 -7.992 1.6603 0 914
-8.6832 -11.748 1.0215 1 497
-8.6706 1.0677 0.81503 0 1704
-8.6359 11.46 1.3388 1 6354
-8.6195 10.969 2.6284 0 6199
-8.5885 -11.274 1.9918 0 530
-8.5823 -9.4949 2.4114 0 741
-8.5567 -6.5896 2.0348 0 1084
-8.5546 11.552 1.0052 1 6419
-8.5435 -10.017 0.92065 2 668
-8.5393 3.6476 0.86631 0 2424
-8.5225 -1.4614 0.60465 0 1313
-8.4764 -8.0607 1.0913 2 885
-8.4642 9.7955 1.2078 1 5819
-8.4601 12.073 2.4221 1 6614
-8.4435 5.7102 0.71277 0 3568
-8.4094 3.3363 1.2715 0 2311
-8.3985 10.874 2.2574 2 6267
-8.3702 5.8391 1.4343 2 3688
-8.3606 -5.4898 1.1696 0 1249
-8.3543 9.0155 2.0194 0 5525
-8.3184 -0.81123 1.1746 0 1426
-8.3135 10.645 2.5447 0 6223
-8.2863 4.7995 1.3458 0 3081
-8.2767 -10.609 2.2107 2 558
-8.2673 12.401 2.4487 0 6765
-8.223 -6.1427 1.2003 0 1110
-8.2192 9.6269 2.0797 0 5871
-8.2092 -12.03 2.744 0 419
-8.2029 1.4715 0.77751 1 1752
-8.1745 -7.0039 2.0282 0 986
-8.1023 3.7147 1.0423 2 2551
-8.0817 0.032441 1.5227 1 1579
-8.0375 7.3341 1.0151 2 4774
-8.0283 7.2847 1.7811 0 4754
-8.0199 -8.5703 2.2115 0 775
-7.9889 -12.079 2.3793 1 382
-7.975 8.9667 1.6865 0 5695
-7.9479 -8.393 1.8991 2 786
-7.9258 1.9262 1.5368 0 1853
-7.8962 -8.4854 1.3555 0 769
-7.8779 5.2281 0.66115 0 3505
-7.8347 -10.469 0.91437 1 512
-7.8226 10.016 1.1857 0 6216
-7.7999 -1.1518 1.1081 0 1352
-7.7948 7.1953 0.74179 0 4821
-7.7586 -5.9019 1.37 0 1094
-7.7546 -6.0108 0.91536 1 1076
-7.7433 4.1937 1.0298 1 2908
-7.7357 -11.844 2.3242 0 369
-7.7346 6.4649 1.8993 2 4418
-7.7252 -11.527 2.2797 1 397
-7.7086 11.212 1.9122 0 6664
-7.6958 11.544 1.2944 0 6761
-7.6891 -6.2465 1.3923 0 1034
-7.6714 9.7067 2.0327 0 6174
-7.6549 -4.8993 0.84792 1 1266
-7.6323 -11.907 1.9877 0 345
-7.6253 9.4199 1.1307 1 6067
-7.6111 -9.4663 1.7071 0 592
-7.6094 -6.5197 0.93486 2 982
-7.5869 -12.627 2.7754 0 286
-7.5627 -12.264 2.7147 0 305
-7.5578 10.726 2.4722 0 6597
-7.5529 -6.064 1.1327 1 1044
-7.5386 10.372 1.1963 0 6484
-7.5276 -8.8825 2.1937 1 661
-7.5262 -10.31 0.29636 1 483
-7.4743 -10.295 2.397 1 482
-7.4346 7.9337 2.0485 0 5473
-7.3087 -7.5869 1.9848 1 807
-7.2973 1.6861 1.2305 0 1828
-7.291 -1.0975 1.2114 2 1348
-7.2706 -6.1203 0.44319 0 998
-7.1559 6.4161 1.5791 0 4707
-7.1481 -7.5906 0.72909 0 777
-7.1476 -5.7386 0.85516 1 1043
-7.1363 -5.111 1.2336 1 1158
-7.1332 -7.6655 1.4716 0 770
-7.1251 -12.497 2.3634 0 237
-7.1244 -12.587 2.7251 0 232
-7.064 8.2738 1.529 0 5869
-7.0474 -10.587 2.3962 0 390
-7.0313 -5.3177 0.82247 2 1098
-7.0084 8.2611 2.0411 1 5895
-6.9812 9.5526 1.6628 0 6465
-6.9613 -11.98 1.6203 0 258
-6.951 8.0443 1.7467 1 5825
-6.9163 -9.0789 2.1504 1 532
-6.896 -5.0305 0.9982 2 1129
-6.8829 -12.331 2.6606 0 221
-6.874 9.6905 2.2385 0 6576
-6.8614 0.88505 1.3035 2 1714
-6.7997 -12.182 2.2921 0 220
-6.7772 -8.0882 0.98447 0 641
-6.7619 -7.0982 0.91461 0 790
-6.7202 0.29811 -0.62758 0 1616
-6.7192 5.9887 1.0526 1 4680
-6.6703 -12.199 1.6259 0 202
-6.665 -11.858 1.9117 0 225
-6.6545 -13.435 2.1071 0 133
-6.6339 -10.223 1.4252 1 360
-6.5793 0.7345 -0.1537 0 1689
-6.5666 -1.1059 0.62126 0 1319
-6.5615 -13.435 0.34714 1 121
-6.4764 -10.229 0.28108 1 323
-6.4372 -10.713 2.0534 2 285
-6.3917 -8.3359 0.73454 0 535
-6.3667 7.9129 1.4274 1 6098
-6.3315 6.0147 1.4348 0 4948
-6.2126 -5.9079 1.6153 2 887
-6.1822 -12.575 1.6387 0 126
-6.1678 6.656 1.7097 0 5527
-6.1214 -0.85159 0.14349 0 1360
-6.1065 -10.297 2.2555 0 275
-6.0279 -10.229 1.6687 0 269
-6.0147 3.5091 1.312 0 3104
-5.9184 3.4529 0 0 3092
-5.8717 -12.968 2.6821 0 104
-5.8119 -1.0656 0.97078 2 1298
-5.6784 -7.149 1.0677 0 578
-5.6278 0.087427 -0.13068 1 1589
-5.5626 -3.6055 0.77519 0 1260
-5.5251 0.37376 0.90982 0 1644
-5.414 5.2356 1.419 0 5022
-5.3708 -5.6065 0.18026 0 795
-5.3348 -0.70992 0.88421 1 1375
-5.2815 -7.4565 1.5012 1 455
-5.1444 1.9357 -0.38436 1 2252
-5.0734 -4.3978 0.15588 0 971
-5.0197 -0.35894 0.23469 0 1465
-4.9621 1.391 0.72426 0 1973
-4.8818 3.1401 -0.13476 0 3391
-4.8403 1.6497 -1.3387 0 2142
-4.5241 3.8708 0 0 4503
-4.5079 2.9185 -0.25043 0 3413
-4.442 -3.4617 0.5254 0 1070
-3.6505 5.4101 1.0723 0 6724
-3.4065 11.935 2.0392 0 7825
-3.3533 6.4307 0.67662 0 7344
-3.2081 -6.245 0.49095 0 156
-3.0244 -7.7293 0.77435 0 75
-2.9644 -6.7531 1.2117 0 95
-2.8779 -5.1876 0.13773 0 212
-2.7589 -4.334 0.96798 0 337
-2.6582 5.5605 0.575 0 7490
-2.5711 8.0321 1.589 0 7818
-2.3798 5.1292 0.79468 0 7538
-2.2654 5.0359 0 0 7581
-2.1972 8.3398 1.4169 0 7829
-2.0756 5.4355 0.68041 0 7761
-2.0583 6.699 -0.16271 0 7822
-1.7292 6.1273 1.046 0 7826
-1.6875 -6.9806 1.1799 0 51
-1.5747 -5.0776 0.24792 0 69
-1.558 5.7108 0.41393 0 7828
-1.495 7.6061 -1.4605 0 7842
-1.4149 4.7983 -0.23329 0 7824
-1.3497 6.5636 -0.62516 0 7839
-1.3427 6.0869 -0.29068 0 7837
-1.3269 -7.837 0.55582 0 43
-1.2561 5.3261 0.76907 0 7833
-1.1337 10.539 1.7415 0 7852
-1.1205 5.5372 -0.52707 0 7841
-0.9525 -8.1946 0.96475 0 38
-0.95239 -10.609 1.7499 0 22
-0.91441 -8.2959 1.3712 0 34
-0.86214 -7.6261 0.71601 0 36
-0.77084 8.2937 1.5693 0 7854
-0.65657 5.0074 0.82973 0 7846
-0.59345 -8.1989 0.76692 1 13
-0.5695 6.3312 1.0444 0 7856
-0.49378 -11.309 1.8598 0 19162
-0.40582 -6.1099 0.57129 0 10
-0.3119 -8.9317 0.8338 0 19153
-0.26703 -8.3122 1.3664 0 19150
-0.26665 8.3918 0 0 7867
-0.26335 -6.5002 1.2257 0 19159
-0.24954 -7.7679 0.18044 0 19149
-0.24819 5.3623 0.88194 1 7859
-0.21096 5.6456 -0.66067 0 7864
-0.18987 -5.0341 0.58912 0 19156
-0.14471 9.989 1.6413 0 7874
-0.12999 7.5988 -0.17645 1 7872
-0.034499 -5.9899 0.55884 0 19133
0.0010132 5.8208 -0.81806 0 7878
0.020203 6.8096 0.79633 0 7880
0.027766 9.3585 1.5376 0 7881
0.07883 6.7411 -0.47141 0 7884
0.24569 -5.6727 0 0 19113
0.26304 6.0733 1.1454 0 7897
0.33672 -5.8221 0.95813 1 19106
0.36607 7.8794 0.18313 0 7898
0.37462 -5.163 0.12019 0 19096
0.3862 6.9953 0 0 7901
0.39059 11.185 1.8388 0 7894
0.43374 7.477 1.2305 0 7902
0.46137 7.565 0.70709 1 7903
0.56516 -6.2952 0.58968 0 19092
0.61276 6.5928 1.0878 0 7912
0.62155 6.8829 -0.80818 0 7910
0.70711 -8.1479 0.76301 0 19093
0.75384 5.7492 -0.13462 0 7932
0.78316 -5.8462 0.55029 0 19090
0.79412 8.0269 1.5197 0 7916
0.86108 -6.1581 0 0 19089
0.88788 -6.1011 1.0129 0 19088
0.99542 5.4829 0.12938 0 7966
1.0688 5.6944 0.40515 0 7971
1.262 8.4744 -1.2041 0 7940
1.2757 7.6564 1.2752 0 7955
1.2832 7.8275 0.92758 0 7951
1.5448 4.9721 -0.60886 0 8044
1.5776 8.026 -1.1496 0 7976
1.6253 -9.097 1.0807 0 19087
1.6463 -8.3836 1.6097 0 19085
1.7439 -5.8574 0.57017 0 19069
1.9373 11.818 2.2563 0 7952
1.948 5.8422 -1.309 1 8067
2.0172 6.631 1.1387 0 8038
2.0721 -8.9044 0.85293 0 19083
2.1425 -5.6108 0.56032 0 19017
2.1695 -7.6873 0.93408 0 19075
2.1797 -8.4647 1.4361 0 19077
2.2131 9.5029 1.603 0 8003
2.3008 4.7404 0.99279 0 8391
2.3535 5.8515 0.73756 0 8165
2.424 4.584 0.48378 0 8489
2.5313 8.5784 1.4695 0 8031
2.5344 -8.421 1.0284 0 19068
2.5639 -9.5022 1.617 0 19076
2.5676 4.8843 0.25733 0 8480
2.5983 -10.881 2.1078 0 19082
2.6733 -6.8778 1.2123 1 19014
3.0872 -10.142 1.9974 0 19067
3.2679 9.8007 0.96385 0 8066
3.3692 7.668 -0.58568 0 8254
3.4702 -7.6535 -0.58763 0 18940
3.5393 6.8338 0.17868 0 8464
3.6354 9.267 1.6355 0 8143
3.6598 -6.6406 0.88669 0 18871
3.6676 7.7799 0.60144 0 8348
3.8478 4.1772 0.66415 0 9720
4.1796 7.6311 -0.60842 0 8532
4.2072 7.9561 0.62934 0 8488
4.4149 3.395 0.91501 0 10811
4.6122 -4.0406 1.0074 0 18076
4.7877 6.2395 -1.1053 1 9178
4.8114 -6.0858 1.2746 0 18517
4.8495 4.4515 0.30698 0 10249
4.9443 8.1128 0.88637 1 8694
4.9851 9.2313 1.7237 0 8520
5.1192 7.3958 1.0519 0 8943
5.1233 8.9169 1.2026 0 8605
5.2475 2.0301 0.13063 0 12619
5.2611 7.8947 1.7875 0 8871
5.3861 -9.7009 1.0352 0 18866
5.5357 -0.24847 -1.4506 0 15323
5.5864 -2.33 0.99445 0 16602
5.5935 -0.62445 0.39357 1 15624
5.6789 3.8175 0.96169 0 11147
5.6978 -5.7397 1.3287 0 18207
5.7139 -5.212 1.4571 0 18116
5.7184 5.9965 0.77305 0 9829
5.7188 -1.694 0.13848 0 16212
5.7241 -7.3689 1.533 0 18544
5.7512 -3.8661 -0.64653 0 17548
5.7912 8.2127 1.8934 0 8990
5.8632 9.4933 1.3048 0 8717
5.865 7.9755 0.69226 1 9081
5.9144 -1.6781 1.1583 0 16186
5.9156 9.0434 1.2637 0 8833
5.9326 4.4836 1.2217 0 10863
6.1117 -7.4168 1.1239 0 18455
6.1633 6.2784 1.4455 1 9932
6.1843 5.6135 1.3722 1 10289
6.2221 1.5156 0 0 13585
6.2601 6.5991 1.7138 2 9814
6.2628 0.15525 -0.43807 0 14939
6.2724 -12.558 0.98161 1 18908
6.3128 -12.278 1.6145 0 18893
6.3203 -1.4615 1.0658 1 16020
6.3254 -2.0932 1.2553 1 16309
6.3306 2.9251 0.65062 2 12174
6.3316 -11.565 1.2301 0 18872
6.3644 7.6769 1.4015 1 9412
6.3716 -12.131 1.2784 0 18883
6.3757 6.9214 1.773 2 9723
6.414 7.5152 1.8615 0 9499
6.4234 1.8443 -0.62349 0 13298
6.4474 7.4615 0.92 0 9525
6.4738 -1.3973 0.77449 0 15977
6.5147 -2.4539 1.3116 2 16453
6.5329 7.1746 1.8282 0 9684
6.5338 5.8584 1.6534 0 10325
6.5606 -11.816 0.63027 1 18865
6.6049 3.5311 1.2305 1 11791
6.6158 -8.2667 1.7396 1 18502
6.65 -11.2 1.2152 0 18845
6.682 -1.2203 1.2798 0 15887
6.7097 -7.4598 1.4101 0 18325
6.7187 5.5168 1.4283 2 10602
6.7852 5.475 1.0196 1 10655
6.7899 2.5373 1.3657 0 12716
6.8131 4.4941 1.1471 1 11195
6.8471 -7.7447 1.6984 1 18352
6.8586 -10.161 1.1437 0 18743
6.8841 -12.491 0.66512 1 18868
7.0196 -12.912 2.4146 0 18874
7.0201 10.404 1.7639 0 8891
7.0235 -5.7651 0.84773 2 17982
7.0389 -0.93043 0.16484 0 15709
7.0565 8.764 0.52472 1 9318
7.1738 -8.964 1.6136 0 18501
7.1794 -6.2895 0.66743 1 18073
7.2035 9.1147 2.1889 0 9275
7.2521 0.66382 1.1964 0 14565
7.2565 -5.2528 0.62641 0 17724
7.2694 -3.4083 1.5127 0 16810
7.2769 -8.8307 2.1559 0 18458
7.3373 -0.67162 0.51522 0 15530
7.3643 -7.46 1.2259 0 18212
7.3727 0.67486 0.86579 2 14562
7.3852 -11.221 2.531 0 18773
7.3911 4.003 0.58777 0 11748
7.4096 -11.047 1.241 0 18752
7.4111 -4.952 0.83157 1 17541
7.4156 8.3378 1.8333 0 9613
7.43 5.8868 1.1085 0 10713
7.4609 8.6343 2.15 2 9531
7.518 1.7606 0.90296 1 13649
7.5446 7.7773 1.5228 0 9893
7.5593 10.212 1.4858 0 9100
7.6401 8.1558 2.1055 0 9778
7.6525 -3.8605 1.4082 1 16962
7.6534 0.45738 1.4446 1 14753
7.7408 6.7029 0.9553 0 10436
7.7715 -1.6066 0.18425 0 15946
7.8152 -11.224 2.247 1 18706
7.8353 -2.4195 0.76506 1 16245
7.8409 -5.2035 1.773 1 17528
7.8586 -8.9927 1.3966 0 18369
7.8779 -7.2746 1.254 0 18124
7.8857 10.277 1.5148 0 9188
7.8941 5.8926 1.152 1 10896
7.9246 6.431 1.4343 0 10636
7.933 2.9913 0.99146 2 12688
7.9915 9.8125 1.1807 0 9354
7.9916 7.1253 1.5047 1 10339
8.0025 9.3169 2.314 0 9514
8.005 -2.2712 0.38804 0 16181
8.0606 5.4883 0.90978 2 11115
8.0718 2.2902 1.5808 2 13333
8.1228 -8.6681 1.6695 0 18268
8.1401 -10.543 1.2427 0 18550
8.1574 -0.86457 0.38254 1 15594
8.1638 -8.8657 1.4094 0 18290
8.1815 -3.7769 1.4805 1 16782
8.1816 -9.0421 1.7138 1 18316
8.2064 -6.3518 1.9552 0 17868
8.2191 -2.2285 1.3991 2 16154
8.2379 -8.2006 1.6336 0 18194
8.2439 -8.2554 2.1981 0 18202
8.2575 5.9445 1.1898 0 10988
8.2885 -6.6832 1.7493 1 17947
8.2952 4.5868 0.66283 0 11690
8.3143 -10.456 1.5622 0 18507
8.3431 -1.5493 0.19701 0 15891
8.3464 2.5263 1.2256 0 13206
8.3561 2.1377 1.2122 2 13514
8.3923 -6.4164 1.4847 0 17845
8.4018 -11.15 1.9621 0 18583
8.4155 -7.1571 1.5526 0 18041
8.4503 6.1215 0.72965 0 10972
8.4585 9.2893 0.87851 1 9677
8.4659 7.8176 2.1711 2 10239
8.4715 3.08 0.63032 1 12771
8.4778 -1.5988 1.0089 2 15900
8.4899 -9.7151 0.60167 1 18366
8.5123 -7.4572 1.5905 2 18075
8.5263 9.4197 1.4858 0 9662
8.5774 -1.8013 1.44 2 15959
8.6408 5.6695 0.72268 0 11211
8.6532 -4.6534 1.149 0 17081
8.6945 -4.1993 0.45028 0 16865
8.712 8.7211 2.3225 0 9998
8.7167 -6.4289 0.25147 0 17762
8.7532 -10.937 0.65329 1 18496
8.7659 8.0465 1.6723 0 10254
8.7785 7.8269 2.2159 2 10342
8.7864 1.0617 1.6675 0 14391
8.7931 3.5188 1.556 0 12543
8.8076 8.919 1.7617 0 9955
8.8289 -3.6823 1.3444 0 16600
8.8412 4.0553 1.8326 2 12201
8.8438 -10.664 1.947 0 18444
8.9095 4.7933 1.1831 0 11770
8.9421 -12.014 2.1049 0 18598
8.9578 9.5024 1.5271 0 9792
8.962 7.7604 0.82899 0 10434
8.9693 7.6768 1.6592 0 10477
8.971 7.7682 1.9497 2 10439
8.9724 2.1309 0.86037 1 13628
8.9788 -11.915 2.811 0 18585
9.012 -3.5445 1.1325 0 16511
9.0225 -4.3577 1.1717 0 16867
9.0297 6.9865 1.8757 1 10791
9.0516 -11.114 2.7006 0 18475
9.0614 8.3178 1.4384 0 10253
9.064 -4.7064 1.6779 0 17015
9.0699 5.6148 1.4992 0 11367
9.0827 5.0222 0.484 1 11688
9.0831 -4.0061 0.23048 0 16685
9.0954 9.2104 2.1267 1 9956
9.0962 -8.7964 1.4798 0 18165
9.1289 -7.8577 0.5617 1 18056
9.136 -6.5746 0.5249 2 17709
9.1581 -1.2382 1.7412 2 15730
9.172 -0.19693 0.85591 2 15196
9.1731 -5.9003 1.5329 2 17445
9.222 -10.673 2.3174 0 18385
9.2513 7.2906 2.2192 0 10734
9.2584 -5.9918 1.0289 1 17460
9.2722 -5.5186 2.033 0 17278
9.2811 7.3984 1.388 0 10695
9.2972 1.7013 1.1053 0 13985
9.3019 -4.1668 1.1919 1 16716
9.3145 2.5569 1.3575 1 13391
9.3274 -10.734 1.3267 1 18373
9.3533 8.2867 2.3544 0 10362
9.3624 -5.8685 2.0819 0 17387
9.3767 4.167 0.71752 0 12278
9.3866 -6.3099 1.8582 0 17559
9.4205 5.8729 1.8239 0 11352
9.4232 7.3357 1.962 2 10770
9.4565 3.8803 0.95363 1 12479
9.4593 8.7349 1.8095 0 10236
9.464 -8.3378 2.0722 2 18080
9.4922 -2.0783 1.8308 1 15989
9.496 -10.801 0.33391 1 18357
9.5291 -9.996 0.96571 1 18243
9.5685 -10.326 0.9844 1 18281
9.5713 4.2235 1.7188 2 12301
9.573 1.8677 1.1406 2 13908
9.595 -1.2411 1.3597 1 15700
9.5972 1.7268 1.6021 2 14007
9.6219 0.097407 1.1253 1 15019
9.6331 -2.7332 0.23248 0 16180
9.637 0.18336 1.5836 0 14973
9.6635 4.1938 0.9828 0 12339
9.6698 -2.8331 0.94007 2 16206
9.6846 -0.94105 0.6804 0 15555
9.6915 -10.459 0.66493 1 18280
9.6954 1.8916 1.8611 0 13913
9.7071 8.0676 2.3781 0 10570
9.729 1.5218 0.45922 1 14159
9.7821 0.49725 1.6092 0 14801
9.8531 1.8939 0.70161 0 13926
9.8604 -5.2672 0.25954 1 17060
9.8674 -10.716 2.0472 0 18291
9.8985 9.2986 1.267 0 10185
9.9204 -7.1391 0.85466 1 17711
9.9348 0.68078 1.1645 0 14700
9.9387 -7.5057 0.5808 2 17818
9.968 8.8314 2.188 0 10360
10.051 -1.3001 1.1852 0 15699
10.073 -7.1608 2.3285 0 17689
10.139 3.357 2.0122 0 13020
10.169 4.8068 0.52453 1 12117
10.187 -3.7381 1.5251 0 16410
10.22 -1.1139 0.71891 1 15610
10.227 -0.87318 1.6864 1 15510
10.232 2.4583 1.9826 0 13613
10.239 1.968 1.9645 1 13933
10.263 -6.3115 0.84252 1 17336
10.264 4.7081 1.8553 1 12199
10.351 2.0195 0.98391 0 13907
10.367 -7.9258 1.2174 0 17843
10.403 -10.417 0.68655 1 18197
10.409 -5.9927 0.27885 1 17207
10.544 -8.1085 0.93013 1 17853
10.57 -7.1057 1.1883 0 17557
10.574 -2.3151 1.2658 0 15986
10.577 -7.3817 0.90195 2 17642
10.585 4.309 1.8777 0 12503
10.613 -5.827 1.7015 0 17125
10.664 -1.3491 0.24956 2 15683
10.665 -2.8916 0.51531 1 16148
10.819 -6.6949 1.187 1 17354
10.84 -5.2754 1.1247 1 16884
11.049 -6.1952 0.88577 1 17163
11.116 -6.9243 0.91576 1 17367
11.116 -6.4465 1.1989 0 17222
11.242 -2.3956 0.80373 0 15965
12.99 1.6825 2.152 0 14335
-12.216 0.36471 -1.7177 0 1605
-7.3414 6.5433 -1.6157 2 4662
-0.64806 -0.66086 -0.15207 2 819
2.1909 6.5138 -1.7991 0 8072
4.2596 -2.9003 -1.8756 1 17582
