VERSION .7
FIELDS x y z intensity index
SIZE 8 8 8 8 8
TYPE F F F F F
COUNT 1 1 1 1 1
WIDTH 674
HEIGHT 1
VIEWPOINT 0 0 0 1 0 0 0
POINTS 674
DATA ascii
-4.5343 0.089438 0.74511 2 1910
-4.2105 -0.29517 0.097996 0 1613
-4.1747 0.96994 0.60234 0 2823
-4.1126 1.6391 0.20646 0 3630
-4.0705 1.8038 0.73149 0 3892
-3.6248 -0.044287 0.084162 0 1804
-3.5427 3.1921 0.11072 0 6529
-3.5063 0.18069 0.57682 1 2039
-3.3704 1.5759 0.4351 0 4033
-3.2622 1.0329 0.6447 0 3213
-3.1368 2.572 0.37844 0 6093
-2.948 2.831 0.6715 1 6828
-2.804 -2.1578 0.165 0 1061
-2.6634 1.6669 0 0 4976
-2.6623 -2.7947 0.18 0 715
-2.2737 3.4105 -0.095164 2 8831
-2.164 3.5508 0.68318 1 9230
-1.9336 -4.0759 0.52756 0 19296
-1.8064 2.8697 0.39654 0 9096
-1.7464 3.2776 0.34649 1 9680
-1.6894 -2.7418 0.15018 0 138
-1.3972 -2.6783 0.28183 0 19377
-1.3597 -3.7561 0.37268 1 19172
-1.3329 3.9289 0.096325 0 10766
-1.2807 2.8698 0.3675 0 10221
-1.2484 3.6464 0.72617 1 10760
-0.93155 4.5462 0.32451 0 11200
-0.81386 3.2425 -0.077617 0 11084
-0.77027 -2.9257 0.3538 0 19147
-0.74781 -4.3429 -0.10231 0 19138
-0.73502 3.7499 -1.0003 0 11224
-0.72955 3.661 -0.086669 0 11215
-0.6827 3.8996 0.65043 0 11262
-0.61144 4.4869 0.42247 0 11301
-0.53397 4.1915 0.6942 0 11307
-0.46699 3.5761 -0.94412 0 11304
-0.35077 4.5175 0.2113 0 11322
-0.34936 3.4513 0.65359 0 11316
-0.31285 3.0907 -0.28982 0 11315
-0.21085 4.9279 -0.5768 1 11325
-0.20344 -3.2156 0.37679 0 19112
-0.16039 -3.7485 0.17497 1 19103
0.045842 4.8639 -0.34013 1 11333
0.1513 -4.6095 0 0 19063
0.18098 3.5974 -1.2171 0 11336
0.49063 3.0873 0 0 11357
0.55854 3.9592 -0.65691 0 11352
0.59954 3.8506 -0.090476 0 11355
0.59991 -3.5734 0.59531 0 19042
0.82795 4.8539 -1.0466 0 11362
0.84745 3.3565 -1.26 0 11380
0.85499 -4.1322 0.79504 0 19038
0.86621 4.5887 0.43566 0 11366
0.86661 -4.3888 0.52314 0 19040
0.87746 -4.6527 0.10993 0 19041
0.90175 -3.8997 0.37343 0 19034
0.91593 3.7178 0.088897 0 11375
0.99655 -4.6844 0.44681 1 19037
1.0339 4.1437 -0.70166 0 11376
1.1855 3.5805 -0.35187 0 11457
1.347 3.0526 -1.3937 1 11601
1.3639 2.7804 0.36216 0 11667
1.4073 -4.3753 0.42879 1 19026
1.4219 2.6991 -0.28462 0 11718
1.5627 4.6273 -0.34153 0 11467
1.6911 -4.3736 0.7704 0 19023
1.7035 -3.0783 0.16407 0 18990
1.7438 -2.4959 -0.14199 0 18864
1.8227 -2.7939 0.23327 0 18927
1.9294 3.9611 0.51524 0 11660
1.9462 3.7707 0.79949 0 11701
2.0335 -3.0781 0.69506 0 18915
2.4134 1.8386 -1.2673 0 13311
2.5502 -1.6115 0.14068 0 17997
2.7652 -1.9804 0.31732 1 18212
2.8335 -2.2234 -0.59174 0 18323
2.8922 1.141 -0.072186 0 14641
2.9555 -3.2721 0.30832 0 18632
3.0087 3.931 0.5789 0 12203
3.0297 -0.98557 0.60026 0 17035
3.2097 -1.0336 0 0 17022
3.2466 -1.3117 -0.49212 1 17250
3.2508 -0.69334 0.23243 0 16834
3.2538 0.3949 0.3833 1 15783
3.3981 3.4507 0.56635 0 12712
3.4457 2.0289 0.37305 1 13907
3.5101 -1.6855 0.63973 1 17525
3.5474 0.7469 -0.2535 0 15315
3.7071 -1.8742 0.38755 0 17626
3.7417 1.2418 0.27568 0 14839
3.7683 0.89704 -0.45299 1 15197
3.7921 -0.51338 0.26759 0 16757
3.808 2.7303 -0.43715 0 13443
3.8675 -0.4222 -0.27205 0 16719
3.9986 0.018845 -0.37305 0 16373
4.1456 -2.0805 0.54242 0 17616
4.1901 0.54494 0.6942 2 15738
4.2479 0.86888 0.71236 1 15356
4.2712 0.39246 -1.2299 0 15937
4.3901 0.73938 -1.1655 0 15532
4.4526 -0.12048 0.626 0 16496
4.5333 -1.0067 0.76294 1 16845
4.6248 1.5654 0.80217 0 14819
4.6496 -0.047069 -0.43381 0 16425
4.6704 1.1844 0.33692 0 15130
4.6874 0.11783 0.21866 0 16298
0.40701 -2.8923 0.47988 0 19044
0.97872 1.5896 -0.53529 0 11872
2.4949 -1.1019 0.31895 0 17373
2.902 0.0045577 0 0 16388
-13.569 -1.9916 1.6038 0 1411
-13.464 1.6365 1.2654 0 2337
-13.311 1.6179 0.93767 1 2336
-11.867 0.8194 0.55472 1 2109
-11.527 7.928 0 0 5336
-11.062 7.8989 0.31557 1 5488
-11.045 7.9364 -0.31576 0 5511
-10.908 -0.60605 0.25365 0 1656
-10.808 -7.6443 0.30736 1 1174
-10.787 1.3111 0.50673 1 2335
-10.649 7.1934 -0.29835 0 5265
-10.607 -7.0472 0.29566 1 1252
-10.559 7.1326 0 0 5267
-10.417 -7.6437 0.29998 1 1122
-10.408 -8.7052 -0.31502 0 946
-10.364 7.0462 -0.29097 0 5287
-10.352 5.8665 -0.27625 1 4619
-10.091 4.1594 0.25342 0 3704
-10.085 10.815 0 0 7305
-9.9347 -10.865 -0.68655 0 663
-9.8882 -0.60998 -0.92427 2 1631
-9.8572 8.0824 2.0943 0 6097
-9.8167 -8.0205 -0.29431 1 977
-9.7825 -0.43396 -0.68473 1 1686
-9.773 -8.4209 -0.29951 0 916
-9.7341 3.0822 1.194 0 3208
-9.6443 -10.188 -0.65422 0 705
-9.6419 7.6284 -0.28545 1 5929
-9.6241 6.1383 1.8754 0 5062
-9.5887 9.208 0 0 6816
-9.5737 -9.8793 -0.64155 0 734
-9.4691 4.9777 2.0156 0 4390
-9.4509 1.7414 0 1 2593
-9.445 -7.5344 1.985 1 1013
-9.43 8.5417 2.0904 0 6566
-9.4155 -11.044 -1.0148 0 556
-9.4098 -6.6109 0.80415 0 1183
-9.3484 6.0016 1.8252 1 5086
-9.324 -1.6726 0.66241 0 1320
-9.2778 1.7095 1.7775 0 2600
-9.2355 6.0068 -0.25578 0 5124
-9.2303 -6.3249 1.0439 0 1218
-9.2221 7.0815 -0.54223 1 5792
-9.148 3.0733 -0.67482 2 3297
-9.1187 -6.1344 0.51251 1 1238
-9.1007 4.8491 0 0 4421
-9.0989 -7.8401 2.2629 1 922
-8.8432 -6.766 1.8294 2 1074
-8.737 7.5097 -0.26748 0 6314
-8.7365 2.6577 1.0679 0 3147
-8.7197 5.008 0.70315 0 4670
-8.6557 0.37035 1.6323 1 2006
-8.6521 3.5661 1.0944 0 3710
-8.5942 2.1555 0.4132 0 2906
-8.5874 0.19188 1.2072 0 1921
-8.5286 -11.538 1.6779 0 361
-8.4882 4.2099 0.88396 0 4199
-8.4522 -0.46959 0.78977 0 1657
-8.4484 6.0329 1.214 1 5494
-8.4392 5.6666 -0.71082 2 5237
-8.4195 -11.817 2.3838 0 314
-8.4182 1.7035 1.6182 2 2678
-8.3896 10.54 0.94199 1 8043
-8.3875 2.7934 0.61818 1 3284
-8.3527 8.0689 1.0835 0 6850
-8.2888 -7.3102 1.8158 1 890
-8.2873 1.527 0.39298 0 2595
-8.2856 -9.2248 1.45 0 641
-8.28 -1.5361 1.1835 0 1310
-8.2308 1.3921 -0.77881 2 2527
-8.2231 -0.45686 -0.19121 1 1654
-8.1613 -8.7704 1.6837 0 691
-8.1417 4.1002 1.066 0 4249
-8.0823 -7.128 2.0304 2 891
-8.0382 -11.784 1.3308 0 253
-8.037 -7.6884 2.0956 2 800
-8.0336 -11.074 1.5999 0 337
-7.9841 9.3449 2.0194 0 7724
-7.9735 -0.35371 0.74462 2 1691
-7.9644 12.406 2.4221 0 9016
-7.9566 11.854 2.6899 2 8818
-7.9563 -0.23614 -1.1187 1 1735
-7.9517 -10.259 1.5179 0 430
-7.9053 4.9149 1.0886 0 4957
-7.8947 3.7453 0.81522 0 4074
-7.8734 1.4977 1.3167 0 2626
-7.8663 -7.7518 1.8145 2 775
-7.7563 -7.4198 0.75058 1 796
-7.7171 0.12931 -1.0847 0 1892
-7.713 -1.0854 1.4675 0 1430
-7.7004 8.5521 0 0 7462
-7.632 2.5878 1.1326 2 3322
-7.5288 -12.378 2.3803 1 131
-7.5268 10.548 2.129 0 8545
-7.4935 10.246 2.0855 1 8438
-7.4871 -12.232 2.7021 0 137
-7.4722 -6.4749 0.46108 1 909
-7.4644 -6.355 1.1464 1 933
-7.4535 0.92971 1.2341 0 2351
-7.4373 9.0157 -0.81727 0 7867
-7.4292 -11.599 1.2851 1 169
-7.3883 -11.325 1.5813 0 191
-7.3792 10.59 1.814 0 8652
-7.3784 4.6177 -0.81206 2 4968
-7.3758 3.0642 1.3122 0 3731
-7.3677 -8.6418 2.1396 1 561
-7.3354 12.603 1.3605 1 9388
-7.332 -5.5431 0.2134 0 1086
-7.3259 13.023 -0.69679 2 9492
-7.3095 -6.2584 1.813 2 928
-7.3024 -5.6541 -0.64581 2 1051
-7.2937 10.278 1.1758 0 8566
-7.2814 6.6348 1.152 2 6589
-7.2658 -5.0104 1.0321 1 1211
-7.2193 9.5734 1.4022 0 8298
-7.2122 10.88 1.2178 0 8866
-7.1987 -4.7215 -0.602 1 1264
-7.1737 9.2316 1.0907 0 8157
-7.1552 -11.318 0.31089 1 156
-7.1515 10.727 0.90153 1 8837
-7.1501 11.065 2.4821 0 8987
-7.1447 -1.3888 1.1958 0 1300
-7.1337 11.934 2.6195 0 9303
-7.0679 -5.4077 -0.83027 0 1066
-7.0354 11.242 1.5508 2 9123
-7.0308 9.3235 -0.54456 0 8288
-7.0271 -5.5716 1.2604 0 1021
-7.0096 7.1356 0.93319 0 7079
-6.9982 -6.7345 0.67915 0 790
-6.9741 9.4767 1.9331 0 8412
-6.9695 -6.4787 0.44375 0 824
-6.9693 -11.024 2.4573 0 162
-6.9493 5.9395 0.63925 1 6294
-6.9379 -4.641 0.97613 0 1246
-6.9351 10.212 2.0281 2 8764
-6.921 -7.5688 1.1994 2 667
-6.9165 -9.0268 2.1426 0 416
-6.8976 0.69699 0.81073 2 2247
-6.8439 -5.5599 0.82265 0 988
-6.7962 -11.857 1.5982 0 76
-6.7889 -8.4527 1.5237 2 480
-6.7796 3.5851 1.26 2 4409
-6.7536 -12.761 1.6884 0 19391
-6.7458 -0.7507 -0.47462 2 1498
-6.7369 -12.761 2.3709 0 4
-6.7014 0.99436 1.2764 1 2459
-6.6946 -4.7033 1.1498 0 1186
-6.6085 2.7454 1.3483 0 3733
-6.5831 -1.319 1.1031 0 1297
-6.5573 -5.6822 -1.2194 0 907
-6.5342 -12.039 0.31803 1 25
-6.5283 2.0271 1.2879 0 3183
-6.501 1.9158 0.9525 0 3103
-6.4819 -11.383 1.5318 0 69
-6.4783 12.692 1.3295 1 9819
-6.4259 13.545 -0.34807 2 10039
-6.4107 -9.6966 1.9098 0 211
-6.4008 -12.048 2.2415 0 9
-6.3911 -12.791 2.694 0 19335
-6.3625 9.5438 1.8845 0 8844
-6.3582 8.2325 0 0 8180
-6.3332 13.054 2.3838 0 9986
-6.3004 2.8368 -1.4687 2 3931
-6.2872 -13.551 1.7469 0 19287
-6.284 -11.739 2.1877 1 15
-6.2812 0.37977 0.58708 1 2073
-6.268 10.486 2.0071 0 9301
-6.2546 7.7182 1.1617 1 7968
-6.228 7.4619 0.45326 0 7822
-6.2143 7.106 1.7786 2 7611
-6.2003 -13.158 2.7406 0 19295
-6.1774 12.638 2.6503 0 9964
-6.1669 -13.608 0.6967 1 19274
-6.1653 6.1309 1.0168 0 6979
-6.1542 -12.782 0.32936 1 19305
-6.1357 -8.9946 1.7888 0 256
-6.1149 11.395 1.5123 0 9658
-6.0949 8.6432 0.9867 0 8594
-6.0939 -9.8246 1.8994 0 146
-6.0722 8.3485 0.23967 0 8457
-6.0452 5.8766 0.39316 0 6874
-6.0393 11.493 2.4462 0 9734
-5.9935 11.652 1.8415 0 9799
-5.9721 -0.6646 0.8445 2 1504
-5.9577 -7.2402 1.5405 0 514
-5.8963 8.0122 0 1 8401
-5.8708 11.842 0.61639 1 9910
-5.8668 4.2938 0.50839 0 5593
-5.856 1.9287 0.86649 1 3270
-5.8025 -8.1951 1.4112 2 307
-5.7791 3.6168 0.79726 0 4984
-5.7766 6.0512 0.19423 0 7208
-5.7009 -5.4861 1.2999 2 794
-5.6635 12.497 2.2541 0 10181
-5.6383 12.528 0.96069 1 10194
-5.6081 -12.455 2.5736 0 19272
-5.6034 5.3192 1.4557 2 6779
-5.5992 -12.541 2.2564 0 19268
-5.5799 -13.88 1.7495 0 19216
-5.5689 12.003 0.92525 1 10108
-5.556 -8.9574 1.9859 1 147
-5.5221 11.297 1.4705 0 9959
-5.4441 1.2169 0.12952 0 2779
-5.4346 13.526 1.3599 0 10467
-5.409 6.3691 1.3728 0 7753
-5.3204 -9.8522 2.1096 2 19409
-5.2954 -7.3423 1.4873 1 330
-5.2768 -9.6985 0.77206 0 19410
-5.2197 -14.028 1.0466 1 19187
-5.216 5.8584 1.4779 1 7529
-5.2138 -6.5242 0.584 0 469
-5.1807 -13.005 1.3061 0 19211
-5.1498 9.2146 0 0 9516
-5.1375 -13.454 1.3436 0 19198
-5.1247 8.038 0.66659 0 9036
-5.0638 -8.1132 1.5713 1 150
-4.7299 -8.5435 1.142 1 41
-4.7267 -9.8831 2.0641 0 19303
-4.723 -7.4222 1.2364 0 166
-4.5881 -6.3243 1.2837 0 338
-4.5855 -9.7315 0.75225 0 19293
-4.5849 -6.6761 0.75558 1 260
-4.535 -6.731 1.1407 0 236
-4.5259 7.4732 1.4354 2 9254
-4.4065 -7.3861 0.8024 1 109
-4.1422 -9.4992 1.7026 1 19254
-3.8193 -3.528 0.48508 2 832
-3.2948 4.0659 -0.48824 0 7950
-3.2376 -9.917 1.7139 0 19160
-3.2154 -9.571 1.6588 0 19165
-3.138 -10.648 1.8239 0 19153
-3.1276 -5.0759 0.97953 0 142
-2.818 -8.9868 1.7745 0 19156
-2.8014 7.152 1.2619 0 10518
-2.7985 7.0826 0.53252 0 10494
-2.6669 -6.5776 0.83001 0 19218
-2.3219 -7.879 0.96057 0 19152
-2.2219 -5.6697 0.56813 0 19206
-2.1352 -6.6785 0.65415 0 19158
-2.1037 7.4591 1.2733 0 10989
-1.9235 9.6523 1.617 0 11217
-1.8713 -5.7938 0.712 0 19159
-1.863 -5.8835 1.1628 0 19157
-1.8561 -5.2677 0.9176 0 19168
-1.5882 -7.421 0.70802 0 19144
-1.4581 -10.481 1.7386 0 19136
-1.3832 -5.015 0.8547 1 19148
-1.2891 6.3758 1.0687 0 11209
-0.95728 -5.0373 0.35855 0 19142
-0.94217 5.9961 0.56627 1 11284
-0.90353 -7.2539 1.201 0 19131
-0.89041 -8.7965 1.4526 0 19127
-0.81294 -6.8481 -0.16011 0 19130
-0.76145 -5.9771 -0.28099 0 19132
-0.75407 9.3517 1.0972 0 11320
-0.73298 9.0902 1.4983 0 11321
-0.67044 10.627 0.99339 0 11323
-0.55085 5.9606 -0.55847 0 11318
-0.39252 8.5779 1.4108 0 11324
-0.29428 -6.0386 0.56404 1 19108
-0.20842 8.2336 0.7684 0 11328
-0.19496 5.2667 0.24577 0 11327
-0.10004 -9.0979 0.84885 0 19081
-0.06963 6.3321 -0.59079 0 11329
-0.015506 6.8343 -0.63761 0 11331
0.079167 -6.2996 0.88542 0 19070
0.10358 5.7055 -0.13249 0 11334
0.2718 -7.5935 1.4316 0 19061
0.61893 5.1523 0.36287 0 11342
1.0011 -4.9117 -0.11638 0 19039
1.2496 5.9608 1.0006 1 11367
1.3718 -9.1677 1.523 0 19043
1.5801 5.9636 -0.86705 0 11387
2.0779 6.6551 0 0 11437
2.082 -4.7162 0.97131 0 19015
2.1502 5.467 1.1068 0 11542
2.1915 -6.8794 0.16763 0 19028
2.3056 -4.9852 0.38408 0 19013
2.48 4.3621 0.58679 0 11780
2.6409 6.2307 1.1118 0 11581
2.7063 4.6969 -0.37906 0 11790
2.7496 -6.3784 1.3087 0 19017
2.8196 7.7594 0.19167 0 11503
2.9079 6.0585 -0.15602 0 11649
2.9086 10.488 1.7882 0 11400
3.0439 -4.3278 0.49363 2 18858
3.1925 -5.4284 1.0347 1 18981
3.2012 6.16 -0.16118 0 11705
3.2452 -4.2139 0.87383 0 18784
3.4902 -5.9776 0.64578 0 18983
3.5737 3.823 -0.36594 0 12610
3.5824 6.9946 1.2911 0 11695
3.8854 -7.3196 1.3615 0 18993
4.0254 -9.4924 1.9426 0 19018
4.2256 5.079 0.77263 1 12360
4.237 3.4446 -0.12678 0 13161
4.5031 -14 2.4162 0 19027
4.5896 -3.0137 0.38394 0 18062
4.6255 -3.0778 -0.51834 1 18082
4.648 2.0066 0.11754 0 14527
4.7296 -6.2559 0.91713 0 18798
5.034 2.2255 0.25667 0 14488
5.0515 0.05202 -1.3225 1 16354
5.0541 1.359 -1.3701 0 15072
5.0694 -3.3732 0.42579 0 18087
5.164 -5.6197 0.8925 0 18618
5.2996 4.0636 -0.15505 0 13296
5.6254 -9.8265 1.0564 0 18987
5.9471 2.9031 -0.46276 0 14308
6.1009 -6.265 1.4367 0 18576
6.2047 5.3218 0.95592 0 13057
6.2329 0.40853 1.0262 0 16073
6.2361 2.7987 -0.47797 0 14458
6.4436 4.3169 1.2743 0 13602
6.4714 -1.3992 0.77426 0 16838
6.4845 10.269 1.1331 0 11907
6.5519 -5.2622 0.78401 0 18351
6.6533 1.2403 0.79145 1 15442
6.7112 -3.1996 1.0449 0 17507
6.7792 10.596 0.87963 1 11924
6.7928 6.2136 0.85888 1 12917
6.8424 -0.32507 0.15904 0 16559
6.8435 6.5215 1.5531 0 12836
6.8916 10.436 2.3562 0 11977
6.8992 -2.74 0.86811 1 17236
6.9256 0.55358 0.97644 0 15997
7.0419 11.371 2.5199 0 11885
7.0454 7.4477 1.1989 0 12637
7.0915 4.7205 0.79478 0 13614
7.1632 11.635 1.5978 0 11874
7.2062 -3.8026 1.1451 0 17698
7.2343 3.6069 1.3281 0 14274
7.2945 1.5146 1.224 1 15340
7.2951 9.6529 1.1288 0 12184
7.3259 8.1162 1.2786 0 12540
7.3529 10.4 0.89065 1 12070
7.3633 -9.4484 0.27811 1 18769
7.3654 -8.9572 1.9052 1 18720
7.4047 -1.8023 0.71099 0 16876
7.4488 1.889 0.71694 1 15131
7.4511 5.4734 1.7419 2 13399
7.4587 -0.59487 1.4097 0 16665
7.4601 -9.8676 1.1541 1 18796
7.4651 0.35988 1.2279 2 16175
7.4828 -8.9908 0.54549 1 18705
7.4897 4.7696 0.82841 0 13712
7.4962 7.9242 2.0552 0 12642
7.5097 1.3553 1.0725 1 15470
7.5122 -8.4167 2.1255 0 18646
7.5141 -9.2494 1.6748 0 18733
7.5406 -8.2551 0.78183 0 18622
7.5705 11.833 2.3079 0 11929
7.5769 -3.4786 1.5708 0 17435
7.6217 11.913 0.65953 1 11923
7.6439 -7.8494 1.0222 0 18575
7.644 9.5823 2.0139 0 12289
7.6463 9.4694 1.1355 1 12308
7.6505 8.282 1.8524 0 12596
7.696 -8.5743 1.8929 0 18640
7.6973 11.731 2.6436 1 11968
7.7442 2.5222 0.75986 1 14861
7.7568 -10.316 2.1205 0 18808
7.7604 3.5383 0.79571 0 14436
7.7808 -7.0305 1.2263 0 18456
7.8077 -4.351 0.62502 0 17793
7.8563 4.7168 1.0716 0 13843
7.8633 -1.9387 0.94709 0 16880
7.8698 10.227 1.509 0 12214
7.8982 9.9544 1.7859 0 12277
7.92 6.8702 1.2261 1 13032
7.9372 -7.871 1.571 0 18526
7.943 10.011 2.4077 0 12280
7.962 -8.9741 0.55947 1 18648
7.9725 11.626 2.3161 1 12027
7.9756 -9.8737 0.29468 1 18736
7.9791 -9.9988 1.7978 0 18752
7.9939 -4.1277 1.0521 2 17660
8 11.109 1.9239 0 12104
8.0047 11.322 2.2781 0 12076
8.0094 -8.5143 0.81741 0 18601
8.0147 -4.873 0.43742 0 17940
8.0229 -3.7668 1.4562 0 17477
8.0445 -10.507 1.2345 0 18786
8.0501 12.506 1.7392 0 11936
8.0579 -8.7201 2.237 0 18615
8.0862 -9.6061 1.4684 0 18696
8.1244 -10.676 1.8855 0 18793
8.1512 9.5708 2.0654 0 12431
8.1596 -1.0091 0.19089 0 16738
8.2207 -7.2986 0.76872 0 18440
8.2584 12.115 1.3679 0 12015
8.2825 7.0614 1.7882 0 13072
8.3095 5.5313 1.64 2 13617
8.3122 9.6468 2.3992 0 12458
8.3307 -9.7782 1.8054 0 18686
8.3333 10.955 1.6096 0 12195
8.3487 -4.2521 1.7652 0 17640
8.3596 -10.476 2.2019 0 18753
8.3643 11.128 2.6229 1 12179
8.3778 11.771 2.3738 1 12088
8.3812 2.6474 1.656 0 14897
8.387 -10.7 1.5899 0 18765
8.4074 0.039623 0.58791 0 16377
8.4097 7.1294 0.77095 0 13079
8.4257 0.039709 1.5875 1 16383
8.4551 -10.531 1.898 0 18746
8.4589 -8.787 1.4263 0 18587
8.465 -9.9957 0.30411 1 18690
8.4654 -7.4737 0.78964 0 18435
8.4751 -4.4062 1.3425 0 17673
8.4827 -4.4102 0.66855 0 17670
8.5291 11.774 1.0166 1 12110
8.5434 5.51 1.4288 2 13688
8.5532 -10.161 0.61937 1 18694
8.5568 0.28835 1.0012 1 16261
8.5626 -9.7603 0.60549 1 18661
8.5665 -7.2572 1.0474 2 18403
8.5789 -4.1195 0.88786 1 17522
8.6072 -10.408 1.5794 1 18713
8.6354 -1.1691 0.81299 1 16758
8.6472 -5.6048 1.4482 0 18042
8.6495 6.0857 1.9926 0 13494
8.667 -2.5131 0.63102 1 16949
8.6742 7.2219 1.5863 0 13120
8.6871 -8.4125 0.28076 1 18502
8.7036 2.3908 0.63116 0 15045
8.7103 -4.0303 0.44757 0 17442
8.7169 6.803 1.554 0 13261
8.7176 -8.6933 2.3196 0 18533
8.7226 -10.12 1.2464 2 18677
8.7472 11.16 1.6582 0 12249
8.784 -1.3708 0.62167 0 16783
8.7929 -1.3722 1.0407 0 16785
8.8782 -10.862 1.3088 0 18724
8.8896 6.4161 0.76662 0 13432
8.9042 -7.2803 2.167 0 18373
8.9118 -4.8005 1.4226 0 17733
8.9435 1.0301 1.0528 0 15814
8.9481 2.406 0.43211 0 15070
8.9647 12.005 1.3978 0 12163
8.9706 -2.9442 1.5512 2 17041
8.9831 -2.3818 0.21577 0 16908
9.0002 -8.7157 1.4651 0 18505
9.0029 9.3 1.2076 0 12679
9.085 -4.8938 0.96273 2 17731
9.1151 11.558 1.0293 1 12260
9.1254 -6.6178 0.78825 0 18230
9.1281 -5.8827 0.75937 2 18028
9.1537 -8.127 1.142 0 18441
9.1824 -4.7739 1.7003 1 17674
9.2202 -6.3677 1.0454 1 18148
9.2353 8.4005 2.3522 0 12937
9.243 4.2494 1.9167 1 14427
9.2644 -5.0973 1.4861 0 17769
9.2717 -11.077 1.3477 0 18700
9.3576 -4.6635 -1.4694 0 17594
9.381 -5.7037 2.0685 2 17945
9.3919 5.903 0.77569 1 13732
9.3959 2.0057 0.44804 0 15307
9.4342 -4.3652 1.9585 1 17450
9.4528 -1.1975 1.3391 0 16744
9.4568 -0.067673 1.3291 0 16420
9.4681 -10.125 2.6118 0 18608
9.4798 5.4336 1.5356 0 13972
9.4995 5.929 1.5738 0 13747
9.5089 -8.2952 0.29297 1 18425
9.5277 -4.009 0.48205 1 17304
9.5296 -9.3451 2.1928 2 18514
9.5379 -10.26 0.65329 1 18609
9.5494 1.8389 1.8323 0 15416
9.562 0.12684 1.1183 2 16340
9.5743 11.111 2.4098 1 12457
9.5788 -4.5668 1.7434 1 17508
9.5962 -9.132 2.4959 0 18494
9.5963 -11.4 1.3902 0 18695
9.6148 5.1489 1.0175 2 14119
9.6172 11.425 2.4535 0 12397
9.6176 -3.8858 0.96775 1 17256
9.6451 -10.622 1.3386 1 18627
9.6501 -1.6495 0.68459 0 16797
9.6534 -10.148 0.97938 2 18594
9.6918 4.7606 1.5175 0 14301
9.7085 1.3472 1.8467 2 15691
9.744 -10.243 2.6636 1 18599
9.7603 -3.9117 1.9811 0 17248
9.7694 7.1344 1.7001 0 13409
9.777 1.1572 0.91852 0 15798
9.7871 5.6461 1.0541 1 13954
9.7913 -4.2533 1.2484 0 17351
9.7959 -10.112 1.3135 2 18583
9.7981 1.594 0.92613 1 15563
9.801 7.5152 1.7358 0 13304
9.8019 -5.65 0.5276 1 17852
9.8142 -10.495 2.0194 0 18606
9.831 4.5885 2.0441 0 14400
9.8412 -4.3118 0.50105 1 17360
9.8523 -3.9806 0.74305 0 17255
9.8831 7.0861 1.998 1 13452
9.922 -0.93616 1.4006 0 16697
9.9359 4.3574 1.5248 1 14506
9.9564 1.0324 1.1706 0 15875
9.9652 -10.72 1.3655 0 18610
9.9674 2.008 1.6705 0 15371
9.9691 -2.8304 1.7026 1 16939
9.9779 -4.407 1.7921 2 17375
10.065 10.044 1.6628 0 12749
10.067 -5.127 1.3211 0 17638
10.078 6.9624 1.1428 1 13529
10.102 1.4918 0.9527 0 15638
10.186 -6.355 1.1201 0 17980
10.198 9.9384 2.0013 0 12792
10.226 0.55205 0.23777 0 16125
10.227 1.8162 1.2147 1 15485
10.283 1.6103 0.4854 1 15591
10.306 6.8163 2.0301 0 13632
10.345 5.6568 1.1 0 14074
10.369 -9.1031 1.2873 2 18430
10.37 1.7149 1.7269 1 15550
10.374 -9.5391 1.3148 0 18467
10.413 -4.4911 0.79299 0 17337
10.426 -9.6412 0.66223 1 18471
10.427 -4.6775 1.0662 0 17395
10.441 -2.7996 1.5192 0 16914
10.516 -9.8959 2.0294 0 18485
10.535 9.6367 2.0066 0 12921
10.536 1.8085 2.0141 1 15521
10.566 1.6848 0.2484 0 15575
10.568 5.9375 1.1309 0 14015
10.59 -9.2967 1.9804 0 18432
10.616 5.025 2.2129 0 14372
10.623 -3.2822 1.3002 2 16992
10.647 -4.5918 1.9049 0 17341
10.664 -4.7835 0.81727 0 17394
10.694 7.6226 1.2252 0 13461
10.704 -3.3772 0.7849 0 17007
10.717 0.98477 0.50189 1 15936
10.728 -9.1982 2.6625 0 18416
10.747 -4.342 0.26911 0 17252
10.751 -8.7904 1.624 0 18371
10.767 1.4003 1.5259 0 15736
10.829 -4.9718 1.9578 2 17433
10.911 -4.7805 1.1114 0 17362
10.915 -3.8287 0.26855 0 17091
10.917 1.3559 0.25541 0 15762
10.937 1.842 1.8222 0 15536
10.956 -7.4232 1.5476 0 18121
11.025 -3.3035 0.53673 1 16970
11.063 1.0497 1.8258 1 15924
11.355 -8.485 1.9921 0 18274
11.363 -8.8589 2.7147 0 18322
11.401 -2.8109 1.9292 0 16882
11.43 -3.1377 1.3861 0 16921
11.457 -2.3351 1.3673 0 16826
11.479 -3.0072 1.1071 1 16903
11.511 -8.5025 1.0007 1 18254
11.555 -3.4272 0.27983 1 16962
11.6 -3.1842 0.56096 1 16919
13.503 5.0109 2.7136 0 14714
-7.2276 11.336 -1.5722 0 9023
0.29431 4.362 -1.8261 1 11338
2.0507 3.5362 -1.7074 0 11800
3.3976 5.1449 -1.7679 0 11972
4.5378 2.3622 -1.9977 1 14180
6.2502 9.3506 -1.8478 0 11986
