VERSION .7
FIELDS x y z intensity index
SIZE 8 8 8 8 8
TYPE F F F F F
COUNT 1 1 1 1 1
WIDTH 697
HEIGHT 1
VIEWPOINT 0 0 0 1 0 0 0
POINTS 697
DATA ascii
-4.8977 -0.78799 -0.11517 0 1202
-4.2149 1.008 0.81652 0 1792
-4.0583 0.95785 0.29158 0 1787
-3.8789 1.2193 0.57144 1 1933
-3.8365 2.388 -0.316 0 3356
-3.7974 -3.1159 0.80704 0 941
-3.7401 -0.28319 0.26228 0 1379
-3.6471 0.70695 0.086251 0 1747
-3.4701 2.3903 0.29465 0 3723
-3.3937 1.6369 -0.80088 1 2660
-3.1865 -2.6928 0.38922 0 912
-3.1792 0.98838 -0.4679 1 1923
-3.0673 0.59455 -0.21848 0 1746
-2.9309 3.4548 -1.4137 1 6048
-2.8673 3.8778 -0.2249 0 6554
-2.8335 3.3804 -0.41151 2 6082
-2.7502 2.5682 -0.26312 1 5007
-2.6897 2.4968 0.17115 0 4987
-2.5921 3.1456 0.28502 0 6158
-2.5858 -2.5732 0.17012 0 778
-2.5665 3.23 -0.19239 0 6294
-2.4598 2.6396 -0.16826 1 5652
-2.42 3.7724 0.73635 0 6984
-2.3227 3.7666 -0.30944 1 7070
-2.2047 3.3512 0.75579 0 6916
-2.1177 4.2124 0.77461 1 7471
-2.0189 3.09 0.69543 0 6935
-1.9406 -3.1631 0.25949 0 278
-1.6844 2.8033 0.61619 0 7139
-1.5921 -3.0545 0.40281 0 149
-1.5689 -4.6699 0.57611 0 53
-1.4984 3.612 0.27345 0 7720
-1.4351 3.798 -0.57061 1 7786
-1.3141 -4.7162 0.92243 0 42
-1.16 4.2608 0.51641 0 7838
-1.1059 4.1128 -0.69971 0 7839
-1.0946 3.0008 0.37354 0 7806
-1.0536 4.3719 0.20972 0 7843
-0.90108 -4.5259 -0.10714 1 27
-0.88767 4.6139 -0.32855 0 7853
-0.80803 -3.666 0.70728 1 32
-0.78164 4.1929 -1.4412 0 7855
-0.68752 3.5736 0.25447 2 7854
-0.53412 -4.0902 0.095768 1 19
-0.5329 -3.4543 0.57423 0 22
-0.52478 -4.4206 0.83874 0 17
-0.44641 -3.2716 0.23089 0 20
-0.44078 -4.0118 0.66307 0 14
-0.30519 -4.7711 -0.22295 0 18124
-0.16603 -4.7544 0.44384 2 18102
-0.070065 -3.9743 0.092286 0 18083
0.20138 3.5684 -0.5872 0 7940
0.28871 3.7521 -0.98515 1 7957
0.45426 -4.2227 0.49666 1 18042
0.47364 -3.4487 0.08082 1 18040
0.53997 -3.1261 0.37099 0 18036
0.88463 4.6773 0.89688 0 8063
1.0704 3.894 0.47227 0 8132
1.1098 -3.7586 0.36562 0 18001
1.2487 3.338 -0.93298 2 8175
1.2961 -3.1137 0.63544 0 17944
1.3576 3.1967 -0.080634 0 8211
1.4629 -3.487 0.71247 0 17942
1.5024 3.6577 -1.4392 0 8207
1.5042 3.1536 -0.74266 0 8237
1.6 4.3138 -0.21456 1 8172
1.8096 4.5543 -0.57309 0 8199
1.856 -4.1491 0.6388 1 17923
2.046 3.9337 0.83541 0 8276
2.2224 -3.9995 0.86207 0 17798
2.2541 -3.3557 0.37714 0 17624
2.2839 -2.1275 0.43867 0 16960
2.3243 2.5259 0.40142 0 8900
2.3335 4.1838 -1.2541 1 8322
2.3832 3.6517 -0.92687 1 8460
2.3966 -1.8833 -0.42837 1 16720
2.5163 3.489 0.60457 0 8563
2.5304 2.9335 0.63649 0 8793
2.734 -2.5335 0.52385 0 16956
2.7474 1.8143 0.15354 0 10032
2.9026 3.6978 0.77234 0 8647
2.9471 1.3412 -0.30208 0 11072
2.9653 2.228 0.086112 0 9650
3.0067 3.2869 0.4156 0 8887
3.0236 3.049 0 1 9014
3.0342 -1.9584 0.42232 1 16270
3.0643 -3.8468 0.80801 0 17350
3.2412 1.4526 0.41535 1 11135
3.3395 3.6101 -1.4102 0 8908
3.3786 1.162 0.50214 0 11817
3.482 0.22639 -1.0006 1 13512
3.5096 2.6533 -0.93519 0 9639
3.655 1.1862 -0.2687 1 11939
3.7169 1.8233 -1.3989 0 10879
3.7888 0.10186 0.44323 0 13736
3.9013 -2.9559 0.22826 0 16658
3.9124 0.70254 -0.55864 1 12765
3.9582 0.93861 0 0 12443
3.9586 -1.6836 -0.60457 1 15366
3.9813 0.44377 0 0 13183
4.1771 -1.0601 0.30135 1 14920
4.1803 1.603 -0.31307 0 11546
4.2104 2.5569 0.80931 0 10285
4.3528 0.1041 0 1 13751
4.4031 -1.2269 -0.31962 1 14975
4.4044 -1.6074 0.32786 0 15183
4.427 0.79495 0.63212 0 12780
4.5091 -0.76022 0.75127 1 14717
4.5151 0.068564 0.63463 0 13806
4.785 1.266 0.8132 0 12291
4.9739 -0.40106 0.58354 0 14307
-12.799 -0.74024 -1.4993 0 1408
-12.523 0.57962 -1.4661 0 1569
-12.02 0.90588 -1.4096 1 1613
-11.755 9.2003 -1.3926 0 4251
-11.617 8.1042 1.3215 0 3774
-11.406 6.2991 1.8312 0 3007
-11.386 7.3212 1.9025 0 3480
-11.348 -0.13469 -1.3271 1 1480
-11.308 5.1726 2.043 1 2549
-11.152 7.2586 2.507 0 3526
-11.11 6.8266 1.2165 0 3325
-11.001 5.4657 2.3144 1 2732
-10.835 7.4634 1.8491 0 3729
-10.824 5.9382 1.4438 0 2983
-10.776 10.421 2.8243 0 5181
-10.755 8.9827 1.6387 0 4536
-10.72 6.0827 0.86191 1 3077
-10.663 9.8981 1.7014 0 4992
-10.635 10.167 2.4172 0 5128
-10.585 10.297 2.0753 1 5204
-10.574 8.4288 2.5477 0 4345
-10.486 6.573 2.0333 0 3394
-10.312 8.2643 2.1711 0 4366
-10.286 5.9963 1.9561 2 3164
-10.207 8.3815 2.4884 0 4469
-10.187 10.993 1.048 1 5682
-10.181 5.9351 1.0995 0 3158
-10.175 -7.5872 2.3914 0 1030
-10.083 -7.2537 1.4526 0 1058
-10.07 2.9732 1.9782 0 1886
-10.055 -0.64492 -1.1782 1 1396
-10.044 9.2131 2.2392 0 4944
-10.026 3.2132 0.98224 2 1944
-9.9316 -6.8847 0.84503 1 1088
-9.9062 -10.384 2.3579 0 731
-9.8242 6.5619 2.2259 0 3619
-9.8162 10.063 2.3096 2 5440
-9.806 -7.538 1.7383 0 1002
-9.7985 0.31477 1.8471 0 1550
-9.7591 6.4741 0.54614 1 3584
-9.7442 -9.0485 0.62012 1 833
-9.7346 7.5292 1.1481 0 4213
-9.7312 -7.1666 2.277 0 1042
-9.7199 2.3246 1.642 2 1791
-9.7146 7.6969 1.7419 0 4316
-9.6518 -8.7487 2.4544 0 858
-9.6513 -11.169 1.7262 1 613
-9.5728 8.7811 0.90837 1 4937
-9.5626 11.141 1.3698 2 6002
-9.5622 8.2743 0.88423 1 4689
-9.5337 10.536 0.99361 1 5782
-9.4749 -10.409 1.9782 0 673
-9.4514 10.199 1.9543 0 5688
-9.4498 7.2668 1.394 0 4192
-9.4182 -0.87701 0.88247 1 1350
-9.4093 9.1534 2.4733 1 5208
-9.4054 3.9769 0.9527 0 2386
-9.3916 -8.9217 1.5148 0 818
-9.3885 10.438 2.6451 0 5818
-9.3459 9.4674 1.5557 0 5380
-9.3455 0.27084 0.87226 1 1545
-9.2167 -11.729 1.3917 1 509
-9.1825 3.8223 1.1631 1 2353
-9.1345 -8.2798 0.57493 1 852
-9.1331 7.1484 2.1852 1 4269
-9.0879 5.9153 1.5239 1 3522
-9.0365 8.1966 1.7146 0 4893
-9.0297 10.896 2.6662 0 6144
-9.0133 -7.8434 1.1147 2 888
-8.9689 -8.2763 1.7152 1 840
-8.9554 -7.5251 0.54549 1 918
-8.9503 -10.67 1.6287 1 582
-8.9424 -10.537 1.9423 1 595
-8.8997 7.6091 1.0924 1 4638
-8.8536 -9.7265 2.4781 0 675
-8.8488 12.108 1.3991 0 6596
-8.822 -10.957 1.3124 2 538
-8.8112 6.7342 0.51717 1 4161
-8.7637 8.1838 0.83847 1 5014
-8.7586 -9.3433 2.4129 0 717
-8.7407 4.7596 1.6351 0 2969
-8.7292 10.052 0.93097 1 5955
-8.7011 9.0229 1.7617 0 5491
-8.68 -10.29 1.8919 0 588
-8.6741 8.292 1.1195 0 5123
-8.666 -11.294 2.6821 0 489
-8.6147 -6.5035 1.517 0 1016
-8.6104 7.5831 0.53506 1 4766
-8.5557 -8.3171 2.2481 0 801
-8.553 2.8502 1.6986 1 1987
-8.5328 8.0184 1.0924 0 5042
-8.5325 9.8259 2.138 0 5962
-8.5316 11.26 2.6617 0 6484
-8.5312 -7.6465 2.1585 0 867
-8.5179 11.655 2.7199 0 6602
-8.5114 7.1545 1.8268 0 4565
-8.4902 8.0203 1.9189 2 5075
-8.4612 0.047255 0.59167 0 1507
-8.4573 3.2076 1.2712 2 2197
-8.4524 -8.6102 1.1257 0 757
-8.443 -9.3868 0.88284 1 650
-8.4429 3.4575 1.719 1 2325
-8.4269 11.74 1.69 0 6652
-8.4243 11.815 1.0147 1 6670
-8.3807 7.5566 0.78909 0 4864
-8.3739 1.9271 1.619 2 1784
-8.3723 -10.716 1.2687 0 504
-8.3656 -10.39 2.1915 0 540
-8.3328 -9.5926 2.394 0 621
-8.3199 -9.6864 1.4932 0 607
-8.2999 -0.023178 1.5638 1 1496
-8.286 6.9208 2.0341 2 4542
-8.2801 -11.322 1.6403 1 446
-8.2478 -11.344 2.6425 0 444
-8.233 0.64361 0.77045 1 1619
-8.2162 6.0531 1.6767 2 4004
-8.2 -0.6929 1.5505 0 1367
-8.1817 9.7023 1.4842 0 6073
-8.1794 6.8317 1.7509 0 4540
-8.1535 -5.724 1.4001 0 1079
-8.1187 -0.94654 1.1487 2 1278
-8.1101 -11.943 2.0289 1 375
-8.0811 7.1596 1.2626 0 4794
-8.0739 2.2315 1.5782 1 1851
-8.0144 -1.2436 1.1398 0 1210
-7.9645 -10.38 1.2206 0 486
-7.9473 -9.4746 2.33 0 585
-7.9007 -5.2731 0.88619 0 1125
-7.8871 -5.7072 0.454 0 1052
-7.8504 -5.7141 1.5953 0 1050
-7.8356 8.1709 2.133 1 5521
-7.7941 -8.9725 1.3899 0 618
-7.7287 7.7856 1.0235 2 5352
-7.7271 3.7271 0.59991 0 2653
-7.7158 -8.9294 0.82522 1 611
-7.71 8.085 1.3065 0 5545
-7.7046 -12.647 1.7318 0 273
-7.7007 -9.0739 0.555 1 591
-7.6368 4.0452 1.6282 2 2901
-7.6207 -11.44 2.2583 0 351
-7.6154 4.349 1.6523 0 3106
-7.573 -7.8448 1.2751 1 741
-7.5709 -8.6087 1.0696 0 626
-7.5698 11.96 1.3206 0 7015
-7.564 -8.2114 1.569 0 695
-7.5338 -11.456 1.927 0 339
-7.5029 -12.073 0.33001 1 288
-7.4901 -6.7536 1.1794 1 860
-7.417 6.0169 0.66785 0 4409
-7.4112 -9.8923 2.3288 0 467
-7.3768 7.562 1.9904 1 5442
-7.3183 9.2103 1.3757 0 6303
-7.3161 -4.9162 0.61637 2 1118
-7.2511 5.7451 1.743 1 4320
-7.2387 -9.3186 1.9386 0 501
-7.2034 4.0622 0.57828 0 3059
-7.1965 -7.2015 1.9182 0 777
-7.1694 -6.9306 0.69729 0 803
-7.0386 7.6437 1.7071 0 5714
-7.0313 -11.393 1.8816 1 285
-7.0196 -11.673 2.2379 2 264
-7.0069 -11.652 0.95078 2 260
-6.9236 6.2428 1.0902 0 4867
-6.9052 -9.2708 1.0785 1 458
-6.8811 -13.292 1.0466 1 143
-6.8685 -0.53936 1.1319 1 1377
-6.8637 5.2155 1.4163 2 4145
-6.8222 4.2464 -0.18657 0 3359
-6.777 -13.278 1.3908 1 135
-6.7338 -9.4405 2.1848 0 431
-6.7066 -8.9518 1.0435 1 463
-6.6917 -10.907 1.7984 0 279
-6.6427 -7.9644 0.96756 0 576
-6.6403 -5.748 0.61414 0 894
-6.619 -10.938 0.894 1 266
-6.6094 7.0138 1.3544 1 5607
-6.5955 -5.7739 1.6516 0 887
-6.5234 -10.571 2.0408 0 286
-6.4398 -9.7257 1.3641 0 344
-6.4331 0.97751 0.30344 0 1696
-6.4069 -11.155 1.5044 0 226
-6.3521 -6.2487 1.2523 0 791
-6.3026 -4.3139 1.2548 0 1104
-6.2466 -12.323 1.9417 0 131
-6.2292 -12.565 1.64 0 117
-6.1503 6.3777 1.6693 1 5495
-6.038 -8.6199 1.2307 0 411
-5.9913 -6.1761 1.4137 0 748
-5.9466 -10.354 1.114 0 225
-5.8468 9.1777 1.2725 0 6999
-5.6212 -4.3981 0.83466 1 985
-5.5503 -8.2225 1.3942 1 366
-5.5324 9.325 1.7814 0 7167
-5.4408 -10.147 1.8916 0 165
-5.3373 6.674 -0.19841 0 6271
-5.3174 0.542 0.37376 0 1647
-5.2458 0.98551 -0.75014 1 1737
-4.9519 -5.5677 0.87136 0 639
-4.8895 1.6779 0.36148 0 2008
-4.8623 5.8671 0.89111 0 6138
-4.5438 8.2515 1.1016 0 7311
-4.4359 -8.2143 0.21674 0 167
-4.3264 -2.9248 0.24354 0 1112
-4.2636 -3.911 -0.26981 0 842
-4.2375 -7.6322 0.20268 0 190
-3.9897 -3.6816 -0.37961 0 837
-3.8735 -9.3284 1.6595 0 73
-3.713 7.4438 1.3667 0 7482
-3.6713 -5.5827 -0.46723 2 335
-3.4257 5.3401 0.59191 0 6980
-3.3566 5.5511 1.0658 0 7122
-3.2892 -7.3704 0.94384 1 79
-3.1704 -6.5847 0.51104 0 101
-3.126 -8.5607 -0.21159 0 57
-2.9179 -7.9907 0.3967 0 58
-2.8658 12.048 1.1554 0 7844
-2.8616 9.3364 1.6043 0 7832
-2.8596 4.3765 0.85891 0 6933
-2.836 -7.8345 0 0 56
-2.7315 -4.6334 0.5018 0 246
-2.7285 -9.572 -0.23109 0 45
-2.7235 -6.8929 0.86672 0 62
-2.6569 -6.3421 0.64151 0 75
-2.6244 5.0029 0.66067 0 7401
-2.3276 -6.3126 0 0 59
-2.2914 -7.7804 0.7567 0 50
-2.2675 7.316 1.2584 0 7829
-1.8655 8.8523 1.4863 0 7850
-1.8141 -9.1119 1.0865 0 28
-1.8026 7.9923 -0.38208 0 7845
-1.7917 -5.8972 1.0126 0 52
-1.7845 6.0053 0.58448 0 7836
-1.7265 -9.8718 1.6465 0 24
-1.6696 -7.7946 0.74369 0 29
-1.6332 -9.1688 1.5301 0 26
-1.5888 -6.4103 -0.15333 0 34
-1.5802 5.2639 -0.77241 0 7834
-1.4936 6.8908 -0.49304 0 7847
-1.3912 -4.9395 0.47877 0 44
-1.3316 6.6099 0.62906 1 7851
-1.2804 7.4593 -0.88507 1 7856
-1.217 5.5399 0.93187 0 7846
-1.0526 9.1537 0.85962 0 7865
-0.92484 -11.445 2.1633 0 2
-0.79265 7.4416 -1.2295 0 7867
-0.71906 5.942 -0.41854 0 7863
-0.60315 5.1036 0.84432 0 7864
-0.57053 5.5021 -0.77742 0 7868
-0.42845 6.0066 0.56181 2 7875
-0.32462 -6.961 1.1449 0 18113
-0.24783 -8.4497 0.78865 0 18094
-0.14036 5.0885 -1.3326 1 7899
-0.11638 -5.6984 0.93641 0 18086
-0.10487 6.4605 -1.0616 0 7901
-0.042959 9.1158 1.066 0 7906
0.021317 -7.6337 1.4383 0 18072
0.10166 -8.6934 0 0 18068
0.19487 -7.4416 1.223 0 18061
0.25039 10.173 1.6718 0 7923
0.33913 -6.1427 0.71944 0 18050
0.48643 8.6195 1.0096 0 7944
0.53287 6.4539 -0.7573 0 7959
0.68611 -7.6127 1.4401 0 18043
0.72204 5.2169 0.12227 0 8008
0.75034 7.9675 1.3148 0 7970
0.76687 -12.022 2.2696 0 18045
0.83409 5.548 0.39231 0 8021
0.87259 5.1866 0.8641 0 8045
1.0404 -6.7048 1.1147 0 18039
1.208 6.5882 0 0 8057
1.2461 5.2466 0.5031 0 8098
1.3016 5.2049 -1.4045 1 8111
1.368 5.3396 0.90561 0 8120
1.3986 5.1442 -0.37278 1 8130
1.4074 -5.5256 0.39873 0 18019
1.4278 9.8837 1.8815 0 8014
1.5086 6.7882 0.64876 0 8087
1.5247 -11.101 1.3104 0 18041
1.5642 -7.1803 1.3846 0 18031
1.5934 6.5364 1.1053 0 8106
1.6704 6.011 -0.43626 0 8133
2.04 7.0216 1.2013 0 8138
2.0422 -5.2005 0.91793 0 17951
2.1206 -5.5416 0.41491 0 17953
2.2254 -10.215 1.2226 0 18030
2.2255 5.2403 -0.53116 0 8210
2.273 -7.9532 0.9673 0 18008
2.3389 5.7861 -0.58225 0 8205
2.4317 -7.2175 0.89064 0 17968
2.4382 4.4296 -0.71062 0 8309
2.551 11.478 1.9318 0 8088
2.6034 -7.9558 0.97892 0 17972
2.6288 -5.3684 -0.27876 1 17880
2.7233 5.2359 0.69017 2 8273
2.7522 -11.799 1.9905 0 18022
2.7533 5.484 -0.14247 0 8256
2.8279 -8.4811 1.4688 0 17969
2.8482 8.9353 1.5408 0 8147
2.8519 -7.7933 1.3634 0 17959
2.9468 5.9993 0 0 8244
2.9874 -5.4454 0.57946 1 17804
3.0558 -8.658 1.0737 0 17965
3.0652 -7.1863 0.91364 0 17935
3.0821 -5.0493 0.69179 0 17724
3.1403 6.2114 -0.16159 0 8261
3.1887 6.307 1.1611 0 8263
3.3446 3.9677 0.36287 0 8753
3.3924 4.0501 -0.36943 0 8740
3.422 3.7633 -0.95835 0 8877
3.4647 -3.6269 -0.58656 1 17064
3.5473 -4.4531 -0.53116 0 17341
3.7483 8.225 1.485 0 8221
3.8161 -4.7327 -0.5672 1 17319
3.9121 -7.1813 0.18986 0 17807
3.948 -7.8943 -0.61721 0 17856
3.9739 -4.8431 0.58448 0 17291
4.0683 6.5999 0.54215 0 8398
4.1304 5.7949 0.33186 0 8546
4.1718 -4.5463 0.14326 0 17119
4.2819 -4.8347 0.14994 0 17166
4.4896 -2.9167 1.0087 0 16289
4.5267 -3.4297 -0.66415 1 16656
4.5531 4.1343 0 0 9220
4.5574 5.4738 1.342 0 8736
4.576 7.2358 1.613 0 8428
4.5916 5.9238 -0.87647 1 8625
4.6163 -2.2217 0.59911 0 15607
4.6197 -2.0116 0.11698 1 15408
4.6611 2.794 0.507 0 10318
4.6677 -8.6254 0.91499 0 17813
4.7785 3.7441 0.70991 0 9555
4.8044 -2.226 -0.494 0 15518
4.8575 -3.1557 0.67739 0 16286
4.9241 4.8779 1.1387 0 9055
5.072 5.6787 0.17677 0 8845
5.0857 -0.73829 0.60096 1 14623
5.295 4.9793 0.67811 0 9149
5.3533 5.653 1.0942 0 8946
5.388 -1.3164 -0.12877 0 14900
5.4866 -0.36154 -0.12766 0 14229
5.5755 -7.7051 0.66506 0 17519
5.6049 9.5228 1.8154 0 8365
5.6484 -2.3431 0.42761 0 15338
5.6491 1.5656 0.68552 0 12219
5.6642 -0.14239 0.9309 0 14029
5.7546 5.803 0.76246 1 9020
5.9018 -10.984 1.4582 0 17819
5.9061 -0.66665 -0.83532 1 14453
5.9178 -6.5265 1.0303 0 17136
5.9217 2.3112 1.0444 2 11515
5.9278 -6.7664 1.6949 0 17181
5.9753 1.1983 1.0013 0 12659
6.0354 5.2613 1.3154 1 9314
6.0628 -6.5702 1.4688 2 17115
6.1265 -11.65 1.5392 0 17830
6.1459 -0.33393 0.4304 0 14171
6.1769 -5.5891 1.1707 0 16938
6.1795 -9.552 1.0614 0 17667
6.1958 -10.552 1.431 0 17757
6.2083 4.3633 1.2467 0 9856
6.291 0.92336 0.59321 1 12970
6.3058 -6.1172 1.6553 0 16994
6.3148 -0.23266 -0.29469 0 14082
6.3598 -10.98 0.8873 1 17765
6.3647 2.4406 0.31789 0 11553
6.3822 -10.119 1.9655 0 17695
6.3963 -2.2726 0 0 15159
6.4196 -1.1031 0.6077 0 14722
6.4293 4.8028 -0.74871 0 9663
6.4813 4.4445 -0.54954 0 9915
6.502 -10.938 0.59338 1 17744
6.5093 -11.086 2.4222 0 17759
6.533 -2.9828 1.1799 2 15496
6.5331 -12.593 0.66158 1 17835
6.54 -4.3288 1.2885 1 16331
6.5458 -12.617 1.9977 0 17836
6.5491 -7.0971 1.3572 2 17114
6.5556 4.3556 1.1061 0 10018
6.5965 -11.94 1.2726 0 17801
6.6115 -0.1662 1.2461 0 14031
6.6523 0.56796 1.0969 0 13374
6.6613 3.6349 1.4297 0 10587
6.7076 -10.239 0.85591 1 17653
6.7235 -1.3581 1.2924 0 14810
6.7277 4.359 0.56056 0 10090
6.7376 -5.3882 1.2125 0 16759
6.7394 -6.278 1.5132 2 16961
6.761 8.7226 1.0296 0 8630
6.7798 -10.22 2.3107 0 17643
6.8074 -0.64828 -0.15876 0 14376
6.8135 -7.9187 0.73049 0 17207
6.8402 -0.33095 1.1251 0 14147
6.8437 -10.446 0.58239 1 17652
6.8763 -7.3636 1.4159 0 17099
6.9025 2.7636 1.4009 2 11454
6.9246 -12.622 2.0233 0 17806
6.9258 -12.798 0.33786 1 17812
6.9262 -12.625 1.684 0 17805
6.986 -0.29769 0.8177 1 14114
7.0067 5.49 0.83045 2 9554
7.0933 -9.4509 1.1024 0 17457
7.1014 3.4575 1.11 0 10904
7.1143 3.4637 0.55331 0 10901
7.1333 -11.098 2.1676 2 17679
7.1562 -7.5781 1.2189 1 17084
7.2048 -6.8347 1.6316 2 16975
7.2068 -9.1516 1.3622 0 17368
7.2094 -12.21 0.99152 2 17750
7.2104 -6.642 0.22761 0 16949
7.2493 -12.277 2.0038 0 17753
7.2696 -6.1324 1.7919 0 16854
7.2803 2.5267 1.083 0 11796
7.2863 -6.2561 0.44785 0 16877
7.3009 -10.599 1.5051 1 17592
7.3143 3.3549 0.75075 2 11063
7.3209 -9.6975 1.7077 0 17445
7.3347 -12.168 2.6769 0 17737
7.3462 3.7366 0.57633 0 10783
7.3889 2.8571 0.92642 0 11535
7.39 -5.1746 0.20945 0 16460
7.4104 -4.7556 1.659 0 16260
7.4466 -7.9326 0.50739 1 17089
7.4637 -12.071 2.3316 0 17712
7.4804 3.071 0.56545 1 11385
7.4885 -9.2872 1.113 0 17322
7.4969 -10.054 1.1701 0 17470
7.506 -7.4955 1.2405 0 17016
7.5807 1.0236 1.2568 0 13041
7.6218 1.392 1.0889 1 12759
7.6278 -7.9849 1.2914 0 17068
7.6397 -9.7014 1.152 1 17366
7.6554 -12.138 1.6781 0 17693
7.6684 5.0295 1.7278 0 10061
7.6791 -2.9308 1.5486 0 15238
7.6917 0.58915 1.4534 0 13436
7.7096 -6.2409 1.6296 2 16779
7.8047 3.2552 0.98891 0 11346
7.8116 5.0613 0.43406 0 10088
7.8134 -8.0347 1.0456 1 17044
7.8289 -12.341 2.7536 1 17690
7.8323 -11.231 1.6013 0 17571
7.8602 -10.225 2.1189 2 17403
7.869 -2.2415 0.57214 0 14995
7.8821 6.4011 1.6682 0 9472
7.899 -10.216 1.2048 0 17391
7.9315 -8.3463 0.80513 0 17074
7.9532 -10.991 1.9067 0 17523
8.0288 -12.411 1.7286 0 17668
8.0488 -12.605 2.4571 0 17685
8.0506 -7.1175 0.75142 0 16911
8.0573 5.9795 1.1734 0 9688
8.1189 5.74 1.8734 0 9839
8.1734 -10.198 1.8368 0 17336
8.179 -11.237 0.32268 1 17509
8.183 -7.7626 1.5852 0 16974
8.2239 -5.1728 0.45307 0 16203
8.2337 -9.7987 1.4967 0 17253
8.2529 -10.996 0.96138 2 17456
8.255 -8.1065 1.0794 0 17002
8.3179 -0.74235 0.38944 0 14348
8.324 5.1571 0.68473 0 10221
8.3477 6.4263 1.7308 2 9597
8.4196 -11.782 2.7284 2 17542
8.4213 5.6995 1.1892 0 9959
8.4281 -12.158 2.7873 0 17586
8.4338 -12.166 1.3811 2 17581
8.442 -11.248 2.3105 0 17461
8.4446 -4.7157 1.1311 1 15936
8.5085 -11.906 0.68245 1 17536
8.5341 -11.942 1.0264 2 17537
8.5583 -0.79092 1.6193 2 14369
8.5589 3.0561 1.4931 0 11733
8.5772 2.6731 0.62823 0 12023
8.5833 5.4934 1.92 0 10131
8.5838 5.4559 0.47431 1 10142
8.6753 -9.7301 1.8321 1 17159
8.6907 -9.3654 1.7956 0 17106
8.7016 -1.0314 1.4396 2 14489
8.7035 -8.2565 0.83889 1 16971
8.7035 -1.391 1.0307 2 14685
8.711 -8.9577 1.4612 0 17045
8.7254 5.7228 0.48661 1 10052
8.8129 -6.0185 0.74625 0 16402
8.8172 3.2353 1.0983 2 11665
8.847 -1.5727 1.2629 0 14745
8.8539 -5.9743 1.5011 0 16373
8.9169 3.9328 0.90923 0 11184
8.9294 3.4527 1.5729 2 11538
8.9371 3.7605 1.593 2 11325
8.9667 -2.1378 0.42987 0 14887
8.9803 3.9908 1.8515 2 11164
8.9864 -10.323 0.95706 2 17187
8.9931 -4.9911 0.23879 0 15916
9.0119 4.5187 1.1789 0 10825
9.0165 -0.22666 1.2676 0 14027
9.0398 -10.443 1.9412 0 17201
9.065 5.3269 0.98094 0 10377
9.0925 -7.3603 2.2041 0 16780
9.103 -5.95 0.25249 0 16295
9.1257 -7.4746 1.6578 1 16796
9.1463 -7.9929 1.7071 0 16900
9.1474 2.1388 1.5434 1 12468
9.1763 -9.6058 0.30843 1 17065
9.2085 -1.9422 0.87801 1 14827
9.2224 -10.848 0.33057 2 17229
9.2334 -8.2614 0.86638 1 16923
9.2808 -10.847 2.0063 0 17222
9.3209 3.4794 0.46397 0 11619
9.3253 -8.2445 1.4556 0 16912
9.3269 4.4747 0.48242 1 10939
9.3343 0.33249 1.3127 0 13688
9.4045 -7.4326 0.559 1 16735
9.4066 5.3111 1.2633 0 10487
9.4294 -1.3689 1.5654 2 14625
9.4652 -1.4568 0.66966 2 14662
9.4833 -8.8836 0.90865 1 16963
9.5072 -7.7871 2.019 1 16797
9.5124 -3.661 1.1919 0 15246
9.5363 -6.5125 1.0774 2 16404
9.541 4.5447 0.98596 0 10963
9.5732 2.8357 1.8811 0 12115
9.6118 -0.68898 1.8156 0 14267
9.6201 -0.60693 1.3547 2 14218
9.6669 1.8231 1.3825 1 12725
9.6748 4.885 1.2674 0 10804
9.681 -7.4715 2.304 2 16701
9.6975 -6.7099 2.2218 1 16439
9.7401 0.859 1.3742 0 13351
9.7441 -9.7305 1.9353 0 17017
9.7634 -1.6461 0.46173 0 14714
9.767 -2.2692 0.4676 1 14871
9.8081 -0.21744 1.6118 2 14011
9.816 -10.956 1.7202 0 17149
9.8174 4.957 1.5457 0 10805
9.8238 1.095 1.1559 0 13188
9.8372 -2.2856 1.181 0 14873
9.8466 -7.3288 0.57242 1 16620
9.8675 -10.753 1.3616 0 17121
9.9092 -6.4376 1.1024 0 16285
9.9165 -1.0283 0.69715 0 14419
9.9265 4.2054 1.2607 0 11300
9.9451 3.0709 1.71 0 12045
9.9536 -7.9601 2.0939 0 16760
9.9822 2.5519 0.23921 0 12336
10.053 -6.0812 0.54791 2 16115
10.054 -10.04 1.3256 0 17015
10.066 -10.592 2.4007 1 17077
10.072 3.6599 1.7606 1 11692
10.075 -9.7736 0.65459 1 16990
10.098 -5.9124 1.9224 2 16048
10.129 -10.915 2.4464 0 17107
10.13 5.4887 2.1707 0 10607
10.152 -6.515 0.28006 1 16249
10.163 -2.9911 1.2389 0 15022
10.205 -10.316 2.0394 0 17028
10.215 0.396 0.71486 0 13668
10.218 -2.5288 0.4909 1 14907
10.324 -2.7123 2.0111 0 14944
10.353 -10.043 1.6867 0 16992
10.356 -7.2975 2.387 0 16483
10.38 -4.6278 1.329 0 15448
10.386 -2.5068 0.74709 0 14894
10.406 -0.13985 1.9608 0 13964
10.457 -4.1634 1.0501 0 15285
10.457 -0.26288 0.48782 1 14023
10.462 -3.8846 1.3051 0 15204
10.501 -0.082475 0.24381 0 13929
10.502 -1.7424 0.9932 1 14705
10.611 -7.3423 0.60176 1 16432
10.639 -5.1983 1.9454 0 15640
10.7 -6.2654 2.3362 0 16050
10.713 -0.11593 2.0185 0 13947
10.741 -0.39573 0.50124 1 14084
10.756 -0.20841 1.512 0 13992
10.766 -6.8136 0.2958 1 16218
10.774 -4.7678 1.9357 2 15437
10.808 -6.7141 2.0904 0 16180
10.87 -2.1267 1.0333 0 14795
10.914 -0.62355 1.2784 1 14189
11.027 -5.4258 1.7271 0 15654
11.047 0.0096431 0.77248 0 13881
11.258 -5.9082 2.3955 1 15803
11.278 -6.5166 2.14 2 16017
-12.317 1.325 -1.7411 0 1651
-10.916 -0.31826 -1.5348 0 1449
0.26808 7.4171 -1.9429 0 7929
