VERSION .7
FIELDS x y z intensity index
SIZE 8 8 8 8 8
TYPE F F F F F
COUNT 1 1 1 1 1
WIDTH 720
HEIGHT 1
VIEWPOINT 0 0 0 1 0 0 0
POINTS 720
DATA ascii
-4.6644 -0.14495 0.32632 0 1517
-4.5275 1.1692 0 1 1891
-4.2171 1.2998 -0.4117 0 2007
-4.2046 -0.044766 0.097625 0 1548
-3.7485 -0.06085 -0.08704 0 1538
-3.4827 0.27654 -0.491 1 1674
-3.3712 -2.2271 0.4725 0 1202
-3.3123 -2.9543 0.62377 0 959
-3.0526 -2.6294 -0.09354 0 989
-3.0314 -3.5317 -0.54428 0 667
-3.0203 -3.5614 0.43566 2 656
-2.9415 2.7286 0.28056 0 4855
-2.8918 3.3443 0.30916 1 5823
-2.8319 3.6866 -0.10793 0 6300
-2.6944 3.5717 -0.95099 2 6381
-2.5837 -3.065 -0.46878 0 645
-2.3019 -2.1391 0.29317 0 918
-2.0278 -4.4068 0.45257 1 116
-1.9662 -3.4263 0.27624 0 250
-1.7519 4.4611 -0.22351 0 7778
-1.7 3.2108 -0.25405 1 7340
-1.6727 2.7608 0.37749 0 7056
-1.4524 -2.8677 0.14991 1 147
-1.3643 3.3887 -0.25545 0 7754
-1.3455 4.0708 0.39999 0 7865
-1.3227 3.0521 -0.15512 0 7665
-1.2109 4.583 -1.2409 0 7890
-1.1884 3.3974 0.25168 0 7855
-1.1117 -3.7338 0.64005 0 69
-1.051 -3.0679 0.611 0 79
-1.0298 3.1469 -0.076874 0 7869
-0.96283 4.6699 0.78337 0 7899
-0.91841 3.5615 0.17152 1 7891
-0.63365 -3.3826 0.6484 0 44
-0.53143 4.9239 0.46204 1 7910
-0.47985 4.5578 0.64409 2 7911
-0.42744 -3.5014 0.24666 1 38
-0.1731 4.2002 -0.29395 0 7929
0.0088122 4.2077 0.29423 0 7946
0.077397 -3.3087 0.54375 1 19522
0.16068 -3.9491 0.27638 1 19514
0.21797 -4.6917 0.10904 0 19511
0.4522 -4.3241 0.7143 0 19492
0.73239 -4.4724 0 0 19488
1.0337 4.7015 -1.2602 1 8051
1.3943 4.0402 0 2 8209
1.5398 3.7156 0 0 8340
1.5523 4.2602 0.85429 0 8250
1.6046 3.9656 0.60123 1 8323
1.7203 -3.2532 0 0 19246
1.7601 3.1352 0.42047 0 8738
1.8216 4.5018 -1.2713 2 8322
1.9289 -3.6247 0.48017 1 19243
1.9486 4.4793 -0.45573 0 8378
1.9957 4.4138 0 0 8416
2.0716 -4.4648 -0.34418 1 19339
2.1023 3.3696 -0.18522 1 8949
2.1617 3.5793 0.195 0 8880
2.3981 3.3471 0.19202 0 9268
2.4027 3.3536 -0.19239 0 9266
2.4213 4.1703 -0.3372 0 8802
2.4357 2.3073 0.47152 0 10427
2.5111 -3.8905 0.87244 0 19152
2.5164 2.453 -0.6621 0 10342
2.6939 -4.07 -0.45536 0 19129
2.7126 -1.9911 0.55283 1 18116
2.7898 2.0017 -0.2401 0 11240
2.8497 1.1179 0.071071 0 12958
2.8886 1.2101 -0.89803 0 12798
2.9092 3.9402 0.9228 1 9359
2.9176 -2.1012 -0.42047 1 18062
2.9695 1.8318 0.081006 0 11687
2.9878 2.7503 0.094282 0 10511
3.0224 -3.2833 -0.41634 0 18633
3.0586 -1.7045 0.24485 0 17438
3.1371 -2.6091 -0.38067 0 18349
3.1907 -0.31342 0.29911 0 15956
3.2894 2.0835 -0.18158 1 11608
3.3821 2.7037 0.71138 0 10932
3.4061 -1.6488 -0.44253 1 17133
3.4256 -0.85791 0.24694 0 16465
3.572 -3.3193 0.91872 0 18484
3.5788 1.8408 0.5656 0 12216
3.615 2.1876 0.19705 0 11740
3.6522 2.9723 0.21959 0 10870
3.6578 -2.224 0.099389 0 17641
3.7291 0.067045 -1.0695 0 15370
3.7621 -1.7944 0.6848 0 17115
4.0184 -1.6925 0.5099 0 16880
4.0612 0.56932 -0.095211 0 14560
4.2013 -2.232 -0.44384 0 17329
4.3002 -2.0052 0.11016 0 17064
4.5119 1.0234 0.65022 2 14030
4.669 0.69529 -0.33009 2 14502
4.7718 0.27932 0.78531 0 15116
4.8457 0.099812 -1.3898 0 15352
1.8173 -0.17851 0.25664 1 15957
2.2399 1.9678 0.56175 0 10657
2.858 -0.056872 0.33428 0 15593
-12.416 1.1299 -1.4579 1 1689
-12.202 1.3989 -1.4363 0 1723
-12.158 -0.94195 -1.4261 0 1447
-11.913 0.047819 -1.3931 0 1573
-11.658 3.4841 -1.4228 0 1979
-11.571 0.47891 -1.3543 0 1632
-11.566 9.3226 1.3859 0 4274
-11.438 0.80581 -1.3408 0 1666
-11.375 9.3904 2.7791 0 4377
-11.316 3.4532 -1.3836 1 1997
-11.288 9.4316 1.7202 0 4420
-11.173 9.5492 2.0656 0 4521
-10.95 9.2535 1.6765 0 4469
-10.885 8.7736 2.2969 1 4280
-10.819 7.3639 2.4659 0 3628
-10.758 -7.3331 1.2147 0 1174
-10.649 8.0889 2.5195 0 4014
-10.603 -9.1912 0.32579 1 983
-10.571 2.4366 1.2686 0 1849
-10.56 9.1925 1.9676 0 4599
-10.527 -9.1248 0.64965 1 984
-10.494 7.7793 1.5276 0 3925
-10.464 10.052 2.0392 0 5009
-10.459 9.7634 1.3349 1 4883
-10.443 9.9132 2.7128 1 4964
-10.406 -9.0714 2.2681 0 981
-10.388 8.8787 2.5747 0 4525
-10.312 -8.4791 1.2455 1 1025
-10.25 -7.4742 1.7828 0 1122
-10.23 6.9184 0.86359 1 3596
-10.125 -0.81288 1.6689 0 1445
-10.057 1.6523 -1.4324 0 1771
-10.05 9.9345 1.986 0 5128
-9.9554 9.8413 1.637 0 5126
-9.9403 2.9086 1.7016 2 1966
-9.9294 8.5406 1.2219 0 4543
-9.9267 8.05 1.1924 2 4298
-9.8774 5.7603 1.0668 1 3126
-9.874 2.6144 1.9245 0 1906
-9.8726 -10.241 1.6635 0 815
-9.8643 8.336 2.1218 0 4472
-9.8411 2.3608 1.6627 0 1863
-9.7783 -9.0865 0.30991 1 916
-9.7559 -9.1198 1.8769 1 913
-9.7154 1.3689 1.8486 0 1748
-9.6968 -9.7681 2.5932 0 846
-9.6892 1.4792 0.91443 0 1758
-9.6747 11.067 2.0659 0 5776
-9.6519 -9.1242 2.1821 0 902
-9.6072 4.5701 2.0045 0 2648
-9.6034 -0.18607 1.5781 1 1536
-9.5624 -9.0934 0.92274 1 895
-9.5161 6.356 1.6083 1 3558
-9.4971 6.2622 2.1433 2 3516
-9.491 11.299 2.4244 0 5955
-9.4522 11.325 2.0731 1 5977
-9.4136 2.431 1.3664 0 1892
-9.3578 -8.4495 1.4744 0 946
-9.3288 -8.6689 1.7898 0 920
-9.3206 9.8219 2.2246 0 5416
-9.3124 6.2576 1.312 0 3578
-9.2622 -6.592 1.3295 0 1142
-9.2406 1.1117 1.5291 0 1728
-9.222 9.8894 2.5477 0 5506
-9.2181 -9.6227 0.62142 1 811
-9.1942 -9.3203 0.91548 1 841
-9.1666 -9.2341 1.5216 0 843
-9.1269 8.2266 1.7269 0 4743
-9.1174 2.3834 1.102 0 1897
-9.0833 -10.964 2.001 0 629
-9.0721 7.8033 1.6818 0 4546
-9.0635 8.03 2.2814 1 4672
-9.0415 7.3741 1.6397 1 4325
-9.0389 -5.8587 1.7697 1 1215
-9.0376 11.089 2.0105 0 6067
-9.0187 5.0177 1.4505 0 3005
-9.0163 11.194 1.341 0 6110
-9.0108 -9.0329 0.89219 1 848
-9.0091 0.45323 1.0549 0 1647
-8.9506 12.008 1.3973 2 6424
-8.9418 -8.6049 2.0388 0 890
-8.8972 -11.4 1.3492 1 560
-8.8672 6.4945 0.76858 0 3880
-8.7677 3.7705 1.568 2 2473
-8.7094 10.558 1.2769 0 6019
-8.6956 -12.044 2.7988 1 485
-8.6713 -6.558 1.2714 0 1091
-8.6317 -10.736 2.2632 0 598
-8.619 -5.9837 1.227 0 1161
-8.5976 5.5259 1.1952 0 3430
-8.5945 -1.4213 1.4312 2 1263
-8.561 -6.5905 2.0356 1 1078
-8.5598 -5.7606 1.6951 0 1183
-8.5573 -7.8139 2.1833 0 936
-8.5284 4.8744 1.1487 0 3073
-8.5203 12.3 1.396 1 6676
-8.5172 -11.949 1.0261 1 467
-8.5107 -11.302 2.3245 1 526
-8.4815 -10.805 1.6064 0 567
-8.445 11.543 2.3498 0 6497
-8.415 -8.7292 1.704 0 816
-8.3771 10.337 2.186 0 6092
-8.3325 2.1782 1.415 2 1899
-8.3323 6.635 1.4969 2 4233
-8.309 -9.9693 0.60521 1 632
-8.2885 -9.2734 0.86972 1 715
-8.2881 -12.442 1.0454 1 391
-8.2536 -9.4546 0.58527 1 686
-8.2378 -1.29 1.3699 0 1270
-8.2213 -10.102 0.30239 1 608
-8.221 -10.595 2.5266 0 557
-8.2177 -9.8039 2.1017 2 643
-8.1713 12.559 1.3978 1 6869
-8.169 -11.89 2.718 1 436
-8.1547 -11.945 1.6914 0 427
-8.1468 12.44 2.8017 0 6856
-8.1387 10.534 2.5081 1 6290
-8.1268 -10.413 2.1701 1 563
-8.1116 11.636 1.9935 0 6658
-8.092 11.328 1.9565 0 6577
-8.0879 -11.482 2.6462 0 459
-8.057 8.015 1.0603 1 5149
-8.0503 10.052 1.506 1 6136
-8.046 8.8829 2.2581 2 5634
-8.0319 -9.0943 1.9934 1 703
-8.0134 8.742 1.9484 1 5581
-7.9927 -0.64167 0.5607 0 1441
-7.9884 -9.6426 2.3592 2 631
-7.9527 2.1532 1.5523 1 1915
-7.952 10.541 1.8557 0 6380
-7.9408 -8.2373 0.53357 1 814
-7.9402 -7.8192 0.51968 1 862
-7.9271 -7.2843 1.7687 1 929
-7.8964 9.4608 2.3218 0 5981
-7.8544 6.6375 0.95939 2 4467
-7.8534 3.6788 0.80909 0 2608
-7.8458 5.5407 1.8097 0 3761
-7.8186 -9.6071 0.57763 1 609
-7.8109 -11.159 0.63521 1 446
-7.8001 11.469 2.2788 1 6738
-7.7897 11.671 1.9721 0 6798
-7.7757 -8.2082 1.8576 2 800
-7.7744 -5.1049 1.3071 0 1208
-7.7727 -1.5899 1.3034 1 1232
-7.7452 11.539 2.6184 0 6782
-7.7414 9.9014 1.7664 0 6234
-7.728 3.8986 1.6308 0 2772
-7.7105 -8.094 0.78169 0 804
-7.6954 -11.706 1.307 0 372
-7.6647 -7.9509 2.0807 0 817
-7.6254 -9.7145 0.86359 1 565
-7.5973 -4.8643 1.4821 0 1221
-7.5538 -11.199 2.5451 0 417
-7.5257 4.9925 1.7015 2 3539
-7.4804 -8.0837 1.5479 0 765
-7.478 -4.7879 1.0384 2 1219
-7.3726 -0.39929 1.0377 1 1481
-7.3676 -5.8458 0.65766 0 1053
-7.3501 -12.986 0.69586 1 237
-7.3269 -12.851 2.079 0 246
-7.293 -9.6326 1.985 1 532
-7.2923 -10.167 2.3574 0 479
-7.2247 -10.845 2.141 0 395
-7.1985 -7.3817 1.9426 0 831
-7.1841 -9.3119 2.2159 0 550
-7.098 6.3597 1.7956 0 4723
-7.0903 -10.643 1.4956 0 393
-7.0842 6.6502 1.3656 1 4910
-7.082 -13.125 2.4503 0 203
-7.0432 10.426 1.7683 0 6757
-7.0283 -8.1885 0.25054 0 669
-6.9889 6.7893 0.90904 0 5055
-6.9392 -11.399 0.9332 1 294
-6.8335 -9.4123 2.1915 2 493
-6.8004 -9.8357 1.9646 2 440
-6.7902 -11.523 2.5199 1 269
-6.7852 -11.514 2.1958 1 268
-6.66 8.4695 2.03 0 6211
-6.631 -6.7595 1.3308 2 836
-6.6305 8.1356 1.9774 0 6071
-6.6159 -7.708 0.94768 2 671
-6.6086 -11.069 1.8118 0 278
-6.5685 -9.2155 1.0558 0 468
-6.5406 7.881 0.95549 2 5996
-6.5319 -7.4824 1.1615 1 688
-6.5207 -8.1566 0.97425 0 587
-6.4991 8.828 1.5406 0 6473
-6.4946 -11.784 2.2107 0 219
-6.4895 -9.2714 2.1322 2 451
-6.4597 -8.2295 1.9711 0 569
-6.435 -7.1193 0.67106 0 726
-6.3864 -11.675 1.8702 0 212
-6.3697 -0.77194 -0.14897 0 1351
-6.3539 -8.3923 0.73607 0 528
-6.3468 -5.1855 1.5442 2 1034
-6.2187 1.454 1.0492 0 1854
-6.1939 3.6354 0 0 3140
-6.1275 -7.0589 0.87207 2 681
-6.0928 3.2301 0.64337 0 2880
-6.0665 -11.723 1.5436 0 166
-6.0661 -8.1502 0.94787 2 510
-6.0228 -4.5253 1.4194 1 1097
-6.0129 -4.1994 0.68424 0 1155
-5.8741 -1.0601 1.1246 1 1245
-5.8687 -0.74555 0.83142 0 1334
-5.8554 0.36121 0.54732 0 1660
-5.8447 -4.035 0.99815 0 1166
-5.8335 1.1688 -0.69574 0 1803
-5.7961 -9.3373 1.5445 0 316
-5.7954 -8.3822 1.1917 2 439
-5.7467 3.175 0.61253 0 2984
-5.7289 1.7122 0.69923 0 1982
-5.7026 1.368 0.82418 0 1862
-5.6003 -6.2307 1.1774 0 723
-5.5525 -8.4981 0.70984 2 364
-5.5309 -8.0506 1.1422 0 433
-5.4765 -4.1659 1.2964 2 1088
-5.3954 -8.5811 1.4246 0 327
-5.1547 -8.1983 1.5911 0 328
-5.1112 1.7241 -0.25155 0 2082
-5.0277 -7.0097 1.4173 0 478
-4.9487 9.0917 1.7006 0 7293
-4.8306 -3.5019 0.13852 0 1126
-4.3876 -4.3708 0.57779 1 853
-4.3825 3.055 -0.24913 0 3700
-4.3522 -3.0046 -0.12279 0 1163
-4.3106 -3.6068 0.13049 0 1012
-4.0909 -3.505 0.7571 0 997
-4.0012 3.0393 -1.3154 0 4007
-3.9347 5.6131 -1.457 0 6640
-3.9022 -4.5464 -0.41896 0 668
-3.8098 -9.1704 1.1613 0 98
-3.5143 6.0309 0.16206 0 7141
-3.4922 -6.4264 1.2016 2 208
-3.4575 6.7682 -0.88879 2 7404
-3.3333 -7.714 1.3806 0 107
-3.3093 -10.143 1.7528 0 77
-3.2324 7.8346 0.7907 0 7729
-3.1928 8.4227 -0.20913 0 7808
-3.1017 8.6248 1.0718 0 7845
-3.0325 8.2778 1.4484 0 7836
-2.9503 6.808 0.69223 0 7668
-2.8585 11.925 1.1441 0 7892
-2.852 -4.8708 0.92733 1 264
-2.7946 -4.4705 0.61653 1 320
-2.7401 -9.2981 1.8263 0 67
-2.7057 6.1493 0.78564 0 7647
-2.6442 7.9256 0.97706 0 7862
-2.5485 5.7027 1.0262 1 7626
-2.5152 8.2474 1.4166 0 7883
-2.5112 -7.4063 1.4734 0 78
-2.4612 4.5519 0.85016 0 7307
-2.4119 -13.735 2.2911 0 41
-2.365 9.866 1.9115 0 7893
-2.3461 -9.5807 1.6206 0 52
-2.3403 14.513 2.4153 0 7905
-2.2724 -6.5733 0.48634 0 80
-2.1437 5.2794 -0.8008 1 7742
-2.0002 -9.8844 1.6569 0 45
-1.9776 5.0828 0 0 7786
-1.9557 6.095 -0.89961 0 7872
-1.9535 -5.444 0.40445 0 81
-1.9443 6.25 0.76543 0 7879
-1.8127 5.7041 0.69992 0 7875
-1.8072 -4.8594 -0.12037 0 82
-1.7606 6.3614 -1.403 0 7887
-1.7156 -7.9958 0.18986 0 47
-1.6675 -6.4757 0.62386 0 53
-1.5043 10.066 1.6721 0 7906
-1.5007 6.3384 0.76172 0 7894
-1.3098 5.7557 0.96981 0 7895
-1.3 -5.6627 0 0 49
-1.0619 -7.4427 1.0566 0 39
-0.98417 4.9979 0.47524 0 7901
-0.73679 -7.9124 0.55568 0 26
-0.71574 -8.488 1.6049 0 21
-0.63482 -9.9244 1.6339 0 11
-0.59323 -10.745 1.7681 0 7
-0.51034 -7.0335 0 0 15
-0.41428 -5.497 0.38547 0 17
-0.39097 10.271 1.6886 0 7931
-0.3728 6.3689 1.202 0 7923
-0.30531 5.7678 -0.40389 2 7924
-0.27847 5.2607 0.61606 0 7925
-0.25118 -6.7535 -0.1569 0 19555
-0.063903 5.2302 -0.73511 0 7939
-0.0047385 9.0507 -0.84439 0 7944
0.014094 6.7298 1.1057 0 7947
0.016854 -5.6801 0.39719 0 19532
0.094556 -7.9668 0.74332 0 19528
0.17383 -7.4313 0.86927 0 19521
0.19928 5.3834 0.7571 0 7952
0.2265 -10.996 1.807 0 19524
0.27013 7.2972 0.85394 1 7951
0.56021 -8.3462 0.97822 0 19504
1.0177 -7.4102 1.2289 0 19491
1.0501 -10.042 1.9023 0 19493
1.1067 6.7957 0.48146 0 8002
1.1818 6.1314 -1.0259 0 8017
1.2042 -5.8508 0.4177 0 19481
1.2627 6.0759 0.72571 0 8037
1.2805 -5.4253 0.3898 0 19479
1.3056 5.1522 0.37166 0 8078
1.3476 6.0488 -0.57816 1 8055
1.3714 6.7046 -0.80028 0 8034
1.4492 -9.72 1.3812 0 19489
1.4672 8.1135 0.3845 0 8011
1.498 -8.6816 1.4474 0 19487
1.5997 6.3127 0.1512 0 8077
1.6837 6.6442 0.63947 0 8079
1.835 -8.2026 1.3809 0 19480
1.9247 -6.5948 1.1287 0 19467
1.9333 -7.5959 1.4768 0 19478
1.948 8.1767 0.78419 0 8066
2.0227 5.4974 -0.40961 2 8253
2.2858 6.2733 -0.31136 0 8246
2.3356 4.4243 0.82195 1 8622
2.4059 6.3737 1.1193 0 8276
2.4843 4.8443 1.0257 0 8583
2.5865 4.5456 0.98538 0 8769
2.7768 6.0456 1.093 0 8441
2.8159 -8.5395 1.6941 0 19454
2.8194 -6.8951 0.87113 0 19391
2.9088 6.3797 -0.65415 0 8426
2.9313 8.1154 0.805 0 8241
2.9551 7.3696 -1.1159 0 8314
2.9617 5.4593 -0.87289 0 8666
3.1139 -4.8859 0.40515 0 19157
3.1369 7.6984 -0.38767 0 8328
3.171 -10.314 1.2619 0 19463
3.1967 -7.1596 0.54829 0 19359
3.2297 -9.4223 1.6364 0 19443
3.3801 -6.8181 1.2503 1 19284
3.3852 5.3548 -0.29543 0 8975
3.4192 8.6007 -0.6472 0 8309
3.453 12.987 2.2078 0 8087
3.4576 -5.157 0.43416 0 19116
3.4749 -4.5598 -0.67042 1 18943
3.4841 7.7056 1.3894 2 8420
3.665 -5.7132 0.79377 0 19155
3.7169 -5.5795 0.15565 0 19123
3.7314 -7.4191 1.3644 0 19273
3.7622 9.2329 1.4012 0 8330
3.8466 8.6355 -0.21948 0 8399
4.1828 -9.6752 1.7318 0 19377
4.5558 -2.6986 0.494 0 17580
4.5879 -3.9769 0.56646 2 18410
4.6878 -1.8797 0.11726 0 16808
4.7285 9.1496 0.96087 0 8587
4.7992 4.0471 1.0314 0 10770
4.8476 4.8679 1.1287 0 10265
4.9805 -11.989 2.1329 0 19387
5.0499 -5.5517 0.87763 0 18654
5.1128 -0.27958 -0.23879 0 15770
5.198 -1.9104 0.51666 0 16703
5.2354 -2.4413 -0.67553 1 17058
5.3898 2.3503 0.68761 0 12695
5.4098 0.64795 0.76573 0 14704
5.5407 8.3837 1.8934 0 9077
5.6133 8.8213 1.7178 0 8996
5.6931 7.9024 1.139 1 9289
5.7386 -10.276 1.9338 0 19223
5.7495 -7.8701 1.8363 0 19012
5.7701 5.4337 0.18402 0 10436
5.8948 -5.7686 0.96452 0 18523
6.0018 -3.6005 0.48941 0 17612
6.0072 8.5379 1.4672 0 9228
6.0532 -6.8107 1.497 0 18686
6.1559 -8.7395 -0.74751 0 19056
6.2019 5.8098 0.99379 0 10462
6.2191 -0.37493 1.1739 0 15800
6.2255 3.3157 1.1588 1 12113
6.2329 5.6022 1.579 0 10591
6.2682 10.727 1.7461 2 8819
6.3179 -6.4023 1.0519 0 18552
6.3199 -5.0433 1.3284 1 18288
6.3493 -10.984 0.88716 1 19212
6.3878 -1.1747 -0.30289 0 16294
6.44 7.559 1.1613 1 9778
6.466 1.1949 0.61346 1 14284
6.4691 2.754 0.98813 0 12756
6.487 10.001 1.1121 1 9035
6.5344 -11.535 0.92706 1 19219
6.5932 5.5599 0.80463 1 10767
6.6016 6.5146 1.0846 0 10309
6.626 -10.072 1.4098 0 19137
6.6523 6.0171 1.2606 0 10572
6.6565 5.544 1.2175 0 10802
6.7244 -7.2668 1.3915 0 18629
6.7253 8.2785 0.74584 0 9615
6.726 -2.9721 1.2081 0 16965
6.7875 -10.516 2.0563 0 19151
6.8114 3.8036 1.2817 1 11978
6.8206 4.3754 1.5268 0 11583
6.8351 2.7713 1.0366 0 12880
6.8461 7.3673 1.4134 0 10067
6.8685 -4.1466 1.1276 0 17632
6.8761 10.953 0.90432 1 8963
6.8827 -6.3958 1.3205 2 18482
6.9177 11.306 2.4973 1 8916
6.9772 7.2504 0.93877 0 10163
7.0607 -6.1205 1.3132 0 18412
7.0684 -6.7217 1.3709 1 18499
7.2146 11.492 1.2659 0 8965
7.2292 -12.506 1.3477 0 19213
7.2508 -8.1581 1.0183 0 18683
7.2842 -10.603 2.4236 0 19093
7.2851 -10.533 0.89553 2 19081
7.3119 -12.007 1.644 0 19185
7.3137 -0.82424 0.34323 0 16011
7.3723 4.3756 -0.59949 0 11791
7.3767 4.64 1.6419 1 11639
7.3854 -8.263 1.296 0 18675
7.3854 -3.98 0.78271 0 17365
7.3889 -4.7582 0.40984 0 17785
7.4447 -11.248 0.31316 2 19130
7.4665 8.562 0.79439 0 9865
7.5465 -6.8909 0.23726 0 18468
7.5587 8.2287 2.1052 2 10040
7.5894 -6.6557 1.9019 1 18428
7.6009 -5.782 1.3422 0 18195
7.638 3.599 1.5908 0 12484
7.6423 7.0349 1.9571 2 10521
7.6759 -11.82 1.9807 0 19144
7.7192 6.6232 0.71124 0 10720
7.7494 -11.493 1.9481 2 19112
7.7595 -2.4034 0.37882 0 16584
7.7797 -8.2125 1.8585 0 18598
7.7877 -5.6789 1.816 0 18102
7.7956 -8.1377 1.3178 0 18585
7.811 -3.7542 0.80853 1 17127
7.8151 -9.949 2.3836 0 18898
7.8485 -5.8971 1.148 2 18169
7.8624 5.4037 1.3408 0 11371
7.9145 5.2703 0.88712 2 11464
7.9262 -3.5025 1.6327 0 16967
7.9796 -7.9463 1.5827 0 18538
7.9945 -7.3436 0.75909 1 18473
8.0165 -11.521 2.306 1 19076
8.0324 -7.9543 0.79048 0 18531
8.0355 10.563 1.2382 2 9436
8.0378 7.0192 1.2479 0 10672
8.0475 -11.425 1.6342 1 19060
8.0666 5.4738 1.8367 1 11413
8.0985 -10.31 2.1539 1 18897
8.1035 -11.795 0.66735 1 19088
8.1095 -7.626 0.51913 2 18487
8.1241 -9.5255 0.87544 1 18742
8.1489 -11.782 2.0133 0 19083
8.1661 5.5414 1.1541 0 11409
8.1682 10.354 2.4847 0 9537
8.1948 -8.1605 1.9001 0 18539
8.2048 7.3334 1.808 0 10605
8.2085 -10.575 1.5655 0 18918
8.2105 -10.971 1.9259 0 18975
8.2161 -9.0326 2.0061 0 18655
8.2178 -11.11 2.2703 2 18994
8.2291 4.0225 1.0711 1 12360
8.2349 -9.5436 1.176 0 18724
8.2359 5.6985 0.46705 1 11350
8.2372 7.1102 0.7609 0 10703
8.2585 -10.967 0.64024 1 18961
8.2728 3.2454 1.2489 1 12964
8.2741 2.4148 1.2114 0 13632
8.2768 9.3256 2.0486 2 9927
8.3106 6.6438 0.99264 2 10929
8.3141 7.6051 2.123 0 10540
8.3152 -11.312 1.3098 2 18998
8.3209 -0.45502 1.5701 0 15778
8.327 4.0398 1.7438 1 12386
8.3385 -8.0187 2.1796 0 18509
8.3389 -7.4376 1.3067 0 18444
8.3406 4.1349 0.65097 0 12318
8.3413 4.9507 0.90495 2 11800
8.3479 0.65699 1.1768 1 14986
8.3508 10.844 0.95706 1 9469
8.3595 5.711 0.94453 2 11388
8.3612 -11.445 2.3287 1 19011
8.3971 10.841 2.5836 0 9490
8.4038 -9.8535 0.30067 1 18741
8.4038 10.282 0.9286 1 9632
8.4125 -6.0584 0.96719 1 18068
8.4308 9.8433 2.1293 0 9803
8.461 2.7916 0.20685 0 13368
8.4626 9.7626 1.5109 0 9845
8.4688 -7.511 0.52788 1 18436
8.4874 -10.678 2.5699 2 18874
8.496 -8.0343 1.0909 0 18493
8.4994 -7.4959 2.1352 2 18434
8.5137 -7.2509 0.25964 1 18387
8.5184 2.7842 1.4724 2 13398
8.5491 -12.137 1.0381 1 19058
8.563 -10.773 2.2609 2 18873
8.5645 5.4247 0.94583 2 11615
8.5851 -12.116 1.3854 0 19050
8.5917 7.548 1.067 0 10652
8.5935 -6.537 1.7739 0 18196
8.6188 -0.046633 0.6027 0 15505
8.6432 6.0116 1.2312 0 11336
8.6505 -8.0837 2.2307 0 18486
8.661 9.0569 1.1691 0 10148
8.6623 -3.158 0.42997 0 16694
8.6631 -5.1315 1.8971 1 17585
8.6972 -5.2506 0.23587 0 17625
8.7049 7.6475 1.355 0 10654
8.7068 3.0133 0.64427 2 13258
8.7069 -3.7282 1.1076 1 16909
8.7141 2.1114 1.6893 0 13938
8.7482 5.8255 0.73495 1 11462
8.776 9.4441 1.5076 0 10065
8.7801 -7.1736 1.8628 2 18328
8.7828 2.9523 1.5223 2 13330
8.814 -4.6826 0.93115 2 17337
8.8373 -10.003 0.62245 1 18691
8.8846 -9.06 1.7834 1 18559
8.8956 -7.8012 1.6628 1 18426
8.8998 -0.61453 1.6808 0 15842
8.9096 7.7805 1.1036 0 10670
8.9491 -7.6622 0.5494 1 18395
8.951 3.3912 1.3452 0 13046
8.9517 -4.1742 -0.92149 0 17059
8.9687 -5.1385 1.4527 2 17504
8.9705 -4.056 1.8549 0 17010
8.9756 -0.46411 0.20867 0 15756
9.0094 9.7531 1.5527 0 10052
9.0101 8.9882 1.1873 0 10278
9.0171 -4.4272 1.8926 0 17173
9.0233 6.7576 1.3183 0 11125
9.0415 -10.601 2.2891 2 18746
9.042 -10.235 0.95497 1 18692
9.0452 4.7831 1.9278 1 12136
9.0676 -2.4687 1.3208 0 16507
9.0873 -10.845 2.6658 2 18777
9.1134 -9.9629 0.31349 1 18643
9.1385 -10.282 0.31938 1 18682
9.144 -11.308 1.0169 1 18829
9.1668 8.5871 1.7653 0 10463
9.19 -2.1318 1.7775 2 16435
9.1907 -1.7715 0.43649 0 16323
9.1929 -5.5499 0.50077 2 17627
9.2507 4.7583 0.48512 1 12211
9.2582 8.6728 2.0842 0 10464
9.263 3.9433 1.1773 0 12755
9.3472 -2.4557 0.6758 1 16491
9.3596 2.2678 1.1262 2 13934
9.3715 -1.6676 0.66562 0 16275
9.3971 6.1072 1.0456 0 11541
9.4489 3.0264 0.6938 0 13437
9.4518 -11.344 1.3776 1 18782
9.4566 6.3402 1.8705 0 11449
9.4573 3.4272 1.6527 0 13153
9.4922 5.7804 1.0369 0 11725
9.5059 -7.632 2.0028 2 18298
9.5125 9.7682 0.95343 1 10193
9.5407 -7.0032 0.55192 1 18109
9.5546 4.036 1.4577 0 12778
9.5641 -10.04 0.96961 1 18590
9.5666 9.7657 2.246 0 10217
9.5727 2.1152 1.3778 0 14064
9.5743 2.4369 1.6232 2 13865
9.6072 2.1792 0.45941 0 14027
9.631 -9.9906 0.64714 1 18576
9.6602 9.2057 1.2449 0 10411
9.667 -11.399 1.7478 0 18751
9.6821 -1.0912 0.22621 0 16010
9.7111 8.4299 2.1128 0 10690
9.7225 -9.1428 1.2451 0 18488
9.7231 -5.833 2.1363 0 17618
9.7371 -9.7609 2.2651 0 18543
9.7383 1.5685 1.6206 1 14436
9.7402 -3.6766 1.2175 2 16735
9.7505 -2.0548 1.8774 1 16378
9.765 -10.608 0.67239 1 18634
9.7652 -7.6074 0.2874 1 18241
9.7712 -2.5052 0.2342 0 16478
9.7737 2.9769 0.71445 0 13544
9.8205 -6.0866 0.80792 2 17692
9.8224 -10.615 0.33577 1 18625
9.8575 5.6226 2.1381 0 11922
9.8744 -3.4386 1.97 1 16664
9.8947 4.8731 1.5501 0 12341
9.9022 6.1516 1.6383 0 11675
9.9026 -6.3769 1.6553 1 17790
9.9108 -7.2271 0.85773 1 18096
9.953 4.3753 1.7862 1 12676
9.9821 4.8794 0.77695 0 12358
9.9832 0.7016 1.6442 0 15047
9.9896 -10.428 1.0098 1 18583
10 -4.5216 0.25481 0 17001
10.069 -1.2542 0.47319 1 16062
10.094 3.5903 2.0185 0 13199
10.117 -6.5601 1.4101 0 17805
10.132 -3.7238 1.2623 1 16704
10.151 -2.8246 0.73677 0 16516
10.196 5.736 1.9221 1 11959
10.243 -5.0288 1.0645 1 17169
10.246 -0.49932 1.1996 1 15745
10.251 -1.6695 1.4596 0 16232
10.384 -4.7322 2.15 0 17024
10.426 -2.3554 1.25 0 16418
10.503 -5.8531 1.1218 1 17439
10.521 -4.8303 0.26878 0 17032
10.559 -6.6701 0.87335 1 17737
10.606 4.1606 1.0629 0 12962
10.639 4.2423 1.6097 0 12920
10.652 -1.1403 1.2528 0 15988
10.69 0.90331 1.7626 0 14946
10.73 -5.4626 0.27955 1 17242
10.735 -10.273 0.69288 1 18502
10.744 -4.7097 0.54708 1 16946
10.913 -5.3579 1.9973 0 17171
10.925 -5.2508 1.4175 0 17128
10.941 4.8872 0.83791 1 12633
10.971 -0.40612 1.0242 0 15691
10.993 -5.6765 1.7388 0 17278
11.029 4.2867 1.1039 0 12982
11.319 -1.0779 2.1422 0 15949
-12.172 6.2717 -1.6013 0 2805
0.034183 6.5288 -1.8721 0 7948
0.79038 9.4719 -1.7908 0 7961
8.2422 9.1314 -1.7288 2 9968
