VERSION .7
FIELDS x y z intensity index
SIZE 8 8 8 8 8
TYPE F F F F F
COUNT 1 1 1 1 1
WIDTH 601
HEIGHT 1
VIEWPOINT 0 0 0 1 0 0 0
POINTS 601
DATA ascii
-4.6513 1.82 0.11596 0 2622
-4.4125 1.6393 0.88688 0 2525
-4.379 2.0615 0 0 3091
-3.8609 1.9554 0.81541 0 3314
-3.8521 -0.32821 0.54333 0 1188
-3.7869 2.1434 0.30428 0 3640
-3.6109 1.7246 -0.18661 1 3131
-3.4561 2.6993 0.30665 1 4806
-3.4554 0.74961 0.66618 0 1931
-3.3915 -2.8017 0.72273 2 818
-3.1882 2.33 0.36841 0 4561
-3.1235 -0.37577 0 0 1133
-3.1097 1.5194 -0.080356 1 3195
-2.8636 -3.4986 0.21084 0 472
-2.846 4.1041 0.46595 0 7051
-2.7978 1.3561 -0.072186 0 3174
-2.6289 3.3782 0.70328 2 6713
-2.5499 3.8438 0.64827 0 7190
-2.5279 1.9978 0 0 4851
-2.4635 3.8051 0.31697 0 7252
-2.4524 2.934 0.44718 0 6459
-2.4316 -3.0591 -0.18223 0 445
-2.3024 2.5987 0.48794 0 6228
-2.2533 -2.5658 0.39933 2 539
-2.2477 -3.8419 0.20758 0 169
-2.2412 3.2319 -0.36692 0 7039
-2.2262 3.485 0.58119 0 7290
-2.1954 2.406 -0.075621 0 6113
-2.0332 2.7588 0.31973 0 6882
-2.0127 -3.3052 0.18046 0 206
-1.8726 4.4942 -0.11304 0 7998
-1.864 -4.1169 0.52849 0 57
-1.833 4.2256 0.42972 0 7960
-1.466 -3.811 0.67085 0 33
-1.4658 -3.5351 0.088851 0 46
-1.174 4.4909 -0.43306 0 8120
-1.0497 -3.5302 -0.085509 0 19
-1.0452 -4.6227 0.44217 0 5
-0.92001 3.9913 -0.28642 1 8125
-0.86104 4.5052 0.53638 0 8137
-0.83807 -3.6128 0.43371 0 6
-0.81122 -4.0088 0.7706 0 14688
-0.7855 -4.2631 0.10064 0 14686
-0.66611 2.9654 0.35542 0 8127
-0.55895 3.9771 0.28084 0 8140
-0.47428 -4.1953 0 0 14668
-0.4305 -4.253 0.70231 0 14659
-0.20929 3.1099 -0.81598 0 8158
-0.13476 3.8399 -0.53999 1 8174
-0.089523 4.9794 -1.3037 0 8188
-0.020965 -3.8749 0.089965 0 14604
0.14375 3.6104 -1.2209 0 8238
0.19406 4.517 -0.52872 0 8240
0.20276 4.4142 0.10259 0 8246
0.2638 3.2573 0 0 8263
0.50852 -4.4702 0.3146 0 14567
0.63461 -3.378 0.32066 0 14557
0.76743 4.7912 -0.68195 1 8369
0.81209 -3.078 0.523 2 14546
0.81374 -4.1362 0.69258 0 14555
0.89244 3.8441 0.27596 0 8520
1.0111 -3.578 0.61087 0 14539
1.0827 3.2853 0.080309 0 8652
1.2378 4.2028 0.30637 1 8611
1.2387 4.2554 0 0 8608
1.2577 -3.261 0.57423 0 14470
1.5373 2.7905 0.60026 0 8878
1.6133 -4.0437 0.71528 0 14459
1.7838 2.9098 0.079242 1 8947
1.8138 -4.3961 0.55613 0 14443
1.8316 -4.6308 -0.34822 1 14461
1.8515 4.6128 0.9365 0 8717
1.8913 -3.1021 0.25405 0 14200
1.9661 2.3732 -0.58064 0 9276
2.0212 4.2642 0.8891 0 8789
2.2367 3.4429 -0.57701 0 9009
2.2942 4.1084 0.43901 2 8886
2.4302 3.4297 0.19602 0 9110
2.4665 -3.272 -0.19109 0 13943
2.5169 1.8583 0.1459 0 9758
2.5875 2.1774 -0.23647 0 9658
2.6085 -1.5519 0.070468 2 12576
2.6145 -3.5735 0.5178 0 13987
2.7627 -3.1041 0.19379 1 13666
2.7963 2.2443 -1.0281 1 9705
2.8634 3.6689 0 0 9224
3.0607 0.15666 -0.28592 1 10818
3.081 1.959 -0.25531 1 9824
3.1047 2.507 0.65562 0 9698
3.1385 -0.46122 0.29595 2 11445
3.2006 -0.88641 0.077106 0 11625
3.2075 2.8119 0.29828 0 9636
3.235 -0.57158 -0.076271 0 11503
3.2786 1.9661 0.088758 0 9861
3.3765 -3.5793 0.22947 0 13585
3.4812 0.02552 0.57196 1 10982
3.608 2.9816 0.3273 0 9676
3.6595 -2.9161 0.76878 0 13247
3.7143 -1.806 -0.38532 0 12141
3.8329 2.4053 -0.52918 0 9828
3.8839 0.0067795 0.63811 0 11003
3.9504 0.35118 0 0 10691
4.0799 2.0475 0.53383 1 9969
4.1325 2.1641 -1.2212 1 9944
4.1416 0.10411 0.096186 1 10912
4.2417 -1.4448 0.31335 0 11683
4.2619 -0.6263 0.6054 0 11446
4.305 0.1195 0.50363 0 10902
4.3494 1.9812 -1.3705 0 10048
4.3911 -0.20785 0 0 11177
4.4319 -0.55988 0.31237 0 11398
4.466 2.0034 0.45666 0 10061
4.5116 -1.6394 0.33567 0 11721
4.5166 -1.056 0.54242 0 11585
4.5919 -0.78243 0.87762 1 11492
4.6168 0.38363 0.10756 2 10715
4.7624 -0.18545 0 0 11145
4.8437 0.26148 -0.22621 0 10808
4.8871 -0.090425 0.68696 0 11073
1.739 2.3229 -1.0562 0 9165
1.9751 0.81812 -0.61302 0 10130
2.8834 -0.67417 0.27626 0 11584
-14.232 4.1888 0 0 2183
-14.149 4.8858 1.3965 1 2400
-13.963 4.4614 -0.68357 0 2286
-13.919 5.08 2.4344 0 2490
-13.869 4.7432 -0.34032 0 2382
-13.775 4.2299 -0.33456 0 2236
-13.775 4.6681 1.357 0 2370
-13.569 4.1665 0 0 2237
-13.555 6.0946 -0.34505 0 2976
-13.165 6.3359 1.7086 0 3162
-13.003 6.0746 1.6784 0 3080
-12.728 6.1255 1.9852 0 3164
-12.713 6.5278 2.6925 0 3356
-12.702 6.5222 0.66586 1 3344
-12.577 5.9639 2.2869 0 3123
-12.324 5.3662 2.5325 0 2903
-12.072 7.9934 1.0124 1 4208
-11.501 6.8263 2.1974 1 3807
-11.162 0.21627 1.3055 0 1476
-11.066 0.72918 0.51717 1 1563
-10.751 0.52017 1.7684 2 1536
-10.634 -0.3156 0.49611 1 1302
-10.617 -7.503 1.8271 0 944
-10.441 -1.2561 0.98112 0 1134
-10.41 0.35444 1.7113 0 1511
-10.38 0.14132 0.96849 0 1463
-10.334 -0.84959 0.72505 0 1191
-10.296 0.91891 0.9644 0 1609
-10.288 -0.039502 1.6903 0 1424
-10.232 0.94556 1.936 0 1618
-10.122 0.96397 -1.429 0 1619
-10.091 3.2905 0.74221 0 2309
-9.8928 -0.063888 0.92297 1 1413
-9.879 -7.8357 1.1764 0 852
-9.8302 -1.0384 1.3892 0 1160
-9.8069 3.4825 1.9608 2 2447
-9.7927 -9.046 2.5118 0 735
-9.6567 0.16181 1.8197 2 1472
-9.6002 -11.13 1.3713 1 519
-9.5875 1.4466 1.593 2 1739
-9.5731 -6.9323 1.9419 1 925
-9.5559 -10.568 2.0024 1 570
-9.5523 1.3289 1.1278 0 1710
-9.4848 0.43402 1.5599 2 1531
-9.4662 5.6924 1.8148 0 3852
-9.4655 -10.168 0.97143 1 591
-9.4633 0.92789 0.88712 1 1627
-9.3904 -11.271 0.68412 1 489
-9.3689 0.073583 1.7652 2 1450
-9.2004 5.9384 1.0216 0 4113
-9.1812 -10.454 1.2981 0 538
-9.1711 -6.0174 2.0667 0 1001
-9.1603 4.5074 0.23703 0 3217
-9.1198 3.0055 0.89585 0 2324
-9.0882 4.8384 1.204 0 3457
-9.0637 -0.77225 0.84866 2 1186
-9.029 -9.3662 2.1374 0 630
-9.0113 -8.9767 2.0897 0 669
-8.9924 -8.1652 0.84935 1 741
-8.9278 6.097 1.7762 0 4330
-8.8987 2.4779 1.2982 2 2133
-8.8861 4.0272 1.3711 0 3006
-8.8633 -0.95974 1.6797 1 1157
-8.8364 -6.7976 1.8316 2 876
-8.818 8.6533 2.3277 0 5710
-8.8121 -0.90442 0.61944 0 1164
-8.748 -11.274 2.0055 0 430
-8.7409 7.8648 1.9318 0 5360
-8.7201 0.70313 1.0231 2 1590
-8.6753 2.606 1.0593 1 2214
-8.6201 -7.9627 1.0948 1 732
-8.4395 -7.9753 0.81197 0 718
-8.4264 -7.7376 1.3378 2 737
-8.414 -7.5494 0.79048 2 748
-8.3788 -0.76106 1.1824 1 1181
-8.2365 -10.24 2.1591 1 460
-8.2329 -11.204 2.6195 2 382
-8.2168 4.7497 0.66366 0 3705
-8.1969 5.8102 1.6507 2 4460
-8.1836 -10.486 1.5555 0 432
-8.173 -9.1474 1.1444 0 557
-8.1445 1.1824 0.96242 0 1723
-8.1215 4.9147 1.5596 2 3875
-8.0681 3.2942 0.60939 0 2726
-8.0597 8.3344 2.1844 0 5905
-8.057 -11.233 1.6166 0 358
-8.051 -5.9379 1.1699 1 912
-8.0165 1.402 0.56907 0 1802
-7.9745 -1.3832 1.5249 1 1051
-7.9699 -11.042 1.9139 2 363
-7.8877 -9.4135 1.726 0 496
-7.8819 4.3439 1.6956 2 3563
-7.8242 -6.5027 1.6715 1 814
-7.8017 -12.811 0.34825 1 205
-7.7404 -11.549 1.954 2 279
-7.7371 -10.653 2.4807 0 371
-7.735 -6.7429 1.9334 0 772
-7.6787 -7.9654 1.0322 0 628
-7.6687 -9.2042 1.6837 0 492
-7.6644 -9.5873 1.4354 0 453
-7.6613 -12.581 1.3742 0 208
-7.6315 4.6492 1.2559 0 3898
-7.6278 -8.1 2.0963 2 608
-7.6245 -0.33823 0.8925 1 1273
-7.6077 -12.915 1.0482 1 176
-7.605 0.30146 0.71007 0 1520
-7.5585 -11.648 1.6238 2 253
-7.5421 1.0063 0.70988 0 1696
-7.5303 -11.903 0.65683 1 233
-7.489 -5.7299 1.5492 2 882
-7.4357 3.9039 1.5823 0 3420
-7.4079 -12.743 0.34222 1 163
-7.3839 -11.305 2.2185 0 260
-7.3676 -5.3352 0.84866 2 923
-7.2748 1.1431 0.68703 1 1755
-7.2273 -9.7779 1.9976 0 388
-7.1066 -11.382 1.8858 0 226
-7.0984 -11.147 2.1711 0 240
-7.0822 1.9934 1.2088 2 2147
-7.0511 -9.5394 1.1067 0 386
-6.9409 -7.8095 1.9685 1 554
-6.9405 -7.4116 0.94731 0 598
-6.9386 -8.1356 1.7567 1 510
-6.8829 -0.56588 0.97059 1 1194
-6.8636 -9.5693 1.655 0 359
-6.8592 5.1071 1.0001 2 4629
-6.8442 -6.1409 1.0753 0 750
-6.745 -10.064 1.4168 0 278
-6.7444 4.5801 1.536 0 4310
-6.6845 -7.2237 0.68822 0 586
-6.662 -5.9065 1.6775 2 758
-6.6058 -12.593 1.3267 0 95
-6.5943 -6.7621 1.3274 0 639
-6.5711 -12.715 1.6737 0 90
-6.5364 -7.9406 0.71919 0 478
-6.514 -4.6894 1.3187 2 930
-6.4966 -6.178 0.8364 1 713
-6.4935 -7.9335 1.1989 0 474
-6.4829 -7.553 0.69603 0 513
-6.4726 -8.4903 2.0115 0 415
-6.4046 -5.1054 0.76413 2 845
-6.3936 -11.939 0.63158 1 107
-6.3856 -11.056 2.4055 0 162
-6.3374 -10.972 1.1821 0 158
-6.2195 -6.3401 0.8286 1 643
-6.1695 3.424 0.82513 0 3579
-6.1592 6.9911 0.65153 0 6245
-6.1557 -4.0636 0.68814 1 993
-6.1202 -4.1173 1.3898 0 984
-6.1195 -7.5677 1.3678 0 463
-5.9776 3.8361 0.49667 0 4088
-5.8474 3.7267 1.3064 0 4072
-5.7069 -7.1797 1.0725 1 448
-5.5671 2.6399 0.57482 2 3118
-5.5419 -8.5403 1.9182 0 256
-5.299 4.5226 1.1446 0 5146
-5.2862 3.5442 0.59377 0 4256
-5.0254 8.3934 1.6073 0 7437
-4.9925 1.7728 0.74458 0 2443
-4.9663 -7.4101 1.4656 0 280
-4.7184 2.1533 0.85211 1 3028
-4.6749 2.8861 0.77213 0 3946
-4.5548 4.3955 0.88959 0 5641
-4.4497 3.1541 -1.4278 0 4455
-4.3918 10.714 1.9023 0 8013
-4.3829 -3.6646 0.6681 0 808
-4.2705 2.8276 0.47784 0 4210
-4.2518 4.3448 1.1454 0 5861
-4.2388 -3.301 -0.12473 0 864
-4.1382 -6.0641 1.2062 1 298
-4.0834 11.66 2.3277 0 8102
-4.0032 5.9934 1.1841 0 7173
-3.9273 -3.2065 0.83298 0 826
-3.788 -10.29 1.8015 0 30
-3.7872 -8.6356 1.5492 0 53
-3.6433 -4.8104 0.1401 0 405
-3.4448 -13.93 2.3576 0 11
-3.2698 -6.2333 0.4922 0 94
-3.1597 -11.606 1.4066 0 15
-3.1339 -11.134 1.9004 0 17
-3.1012 -8.1384 1.4309 0 32
-3.0659 6.542 0.84488 0 7865
-2.8536 -4.9089 1.0698 0 167
-2.7749 -8.1935 -0.40341 0 25
-2.7574 -7.4264 1.3015 0 31
-2.6099 -10.056 1.7068 0 13
-2.426 -7.0336 1.2224 0 26
-2.3724 -7.5751 0.92828 0 24
-2.3093 8.7281 1.0558 0 8119
-2.2503 -4.8947 1.015 0 59
-2.2268 -10.264 1.7256 0 3
-2.0938 6.2107 1.0768 0 8108
-2.0278 -9.8788 1.6569 0 14690
-1.9807 -11.314 1.8871 0 14684
-1.877 5.2165 0.51722 1 8098
-1.8379 5.67 -0.13838 0 8110
-1.7773 5.8868 0.5737 0 8117
-1.5907 6.6309 -0.95835 1 8123
-1.4726 -9.0122 0.63855 0 14683
-1.4524 -5.6607 0 0 12
-1.4127 -7.5489 0.17831 0 14687
-1.3175 8.9981 1.0635 0 8139
-1.2698 -6.1862 -0.2945 0 14689
-1.241 -7.7391 0 0 14681
-1.2368 -8.1681 1.3573 0 14678
-1.1933 8.8491 0.83305 0 8142
-1.1874 5.0825 -0.48694 0 8124
-1.1635 5.1795 0.12325 0 8126
-1.1355 5.4305 0.51759 1 8133
-1.1304 6.3079 0.44812 0 8138
-1.0925 9.8329 1.6254 0 8145
-1.051 -6.6885 0.63167 0 14679
-0.97115 -7.2591 1.2033 0 14675
-0.95356 9.885 -0.9265 0 8150
-0.94614 7.5211 1.2454 0 8144
-0.88396 -4.9575 0.58888 0 14685
-0.85842 8.6308 1.6342 0 8149
-0.55285 -8.3016 0 0 14646
-0.50138 6.8438 -0.15932 0 8156
-0.49418 -8.5707 1.4104 1 14640
-0.43451 6.4566 1.0632 0 8159
-0.42149 5.1376 0.84692 1 8154
-0.32906 -9.6154 1.5807 0 14625
-0.31579 -7.8624 0.55024 0 14630
-0.19982 -6.3231 -0.14688 0 14622
-0.15147 -10.583 1.7389 0 14608
-0.14188 5.3119 -0.62141 0 8181
0.061974 5.5481 0.38799 0 8207
0.13097 -7.2846 1.3727 0 14591
0.38674 -8.2621 1.3589 0 14583
0.41284 -7.4542 0.6965 0 14578
0.43001 7.1121 0.66473 0 8253
0.46843 6.2592 0.43891 0 8260
0.52532 -6.0165 0.28164 0 14572
0.56591 -9.2262 -0.21461 0 14575
0.64435 5.4279 0 0 8298
0.67 7.0224 0.32897 0 8272
0.67249 -6.4091 0.45063 0 14571
0.70751 -5.2674 0.87318 0 14562
0.83039 -7.1009 0.83605 0 14566
0.92201 10.29 1.2082 0 8269
0.97014 -6.0298 0.28481 0 14561
1.0453 9.2603 1.5311 0 8291
1.1271 -6.1899 1.0337 0 14558
1.6914 4.7186 -0.23376 0 8677
1.719 5.7811 0.42175 0 8615
1.8098 5.832 -0.14177 0 8629
1.9533 7.0052 0.67848 1 8598
2.1386 9.9927 1.6789 0 8475
2.2355 8.5032 1.4445 0 8583
2.2988 -8.4086 1.4322 1 14543
2.4036 4.8848 -0.25388 0 8808
2.4133 6.0613 0.45621 0 8714
2.4866 4.8718 -1.4319 0 8831
2.5538 -4.8623 0.51239 2 14297
2.6205 4.3048 0.35241 0 8940
2.685 5.0818 0.80776 0 8854
2.8167 11.962 2.019 0 8534
2.8459 -6.2709 -0.32115 1 14408
2.921 -5.7577 -0.45146 0 14321
2.9336 4.8498 0.93122 0 8934
3.0085 -4.2918 -0.48898 0 14035
3.0545 -8.2045 1.4383 0 14481
3.0949 -6.7693 0.87043 0 14406
3.1103 4.9755 -0.41031 1 8964
3.1719 8.315 1.6767 0 8701
3.1847 -9.9429 0.73007 0 14510
3.2123 4.5068 0.38701 0 9116
3.2129 4.3979 -1.4258 0 9139
3.2536 3.9993 -0.48099 1 9258
3.3691 3.8134 0.95872 0 9318
3.4415 -5.5333 0.15129 0 14179
3.4822 6.321 0.67328 0 8877
3.5009 -5.664 0.9358 0 14190
3.5694 3.7247 -0.60329 1 9430
3.5731 -5.8953 1.1326 0 14210
3.6525 4.0154 0.25313 0 9356
3.6668 8.1552 -0.2076 0 8759
3.681 7.9446 -0.81689 0 8776
3.6921 -3.9829 0.63511 0 13615
3.7493 -6.312 1.2062 0 14225
3.7573 -9.2577 0.46593 1 14452
3.7913 5.9903 1.3357 0 8984
3.8404 -6.8631 1.2921 1 14264
3.9073 5.3133 0.61532 0 9146
3.9328 -4.1953 0.13351 0 13596
3.9458 7.2131 1.3508 0 8873
4.002 4.0555 0.93608 0 9474
4.1279 -5.9238 -0.33671 0 14045
4.1961 3.7649 0.52595 1 9618
4.1995 3.3106 0.62536 0 9716
4.3978 5.3388 -0.80887 0 9268
4.4526 -3.2421 -0.77408 1 13062
4.5139 6.1046 1.2474 0 9153
4.565 -11.542 2.0392 0 14464
4.5807 3.1412 1.0465 0 9794
4.6529 9.456 1.7314 0 8809
4.7163 2.8845 -0.12836 0 9849
4.8128 4.1705 0.59414 1 9645
4.8342 4.4656 -0.76961 0 9585
4.8682 7.1286 1.4182 0 9070
4.8705 -11.336 1.1511 0 14427
4.8923 1.5604 0.84368 0 10290
4.9715 2.1948 0.507 0 10075
4.9869 -0.67248 0 0 11418
5.1137 4.1781 1.0849 0 9688
5.277 1.5822 1.038 0 10315
5.3103 2.9581 0.71084 0 9907
5.3316 6.4724 -1.1785 0 9267
5.3537 -3.7348 -0.609 1 12958
5.378 3.0589 1.0165 0 9890
5.4554 0.87089 0.12826 1 10530
5.4741 -5.2293 0.8853 1 13456
5.508 1.1076 0.39287 0 10453
5.6185 -0.29937 0.13063 0 11196
5.6283 -2.9625 0.59339 2 12309
5.6478 -10.822 1.4275 0 14302
5.7324 -11.064 0.58108 1 14308
5.7623 1.4399 -0.41533 1 10380
5.7896 -2.3934 0.58448 1 11871
5.795 -1.516 0 0 11612
5.7999 -2.2811 0.1447 0 11803
5.8782 7.7134 0.90477 0 9191
5.8902 -11.441 0.89986 1 14312
5.8925 3.9179 0.16429 0 9808
5.9032 9.2661 1.8051 0 8991
5.9163 -1.8643 0.87178 0 11655
5.9235 -5.4014 0.56056 0 13416
5.9498 -6.7274 0.83789 2 13674
5.96 -8.7175 -0.98521 0 14072
5.9701 -0.0062518 -0.55698 0 11008
6.0216 -9.4995 1.8478 0 14165
6.028 1.6367 1.0262 0 10353
6.0884 -11.107 0.59068 1 14275
6.1007 7.4988 1.3586 0 9262
6.1037 -8.2426 1.6851 0 13971
6.2945 -5.7035 1.3955 2 13415
6.3925 -6.3237 1.6941 1 13496
6.4076 -0.082762 0.59785 0 11051
6.4574 -5.5229 0.79274 0 13352
6.481 -5.9471 1.4451 2 13422
6.5463 2.0052 -0.31928 0 10305
6.5682 -11.825 2.2223 0 14267
6.6499 -6.6941 1.1034 1 13514
6.6521 1.3994 -0.79494 0 10436
6.6533 3.8863 0.5388 0 9873
6.6707 -5.7053 1.2336 1 13354
6.6871 -1.2213 0.79494 0 11514
6.6922 -9.7884 1.6665 0 14077
6.7139 0.61574 0.78843 0 10685
6.7459 -11.209 2.1494 0 14216
6.7509 0.089552 1.1092 0 10961
6.7949 3.0695 -1.225 0 10051
6.808 -7.3033 1.8811 0 13608
6.8384 2.4458 1.1932 2 10249
6.8746 -10.308 1.1559 1 14104
6.8837 -0.28611 1.1319 0 11159
6.8999 -4.4638 0.57465 0 12769
6.9177 2.9835 -0.5268 0 10095
6.9182 -0.63082 1.1413 0 11308
6.9435 -12.002 0.96961 1 14241
6.9547 -8.7935 1.046 0 13851
6.958 -9.3383 1.6367 0 13963
6.9932 6.3856 0 0 9599
7.0069 -11.493 1.5741 0 14201
7.0471 -4.8252 0.39829 0 12915
7.0607 -1.5227 1.0151 0 11564
7.0732 1.1494 1.1773 0 10527
7.1228 -7.6409 1.7162 2 13607
7.2091 -3.7945 1.3385 1 12312
7.2635 2.7882 -0.72586 1 10198
7.3041 -4.4322 1.6097 0 12629
7.3162 -9.762 2.2985 0 13957
7.319 -9.7658 1.7152 0 13955
7.3484 -9.0164 0.81336 0 13800
7.3494 -6.8968 1.8989 0 13443
7.3637 1.3475 0 0 10487
7.3754 -3.2483 -0.94245 1 11962
7.4008 -10.752 2.1445 2 14069
7.4071 1.2701 1.2347 0 10510
7.4746 -10.663 0.60726 1 14037
7.4947 2.3904 1.1056 0 10289
7.5441 -2.4498 -0.18415 0 11665
7.5555 -12.466 2.0486 0 14208
7.5851 -6.8393 0.23712 0 13404
7.6387 -8.8902 1.0935 0 13709
7.6676 -9.462 0.56795 1 13811
7.684 -3.8211 1.2061 0 12194
7.7017 -8.9636 1.6609 0 13712
7.7583 -1.0035 0.54703 1 11404
7.7915 -11.396 2.601 1 14080
7.7995 1.4526 1.3034 0 10484
7.8166 2.1957 1.5297 0 10341
7.822 10.142 2.1043 0 9210
7.8469 -10.098 1.7973 0 13889
7.8487 -7.9897 1.8401 0 13533
7.859 -8.7806 1.936 0 13661
7.8847 3.1059 1.3923 0 10177
7.9134 -6.3421 0.23545 0 13254
7.9241 -10.447 0.30443 1 13932
7.9434 1.6465 -1.1401 0 10441
7.944 -10.858 1.8908 2 13989
7.9643 -11.092 2.2434 1 14011
8.0463 -4.031 1.2648 0 12209
8.054 -10.428 1.5409 0 13902
8.0598 -4.4823 1.5152 1 12425
8.0694 -4.862 0.65878 0 12610
8.1086 -10.69 1.2518 2 13934
8.1286 -0.29238 0.18884 0 11134
8.137 -5.0668 0.44701 0 12681
8.1619 -9.2774 2.3281 0 13682
8.1896 -9.5888 1.4746 0 13719
8.1988 -5.9001 0.47105 1 13038
8.2398 -11.825 2.7154 0 14052
8.2615 -2.4959 1.4179 0 11643
8.3089 -11.924 2.0425 0 14049
8.3261 -8.0939 1.6319 0 13476
8.3421 -7.7411 1.3309 0 13432
8.3439 -11.685 1.6791 0 14017
8.3815 -3.1571 1.6875 0 11757
8.386 -3.4667 1.4909 1 11874
8.389 -7.9664 1.9007 2 13452
8.4015 -5.7871 1.4338 0 12936
8.429 -9.925 1.5227 0 13730
8.4872 -10.108 1.8549 0 13750
8.5273 -8.8828 2.32 0 13564
8.5553 -7.2323 0.78337 0 13335
8.6428 -8.8473 2.032 0 13542
8.6894 -4.2569 1.1315 0 12162
8.7016 -11.751 0.33948 2 13967
8.7453 -9.1611 2.3862 0 13572
8.7623 -9.3997 1.5028 0 13605
8.834 -5.0143 0.94768 1 12468
9.0338 -7.8198 1.1147 0 13365
9.0597 -10.426 1.2886 1 13695
9.1211 -4.0514 1.8804 0 11988
9.1296 -4.6719 1.9322 1 12256
9.1441 -5.2263 1.2317 0 12485
9.1865 -10.085 2.5703 0 13640
9.2046 -7.5958 2.2485 0 13303
9.2211 4.6277 0.96255 0 9967
9.2325 -11.132 1.0113 1 13769
9.2747 -7.6537 0.56077 1 13299
9.3011 -4.2918 0.95567 1 12050
9.3821 -10.732 2.342 2 13690
9.3917 -6.8813 0.27031 1 13078
9.5505 -7.977 0.87014 1 13318
9.5586 1.579 1.5917 0 10521
9.5893 -9.8781 0.64201 1 13546
9.6579 2.1783 1.1578 0 10420
9.8452 -3.5775 1.4722 0 11723
9.9825 -4.6401 1.027 1 12063
10.047 -3.4534 1.2423 0 11688
10.072 2.1814 1.6932 0 10429
10.115 -9.4921 1.6222 0 13441
10.127 -3.68 1.0053 0 11722
10.142 -5.2257 1.8744 1 12270
10.187 -6.6309 1.134 0 12783
10.314 -5.5466 0.27189 0 12350
10.393 -5.5888 1.6584 0 12355
10.495 -6.1205 1.4208 0 12534
10.558 -4.7604 0.54009 1 12009
10.675 -9.4515 0.33103 1 13383
10.798 1.8808 1.8008 0 10505
10.801 0.61713 1.7775 0 10801
11.046 0.05398 1.8148 0 10993
11.052 -3.8356 2.2041 0 11695
11.624 4.4995 2.0479 0 10196
11.811 -0.15255 1.9406 0 11054
13.349 2.8082 2.2412 0 10440
13.401 -3.0962 2.2596 0 11580
-9.3783 9.3652 -1.5499 2 5755
-6.559 7.3565 -1.6193 2 6190
-1.4631 6.705 -1.7966 1 8129
2.2291 3.8844 -1.6301 0 8899
3.1569 6.9175 -1.9906 0 8769
9.0164 2.6161 -1.9955 0 10327
10.097 3.0928 -1.9896 0 10307
11.321 3.2848 -1.9367 0 10323
