VERSION .7
FIELDS x y z intensity index
SIZE 8 8 8 8 8
TYPE F F F F F
COUNT 1 1 1 1 1
WIDTH 630
HEIGHT 1
VIEWPOINT 0 0 0 1 0 0 0
POINTS 630
DATA ascii
-4.6121 -0.53201 0.32465 0 1309
-4.6062 1.381 0.22425 0 2873
-4.5111 1.7761 0.33902 0 3361
-4.4972 1.6227 0.67193 0 3179
-4.3665 0.33521 0.30623 0 1986
-4.2597 -0.40416 0.50038 0 1368
-4.0023 -0.33327 0.65983 1 1396
-3.822 2.0296 0.3026 0 4164
-3.776 2.0613 0 0 4243
-3.6116 0.74662 0.17199 0 2505
-3.5632 1.8399 0.65886 0 4081
-3.3902 -0.17411 -0.47709 1 1485
-3.35 1.0678 0.41117 1 2960
-3.2121 2.9703 -1.4783 2 6449
-2.8273 1.6741 0.30654 0 4524
-2.6764 -4.0838 -0.11336 1 37
-2.5707 -2.0324 -0.076085 0 856
-2.3953 -3.0791 0.36395 2 237
-2.1157 -3.9343 0.31237 0 19138
-1.6429 -3.8779 0.69193 1 18962
-1.3668 3.4434 0.43324 0 10228
-1.1623 4.2897 0.73019 0 10806
-1.0815 3.8119 -1.1362 1 10760
-0.91009 3.474 -0.25112 0 10833
-0.67964 -4.9232 0.34753 0 18798
-0.63156 -4.2158 0.70036 1 18801
-0.44489 3.5266 0.33162 1 11065
-0.22625 4.5131 0.10491 0 11079
-0.18055 3.8004 -1.091 1 11080
-0.17204 -3.8781 0.63778 1 18769
-0.15822 4.8461 0.91354 0 11083
-0.0032797 -3.7588 0.26284 0 18737
0.0095761 -4.988 0 0 18734
0.28565 3.5503 0.41652 0 11095
0.34548 4.0134 -1.3611 0 11096
0.36513 -3.7306 0.43835 0 18706
0.42678 3.6059 0.084302 0 11105
0.57929 3.4916 -0.2475 0 11115
0.60514 4.2626 0.20077 0 11111
0.74077 4.2401 0.70717 0 11117
0.78395 4.0671 -0.38643 0 11120
0.9833 -4.2389 0.81985 0 18701
1.0117 3.5122 0.60049 0 11192
1.0706 -3.4543 0.68136 0 18699
1.2232 -4.7676 0.80866 0 18700
1.569 -4.6785 0.46037 1 18697
1.6474 -4.0714 0.51362 0 18693
1.6541 -4.4169 -0.32981 0 18695
1.8405 -3.6121 0 0 18671
1.9625 4.3023 0.10979 1 11426
1.9831 3.7533 -1.1113 0 11552
2.0263 -4.1528 0.10728 0 18683
2.0413 2.2703 0.5016 1 12432
2.2905 4.2169 0.22379 1 11581
2.2912 2.1911 0.29577 0 12717
2.5489 3.6866 0 0 11914
2.5642 -1.9162 -0.52592 1 17995
2.7343 1.7934 0 0 13538
2.8609 1.0885 0.5029 0 14567
2.9225 2.5911 -0.18214 0 12870
2.9804 -1.8951 0.66544 0 17776
3.0093 0.55992 -0.5029 0 15450
3.1021 -3.6592 -0.44755 0 18350
3.3531 1.036 -0.49323 0 14841
3.5214 0.44611 0.66877 0 15761
3.5839 -0.61326 0.68506 0 16743
3.6092 2.9489 -0.10821 0 13049
3.6112 3.2595 0.22686 0 12835
3.7481 2.6011 0.42563 0 13417
3.8235 0.75707 0.54779 0 15398
3.8708 -1.0278 0.092982 0 16785
3.9979 -0.34274 -0.56393 0 16668
4.0892 0.60239 0.58091 0 15652
4.5807 1.5176 -1.3837 0 14752
-2.3573 -1.5603 0.13183 0 1096
-14.342 2.7515 0 0 2446
-12.694 -0.13515 1.1844 0 1629
-12.425 -0.31233 0.57959 1 1574
-12.307 -2.1125 0.2899 1 1157
-12.016 8.3453 0 0 5127
-11.915 8.6406 0.34171 1 5316
-11.794 -0.46956 0.82536 0 1528
-11.772 -0.26303 0.27338 0 1585
-11.736 8.8789 0 0 5507
-11.602 8.8864 0.3393 1 5563
-11.426 8.5948 0 0 5480
-11.4 4.1876 0.28196 1 3211
-11.198 -0.67312 0 0 1463
-11.163 5.8858 0 0 4138
-11.114 3.191 0.26846 0 2817
-11.108 7.2024 0.30736 1 4857
-11.078 5.2391 0.28452 1 3825
-11.072 4.4712 0.27723 0 3419
-11.019 3.5124 0.53934 1 2958
-10.855 3.5627 0.26525 1 2999
-10.465 -1.3926 0.24511 0 1262
-10.258 6.738 -0.28494 0 4898
-10.255 7.9516 -0.30128 0 5611
-10.228 2.4574 0.24422 0 2644
-10.225 5.4297 -0.26878 2 4158
-10.013 4.8468 0 2 3883
-9.9957 8.6708 -0.30722 0 6137
-9.9907 2.4336 -0.47953 1 2655
-9.9407 6.4457 2.2322 0 4867
-9.925 -7.4329 -0.86707 0 935
-9.9183 5.9926 2.1833 1 4604
-9.9137 2.7829 -0.72003 2 2790
-9.8346 -10.842 0.33985 1 438
-9.8202 -8.4856 0.30132 1 727
-9.7802 2.0521 -0.46602 2 2516
-9.7792 5.9085 -0.53282 0 4588
-9.7726 7.1289 0.84587 1 5347
-9.7306 3.1936 -0.23777 2 2997
-9.7151 6.338 0.81113 0 4883
-9.674 1.912 0.92 0 2468
-9.6595 5.1642 2.0637 0 4195
-9.6576 -10.462 0.33057 1 459
-9.634 5.3711 -1.0291 2 4305
-9.5549 3.9227 -0.72226 2 3454
-9.4579 -6.26 1.8634 2 1097
-9.4485 10.904 0 0 7474
-9.371 9.1832 -0.30462 2 6713
-9.3685 -11.685 2.4607 0 268
-9.3269 10.03 -0.31799 1 7148
-9.2562 4.5426 -0.721 0 3922
-9.1537 11.741 0 0 7963
-9.0423 -11.624 2.4195 0 239
-8.9731 1.855 1.7264 2 2511
-8.9713 -8.264 2.2981 0 637
-8.9011 -6.7466 -0.25931 0 918
-8.888 -8.7281 2.0466 0 573
-8.8433 8.6661 1.4479 0 6723
-8.8392 -6.8219 2.1037 0 899
-8.6966 -7.2509 1.3241 0 782
-8.6103 11.045 -0.32514 0 7961
-8.5192 7.3899 -0.52593 2 6135
-8.4952 3.8393 1.0902 0 3706
-8.4665 -8.6066 0.56301 1 533
-8.4334 11.422 -0.32964 0 8213
-8.3958 9.463 -0.29371 0 7367
-8.3748 -10.828 1.6008 0 232
-8.3269 -12.234 1.7306 0 81
-8.3017 -6.407 -0.48903 1 891
-8.2347 -0.23002 0.96335 0 1564
-8.2225 -8.2571 0.27055 0 546
-8.1888 -11.242 0.32291 1 161
-8.1576 -5.9989 1.9078 0 964
-8.1338 0.41061 0.56949 0 1871
-8.1108 9.6319 0 0 7610
-8.0472 11.174 1.2847 1 8327
-8.0425 -12.653 2.4633 2 19282
-8.0422 -11.528 1.6438 0 106
-8.0372 0.032262 0.93989 0 1688
-8.017 10.162 1.5137 0 7919
-8.0156 -6.1484 -0.94248 0 900
-8.0148 -11.705 2.6729 0 89
-8.002 -6.2857 1.6718 2 871
-8.0002 -6.2123 -0.47236 1 880
-7.9752 9.9939 0 2 7858
-7.939 2.1763 0.96266 0 2774
-7.8841 9.5846 0.28814 1 7724
-7.8657 9.6202 -0.5795 1 7748
-7.8653 1.4365 -1.1237 1 2410
-7.8357 -5.9025 -0.68599 1 925
-7.8119 -12.693 1.743 1 19257
-7.7937 3.4423 0 2 3638
-7.7298 -0.30776 1.4575 2 1530
-7.7262 -12.398 1.3629 0 19264
-7.7103 -6.1286 -0.45931 1 847
-7.6958 -12.588 0.34254 1 19250
-7.6811 3.1018 -0.19232 1 3417
-7.6565 3.7062 1.6027 1 3895
-7.6442 9.2929 0.56114 2 7726
-7.6009 11.432 2.2554 1 8693
-7.5939 -12.421 1.7025 0 19253
-7.5827 -12.735 1.0364 1 19232
-7.5671 -9.5576 2.0028 0 256
-7.5658 -11.47 1.2819 0 46
-7.5483 -11.597 0.64527 1 30
-7.5427 -8.822 1.3573 0 340
-7.529 -6.1295 1.3645 0 816
-7.5228 11.988 0.65999 1 8909
-7.4684 3.559 1.3592 2 3853
-7.46 7.5728 0.74332 1 6882
-7.4577 -9.0856 1.9312 1 298
-7.4236 11.453 0.95441 1 8789
-7.4043 -4.8084 1.6634 0 1112
-7.401 4.4716 1.2153 1 4600
-7.395 -11.725 2.6118 0 4
-7.3854 -11.416 0.95078 1 24
-7.3529 0.11294 -1.0335 1 1721
-7.2927 4.8783 0.81856 1 4979
-7.2897 5.9963 0.88062 2 5895
-7.2742 -1.1183 1.0343 0 1205
-7.2469 4.9714 1.4438 0 5083
-7.1894 -9.4613 2.2389 0 212
-7.1417 1.2413 1.0187 2 2377
-7.1371 7.9965 1.761 1 7352
-7.0854 -4.6013 0.98798 0 1109
-7.0196 -7.3021 0.47236 1 505
-7.0091 4.7526 1.3913 0 5031
-6.972 -6.5723 1.8052 2 608
-6.9715 -4.5551 0.58233 0 1104
-6.9425 -6.5446 1.1157 0 606
-6.8909 -6.9635 1.6095 0 544
-6.8839 -13.062 2.0751 0 19121
-6.8831 3.942 0 1 4401
-6.8828 -4.8805 1.5897 0 1016
-6.8573 2.4283 1.0224 1 3139
-6.8429 1.6441 1.1562 0 2649
-6.6912 3.7029 1.2564 1 4300
-6.6759 0.33702 0.78169 2 1872
-6.5649 -6.0114 1.6771 1 645
-6.5553 -8.4754 1.5059 1 233
-6.5512 -12.975 1.356 0 19092
-6.5252 -10.673 2.357 0 19255
-6.4695 -6.7299 -0.65278 1 502
-6.4689 -7.5661 1.6355 2 341
-6.4316 -7.0115 1.3372 0 455
-6.4193 -8.7612 1.5265 0 170
-6.4158 1.8615 1.0976 1 2834
-6.4106 -12.436 -1.3053 0 19106
-6.3778 1.7699 0.30866 0 2785
-6.3648 6.0274 1.232 0 6562
-6.3591 9.8108 -0.81755 1 8781
-6.3345 10.157 1.3998 0 8939
-6.3242 -6.9722 0.8782 0 440
-6.319 -13.38 1.7304 0 19041
-6.3169 -12.598 2.3154 1 19089
-6.3085 -13.449 2.4406 1 19036
-6.3047 -8.6048 1.2475 0 169
-6.2729 -5.5439 0.78104 1 690
-6.2414 -5.114 0.7528 2 803
-6.2337 -7.5944 1.8512 1 299
-6.23 7.7597 0.46406 0 7835
-6.2219 7.0128 1.7664 2 7382
-6.1171 6.8947 1.0779 2 7377
-6.094 -7.5094 1.3592 0 283
-6.0806 -9.7575 1.6158 1 19265
-6.0462 -8.1501 0.94675 1 180
-6.0205 -13.235 0.67807 1 19008
-5.9935 -13.176 1.3505 0 19009
-5.9683 4.0683 1.0151 0 5054
-5.968 -3.8757 1.0001 0 1110
-5.9656 -8.9925 1.773 2 56
-5.9622 12.427 2.5969 0 9797
-5.902 -12.975 0.33094 1 19007
-5.8853 -9.2168 2.0604 2 15
-5.8661 -12.896 1.6568 0 19010
-5.8568 -13.173 2.7162 1 18991
-5.8324 -6.7783 0.6253 0 349
-5.832 -7.366 0.87653 0 255
-5.8206 2.4288 1.1883 0 3503
-5.8126 -5.708 0.76004 2 571
-5.8119 8.0702 0.46378 0 8323
-5.7896 9.3998 2.08 0 8993
-5.7881 -3.9277 1.3179 0 1067
-5.7874 -8.2961 0.70733 0 105
-5.7699 -10.022 1.6253 1 19203
-5.7652 9.0114 2.0156 0 8844
-5.7613 1.5104 0 0 2726
-5.6533 -12.331 1.2656 0 19016
-5.6453 -7.0844 1.4883 0 261
-5.6386 -4.3517 0.49806 0 895
-5.5689 -13.043 2.6721 1 18967
-5.5627 8.0606 1.8452 2 8527
-5.5202 -8.917 1.723 0 19263
-5.475 -12.036 2.1724 0 19011
-5.4612 7.0507 1.2534 0 8000
-5.435 -9.697 1.3 0 19174
-5.3734 -4.586 0.32944 0 746
-5.3 -8.6692 0.47385 1 19251
-5.2723 0.61935 0.12325 0 2145
-5.2201 -7.3021 1.6912 0 142
-5.2097 -10.472 2.2037 1 19086
-5.1628 -13.471 0.33493 1 18894
-5.0967 -8.9681 0.23949 0 19183
-5.0877 1.1139 0.85567 1 2561
-5.0396 9.0506 1.7019 1 9342
-4.9415 7.293 1.2381 2 8611
-4.9367 -6.1576 0.92293 1 266
-4.8575 -5.1134 -0.49318 0 489
-4.8363 -9.1768 0.24084 0 19120
-4.8079 -6.562 1.5327 1 172
-4.6557 -7.8194 0.84903 1 19233
-4.6466 -9.6205 0.74709 1 19061
-4.543 5.8992 0.52066 0 8023
-4.5258 2.5574 -0.24242 0 4351
-4.4983 -6.9988 0.58177 0 19
-4.4962 4.1344 1.0035 0 6430
-4.4905 -10.599 2.1689 0 18963
-4.4862 5.4538 0.82583 0 7732
-4.4682 4.8643 0.7724 0 7210
-4.4522 -5.5216 1.1653 0 275
-4.2702 7.5077 1.2139 0 9270
-4.2106 -3.2696 0.37278 0 884
-4.1594 -8.4866 1.3283 0 19080
-4.0664 -14.033 1.3631 0 18808
-4.0565 -6.4666 1.2542 0 19268
-3.9901 -8.3167 1.5155 1 19055
-3.7651 8.4685 1.5226 0 9995
-3.7618 4.9131 0.72362 0 8053
-3.6998 -4.9872 0.72617 0 181
-3.4456 -4.6192 0.94678 0 190
-3.4054 5.4988 -0.60343 0 8950
-2.6976 4.6518 0.62884 0 9198
-2.4289 6.7428 0.66864 0 10407
-1.818 -8.5456 1.4354 1 18804
-1.6746 -5.3178 0.78354 0 18823
-1.3373 8.9374 1.4847 0 11047
-1.1558 -7.8749 1.3077 0 18800
-1.0894 5.4272 -1.4491 0 10979
-1.052 -5.3277 -0.12608 0 18802
-1.0194 -7.0831 1.1757 0 18799
-0.97105 8.4702 1.4007 0 11068
-0.94546 5.6377 0.13272 0 11026
-0.81273 -7.4813 0.70208 0 18793
-0.56174 -7.0744 0.49625 0 18783
-0.40391 -6.8593 0.80353 0 18776
-0.3117 -5.5578 -0.12924 0 18775
-0.25575 9.513 1.5635 0 11085
-0.24411 -8.1293 1.3362 0 18758
-0.051276 5.4401 0.50756 0 11087
0.35354 -6.5279 0.7645 0 18712
0.37278 6.5447 0.76659 0 11091
0.64449 -6.7801 1.119 1 18707
0.96497 8.153 1.3488 0 11107
1.1282 -7.7812 1.2918 0 18704
1.4882 10.066 1.6718 0 11112
1.6068 8.0854 -1.3544 0 11123
1.6418 4.8927 0.60352 0 11253
1.7101 6.2171 -0.60157 0 11173
1.9947 5.7768 0.57017 1 11269
2.0504 5.3304 -0.53283 0 11322
2.1004 6.325 1.095 0 11248
2.1375 7.589 1.2953 0 11183
2.1481 4.7092 0 0 11425
2.1561 -5.6051 0.98667 2 18694
2.3732 4.971 -0.64417 0 11457
2.3757 -4.8344 0.50255 1 18682
2.4009 -6.8982 1.2 0 18696
2.42 -7.3519 0 0 18698
2.5669 -6.2402 1.1086 0 18692
2.5721 8.2939 1.4267 0 11217
2.5744 -4.3426 0.82941 0 18656
2.5998 -5.9282 1.0635 0 18687
2.9753 4.6096 0.90139 0 11818
3.2431 6.5446 -0.16958 0 11488
3.2719 5.9418 1.1144 0 11597
3.3505 -7.8248 0.99541 0 18688
3.6259 4.1302 0.2563 0 12382
3.712 4.841 -0.14163 0 12090
3.8411 3.4464 -0.11981 0 12847
3.9319 -3.5093 0.74068 0 18149
4.135 4.1452 -1.1031 0 12631
4.1439 2.8417 0.11666 0 13442
4.1921 8.2809 1.5249 0 11509
4.2108 2.7807 -0.47078 0 13523
4.6445 3.9069 0.4244 0 12989
4.6953 -1.9276 0.35492 0 17087
4.6967 5.8082 0.69688 0 12195
4.7028 6.48 1.3154 0 11999
4.7164 3.2137 -0.53246 1 13454
4.7797 -2.6451 0.63883 0 17566
4.8578 -3.9704 1.0308 0 18078
4.8848 2.5929 0.64673 0 14048
4.9399 2.1963 -0.25211 1 14367
4.9715 -6.526 0.57368 0 18451
5.0367 -3.0001 0.54695 0 17685
5.0858 -5.9652 1.2879 0 18348
5.225 1.9369 0.12938 0 14596
5.2389 -1.2442 0.50236 1 16765
5.3384 0.13233 0 0 16307
5.4278 -1.852 1.0805 0 16906
5.4739 -4.5252 0.99815 0 18090
5.476 -2.03 0.68297 0 16969
5.6083 -1.1115 0.93933 1 16751
5.6317 4.6013 -0.67848 0 13048
5.6799 3.8456 -0.80214 0 13469
5.7019 8.6212 1.9474 0 11855
5.7477 0.74446 -0.27028 0 15735
5.8183 4.2428 0.84209 1 13304
5.9373 1.3566 1.0006 0 15233
6.0067 3.7461 1.1631 0 13695
6.1002 -1.4319 1.0295 0 16763
6.3029 -1.1352 0.44784 0 16745
6.4053 5.5818 0.99355 0 12911
6.4366 -1.6072 0.15403 0 16773
6.6874 -0.14592 -0.62405 0 16493
6.6879 6.899 0.67189 0 12569
6.7678 -1.6498 0 0 16768
6.8021 1.1224 0.64318 2 15562
6.9127 10.58 1.4779 0 11835
6.923 1.5171 1.3353 0 15284
6.9641 -4.9564 0.99959 1 17928
7.0205 6.9912 0.69282 0 12637
7.0706 7.3346 0.95047 1 12559
7.1217 4.6461 0.5946 0 13556
7.1644 7.0972 1.9 0 12651
7.2498 2.1049 1.4223 1 14937
7.2518 -7.8807 0.99915 0 18299
7.3011 6.9431 1.1782 0 12731
7.304 7.7562 0.745 0 12516
7.3592 5.5637 1.7382 1 13237
7.3679 11.494 2.2431 0 11810
7.4367 5.8626 0.44161 0 13132
7.4426 -5.6615 0.6539 0 18015
7.452 -8.9505 1.362 0 18367
7.4783 -5.3224 1.508 0 17929
7.5182 11.577 1.6143 0 11825
7.5192 -3.6381 0.97683 0 17331
7.5271 6.1872 0.90904 0 13038
7.5335 10.008 1.4649 0 12059
7.6276 -4.665 1.0456 0 17724
7.6527 8.2209 1.3134 0 12495
7.661 -7.0372 1.7091 2 18171
7.7576 6.9605 0.72882 0 12850
7.7594 -7.2968 1.4969 0 18188
7.7799 -4.1297 1.03 0 17507
7.7845 -9.0248 1.9581 0 18339
7.8037 -1.8318 -0.1861 0 16761
7.8221 -8.3093 1.6038 0 18289
7.8354 -9.8082 2.0625 1 18407
7.8399 -8.0394 1.0476 0 18264
7.8412 -9.0362 1.1162 1 18332
7.8566 11.951 1.6726 0 11844
7.862 6.0523 0.6938 0 13191
7.8837 5.2062 1.1048 1 13532
7.913 10.57 2.4877 0 12052
7.919 -6.8621 0.97759 0 18129
7.93 6.874 0.48941 1 12920
7.9368 4.213 -1.2629 0 14039
7.9371 -7.124 1.2472 0 18153
7.9546 -9.3831 1.7288 0 18354
7.9588 -9.9058 0.88856 2 18397
7.9624 0.42705 0.18513 0 16155
7.9924 -9.0497 1.4119 1 18323
8.0252 9.687 1.1736 0 12242
8.031 8.1896 1.8845 2 12597
8.0932 -4.1183 1.2762 1 17440
8.1056 -3.6615 0.62195 0 17211
8.1241 10.047 0.90349 1 12193
8.1335 -10.362 1.229 0 18425
8.1732 -1.4721 1.3644 0 16746
8.1957 0.50988 1.5471 2 16100
8.1979 -6.9819 1.5134 0 18121
8.276 -9.9402 0.90446 1 18364
8.3412 0.20677 0.77843 0 16311
8.3485 0.20695 1.5734 1 16318
8.3552 11.234 1.9676 0 12037
8.3782 -8.4487 1.9548 0 18254
8.3825 -4.6733 1.8082 2 17578
8.391 -7.4003 1.5724 0 18140
8.3917 7.66 2.1407 0 12818
8.4163 -6.444 0.98893 0 18021
8.431 -10.371 0.9346 1 18384
8.4428 -7.7147 1.879 0 18167
8.4976 12.068 1.377 1 11940
8.5096 11.576 2.7069 0 12019
8.543 -7.8063 2.1804 0 18168
8.6128 9.5253 2.1098 2 12443
8.6213 -9.0532 0.87419 1 18279
8.6251 -8.251 1.1136 0 18199
8.6401 1.48 0.81782 0 15533
8.6569 1.1735 0.81503 0 15710
8.657 2.7595 1.7119 0 14812
8.7027 -9.4113 1.1959 0 18297
8.7453 4.104 0.67552 0 14286
8.7639 -3.5979 0.4418 0 17086
8.7663 11.646 2.3948 0 12063
8.7713 -8.689 2.0285 0 18238
8.7772 -0.90394 -0.20486 0 16698
8.7827 9.8817 1.2334 0 12407
8.7855 -6.9284 0.78239 0 18048
8.8159 -10.34 0.31548 1 18344
8.8176 -9.5355 1.5188 0 18298
8.8197 -7.4691 0.53897 1 18114
8.8209 -5.2541 1.4429 1 17686
8.8337 -2.5915 0.42931 0 16818
8.8371 0.7576 0.82748 2 15974
8.8477 6.1036 1.257 0 13433
8.8557 -9.0811 0.59152 1 18263
8.8568 6.1878 0.50385 1 13401
8.876 -5.3248 0.72379 0 17695
8.9129 -7.0289 0.26354 0 18047
8.9176 5.3816 1.4638 2 13775
8.9223 -0.010901 0.41608 0 16413
8.9237 -3.3365 1.1141 1 16977
8.9412 -0.010924 0.83417 1 16415
8.9525 -0.010938 1.6867 1 16422
8.9565 -6.4906 0.77346 0 17954
9.0034 -0.039285 1.2654 1 16432
9.062 -7.6282 1.3852 0 18109
9.0683 5.0536 1.9559 0 13944
9.0761 -9.5843 0.92302 1 18282
9.0788 -4.1011 1.4001 0 17213
9.0848 6.4658 0.77974 2 13359
9.0873 -7.9693 0.28062 1 18133
9.0875 -9.8757 1.5694 0 18300
9.1109 7.1825 1.0824 0 13135
9.1204 -5.5409 0.99562 0 17713
9.157 -5.8968 0.7616 0 17790
9.1656 3.7609 1.6277 1 14470
9.172 -6.6884 0.52937 1 17962
9.1746 6.367 2.1041 0 13421
9.1853 6.4556 0.26066 0 13384
9.2033 -0.27958 1.294 0 16526
9.2214 -0.28013 1.7382 0 16530
9.2225 -10.086 0.95566 1 18301
9.2256 7.1021 1.3615 0 13195
9.2793 1.013 1.0916 1 15848
9.2857 -3.3175 1.8578 0 16941
9.2963 -7.6851 1.1253 0 18088
9.3023 -7.6465 1.6923 0 18083
9.3031 -10.174 1.6122 0 18303
9.3362 -3.9284 1.1845 2 17120
9.3371 -0.93525 1.3188 0 16693
9.3742 -3.0477 1.3853 0 16869
9.3774 -5.2624 0.24966 1 17582
9.3788 6.47 1.6013 0 13434
9.383 6.7573 1.8997 0 13334
9.4004 -7.8182 0.57018 1 18095
9.4041 -6.4078 0.53068 1 17862
9.4078 7.9615 1.1498 0 12979
9.5041 9.7426 2.5644 0 12586
9.5042 -8.8349 0.90739 2 18178
9.5144 -7.4603 0.84545 1 18041
9.5191 0.70238 1.1162 0 16034
9.5228 6.5693 0.2686 0 13427
9.5288 -8.0696 2.0515 2 18116
9.5291 -10.123 0.32277 2 18286
9.5372 7.6983 1.4333 0 13079
9.5621 -7.1873 1.116 0 18004
9.5989 0.62747 0.22333 0 16072
9.6035 -9.187 2.504 0 18201
9.6359 10.055 2.624 1 12553
9.6507 -6.1363 1.067 0 17774
9.651 -8.9714 1.2293 1 18179
9.6698 11.069 0.68543 1 12371
9.7056 6.2476 1.6222 0 13587
9.7188 -4.8393 2.0456 0 17404
9.7237 -0.01188 1.1371 0 16416
9.7373 7.6295 1.1541 0 13152
9.7502 -4.6444 1.5178 0 17301
9.7628 -7.3381 2.3011 0 18006
9.7831 2.3234 1.652 0 15183
9.7906 -2.5375 1.9056 0 16782
9.7948 -6.1897 1.9036 0 17766
9.7997 -6.5159 1.9334 0 17828
9.8493 -9.6452 2.5973 2 18227
9.85 7.9991 1.1838 1 13065
9.8641 10.475 0.67099 1 12514
9.8897 -10.029 1.314 0 18256
9.899 -3.5697 1.7289 1 16946
9.9136 11.026 2.7936 0 12433
9.9372 5.4608 1.0579 1 13970
9.9545 -5.8964 1.0794 0 17674
9.9547 -5.4365 2.137 0 17549
9.9581 -10.276 2.0111 0 18268
9.9606 7.8523 1.4832 0 13137
9.9681 7.5854 2.058 0 13222
9.9756 -10.116 1.6614 0 18257
9.9796 9.6035 1.9465 0 12709
9.9813 -8.0137 1.799 0 18062
9.9853 -7.779 1.4802 0 18036
9.9892 -9.8955 0.65571 1 18235
10.006 -2.4077 0.23893 0 16766
10.015 -9.9804 1.9871 0 18244
10.035 2.3222 1.2045 1 15212
10.052 -4.7881 1.302 1 17300
10.07 -8.8815 0.62617 2 18137
10.076 -0.33776 1.1789 0 16532
10.078 7.8061 2.4018 0 13183
10.087 9.8232 1.6466 0 12682
10.108 6.0186 1.6534 0 13801
10.111 -3.7122 1.0049 0 16958
10.124 8.4707 1.5436 0 13006
10.136 -8.6813 0.9332 1 18125
10.142 -9.7632 0.9844 1 18202
10.142 -7.4885 1.1762 0 17983
10.258 -7.5738 0.89163 1 17981
10.276 5.4545 0.8135 0 14045
10.284 5.6511 1.3722 0 13971
10.303 -3.1833 1.006 0 16840
10.324 -2.2662 0.73914 0 16756
10.324 9.5937 1.9807 0 12778
10.333 -0.55236 1.7 0 16596
10.377 -8.0845 1.2273 0 18035
10.405 -9.1253 1.9451 0 18135
10.406 -2.7941 1.26 0 16791
10.433 -3.6271 2.0811 0 16921
10.439 -3.8325 1.3004 1 16959
10.445 5.7399 2.2455 0 13976
10.456 -7.2591 0.89009 1 17891
10.463 1.9128 0.49602 1 15473
10.478 -3.508 0 0 16889
10.505 7.1127 2.3903 0 13480
10.511 1.9861 1.5033 0 15445
10.514 0.992 0.49248 1 15923
10.517 -10.001 1.0148 1 18195
10.549 0.53438 1.7353 1 16183
10.556 -5.5678 1.1134 0 17496
10.575 -8.0971 1.8719 0 18022
10.585 -4.3109 1.8777 1 17081
10.601 -4.1056 1.3295 0 17018
10.607 -8.6695 1.9253 0 18077
10.615 -8.175 0.31107 1 18026
10.633 1.4415 1.5081 0 15713
10.673 -0.076375 1.5 0 16444
10.742 -9.5268 1.3395 0 18144
10.772 1.8762 1.0201 0 15517
10.78 -8.5011 2.5866 0 18051
10.823 1.3079 0.50841 1 15783
10.837 -3.0769 2.1226 0 16808
10.837 7.1563 0.90809 1 13529
10.91 4.9286 1.1169 0 14349
10.985 -8.0103 1.5899 1 17965
11.047 6.4114 0.29654 1 13851
11.05 -3.2418 0 0 16816
11.096 -9.45 1.3598 0 18120
11.231 -6.8692 2.163 0 17725
11.633 -7.2071 1.2767 0 17742
11.693 -7.8217 0.98371 1 17835
-5.2928 6.7892 -1.6219 2 7977
-0.21373 5.5135 -1.5822 0 11082
1.8527 3.6314 -1.7028 0 11515
2.6161 1.5379 -1.5243 0 13821
4.5823 2.4323 -1.753 2 14043
5.7008 4.7955 -1.5835 0 12994
8.4262 4.1043 -1.9922 2 14221
