VERSION .7
FIELDS x y z intensity index
SIZE 8 8 8 8 8
TYPE F F F F F
COUNT 1 1 1 1 1
WIDTH 618
HEIGHT 1
VIEWPOINT 0 0 0 1 0 0 0
POINTS 618
DATA ascii
-4.8665 0.13423 0.91724 0 1899
-4.7239 -0.032155 0 1 1756
-4.6728 1.6391 0.34627 0 3197
-4.5099 0.65309 0.74867 0 2383
-4.4585 1.5083 0.10928 0 3145
-4.1052 2.2587 -0.88281 1 4339
-3.7051 0.38354 0.26047 0 2204
-3.6829 2.6221 -0.31614 2 5305
-3.5742 2.7854 -1.2994 0 5719
-3.4682 2.4077 0 0 5205
-3.4559 -2.31 0.09651 0 1097
-3.1976 2.4786 0.66469 0 5697
-3.0813 3.4889 -0.10807 0 7457
-3.0651 2.7194 0.19109 1 6316
-3.0599 0.82218 0.37052 1 2874
-2.7648 3.0236 -1.4912 2 7288
-2.7529 3.0822 0.67896 0 7414
-2.7024 2.4693 -1.2369 0 6451
-2.6837 2.6903 0 0 6877
-2.6545 -3.5651 -0.1032 0 164
-2.5366 2.9407 0.45415 0 7576
-2.3158 -2.1626 0.14776 0 626
-2.3038 3.9378 0.42563 0 9177
-2.229 -2.6896 0.57391 0 298
-2.1456 2.228 -0.071814 0 7036
-1.9621 -3.1645 0.52329 0 19597
-1.9583 3.2838 -0.35671 1 9090
-1.9381 -2.4532 0.21862 0 238
-1.896 4.6115 -0.58308 1 10101
-1.6738 -4.0073 0.10083 0 19303
-1.2809 3.6434 0.72765 0 10417
-0.98988 3.5962 0.17394 0 10741
-0.97724 4.2668 0.71917 0 10872
-0.70085 -3.9465 0.65853 0 19081
-0.56871 3.5585 0.59206 1 10983
-0.4197 -3.7242 0.34965 0 19075
-0.31213 -4.1904 0 0 19063
-0.23863 -3.6215 0.59628 1 19059
-0.16869 4.9802 -0.70032 0 11028
-0.022786 -4.6627 0.10826 0 19022
0.14757 3.8238 0.72098 0 11039
0.17371 3.6699 0.34277 0 11041
0.23019 3.7209 0 0 11044
0.36647 3.9133 0.27484 0 11049
0.82211 -3.9803 0.37918 0 18978
0.9364 2.9165 -0.071118 0 11162
0.98281 -3.5129 0.68728 0 18975
1.0412 -4.4568 0.53522 0 18977
1.0831 4.1434 0.7036 0 11106
1.1902 -3.3388 0.3307 0 18971
1.2753 3.9722 -0.38922 0 11161
1.3139 -4.0533 0.70004 0 18974
1.3556 3.3654 0.68358 0 11268
1.4206 -3.7143 0.65335 0 18968
1.4889 3.8566 0 1 11241
1.5035 4.1806 0.41448 0 11216
1.5903 -4.6768 0.81158 0 18973
1.6472 3.2217 0.68173 0 11447
1.6912 3.5585 -0.83747 0 11368
1.7075 4.346 0.76715 0 11251
1.7365 3.1444 0 0 11512
1.8891 4.1569 -1.3093 0 11337
1.9216 2.8436 0 2 11809
1.9901 2.6544 0.54505 0 11990
2.1288 4.2829 0.22304 0 11417
2.3207 -2.5783 0.65359 0 18550
2.3636 -3.4571 -0.3907 1 18847
2.3755 2.7804 0.084905 0 12204
2.5712 -2.4002 0.24596 0 18434
2.6298 -3.0596 -0.3764 0 18596
2.6358 -2.7476 0.35522 0 18500
2.6638 3.5959 0.31293 0 11961
2.6969 3.2681 0.69615 1 12143
2.7128 2.9081 -0.092333 0 12386
2.8709 -1.8701 0.15978 0 17960
2.8733 -0.9888 0.14171 0 17205
2.895 -2.0196 -0.66507 0 18118
2.9257 -3.8087 0.1115 0 18750
2.9635 0.73889 0.57545 0 15247
3.2527 -3.2358 0.42805 0 18470
3.2555 2.0533 -0.089362 0 13535
3.2681 0.15641 -0.45983 0 16115
3.382 0.18198 -1.0569 0 16096
3.4556 -1.2899 0.60601 2 17244
3.4728 -0.66625 -0.16491 0 16923
3.5024 -2.3677 -1.2123 1 18036
3.5297 1.3071 -0.80004 1 14670
3.5563 -0.13911 0.08263 1 16467
3.7765 2.46 -0.21018 0 13462
3.7772 -0.9649 0.27261 0 17044
3.8839 1.5534 -1.0951 0 14531
3.9036 0.70167 -1.1373 1 15512
3.9085 -1.2579 0.28712 0 17173
3.9574 2.9875 -0.4626 0 13150
4.167 0.2965 0.48853 1 16023
4.1932 0.33443 -1.2062 1 15974
4.2969 0.14405 -0.40111 0 16175
4.3484 1.6241 0.76261 1 14657
4.4372 0.45776 0.10357 1 15852
4.4525 1.3893 -1.4554 1 14956
4.4705 1.7 -1.2521 0 14622
4.5729 0.64675 -1.209 1 15673
4.6259 0.046022 -1.211 0 16280
4.6975 0.40272 -0.10946 0 15940
4.8197 -1.2923 0 1 17071
4.9581 0.035479 -1.4217 0 16291
2.0048 1.7446 -1.3349 0 12853
-12.566 -2.1863 1.1899 0 1188
-12.444 5.8451 0.31919 1 3849
-12.409 5.5663 0 0 3726
-11.919 6.642 0.31678 1 4374
-11.81 6.1427 0 1 4146
-11.808 5.4236 0 0 3783
-11.452 4.5111 0.28577 1 3414
-11.382 2.1526 0.54018 1 2564
-11.362 3.4433 0 0 3004
-11.258 6.2738 0 1 4372
-11.257 1.526 0.52975 1 2344
-11.229 3.9786 -0.83303 2 3207
-11.164 6.2673 -0.29724 1 4389
-11.159 0.34287 -0.52062 0 1904
-11.118 7.3978 0 0 5038
-11.113 6.2389 0.29589 1 4392
-10.97 1.3625 0.51549 1 2293
-10.915 4.0811 -0.54344 1 3304
-10.914 0.65221 0.25383 0 2020
-10.908 -1.3799 -0.25527 0 1318
-10.905 0.30079 -0.25328 2 1893
-10.795 -0.10739 -0.25063 0 1743
-10.77 8.4934 0 1 5768
-10.697 1.7364 0.25161 0 2455
-10.69 1.1991 0.24975 1 2242
-10.684 -1.6348 0 0 1239
-10.608 4.5379 0 0 3599
-10.598 1.783 -0.24952 1 2481
-10.577 -8.3832 0.31335 1 862
-10.514 8.6488 0.31608 1 5962
-10.468 4.7683 -0.26706 1 3765
-10.453 7.3055 -0.29608 0 5229
-10.416 4.0673 0 0 3394
-10.401 -9.0639 -0.96473 1 721
-10.274 6.964 0 0 5110
-10.255 9.2592 0.32077 1 6397
-10.089 10.842 0 0 7207
-10.077 -0.80196 -0.23471 2 1495
-10.051 7.3752 -0.28944 2 5443
-10.006 4.4175 -0.51009 2 3678
-9.995 3.3462 -0.73705 2 3126
-9.9644 4.0623 1.2584 0 3495
-9.9341 2.7587 0 0 2911
-9.9302 1.9969 -0.47236 2 2606
-9.9098 -9.8683 1.3048 0 565
-9.8957 0.67809 -0.92539 1 2050
-9.834 7.1265 -0.28196 2 5389
-9.8144 0.38732 -0.68682 1 1934
-9.807 9.2805 0 0 6617
-9.5791 4.7384 1.502 0 4006
-9.5737 -10.281 -0.32616 0 474
-9.5505 -10.31 -0.98273 1 462
-9.495 6.8027 1.3659 0 5347
-9.4906 8.9811 -0.30337 2 6615
-9.3936 -6.3575 1.3264 0 1084
-9.3901 -10.685 -0.66335 0 387
-9.2954 -0.19958 -0.21586 1 1698
-9.2624 -0.68506 0.8665 1 1516
-9.2374 4.1747 -0.47273 2 3744
-9.1736 -6.7683 -0.79718 2 974
-9.1575 4.4625 0.47506 1 3956
-9.1528 -1.345 1.3002 0 1255
-9.1201 -9.8453 0.31158 1 465
-9.1089 -1.6652 1.5213 1 1168
-9.0701 -8.6192 2.0557 2 611
-9.0668 8.2385 -0.28443 0 6420
-8.9888 4.9785 -0.95864 2 4343
-8.9546 4.5922 -0.7037 2 4098
-8.9383 1.2403 -0.63102 0 2353
-8.9207 -9.7489 -0.3068 0 448
-8.8901 4.269 -0.68961 2 3907
-8.8838 9.2769 -0.29821 0 7066
-8.8453 4.1849 1.1443 0 3876
-8.8229 4.3644 0.45903 0 4000
-8.8111 8.5804 -0.28554 0 6752
-8.7956 -9.8374 1.5432 1 420
-8.7837 0.70209 -0.82209 1 2098
-8.7596 3.5711 -1.1062 2 3483
-8.7136 8.8392 1.7444 0 6941
-8.6216 12.177 -0.3464 0 8452
-8.6146 11.659 -0.67602 1 8264
-8.5768 2.5438 1.4698 0 2988
-8.5487 -8.4155 1.1192 0 575
-8.5463 7.6762 -0.53571 1 6364
-8.4918 -9.7241 1.5097 0 382
-8.4862 -5.53 0.47236 1 1126
-8.4761 -7.5599 -0.52965 0 687
-8.3877 11.147 -0.32388 1 8190
-8.3736 11.128 -0.64947 1 8188
-8.3298 12.202 2.7836 0 8622
-8.2549 4.0226 1.5087 2 3965
-8.2058 -5.5871 0.23048 0 1072
-8.2028 12.097 -0.68161 1 8631
-8.1991 -6.8556 0.9971 0 791
-8.1906 -0.93899 0.76915 1 1358
-8.125 -6.6715 1.7272 0 819
-8.0884 8.3992 1.3636 0 7048
-8.0871 -8.0057 1.8696 2 573
-8.0812 2.6304 1.1944 0 3094
-7.9746 7.8998 -0.26061 2 6824
-7.8556 4.9642 1.0867 0 4845
-7.8287 5.3725 0.66394 0 5161
-7.7881 9.298 -0.56562 0 7712
-7.7596 -11.741 -0.98412 0 19669
-7.7561 -0.45808 1.092 0 1573
-7.7157 -11.899 2.33 2 19653
-7.6967 9.4068 0.84991 2 7831
-7.6702 -5.2225 0.64887 0 1073
-7.6676 1.7041 1.2905 1 2701
-7.6472 -5.4045 1.0951 2 1039
-7.6264 5.1693 1.0774 0 5118
-7.6249 1.126 -0.35944 0 2388
-7.6142 0.45503 1.2532 1 2025
-7.5698 -5.8591 0.89306 0 898
-7.5155 5.651 0.65752 0 5553
-7.4971 3.1576 1.3365 0 3568
-7.4155 -12.196 2.006 0 19579
-7.3437 -8.7086 0.53124 1 321
-7.3381 -5.9571 0.44077 2 833
-7.3117 -5.0102 1.0365 2 1066
-7.3107 -12.024 1.6456 0 19578
-7.2754 2.768 0.72623 2 3343
-7.2671 0.66647 1.3749 2 2158
-7.2388 4.3426 1.5905 0 4647
-7.2204 -8.8688 1.067 0 271
-7.1779 -12.523 2.3715 1 19531
-7.1748 -5.8914 0.86612 2 816
-7.1692 -8.4506 0.5168 1 330
-7.1211 13.023 1.7358 0 9398
-7.0573 -5.1727 1.2297 2 989
-7.0053 10.2 2.3314 0 8597
-6.9034 9.3978 2.197 0 8305
-6.8974 -5.4044 0.40863 1 879
-6.8966 -5.4976 0.82284 0 856
-6.8832 10.083 2.0058 0 8620
-6.8212 -8.2308 -0.74751 2 292
-6.8192 -11.591 1.89 1 19555
-6.7929 -0.4012 1.118 2 1574
-6.6821 4.639 0.95127 0 5213
-6.6703 -5.3516 1.0001 2 849
-6.6536 -7.4416 1.8808 0 423
-6.6414 12.237 2.6232 0 9426
-6.5987 3.1687 1.0288 0 3920
-6.5554 5.5535 1.2075 1 6109
-6.5528 12.15 1.2879 0 9442
-6.5427 5.4434 0.79404 1 6023
-6.5294 -5.958 1.2423 0 657
-6.4907 0.14276 0.15073 0 1872
-6.4822 3.7879 0.35012 0 4539
-6.4592 -5.6288 0.19892 0 724
-6.4544 10.073 2.254 0 8854
-6.4316 7.816 -0.94434 0 7792
-6.4137 -7.298 1.1362 0 391
-6.3959 -5.4415 1.1802 1 766
-6.3409 5.9316 1.0154 0 6570
-6.3296 10.141 1.398 0 8945
-6.3086 -8.5256 1.7425 2 160
-6.2784 12.408 1.2973 0 9624
-6.256 -7.4635 1.8349 1 317
-6.2552 3.0711 0.32497 0 3979
-6.2268 -10.441 1.1342 1 19564
-6.226 -0.061941 0.14456 0 1745
-6.1972 -6.3129 1.6667 0 550
-6.1789 12.211 2.5784 0 9631
-6.1456 -11.816 -0.30921 0 19442
-6.1438 -10.241 1.6784 2 19569
-6.1349 2.9249 1.2805 2 3902
-6.1299 -9.9484 1.0902 0 19588
-6.1227 -10.76 1.7399 0 19523
-6.0891 3.3725 1.1436 0 4360
-6.0837 -6.0582 1.2066 0 567
-6.0728 -1.0021 0.4304 0 1210
-6.0665 -12.264 -0.31766 0 19408
-6.0474 -0.62281 0.28351 0 1399
-5.9628 12.49 2.6077 0 9783
-5.9354 12.816 1.6517 0 9854
-5.9202 -11.629 1.2174 0 19429
-5.9055 8.7092 1.4789 0 8643
-5.8648 -10.447 1.6837 0 19511
-5.8622 13.804 -1.3991 1 10037
-5.8522 6.1821 0.39698 0 7126
-5.8454 9.3003 1.8047 1 8922
-5.8293 5.1719 0.91132 0 6322
-5.8281 -7.6866 1.8175 0 192
-5.8182 13.167 1.0066 1 9956
-5.7676 7.7548 1.5878 0 8251
-5.6973 -12.307 2.2282 0 19365
-5.672 1.244 0.54175 0 2686
-5.6703 -5.451 0.3668 1 595
-5.6675 12.143 1.8833 0 9837
-5.6215 -11.786 1.8351 1 19385
-5.5982 -6.9157 0.20658 0 262
-5.5907 13.165 1.6726 0 10044
-5.5898 -7.4639 1.532 0 176
-5.5406 12.433 2.2363 0 9945
-5.5117 0.056758 0.25705 0 1831
-5.4881 13.23 1.0016 1 10091
-5.4826 13.004 2.3186 0 10063
-5.4786 -8.836 1.7081 0 19598
-5.4662 -4.3077 1.3112 2 876
-5.4143 -9.9802 2.1392 0 19484
-5.373 -8.014 0.67468 0 26
-5.368 6.4087 1.1749 0 7726
-5.3502 6.4284 0.58484 0 7749
-5.3262 -4.0487 1.0992 1 931
-5.2634 -9.2501 2.0052 0 19525
-5.2567 5.2402 1.2195 2 6861
-5.2216 4.7714 0.6599 1 6455
-5.1521 -6.7582 1.3962 2 197
-5.1256 12.667 1.598 0 10152
-5.0808 -8.984 0.96292 0 19517
-5.0034 3.7621 0 0 5549
-4.9612 0.68843 -0.70394 0 2350
-4.9344 -5.3925 1.3772 0 453
-4.8587 -7.6384 1.7056 0 19631
-4.8574 -9.6746 2.0396 1 19423
-4.7451 -9.1231 0.95939 0 19444
-4.6393 5.1615 0 1 7371
-4.635 -12.611 1.8883 1 19209
-4.6117 6.0559 1.2506 1 8149
-4.5852 -9.833 0.75867 0 19366
-4.5788 2.0693 -1.3154 0 3753
-4.5331 -4.9818 1.269 2 445
-4.521 -6.9724 0.77528 0 19651
-4.4822 2.9431 0.88096 0 5002
-4.4032 -5.6684 1.3524 0 217
-4.2796 4.2395 0 0 6826
-4.2773 -6.5141 0.91132 0 19666
-4.1713 3.3683 0.62698 0 5887
-4.1533 5.5538 1.1394 0 8226
-4.0484 3.7871 0.91079 0 6574
-4.0073 -10.428 1.3065 0 19243
-3.949 3.0964 0.46818 0 5746
-3.7162 3.859 -1.4025 1 7047
-2.3664 14.263 2.3754 0 10976
-2.3558 -6.2377 0.46625 0 19225
-2.27 4.7209 0.61258 1 9759
-2.009 5.7145 0.28248 0 10410
-1.6688 -7.4903 -0.17817 0 19082
-1.6643 -5.116 0.88388 1 19156
-1.3361 6.9318 1.1598 0 10943
-0.97769 -9.6925 0.90885 0 19072
-0.83348 -7.0421 0.66158 0 19077
-0.79866 6.5709 1.0875 0 11008
-0.77701 -8.44 -0.19678 0 19070
-0.55541 8.828 1.4532 0 11024
-0.53883 5.5053 -1.4481 0 11016
-0.49282 -8.6256 -0.20059 0 19056
-0.34666 7.1647 0.83884 0 11026
-0.29312 7.3622 -0.51522 0 11027
-0.23273 -5.4616 0.12692 0 19048
-0.18819 6.6542 -1.2542 0 11030
-0.12253 -7.389 0 0 19029
-0.052526 -6.6878 0 0 19024
-0.015331 -7.9855 1.5045 0 19020
0.047027 6.9092 1.1352 0 11034
0.064479 -5.1308 0.84303 0 19013
0.067872 -5.4008 0.63163 0 19012
0.10583 -5.774 0.53877 0 19009
0.22937 -6.4711 1.0638 0 19003
0.77819 8.3098 1.3712 0 11050
0.95706 -8.853 1.463 0 18986
1.3359 -7.7022 1.2843 0 18982
1.5951 -11.829 2.2489 0 18983
1.6001 7.4259 1.4312 0 11092
2.1404 4.6026 0.83395 0 11354
2.2952 6.8756 0.67625 1 11183
2.3217 -4.7434 -0.36929 0 18955
2.3849 4.6305 0.12093 0 11451
2.4711 -4.4451 0.83557 0 18948
2.6754 5.9809 0.45816 0 11326
2.7343 -5.7976 1.0531 2 18957
2.772 -6.4988 1.1608 0 18966
2.8161 -8.2018 1.4247 0 18972
2.959 -4.1438 0.47505 0 18821
3.0655 -5.2946 1.0051 0 18940
3.5625 4.9559 0.56943 2 11911
3.635 -5.2145 0.59302 0 18834
3.8117 -4.0181 0.38729 1 18505
3.9365 5.0639 -1.0538 0 12042
4.0672 12.915 0.31437 1 11155
4.1513 -4.5847 -0.43249 1 18540
4.1878 8.4883 1.5551 0 11410
4.8027 5.461 0.67848 0 12271
4.8491 -3.1587 -0.81333 0 17957
4.8707 6.6525 1.5534 0 11948
4.911 -2.2515 0.50403 0 17419
5.0055 1.1106 0.84238 0 15353
5.0112 -3.2011 0.13806 0 17922
5.2545 0.89723 -0.12376 0 15544
5.4035 6.3603 0.77862 0 12195
5.445 -4.71 1.1828 0 18406
5.4506 0.46728 -0.38254 0 15937
5.4587 5.3981 1.2613 0 12564
5.719 -0.48828 -0.26767 0 16600
5.7691 0.91787 -0.27242 0 15592
5.7758 -2.9556 0.4537 0 17578
5.8759 -1.7964 -0.14265 0 17143
5.9449 -0.35424 -0.83699 0 16522
6.076 -7.6359 1.8386 0 18711
6.2443 -3.8611 1.2062 0 17873
6.2544 3.292 -0.82653 0 13941
6.3484 -3.1128 -0.9937 0 17512
6.4299 7.9801 1.1984 1 12099
6.4786 -3.6535 -0.6939 0 17707
6.656 1.8034 0 0 15147
6.7319 9.4273 1.628 0 11905
6.7694 8.6023 1.5384 0 12066
6.8354 -0.86594 0.64281 2 16719
6.8813 5.2593 1.0128 0 13133
6.9044 -5.6653 0.83324 1 18361
6.9497 4.0253 0.93919 0 13745
6.9656 -0.49441 1.3157 0 16562
6.9694 6.2095 1.0916 0 12813
6.981 -4.0451 0.56419 0 17757
7.002 -2.73 0.70115 1 17270
7.0065 4.195 1.5386 0 13671
7.0468 -1.8447 0.50936 1 17059
7.1298 -2.4314 1.2376 0 17202
7.1703 0.59328 0.67124 0 15959
7.1849 -1.5495 0.51397 0 16975
7.2484 8.737 2.1389 0 12156
7.2521 -11.146 0.92985 1 18881
7.3174 -2.6821 1.2804 0 17233
7.3436 -10.349 1.4839 0 18825
7.37 2.416 -0.18007 0 14872
7.3998 -10.051 0.87279 1 18795
7.4195 9.2643 1.388 0 12089
7.4466 11.086 1.8769 0 11803
7.524 -12.092 1.3287 0 18901
7.524 12.907 2.4545 1 11569
7.5378 2.9389 1.137 1 14577
7.584 2.6589 1.5142 0 14768
7.5869 2.2474 1.4908 0 15035
7.5922 4.8816 0.42093 0 13494
7.5977 4.1149 -0.80612 0 13881
7.603 -11.121 0.94199 1 18848
7.667 6.1821 1.1518 0 13027
7.7004 7.7924 0.76607 0 12506
7.7072 5.0204 1.733 1 13473
7.7137 -7.6306 0.50599 1 18463
7.7378 3.1988 0.97915 0 14457
7.7477 -9.065 1.6759 0 18615
7.8082 -2.3381 1.3391 0 17136
7.8311 -4.7203 -1.0693 0 17820
7.8311 0.71682 0.73366 1 15911
7.8487 8.9246 2.2392 2 12276
7.8535 9.4663 0.8601 1 12148
7.8748 11.437 1.9515 0 11846
7.9213 -4.3494 1.4847 0 17676
7.956 -9.5321 1.1584 0 18651
7.9667 -11.793 2.0002 0 18859
8.0099 4.0145 0.20802 0 14050
8.0183 6.2736 1.9182 0 13090
8.0311 -1.0873 -1.139 0 16740
8.0321 9.2889 2.3137 0 12236
8.0343 -10.982 0.95148 1 18802
8.0384 7.858 1.0488 1 12590
8.1007 -11.992 1.6923 0 18858
8.1164 -6.9418 2.0122 0 18399
8.1195 5.4233 0.68278 0 13417
8.133 12.581 2.4613 0 11731
8.1724 0.72361 0.76543 0 15927
8.1872 -10.658 2.2081 0 18757
8.209 -6.8979 0.50003 1 18381
8.2149 -5.5202 0.22979 0 18020
8.2479 -10.679 1.2589 1 18742
8.2691 -2.0372 1.1969 0 17031
8.2939 -10.551 1.5694 0 18724
8.295 -9.1065 1.4405 0 18537
8.3249 -7.1606 2.0689 2 18403
8.3372 -11.458 1.322 0 18808
8.3703 1.5786 1.3994 0 15477
8.372 3.6629 1.2843 2 14327
8.4142 4.8736 0.90718 1 13744
8.4729 -8.3818 1.1119 0 18465
8.4818 10.911 1.2893 0 12046
8.4992 5.2574 1.1687 0 13591
8.5419 -8.4973 0.84252 1 18469
8.547 -11.396 2.3404 0 18783
8.5515 -11.001 1.2999 0 18738
8.6222 -0.38701 0.60353 0 16482
8.6634 1.1744 0.61135 0 15698
8.6667 1.4286 1.2345 1 15573
8.6681 4.9202 0.46481 0 13783
8.6772 -10.905 0.9745 1 18706
8.7012 -11.266 1.6647 0 18744
8.7507 -4.6411 0.46192 0 17621
8.8013 4.7966 1.4087 0 13875
8.8501 1.3543 0.83528 2 15620
8.8631 -7.4925 0.81155 0 18388
8.8905 -11.932 0.69391 1 18785
8.9128 -5.4447 1.9678 0 17852
8.9201 -5.0632 0.71724 0 17721
8.9854 -7.9608 0.83945 1 18414
8.9861 -10.161 2.2285 0 18565
9.0056 -9.773 0.9293 1 18523
9.0105 5.1876 1.2159 1 13759
9.0395 -6.1524 1.5367 0 18050
9.0637 -5.8277 1.7704 2 17942
9.1753 -2.9529 1.5836 1 17175
9.1876 -10.569 2.3008 1 18584
9.198 -9.8671 1.2585 0 18517
9.2018 3.1057 1.1357 0 14829
9.2192 5.5198 1.0025 0 13666
9.2236 1.7712 1.5431 1 15465
9.2341 2.62 1.1225 0 15087
9.259 -8.4902 0.58583 1 18428
9.2694 5.8463 1.8005 1 13545
9.2947 0.47085 1.0883 0 16109
9.3171 4.4022 1.4482 0 14175
9.3223 -0.90584 1.0953 2 16638
9.3846 5.5125 1.2728 0 13714
9.3915 -10.434 1.9729 0 18548
9.3924 10.308 2.2911 0 12346
9.4112 3.329 0.93133 2 14744
9.4129 -4.4474 0.48549 1 17462
9.4387 8.6581 2.1043 0 12754
9.4561 -0.25753 1.7823 0 16437
9.4625 8.5771 2.4062 1 12780
9.5031 1.1753 1.8041 0 15758
9.5259 1.4016 0.67329 0 15645
9.534 4.3348 0.24316 0 14244
9.5397 -4.3375 1.7217 1 17410
9.5773 -2.2728 1.3834 2 17018
9.5826 -5.2616 0.50981 1 17672
9.5865 5.1187 0.75993 0 13917
9.5961 8.9079 1.8401 0 12730
9.6576 9.9415 2.6114 1 12476
9.6711 -1.3093 0.22658 0 16741
9.6858 -7.0062 1.1153 2 18188
9.7647 -4.9968 1.8021 2 17581
9.7647 -2.0809 1.1675 1 16971
9.7702 -4.6853 1.5228 0 17488
9.7882 -9.4062 2.5577 0 18448
9.7907 -9.9111 1.2997 2 18480
9.7966 9.8515 1.6247 0 12523
9.7967 8.1334 0.89037 1 12961
9.8119 3.2165 1.2075 0 14880
9.8181 1.534 1.8723 0 15611
9.8317 -9.5542 1.9267 0 18453
9.8366 4.8893 2.0696 0 14073
9.8617 -8.4824 0.60661 1 18401
9.8661 8.0466 2.0917 0 13003
9.903 -0.21436 0.22997 0 16404
9.9887 2.8623 0.48456 1 15069
10.053 -5.2558 2.1374 2 17609
10.075 -5.8758 0.81559 1 17770
10.085 3.1468 1.4847 0 14959
10.11 -1.7572 1.9334 1 16888
10.116 -7.4094 0.87684 1 18209
10.152 -9.4766 1.9518 0 18435
10.155 7.7138 1.7923 0 13144
10.174 -10.976 0.34747 2 18519
10.186 -9.0246 1.2696 0 18415
10.218 -6.4025 0.84322 1 17893
10.229 -4.9053 2.1374 1 17491
10.255 -10.56 1.0293 1 18493
10.258 3.9666 1.807 0 14596
10.275 -10.763 0.69391 1 18503
10.294 3.8119 2.0681 0 14673
10.33 -10.391 1.367 0 18476
10.345 -5.7579 1.9451 0 17694
10.348 3.3582 0.25258 0 14892
10.357 -9.3849 1.6345 0 18424
10.374 -6.3375 1.9973 2 17850
10.388 4.7234 1.6038 0 14249
10.428 -4.2068 0.78629 0 17293
10.468 7.6219 2.1273 1 13234
10.478 -4.6563 1.3408 0 17382
10.551 -10.495 0.694 1 18468
10.561 -0.59786 1.4866 0 16517
10.591 -0.65893 0.99004 0 16530
10.608 -1.2161 1.2486 0 16692
10.618 -4.7184 0.26976 0 17379
10.652 -0.87947 0.74737 1 16593
10.666 3.3977 0.52201 1 14925
10.689 -10.33 2.4422 0 18451
10.691 0.046649 0.24822 0 16302
10.71 -4.9419 0.55006 1 17431
10.726 -1.4865 1.7791 2 16752
10.738 -6.6398 1.1779 1 17870
10.756 2.8498 1.5637 0 15179
10.775 -5.2831 1.4033 0 17517
10.806 -1.2714 1.0151 1 16699
10.806 4.6517 2.2166 0 14362
10.831 -5.0391 1.9626 1 17444
10.875 2.9833 1.0521 0 15135
10.893 -10.222 1.0445 2 18437
10.902 1.3154 2.0689 0 15773
10.997 -0.39746 1.5465 0 16461
11.003 -0.55738 0.25578 0 16498
11.015 5.242 2.0041 0 14162
11.036 -0.14254 0.25625 0 16369
11.072 0.27445 0.25713 0 16219
11.114 1.0466 0.78057 0 15895
11.137 -1.6367 1.8495 1 16771
11.148 1.0499 1.3095 0 15897
11.16 -1.0844 0.78406 0 16636
11.164 -2.5466 1.8812 0 17000
11.194 -8.9715 1.3384 0 18337
11.273 -1.9958 0.80053 0 16891
11.31 0.34357 1.0556 0 16194
11.332 -9.8027 1.7522 0 18405
11.449 -6.6768 0.61807 1 17768
11.462 -0.014003 0.5345 1 16326
11.519 -2.2099 1.0943 1 16925
-0.65256 -0.66474 -0.15304 2 545
-0.24254 7.1605 -1.8756 0 11029
0.94225 12.831 -1.8081 0 11047
5.323 2.129 -1.6439 0 14530
