VERSION .7
FIELDS x y z intensity index
SIZE 8 8 8 8 8
TYPE F F F F F
COUNT 1 1 1 1 1
WIDTH 608
HEIGHT 1
VIEWPOINT 0 0 0 1 0 0 0
POINTS 608
DATA ascii
-4.673 0.52829 0.10918 0 1558
-4.6165 -0.33902 0.21587 0 1286
-4.2423 1.2647 0.10278 0 2013
-3.7422 1.9273 0.49225 0 3020
-3.5366 1.0315 0.3437 1 1994
-3.4901 -2.8577 -0.10473 0 886
-3.4886 -2.6108 0.82096 0 943
-3.4371 2.21 -0.38123 0 3758
-3.3675 1.221 0 0 2260
-3.355 0.11481 0.63248 0 1463
-3.2808 1.1993 0.57391 1 2281
-3.2085 0.27788 0.15018 0 1525
-3.089 3.5597 0.88799 0 6132
-2.9959 1.6888 0.079845 1 3305
-2.8343 -3.7998 -0.33148 1 420
-2.8174 -2.5332 0.53248 0 799
-2.6318 -3.825 0.21652 0 356
-2.5901 3.1453 -1.483 1 6295
-2.465 2.3035 0.23592 0 5347
-2.2854 -2.939 -0.086437 0 459
-2.2457 3.3968 0.28475 0 6999
-2.1801 -2.2294 0.5123 2 704
-2.1688 2.1977 0.58175 0 5700
-2.0844 4.2774 -1.3644 0 7605
-1.9947 4.1539 0.4299 0 7631
-1.879 2.9517 -1.4615 1 7089
-1.739 3.5434 -0.64848 2 7586
-1.6295 4.0721 0 0 7847
-1.6093 4.5902 -0.34013 1 7905
-1.5164 3.1118 0.56872 0 7609
-1.4408 -4.592 0.22444 0 23
-1.276 2.889 0.22085 1 7748
-1.1974 3.9191 0.77208 0 7909
-0.67671 -4.7548 0.1115 0 15752
-0.61995 -3.7941 0.63162 0 15754
-0.59271 -3.1702 -0.074878 0 4
-0.57017 -3.4292 0.40653 0 15755
-0.53748 4.0716 -0.09535 0 7937
-0.52941 -4.9538 0.58261 1 15744
-0.29619 -3.2111 0.52981 1 15737
-0.27854 -3.8669 -0.090011 0 15726
-0.17339 3.6904 0.60698 0 7955
-0.16019 -4.6809 0.43696 0 15704
-0.082819 3.121 0.51295 0 7963
0.0023053 -3.302 0 0 15680
0.024638 3.0034 -0.35124 0 7977
0.036143 -3.9071 0.73616 0 15675
0.039789 4.8504 -1.2698 0 7981
0.090179 4.5718 0.75127 0 7995
0.26806 -4.8096 0.44941 0 15656
0.33581 3.8694 0.63811 0 8073
0.46259 -3.4996 0 0 15647
0.82958 3.3447 0 0 8285
0.95285 3.1963 0.39003 0 8317
0.96202 3.2941 -0.98403 1 8310
1.2175 3.4497 -0.77759 0 8354
1.2744 -3.8876 0.67215 1 15589
1.3267 3.3801 0.25391 0 8385
1.3576 4.5079 -0.55055 0 8319
1.5615 -4.0742 0.82208 0 15552
1.5951 -3.1144 0.57488 0 15408
1.6488 4.6328 -0.9265 0 8356
1.6783 2.9772 -0.72644 0 8588
1.6786 -2.9334 0.23633 0 15345
1.9388 3.2191 -0.17525 0 8643
1.9751 2.681 0 0 8783
2.1559 2.8557 -0.16686 0 8798
2.255 2.8472 0.16938 0 8828
2.3882 2.3452 0.39143 1 9057
2.6587 3.9595 0.44495 0 8727
2.7192 3.8037 0.88095 0 8760
2.8123 -2.888 0.75949 0 14632
2.8422 -3.1666 0.49759 0 14749
2.9367 2.6581 -0.46321 0 9126
2.9504 3.5957 -1.2176 0 8845
2.9785 2.4974 -0.090244 0 9176
3.0262 -3.9539 -0.69976 1 14996
3.0369 -1.3833 0.077478 0 13110
3.0797 2.9886 -0.40036 0 9066
3.1166 -1.8088 -0.42139 1 13614
3.1289 1.8313 -0.59563 0 9443
3.1644 -2.0519 -0.61962 2 13867
3.2206 -2.1422 0.72876 0 13936
3.3183 -2.1369 -0.36822 0 13855
3.3266 -0.61896 -0.23661 2 12266
3.3335 1.2047 -0.92791 0 9972
3.3482 -3.5804 0.34278 0 14689
3.3794 2.9191 -0.52221 1 9159
3.4078 -2.6894 0.40501 0 14312
3.4218 1.6461 0.71543 0 9644
3.4562 3.0924 -1.2141 0 9138
3.4597 0.8986 0.33348 0 10396
3.4809 1.528 -0.35466 1 9738
3.5064 2.0261 0.66534 0 9462
3.5146 -3.1557 0.44068 0 14511
3.5257 2.4078 0.39832 1 9308
3.5784 0.83008 0.6921 0 10531
3.5864 -0.10832 0 1 11681
3.5926 2.3923 -1.4585 0 9326
3.6991 1.9142 -0.58536 0 9552
3.8279 1.953 0.40092 0 9576
3.8653 2.3705 0.42303 2 9405
3.9569 -1.492 0.098182 2 12810
3.9637 1.7813 -1.1376 2 9716
4.0817 2.4866 -0.55892 1 9407
4.3428 -2.1153 0.67889 0 13266
4.345 -2.4214 0.58168 1 13534
4.366 0.38888 0.72014 0 11177
4.4462 -0.54907 0.73603 1 12068
4.4981 -0.41015 -0.10487 0 11939
4.7198 0.78305 -0.33455 0 10810
4.7986 0.72401 0.79731 1 10884
4.8946 0.066637 -1.2815 0 11488
-1.4911 -1.0183 0.21116 1 1046
0.78771 1.7087 0.043683 1 8480
2.7348 -0.84551 0.33475 1 12610
-12.864 7.5989 2.8151 0 3461
-12.286 8.1506 -1.031 0 3880
-11.506 5.1829 -1.1773 0 2685
-11.428 1.0903 1.071 0 1540
-11.403 5.6656 -1.4891 1 2904
-11.191 0.87096 1.0473 0 1510
-11.121 1.7475 2.1211 0 1626
-10.796 3.8082 1.3388 0 2221
-10.723 3.2294 2.11 1 2031
-10.65 2.4804 0.76467 0 1763
-10.639 0.8597 1.2482 0 1513
-10.566 1.0714 0.99079 1 1545
-10.556 -1.1449 1.2417 0 1233
-10.532 1.8439 1.7567 0 1652
-10.452 5.616 0.82968 0 3154
-10.397 4.2918 2.1193 0 2507
-10.329 5.5502 1.3713 2 3158
-10.271 1.3103 0.72407 0 1583
-10.264 5.8642 1.3824 0 3350
-10.255 6.14 0.83582 2 3496
-10.238 1.5794 1.7019 0 1617
-10.219 6.7406 1.7205 0 3869
-10.133 2.3879 0.72798 0 1770
-10.096 -0.97923 0.70928 0 1251
-10.069 2.7811 1.9682 1 1949
-10.06 -8.1872 1.8229 0 892
-10.038 1.7574 0.71263 0 1649
-10.007 3.9943 1.26 0 2425
-10.005 1.7245 1.4268 0 1644
-9.9706 2.0177 1.1896 0 1701
-9.9652 -1.1424 0.93579 0 1223
-9.9502 -9.214 1.2652 0 775
-9.9416 5.756 1.3434 2 3392
-9.8886 -0.93126 1.1615 0 1258
-9.8474 5.4788 1.8514 2 3270
-9.8289 8.5622 2.1416 0 5053
-9.7954 -10.129 1.3146 0 692
-9.7449 6.9279 1.6804 0 4181
-9.5727 1.8781 1.6027 2 1689
-9.5038 -9.9451 2.5918 0 687
-9.4691 -7.4809 2.2737 0 903
-9.439 -6.1274 1.5816 0 1084
-9.4202 5.3101 2.0374 1 3316
-9.3998 -10.13 0.64444 1 662
-9.3991 -9.2817 2.4888 0 731
-9.3767 3.3352 1.3987 2 2236
-9.3356 3.6004 1.1701 1 2364
-9.254 -1.4972 1.5401 1 1154
-9.25 5.3211 1.2479 0 3370
-9.2331 -9.774 2.5333 0 681
-9.1874 3.8526 1.6368 2 2543
-9.167 7.8904 1.6999 0 4998
-9.1195 7.9442 0.84573 1 5046
-9.1192 -10.174 2.2447 1 629
-9.0875 2.5099 1.1025 0 1945
-9.0724 -9.1679 1.2033 0 710
-9.0553 5.6386 1.2475 2 3644
-9.0413 1.6398 1.5097 1 1663
-9.0146 -8.3039 2.3092 0 782
-8.9855 5.414 0.97871 2 3520
-8.9692 -8.3056 0.8548 1 774
-8.9503 1.9204 0.42689 0 1720
-8.9262 -6.0959 1.7759 0 1048
-8.8993 -8.1006 1.4073 0 790
-8.8851 4.5409 1.6394 2 3003
-8.867 -1.7027 1.4834 0 1113
-8.8599 2.1697 0.63785 1 1796
-8.8227 -11.212 1.6684 0 473
-8.7931 -5.7431 1.2282 1 1077
-8.761 4.0093 1.5829 0 2727
-8.7582 -1.0568 1.4494 0 1216
-8.7505 -8.1031 1.9594 0 777
-8.7333 8.2097 1.6846 0 5377
-8.6789 -6.4197 1.0071 1 948
-8.6349 1.5661 1.2334 0 1662
-8.6284 -10.268 1.885 0 549
-8.6209 -5.8874 1.4672 0 1047
-8.6077 -8.0184 1.3757 0 771
-8.5809 -9.6309 2.1192 0 624
-8.5255 3.0325 1.7049 0 2240
-8.5185 -5.4961 1.91 0 1089
-8.5033 -10.367 2.5262 0 518
-8.5017 8.4691 1.4033 0 5620
-8.4537 -9.6566 2.4181 0 610
-8.4166 -8.4078 2.2415 0 724
-8.3997 6.4593 0.74095 0 4507
-8.3909 -6.551 1.749 0 913
-8.3536 -1.2276 0.78772 1 1174
-8.3176 -10.828 1.9189 0 452
-8.3113 -7.8322 1.3355 0 762
-8.2939 -5.5901 1.1696 1 1055
-8.279 -10.271 0.30629 1 494
-8.2488 -8.2401 1.6386 0 722
-8.2481 3.43 1.683 0 2525
-8.1909 -0.77138 1.1563 0 1259
-8.1021 -10.419 1.8549 0 463
-8.1008 1.3469 0.96033 1 1637
-8.0648 0.76944 1.331 0 1542
-8.042 4.1989 1.0609 1 3062
-8.0091 6.3093 0.95121 1 4608
-8.0075 -6.0275 0.93505 0 934
-7.9993 -7.2814 1.0092 0 789
-7.9672 8.0286 1.5896 0 5672
-7.9469 -12.289 2.7573 0 297
-7.9348 -7.0995 1.7493 2 806
-7.9195 -11.289 1.2866 0 374
-7.889 -12.679 1.3932 0 253
-7.7988 -9.1766 0.56161 2 569
-7.775 -9.1485 1.6873 1 573
-7.7548 4.4305 0.83324 2 3348
-7.7413 -6.6444 1.4338 2 849
-7.7389 -8.9467 1.3834 2 596
-7.7269 5.5278 1.3352 0 4205
-7.7121 -1.5957 1.4838 0 1103
-7.6708 1.4813 1.472 0 1683
-7.661 0.68507 0.89947 0 1532
-7.6176 8.232 1.5763 0 5926
-7.5941 -7.9941 1.8115 0 684
-7.5839 2.3563 0.74091 0 2061
-7.5193 -9.2723 1.9613 1 503
-7.5093 -6.8762 1.431 0 785
-7.504 3.918 0.78977 0 3060
-7.4789 2.9596 0.94059 0 2409
-7.4235 -7.8584 1.2642 2 678
-7.3923 -13.034 2.8232 1 178
-7.3752 -5.6531 1.7508 0 928
-7.3731 -7.281 1.4563 1 729
-7.365 -12.233 0.99849 1 229
-7.353 -9.2872 2.2318 0 481
-7.3504 -11.084 2.5058 0 330
-7.2797 -8.9226 0.53701 1 506
-7.262 -6.8051 1.1638 0 767
-7.2315 4.5345 1.4023 1 3673
-7.2069 7.3466 0.96013 2 5718
-7.173 -7.3762 0.71947 0 697
-7.1245 5.0332 1.4331 2 4158
-7.0948 -5.3095 0.82674 0 939
-7.0599 -13.15 2.0976 0 132
-7.0513 -11.561 1.5836 0 241
-7.0456 0.58792 -0.16415 0 1517
-7.0238 1.1037 0 0 1620
-6.9442 0.27648 0.97672 0 1466
-6.9441 -5.0101 0.79887 0 974
-6.9035 -4.4252 1.3472 1 1091
-6.8656 7.5478 1.6763 0 5982
-6.8516 -0.76369 -0.64318 0 1227
-6.7918 -5.3025 0.80389 0 910
-6.757 -5.1511 1.6008 0 931
-6.73 -6.0896 1.0614 2 793
-6.6994 5.8731 0.8312 0 5075
-6.6872 7.0592 0.90718 0 5840
-6.6698 -9.9972 1.689 2 334
-6.597 -4.9983 1.1632 0 932
-6.5943 5.9146 1.669 1 5186
-6.5459 3.8913 1.0702 1 3479
-6.5219 -4.7646 0.75354 0 958
-6.4537 -9.4892 1.342 0 349
-6.4466 -9.1319 1.8365 1 382
-6.4034 2.2991 0.79563 1 2251
-6.3286 -6.071 1.6523 0 752
-6.3009 3.0392 0.65266 0 2840
-6.2755 7.4894 1.6053 0 6244
-6.1956 -10.158 1.1101 0 240
-6.169 3.5718 1.1712 0 3396
-6.144 -10.137 1.6659 0 236
-6.1431 -13.542 1.739 0 57
-6.1196 -1.1187 0.58039 1 1122
-6.0397 0.80802 0.5685 0 1591
-6.0084 -7.7265 1.8441 0 465
-5.9912 0.69533 0.28127 0 1561
-5.9909 -5.1421 1.4875 0 851
-5.8935 0.40695 0.4131 0 1498
-5.7705 0.12994 0 0 1450
-5.7355 1.0041 0.81834 1 1651
-5.4242 1.146 -0.51722 0 1714
-5.3367 6.15 0.75967 0 6126
-5.3347 -0.034452 0.49772 0 1407
-5.3004 1.6794 0.65021 0 2086
-5.238 0.43708 -0.61467 0 1515
-5.1117 -5.2565 0.68406 1 698
-4.9789 4.2855 -1.3963 0 4999
-4.9192 4.8714 0.48411 0 5594
-4.8648 1.5283 0.59632 0 2075
-4.4066 10.56 1.8799 0 7812
-4.2698 5.0064 0.46011 0 6182
-4.0351 6.7689 1.2947 0 7240
-3.9169 -4.2447 -0.26935 0 655
-3.879 3.3589 -1.4714 1 5020
-3.8628 -6.5421 0.53127 0 210
-3.8292 -9.9442 0 0 33
-3.5617 7.7048 1.3946 0 7691
-3.5488 3.5761 -0.47003 1 5657
-3.4773 -6.7545 0.70877 1 102
-3.4666 8.1076 -0.20472 0 7784
-3.4461 -7.3101 1.3278 2 64
-3.3822 9.0509 1.1299 0 7887
-3.3597 -9.276 1.6209 0 27
-3.1748 4.349 0.12501 0 6710
-2.9311 -4.2314 -0.35994 2 363
-2.8858 -7.6249 1.3394 1 30
-2.8416 -5.2599 0.1388 0 134
-2.7993 -4.5896 0.88323 1 243
-2.644 -6.3643 1.1322 0 44
-2.3441 11.339 1.9023 0 7921
-2.3437 -6.3019 0.47016 0 29
-2.1748 5.0865 0.51611 0 7786
-2.1472 5.1889 -0.52391 0 7817
-2.0353 6.7242 0.65545 0 7910
-2.0004 4.7937 -0.24223 0 7809
-1.9301 -5.9157 1.0223 2 25
-1.9247 -5.0377 0.3771 0 32
-1.7614 -10.24 1.7071 0 15756
-1.7482 -9.9758 1.9082 0 15757
-1.7476 8.722 1.0402 0 7923
-1.5064 8.6761 1.4468 0 7928
-1.4633 -6.1329 0.73732 0 7
-1.4024 -4.8147 0.8239 0 13
-1.3461 -7.6972 0 0 2
-1.2573 5.5929 -0.13309 0 7916
-1.0824 6.9519 1.1559 0 7930
-0.99089 6.364 1.2135 0 7931
-0.84777 5.4448 0.6444 0 7929
-0.82709 -7.5278 0.70654 1 15746
-0.82332 -11.027 1.8167 0 15728
-0.81308 5.5396 -0.78688 1 7933
-0.80441 -5.4213 0.64092 0 15753
-0.80064 -6.2674 -0.14669 1 15750
-0.77693 -5.5847 0.13091 0 15751
-0.7077 -5.8225 0.96364 0 15749
-0.42378 -7.3946 1.2169 0 15719
-0.41978 6.509 1.0716 0 7945
-0.41878 -8.6554 1.6327 0 15715
-0.2294 7.0263 0.82211 1 7961
-0.051124 5.6327 -1.0613 0 7970
-0.045584 5.0223 0.23422 0 7969
-0.022286 6.7199 1.104 0 7974
-0.020139 6.0726 0.71015 1 7973
-0.01149 -5.4865 0.12738 0 15682
0.12749 -5.9864 0.98375 0 15670
0.1762 -6.5968 0.92745 0 15667
0.24631 8.603 1.6216 1 8004
0.26151 6.0872 1.1479 0 8019
0.41848 -7.1278 0.16577 0 15654
0.46687 7.3391 -0.85998 0 8040
0.58785 -5.565 0 0 15649
0.67592 6.4855 1.0713 1 8093
0.71833 -4.991 0.70867 0 15645
0.74403 -5.0692 0.35827 0 15644
0.76358 -8.1384 1.5401 0 15650
0.78983 8.5465 1.4101 0 8079
0.7912 6.9876 1.3249 0 8109
0.89247 5.3562 0 0 8212
1.2307 -8.915 0.20894 0 15646
1.4713 5.038 0.73762 0 8311
1.4881 -5.6803 0.68668 0 15617
1.5148 13.032 2.1556 0 8114
1.6073 5.9569 -0.72153 0 8293
1.7593 7.6632 -1.2918 0 8273
1.8214 4.9346 0 0 8367
1.9219 -6.1669 1.0612 1 15598
2.0246 -8.3306 1.4085 0 15626
2.0746 11.064 1.8495 0 8246
2.0938 6.4059 -1.4325 0 8336
2.1606 -10.306 1.2314 0 15631
2.2022 6.0209 0.29897 0 8364
2.414 7.244 1.2545 0 8341
2.6119 4.4236 0.844 0 8624
2.7355 -5.1906 0.96397 0 15391
2.7737 5.3488 0.98991 0 8537
2.8729 -4.6371 0.8962 0 15292
3.0553 -6.0933 0.63594 0 15418
3.1372 4.1048 -0.24093 0 8805
3.1836 11.03 1.8861 0 8307
3.2427 5.1413 0.99866 0 8683
3.2859 6.9672 -0.53866 1 8490
3.3429 5.1693 0 0 8700
3.35 10.56 2.0874 0 8331
3.3623 7.0745 0.54773 0 8496
3.514 6.3186 0 0 8577
3.5647 3.9093 0.12283 0 8930
3.6208 5.599 0.46625 0 8701
3.6286 3.9076 0.8761 0 8950
3.6745 4.9876 1.0178 0 8785
3.7029 -5.4343 -0.45983 0 15165
3.7368 6.2437 1.1955 1 8638
3.9041 -4.8332 -0.57965 0 14906
3.9303 -7.2507 1.355 0 15371
4.1019 3.6048 0.89718 0 9153
4.1249 3.4797 0.50347 0 9173
4.1497 3.8012 0.52503 0 9120
4.1678 3.0638 0.60491 0 9255
4.1821 7.52 1.4137 1 8578
4.2953 3.8203 0.13346 0 9144
4.3852 -9.2728 0.95697 0 15445
4.3876 3.3267 0.90463 0 9229
4.5018 -7.4071 1.4241 0 15308
4.5129 -6.1167 1.0683 0 15055
4.5569 2.6671 -0.61746 0 9444
4.5743 6.3635 1.2876 0 8765
4.5797 3.5755 -0.95457 0 9205
4.6412 4.9148 -0.79052 0 8966
4.6451 5.9733 1.4257 0 8818
4.7095 -5.6586 -0.68684 0 14858
4.7174 2.0219 0.23935 0 9763
4.7573 6.4929 0.94129 0 8778
4.7795 5.5235 0.68146 0 8878
4.8128 9.9072 1.8096 0 8505
4.8762 1.7 -1.3519 0 10016
4.8878 -9.1425 1.7032 0 15381
4.9272 -7.1826 -0.81262 0 15155
4.981 -2.1483 1.022 0 13011
4.9877 3.966 0.59451 2 9202
5.0049 4.5017 1.2683 0 9134
5.0163 -1.1286 0.47969 0 12378
5.0655 -2.3256 0.52001 1 13133
5.0689 3.4617 -0.71781 0 9303
5.0915 -4.2874 0.15454 0 14420
5.1591 -3.6058 0.14614 0 14047
5.2076 -1.0766 0.74736 0 12326
5.2824 -6.3109 -0.57549 1 14846
5.2913 -4.6419 0.98924 0 14484
5.3277 3.372 -0.29403 1 9370
5.433 -5.8794 1.1251 0 14710
5.4647 -0.93411 0 0 12224
5.4765 -12.821 1.3007 0 15492
5.5429 7.2524 0.42568 0 8808
5.5454 4.9617 -1.402 0 9139
5.569 -0.96793 -0.7944 1 12231
5.5793 4.4907 -1.3494 1 9197
5.5912 -0.33022 0.9202 0 11807
5.6197 -12.937 0.65776 1 15483
5.6387 -1.9779 0.27866 0 12728
5.7022 -11.88 0.92148 1 15436
5.7182 -1.5162 -1.2574 0 12480
5.7354 1.8139 0.98829 0 10159
5.7941 -5.6463 0.56573 0 14590
5.8653 8.0581 -0.92985 0 8772
5.9151 -6.5143 1.6579 0 14735
5.9474 0.44406 0 0 11247
5.952 -7.9158 0.69254 1 15026
5.9554 -1.9167 -1.3298 1 12648
6.0523 -1.9875 -0.1479 0 12660
6.1201 3.9019 0.33848 0 9365
6.1282 -4.8642 0.72994 2 14320
6.141 -10.658 1.1476 0 15340
6.1823 6.5835 -1.2693 0 8959
6.203 -13.624 1.0468 1 15465
6.2242 -0.56754 1.1776 0 11946
6.2583 -4.4558 1.0797 0 14098
6.2907 4.431 0.71787 1 9283
6.3432 2.568 0.47853 0 9820
6.434 -3.7612 1.0474 1 13638
6.5199 -7.3876 1.3848 0 14774
6.5328 -10.686 0.58406 1 15300
6.5949 0.91629 -0.15458 0 10938
6.7491 5.9313 0.83826 0 9152
6.761 -10.297 0.86135 1 15212
6.7788 -5.0069 0.78624 0 14187
6.7922 7.5355 1.1864 0 8917
7.0997 -9.5042 1.3873 0 15036
7.1018 3.1175 -0.18007 0 9739
7.1522 6.3993 1.8082 0 9140
7.2312 5.5147 1.0635 0 9224
7.2372 -5.3788 1.4815 1 14204
7.3599 -7.8705 1.7704 0 14691
7.3733 -3.3851 1.5286 0 13139
7.4293 -3.0743 1.321 0 12946
7.433 5.3687 1.5064 0 9269
7.4559 -0.17961 1.2253 0 11654
7.4784 -8.236 1.5635 0 14733
7.5263 -7.8183 0.50608 1 14644
7.5689 -2.8028 0.37639 0 12789
7.6118 -1.2547 0.71973 2 12206
7.6124 -11.972 1.6591 0 15268
7.6242 -11.991 0.99361 1 15266
7.6532 -11.156 0.94604 1 15156
7.6594 6.8123 1.6841 0 9145
7.6716 -9.0045 1.3834 0 14824
7.7124 -8.7388 1.0874 2 14772
7.7151 -5.5951 1.7956 1 14145
7.729 -12.076 1.3376 1 15261
7.772 -11.124 0.31506 1 15131
7.7786 -12.473 2.7695 1 15285
7.8042 -5.2858 1.1023 0 13978
7.8053 -5.0263 0.86612 0 13861
7.8156 -4.3859 0.62669 0 13547
7.8879 0.037175 0 0 11521
7.9471 -4.9236 1.5359 0 13776
7.9684 -12.698 2.4629 1 15280
8.0072 -0.70617 1.3206 2 11931
8.04 -11.44 2.2972 2 15128
8.0486 -10.455 1.8543 0 14993
8.0649 -0.31264 0.75298 1 11718
8.0692 -8.8338 1.6815 0 14725
8.104 -1.727 0.77305 0 12342
8.135 -3.3414 0.41012 0 12927
8.1506 -8.8699 2.2696 0 14718
8.1524 -10.461 0.30791 1 14969
8.2538 -1.4346 0.58581 0 12233
8.2733 -10.616 0.94115 1 14970
8.3355 -6.8177 2.0289 0 14375
8.3825 -2.6978 1.4468 2 12649
8.3856 -12.376 2.4561 1 15175
8.4124 7.3489 1.8352 0 9156
8.4128 -4.0109 1.756 0 13222
8.4203 -7.2605 1.3002 0 14459
8.4253 -5.2198 0.4622 0 13771
8.4536 -10.716 1.2734 0 14950
8.4782 -11.141 2.3002 2 15011
8.4804 -1.8072 1.2186 0 12344
8.486 -11.152 1.3074 0 15007
8.4963 -1.3016 1.0052 0 12170
8.5105 -7.3383 1.8462 0 14461
8.5444 -10.765 2.258 0 14943
8.5651 -6.248 1.49 0 14158
8.611 -12.252 1.0472 1 15123
8.6141 -8.5393 1.9928 2 14608
8.6539 -10.464 0.63326 1 14867
8.6812 -8.0784 1.1063 0 14542
8.7932 -5.8821 0.24562 0 13943
8.8097 8.3076 2.2814 0 9097
8.8164 -4.4554 1.8611 0 13341
8.8738 -3.8548 1.3597 0 13023
8.8764 5.9512 1.7558 0 9323
8.9482 -10.2 1.9069 0 14783
8.9875 -5.2856 0.72909 0 13651
9.0096 -7.369 0.54279 2 14370
9.0197 -0.45376 1.7015 0 11770
9.0329 -4.1776 1.3987 0 13150
9.0463 -9.3383 1.213 0 14637
9.0808 -4.6869 1.6789 0 13382
9.1072 -3.5251 0.91108 0 12844
9.1332 -2.3909 0.66018 2 12469
9.1517 -2.258 1.776 0 12438
9.1946 5.5619 1.7655 0 9421
9.2438 -7.1677 1.9218 2 14284
9.2496 -10.24 2.5999 0 14743
9.2686 -9.0892 1.5181 0 14596
9.2989 -5.2911 1.5036 0 13579
9.3428 -2.2172 0.89585 2 12411
9.3656 -7.0857 1.3734 1 14237
9.4007 -7.3261 1.1119 0 14293
9.4299 -2.3546 0.45326 0 12441
9.454 -6.248 1.8618 0 13919
9.4808 -11.191 2.4098 0 14834
9.5282 -1.0385 0.67022 1 12010
9.5319 -9.5619 1.2596 0 14614
9.5871 -3.5845 0.23763 0 12800
9.6154 3.6046 0.47888 1 9925
9.6411 -5.3728 0.77179 0 13532
9.7001 -2.0053 1.6274 2 12327
9.7634 -7.3439 2.3018 0 14226
9.7673 -7.3468 1.7177 0 14223
9.8017 2.4875 1.6614 0 10427
9.8141 -8.2146 1.7987 0 14413
9.8153 -3.7992 1.7292 0 12846
9.8204 -0.89546 0.92 0 11941
9.902 -0.6143 1.63 2 11820
9.91 -7.9167 2.0839 0 14330
9.9163 -0.49887 0.92632 0 11764
9.9333 -1.5484 1.6517 0 12180
9.9621 -6.0547 1.9153 0 13732
9.966 -3.0812 1.466 0 12611
10.072 -6.9925 1.7232 0 14037
10.097 -6.7978 0.85117 1 13960
10.102 -7.4616 2.3662 1 14192
10.142 -0.099133 1.1861 0 11578
10.153 0.69752 0.71166 0 11275
10.17 -1.7676 1.9448 1 12238
10.205 -0.51338 1.436 1 11767
10.221 -5.5058 2.1874 0 13465
10.236 -8.5681 1.5611 1 14412
10.248 -5.6361 0.81782 0 13504
10.391 -2.6892 0.24919 0 12463
10.425 -2.2825 0.99562 0 12361
10.561 -7.8008 2.1572 0 14190
10.602 5.6444 1.9733 0 9531
10.61 -2.4553 0 0 12392
10.634 -6.2166 0.86135 1 13635
10.635 -2.2955 1.7875 2 12354
10.641 -8.1031 2.1974 0 14249
10.692 -8.5414 1.6003 0 14329
10.974 -6.3694 1.1838 0 13621
12.572 3.1485 2.4418 0 10443
-6.8355 4.3112 -1.7178 2 3698
-6.7217 7.4757 -1.6517 2 6001
-1.7605 7.2439 -1.9516 0 7914
3.5822 4.687 -1.5443 0 8809
3.9073 -2.2232 -1.6362 0 13574
5.0435 0.77537 -1.9926 1 10865
5.1192 -1.914 -1.9892 0 12799
8.7323 2.3235 -1.9207 2 10371
