VERSION .7
FIELDS x y z intensity index
SIZE 8 8 8 8 8
TYPE F F F F F
COUNT 1 1 1 1 1
WIDTH 805
HEIGHT 1
VIEWPOINT 0 0 0 1 0 0 0
POINTS 805
DATA ascii
-4.9331 0.442 0.93317 0 2138
-4.8658 -0.073891 0.91687 0 1742
-4.5571 1.1286 -0.109 2 2826
-4.2193 -0.026511 0.69323 2 1775
-4.0289 2.0991 -0.31767 0 4397
-3.9855 2.605 -0.44421 0 5206
-3.5943 -0.35749 0 2 1402
-3.5669 -2.7898 0.42247 0 847
-3.5538 -0.58259 0.25182 0 1189
-3.5475 0.65364 0.25224 0 2533
-3.5205 2.3604 -1.4322 0 5312
-3.2199 0.026975 0.37656 0 1824
-3.2176 1.4252 0.081702 0 3905
-3.1834 -2.8353 0.80319 0 689
-2.9777 3.1323 -1.2393 1 7453
-2.9715 -0.4616 0.56657 2 1225
-2.9627 -3.3487 0.20851 1 426
-2.9124 2.4848 -1.3934 1 6412
-2.8115 3.6973 -1.3319 0 8543
-2.7194 2.9959 0 1 7682
-2.537 -3.3231 -0.097068 0 295
-2.4734 3.4985 -0.70393 2 8868
-2.4467 2.6645 0.59433 2 7639
-2.3985 3.3712 0.58147 0 8863
-2.1155 3.1853 0.17832 1 9164
-2.0424 -3.2221 0.62676 0 148
-1.8829 -2.496 -0.14581 0 283
-1.5813 4.6798 0.81158 1 11107
-1.4662 3.6055 -1.4166 1 10752
-1.3642 4.7575 -1.2956 0 11318
-1.1989 4.3202 0.5243 0 11356
-1.1662 -3.1458 0.47152 0 21087
-1.0583 3.5343 -1.0579 0 11270
-0.86915 4.5998 0.7691 1 11592
-0.74716 4.5329 -0.4286 0 11624
-0.50472 3.8132 -0.63195 0 11658
-0.4488 3.9087 -0.27512 0 11671
0.19259 3.7886 -0.35392 0 11697
0.20575 -4.9923 -0.23301 0 20950
0.23568 -4.4377 0 0 20944
0.3961 3.4445 -0.90765 0 11715
0.41369 -3.5322 0.58428 0 20936
0.534 3.3526 -0.397 1 11729
0.54132 -3.1209 0.52041 1 20930
0.55345 3.4134 -1.1684 0 11732
0.56638 3.4324 0.65544 0 11736
0.71781 3.7953 0.2701 0 11753
0.72115 4.8954 0.57866 0 11723
0.72618 4.4786 -1.1877 0 11734
0.72673 3.0224 -0.66074 0 11792
0.85605 3.4695 -0.93551 0 11796
0.86871 3.3957 -0.081377 0 11800
0.92994 4.8428 0.92909 0 11755
1.2226 4.6079 0.44477 0 11806
1.2343 -3.1431 0.55478 1 20903
1.283 3.3705 -0.94412 0 11905
1.3695 4.1751 0 0 11854
1.595 3.5326 0.63681 0 12013
1.6088 -4.1327 0.10296 0 20904
1.7036 4.3292 -0.65384 0 11919
1.7404 2.7744 0.076039 1 12389
1.7662 -3.1358 0.083559 2 20864
1.8132 -3.7894 0.097532 1 20895
1.9164 -4.0947 0.31614 0 20897
2.0671 -4.4168 0.8012 0 20898
2.0803 -2.9677 -0.33813 2 20686
2.1381 3.8652 -0.20599 2 12192
2.251 3.5663 0.49318 0 12404
2.3104 -2.2864 0.15158 0 20200
2.4201 4.2308 0.68501 0 12252
2.4754 3.8946 -0.10714 0 12412
2.4991 2.887 -1.1915 1 13017
2.6853 -1.4062 0.070375 0 19160
2.7678 -3.6704 0.21438 0 20612
2.9416 3.7569 0.55799 0 12786
3.0214 2.9836 0.59677 0 13402
3.0455 -3.8521 -0.57425 1 20553
3.1672 1.8323 -0.25587 0 14790
3.2274 3.3974 0.65857 0 13249
3.2662 0.88373 -0.97024 0 16209
3.4339 3.0563 0.21438 0 13640
3.5377 -0.49152 0.41768 0 18125
3.6503 0.71947 0.70099 0 16621
3.7236 2.1265 0 0 14828
3.7263 2.7253 -0.53987 1 14128
3.7892 -0.69408 0.7258 0 18192
3.9416 -2.6029 0.44068 0 19598
4.0475 1.8377 -0.2073 1 15356
4.0493 -2.411 0.10942 1 19401
4.0837 2.1313 -1.3209 2 15057
4.1242 2.0779 0.75872 1 15143
4.1595 -0.45554 0.78838 1 18092
4.2355 -0.33929 -0.49689 1 18039
4.2596 0.2889 -0.1991 0 17436
4.2828 -0.07027 -0.19975 0 17841
4.3279 1.2935 0.21065 0 16068
-2.2832 -0.16647 0.37612 2 1505
-1.8551 0.87293 -0.43578 0 4086
0.51907 1.7512 -0.91745 0 11829
0.84894 2.5372 0.18709 0 11859
1.8492 0.59905 0.36623 1 15936
-14.936 1.3804 2.8262 0 2149
-14.88 1.3752 2.4552 0 2148
-14.878 1.682 2.46 0 2231
-14.864 0.85185 2.4461 0 2018
-14.814 2.1532 1.7506 0 2364
-14.808 2.1075 1.3954 0 2351
-14.757 2.0556 1.0419 1 2336
-14.653 2.5206 1.7388 0 2481
-14.604 2.167 0.6885 1 2374
-14.528 -1.9566 2.4085 0 1286
-14.511 3.4194 -0.34612 0 2770
-14.489 1.339 2.045 0 2147
-14.458 3.0943 1.3794 0 2672
-14.448 -0.92671 2.0347 1 1542
-14.412 -1.4741 2.0361 0 1395
-14.33 2.0394 0.67499 1 2349
-14.318 -1.5049 2.7125 0 1389
-14.207 3.1315 1.0173 1 2700
-14.155 3.1588 1.3531 2 2715
-14.116 -0.088697 1.317 0 1772
-14.111 3.1931 0.33591 1 2726
-14.072 -1.152 0.65841 1 1467
-14.069 2.1278 0.99501 1 2388
-14.039 3.0944 1.6812 1 2702
-13.984 3.0822 2.0124 0 2703
-13.96 1.0864 0.9791 1 2093
-13.914 1.4894 1.3055 2 2202
-13.91 2.9363 1.3263 0 2659
-13.86 -0.40893 1.2936 2 1685
-13.775 -0.28374 1.6112 0 1717
-13.726 1.3096 1.9378 0 2157
-13.673 1.3841 0.64089 2 2178
-13.669 -0.20757 0.31738 2 1738
-13.659 -0.00715 1.2743 0 1792
-13.643 1.784 0.64164 1 2300
-13.635 0.033316 0.63586 1 1802
-13.572 3.8685 0.32764 2 3008
-13.506 -1.3053 1.2659 1 1416
-13.479 3.0501 0.96641 1 2727
-13.464 3.6253 1.3009 1 2932
-13.462 3.1724 0.64499 1 2773
-13.445 6.5172 2.4548 2 4180
-13.433 3.1655 -0.6436 0 2769
-13.421 3.8688 0.97673 1 3025
-13.416 1.5571 0.31358 2 2240
-13.389 1.4711 1.2566 0 2215
-13.376 1.5524 1.5748 0 2243
-13.354 1.1965 0.62524 1 2135
-13.301 3.2155 1.2767 0 2803
-13.28 3.0049 2.2369 1 2731
-13.236 0.34197 0.3074 2 1892
-13.225 3.2753 0.95273 1 2829
-13.178 -2.0095 0.30949 1 1229
-13.172 3.5467 0.63614 1 2930
-13.169 -0.69476 2.1666 0 1592
-13.163 3.2209 0.63195 1 2815
-13.163 3.6306 0.31701 2 2961
-13.1 -0.6911 0.61173 1 1588
-13.088 -1.6859 2.4862 0 1307
-13.084 3.4861 0 0 2913
-13.056 6.6152 1.3655 0 4316
-13.032 1.5471 0.91772 1 2254
-13.014 2.1639 2.1676 0 2455
-12.948 -1.3609 1.2147 1 1385
-12.945 -2.2429 0.61267 2 1156
-12.935 -2.2413 0.918 2 1157
-12.93 0.82027 1.2087 1 2038
-12.903 -2.31 2.1536 1 1139
-12.879 1.0023 0.60242 1 2092
-12.873 3.3077 0.61984 1 2872
-12.823 -1.6858 1.8176 2 1295
-12.807 -0.48752 1.1957 0 1653
-12.802 -1.8356 2.4366 0 1261
-12.786 1.8584 0.60251 1 2362
-12.763 3.201 0 1 2842
-12.676 2.1077 1.5028 0 2453
-12.556 -1.8764 0.88772 1 1240
-12.524 -1.9455 0.59105 1 1220
-12.494 -2.2368 2.3914 1 1140
-12.463 1.0093 0.87433 1 2104
-12.381 3.2573 0 0 2898
-12.338 2.7918 1.4793 0 2729
-12.218 -8.2565 1.3757 2 1043
-12.211 -1.9668 0.5768 1 1199
-12.208 -1.5336 0.86038 1 1312
-12.077 -1.0226 0.84754 1 1457
-12.06 -0.91737 0.2808 1 1490
-12.046 3.4337 0 0 3007
-12.019 -0.91426 1.1245 1 1492
-12.006 -1.7558 0 0 1246
-11.989 -2.3979 2.3037 0 1104
-11.963 3.4848 0.2893 1 3039
-11.86 -2.0188 1.9766 2 1171
-11.801 5.3059 0.30039 1 3947
-11.748 4.9554 0.29603 2 3782
-11.726 -1.1332 0.27352 1 1414
-11.721 -2.1703 2.2459 0 1121
-11.698 -2.0585 0 0 1144
-11.697 -0.64989 0.81922 0 1576
-11.648 6.6413 0.3113 2 4710
-11.642 -8.5236 2.3705 0 947
-11.623 7.2654 -0.95845 1 5043
-11.594 5.8313 0 2 4286
-11.586 2.4797 -0.27509 0 2669
-11.562 5.0778 0 0 3881
-11.511 -8.5833 1.0041 1 921
-11.501 -9.1551 1.3715 0 825
-11.476 -1.9885 2.1944 0 1162
-11.461 1.2592 0.53767 2 2213
-11.452 0.72651 0.26641 1 2037
-11.435 -8.5266 0.33117 1 919
-11.412 4.7387 0.28689 2 3737
-11.316 -8.4899 1.3198 0 913
-11.309 -7.4992 2.5566 2 1067
-11.253 -9.7927 1.0431 1 719
-11.217 -9.9345 1.7522 0 696
-11.21 3.6229 -0.27352 2 3202
-11.205 7.8922 0.63912 1 5516
-11.203 -9.7488 2.798 0 722
-11.186 3.1168 0 0 2977
-11.156 2.1866 0 2 2586
-11.137 -7.1116 1.8571 0 1091
-11.105 -7.9859 2.2473 1 969
-11.08 -7.871 0.95036 1 980
-11.078 6.2725 0.59366 1 4688
-11.058 0.25095 0.2568 1 1881
-11.048 4.852 -0.84377 0 3878
-11.043 5.6366 -0.28786 1 4331
-11.041 3.0452 -0.2659 0 2959
-11.007 -8.1065 -0.31738 0 936
-10.983 -1.4441 0 0 1291
-10.976 -9.6633 2.4026 1 707
-10.959 4.8127 0.27788 1 3883
-10.949 7.2967 0.6136 1 5291
-10.929 -7.859 2.5362 2 970
-10.919 -6.9267 2.1244 1 1094
-10.908 6.5156 -0.59254 1 4875
-10.891 -9.3646 1.3401 0 734
-10.879 -9.8572 -1.0265 2 654
-10.872 -0.28661 0.5072 1 1694
-10.862 0.18392 0 1 1855
-10.835 5.1775 -0.27881 2 4117
-10.812 5.0118 0.55574 1 4036
-10.791 7.6463 0.61676 1 5541
-10.775 5.3392 -0.56077 1 4235
-10.747 10.303 0.34566 1 6983
-10.714 -1.2852 0.25054 0 1329
-10.712 5.2337 0 2 4191
-10.694 -0.53237 -0.24859 2 1599
-10.693 -8.7176 1.6133 0 791
-10.69 6.6383 -0.87991 2 5018
-10.686 8.8529 0.64714 1 6273
-10.676 -7.0341 1.4951 0 1071
-10.646 -1.7147 -0.25035 1 1196
-10.589 -9.7061 -0.33349 0 640
-10.586 -9.6495 2.6988 0 653
-10.536 -9.2753 -0.65459 0 701
-10.517 4.3305 -0.5304 0 3712
-10.454 -7.6092 -0.60298 0 950
-10.424 -8.0564 1.5406 1 867
-10.354 -0.18614 0.24042 0 1726
-10.34 9.245 -0.32203 0 6636
-10.312 6.1596 -1.1206 1 4871
-10.273 -8.99 2.2428 1 715
-10.228 -7.0875 -0.87014 0 1011
-10.224 -7.5297 2.0862 1 942
-10.193 -7.3296 1.4681 0 967
-10.169 -7.0466 0.86512 1 1013
-10.163 5.7148 -1.0878 1 4655
-10.145 8.5518 -0.30805 0 6353
-10.138 -6.6797 0.56617 1 1069
-10.081 6.1802 -0.27454 0 4976
-10.048 5.6503 -0.80611 2 4657
-10.039 -6.537 1.1177 2 1080
-10.036 -10.763 -0.34166 0 474
-9.9537 10.351 0.3334 2 7387
-9.9033 11.17 0.34658 2 7801
-9.8354 -10.185 -0.66027 0 513
-9.7754 4.2566 -0.74556 1 3859
-9.6838 6.2097 1.89 0 5155
-9.6556 -6.5693 1.3657 0 1036
-9.5179 -0.80593 1.5693 0 1460
-9.4037 4.0013 1.4363 0 3811
-9.3776 -8.0177 -0.86275 1 739
-9.3617 0.70227 0 0 2076
-9.2983 -7.0578 -0.81629 2 890
-9.2889 7.3412 2.2307 2 6053
-9.1736 6.0351 2.0689 0 5249
-9.1117 -8.164 -0.85549 2 672
-9.0944 3.836 1.8597 0 3794
-9.0525 -0.50294 1.4896 1 1578
-9.0468 4.7477 -0.47646 0 4422
-8.9776 4.5822 0.70482 0 4338
-8.9776 11.055 2.3397 0 8235
-8.9648 4.0308 0.91703 2 3953
-8.9342 -8.1438 -0.56375 0 647
-8.893 8.9804 2.0764 1 7251
-8.8901 -7.918 -0.83247 1 681
-8.8227 7.8442 1.3806 0 6619
-8.7986 -1.1849 0 2 1282
-8.7878 -0.18101 0.20407 1 1716
-8.7801 5.1739 -0.71263 0 4820
-8.7728 8.9148 0.87461 1 7272
-8.7417 -7.7422 -0.54456 1 692
-8.7363 -6.2407 -0.50068 2 972
-8.7301 4.4867 1.3795 0 4367
-8.6933 -0.68571 1.2256 0 1481
-8.6863 -6.3971 -0.75435 1 934
-8.6424 -0.75611 1.6345 0 1448
-8.5835 11.288 1.993 0 8548
-8.4223 11.148 2.6325 1 8579
-8.4024 -7.3973 0.78281 1 704
-8.3906 -6.0337 -0.48195 0 964
-8.2783 8.5575 1.9561 1 7368
-8.2768 2.7261 0.81299 1 3243
-8.2713 8.2598 1.0906 2 7191
-8.2519 7.7762 2.1363 2 6910
-8.251 -0.91674 0.58051 0 1363
-8.2371 7.3236 0.514 2 6614
-8.2189 5.8236 1.6549 0 5549
-8.1093 11.982 2.377 2 9089
-8.1073 9.5294 0.87489 1 8002
-8.0848 -0.56818 0.94779 1 1516
-8.0667 10.355 0 0 8424
-8.0259 -9.9644 -0.8947 0 351
-7.9969 8.9158 0.8375 1 7748
-7.9749 -0.42074 0 1 1586
-7.9409 1.8216 0.37993 1 2742
-7.9366 1.8206 1.5342 0 2748
-7.9258 11.934 0 0 9160
-7.9197 -6.575 0.96032 1 772
-7.9051 -7.7737 0.25741 0 566
-7.8687 11.697 2.3161 1 9117
-7.8144 -5.5513 1.5748 0 984
-7.7627 7.4832 -0.50282 2 7006
-7.7195 6.1757 -0.69129 2 6092
-7.7158 -8.8261 0.5467 1 416
-7.6292 -11.294 -0.63558 0 175
-7.6001 9.419 0.5644 1 8255
-7.5274 8.2928 1.3097 2 7691
-7.5047 8.4646 1.8585 1 7811
-7.4878 1.1552 0.886 2 2401
-7.4819 -11.291 -0.94715 0 160
-7.3845 -7.2188 0.72212 2 575
-7.3495 -7.2274 1.6935 2 571
-7.2603 8.2381 1.8041 2 7836
-7.2517 4.3315 0.39391 1 4883
-7.2082 2.5837 1.4427 2 3407
-7.127 4.809 0.19961 0 5336
-7.1113 13.125 2.8125 0 9952
-7.0922 2.5645 0.52736 0 3417
-7.0629 13.217 1.0479 1 9989
-6.8195 -1.3034 1.1407 2 1109
-6.726 2.9064 1.3805 0 3854
-6.7158 -11.015 2.1196 0 141
-6.6438 1.9781 1.3061 0 3077
-6.6366 -9.7071 1.0971 0 187
-6.55 0.39603 0 0 2026
-6.5443 6.5694 1.0844 1 7221
-6.4898 4.1616 -0.90156 0 5136
-6.3003 5.9371 1.2167 1 6906
-6.2337 -9.8341 1.0863 1 147
-6.2168 4.8833 -0.36866 0 6007
-6.1808 7.4395 1.1311 0 8117
-6.1733 -5.1543 1.3213 0 767
-6.1571 0.768 1.1691 0 2280
-6.1524 7.5759 0.45512 0 8226
-6.1252 9.8253 1.6272 2 9440
-6.1045 1.252 0.72873 0 2633
-6.0976 1.2339 0.29012 0 2617
-6.0559 11.496 2.4481 1 10041
-6.0121 8.8831 0.50021 2 9079
-5.9761 11.663 1.8418 0 10124
-5.9138 12.332 0.95636 1 10315
-5.8921 -8.3525 0.95363 0 216
-5.7941 12.082 1.2501 1 10317
-5.6479 -4.2375 0.49374 0 912
-5.6124 8.9504 0.49267 1 9403
-5.5385 5.4961 1.4701 0 7170
-5.4949 10.724 2.2703 0 10128
-5.4728 -6.7946 1.0203 0 355
-5.4352 -3.6043 0.60844 0 1064
-5.4335 12.124 2.1828 0 10518
-5.4117 11.037 -1.4375 2 10238
-5.4074 -8.3649 1.6364 0 152
-5.365 -7.3357 1.4931 0 256
-5.3167 1.2529 -0.50961 1 2767
-5.2937 0.95916 0.88388 2 2523
-5.2649 3.0618 0.71224 0 4785
-5.2383 2.6921 -0.27466 1 4353
-5.2334 6.8401 1.415 2 8523
-5.1668 0.087481 0.48211 0 1859
-5.1447 12.538 2.2266 0 10743
-5.078 10.995 2.2818 0 10430
-4.9497 2.9764 0.26935 0 4908
-4.9439 1.472 0.24056 0 3071
-4.931 12.531 1.5748 0 10830
-4.9304 -3.3119 0.41533 0 1046
-4.9184 6.9567 1.3997 1 8893
-4.8306 9.1081 1.6938 1 10018
-4.7768 8.6998 1.6306 0 9907
-4.7601 11.799 1.4879 0 10777
-4.7261 -4.9232 1.1212 0 510
-4.6874 7.5718 1.0414 2 9465
-4.644 13.122 1.6277 0 11022
-4.5826 3.863 0.98472 0 6367
-4.5447 2.6781 0.36887 0 4832
-4.5389 4.9429 0.31295 0 7629
-4.4691 -10.658 2.1774 0 28
-4.3954 11.775 1.4698 0 10934
-4.2089 -3.5986 0.77826 0 743
-4.1618 -7.2435 1.3725 0 131
-3.7241 3.3673 0.82487 0 6711
-3.4891 -10.422 1.0253 0 21080
-3.279 8.128 1.44 0 10781
-3.2091 -7.7744 0.98356 0 22
-3.199 -5.3856 1.0291 0 136
-2.9412 8.9669 0.6599 0 11147
-2.8644 13.083 2.2003 0 11528
-2.8106 8.0893 1.0015 0 11056
-2.6567 -4.4407 0.60515 1 138
-2.6558 -7.7791 0 0 21081
-2.6341 -8.5944 0.83863 0 21077
-2.6127 -6.5453 1.1579 0 13
-2.5906 -5.2188 -0.13527 0 48
-2.5665 -4.3208 0.94687 0 137
-2.5109 -4.8132 0.37961 0 77
-2.3682 9.2639 1.8015 0 11435
-2.2561 -6.5411 1.1368 0 21082
-2.0048 -5.5022 0.68482 0 21084
-1.844 7.5701 1.095 0 11471
-1.79 -5.5026 0.95067 1 21078
-1.711 -5.1555 0 1 21079
-1.5482 5.9777 -0.43179 1 11419
-1.4478 -6.8762 0.98757 0 21063
-1.4028 -5.8928 1.1413 0 21070
-1.3839 -8.5071 0.6027 0 21052
-1.3831 5.1546 0.3732 0 11392
-1.3483 -7.8629 1.5031 0 21055
-1.3392 -8.5517 1.4221 1 21051
-1.2297 -7.4282 0.70245 1 21053
-1.093 -6.0502 0.71897 0 21057
-1.0113 -9.4943 1.7989 0 21039
-0.99242 -5.402 0.90236 0 21059
-0.97253 6.7489 1.1203 0 11649
-0.83521 -8.0546 0.18801 0 21036
-0.81306 5.1104 0.85016 0 11632
-0.80437 -9.0485 1.7115 0 21029
-0.61507 -8.5807 1.4134 0 21022
-0.59575 -5.0335 -0.11768 0 21042
-0.49775 -9.6919 1.3639 0 21012
-0.42935 11.026 1.8128 0 11689
-0.16907 6.9677 -0.65024 0 11690
-0.1255 -6.477 -0.15041 0 20986
-0.11668 -7.0365 0.65656 0 20983
-0.041125 -8.4154 0.78512 0 20976
-0.022724 5.4247 -0.37934 0 11691
0.033718 -5.2212 0.48713 0 20968
0.053822 11.422 1.3357 0 11694
0.28723 5.0739 0 1 11701
0.35738 -5.2829 0.86994 1 20940
0.47653 5.0412 -0.35408 1 11709
0.49578 5.4059 -0.12603 0 11707
0.58679 9.4054 1.5483 0 11702
0.60538 6.0438 0 0 11711
0.64588 9.9073 1.161 0 11703
0.64849 -5.0344 0.83395 0 20932
0.74791 8.724 0.81689 0 11704
0.84532 -9.6041 1.355 0 20938
0.90327 -5.0403 0.11889 0 20929
0.98744 4.9149 -1.3123 0 11762
0.99687 -5.138 0.85989 0 20928
1.2991 8.6309 0.81429 0 11724
1.3228 -11.574 1.0868 0 20937
1.52 5.4771 0.39747 0 11814
1.5629 -7.9294 0 0 20925
1.6172 5.7611 0.9831 0 11817
1.6223 -6.4396 -0.30969 0 20918
1.7705 4.9071 0.73316 0 11886
1.862 -9.4472 1.582 0 20927
2.01 6.8515 1.1731 0 11827
2.0428 -5.8399 0.43263 0 20912
2.1742 -7.44 0.90644 0 20917
2.1974 -4.9939 0 2 20900
2.2172 -5.6957 1.0042 0 20905
2.2865 5.8106 0.14497 0 11922
2.2948 5.0823 -0.38994 2 12010
2.3021 7.2265 1.2461 0 11847
2.3417 -7.9208 0.96591 0 20916
2.3678 -7.5328 1.2973 0 20914
2.4746 7.839 0.76692 0 11844
2.5229 -7.1482 1.2454 2 20911
2.5484 -7.8666 1.3586 0 20913
2.6236 8.8514 0 0 11831
2.7195 -7.5621 1.3203 0 20910
2.8684 6.7608 0.68517 0 11969
2.9168 -7.8935 1.3826 0 20909
3.0123 4.9935 -0.4078 1 12323
3.0217 -7.5054 0.75484 0 20902
3.0569 7.8975 1.3913 0 11914
3.0633 -5.5514 -0.44337 0 20871
3.2916 4.5438 0.92182 0 12641
3.5291 -5.7096 0.78495 0 20815
3.5658 6.1095 0 0 12277
3.6026 8.9936 0.67747 0 11930
3.635 4.6998 0.41547 0 12762
3.6986 3.5061 0.9602 0 13493
3.7799 7.121 0 0 12150
3.8781 3.5949 0 1 13544
3.8965 5.3493 0 0 12645
3.9714 -8.3562 1.52 1 20896
4.1197 -5.7714 1.165 1 20669
4.1697 -3.0383 0.97205 0 19801
4.2276 3.2055 -1.1277 0 14038
4.3185 7.349 -0.99681 0 12287
4.3543 5.5254 0.98869 0 12799
4.4113 2.9598 -0.24773 0 14374
4.4681 -10.562 1.8842 0 20901
4.6471 -2.6604 0.49957 0 19328
4.9328 2.7422 -1.4775 1 14903
5.0043 -0.31485 0.4678 1 17999
5.0896 7.1564 1.2342 0 12606
5.1876 -2.0959 -0.78633 0 18668
5.197 -0.78226 0.86345 0 18143
5.2032 -0.83063 0.49158 0 18153
5.2065 2.364 0 0 15359
5.2411 -6.4307 0.77398 0 20512
5.2606 0.74121 -0.12334 2 16941
5.3707 -2.1699 0.67739 0 18674
5.4957 5.0341 1.4042 0 13581
5.5125 2.7966 0.28826 0 15124
5.5532 -2.7253 -0.72339 0 19027
5.5622 -3.1623 0.14855 0 19312
5.606 -4.6048 -1.0196 0 19991
5.606 0.0048936 0 0 17767
5.6119 -0.22147 -0.39273 1 17921
5.6317 -6.6737 1.6453 0 20461
5.6789 -4.0387 1.1449 0 19750
5.8048 -0.51602 0.27177 0 18055
5.851 -7.6225 1.5787 0 20594
5.8603 2.126 0 0 15749
5.8642 2.7457 1.0638 0 15301
5.9834 -0.14936 -0.69992 1 17869
5.9894 -3.3378 0.96363 1 19279
5.9974 -1.7243 0.14488 0 18323
6.0829 -3.7437 0.49946 0 19467
6.1133 -2.741 0.46848 0 18843
6.1899 1.9671 0.30289 0 15962
6.2878 3.6142 -0.67662 0 14806
6.4132 -6.6877 1.5223 0 20284
6.4471 -5.0479 -0.95755 0 19925
6.4549 0.90947 1.071 0 16950
6.5668 -7.9182 0.71933 0 20484
6.5879 11.587 1.5587 0 12244
6.6166 -9.2693 1.0625 0 20667
6.6263 0.083273 -0.77496 0 17714
6.6678 1.9485 0.81236 1 16096
6.7249 6.8769 0.67259 1 13314
6.7426 7.1777 0.68864 0 13216
6.7844 -3.676 1.4538 1 19232
6.8196 -0.96572 1.1316 0 18129
6.8312 11.625 1.895 0 12292
6.8369 -4.045 -0.92897 0 19387
6.9799 7.1776 1.8863 0 13307
6.995 0.94328 0.32916 0 16982
7.005 7.0393 0.9265 0 13360
7.0085 11.536 1.5785 0 12339
7.0307 -12.075 1.634 0 20854
7.0356 -3.4772 1.4786 0 19050
7.0379 -8.2432 1.0112 0 20440
7.0434 -3.2799 1.092 1 18918
7.074 6.4391 1.8023 1 13593
7.0762 -0.48613 1.1653 0 18018
7.0914 0.23277 0.66195 1 17622
7.0921 0.10893 1.1653 0 17709
7.1461 7.1361 0.47096 1 13369
7.165 5.6322 1.7171 0 13949
7.1932 -7.325 1.6867 1 20252
7.1963 11.845 1.2931 0 12337
7.2071 3.5027 -0.74759 0 15215
7.2466 -8.4876 1.5685 1 20443
7.2874 3.8846 0.77045 0 15006
7.313 5.449 1.0665 0 14087
7.3885 -9.4569 0.55965 1 20568
7.4142 -8.4365 1.8453 2 20405
7.4256 -1.8803 -0.17784 0 18267
7.4306 -9.4562 2.2659 1 20564
7.4327 -4.6031 0.61135 0 19476
7.4562 6.9118 0.47413 1 13546
7.4911 -5.1639 0.84885 2 19683
7.4951 -2.9781 0.94314 0 18649
7.5161 -0.40706 1.2367 0 17977
7.5367 8.5577 2.1485 2 13065
7.5946 -7.2145 1.4722 0 20162
7.626 -2.1206 -0.36913 0 18306
7.6289 12.557 2.414 0 12343
7.7387 8.192 1.5838 0 13236
7.7751 -0.71444 -0.18128 0 18060
7.779 -5.9518 1.6092 0 19891
7.7798 -12.676 2.4435 1 20825
7.8118 4.0216 1.4435 1 15095
7.8201 10.225 1.5053 0 12741
7.8482 -9.3564 0.85396 1 20466
7.869 -12.574 1.7346 0 20802
7.893 7.6595 2.0722 0 13440
7.9218 7.3434 1.5181 0 13554
7.9558 8.3253 2.1696 1 13264
7.9601 -4.8038 0.65013 2 19433
7.979 0.72474 0.18601 0 17254
7.9801 -4.6913 1.0825 1 19381
8.0159 -9.7241 1.4737 1 20495
8.0346 12.102 1.0158 1 12482
8.057 9.6978 1.772 0 12925
8.0741 1.1376 -1.146 0 16936
8.0895 1.4264 0.76636 0 16732
8.1488 10.407 1.8577 0 12788
8.1519 3.3666 0.82284 2 15543
8.1896 -5.3062 1.8386 2 19566
8.2168 6.8145 1.7538 1 13811
8.2246 -8.9285 1.1325 0 20338
8.255 -2.9509 0.61302 1 18507
8.2584 2.004 -0.99379 0 16348
8.2678 7.1845 0.76593 1 13700
8.2846 2.0594 0.3981 0 16325
8.2967 10.408 1.2418 0 12817
8.3043 -9.7851 2.1085 1 20450
8.3077 -1.0805 1.3764 0 18115
8.3264 12.457 2.4616 0 12498
8.3301 7.0694 1.2777 1 13754
8.3445 10.283 2.1757 2 12858
8.3526 -3.8329 0.42857 2 18884
8.3561 -9.9021 1.8209 0 20459
8.3578 -6.7439 1.0019 0 19972
8.3634 -5.3158 0.69296 0 19528
8.4037 -9.9585 0.30253 2 20455
8.4089 12.35 1.3939 0 12523
8.4202 -8.6769 0.56385 2 20266
8.4271 5.8723 1.9352 1 14287
8.4816 6.5909 1.0021 0 13975
8.4832 2.5596 1.2453 0 16054
8.4887 10.342 0.93557 1 12885
8.4913 -0.43609 1.1949 0 17964
8.5179 -3.9955 1.7726 0 18938
8.5392 5.8033 1.451 1 14350
8.5502 -0.33743 0.79831 1 17924
8.5798 -8.792 1.1461 2 20259
8.5862 10.896 0.97003 1 12793
8.6265 -3.7778 1.3235 0 18799
8.6317 3.9792 0.88675 0 15329
8.6412 7.1232 0.78309 0 13820
8.67 -8.2881 1.4026 2 20167
8.6823 1.661 1.0337 0 16649
8.7052 -8.9706 2.3551 2 20271
8.716 -7.2851 0.52975 1 20024
8.7207 11.543 1.3497 2 12715
8.7467 -5.6282 1.9596 0 19554
8.8217 7.802 1.0987 1 13659
8.8268 6.981 0.52481 2 13927
8.8305 -5.9026 1.4928 1 19627
8.8408 6.3131 0.75965 1 14205
8.8412 -8.6007 1.1507 2 20183
8.8493 -9.9497 2.5088 0 20393
8.8581 9.0582 1.7806 0 13320
8.8676 11.465 0.67593 1 12761
8.8792 -10.706 1.6266 0 20487
8.8922 3.1979 0.44068 0 15768
8.9649 -4.8251 1.9182 0 19220
8.9651 -0.3021 1.6901 1 17908
8.9687 -6.2637 1.2793 0 19709
8.9719 -10.383 1.2802 0 20426
8.999 3.5339 0.90198 0 15628
9.0123 9.5403 0.91772 1 13232
9.0171 -8.6199 0.58173 2 20165
9.0716 -6.7692 1.056 1 19842
9.1187 3.1612 1.3564 1 15833
9.1619 -5.3153 0.74067 0 19354
9.1651 -7.7534 2.2618 1 20042
9.182 2.8265 1.5784 1 16021
9.1859 2.1461 1.3258 1 16407
9.2098 -1.3863 0.86891 0 18141
9.2153 2.521 1.8 1 16199
9.2162 -8.1711 2.0236 0 20093
9.2174 -3.6011 1.8645 2 18627
9.2345 10.537 1.3072 2 13048
9.2797 -9.8405 1.5817 0 20303
9.2841 -9.3492 0.92134 1 20228
9.2853 -4.9288 1.2293 0 19190
9.2953 1.5855 1.5492 0 16770
9.315 1.0086 0.21753 0 17143
9.3239 -9.608 0.31084 1 20265
9.3286 -3.1558 0.68864 0 18453
9.3498 -9.3628 1.5474 0 20219
9.3537 -3.2811 1.1592 0 18488
9.3558 -10.217 1.6201 0 20347
9.3808 5.8322 0.51512 1 14605
9.4109 7.9416 0.86107 1 13765
9.431 -9.4442 1.8758 0 20220
9.4451 -0.95107 0.6638 0 18072
9.4559 -7.3612 1.9688 0 19920
9.4695 3.3757 1.6517 1 15789
9.4983 6.7825 1.0889 1 14207
9.504 5.9503 0.26033 0 14588
9.5046 -4.7326 1.4922 1 19061
9.5081 10.182 1.6291 0 13207
9.5157 -7.8609 0.28656 2 20003
9.5182 -4.7747 2.0063 0 19079
9.5193 10.133 2.6195 0 13223
9.5301 -4.5395 1.2344 0 18969
9.5424 -4.9971 0.75323 0 19164
9.55 -3.1973 1.4154 0 18447
9.5536 -5.6883 0.77751 0 19404
9.5569 -3.1995 0.94025 1 18445
9.5763 7.7106 0.28545 1 13878
9.5785 9.3996 1.8861 0 13412
9.5797 4.8937 1.0036 0 15109
9.5879 2.4475 1.6257 0 16298
9.6277 4.9905 0.50571 1 15073
9.6556 5.7354 0.78532 2 14723
9.6588 7.683 0.86303 1 13911
9.6625 1.7908 1.1492 0 16684
9.663 11.096 0.34162 1 13028
9.6678 2.5544 0.69924 0 16243
9.6909 -7.8643 0.58201 1 19979
9.6989 -9.5979 2.2418 0 20205
9.7026 1.8281 0.22923 0 16663
9.7222 11.094 2.0731 0 13052
9.736 -8.2801 0.89372 1 20045
9.7387 -4.469 0.24877 0 18882
9.7584 -6.6044 0.82396 0 19649
9.7687 0.12276 1.1425 0 17720
9.7775 4.6469 2.0396 1 15276
9.7799 2.797 1.4296 1 16126
9.7903 0.29228 1.6092 2 17640
9.7968 7.0839 1.4138 0 14173
9.8384 -6.9557 0.56189 2 19731
9.8525 -2.801 0.47767 1 18319
9.8539 -1.837 1.8886 0 18196
9.8546 -6.2202 0.8149 0 19513
9.8566 -4.9811 2.0807 0 19095
9.8801 8.2435 2.1141 0 13798
9.8809 10.825 1.3674 0 13143
9.9193 2.8987 1.9471 0 16100
9.9387 0.70021 0.23132 1 17420
9.9395 -4.1476 1.5136 0 18721
9.9434 0.35418 0.69575 0 17608
9.9832 -2.9307 1.7094 0 18339
9.9973 -7.9694 2.4088 2 19958
10.039 -5.3647 0.79592 0 19202
10.081 -8.281 2.4581 1 19997
10.1 10.034 1.6649 0 13385
10.109 1.5397 1.4371 0 16875
10.111 10.16 2.7006 0 13363
10.124 -4.7143 2.1041 1 18922
10.126 1.4267 1.9267 1 16952
10.138 1.2179 0.47618 1 17073
10.152 -6.4925 0.84266 1 19540
10.159 -7.9542 0.90223 1 19928
10.159 7.5698 1.7806 0 14088
10.172 -7.9643 2.1225 0 19931
10.191 -7.6045 2.0891 1 19845
10.2 -9.8021 1.3198 0 20172
10.202 0.57036 1.436 1 17507
10.209 -4.8279 1.0536 1 18951
10.209 5.328 1.3467 2 15058
10.342 -2.6805 0.74709 0 18276
10.345 1.0016 1.2154 0 17220
10.426 -4.5657 0.53077 1 18795
10.479 -6.8757 1.1693 1 19585
10.492 4.7993 1.0764 0 15344
10.502 -9.6364 1.6668 0 20126
10.526 -2.927 0.76397 0 18307
10.537 -2.9957 0.25434 0 18318
10.541 2.2675 0.50282 1 16505
10.547 -8.922 0.96599 1 20039
10.561 6.5658 2.043 0 14613
10.577 1.6449 2.0167 1 16859
10.598 -3.5852 1.8381 1 18457
10.611 -7.2245 1.5011 0 19662
10.614 -0.26497 1.4922 0 17875
10.69 2.0141 1.7872 0 16670
10.697 0.41467 1.5045 0 17596
10.708 -3.3455 2.1137 0 18393
10.72 -7.8112 1.8641 1 19799
10.72 1.4761 1.7778 0 16970
10.727 -3.2857 0.26047 0 18368
10.791 -8.2028 0.94785 1 19877
10.827 -3.836 1.0716 0 18499
10.888 1.6584 0.51363 1 16870
10.924 5.9459 2.3433 0 14959
10.925 4.9602 1.1193 0 15364
10.938 5.9538 1.7502 0 14955
10.999 4.8765 1.691 0 15413
11.109 -7.4709 1.249 1 19639
11.135 5.4116 1.155 0 15222
11.183 6.5532 1.5158 0 14761
11.329 -8.2041 0.97813 1 19785
12.173 -0.90672 2.0054 0 18029
12.38 -1.5354 2.0495 0 18106
-1.2798 8.3538 -1.5923 0 11639
5.4591 10 -1.8718 2 12174
5.9633 1.8951 -1.638 0 15965
7.1983 5.628 -1.7215 0 13964
8.3947 4.2295 -1.998 2 15142
11.475 7.6527 -1.9384 1 14391
