VERSION .7
FIELDS x y z intensity index
SIZE 8 8 8 8 8
TYPE F F F F F
COUNT 1 1 1 1 1
WIDTH 655
HEIGHT 1
VIEWPOINT 0 0 0 1 0 0 0
POINTS 655
DATA ascii
-4.9964 0.14654 0.2331 0 1743
-4.6196 0.054829 0.43102 0 1670
-4.2519 -0.59151 -0.099667 0 1205
-3.7593 -0.48025 -0.17674 0 1229
-3.5787 1.5375 -0.8279 1 3210
-3.5295 -0.27468 -0.16509 0 1361
-3.5206 -2.5233 -0.30288 0 1025
-3.4984 2.9522 -1.3126 0 5654
-3.4188 -0.047739 0.31899 0 1581
-3.2644 1.0992 0.40281 0 2782
-3.1975 0.23369 0 0 1913
-3.0788 3.6214 0.66803 1 7052
-3.052 2.6992 0.76764 0 5852
-3.0434 2.8871 -1.4175 0 6129
-3.0425 -3.1221 0.30484 0 641
-3.0159 -0.37565 -0.070561 0 1238
-2.9896 -0.26734 0.35101 0 1328
-2.9664 -4.0148 0.34906 0 334
-2.918 -4.0444 0.81936 2 314
-2.8874 1.0664 0 1 2907
-2.7676 2.7017 -0.45229 1 6243
-2.6782 -1.7821 0.52851 0 1094
-2.6468 2.9354 0.74468 0 6820
-2.6439 1.6753 0 0 4388
-2.4743 -2.7547 0.43301 0 565
-2.4196 3.6667 -1.3708 1 7903
-2.2728 3.1981 0.64459 0 7677
-2.168 -2.5438 0.15587 0 508
-2.0864 3.4833 0.47482 0 8187
-1.9981 3.6406 -0.096418 0 8387
-1.9476 -2.9082 0.40932 0 240
-1.815 3.1322 0.16882 0 8264
-1.76 3.3423 0.6206 0 8480
-1.5412 -2.7989 0.52495 2 76
-1.4715 -3.6976 -0.18559 0 21
-1.3904 4.0039 -1.3226 0 8958
-1.3482 3.1579 -1.2497 1 8790
-1.1907 3.464 0.60179 0 8964
-1.1388 -3.1203 0.62581 0 18
-1.1221 2.8283 -1.1075 0 8863
-1.011 -4.3685 0 0 15876
-0.9624 -4.8605 0.93354 0 15873
-0.89332 -2.8823 0.49576 1 7
-0.87493 -3.94 0 0 15874
-0.84322 3.1079 -0.92339 0 9009
-0.81847 3.4516 -0.24805 0 9013
-0.74064 -4.3284 0.30707 0 15867
-0.66928 4.4623 -1.2938 0 9031
-0.61219 3.9273 0.37082 1 9029
-0.59604 -3.0102 0.1431 0 15871
-0.50639 3.9204 -0.64945 0 9034
-0.46025 -3.628 0.25573 0 15860
-0.44498 3.2151 -1.1813 1 9033
-0.38403 4.8257 -0.45164 1 9043
-0.33337 -4.6737 0.88281 2 15843
-0.3118 -3.1128 0.29187 0 15854
-0.3009 3.9195 -1.2266 0 9044
0.042822 -3.3608 0.078035 0 15791
0.05368 -3.3428 0.39096 0 15788
0.1016 -4.694 0.77137 2 15784
0.12838 -3.87 0.63616 0 15778
0.26256 3.8513 -1.405 1 9127
0.52261 -4.5586 0.75386 0 15756
0.63828 -4.4294 0.20869 0 15750
0.76771 4.8253 0 0 9243
0.80771 -3.963 0.37733 0 15734
0.82928 4.1276 -1.1022 1 9324
0.868 4.4489 -0.10524 0 9315
0.93457 2.9039 -0.21332 0 9552
1.1893 4.4854 -0.87429 0 9441
1.2251 4.1813 0.4065 0 9504
1.3238 3.9565 0.68545 2 9588
1.5576 3.322 0.25656 0 9977
1.5974 -3.0349 -0.23982 0 15455
1.6997 -3.4195 0.26703 0 15482
1.7206 -3.9067 0.09911 1 15573
1.808 2.4821 0.50452 2 10814
1.9796 -3.7342 0.59399 0 15452
2.1477 3.4465 -0.094282 0 10467
2.29 -2.3433 0.15279 1 15154
2.3412 -3.5092 0.59288 0 15366
2.3819 -4.0053 0.87799 0 15404
2.4676 1.9404 0.44118 0 12052
2.5218 -2.7511 0.61314 0 15189
2.8188 2.4228 -0.25991 1 11866
2.8286 1.8418 -1.2285 0 12404
2.835 -2.299 0.17022 0 15116
2.8476 1.354 0.073207 0 12930
2.9262 -1.9294 0.57585 0 14990
2.9365 0.75015 -0.28276 1 13761
2.9924 1.9716 0.41907 0 12382
3.1442 3.6555 -1.3826 0 11245
3.1705 2.8387 -0.29758 0 11778
3.2076 -1.9464 0.17497 0 14939
3.2279 -0.58079 0.30599 1 14768
3.3216 0.033626 -0.70607 1 14574
3.3744 0.59621 0.40072 1 14065
3.3947 2.5303 0 0 12152
3.6151 0.05679 0.59401 0 14559
3.6934 0.3056 0.17282 0 14387
3.7256 0.85943 0.35671 0 13855
3.742 -2.4833 -0.31404 1 14993
3.8443 -2.4246 -0.74673 0 14957
3.8797 0.42285 -1.1191 1 14305
3.8984 2.5384 0 0 12403
4.0366 0.16918 -0.28251 0 14499
4.0722 0.20557 0.66988 0 14482
4.1138 2.5427 -0.33818 1 12502
4.1156 -1.1282 0.39813 0 14806
4.1199 -1.9448 0.85837 0 14854
4.1908 -2.1289 0.32869 0 14876
4.2053 0.054318 -0.69096 0 14560
4.2913 1.7591 -0.43269 0 13154
4.4252 -1.1601 -0.10621 0 14803
4.474 2.0173 0.68974 0 13013
4.6656 0.52004 -0.32827 1 14292
4.7089 0.14305 0.88762 0 14525
4.9455 0.27909 -1.0529 0 14466
-0.49838 2.7726 -0.73747 0 9026
0.34489 2.1678 0.25669 0 9245
0.4556 2.4922 -1.4235 0 9292
1.5263 -0.75901 -0.66564 0 14869
2.1518 1.3915 0.29967 0 12421
2.4212 0.20033 0.2841 0 14390
-14.802 -0.76539 0 0 1439
-14.799 1.5136 -0.69372 1 2015
-14.742 -2.4459 0 0 1164
-14.695 -2.2198 1.0392 1 1186
-14.683 -0.67444 -1.3713 0 1456
-14.674 -0.75878 0.34115 1 1440
-14.65 0.56022 -1.3677 0 1775
-14.642 2.711 1.7413 0 2289
-14.632 2.6618 2.4435 0 2277
-14.627 2.7083 1.3878 0 2288
-14.578 -2.2464 -0.34245 2 1179
-14.48 -0.95668 2.3841 0 1399
-14.459 0.55292 2.7262 0 1784
-14.422 -0.95284 1.3484 0 1397
-14.367 0.79572 1.3425 0 1848
-14.363 -0.077711 2.0186 0 1604
-14.303 1.42 2.708 2 2010
-14.288 1.3355 1.6781 0 1989
-14.248 -1.234 -1 0 1332
-14.243 -0.94102 -1.3317 0 1392
-14.24 3.4082 2.0578 0 2483
-14.239 0.58434 1.6665 0 1793
-14.178 -0.48521 0.66158 1 1497
-14.175 2.8761 2.7251 0 2347
-14.082 -1.754 1.9944 0 1241
-14.079 2.3484 0.99808 1 2231
-14.034 -1.7082 -0.98859 0 1244
-14.028 2.5063 2.0027 0 2269
-13.997 -0.68459 2.3024 0 1453
-13.963 -0.47785 1.3035 0 1498
-13.959 -1.29 1.6394 0 1318
-13.943 3.0835 0.33154 1 2415
-13.933 3.4171 2.3569 0 2507
-13.924 3.6737 2.7132 0 2574
-13.87 2.4007 1.6461 0 2252
-13.866 -1.7271 -0.65161 0 1237
-13.859 -0.5542 1.9493 0 1480
-13.792 -0.59495 2.601 2 1473
-13.758 2.3394 0.97589 1 2241
-13.719 1.8866 2.6092 0 2141
-13.697 -1.6236 2.2661 1 1252
-13.682 3.9104 -0.33038 0 2630
-13.629 -1.2188 1.9231 0 1329
-13.611 1.5075 1.2776 1 2049
-13.536 0.39701 2.5514 2 1748
-13.354 -0.030299 1.2459 0 1613
-13.289 -0.030153 1.8677 0 1615
-13.221 1.3126 0 0 2004
-13.205 3.0389 2.2262 0 2452
-13.145 2.8662 1.5734 0 2405
-13.11 2.9401 1.8883 0 2428
-13.058 6.6246 -0.33995 0 3607
-13.056 4.4344 -0.96417 0 2787
-13.055 -1.4736 2.1585 2 1265
-12.989 -1.6939 1.2221 0 1225
-12.851 1.2759 1.2048 0 2007
-12.846 4.3633 -0.6327 0 2788
-12.813 7.4633 0.34426 1 4055
-12.8 1.0074 0 0 1933
-12.74 -0.73233 -1.1905 1 1416
-12.725 4.9077 -1.2724 0 2982
-12.713 -1.4755 -0.89498 0 1254
-12.707 0.89082 1.1885 0 1906
-12.681 -0.98688 1.4874 0 1365
-12.643 -0.43268 -0.29371 0 1496
-12.603 -0.7642 1.7745 0 1412
-12.582 7.9261 -0.34524 1 4359
-12.545 7.6514 -0.68524 0 4232
-12.451 -1.2252 1.7583 0 1303
-12.449 -0.60886 -1.1628 0 1447
-12.442 4.2673 -0.91981 0 2802
-12.342 5.8184 -0.63633 0 3423
-12.325 -1.1022 1.1545 0 1327
-12.324 -0.70847 2.3259 0 1423
-12.309 -1.4285 1.4491 0 1260
-12.276 -1.6379 1.7405 2 1218
-12.259 -1.7797 2.0353 2 1200
-12.124 -1.4372 2.3003 0 1253
-12.098 7.7697 0 0 4441
-12.027 5.8398 -0.62347 0 3496
-12.017 6.8574 -0.32124 0 3984
-11.937 5.7524 -0.30764 0 3478
-11.921 6.6213 0 0 3895
-11.914 6.6175 0.31641 1 3897
-11.881 -0.68299 1.3917 0 1420
-11.764 -0.77727 1.657 0 1398
-11.743 6.1288 -0.30754 0 3689
-11.7 7.5604 -0.32342 0 4465
-11.66 5.7475 -1.2128 1 3532
-11.652 -0.73514 0.81643 1 1403
-11.569 0.94505 1.0829 2 1945
-11.536 5.3134 -0.88814 2 3368
-11.533 -0.092597 0.53785 1 1590
-11.519 7.2987 -0.3166 0 4386
-11.496 -0.93103 1.0761 0 1355
-11.333 0.76069 1.0597 2 1894
-11.177 7.0412 0 0 4361
-11.176 7.5498 -0.62897 0 4648
-11.16 1.0078 1.3104 1 1978
-11.146 1.5625 0.26131 1 2146
-11.143 8.3542 -0.64947 0 5101
-11.09 7.1225 -0.30601 0 4439
-11.077 1.1642 0.51941 2 2028
-10.966 8.8829 0 0 5461
-10.962 7.5908 0 0 4759
-10.911 1.274 1.8047 0 2069
-10.898 -0.058963 1.2744 0 1603
-10.888 7.8669 -0.31186 0 4937
-10.871 0.19545 1.5281 2 1700
-10.857 8.8422 0.32509 1 5492
-10.792 -0.77739 -1.2653 1 1375
-10.788 6.4082 0 0 4132
-10.783 0.75589 1.7759 1 1907
-10.74 6.2937 -0.58052 0 4074
-10.647 0.068756 1.7493 2 1648
-10.577 -9.444 2.3297 0 791
-10.561 -8.8428 1.2851 0 879
-10.517 -10.245 2.0634 0 694
-10.512 10.686 -0.69903 0 6432
-10.507 5.4089 -0.82634 2 3643
-10.475 3.8001 -0.77918 0 2875
-10.423 10.722 -1.0456 1 6484
-10.402 -8.1624 1.2336 0 937
-10.305 -7.9443 2.1377 0 956
-10.227 7.0339 -1.158 2 4726
-10.193 -7.0399 1.1558 0 1057
-10.101 11.078 -0.34807 0 6760
-9.946 7.0552 -0.8527 2 4853
-9.899 -10.337 0.66745 1 625
-9.8987 -8.4842 1.5246 0 860
-9.8925 8.5481 -0.91423 0 5747
-9.8585 11.057 -0.69083 0 6853
-9.8418 -7.0123 0.84503 1 1030
-9.7699 -7.0879 1.9831 1 1019
-9.7569 7.6697 -0.57875 0 5317
-9.7394 5.5959 -0.78546 1 4005
-9.708 8.0027 -0.87977 0 5540
-9.6437 -7.2512 2.2733 0 984
-9.6239 5.1993 1.5373 0 3806
-9.575 5.4637 -1.0285 0 3980
-9.5509 -7.2286 1.1175 2 973
-9.5401 -6.2667 1.3348 0 1102
-9.4868 -10.078 2.2739 1 612
-9.3091 3.5585 1.4006 0 2975
-9.2603 -8.5094 1.4707 0 754
-9.2358 -7.6895 1.689 2 886
-9.2236 -8.9352 2.1098 1 701
-9.2182 8.1041 -0.85828 1 5815
-9.2062 -6.0106 1.8063 0 1110
-9.192 -6.3862 0.78267 0 1051
-9.1791 4.1002 -1.4129 1 3285
-9.1546 -6.4006 1.8352 2 1048
-9.14 6.2489 -1.033 0 4698
-9.1277 -6.5035 1.3106 0 1032
-9.1008 -7.2677 1.362 1 920
-9.0978 11.417 1.7072 0 7302
-9.038 -7.1327 0.53692 1 930
-9.0365 -10.48 1.291 2 525
-9.0164 11.115 1.3352 1 7235
-9.0041 -10.942 0.66083 1 464
-8.9403 5.3464 1.2182 2 4164
-8.9116 5.4013 1.9634 0 4223
-8.9022 -10.324 0.3165 1 522
-8.8974 -6.7731 1.8371 0 968
-8.8952 -7.942 1.3945 0 790
-8.8695 -1.497 0.83919 0 1159
-8.8682 -5.6823 1.4802 0 1122
-8.8233 -9.1113 1.7825 1 638
-8.811 4.5984 1.6329 1 3702
-8.7735 -12.16 1.399 0 311
-8.7735 -6.6402 0.25546 0 970
-8.6953 -10.757 1.2905 2 447
-8.6043 -11.926 1.7197 1 312
-8.5753 -8.258 0.55518 1 702
-8.5606 -12.091 2.082 0 296
-8.4846 -7.5303 0.79327 2 800
-8.4605 -9.9269 2.1429 2 513
-8.4582 -5.4196 1.1747 2 1121
-8.377 -8.4004 1.6673 0 664
-8.3381 -5.793 0.47347 1 1050
-8.3005 -9.6776 2.4022 0 521
-8.2801 -8.7437 2.2689 2 619
-8.2703 -11.055 0.32054 2 346
-8.2412 -5.3458 1.8508 0 1115
-8.1871 -8.5494 1.9448 2 629
-8.167 -11.118 2.5992 0 333
-8.1343 10.647 1.5669 0 7446
-8.0615 -11.595 1.6514 0 277
-8.0091 1.6732 0 0 2365
-7.9988 -11.944 1.0052 1 238
-7.9838 -12.224 0.33897 1 214
-7.9697 7.0486 -1.2442 0 5834
-7.9554 -10.507 2.1653 1 372
-7.9116 -6.7428 1.2156 1 865
-7.8968 -11.014 2.2266 0 307
-7.8925 -11.008 1.9036 1 306
-7.7782 -11.689 0.65478 1 231
-7.7687 -9.4982 0.57223 1 457
-7.7591 -11.962 2.0038 0 211
-7.7488 1.2717 0.91829 0 2225
-7.6995 -12.574 2.4224 0 162
-7.6919 -12.158 2.7106 0 188
-7.6717 -8.343 1.8621 0 590
-7.6314 -12.711 1.0367 1 142
-7.6305 -12.709 0.34417 1 140
-7.5968 -8.7607 0.81085 0 530
-7.5277 -11.748 1.6317 0 198
-7.5217 3.0267 0.18824 0 3072
-7.4976 2.4999 0.36857 0 2770
-7.4748 -10.3 2.3977 0 322
-7.4561 2.6052 1.2976 0 2833
-7.4389 -8.7283 1.0699 0 510
-7.3891 -10.306 1.1831 0 305
-7.3791 9.204 1.1006 0 7279
-7.3714 4.0391 0.78419 0 3851
-7.2998 -7.2339 1.4443 1 675
-7.2463 -5.321 0.62865 2 1003
-7.1768 -9.3091 1.9312 1 403
-7.171 -1.2993 1.3731 0 1148
-7.155 1.6466 0 0 2450
-7.1236 -8.4058 1.8102 0 504
-7.0867 4.7262 1.6049 0 4615
-7.0543 -7.0347 1.6368 0 670
-7.0471 -5.4959 1.6838 0 945
-7.0177 -8.8351 1.0527 0 430
-6.9949 -7.1379 1.1687 1 649
-6.9662 -10.739 1.497 0 210
-6.9599 -4.8067 0.98914 2 1058
-6.9404 -11.944 1.2888 0 115
-6.9183 10.226 2.0285 0 7832
-6.9066 -5.5471 0.61944 1 914
-6.8396 -5.9665 1.4912 2 841
-6.8013 6.0512 0.21136 0 5867
-6.6717 -4.2455 1.2992 0 1123
-6.6684 7.1835 1.8467 0 6698
-6.6625 -9.0169 1.046 1 335
-6.6033 -10.238 1.1366 1 203
-6.573 -5.3113 1.3884 2 912
-6.553 -9.6027 1.0846 2 256
-6.507 -1.0796 1.2427 0 1167
-6.4138 7.4964 1.6209 0 7029
-6.3369 5.9737 1.0184 0 6109
-6.2479 -1.1862 0.89377 0 1139
-6.2454 -9.8717 1.9192 2 187
-6.1453 -6.6085 0.42083 0 598
-6.0802 6.0064 0.39857 0 6308
-6.0576 8.0183 1.651 0 7488
-6.0474 -10.407 1.9775 0 117
-5.8973 -8.8627 1.2449 0 233
-5.86 -7.7878 1.3697 1 360
-5.7797 0.87925 0.68366 0 2190
-5.7296 7.8171 1.5923 0 7585
-5.7069 -11.603 2.4362 0 36
-5.6738 -5.5912 1.1195 0 681
-5.569 1.6782 0.68018 0 2675
-5.4503 -0.80872 -0.25695 0 1190
-5.3851 0.28316 -0.1252 0 1833
-5.1414 4.736 1.1485 0 6015
-5.1071 -3.5707 0.72873 0 1047
-5.0574 1.1937 0.85373 1 2472
-4.9428 -10.916 1.9688 0 33
-4.9377 9.1857 0.97295 0 8432
-4.8696 6.9779 0.79385 0 7731
-4.7032 7.3599 1.6456 0 8017
-4.61 -5.7707 0.51648 0 435
-4.5795 4.4456 -0.4463 1 6222
-4.5391 -7.9129 1.2821 0 108
-4.4423 -5.2123 -0.31938 0 507
-4.2571 -5.2365 0.31472 0 451
-4.1738 -4.3585 0.84812 0 628
-4.1225 -3.0639 0.23953 0 989
-4.1217 -5.646 0.32599 0 323
-4.1192 -3.0247 -0.23832 0 1001
-4.0845 -5.5279 0.80376 0 336
-3.9949 8.3943 1.7515 0 8646
-3.8275 -3.7078 0.37264 0 698
-3.5924 5.0252 1.0149 0 7657
-3.5865 6.9548 1.2856 0 8523
-3.5766 5.0928 -0.29021 0 7703
-3.4203 -10.704 1.8462 0 9
-3.3503 -9.5243 1.9023 0 15
-3.3334 -4.4299 0.25854 0 356
-3.2979 -9.1152 1.8263 0 16
-3.2765 -8.3052 0.62432 0 19
-3.2078 4.4315 0.8988 0 7621
-3.1698 -6.0018 0.47462 0 54
-3.1572 -12.806 2.1669 0 15877
-2.8051 -8.4373 0.82953 0 12
-2.6339 -7.4876 0.37015 0 13
-2.4147 10.319 0.98874 0 9015
-2.2608 5.0095 0.2563 0 8720
-2.2455 5.4292 0.96527 0 8826
-2.2146 8.7776 0.84457 0 9010
-2.2055 -6.0431 0.3 0 17
-2.1914 -5.2361 0.39691 1 32
-2.1848 -12.34 2.0589 0 15868
-2.0931 10.26 1.973 0 9023
-2.0701 -10.455 0.74528 0 15872
-1.9674 -6.1573 0.60305 0 8
-1.9467 -5.5341 0.54732 0 14
-1.9259 6.0493 -0.44393 0 8994
-1.8013 -9.5332 1.594 0 15870
-1.7183 -5.6555 0.9711 0 5
-1.7176 8.3014 0.79088 0 9022
-1.6641 -5.7729 0.56051 0 1
-1.6334 -7.2598 0.8702 0 15875
-1.5952 -11.54 1.914 0 15864
-1.577 11.178 1.0532 0 9032
-1.4822 6.2508 0.59934 0 9014
-1.4009 8.2042 0.38813 0 9027
-1.3858 -10.21 0.96125 0 15862
-1.344 5.8919 0.42258 0 9019
-1.3128 -7.1811 1.1994 0 15869
-1.2509 -7.8624 1.308 0 15866
-1.1521 5.4811 -0.9202 0 9021
-1.1337 5.9998 0 0 9024
-0.99564 9.9575 0.46667 1 9039
-0.9832 5.2894 0 0 9025
-0.88435 7.3185 0.86207 0 9037
-0.65344 5.8533 -0.41184 2 9038
-0.61332 7.9891 1.3164 0 9045
-0.55052 -10.265 0.95902 1 15836
-0.50442 5.3562 0.88388 0 9040
-0.38689 -9.1925 1.5116 0 15827
-0.38103 -5.1395 0.48081 0 15844
-0.20482 -5.6668 0.13165 0 15822
-0.12856 -9.8204 1.8504 0 15804
-0.12158 6.4491 0.45105 0 9058
-0.03584 -8.2138 1.3495 0 15800
-0.023147 5.5256 -0.77659 0 9063
0.084411 -8.6361 0.80574 0 15793
0.16208 -10.093 0.94174 0 15787
0.19597 -6.451 0 0 15780
0.22403 -5.7531 0.80915 0 15775
0.26376 -5.2067 0.48638 0 15769
0.5006 -11.197 1.8414 0 15772
0.63484 -11.875 1.1095 0 15767
0.78148 -8.0424 0.56503 0 15761
0.89005 -6.1765 1.0253 0 15751
0.90768 -5.7115 0.81277 0 15748
0.92085 -7.4674 0 0 15754
0.9235 7.2898 -0.1706 0 9197
0.92903 -5.3451 0.89134 0 15744
1.0912 9.044 -0.2115 0 9189
1.1016 -6.6833 0.47365 0 15747
1.1432 -12.513 2.0644 0 15762
1.2273 -6.5014 0.15361 0 15738
1.2303 -5.7046 0.95878 0 15732
1.3644 -9.6596 1.1408 0 15752
1.469 5.5403 0.2673 1 9438
1.6382 6.6444 0.80028 0 9398
1.7659 5.8973 -0.7199 0 9512
1.7763 -7.1296 1.2071 0 15726
1.7953 -8.8084 1.4769 0 15735
1.8497 -7.7047 0.73923 0 15729
1.8986 7.6035 1.2876 0 9407
1.9399 -7.88 1.529 0 15728
2.0107 -11.99 1.9973 0 15746
2.0344 5.7512 -0.7134 0 9631
2.065 -8.9303 1.2882 0 15730
2.1153 -6.5804 0.64486 2 15672
2.2031 5.0765 -0.25807 0 9865
2.2144 4.6136 -0.35785 0 10015
2.2191 4.5257 0.70839 2 10058
2.4083 -9.7829 1.6553 0 15727
2.4623 4.9493 0 0 10074
2.4735 -6.8068 0.50643 0 15643
2.4789 -5.9934 0.6051 1 15605
2.5307 -7.0915 1.4186 0 15652
2.6067 5.5977 0.43179 1 9962
2.62 5.4222 1.1346 0 10035
2.6729 -4.9704 0.65997 0 15446
2.7127 -6.7242 1.1913 0 15615
2.7513 7.9228 -0.39111 0 9618
2.8828 -7.3939 1.1153 1 15627
2.934 4.5913 -0.38101 1 10527
2.9651 -4.4985 0.88518 0 15373
3.005 4.9152 -0.53747 0 10427
3.1667 -4.2238 0.49251 0 15315
3.2125 -7.0654 1.4623 1 15558
3.2263 -6.1296 0.81004 0 15457
3.2309 -4.6642 0.93219 0 15349
3.2969 5.5044 0.14897 1 10392
3.3623 -3.8447 -0.35715 0 15215
3.4414 -4.2956 -0.51351 0 15272
3.7348 7.5635 -0.58986 0 10065
3.8237 3.2279 0 0 11908
3.8588 -6.9845 1.1215 0 15431
3.9705 -3.181 0.35576 0 15108
3.9779 5.7728 1.3209 0 10699
4.0279 -3.4231 -0.61815 1 15141
4.106 -3.8978 0.66206 0 15147
4.2152 8.056 0.424 0 10153
4.2893 3.666 0.131 0 11882
4.345 3.1987 -1.1468 0 12178
4.3639 -4.4938 1.0291 0 15157
4.4465 3.5814 0.93803 0 12005
4.4678 -3.7543 -0.40808 1 15135
4.4684 -4.8747 0.30838 0 15188
4.5061 4.5029 0.59432 0 11575
4.5514 4.8197 -1.0891 1 11449
4.599 6.3907 1.4834 0 10786
4.6215 -2.6769 0.49827 0 14921
4.6778 -2.6931 0.8868 1 14918
4.7752 -4.9726 0.16006 0 15163
4.7818 6.9394 0.78624 0 10693
4.8047 11.617 0.87907 1 9797
4.8587 -2.1086 0.12297 0 14835
4.9102 6.2734 -0.55708 0 11002
4.931 2.3267 0.50868 1 12944
4.9863 0.8371 0.47171 0 14096
4.9987 0.3399 -0.46743 0 14427
5.0227 1.191 -1.4802 0 13830
5.0271 -7.3888 1.6838 0 15358
5.0271 11.134 2.0071 2 9919
5.2111 5.0587 1.1932 0 11624
5.2143 -6.7028 1.3952 0 15292
5.231 12.438 2.2168 0 9819
5.2889 4.1114 0.62498 1 12078
5.3399 -6.909 -0.81466 0 15295
5.5113 9.1398 1.7535 0 10411
5.5412 -0.91337 0 0 14755
5.5473 -4.2136 0.16173 0 15078
5.5542 5.3021 0.71638 0 11655
5.6967 -1.7591 0.97953 0 14809
5.7205 -5.9903 1.3608 1 15167
5.8895 10.03 0.81336 0 10357
5.9504 -1 0.56293 0 14758
5.957 6.3457 -0.20207 0 11438
5.9696 -0.56219 0 0 14688
5.973 3.4346 0.64281 0 12636
6.0386 4.1845 1.3842 0 12286
6.0765 0.80322 -0.28584 1 14226
6.0796 10.918 1.4614 0 10264
6.098 -2.3359 0.45663 0 14817
6.106 11.354 1.2028 0 10199
6.1164 -4.4243 1.2402 0 15058
6.1313 9.4126 1.8456 0 10578
6.1434 9.801 1.3527 0 10487
6.2211 10.386 2.2811 1 10401
6.2664 -6.9547 -0.87337 0 15198
6.2683 2.4654 1.1066 0 13224
6.3185 4.3231 -0.17775 0 12306
6.413 4.0934 1.2499 0 12446
6.4179 8.1998 0.97146 0 11007
6.5495 -2.6621 -0.82676 1 14824
6.562 6.0129 0.62237 0 11737
6.5921 -3.3487 -1.3931 0 14877
6.6073 -1.1698 -0.94304 0 14763
6.6198 -1.754 1.1251 0 14805
6.6702 2.6423 0.50169 0 13209
6.6998 3.5503 -0.88669 1 12765
6.7252 -4.6602 1.5416 0 15026
6.7318 4.6927 1.3482 0 12271
6.9 2.4611 1.2036 0 13366
6.9374 -8.5548 1.0276 0 15264
7.0008 9.331 0.544 1 10894
7.0458 4.6706 0.78865 0 12369
7.0574 2.334 0.86927 1 13471
7.073 -2.0281 0.51452 0 14807
7.0934 -6.8908 1.6248 0 15149
7.1578 3.151 0.91457 0 13052
7.2217 9.2267 1.6467 1 11011
7.2535 -3.272 1.3073 0 14843
7.3346 -0.58626 0 0 14673
7.3702 1.1278 0.17311 0 14151
7.3832 1.0192 0.87159 0 14210
7.5633 11.184 2.2181 0 10657
7.5728 9.0089 2.2174 2 11190
7.6055 11.596 1.6217 0 10588
7.6948 6.5766 1.663 0 11887
7.7037 -1.1129 1.2788 0 14739
7.7075 -1.0448 0 0 14730
7.7328 4.9701 1.7319 0 12434
7.742 2.7858 0.57535 0 13346
7.7765 11.499 1.9509 0 10655
7.7841 -4.6292 1.4879 0 14930
7.8062 -0.46514 0 0 14656
7.9507 3.4769 0.20147 0 13062
8.0162 -2.0746 1.5601 0 14802
8.0599 -3.4412 1.6512 0 14832
8.082 -4.4689 1.2979 0 14904
8.2984 7.1731 1.8021 0 11860
8.3006 10.865 1.2756 0 10946
8.3037 -4.9716 1.5901 0 14933
8.3363 -9.0943 2.3244 0 15190
8.3431 -1.2052 -0.19571 0 14737
8.4172 -3.9161 1.5252 0 14850
8.4216 -1.2166 0.79385 2 14738
8.4859 10.218 2.1821 1 11159
8.5166 10.881 1.6159 0 11009
8.5411 10.529 0.63223 1 11096
8.5414 -3.2463 1.5012 0 14815
8.5524 9.9431 2.471 0 11250
8.5964 10.912 2.6173 0 11030
8.6301 6.7864 1.8038 0 12053
8.6438 -1.2718 1.4354 1 14742
8.7265 9.9647 0.92623 1 11283
8.8748 8.8686 1.4672 0 11577
8.919 9.9543 0.62329 1 11336
8.9614 0.89762 0.42 0 14333
8.9917 -3.839 1.6063 0 14831
9.0293 9.7303 1.2384 1 11414
9.0522 0.091639 1.4873 0 14575
9.0678 -10.064 2.2256 0 15199
9.1032 -0.11917 1.0646 0 14606
9.1428 -1.8369 0.21651 0 14784
9.1953 -5.5404 1.0016 0 14936
9.2464 0.73583 1.5239 0 14399
9.4664 -6.3611 1.8738 0 15003
9.5442 9.5943 1.9019 0 11566
9.6291 -4.7569 1.7645 0 14866
9.6328 10.683 1.0059 1 11352
9.7433 -1.236 -0.22802 0 14723
9.8409 3.6052 0.97778 0 13323
9.919 2.9043 1.6981 0 13630
10.343 -5.0312 1.8897 0 14862
10.723 -2.811 2.0885 0 14804
11.307 2.2656 1.0759 0 13969
11.816 -7.2605 2.6129 0 14945
12.521 -1.1086 2.0651 0 14682
13.783 -0.70064 2.2674 0 14648
-14.938 -0.59737 -1.7483 1 1474
-11.041 0.071302 -1.5518 0 1639
-1.2319 5.471 -1.6081 1 9020
2.9816 4.7256 -1.888 0 10497
3.7251 1.0436 -1.8311 1 13672
4.0703 -2.0981 -1.7881 0 14881
4.8179 -3.4226 -1.6946 2 15046
5.7496 -7.439 -1.9984 0 15296
11.093 -9.8767 -1.7369 0 15146
