VERSION .7
FIELDS x y z intensity index
SIZE 8 8 8 8 8
TYPE F F F F F
COUNT 1 1 1 1 1
WIDTH 694
HEIGHT 1
VIEWPOINT 0 0 0 1 0 0 0
POINTS 694
DATA ascii
-4.8018 0.81302 0.34055 0 2021
-4.3841 1.472 0.87133 2 2786
-4.26 -0.66024 0.10008 2 947
-4.2186 0.98093 0.40408 0 2280
-3.9038 1.2986 -0.87448 1 2766
-3.7645 2.0185 -0.2987 2 3972
-3.3579 1.8759 0.72469 1 4125
-3.2702 3.4184 -0.10983 0 6849
-2.8653 3.3679 -1.2679 2 7416
-2.8279 1.0788 0.14115 0 3044
-2.6146 2.2577 0.40397 0 5950
-2.4999 2.5996 0.50687 0 6833
-1.952 -3.5259 0.28182 0 19529
-1.7677 -3.6244 -0.37621 0 19407
-1.4913 2.7161 -0.28908 1 9134
-1.3968 3.2684 0.58396 1 9776
-1.2959 3.0588 0 0 9787
-1.0364 3.6096 -0.98312 0 10397
-0.86183 -3.3984 0 0 19110
-0.56413 -4.1397 0 0 19090
-0.53126 3.223 0.61545 1 10655
-0.51805 4.6331 0 0 10668
-0.38267 -3.7937 0.71839 0 19083
-0.27976 -4.2456 -0.098785 0 19066
-0.1652 -3.6102 0 0 19057
-0.13909 -3.0395 0.14189 0 19058
-0.13369 -3.9267 -0.091218 0 19050
0.10122 3.0354 -1.1054 0 10681
0.33627 3.6666 -0.34351 0 10695
0.46927 -3.0243 0.21401 0 18997
0.63002 -3.5121 0.1664 0 18994
0.95196 -4.3588 0.84059 0 18989
1.4637 -4.1105 0.30511 0 18980
1.5044 2.6655 0.14273 0 11246
1.533 3.5888 -1.0216 0 10988
1.6642 -2.8583 0.38678 0 18943
1.7787 -3.3354 0 0 18953
1.924 3.3623 -1.1108 0 11267
2.1097 -2.3989 -0.44897 0 18596
2.1312 3.75 -0.40241 0 11255
2.3389 -3.7605 0.62238 0 18905
2.4172 3.1605 0.5592 0 11743
2.5783 -1.9023 0.29893 0 18203
2.7543 3.9467 -0.11174 0 11599
2.8492 3.4089 -0.10315 0 11895
2.9795 1.4901 0.54732 0 13882
3.1303 2.318 0.36339 0 12961
3.1613 -3.2576 0.63797 0 18515
3.2273 1.224 -0.24136 0 14529
3.4829 -1.3369 -0.79298 0 17230
3.5631 -3.3647 0.11378 0 18463
3.7551 -2.2216 0.40705 0 17812
3.9519 2.2568 -0.31823 0 13573
3.9839 -1.5822 -0.70425 0 17252
3.9892 1.054 -0.38494 0 15134
4.0893 -2.263 0.43603 0 17700
4.1905 -1.4568 0.72889 0 17158
4.5661 -1.1139 0 0 17039
4.7169 -0.70999 0 0 16904
4.7808 -1.3133 0.34669 0 17070
4.8276 -0.3596 -0.56612 0 16685
-2.5006 -0.27695 0.17593 0 1086
-0.44733 2.1928 0 0 10613
-14.963 -0.74492 0.34784 1 1290
-14.696 -1.4591 0.34287 1 1118
-14.388 3.9686 1.0437 1 2474
-14.213 2.5752 2.3731 1 2070
-14.201 2.5295 0.33489 1 2054
-13.989 -2.1681 0 0 946
-13.821 3.4255 0.9957 1 2348
-13.801 5.0395 1.3707 0 2952
-13.744 3.9177 2.0085 0 2520
-13.712 3.6509 1.6593 0 2437
-13.7 4.3355 1.6805 0 2678
-13.612 2.4664 1.2906 0 2068
-13.507 4.5352 0.3308 1 2778
-13.414 3.119 2.2626 0 2283
-13.414 3.1191 1.6105 0 2281
-13.394 3.7725 2.2862 2 2505
-13.367 2.2633 1.5855 0 2023
-13.366 3.6038 0.64555 1 2448
-13.329 3.4273 1.9342 0 2393
-13.295 4.8127 2.664 0 2940
-13.286 2.766 2.557 0 2180
-13.257 5.5481 1.0049 1 3270
-13.188 5.163 0.66046 1 3104
-13.163 4.0847 1.6117 0 2648
-13.163 5.6878 -1.0027 0 3347
-13.155 3.4634 1.5908 2 2422
-13.152 2.8988 2.2126 1 2228
-13.135 3.1752 1.8992 0 2324
-13.12 5.1366 2.6547 1 3115
-13.1 2.3335 1.2414 1 2057
-13.084 2.8433 1.2492 0 2213
-13.023 3.1098 0.6244 1 2306
-13.008 4.159 2.2437 1 2697
-12.987 5.9734 -0.99961 1 3509
-12.926 2.8845 1.5488 0 2239
-12.914 1.6109 0.30216 1 1866
-12.869 2.8365 0.61453 2 2225
-12.854 4.316 1.5857 0 2783
-12.794 2.9748 1.846 0 2282
-12.771 4.8717 0.9558 1 3045
-12.717 4.8967 1.2713 2 3066
-12.689 3.7754 1.2351 1 2582
-12.634 3.5583 2.4729 0 2507
-12.623 1.465 0 1 1835
-12.553 3.7352 1.8407 0 2584
-12.522 3.845 1.5318 0 2632
-12.487 5.6565 0.95859 1 3475
-12.439 4.9981 0 1 3162
-12.414 5.1956 1.8914 0 3276
-12.409 5.9746 1.2849 1 3640
-12.39 2.3926 0.29297 1 2109
-12.343 5.8554 0.63708 1 3597
-12.334 1.1768 0 0 1773
-12.328 5.2 1.2483 0 3293
-12.321 5.3242 -0.31163 0 3348
-12.258 6.0344 2.2447 0 3708
-12.207 0.99069 0.28433 1 1728
-12.19 5.0218 0.9219 1 3228
-12.166 3.9718 -0.59683 1 2721
-12.158 1.9103 0.28572 1 1977
-12.123 4.9944 -0.61145 0 3223
-12.12 7.0963 0.32607 1 4283
-12.062 5.5937 0.62003 1 3534
-12.054 5.3342 0.92176 1 3412
-12.032 4.9961 1.831 0 3253
-11.937 5.9592 0.93292 1 3743
-11.927 6.9835 0.64453 1 4285
-11.922 5.6943 0.30675 1 3618
-11.92 4.315 1.1827 0 2932
-11.897 0.99486 -0.27718 0 1735
-11.796 5.1829 1.5067 1 3394
-11.771 3.3553 2.0109 0 2521
-11.751 0.71046 0 0 1666
-11.712 4.3163 2.3518 0 2978
-11.706 1.9463 0.27551 0 2010
-11.704 5.3832 0.29909 2 3513
-11.702 4.5461 0.58546 1 3083
-11.527 4.1726 0.57167 1 2929
-11.506 4.5046 1.7366 0 3111
-11.48 5.6089 1.192 0 3682
-11.412 0.9543 -0.8008 2 1734
-11.356 5.2233 0 0 3511
-11.343 1.2823 0.26502 0 1828
-11.291 5.4364 2.3611 0 3646
-11.268 3.5333 0.27417 0 2661
-11.201 -0.0019565 0.26005 0 1463
-11.194 5.0709 1.7271 0 3481
-11.096 4.4943 1.9668 1 3194
-11.092 0.51145 0 1 1620
-11.087 2.578 0.26428 0 2277
-11.074 7.7538 0.31386 2 4994
-10.994 2.6252 -0.26242 1 2304
-10.984 0.95323 -0.25597 0 1745
-10.919 2.1738 -0.25848 1 2131
-10.886 1.2634 -0.25444 2 1834
-10.86 -7.5675 -0.30731 0 751
-10.839 1.0341 -0.50776 2 1772
-10.839 1.5755 0.2543 0 1938
-10.76 0.058217 0 1 1483
-10.725 1.9762 0 1 2078
-10.716 4.1951 -0.53664 0 3099
-10.631 -1.2432 -0.24849 2 1066
-10.578 -8.0758 0.30898 1 611
-10.421 6.7259 -0.28795 0 4658
-10.408 7.1103 -0.29264 0 4890
-10.234 8.1351 0.60968 1 5552
-10.174 -1.8196 -0.23995 0 888
-10.156 0.94038 -0.95159 1 1760
-10.156 8.869 1.2579 0 6007
-10.097 4.9704 -0.52481 1 3693
-9.9982 3.9505 -0.50133 0 3121
-9.9696 5.9951 -0.54251 0 4377
-9.911 1.4706 -0.70063 2 1945
-9.7418 3.2709 1.6883 0 2784
-9.7385 11.242 -0.69363 1 7315
-9.6535 3.9454 -0.48633 0 3202
-9.6025 1.3957 -0.22528 2 1936
-9.595 6.9661 -0.55295 0 5139
-9.5674 9.3888 1.5676 0 6558
-9.549 3.9339 1.6968 0 3235
-9.5037 -7.9831 -0.86791 1 479
-9.4795 7.3134 -0.27797 0 5409
-9.4794 -8.6377 -0.29775 0 358
-9.4758 -0.80236 -0.44347 1 1161
-9.3464 10.855 -0.33256 1 7348
-9.2663 9.1954 -0.30309 1 6603
-9.2176 9.1471 -0.60558 0 6601
-9.1846 7.9307 1.7054 0 5952
-9.1651 8.0037 2.2926 1 6014
-9.1589 -7.0355 1.8975 0 605
-9.1256 11.448 -0.3399 1 7705
-9.1231 2.4599 -0.66073 2 2444
-9.0698 4.3319 1.8937 0 3629
-9.0661 5.9259 -1.0105 0 4706
-9.0265 8.0707 -0.8467 0 6109
-9.026 4.5396 0.70649 0 3763
-9.0183 4.1175 -0.69324 0 3488
-9.0046 3.9209 1.8504 0 3381
-8.9928 11.014 0.99431 1 7605
-8.9614 4.57 1.1764 0 3811
-8.9258 7.0113 2.1385 0 5505
-8.9213 5.0166 -0.7157 1 4131
-8.894 -0.39143 1.4627 2 1314
-8.894 0.61569 -0.83175 2 1688
-8.8764 3.5073 1.3414 1 3132
-8.8532 2.5788 1.0783 1 2552
-8.7855 6.0021 0.74402 0 4898
-8.7544 2.6615 0.4267 0 2612
-8.7494 4.8559 -0.93356 2 4084
-8.7389 -8.3452 1.1273 0 309
-8.7375 4.2352 1.1355 0 3662
-8.7261 -7.1118 1.8495 0 519
-8.7099 10.86 2.2872 0 7691
-8.6524 -9.1145 0.87879 1 207
-8.6335 5.399 1.1908 0 4538
-8.6281 11.626 -0.33614 0 8006
-8.614 -8.6622 0.85424 2 260
-8.5946 7.9142 1.9195 1 6255
-8.5114 2.4792 1.4565 2 2555
-8.5106 -7.7549 -0.80513 0 356
-8.4992 2.9099 1.4759 2 2819
-8.4862 10.45 2.2116 0 7639
-8.4805 8.27 1.3852 0 6530
-8.4613 -1.2118 1.6105 0 984
-8.4329 -11.994 0.68375 1 19790
-8.4245 4.0835 1.3157 0 3664
-8.4116 -7.4472 -0.7856 0 399
-8.3682 0.50596 -0.58623 2 1664
-8.3673 -6.3144 1.2259 0 630
-8.3667 2.256 1.6327 1 2453
-8.3649 4.2071 0.87356 0 3765
-8.3559 -10.592 0.94339 1 19946
-8.3442 -8.945 0.57046 1 182
-8.3357 1.6097 -0.19711 1 2107
-8.3029 8.4875 1.6687 1 6752
-8.2887 12.48 0.34784 1 8456
-8.2227 8.9546 -1.1342 0 7031
-8.1626 -10.406 -0.92483 1 19936
-8.151 -6.6834 1.7318 0 511
-8.1508 5.8139 1.8863 1 5079
-8.1478 -8.2451 0.81057 0 254
-8.1065 7.6821 1.8349 1 6394
-8.0831 9.3875 0 0 7350
-7.982 5.5891 1.3695 0 5003
-7.9446 -9.4579 0.86372 1 47
-7.924 -8.8469 1.9513 2 139
-7.9155 3.2868 -0.79961 2 3241
-7.8716 6.3698 0.94471 0 5639
-7.8635 10.036 2.4022 0 7794
-7.8204 -5.7931 1.3678 2 664
-7.7986 -9.2349 1.6987 1 60
-7.7943 2.6945 1.5538 1 2839
-7.7686 9.2353 1.9827 1 7479
-7.7387 -11.21 2.2379 0 19766
-7.7058 4.9737 1.0725 0 4670
-7.6669 9.3905 1.7038 1 7610
-7.6642 10.2 0.89219 1 7963
-7.644 -6.0868 0.45568 0 551
-7.6416 9.0844 0.8301 2 7472
-7.6399 -7.4191 1.2454 0 293
-7.6357 -11.633 1.6273 0 19699
-7.6273 -11.986 0.99347 1 19658
-7.6252 -10.453 2.1257 2 19848
-7.5922 11.286 2.2347 0 8414
-7.576 -12.143 1.6737 0 19641
-7.5416 9.4033 2.2711 0 7693
-7.5199 -8.2992 1.0448 0 149
-7.5122 -8.8958 -0.54298 1 55
-7.5008 -6.9946 1.1994 2 330
-7.4725 -9.7595 2.3159 0 19908
-7.4651 -12.603 2.4065 0 19590
-7.4464 11.353 1.5878 0 8509
-7.4462 -12.991 1.7511 0 19560
-7.4435 -8.9181 1.9085 1 40
-7.4232 3.0581 -0.5614 1 3222
-7.4184 6.2935 1.3672 0 5867
-7.3863 4.3248 1.4062 2 4294
-7.3695 0.72648 1.0407 2 1785
-7.3172 -7.6197 1.9904 1 228
-7.2864 11.393 2.5481 0 8609
-7.2383 -6.6746 1.6176 0 348
-7.2274 -12.78 2.0634 0 19548
-7.2083 -10.379 2.0761 0 19775
-7.1937 -6.9859 1.6475 1 295
-7.188 5.5455 0.84699 0 5419
-7.1488 -9.449 1.1054 1 19890
-7.1337 -10.664 2.4173 0 19728
-7.0981 -12.901 2.4192 1 19527
-7.0883 -4.5839 0.78754 1 845
-7.0802 5.5297 1.2626 0 5475
-7.0639 -10.426 0.88061 1 19736
-7.0259 -6.9868 1.1587 0 271
-6.9795 -9.3945 0.81838 0 19866
-6.9733 -5.4227 0.82414 2 588
-6.9683 -8.1072 0.49854 1 82
-6.9095 -1.2794 0.98757 0 877
-6.9058 -7.894 0.73342 1 106
-6.7844 -11.233 1.8443 0 19610
-6.7834 -7.1908 1.6241 2 202
-6.7821 7.9718 0.73188 0 7415
-6.7421 8.6047 1.796 0 7792
-6.7242 -0.35358 1.2687 1 1282
-6.7134 -7.6283 1.6695 0 116
-6.686 10.391 1.4449 0 8578
-6.6856 -8.423 1.7668 1 19957
-6.6572 9.0826 1.0506 0 8061
-6.6246 5.0503 1.1707 1 5370
-6.6119 -12.102 0.32017 2 19516
-6.5963 -9.3821 -0.26627 0 19789
-6.5923 5.6244 1.6327 0 5898
-6.5687 -11.015 1.4997 1 19595
-6.5664 13.386 2.8091 1 9464
-6.5268 -10.128 0.84252 1 19673
-6.5211 9.46 2.1648 1 8313
-6.52 -5.9078 0.41031 1 369
-6.4743 -5.3731 0.78494 2 496
-6.4662 6.9609 0.66436 0 6987
-6.4548 -9.4058 0.53198 1 19753
-6.4221 3.0001 0.9962 2 3564
-6.4161 -12.077 1.922 0 19490
-6.376 -12.981 2.376 1 19416
-6.3731 -5.6424 0.99541 0 404
-6.3136 -4.878 0.55791 0 595
-6.3132 -8.4483 1.7327 0 19876
-6.3053 -5.6813 0.59349 2 378
-6.3041 -8.3324 0.73063 0 19889
-6.2935 -12.996 -1.3471 0 19399
-6.248 3.3952 1.3398 0 4036
-6.2318 -0.80163 0.29301 0 1032
-6.191 5.0403 0.37229 1 5664
-6.1432 -13.168 1.0161 1 19372
-6.1386 -8.1639 1.9245 1 19884
-6.123 5.4746 1.5475 0 6129
-6.0983 -10.934 2.3588 0 19538
-6.0956 -10.361 1.975 1 19584
-6.0691 -7.101 0.6532 0 73
-6.0674 -13.107 1.3475 0 19368
-6.015 -10.785 1.7355 0 19536
-6.0038 -8.1285 0.70663 0 19860
-5.9759 4.9209 0.90528 0 5722
-5.9564 5.3575 0.3736 0 6147
-5.9562 -10.189 1.6587 1 19577
-5.9425 1.0232 1.1361 0 2037
-5.93 -10.079 1.3676 1 19583
-5.9157 10.918 0.86833 1 9188
-5.8934 -13.547 1.3783 0 19330
-5.8659 -10.309 0.8294 0 19553
-5.8508 -10.935 1.4503 0 19495
-5.8349 0.60813 -0.54732 1 1799
-5.8261 -7.7964 1.8337 0 19877
-5.7801 -6.7628 0.41487 0 72
-5.761 2.6303 1.0405 2 3503
-5.7607 6.6903 1.6634 1 7366
-5.754 8.9421 1.747 0 8581
-5.7496 -11.705 1.5251 2 19414
-5.7185 -10.764 0.28299 2 19486
-5.7151 -10.387 1.6662 0 19526
-5.6892 13.312 1.3506 0 9772
-5.6598 13.029 0.99333 1 9734
-5.6162 5.5461 1.4871 0 6590
-5.614 -13.323 1.3488 0 19308
-5.6124 -11.767 2.4562 0 19393
-5.6067 4.7263 1.3816 1 5841
-5.6062 -10.408 1.3824 0 19504
-5.5357 -8.984 0.49211 1 19630
-5.467 -4.6445 1.0082 1 467
-5.3723 -10.395 0.81824 0 19460
-5.3697 -6.6074 1.6042 0 19989
-5.3652 -12.94 2.3015 0 19299
-5.3439 -10.127 1.8812 0 19483
-5.3417 8.9715 1.4674 1 8860
-5.3284 -4.7441 0.3327 0 395
-5.3241 -6.7077 1.2036 1 19956
-5.3061 -12.105 2.1714 1 19336
-5.2711 -5.6152 0.35916 0 191
-5.2304 -9.5062 1.2688 0 19525
-5.2211 12.718 2.2587 0 9864
-5.1355 -3.9936 1.2257 1 590
-5.1031 2.2422 0 0 3387
-5.0778 -8.8056 1.1887 1 19565
-5.0562 4.0435 0.45272 1 5581
-5.0303 8.7976 1.665 0 9002
-4.9998 -6.976 0.40024 0 19820
-4.9829 -9.1204 0.96961 1 19518
-4.9516 14.116 1.3956 0 10150
-4.9334 -6.9292 0.99471 0 19813
-4.9147 2.3473 -1.4258 0 3623
-4.8363 3.0244 0.39887 0 4534
-4.7092 8.8754 1.6507 1 9256
-4.4612 4.2276 0.71874 0 6391
-4.3313 -11.671 1.4558 0 19224
-4.317 10.701 2.1741 0 9902
-4.1844 3.058 0.60607 0 5177
-4.1813 4.9427 1.2198 0 7452
-4.1722 3.1623 -0.36608 0 5325
-4.1167 -3.8835 0.66183 0 321
-4.1107 5.6392 0.81607 0 8087
-4.1032 -11.574 0 0 19205
-3.78 -10.855 0.80373 0 19201
-3.7747 5.341 -0.15185 0 8200
-3.6762 3.7358 -0.48898 2 6709
-3.4635 4.6096 -0.26888 1 7954
-3.4388 9.8971 1.7214 0 10166
-3.1477 7.8025 0.58833 0 9893
-3.0063 -5.5809 -0.29562 1 19499
-2.9808 -9.5293 0.93152 0 19165
-2.3761 -5.7307 0.72548 0 19297
-2.2147 -9.0643 1.533 0 19108
-2.186 4.7659 -1.3726 0 9623
-2.0988 -7.7144 1.3135 0 19120
-1.8955 7.5855 0.91434 0 10512
-1.622 -5.6381 1.1054 0 19130
-1.3988 -5.2021 0.37668 0 19116
-1.3493 -6.4028 0.7652 0 19098
-1.2345 5.1978 0.87772 0 10547
-1.1928 8.0971 0.76357 0 10659
-1.1834 -10.501 -0.24534 0 19087
-1.1478 -8.0854 1.3417 1 19092
-1.1185 8.8418 0.6232 0 10662
-0.81261 -10.078 1.6611 0 19072
-0.75117 -8.7085 1.4361 0 19076
-0.73768 6.2607 0 0 10665
-0.6088 -6.6128 -0.30969 0 19078
-0.53086 8.5329 1.4046 0 10672
-0.50244 -6.4707 0.45384 0 19071
-0.48552 6.1011 0.1421 0 10670
-0.4835 -7.3375 1.2081 0 19067
-0.42502 -5.0935 0.59771 0 19074
-0.27109 -5.5627 0.91501 0 19061
-0.21853 5.2357 -0.24438 0 10673
-0.12727 5.8798 0.96624 0 10675
0.15691 -5.2868 0.86897 0 19020
0.418 -5.106 0.59911 0 19005
0.46624 9.1719 -1.2907 0 10683
0.48881 10.806 1.7772 0 10682
0.53294 -6.2809 1.0356 0 19003
0.86203 -5.2526 0.4966 0 18996
0.95133 -8.8001 1.4542 0 19000
1.1045 -8.2123 1.5612 0 18999
1.1177 10.852 1.7924 0 10703
1.1856 6.6963 0.63445 0 10736
1.1895 8.2344 0.77621 0 10711
1.3019 5.4861 -0.13091 0 10787
1.3058 5.1681 0.87578 1 10805
1.7455 6.8231 0.9898 0 10809
1.749 8.3282 1.3981 1 10764
1.9682 4.6775 0.95613 0 10977
2.0456 -9.9213 0.94508 0 18990
2.1513 5.0754 -0.38547 0 10981
2.1544 6.977 1.1997 1 10849
2.2074 -9.0965 1.5379 0 18986
2.2131 -5.4041 0.95943 0 18976
2.2873 6.0118 0.75219 0 10923
2.3557 8.9858 1.5262 0 10817
2.5779 6.9023 0.6874 0 10915
2.7328 6.1931 1.1121 0 11007
2.7504 7.1094 -0.71118 0 10931
3.068 -6.224 0.48523 0 18961
3.2166 -4.4517 0.51239 0 18809
3.2497 6.581 1.2059 0 11103
3.2881 4.2759 0 0 11747
3.29 5.0817 0.56478 1 11481
3.3391 -4.539 1.0617 0 18797
3.4192 10.844 1.0608 0 10854
3.4425 4.1672 0.63209 0 11879
3.4519 5.0075 0 0 11579
3.4936 -4.1886 -0.50886 1 18675
3.4999 5.4392 0.60343 0 11465
3.5146 -8.2439 1.4724 0 18972
3.8208 -7.0224 0.55903 0 18951
4.1136 -3.7104 0.91014 0 18436
4.2402 4.2137 0.98213 0 12325
4.2884 -3.2398 0.50143 0 18238
4.4813 -3.8125 -0.41142 0 18386
4.663 3.9826 -0.71711 0 12624
4.8038 -1.4394 0.8239 0 17105
4.8586 -7.4246 1.4578 0 18885
4.9533 2.8287 0.39887 0 13580
5.0464 5.342 -1.3846 0 12145
5.1342 1.4046 0.4966 0 15095
5.2328 -1.7336 0.12798 0 17135
5.2434 5.6802 1.2701 0 12090
5.3742 -1.7805 0.66206 0 17137
5.4071 -2.9923 -0.72269 1 17692
5.513 0.32367 0.38617 0 16181
5.6944 0.12028 -0.93576 0 16342
5.7856 0.76374 -0.40808 2 15787
5.8452 -2.1854 1.0253 0 17210
5.8989 -1.2592 0.56274 1 17006
5.9494 -1.8019 -0.14432 0 17108
5.9553 0.54093 0.98245 0 16006
6.0209 -7.5693 1.8223 0 18731
6.1607 -1.1652 1.0301 0 16976
6.2574 -3.0263 1.142 0 17499
6.3197 -0.1401 1.0385 0 16523
6.3265 1.2676 -0.1498 0 15443
6.3573 0.95238 0.14925 0 15711
6.5398 1.8506 -0.31695 0 15037
6.6873 -10.353 2.0249 0 18893
6.6907 4.895 1.5619 0 12987
6.6915 -1.5917 -0.15969 0 17031
6.7617 -6.6912 0.6652 0 18484
6.7973 -1.0231 1.1293 0 16908
6.7987 -3.3616 0.88693 0 17529
6.8094 0.7193 -0.47881 1 15925
6.8823 5.1281 0.80073 0 12949
6.8996 -3.9483 1.306 0 17758
6.9471 10.524 1.7722 0 11512
7.011 -5.3274 1.2375 0 18248
7.0842 11.515 1.581 0 11379
7.1036 -10.39 0.58695 1 18851
7.1612 -11.815 1.289 0 18926
7.2231 -1.2593 0.51271 0 16949
7.2259 8.2978 1.2867 0 11979
7.3449 4.9897 1.0384 2 13154
7.3722 0.28579 -0.86277 0 16270
7.3783 -11.717 0.96822 1 18900
7.3955 -5.4884 0.21382 0 18208
7.3992 8.0156 1.0177 0 12087
7.4154 8.9764 2.1937 0 11884
7.491 -1.6429 1.4449 0 17018
7.4948 -7.3343 0.73328 1 18480
7.5095 11.235 1.8992 0 11531
7.5265 0.53159 1.4216 0 16123
7.5299 0.75025 0.70598 0 15958
7.5584 8.7349 1.8978 0 11969
7.5644 12.704 1.0339 1 11324
7.6013 -9.7292 2.0285 0 18746
7.6153 1.548 0.90876 0 15428
7.6388 9.0298 1.9432 1 11924
7.6601 11.179 2.5532 0 11577
7.684 6.1869 0.92037 1 12777
7.7031 10.771 2.1757 2 11643
7.7347 12.407 1.364 0 11395
7.7433 9.1015 2.2514 2 11938
7.7444 -7.2319 0.98856 1 18459
7.7707 -8.993 1.6704 0 18626
7.7792 10.548 0.91646 1 11680
7.7953 -7.5806 0.76035 0 18477
7.8035 -2.0968 0.56503 2 17063
7.8586 -0.58537 1.2947 1 16692
7.872 7.9604 1.0445 0 12283
7.8768 11.076 0.95036 1 11628
7.9101 5.049 1.5418 2 13317
7.9219 6.685 1.953 1 12663
7.9303 6.6922 0.72561 0 12656
7.9387 11.734 0.99068 1 11548
7.9602 -4.8019 1.7515 0 17844
7.9614 -0.47718 0.93269 0 16649
7.9969 10.647 2.5088 0 11717
8.0004 8.13 1.3339 0 12263
8.0591 11.691 2.3329 0 11586
8.0878 10.768 0.94171 1 11709
8.1097 7.6022 1.037 0 12427
8.1118 -3.5541 1.6686 2 17364
8.1913 -0.9217 0.38441 0 16782
8.3096 -7.2822 0.77262 0 18410
8.3226 10.949 1.9328 0 11733
8.3366 -7.1353 1.2832 0 18396
8.3397 4.7318 0.6705 1 13594
8.3678 9.6091 2.4007 0 11982
8.3841 3.0135 1.6786 2 14644
8.3999 -3.5915 1.5009 0 17336
8.424 -12.4 1.3986 0 18857
8.4723 5.4078 0.46872 1 13309
8.5039 1.7039 1.0142 2 15449
8.5131 -12.077 1.3785 0 18827
8.5322 7.3311 1.8482 1 12620
8.5757 1.7183 1.6479 1 15455
8.5944 -7.1403 1.0424 0 18360
8.5946 7.6495 1.8903 0 12545
8.6006 -11.2 2.6606 0 18759
8.6348 -0.81775 1.6342 0 16742
8.6358 7.773 1.3587 0 12514
8.6545 -9.2387 0.88521 1 18542
8.6739 0.9898 1.227 0 15887
8.7044 -0.49732 1.6427 1 16644
8.7607 -0.32124 0.61302 0 16578
8.8308 -1.4588 1.6864 2 16937
8.8309 -12.079 1.396 0 18800
8.9012 -6.9294 0.78881 0 18281
8.9178 -5.9993 1.7658 1 18045
8.938 10.947 0.65906 1 11850
8.9602 -5.5145 0.24427 1 17868
8.9685 -11.275 1.0074 1 18725
9.0041 4.4403 1.6494 1 13921
9.0335 -10.644 1.6326 1 18656
9.0576 -7.5706 0.27407 0 18365
9.0864 -11.697 1.0357 1 18747
9.1862 7.4814 1.3854 0 12749
9.1882 3.2447 1.3695 0 14674
9.1887 10.993 2.354 0 11902
9.1921 -10.452 2.6225 0 18600
9.2178 -7.2641 1.3724 0 18299
9.2221 -11.454 2.4159 0 18715
9.2474 -11.424 2.7691 0 18710
9.2676 -11.651 1.3889 0 18726
9.2753 0.59981 1.3063 0 16150
9.31 -11.633 0.34593 2 18718
9.3624 -7.3781 1.9584 0 18300
9.3904 -1.4688 1.5615 1 16922
9.4793 10.885 0.67313 1 11975
9.4922 -11.581 0.69829 1 18695
9.493 6.4128 0.80108 0 13167
9.5025 -6.311 2.1492 0 18015
9.515 -6.4373 0.80332 2 18053
9.5262 3.1487 0.46788 1 14787
9.5387 -8.1641 1.1714 0 18395
9.5493 10.9 2.3809 0 11992
9.5554 8.3533 2.0852 0 12582
9.5716 -10.638 2.3511 0 18578
9.5725 -4.3564 0.24418 0 17410
9.5765 -4.6625 1.7499 0 17511
9.5821 -10.586 2.6903 2 18571
9.5937 8.0045 2.0528 0 12689
9.6044 9.1621 0.619 1 12395
9.6161 -8.8766 1.5304 0 18451
9.6241 -6.4306 1.9017 1 18031
9.6497 -8.9576 0.30569 1 18454
9.6848 4.195 1.4833 0 14268
9.6975 5.3511 0.51652 1 13651
9.7204 7.7819 1.75 0 12796
9.7258 5.1496 1.2869 0 13748
9.7289 0.12226 1.1378 0 16378
9.7311 -1.4925 1.1513 1 16912
9.7418 9.2932 2.212 1 12401
9.7589 -5.8105 1.866 0 17824
9.8088 -9.2627 2.2165 2 18464
9.8217 -0.075427 0.68682 0 16456
9.8361 9.6558 2.5969 0 12346
9.854 -6.1002 0.54046 1 17879
9.8919 -6.0096 2.1807 1 17854
9.8928 10.657 2.389 0 12104
9.9074 -2.2946 1.6708 0 17028
9.9161 4.7808 1.8086 1 13972
9.9168 8.6205 2.1588 2 12595
9.9304 8.9917 2.2009 0 12500
9.9729 7.4743 2.0476 0 12939
10.023 -4.7377 0.51698 1 17457
10.046 -0.83653 1.6562 0 16715
10.054 4.2182 0.76244 0 14332
10.061 8.5448 1.8552 0 12647
10.066 9.9405 2.6654 0 12336
10.09 5.23 1.0603 0 13798
10.16 6.1169 1.6667 0 13467
10.164 9.6348 1.6377 0 12410
10.173 9.4306 0.97003 1 12448
10.188 -9.9077 2.3349 0 18479
10.194 -6.1106 1.3899 0 17830
10.22 -6.2483 0.55863 1 17858
10.261 0.36729 0.9579 1 16288
10.317 1.0607 0.96756 1 15946
10.323 -1.9226 1.4758 0 16971
10.357 6.1518 1.4087 0 13496
10.372 -3.6059 1.2842 0 17156
10.382 8.5096 1.2524 0 12732
10.395 -2.2191 1.7464 0 17009
10.409 -10.486 2.0765 0 18500
10.412 -6.7409 1.4505 0 17949
10.421 3.5436 0.25555 0 14736
10.435 3.3162 2.063 2 14870
10.445 -0.68463 1.9722 0 16671
10.445 8.4097 0.62534 1 12773
10.489 0.28383 0.24362 0 16322
10.498 -4.5256 0.79941 0 17342
10.525 9.6952 1.335 0 12461
10.573 -10.225 2.4166 0 18476
10.591 -0.90979 1.4939 0 16720
10.636 -5.9221 1.1357 1 17713
10.663 -10.19 2.0728 0 18470
10.666 4.9939 1.0987 1 14037
10.724 3.136 1.0424 1 14995
10.801 8.243 1.2676 0 12900
10.853 -4.5287 1.3752 0 17307
10.891 9.032 0.65981 1 12699
10.892 0.42222 1.2746 0 16277
10.916 -6.8476 1.2022 0 17902
10.968 8.9899 1.6584 0 12734
11.031 4.2213 1.3813 1 14521
11.082 -5.9247 1.4695 0 17642
11.095 -4.5551 1.6857 0 17289
11.139 -8.9306 0.99835 1 18318
11.237 -1.7939 1.8696 0 16928
11.277 -8.5196 1.6528 0 18239
12.922 1.0238 2.1296 0 16071
-8.2256 -6.9094 -1.5097 0 478
-2.9138 10.859 -1.5802 2 10452
-0.7585 5.363 -1.9714 0 10660
3.7208 2.0118 -1.7668 2 13694
4.398 -1.9867 -1.6307 0 17399
5.9348 4.8059 -1.9992 2 12761
