VERSION .7
FIELDS x y z intensity index
SIZE 8 8 8 8 8
TYPE F F F F F
COUNT 1 1 1 1 1
WIDTH 651
HEIGHT 1
VIEWPOINT 0 0 0 1 0 0 0
POINTS 651
DATA ascii
-4.9201 -0.59975 0.46242 2 1109
-4.2372 1.1735 0.82837 0 2573
-4.0634 1.9347 0.41987 2 3610
-3.3343 1.0277 0.081006 0 2693
-2.9459 -2.8788 0.095628 0 409
-2.7752 3.6219 0.31907 0 7839
-2.7357 3.5704 0 0 7835
-2.4266 -3.5479 0.7062 1 19744
-2.2017 2.1681 0 0 6529
-2.1375 2.8919 -0.1677 1 7998
-1.8723 -3.2351 0.61411 0 19561
-1.5936 -2.8691 0.53921 1 19521
-1.5454 -4.1466 -0.20636 1 19211
-1.5082 3.6412 0.64751 0 9900
-1.428 -4.2826 0.42117 1 19171
-1.4159 3.4472 0.4358 0 9917
-1.2519 -4.3344 0.74122 0 19140
-1.216 -3.8309 0.75727 0 19161
-0.62036 4.783 -0.44997 1 10729
-0.43541 4.3393 0.40687 0 10743
-0.37143 4.8382 -1.2703 0 10748
-0.36876 -4.232 0 0 19086
-0.19249 -4.4264 0.72792 0 19070
-0.15773 3.5278 0.49629 0 10753
-0.14891 -3.9481 0.091729 0 19065
-0.0126 -4.0106 0.46902 0 19041
-0.0044798 3.2076 0.60434 0 10760
0.026855 -4.9634 0.81547 0 19037
0.059753 3.1697 -0.29577 0 10765
0.11043 -3.4563 0.48599 0 19026
0.17542 4.4647 0.73408 0 10767
0.22453 -3.6922 -0.08588 0 19013
0.27747 -4.7976 0.78953 0 19015
0.57059 4.2091 0.29702 1 10803
0.59825 2.975 -0.2122 1 10814
0.66801 -3.7464 0.35503 1 19004
0.66873 -4.4062 0.41578 0 19006
0.67425 3.7398 0.44439 1 10810
1.0221 4.1928 -0.60652 1 10826
1.1033 4.5261 0.32576 0 10830
1.1536 -3.752 0.64492 0 18995
1.3431 -3.9956 0.49294 1 18991
1.3925 3.6891 -0.46112 1 10966
1.4297 -3.3293 0.42372 0 18985
1.4744 -4.222 0.73473 1 18989
1.5551 4.6449 0.80477 0 10924
1.5789 -4.5648 0.33776 0 18990
1.7107 -4.29 0.5401 0 18987
1.7448 -3.8787 0.49736 1 18983
1.9392 2.6573 0.46233 0 11687
1.9647 3.0875 0.68951 2 11440
2.0456 3.1938 -0.26521 0 11442
2.3033 3.3994 -0.38309 0 11532
2.3562 3.3082 -0.66729 0 11647
2.4346 -4.3562 0.46557 0 18966
2.539 -3.1533 0.3777 0 18694
2.6034 -1.539 -0.42503 0 17816
2.7142 -1.5519 0.14581 0 17761
2.743 -3.2888 0.7036 0 18655
2.8552 2.2932 0.34166 0 12843
3.2169 -1.9907 0.08783 0 17890
3.3081 2.385 0.47691 1 13119
3.335 -2.3265 0.37937 0 18109
3.4288 0.12573 -0.32011 0 16143
3.4736 0.93399 -1.1224 0 15110
3.5507 2.6883 0.83911 0 12995
3.6365 1.5699 0.65075 0 14217
3.6935 -0.37908 -0.25963 1 16591
3.9124 1.8795 -0.50758 0 13976
4.0041 0.7118 -0.094422 0 15593
4.1743 1.0702 -0.20096 0 15169
4.1972 -0.37016 -0.69225 0 16555
4.2253 -1.1575 0.6157 0 16965
4.2838 -2.3843 0.11383 0 17714
4.3563 -2.105 0.33832 0 17516
4.4492 -0.41822 0.10375 0 16568
4.471 1.0775 -1.204 0 15260
4.6912 0.11875 -0.10895 0 16186
4.8064 0.92557 -1.4035 0 15520
4.9822 0.15396 -0.23245 1 16167
-2.7869 0.30128 0.19602 0 2004
-0.3982 2.2491 0.21309 0 10697
1.3597 2.1228 -1.053 0 11443
2.2176 -0.33181 0.20919 0 16695
-13.195 5.7729 0.67164 1 3385
-13.082 6.1784 0 0 3584
-12.8 1.3837 -0.29891 0 2002
-12.594 7.6004 0.68599 1 4396
-12.558 7.5249 1.7121 0 4373
-12.475 7.3837 1.0137 1 4320
-12.424 6.3607 0 0 3822
-12.284 -8.5029 0.34686 1 834
-12.27 -0.13706 0.28489 1 1526
-12.225 7.4272 1.6728 0 4430
-12.125 8.7287 0.34686 1 5117
-12.041 6.2577 0.31506 1 3871
-12.037 7.0736 0.97631 1 4295
-12.037 8.7711 1.0415 1 5174
-12.021 6.4697 1.5964 0 3992
-11.981 8.679 -0.34347 0 5140
-11.925 6.4185 0.94701 1 3988
-11.888 5.4503 0 0 3505
-11.753 8.1077 1.3321 2 4945
-11.718 4.3717 0.29037 1 3006
-11.659 8.9237 1.3698 0 5390
-11.636 8.8482 2.4017 0 5367
-11.624 8.5262 1.6858 0 5202
-11.568 9.4515 1.7469 0 5685
-11.532 7.9077 2.2972 1 4925
-11.518 6.461 0.30661 1 4124
-11.437 7.7932 1.9451 0 4898
-11.353 6.9407 0.30894 1 4447
-11.341 1.2581 0.26493 0 2014
-11.221 7.2678 0.62347 1 4693
-11.202 6.8058 0.61127 1 4424
-11.184 8.8197 1.6656 0 5528
-11.151 5.309 0 0 3604
-10.79 -0.056498 -0.50319 1 1547
-10.74 7.498 0.30411 1 4990
-10.73 7.8184 0 0 5169
-10.714 4.7971 -0.27254 1 3444
-10.658 6.308 0.57754 1 4318
-10.651 1.7194 0.25049 0 2188
-10.587 8.3969 -0.31372 0 5546
-10.539 4.794 0 0 3484
-10.534 4.3567 0.26465 0 3248
-10.514 -0.20739 1.2298 0 1494
-10.511 -1.6873 -0.24715 1 1006
-10.491 5.9211 -0.27969 1 4143
-10.467 -1.4598 0 0 1059
-10.455 7.7191 1.2124 0 5225
-10.411 -0.56931 1.9645 0 1349
-10.409 1.0977 -0.4881 2 1993
-10.362 3.901 0 2 3025
-10.358 -1.0485 0.97128 0 1171
-10.324 5.7112 0.27393 0 4075
-10.245 8.1724 1.2226 0 5580
-10.199 10.96 -0.69819 0 6947
-10.053 -1.7021 0.95121 0 985
-10.032 5.0304 -0.26056 0 3754
-10.01 6.0816 -0.27194 1 4418
-9.8741 5.7653 0 2 4268
-9.8461 -8.7172 -0.30531 0 550
-9.8132 -10.582 -0.33507 0 281
-9.7866 10.703 -1.0141 0 7024
-9.7752 9.1923 -0.31154 0 6315
-9.6648 1.4168 1.8404 0 2139
-9.6516 -7.3659 1.1327 0 719
-9.6167 8.4307 2.4096 0 6005
-9.5609 5.7698 0.25926 0 4394
-9.4644 -6.1158 -0.78797 1 911
-9.4335 6.8337 1.3622 0 5149
-9.4059 5.4546 0.25244 1 4245
-9.3485 7.3249 1.108 2 5499
-9.3409 0.62861 1.3157 0 1843
-9.3143 9.0199 -0.60465 0 6444
-9.2978 8.5438 1.1781 0 6215
-9.188 10.101 -0.95483 0 7051
-9.1773 7.8575 1.1272 1 5889
-9.1558 7.1739 0.81336 0 5497
-9.1505 2.4467 0 0 2534
-9.1292 0.77462 -0.42726 1 1910
-9.1289 9.2572 2.4496 0 6680
-9.1236 6.294 -0.51689 1 4935
-9.0954 8.4018 2.3329 1 6251
-9.0681 6.0248 -0.25277 0 4788
-9.0599 6.847 2.1396 0 5344
-9.0412 10.794 -0.3269 0 7434
-9.0339 -6.9395 2.1463 1 714
-8.9772 7.2877 -0.26846 1 5651
-8.9084 8.1373 1.6957 1 6192
-8.9083 -1.0071 0.8364 0 1135
-8.8895 8.2116 1.9882 0 6249
-8.8843 0.031011 -0.62125 2 1582
-8.8545 6.7331 1.0378 1 5362
-8.8497 1.0882 -0.4158 1 2052
-8.8166 -7.1856 2.143 0 649
-8.8164 -7.3586 1.3429 0 621
-8.7815 1.55 0.83194 0 2237
-8.7514 11.559 -0.3366 0 7887
-8.6988 0.7381 -0.81448 2 1908
-8.6241 0.65602 1.0114 0 1879
-8.5874 3.1476 -0.42652 1 2972
-8.5873 1.6195 -0.61107 1 2270
-8.5568 -5.4555 1.6672 0 916
-8.538 2.4983 0 0 2627
-8.497 1.1443 -0.19906 2 2097
-8.4532 -11.068 1.6287 0 19892
-8.4493 -12.202 2.0859 0 19757
-8.4088 8.4795 1.962 2 6650
-8.3727 0.5385 0 1 1826
-8.33 0.46426 -0.38906 0 1791
-8.2743 2.791 1.6453 0 2835
-8.274 11.755 2.7084 0 8229
-8.2436 -12.053 1.7076 0 19742
-8.2395 8.2107 1.9111 1 6597
-8.2366 7.7455 1.8576 0 6328
-8.2052 8.1766 0.81001 2 6590
-8.2037 2.981 1.0207 0 2960
-8.1904 1.6396 -0.38953 1 2317
-8.173 3.3254 -0.20486 0 3210
-8.1691 4.8351 -0.88563 2 4307
-8.1624 -12.393 1.3845 1 19684
-8.1332 12.372 0.34375 1 8492
-8.1286 -5.9819 1.9015 0 767
-8.111 -5.4093 1.6018 2 883
-8.0991 8.1189 1.3411 0 6622
-8.0524 3.3025 1.4299 1 3239
-8.0486 12.403 2.7858 2 8552
-8.0068 2.3186 -0.77769 2 2610
-8.0018 6.5775 1.4558 0 5713
-7.958 1.6683 1.5319 0 2356
-7.9409 -7.1953 0.74932 0 517
-7.9085 1.7518 -0.56642 0 2387
-7.8464 1.4542 0 2 2263
-7.7599 -5.1089 1.3057 0 899
-7.7448 1.4606 1.4849 0 2277
-7.739 3.6005 -1.4023 2 3540
-7.7361 6.8999 1.4569 0 6082
-7.7213 11.683 2.3008 0 8477
-7.6679 -7.1504 1.2261 1 465
-7.6422 6.8594 -1.4432 2 6089
-7.6126 -6.8592 0.71654 0 526
-7.5505 -12.453 2.0467 0 19604
-7.5492 -7.8612 0.25304 0 337
-7.5319 9.5404 1.4215 0 7708
-7.5027 0.76871 0 0 1984
-7.4674 8.6571 1.8783 2 7310
-7.4616 6.8926 0.94768 2 6244
-7.4574 10.73 2.1468 1 8277
-7.4522 -7.4939 0.49285 1 381
-7.4376 12.805 0 0 8946
-7.3813 1.214 -1.0513 2 2191
-7.3782 13.052 2.1071 0 9045
-7.3613 12.673 1.0249 1 8950
-7.3452 12.904 0.69242 1 9016
-7.329 11.364 2.5477 0 8578
-7.3039 -1.4118 1.4016 1 936
-7.2138 -7.0053 1.1759 1 418
-7.2095 -11.089 1.234 1 19665
-7.1861 -11.704 2.2564 0 19614
-7.1477 9.106 1.6269 0 7738
-7.1017 -10.067 1.4407 0 19782
-7.0164 -10.858 1.5118 0 19658
-7.0139 2.3891 -1.396 2 2850
-6.9281 6.2556 1.0916 1 6135
-6.9276 -11.212 0.92162 1 19617
-6.9236 -7.2098 1.1689 0 340
-6.911 -11.038 2.1397 0 19629
-6.8968 -10.88 0.60074 1 19638
-6.8929 -6.6937 0.89641 1 417
-6.8302 -9.7982 1.9623 0 19767
-6.8122 11.125 2.1432 0 8763
-6.7551 -7.1184 0.91554 0 324
-6.7508 -9.5699 0.81894 0 19780
-6.7368 3.4252 0.52848 0 3804
-6.7317 -13.166 1.7293 0 19431
-6.7285 -10.216 0.57046 1 19682
-6.7238 -4.3448 0.93617 1 912
-6.6801 -9.4067 1.8955 0 19793
-6.6468 -4.4061 0.55763 1 887
-6.6384 -9.2999 1.3362 0 19800
-6.6374 -0.074143 0.46416 0 1528
-6.6185 12.282 1.3016 2 9195
-6.6176 3.8376 0.89459 1 4251
-6.6084 13.348 2.8062 0 9450
-6.5872 12.311 2.6306 0 9227
-6.537 8.7925 1.5398 0 7984
-6.5359 12.048 2.2519 0 9179
-6.5258 6.1367 1.259 0 6326
-6.4918 4.8795 1.5301 1 5315
-6.4828 -10.164 1.6943 0 19646
-6.4732 -6.1794 0.83491 0 435
-6.4585 -0.44596 0.60398 0 1286
-6.4386 -0.40847 1.0599 2 1311
-6.3765 -8.1089 1.2063 1 19933
-6.3721 8.0223 0.7164 2 7678
-6.3665 -0.33031 0.2973 0 1357
-6.3347 -11.794 1.249 1 19477
-6.3317 9.5807 0.80304 0 8469
-6.3211 -11.613 1.5462 0 19495
-6.2877 -13.546 0.69642 1 19356
-6.2721 -11.14 1.1927 0 19534
-6.2652 9.5962 1.8829 0 8527
-6.2628 9.1775 1.5615 0 8351
-6.2602 8.4202 0.7337 0 7978
-6.2553 -5.129 0.37723 0 640
-6.2453 -11.628 2.1685 0 19480
-6.2363 -12.114 1.2711 0 19437
-6.2363 6.3617 1.4636 1 6706
-6.2303 -6.1589 0.6126 0 398
-6.1916 -10.211 1.962 2 19605
-6.183 -7.196 0.22027 0 171
-6.1802 12.762 0.99152 1 9501
-6.1506 8.0272 1.4212 0 7845
-6.1489 -11.944 2.2071 0 19440
-6.1176 -6.9538 0.86408 0 211
-6.1026 11.987 2.5344 0 9368
-6.0865 -4.3994 0.17436 0 786
-6.0851 9.3774 0.78169 0 8544
-6.0712 7.3781 1.1174 0 7524
-6.0504 -7.8793 1.1617 0 19900
-6.0446 8.1302 0.47245 1 7976
-6.0331 -7.3161 0.66311 0 101
-6.0304 -11.228 1.7912 1 19479
-6.0252 4.4487 1.2305 0 5231
-6.0246 -10.007 1.3659 0 19597
-5.9993 -13.122 0.33498 1 19348
-5.9948 5.4434 1.3304 0 6166
-5.987 13.555 2.0826 0 9737
-5.9579 4.0065 1.1796 0 4854
-5.8902 -10.318 0.55406 1 19545
-5.8282 0.12208 1.0983 0 1648
-5.8128 -9.0509 1.2579 0 19652
-5.8119 -4.2506 0.5035 0 770
-5.8031 -6.1516 0.39438 0 312
-5.7897 -11.324 0.5931 1 19429
-5.7223 -12.424 0.9565 2 19352
-5.7037 -13.489 2.4062 1 19305
-5.7002 2.6315 0.88236 0 3535
-5.6914 -13.46 0 0 19301
-5.6864 8.9881 0.99227 0 8638
-5.6584 -11.394 2.0901 1 19412
-5.6557 -13.376 1.0155 1 19302
-5.5982 -13.144 2.3472 0 19308
-5.5769 12.931 2.6532 0 9802
-5.576 -6.1215 1.5601 0 262
-5.5393 -11.836 2.4622 0 19368
-5.5374 -8.5171 0.47375 1 19663
-5.5013 -10.316 1.0907 0 19471
-5.4984 -11.154 1.1602 0 19402
-5.4824 -13.631 1.0274 1 19271
-5.4515 -4.6298 1.3475 0 605
-5.4448 -4.624 0.83536 0 603
-5.434 -12.257 0.62524 1 19327
-5.4283 -9.6415 1.2939 0 19535
-5.4242 1.6718 0 0 2692
-5.409 -8.8718 0.72658 0 19606
-5.344 -13.615 1.3646 0 19250
-5.2872 -12.414 2.5421 0 19309
-5.2826 -3.6347 0.74987 0 842
-5.2573 6.6188 1.3887 1 7684
-5.2328 -8.6916 0.23554 0 19595
-5.2315 -13.801 1.726 0 19224
-5.218 -12.444 1.8964 0 19298
-5.1938 -8.3474 0.91722 1 19623
-5.1928 -11.713 1.8006 0 19330
-5.1273 -10.106 2.1352 0 19427
-5.1174 6.9233 1.0068 1 8010
-5.1069 -11.796 2.1118 0 19318
-5.071 -5.3756 0.17157 0 311
-5.0614 -5.1182 0.33568 0 375
-5.0266 -13.487 1.3428 0 19214
-4.9701 -11.568 0.29232 2 19310
-4.9695 9.8936 1.819 2 9410
-4.8778 -11.181 2.0041 0 19322
-4.8374 -13.466 1.6733 0 19195
-4.8276 12.898 1.6105 0 10095
-4.8257 -10.311 1.0621 1 19364
-4.8039 7.8978 1.5187 2 8790
-4.8025 -6.6834 0.96242 1 19807
-4.7885 -6.5811 1.5334 0 19827
-4.7075 -7.7639 0.2108 0 19600
-4.6752 2.7671 -0.37989 0 4309
-4.666 8.4769 1.5898 1 9133
-4.3604 -9.608 -0.24497 0 19343
-4.013 -11.062 0.54875 1 19198
-3.9525 -10.708 0.79815 0 19206
-3.9215 -6.8696 0.92502 1 19548
-3.6313 -6.0722 1.1624 0 19594
-3.5776 5.0211 0.28751 0 8167
-3.2246 9.7219 1.6828 0 10279
-2.6941 -10.846 2.1055 0 19109
-2.6109 -4.306 0.35213 0 19601
-2.523 5.3714 0.97499 1 9589
-2.4932 5.734 0.87874 0 9776
-2.1073 -9.2903 1.5651 0 19102
-1.8725 5.4849 -0.27028 0 10230
-1.2535 9.6646 -1.1397 0 10728
-1.2406 7.3742 -0.34872 0 10706
-1.0136 10.101 1.6679 0 10744
-0.97844 5.427 0.38561 0 10693
-0.84299 -9.9762 1.6449 0 19084
-0.76748 -7.7576 1.2808 0 19090
-0.64922 5.3649 0 0 10736
-0.4979 13.709 2.2538 0 10755
-0.30613 6.0431 0.99412 0 10752
-0.30291 5.6294 0.65927 0 10751
-0.21802 -7.5228 -0.17473 0 19058
-0.21158 11.223 1.0473 0 10757
-0.15452 8.1966 1.3469 0 10758
-0.053401 -6.1192 0.57091 0 19044
0.0074976 5.37 -1.1414 0 10761
0.049249 -5.7586 0.94614 0 19035
0.24859 6.8777 -0.15978 0 10766
0.27341 -5.252 0.36776 0 19018
0.37778 8.9391 1.0463 0 10768
0.64351 5.3333 -1.1419 2 10794
0.66731 -7.1797 0.67272 1 19009
0.7588 5.3651 -0.1258 0 10804
0.7797 11.96 1.9691 0 10769
0.82864 -8.6532 0.60786 0 19008
0.8542 -9.8227 1.6199 0 19010
0.9737 -5.3633 0.89555 1 19003
0.99651 -7.1267 0 0 19007
1.0488 5.3706 0 0 10812
1.2828 7.0102 1.3427 0 10811
1.31 8.5407 0.40295 0 10807
1.4936 7.4277 0.886 1 10815
1.4942 -5.473 0.66345 0 18997
1.6174 -5.6037 0.13541 0 18996
1.8259 -10.593 2.0252 0 19005
1.9156 -8.9203 1.499 0 19000
2.0007 10.245 0.97388 0 10813
2.1665 -6.9092 1.1896 0 18994
2.2991 9.1937 0.88415 0 10837
2.5089 5.5929 1.0071 0 11050
2.6291 9.0493 -0.21878 0 10886
2.6794 9.9719 1.6964 0 10861
2.8559 8.8686 1.5307 1 10911
3.207 -3.8669 0.35129 0 18659
3.439 -8.2779 1.4727 0 18986
3.4587 -7.7428 0.99169 0 18984
3.5558 -5.0146 -0.57351 0 18850
3.7136 -7.7095 1.4059 0 18974
3.7594 -4.5881 0.69365 0 18674
4.0238 -8.2903 1.0776 0 18973
4.1111 -8.114 1.4944 0 18970
4.2748 -3.2096 -0.62512 0 18238
4.3576 4.0778 0 0 12411
4.3822 3.3179 0.38436 0 12988
4.5593 2.4745 0.48397 0 13733
4.5607 -3.2411 -0.78633 0 18136
4.6459 2.0694 -0.47449 0 14138
4.6908 -5.8972 0.70301 0 18706
4.7843 1.7451 0.11824 1 14557
4.9139 2.0706 -1.3959 0 14266
4.9553 1.165 0.95909 0 15300
4.9559 -1.4982 0.36204 0 17030
4.9704 -4.9462 0.1628 0 18538
5.1333 2.7088 0.95359 1 13796
5.1642 -0.31857 0 0 16485
5.1955 0.82847 0.49084 1 15678
5.2148 -2.1027 0.79022 0 17290
5.2654 -0.4181 -0.61769 1 16532
5.2812 3.7172 0.4516 0 13176
5.3018 -4.6692 0.49402 0 18448
5.3024 -0.74709 -0.49957 0 16678
5.349 4.64 1.1634 0 12634
5.6369 -3.3977 1.0813 0 17857
5.6679 4.2633 0.99676 0 13009
5.7271 0.026991 0.53431 1 16264
5.8522 1.18 0.98083 0 15474
5.8679 5.0901 0 0 12624
6.0422 0.52119 0.70922 0 15975
6.0643 9.0008 0.25198 0 11522
6.1086 -1.9425 0 0 17063
6.3345 8.7894 1.267 0 11668
6.4251 2.0086 1.106 1 14853
6.4786 8.5105 2.0152 1 11754
6.5302 3.5191 -0.17222 0 13744
6.5489 9.7826 1.6545 0 11516
6.6083 -3.2388 1.2091 0 17536
6.689 9.2814 1.8796 2 11671
6.7488 -1.0713 0.47783 1 16708
6.8184 2.3744 -0.16763 0 14634
6.8425 -2.1758 0.1667 0 17064
6.9268 -0.208 0.64653 0 16390
6.9865 4.9449 1.6127 0 13167
7.0286 -3.0722 0.71564 2 17383
7.1113 -1.7073 1.3779 0 16880
7.1381 8.8369 1.8663 0 11860
7.1384 -6.9418 0.46434 0 18529
7.156 -7.2871 0.23712 0 18549
7.1566 12.486 1.3427 1 11295
7.1645 -7.0455 0.93747 1 18535
7.2076 -3.4549 1.3132 0 17509
7.2479 -1.4522 0.34472 0 16775
7.2761 0.54199 0.85324 0 16024
7.2783 -2.5974 0.17942 0 17158
7.2966 0.60758 1.2029 0 15989
7.3289 1.6087 -0.70003 0 15373
7.3472 -0.60405 0.68777 1 16544
7.3566 9.2684 0.82745 1 11819
7.3615 -6.4468 0.45633 0 18444
7.3725 5.1546 1.6949 1 13195
7.4265 9.2963 1.9548 0 11839
7.4273 9.4113 2.2589 1 11814
7.499 5.1481 1.0637 0 13236
7.5147 0.035416 0.8788 0 16266
7.5179 4.6649 0.82544 1 13453
7.5477 6.8606 1.4335 0 12480
7.5579 12.924 2.4597 0 11324
7.5915 -6.3814 0.23025 0 18406
7.6008 -3.7516 0.99123 0 17545
7.6275 -12.76 0.69325 1 18936
7.6643 -5.0883 0.64329 0 18013
7.6685 9.6613 1.7335 0 11824
7.6743 -0.98991 1.4579 0 16657
7.6987 -12.23 1.69 0 18914
7.8087 7.6977 1.8015 0 12314
7.8412 -0.36978 1.479 2 16450
7.8649 10.092 0.8947 1 11786
7.9146 -3.8244 1.4442 0 17518
7.964 -11.091 0.31701 1 18840
7.9847 -6.138 0.23383 0 18285
7.9899 -4.8484 0.43583 0 17863
8.0614 -8.067 1.064 1 18543
8.0638 9.6923 2.3755 2 11915
8.1246 -5.7739 0.23141 0 18138
8.1316 2.6217 0.99913 1 14776
8.1761 2.1984 1.391 0 15117
8.1884 3.0111 1.6438 1 14549
8.2043 12.49 1.045 1 11484
8.2216 -10.277 1.2278 0 18700
8.2308 9.4318 2.0567 0 11998
8.2553 12.487 2.1037 0 11498
8.2594 7.8625 2.1485 2 12387
8.2612 -10.833 0.6353 1 18772
8.317 -10.707 1.5855 0 18749
8.32 10.114 1.5316 0 11890
8.3458 3.3465 1.6941 2 14372
8.3536 -0.29901 0.38981 0 16409
8.3689 -2.7144 1.4455 0 17085
8.3937 -6.3389 0.73551 0 18249
8.4317 4.4211 1.7938 0 13810
8.4364 -7.5642 0.26307 2 18459
8.4379 -6.8475 1.0138 0 18375
8.4427 2.6685 0.41292 1 14825
8.4962 9.0856 2.0437 0 12150
8.5007 4.4233 1.1206 0 13822
8.5548 7.5103 2.1448 2 12605
8.6405 9.1819 1.772 0 12162
8.6731 3.3328 1.5265 2 14466
8.7041 -6.1492 0.24743 0 18127
8.7123 5.0605 0.70454 0 13588
8.7338 -10.659 0.96362 1 18672
8.7647 -6.6963 0.51437 1 18269
8.7782 -7.0352 1.581 0 18360
8.7812 -6.7089 1.2923 2 18274
8.7824 7.1832 1.8641 2 12805
8.8047 -0.41522 0.61637 1 16444
8.8322 -5.3237 1.4493 0 17856
8.8476 -1.4045 1.6878 0 16711
8.8559 -8.3192 1.7077 0 18503
8.8596 -3.9353 0.67789 0 17403
8.9194 -8.136 0.28029 1 18475
8.9454 10.623 2.6166 0 11935
8.9694 -8.4701 0.57531 1 18505
8.9698 8.6893 0.58239 2 12346
8.9842 5.6818 0.74332 0 13410
8.9896 -3.654 0.90532 1 17299
9.032 -4.8226 0.47748 1 17659
9.0658 -0.37521 0.21066 0 16426
9.0738 -3.3241 0.45065 0 17189
9.1011 -10.533 0.97338 1 18619
9.1395 -1.3138 0.64567 0 16685
9.1526 -8.6946 1.4763 0 18511
9.1567 -0.91235 0.85851 1 16584
9.1707 6.8581 1.6094 1 13027
9.1822 7.0764 1.9046 0 12941
9.2867 8.7422 0.59478 1 12402
9.3737 -4.1304 1.4396 0 17395
9.3859 -3.5354 1.1729 1 17216
9.4276 8.4174 2.0764 0 12547
9.4278 6.4723 1.6072 0 13237
9.456 -5.59 1.8047 0 17825
9.4664 5.5361 1.0231 0 13574
9.4752 2.3414 0.6825 0 15226
9.4949 -7.9813 2.337 0 18409
9.514 -10.952 2.3835 0 18615
9.5388 3.3217 1.6595 2 14643
9.5791 -8.6372 1.5083 0 18468
9.5924 -8.7499 1.2113 0 18476
9.5945 -3.6446 0.95753 0 17224
9.6399 4.7727 1.2579 0 13926
9.7297 8.44 1.5062 0 12632
9.7311 6.5984 0.82215 0 13262
9.7364 -2.7276 0.23475 0 16976
9.7396 -0.97042 1.3756 2 16586
9.7414 7.6437 1.7402 0 12898
9.8264 -11.177 1.7404 0 18603
9.8325 -3.3492 1.9571 0 17125
9.8517 -0.83766 0.46108 0 16550
9.8726 -0.87069 0.92465 2 16558
9.8761 -6.0687 0.81057 0 17883
9.9259 5.3133 0.78727 0 13766
9.9266 -5.5251 1.3285 0 17720
9.9431 -11.051 1.3869 0 18590
9.967 8.4407 2.1458 0 12703
10.004 -2.0681 0.95307 0 16789
10.005 -5.2328 1.5869 1 17634
10.006 8.1839 0.9039 1 12800
10.019 -5.6521 1.6166 0 17742
10.028 -6.9073 1.7113 2 18084
10.038 4.1251 1.783 1 14316
10.057 -1.3883 0.94713 1 16673
10.059 -7.1907 0.57661 2 18152
10.062 -2.1995 0 0 16813
10.081 2.6466 0.48605 1 15142
10.084 -6.2791 2.2381 0 17908
10.103 -8.293 1.5285 0 18385
10.103 -3.2475 1.7434 1 17077
10.132 4.6901 0.78071 0 14062
10.142 -4.7532 2.1104 0 17475
10.168 -7.5844 0.88702 1 18229
10.175 -8.0589 2.1325 0 18348
10.175 -2.818 1.4839 0 16972
10.178 5.0744 1.061 0 13907
10.217 -0.1284 1.9252 0 16326
10.243 0.16807 1.6831 1 16224
10.284 -1.3265 0.48354 1 16651
10.299 -8.3074 1.8596 0 18368
10.321 -2.9537 1.0016 0 16991
10.323 -7.7958 1.2069 1 18251
10.33 -1.3655 0 0 16658
10.352 -6.8725 2.0414 2 18018
10.363 7.1594 1.1751 1 13219
10.398 2.6659 0.50059 1 15175
10.415 -6.9541 1.1684 0 18027
10.443 3.5348 0.25597 0 14689
10.457 2.9767 1.7862 1 15032
10.521 -0.92789 1.2351 1 16559
10.554 -0.59189 1.7366 0 16472
10.557 3.78 1.3113 0 14592
10.572 3.5434 2.1007 0 14715
10.592 2.8817 2.0681 1 15100
10.635 -6.1202 0.858 1 17775
10.706 7.0382 1.4983 0 13329
10.721 -7.4349 1.5258 0 18096
10.722 -4.9473 1.6595 1 17451
10.731 -6.3033 1.4554 0 17812
10.734 4.563 1.9163 1 14253
10.784 7.9679 2.5262 0 13060
10.819 7.8003 1.2444 0 13118
10.841 -6.282 2.0586 1 17788
10.952 -6.9555 2.4444 0 17942
11.006 -4.8109 1.6882 1 17385
11.115 -6.6125 1.8176 0 17837
11.174 -8.1898 1.6201 0 18200
11.183 -5.971 2.3885 0 17664
11.255 -4.8029 1.1416 0 17356
11.459 -5.4925 0.88856 1 17505
11.523 -7.0394 1.2598 0 17874
11.538 -6.6856 1.8741 0 17787
11.921 -6.1448 0.93781 1 17612
12.146 2.4844 2.0369 0 15461
-0.26559 6.7898 -1.7788 0 10754
0.74121 4.5613 -1.9302 0 10809
2.5273 5.3011 -1.8325 0 11091
5.2374 2.3692 -1.5048 0 14111
