VERSION .7
FIELDS x y z intensity index
SIZE 8 8 8 8 8
TYPE F F F F F
COUNT 1 1 1 1 1
WIDTH 816
HEIGHT 1
VIEWPOINT 0 0 0 1 0 0 0
POINTS 816
DATA ascii
-4.6521 -0.21288 0.21717 0 1561
-4.3275 -0.75527 0.40984 0 1115
-4.0612 0.30892 -0.094561 0 2112
-3.8936 2.3888 0 2 4967
-3.8773 1.7998 0.70231 1 4072
-3.8558 2.8887 -1.3815 0 5848
-3.8518 1.321 0.57228 0 3369
-3.82 -2.8525 0.55752 0 871
-3.7657 1.0062 0.18177 0 2989
-3.6204 2.3233 -0.60457 1 5137
-3.5357 1.2126 0.61411 0 3371
-3.1395 3.5411 0.33092 0 7877
-3.0343 2.1916 0.086901 0 5677
-3.0326 2.7769 0.28754 0 6828
-2.9676 -3.4955 0.86392 0 382
-2.8846 1.7134 0.077895 0 4848
-2.6941 -4.0673 0.80152 0 161
-2.6088 -3.0729 -0.093586 0 377
-2.6085 -3.8877 0.43678 0 165
-2.5173 -2.206 -0.07771 0 654
-2.4671 1.8262 -1.4529 1 5779
-2.4645 -1.8856 -0.072046 1 842
-2.4329 1.9575 0.14562 0 6189
-2.3926 2.1521 0.37633 1 6745
-2.3703 2.8509 0.52106 1 8193
-2.3564 -4.2721 0.45517 0 82
-2.3349 -3.1914 0.27651 0 210
-2.3276 -2.8076 -0.084673 0 355
-2.2518 2.5398 0.15829 0 7875
-2.1947 -3.6225 0.79801 0 114
-2.1389 -4.4048 0.22835 0 65
-2.1372 -4.1533 -0.21782 0 73
-1.802 4.1109 0.41876 1 10685
-1.6523 -4.6816 -0.11526 1 21231
-1.5552 -3.4253 0.70876 2 40
-1.3329 2.8808 0.29614 2 10543
-1.1765 -3.5975 -0.087876 1 21221
-1.0308 -3.6067 0.52719 0 21215
-0.9704 -4.8475 0.81222 2 21200
-0.95619 4.3526 -1.2779 0 11638
-0.86651 3.4625 -0.24959 1 11560
-0.63794 4.2281 0 0 11761
-0.60982 4.2902 -1.4642 0 11772
-0.43653 -3.3158 -0.15596 0 21193
-0.42596 4.9281 0.46149 0 11808
-0.30674 -4.7563 0.89799 0 21168
-0.25698 -3.9846 0.092704 0 21167
-0.19268 -4.1162 0.67702 0 21159
0.0026577 3.807 -0.088387 1 11824
0.11497 -4.0653 -0.094422 0 21115
0.12519 3.8345 -0.63032 0 11830
0.15252 -4.9356 0.34529 0 21113
0.35211 -3.0526 0.50484 0 21093
0.62787 4.7821 0.56403 1 11859
0.63493 -3.8353 0.45461 0 21086
0.80579 -3.0715 0.5217 2 21074
0.82089 -3.2441 0.15605 0 21076
0.84018 -4.7311 0.4483 0 21083
0.86913 -3.7527 0 0 21078
1.0701 3.1507 0.62693 0 12033
1.0702 3.5137 -0.25684 1 11986
1.0943 3.7471 0.54862 0 11971
1.2467 -4.3854 0.64075 0 21072
1.2739 -3.5344 0.087226 0 21064
1.3316 3.0063 -0.22992 1 12168
1.3386 2.7591 0.14301 0 12234
1.4197 -3.4326 0.69987 0 21056
1.5415 3.248 0.2514 0 12212
1.6848 2.6785 -0.22127 0 12555
1.7271 3.8108 0.68739 0 12181
1.7501 3.0082 0.40699 0 12446
1.849 -3.1897 0.43115 1 20959
1.9871 2.722 -0.96638 0 12826
2.0183 -3.4818 0.37547 0 20958
2.1534 -3.8155 0.71982 0 20973
2.3389 4.2125 0.33692 0 12385
2.616 3.5391 -0.72306 0 12846
2.6318 -1.7472 0.44396 0 19708
2.6924 1.7807 0.37749 2 14549
2.86 -3.8105 -0.33316 0 20739
2.8694 -3.2037 0.099853 0 20449
2.9416 1.4366 -0.38283 1 15274
2.9469 3.058 0.098599 0 13396
2.9475 0.7964 -0.070886 0 16530
3.1501 0.13919 0.073207 0 17632
3.1905 -3.3224 0.75678 0 20361
3.2632 3.2157 -0.86318 0 13529
3.2861 3.3721 0.32925 0 13425
3.3012 -1.9392 0.26773 0 19456
3.4196 -2.8049 -0.41263 0 20131
3.4257 -1.2246 0.68543 1 18786
3.4609 2.3476 0 0 14479
3.4728 0.78772 -0.50047 0 16763
3.5142 -1.5867 0.17981 1 19012
3.554 2.1924 -0.292 1 14711
3.6404 -0.3884 0.42813 0 18240
3.701 1.4496 -0.37082 0 15819
3.7943 2.4481 0.74186 2 14612
3.8543 1.1975 0 2 16288
3.9464 0.21926 -1.3355 0 17582
4.0526 -0.43238 0.19006 0 18237
4.0878 0.52584 0.77653 1 17240
4.1197 1.9844 0.75127 0 15319
4.1489 0.02607 0.78171 0 17799
4.1649 -0.80052 0.49596 0 18509
4.2191 1.5148 0.10408 0 16008
4.3147 -1.0128 0 1 18590
4.419 2.2071 -1.2931 0 15235
4.484 -0.49108 -0.10473 1 18246
4.6301 1.5124 -0.45443 0 16194
4.6933 -1.6925 -0.81968 1 18787
4.8211 0.38113 -0.33818 0 17471
4.913 -0.82833 -0.46483 1 18458
-2.6786 1.3105 0.48993 0 4213
-1.791 -1.4885 0.3826 1 732
-1.6258 1.8768 0.29038 0 7996
-0.71175 -2.6977 0 0 21209
0.18467 -1.7308 0.28598 1 21095
-14.989 -0.12034 1.0482 1 1733
-14.953 -0.94078 2.1057 0 1482
-14.953 -0.81505 1.3971 1 1521
-14.898 1.0888 0 0 2099
-14.857 1.8663 1.047 1 2339
-14.72 -0.074506 1.3733 0 1748
-14.705 2.8105 2.4597 0 2637
-14.681 1.2457 -0.34208 0 2148
-14.646 0.0076696 1.0242 1 1770
-14.634 -1.0926 1.369 0 1437
-14.578 1.4474 1.7132 0 2220
-14.425 2.7127 1.0264 1 2619
-14.379 3.1378 2.0684 0 2763
-14.325 1.2155 0 1 2149
-14.317 1.2576 -0.33368 2 2162
-14.265 0.54799 0.99822 1 1943
-14.255 4.209 1.3867 2 3119
-14.156 3.3463 2.7406 0 2851
-14.134 4.669 1.3887 2 3293
-14.12 2.528 1.0031 1 2578
-14.073 -1.6657 0.99096 1 1282
-14.002 3.266 1.3414 0 2833
-13.982 4.4809 0.68468 1 3246
-13.981 1.1027 2.3041 0 2129
-13.901 1.0574 1.9593 0 2118
-13.898 5.4048 1.7439 0 3629
-13.858 4.9782 2.7743 2 3469
-13.833 3.7349 2.6995 0 3009
-13.818 -0.79188 0.9678 1 1506
-13.81 1.1329 0 0 2137
-13.769 4.4551 2.7265 0 3270
-13.76 -0.3483 0.9625 1 1657
-13.75 5.4385 2.0781 0 3669
-13.741 3.6254 1.6619 0 2976
-13.736 1.0039 -0.31975 0 2098
-13.655 6.1481 2.1046 0 3989
-13.653 5.0885 1.7039 0 3536
-13.629 5.3905 2.7614 0 3673
-13.617 5.5211 1.7183 0 3727
-13.607 5.6559 1.3748 0 3783
-13.533 2.0611 1.6008 0 2463
-13.517 -0.14627 0.63037 1 1722
-13.479 5.6023 2.0514 0 3786
-13.413 -1.6255 1.2605 1 1271
-13.373 -1.467 0.62739 1 1314
-13.353 5.414 1.0076 1 3724
-13.343 5.0125 2.6854 0 3560
-13.318 -1.6942 0.93878 1 1251
-13.306 5.2627 1.6733 0 3667
-13.298 -0.68296 0.93111 1 1533
-13.255 4.4196 2.6325 0 3316
-13.25 0.24054 1.2364 0 1854
-13.236 0.47146 0.3075 1 1928
-13.208 -1.9151 0 0 1192
-13.14 1.4995 0.61676 1 2283
-13.105 -1.6671 0.30671 1 1249
-13.035 -1.6582 0.61276 1 1250
-13.026 5.1126 1.3055 1 3647
-13.011 4.9736 1.6289 0 3595
-12.991 0.19501 0.30165 2 1837
-12.971 -2.1519 0 0 1139
-12.925 -1.8371 -0.30309 0 1198
-12.866 0.11902 0.89972 1 1811
-12.805 -0.21233 0.89553 1 1696
-12.772 -1.7382 1.2026 0 1219
-12.767 0.97117 0 0 2113
-12.752 5.3474 1.6171 0 3804
-12.728 -1.5832 0.29779 2 1260
-12.688 -0.35883 0.29468 2 1642
-12.607 -0.60998 1.476 1 1549
-12.516 0.04587 1.1677 1 1785
-12.494 -8.2981 2.4642 2 1039
-12.428 -2.4677 2.3874 0 1089
-12.348 -2.2284 1.1706 2 1103
-12.067 -0.79301 0.28076 1 1468
-11.908 2.9623 0.57223 1 2901
-11.852 6.3605 0.9406 1 4497
-11.824 1.3493 -0.2763 0 2281
-11.81 -0.40211 0.55108 1 1616
-11.795 -9.1261 2.0959 0 828
-11.794 7.7649 0.6585 1 5257
-11.783 -8.2749 0.33428 1 954
-11.749 4.7277 0.59058 1 3704
-11.649 -9.2393 -0.34519 0 796
-11.583 -8.0382 0.65748 1 973
-11.558 1.0153 0.26938 0 2164
-11.525 8.2724 0.66158 1 5651
-11.524 0.44272 0.26776 0 1941
-11.474 4.8491 0.5809 1 3819
-11.421 3.9171 -0.84433 2 3357
-11.391 -0.78254 0.53245 1 1457
-11.325 0.76215 0.26354 1 2071
-11.312 7.1676 0.6245 1 5098
-11.282 -7.8294 1.2812 2 974
-11.209 6.0984 0.59506 1 4543
-11.192 5.8385 0.8827 1 4408
-11.144 9.0758 0.33368 1 6244
-11.107 5.5134 0.86707 1 4247
-11.031 -7.7469 1.8944 0 956
-10.93 8.9016 -0.32727 0 6240
-10.924 -7.7233 2.198 1 949
-10.851 8.7804 0.32407 2 6217
-10.838 8.0666 0.31367 2 5817
-10.792 -0.74137 1.0092 0 1458
-10.777 4.0853 0.53748 1 3570
-10.773 6.5657 0.58835 2 4946
-10.739 9.2206 0.32862 2 6510
-10.72 6.8798 0.59403 1 5152
-10.686 6.4744 0.29009 1 4919
-10.667 -10.316 2.438 1 541
-10.657 9.3097 0.6599 1 6596
-10.65 4.4268 0.80652 0 3781
-10.591 -9.0133 -0.64853 0 696
-10.488 -9.7423 0.66754 1 578
-10.466 2.4413 0.24952 0 2830
-10.362 8.689 0.63065 1 6393
-10.336 8.4658 0.31019 1 6273
-10.33 2.066 -0.49127 0 2672
-10.324 -8.8898 -0.31632 0 680
-10.3 -9.6221 1.981 0 574
-10.286 3.002 -0.24877 0 3101
-10.259 -8.6785 0.93962 1 706
-10.227 7.9901 0 1 6044
-10.081 7.2357 0.28809 1 5649
-9.9443 0.35421 1.6348 1 1932
-9.9319 1.3958 1.6478 0 2411
-9.8609 2.9434 -0.4799 1 3130
-9.8515 -9.0431 2.5195 0 601
-9.811 -9.935 2.294 1 504
-9.7131 5.2848 1.8167 0 4550
-9.6865 4.9121 1.0133 0 4315
-9.6838 -9.4765 1.2641 1 528
-9.66 4.1483 1.9808 0 3870
-9.6531 -10.672 -0.3341 0 431
-9.6295 6.8282 1.1013 0 5595
-9.622 7.977 0.29018 1 6334
-9.6104 -9.2419 1.5592 0 546
-9.5967 4.2186 1.4733 0 3924
-9.5605 0.8667 -1.3491 1 2172
-9.5513 10.225 0.9784 1 7623
-9.546 0.44684 0.89158 0 1983
-9.5062 3.5429 -0.4731 1 3528
-9.4318 -8.9661 1.2141 0 553
-9.3991 5.7666 0.77109 0 4973
-9.375 1.2909 1.783 2 2397
-9.2963 3.3689 -0.69143 1 3474
-9.2946 3.7685 1.8897 0 3733
-9.2556 5.8647 2.0644 0 5109
-9.2319 -1.2023 -0.43416 0 1234
-9.2252 -10.018 -0.95232 1 442
-9.2199 4.1843 1.184 1 4008
-9.1933 1.5632 0.65208 0 2541
-9.1901 -0.84769 -1.0793 0 1363
-9.1693 6.0368 1.5429 0 5265
-9.142 1.855 1.311 0 2694
-9.1396 1.8545 -0.4349 1 2686
-9.135 0.35093 1.0691 1 1945
-9.1206 11.368 2.3945 0 8363
-9.026 9.7711 2.5062 0 7689
-9.016 5.2138 1.218 0 4760
-8.9945 6.7803 0.52527 1 5874
-8.9839 11.814 2.0859 0 8619
-8.8757 5.9171 1.2475 0 5319
-8.8662 11.727 1.7193 0 8648
-8.8502 -1.4905 -1.0495 0 1126
-8.8448 1.2179 0.41636 0 2392
-8.8071 1.3666 1.4643 1 2479
-8.7926 7.4646 0.80652 0 6454
-8.7264 10.37 0.63204 1 8130
-8.6925 -10.239 -0.9392 0 376
-8.6413 -1.4833 -0.20356 1 1121
-8.6038 -1.1449 1.426 0 1231
-8.5967 6.0958 1.9856 0 5603
-8.5291 -9.93 -0.91534 2 386
-8.5256 5.028 1.8649 1 4837
-8.4697 -9.4164 0.88563 1 427
-8.4295 -5.5984 -0.23494 1 1034
-8.4072 0.37 1.1827 0 1971
-8.3986 10.973 1.942 0 8589
-8.3864 -9.5966 1.189 0 404
-8.3853 -8.7441 1.7026 0 478
-8.3741 2.6307 1.6538 2 3221
-8.3666 3.5084 1.4905 1 3807
-8.3414 7.8139 0.53301 1 6946
-8.3357 -9.2674 2.3485 0 430
-8.3332 4.534 -0.66338 2 4535
-8.289 -6.0422 0.95697 0 902
-8.283 -5.3013 1.6157 2 1079
-8.249 8.8305 0 0 7618
-8.2433 7.7681 1.0567 0 6979
-8.2112 -0.37574 1.3505 0 1566
-8.1804 11.788 0.33312 1 9038
-8.1616 7.9146 -0.26395 2 7115
-8.1585 3.7577 0.41888 1 4045
-8.1465 7.7632 1.8488 0 7042
-8.125 3.9156 1.6993 0 4172
-8.122 -5.9553 0.70426 1 894
-8.0606 12.123 -0.67891 1 9226
-8.0478 12.031 0.67499 1 9205
-8.0252 -0.94984 0.37686 0 1281
-7.9964 11.306 0.96836 1 8959
-7.9805 -9.7991 2.3811 0 338
-7.9548 9.8023 1.7742 0 8306
-7.9537 -9.822 2.0764 1 328
-7.9298 9.5379 2.337 2 8197
-7.9252 11.627 0.65617 1 9125
-7.8198 11.408 2.6058 0 9108
-7.8086 12.688 0 1 9538
-7.7972 2.255 0.75726 2 3090
-7.7969 -9.0776 1.6818 2 389
-7.7964 12.342 1.7072 0 9448
-7.7786 7.1628 0.73942 1 6858
-7.7688 2.2939 1.1384 0 3121
-7.7643 -0.80648 0.72827 1 1335
-7.718 12.784 2.8136 0 9629
-7.7087 -10.803 0.61891 1 192
-7.6645 -5.9709 1.5962 2 822
-7.6281 -11.025 0.31126 2 184
-7.6276 12.394 1.3577 0 9544
-7.5332 10.92 1.2377 0 9073
-7.4293 5.7379 0.65641 0 5991
-7.3871 7.6817 1.4978 0 7478
-7.3612 -5.9059 1.5505 0 785
-7.3549 -12.889 0.34454 1 86
-7.3303 5.7933 -0.65334 2 6096
-7.3111 -1.1894 1.041 0 1149
-7.2233 10.093 2.3385 0 8911
-7.2109 0.63341 0.84651 2 2168
-7.2102 6.0823 -0.65962 2 6413
-7.1522 6.248 1.7893 1 6607
-7.1487 8.6968 -0.525 2 8237
-7.1392 -6.1472 -0.65878 1 678
-7.0737 -13.17 -0.69717 0 77
-6.9998 9.096 -0.53524 2 8547
-6.9514 8.5111 -0.76844 2 8264
-6.9457 2.6773 0.52052 2 3608
-6.9262 2.602 1.2156 0 3558
-6.8206 2.5855 -1.1984 0 3561
-6.7479 -7.0367 1.6018 0 479
-6.6863 2.4019 0.49681 0 3459
-6.6288 -8.3875 1.7564 0 290
-6.4217 4.7796 1.5082 0 5828
-6.3271 5.9979 0.81336 1 7009
-6.2076 0.25692 -0.87317 0 1948
-6.1922 -12.033 0.94632 1 74
-6.1395 3.9901 -0.68313 1 5191
-6.0796 5.9329 0.39615 0 7149
-6.0795 4.027 1.1981 1 5294
-6.0731 11.284 2.1053 0 10063
-6.0032 12.051 2.212 0 10328
-5.9414 -0.39046 0.97824 0 1472
-5.8538 6.3016 0.60144 2 7653
-5.7858 -5.7596 0.18954 0 517
-5.7723 7.5009 0.66185 0 8555
-5.6576 6.6102 0.60842 2 8048
-5.6037 -0.87951 0.79718 0 1165
-5.5852 6.5256 1.0045 0 8051
-5.5659 5.183 0.53182 0 6917
-5.4752 -9.0371 1.736 0 113
-5.4729 10.026 1.3357 0 10009
-5.4514 6.632 1.6175 2 8255
-5.4353 4.7232 0.67179 1 6570
-5.4208 0.90616 -0.2563 0 2524
-5.3708 6.3487 0.58149 0 8102
-5.3526 -3.9491 0.46514 0 885
-5.2044 9.1503 1.9833 0 9864
-5.036 9.6823 1.7931 1 10185
-5.0297 11.308 0.8654 2 10643
-4.9832 -3.6538 0.57649 0 895
-4.8665 -7.118 0.80444 0 180
-4.8452 4.1353 0 2 6478
-4.8252 11.649 2.0716 1 10813
-4.7248 5.2052 1.1549 2 7770
-4.7239 6.1385 1.4594 2 8565
-4.7128 10.428 1.6083 0 10608
-4.7082 -7.3847 1.6501 0 143
-4.6951 10.886 1.6662 0 10724
-4.6917 -3.547 0.41128 0 857
-4.6257 -3.7112 0.13769 0 779
-4.6051 9.6592 1.5039 0 10464
-4.482 -6.2397 0.71675 0 196
-4.4299 -9.3969 1.7068 0 58
-4.3026 9.7415 1.4967 0 10668
-4.0969 9.8083 -1.4939 2 10784
-4.0191 -3.2627 0.60538 0 766
-3.6043 -8.5911 1.0895 0 20
-3.5497 8.4984 0.85925 0 10791
-3.5213 -5.2128 0.58689 0 171
-3.4845 4.3153 0.12877 0 8327
-3.1949 -10.704 1.8352 0 21219
-3.1417 -4.5102 0.64278 1 185
-3.0664 4.1319 0.72314 0 8739
-3.0169 -4.002 0.35046 0 234
-2.9832 4.6935 0.7816 0 9423
-2.9636 9.0245 1.5606 0 11281
-2.963 7.5181 0.945 0 10924
-2.9329 -8.3939 1.6753 0 21230
-2.9017 -4.3807 0.122 0 159
-2.899 -6.91 1.2311 0 21
-2.8542 -4.5324 0.87999 0 136
-2.719 5.703 0 0 10455
-2.5752 -9.7607 1.6585 0 21210
-2.5482 5.4276 0 0 10498
-2.49 5.6375 -0.43096 2 10658
-2.4645 13.864 2.3135 0 11725
-2.1858 -8.0896 1.3767 2 21212
-2.0127 -8.7456 0.41851 0 21207
-1.7188 -5.8212 0.56627 0 21217
-1.6974 -5.1446 0.89004 0 21222
-1.6305 -7.171 0.51424 0 21206
-1.5191 -5.3152 0.51574 0 21214
-1.4937 -11.106 1.841 0 21197
-1.3901 -4.9721 0.84821 0 21213
-1.3548 -7.8191 1.3038 0 21199
-1.1911 -5.5417 1.068 0 21204
-1.1299 -5.0423 0.36134 0 21205
-1.051 12.159 2.0051 0 11809
-0.98889 10.104 1.6679 0 11804
-0.8768 -7.3096 0.68684 0 21192
-0.83092 -8.3542 1.3793 0 21185
-0.72485 -8.8355 1.4565 0 21175
-0.72358 -5.38 0.50645 0 21196
-0.60236 5.2141 -1.1157 1 11793
-0.58696 -6.4872 0.6077 0 21180
-0.55833 -5.0331 0.47245 0 21190
-0.48436 -5.0211 0.82876 0 21183
-0.39464 -8.967 1.4746 0 21156
-0.33021 -10.168 1.6715 0 21146
-0.29631 10.413 1.9626 0 11819
-0.2791 8.1974 -0.95917 0 11816
-0.21669 6.3643 1.1998 0 11817
-0.028369 -7.7402 1.2717 0 21129
-0.026465 5.0542 0.83038 0 11822
-0.012774 5.6302 -1.1967 0 11823
0.0050342 7.2113 1.1848 0 11825
0.016401 -7.8309 0.54759 0 21126
0.065433 7.0735 0.82723 0 11826
0.14705 12.036 1.9775 0 11828
0.26147 -5.7581 0 0 21106
0.36539 6.2422 0.58336 0 11834
0.36586 -11.839 0.275 0 21112
0.43445 -5.047 0.35422 2 21097
0.46427 5.4829 0.12775 0 11841
0.47758 -7.945 1.3077 0 21100
0.67165 5.5994 -0.52614 0 11855
0.82244 8.2837 1.3676 0 11845
0.83429 -8.2854 0.97381 0 21096
0.85375 9.151 1.51 0 11843
0.90009 -7.6162 1.26 0 21092
0.93755 -6.4821 0.61104 0 21090
0.94732 -5.6248 0 0 21084
0.96648 9.4819 1.1146 0 11846
1.0951 7.8115 -0.18313 0 11864
1.5132 6.1699 -0.7429 0 11917
1.5468 -5.1591 0 0 21070
1.5589 7.055 1.187 0 11897
1.5609 5.781 -0.55865 0 11947
1.6948 5.1883 0.25453 0 12014
1.7639 -8.5025 1.4267 0 21079
1.7786 5.3373 -0.26236 1 12023
1.8717 10.648 1.7762 0 11871
2.2943 8.5924 1.04 0 11946
2.3488 -11.493 1.9273 0 21080
2.4357 -7.0739 0.69799 1 21065
2.4786 9.401 0.67985 0 11942
2.5891 4.9652 0.52242 0 12320
2.605 -6.3992 -0.48313 1 21057
2.6757 -5.7042 -0.44058 0 21050
2.816 5.5172 -0.14381 1 12292
2.8601 -6.0044 1.0927 0 21049
2.8929 5.1425 0.55048 2 12404
2.9525 -4.5343 -0.37836 0 20895
3.0022 -4.5513 0.50868 0 20883
3.0826 -6.7206 0.68982 0 21052
3.1492 -7.8617 1.5956 0 21058
3.167 -6.1862 1.3094 0 21034
3.2256 3.8935 0.47171 0 13063
3.2916 5.8513 -0.46946 1 12401
3.4264 -3.8014 -0.71925 1 20435
3.4682 -5.1573 0.57983 2 20864
3.4797 -4.0684 0.62605 0 20527
3.4804 -4.3412 -0.65068 1 20643
3.5177 3.7147 0 0 13352
3.531 9.5711 0.95177 0 12073
3.6355 4.743 0 0 12921
3.7257 5.5569 -1.0992 0 12675
3.9461 -5.8349 -0.82374 1 20854
4.0165 -3.5773 0.5018 0 20232
4.0314 -3.3067 -0.85664 1 20128
4.1919 -4.0031 0.9523 0 20286
4.6081 -4.2241 0.29152 0 20251
4.6896 7.4557 1.4471 1 12562
4.7169 -6.5982 -0.7567 0 20797
4.7925 5.7195 1.226 1 13088
4.8197 -3.6385 -0.7062 0 19984
4.8621 -1.2159 0.5861 0 18614
4.8977 2.4462 0.89944 0 15238
4.9519 3.4224 -0.28071 0 14429
5.0099 -2.5274 1.0572 0 19189
5.0223 -4.7394 1.1345 1 20276
5.1316 -0.35253 -0.47988 0 18114
5.1498 0.49677 -1.3544 0 17389
5.2623 1.3551 0 0 16600
5.3058 4.9064 -0.67421 0 13706
5.3255 -3.5356 -0.59637 0 19700
5.3292 -5.8097 0.73552 0 20412
5.4079 -1.0561 0.51406 0 18515
5.5797 2.5888 -0.43012 1 15396
5.5887 -4.4502 0.16586 0 20085
5.5989 2.0644 -0.69783 0 15944
5.5994 -7.3716 1.7441 0 20726
5.6386 -0.55088 0.52856 1 18215
5.652 9.2813 1.0138 0 12503
5.6807 -8.563 1.2017 0 20878
5.6929 -0.60739 -0.94062 1 18236
5.7484 1.8224 0.14001 0 16252
5.7636 0.80797 0.95619 0 17179
5.7782 6.5036 -0.20198 0 13212
5.7901 2.7456 1.0528 0 15355
5.8064 -6.9939 1.063 0 20575
6.0087 2.1574 -0.14822 0 16005
6.0857 2.7159 0.15472 0 15488
6.0883 0.9436 -0.43082 1 17097
6.1153 -0.083257 0.85953 0 17889
6.209 -1.4941 -0.59581 0 18601
6.2498 2.3442 -0.62275 0 15908
6.2989 -3.272 0.1648 1 19224
6.3371 -1.6625 0.61123 2 18636
6.3575 0.61328 0.29785 0 17388
6.3675 1.3105 0.30316 0 16880
6.3868 -0.14271 0.44672 0 17928
6.4944 1.0065 1.0797 0 17109
6.5841 -5.1849 1.579 0 20070
6.6929 0.1028 0.46807 1 17754
6.7528 -11.423 0.9279 1 20949
6.7772 9.686 1.9422 2 12754
6.7787 3.6576 1.4512 0 15062
6.8386 -1.0917 1.1378 1 18440
6.8615 10.566 2.3737 0 12615
6.8713 10.315 2.0362 0 12672
6.88 5.0539 -0.3981 0 14267
6.9303 2.6492 0.86765 1 15883
6.936 -4.4888 0.57772 0 19652
6.956 8.5016 1.8047 1 13046
6.9562 4.9875 1.6127 0 14342
6.9753 -3.2734 0.5388 0 19071
7.0153 -4.1455 1.5353 0 19474
7.0233 -11.27 1.5529 0 20928
7.0795 -0.42556 -0.99676 0 18082
7.0851 1.8482 0.68313 0 16585
7.1142 2.1886 0.87043 0 16314
7.1206 -6.4906 1.5829 1 20250
7.1368 8.8258 2.1385 0 13023
7.1821 -5.6558 -0.63925 0 20061
7.2216 3.2228 -0.92479 0 15482
7.2445 3.3352 0.37192 0 15416
7.2571 -1.6355 1.4016 0 18577
7.2743 -6.3637 1.3583 2 20220
7.3015 8.367 0.77653 0 13174
7.3593 4.3073 0.59628 1 14848
7.3643 1.965 1.436 0 16557
7.3794 6.6281 1.6296 0 13792
7.3837 3.6332 1.5505 1 15271
7.3915 1.5657 0.52834 0 16851
7.4204 2.2347 0.36139 0 16347
7.4426 5.3048 0.63911 0 14351
7.4577 0.95933 1.2354 0 17238
7.4599 10.993 1.8671 0 12702
7.4621 1.5576 -0.71118 0 16859
7.471 -4.0177 1.5982 0 19291
7.4768 -4.9319 1.0474 0 19693
7.4784 -9.4965 1.4136 0 20676
7.4789 9.1962 2.2333 1 13034
7.5229 2.9983 -1.1382 0 15780
7.6124 -4.8946 0.42205 0 19637
7.6474 8.3633 2.1352 0 13284
7.688 -6.7659 0.23777 0 20222
7.7963 -9.2781 0.56515 1 20549
7.8098 8.5919 1.3578 2 13266
7.8123 -10.409 0.30216 1 20740
7.8174 4.6972 0.42531 2 14779
7.8214 -1.7885 0.37416 0 18578
7.8263 -9.7062 0.58145 1 20634
7.8671 -2.7089 1.367 0 18763
7.9271 2.5131 0.77583 0 16255
7.9289 -9.7774 1.7692 0 20626
7.9435 -7.2407 0.50124 1 20247
7.9514 3.1418 1.6108 2 15815
7.9753 7.9976 1.8556 0 13486
7.9931 -9.2962 0.85731 1 20516
8.068 -7.0209 0.24831 2 20211
8.116 -9.4892 2.0515 0 20528
8.1191 0.031176 1.5297 0 17813
8.1241 7.1699 1.5228 0 13829
8.1266 0.031204 0.95035 1 17807
8.134 4.6057 0.87207 0 14939
8.139 -2.2602 1.1871 2 18662
8.169 8.3331 1.64 0 13444
8.2309 5.7569 0.93709 0 14403
8.235 2.3769 1.6149 1 16430
8.2365 -12.034 1.0197 1 20842
8.2621 -1.6389 1.3839 1 18523
8.2669 -11.353 1.6424 0 20778
8.273 8.247 1.9192 1 13500
8.2783 -10.638 0.6286 1 20690
8.2859 7.1876 1.8021 0 13866
8.3209 -12.08 1.3685 0 20836
8.3591 -4.9396 0.45279 0 19468
8.374 -10.831 1.2773 0 20698
8.3956 -11.259 1.3103 1 20750
8.4153 4.1099 1.7645 0 15288
8.4436 -8.7436 1.997 1 20355
8.4722 -10.567 0.31446 1 20645
8.4725 -6.3961 1.4919 0 19989
8.4895 4.0257 1.3205 1 15353
8.5 0.0059364 1.3965 0 17823
8.5203 0.25288 1.606 1 17699
8.5222 -1.0826 0.80147 1 18301
8.5359 -10.407 1.2557 1 20595
8.5592 -2.537 0.83287 2 18696
8.5609 4.4622 0.90068 2 15138
8.6211 -11.28 0.99277 1 20714
8.6704 -7.6763 2.1818 0 20230
8.71 -12.108 1.3915 0 20792
8.715 9.5877 1.8209 0 13268
8.7266 6.8475 1.2972 0 14116
8.741 -9.6977 1.8349 0 20443
8.742 11.614 0.67788 1 12882
8.7478 -1.2154 1.0328 0 18337
8.7746 -9.2951 1.1925 0 20375
8.8285 -9.1422 1.7861 1 20354
8.8294 -9.3532 1.5042 2 20376
8.875 6.9639 1.0525 2 14114
8.9044 9.2401 1.1972 2 13400
8.9388 9.3867 0.60447 2 13370
8.9416 -8.7349 2.3551 1 20307
8.9488 5.1707 0.23995 0 14880
8.9491 -12.002 2.104 0 20754
8.9534 -0.43163 1.4727 1 18043
8.9985 -3.245 1.8023 2 18794
9.0264 -2.0077 1.0814 0 18571
9.0368 -7.0705 2.1618 2 20057
9.0418 -11.903 1.7481 1 20723
9.0722 -5.0828 1.9593 1 19368
9.0831 9.3731 0.91269 1 13411
9.0995 -11.63 2.0753 0 20686
9.1056 5.4001 0.49369 2 14814
9.1058 9.3441 2.1436 1 13432
9.1225 -9.945 0.62934 1 20411
9.1231 1.4972 1.2993 0 17064
9.153 6.2485 1.296 0 14469
9.1682 11.008 1.3365 0 13074
9.1807 -8.2722 1.4451 0 20241
9.1967 -8.8842 2.4092 0 20297
9.2143 6.6505 0.52993 1 14315
9.2192 -8.906 1.1959 1 20293
9.2596 -6.7004 0.53301 1 19900
9.2687 11.602 2.087 0 13003
9.2695 -6.9977 1.9082 2 19990
9.3022 -6.528 0.79467 0 19832
9.3306 -4.9132 0.24483 0 19247
9.3311 -8.9607 1.8182 0 20290
9.3334 -9.1719 2.4655 0 20312
9.3336 -6.2719 1.0491 2 19729
9.3509 9.4329 2.5025 0 13473
9.3676 6.238 0.78699 0 14529
9.3678 -9.8097 2.2285 2 20367
9.3843 -10.004 1.2797 0 20382
9.4037 5.2513 1.2595 2 14973
9.4147 5.1523 0.50049 1 15019
9.423 -5.9432 1.8303 0 19601
9.4271 -3.2166 1.8767 0 18760
9.4306 -6.66 1.8968 2 19851
9.4316 9.458 1.562 1 13484
9.4322 2.694 1.8482 1 16448
9.455 4.4532 0.24265 0 15365
9.4597 -5.5566 1.8025 1 19460
9.4661 -4.572 1.2293 2 19113
9.5029 -0.21233 1.1116 0 17931
9.5246 -9.4716 0.31186 1 20319
9.5322 -6.8143 0.81936 0 19878
9.5471 -8.8531 0.91046 2 20260
9.5491 -3.1045 0.46826 1 18735
9.5509 -6.9927 0.55201 1 19924
9.5593 -10.673 2.6995 2 20454
9.5635 -6.8367 1.3748 1 19881
9.5655 9.2147 2.1821 1 13610
9.5718 6.4102 1.0748 0 14517
9.6013 -11.297 2.0837 0 20537
9.6228 -8.9766 0.61369 1 20264
9.638 -6.5993 0.27119 0 19765
9.6535 9.2995 2.5255 1 13611
9.6571 2.9377 0 0 16327
9.6943 -9.7486 0.31919 1 20328
9.7151 -2.6359 0.93914 0 18653
9.7218 -2.4005 1.171 0 18608
9.7368 -1.584 1.1536 2 18445
9.7398 -6.9166 2.2507 0 19867
9.7588 10.014 0.65207 1 13423
9.76 -2.7397 0.23536 1 18667
9.773 7.2264 1.7082 0 14261
9.775 -10.122 0.98398 1 20351
9.7979 8.4992 1.8229 0 13865
9.8016 4.4772 0.75351 0 15437
9.8258 -9.6558 1.611 0 20310
9.8354 -4.2012 0.24831 0 18946
9.8441 -4.6197 0.50711 1 19070
9.8477 -5.0762 0.25722 0 19213
9.8548 4.2625 2.023 0 15576
9.8602 -6.5041 2.2255 1 19697
9.8606 -9.0388 1.88 0 20254
9.8685 -0.82175 1.3917 0 18173
9.8732 -10.58 2.7265 0 20391
9.8812 -5.4233 2.1237 0 19329
9.8825 -7.4173 1.1528 0 19977
9.8835 -5.727 1.8767 1 19434
9.8899 -10.661 0.67816 1 20396
9.9033 -1.6697 0.46835 1 18460
9.9366 0.1214 0.23072 0 17766
9.9438 -11.102 2.4487 1 20453
9.9454 -4.6672 1.544 0 19073
10.001 -10.782 1.0283 1 20397
10.035 2.7416 0.24153 1 16516
10.051 7.4756 0.58416 1 14241
10.064 -10.302 0.67164 1 20339
10.065 -6.2281 2.23 1 19562
10.074 3.9461 2.0385 2 15834
10.09 -2.3072 1.4546 1 18582
10.096 2.7865 1.4719 1 16503
10.111 7.2977 0.87196 1 14317
10.124 5.4625 0.53645 1 15054
10.128 -8.8132 0.62608 1 20212
10.139 -5.6434 1.6308 2 19353
10.147 4.6714 0.78113 0 15418
10.153 -4.2347 0.25541 1 18915
10.222 -4.9373 0.79383 0 19111
10.239 -2.4034 1.7279 2 18593
10.263 9.6007 0.98273 1 13679
10.272 -6.4413 0.56543 1 19583
10.287 2.8722 0.49807 1 16478
10.292 4.4859 1.8446 1 15553
10.303 3.8358 1.5451 0 15938
10.319 -2.738 2.0115 1 18646
10.324 8.3456 1.8658 0 14035
10.339 -9.8736 2.6936 0 20287
10.345 -10.223 0.33767 1 20313
10.366 3.1533 1.7801 0 16335
10.4 8.0673 1.5392 0 14147
10.402 -10.402 2.7717 1 20327
10.406 0.91408 1.9682 0 17436
10.412 -5.9534 1.119 0 19404
10.42 5.2796 0.81685 0 15203
10.437 4.6949 1.0677 0 15474
10.484 -4.9916 2.1878 0 19097
10.499 -1.5803 2.0004 1 18396
10.501 7.7139 1.8312 0 14277
10.507 -0.87489 0.24478 0 18168
10.53 -5.2385 0.27305 1 19157
10.53 -2.4078 0.75532 0 18579
10.531 -4.8303 0.81015 2 19039
10.55 9.203 2.6377 0 13855
10.559 -9.3485 1.3157 1 20227
10.581 2.9544 1.544 0 16484
10.583 -6.051 2.0028 0 19407
10.608 -9.1727 0.98064 1 20205
10.657 0.47087 1.7525 0 17639
10.681 -5.9037 0.8534 1 19338
10.698 -9.8067 1.354 0 20252
10.704 -10.402 0.69605 1 20298
10.726 -6.468 2.3599 1 19509
10.757 8.4402 0.95608 1 14112
10.761 -5.9897 1.4403 0 19352
10.766 9.1242 0.65813 1 13912
10.857 3.7913 2.1667 1 16074
10.913 3.8473 1.3532 0 16049
10.941 3.2951 1.8774 2 16354
10.972 7.7229 1.2518 0 14385
10.975 -9.6591 1.364 0 20224
10.985 2.9312 1.868 0 16555
10.989 -9.7877 1.029 1 20231
11.005 4.0972 0.54763 1 15932
11.017 -1.6918 1.8313 1 18411
11.023 -5.0165 0.56478 1 19026
11.172 -6.0079 1.1834 0 19287
11.2 -5.2134 1.1526 0 19062
11.217 8.7509 0.66344 1 14127
11.219 4.8154 1.4277 0 15592
11.281 4.4572 1.4184 0 15810
11.291 3.4735 0.5509 1 16311
11.371 -4.7823 0.86261 1 18928
11.851 4.3323 0.58844 1 15973
-4.9252 7.8484 -1.5223 2 9455
2.3766 6.0582 -1.8661 0 12099
3.1573 4.5648 -1.5915 1 12728
4.3748 -3.0701 -1.5325 0 19833
5.1832 -3.9129 -1.8622 0 19988
6.1044 0.5534 -1.6046 0 17417
8.3352 11.073 -1.9479 0 12879
