VERSION .7
FIELDS x y z intensity index
SIZE 8 8 8 8 8
TYPE F F F F F
COUNT 1 1 1 1 1
WIDTH 1026
HEIGHT 1
VIEWPOINT 0 0 0 1 0 0 0
POINTS 1026
DATA ascii
-4.6002 0.92172 -0.43771 0 3004
-4.5352 1.5007 -1.2506 0 3576
-4.527 0.096407 0 0 2509
-4.5241 -0.79202 0.64548 2 1862
-4.2211 1.2768 0 1 3419
-3.9747 2.9144 -0.11443 0 5652
-3.9071 1.8178 -0.40204 0 4231
-3.9 2.2164 -0.737 1 4782
-3.7877 0.97816 0 0 3224
-3.7276 -2.5763 0.74446 1 1709
-3.7004 -2.889 0.32827 0 1533
-3.6663 0.79 -0.43859 0 3049
-3.3859 0.67842 0.65062 2 3012
-3.2231 -3.4275 -0.21941 0 1126
-3.0984 -2.1017 -0.17459 1 1730
-3.0404 0.22327 -0.21318 0 2651
-2.8162 1.4529 0.44535 1 4524
-2.7951 2.7039 -0.09029 0 6836
-2.7182 2.3546 -1.2152 2 6362
-2.6926 3.6416 0.31669 0 8408
-2.5152 -1.6953 -0.070422 0 1742
-2.2798 4.4057 -0.23133 1 9868
-2.2095 3.4232 0.38011 2 9007
-1.9782 4.4725 0.80347 0 10302
-1.8532 -2.9913 0.57812 1 649
-1.8238 3.5518 0.3725 2 9898
-1.6908 3.4377 -0.088944 2 10017
-1.5885 -2.65 0.43422 0 617
-1.5321 4.4776 0.33092 1 10758
-1.5114 -3.6506 0.46205 0 456
-1.5084 -3.0995 -0.32159 1 483
-1.4275 -4.1482 0.40928 0 416
-1.4225 4.0058 -0.098692 0 10698
-1.3472 -2.8296 0 0 479
-1.1523 -3.1404 0.54959 1 423
-1.1508 3.3942 0.58882 1 10777
-1.091 4.8215 -1.2941 0 11086
-0.88575 4.0795 0.78653 0 11095
-0.64438 -3.7074 0.087365 0 278
-0.34787 3.0066 0.21164 0 11205
-0.31698 -3.1701 0.60026 0 207
-0.13554 -3.4965 0.57488 2 150
0.111 4.6754 0.10858 0 11396
0.23275 3.0598 -0.80331 0 11488
0.27776 3.6515 -0.17077 0 11484
0.33873 4.6459 0.54475 0 11480
0.39601 3.5699 -0.76345 2 11565
0.61512 -4.9526 -0.11587 0 6
0.69602 4.0891 0.29005 0 11730
0.74161 3.6484 0.086437 0 11866
1.3505 -3.4533 -0.17292 0 26732
1.7339 -4.2488 -0.214 0 26706
1.8303 -2.4916 0.4345 2 25970
1.8464 -3.6207 -0.37918 1 26478
1.9732 3.17 -0.17413 1 14123
2.4031 -3.7246 0.72825 0 26187
2.5557 -3.1798 0.19025 1 25792
2.5733 3.7823 -0.75159 0 14427
2.6066 -2.722 0.26354 0 25443
2.6537 -2.0077 -0.31044 0 24914
2.6956 -2.2965 -0.49768 1 25158
2.7048 -1.6771 0.14841 0 24413
2.8179 2.3105 0 0 16620
2.8942 -3.4553 0.52709 0 25709
2.9226 -3.2527 0.10152 0 25567
2.9543 2.3382 -0.3515 2 16754
3.0154 -3.9113 0.11466 2 25874
3.0478 -0.68853 0.14571 0 22835
3.0628 -1.3108 0.31082 0 23593
3.0748 1.8032 0.33255 1 17852
3.1221 -2.3196 0.45485 0 24878
3.2637 2.9927 -1.4962 0 16191
3.59 -2.6984 0.31404 0 24903
3.5901 0.5699 0.084394 1 20836
3.6331 -1.407 0 1 23413
3.6349 0.24525 -1.0447 0 21378
3.7007 -1.9528 0.78838 2 24026
3.7969 -0.9502 0 0 22910
3.826 0.15835 -1.2939 0 21522
3.8506 -1.9603 0.10032 0 23945
3.8743 -0.96955 0.75246 1 22917
3.92 -1.8263 -0.50572 2 23757
3.9247 -1.7605 -1.3422 0 23688
3.9426 2.9753 -1.1703 1 16952
3.9991 -1.5488 0.808 0 23424
4.0368 0.9431 -0.19332 0 20311
4.0818 -1.3294 -0.099667 1 23167
4.3875 2.1012 -0.11294 0 18535
4.4076 -1.7531 -0.44254 1 23455
4.6083 -1.5895 0.11318 0 23239
4.8148 -1.1604 -0.23096 0 22877
4.9044 0.48866 0.22984 0 21175
4.9448 0.43523 -1.4234 1 21247
-1.8303 1.3094 0.15737 0 5561
-1.1664 -1.9199 0.42326 0 632
-11.624 -9.2925 -1.0406 1 1492
-11.528 1.4523 0.54186 1 2783
-11.491 7.1582 0.31432 1 5069
-11.482 1.7877 0 0 2860
-11.335 2.9653 1.925 0 3245
-11.09 0.10646 -0.77555 0 2459
-10.926 2.7201 1.5824 0 3190
-10.871 2.9089 0.52481 1 3263
-10.833 -0.46162 1.0116 0 2260
-10.766 9.6532 2.3757 0 6518
-10.725 1.6392 1.5248 0 2856
-10.569 1.7081 -0.49928 0 2878
-10.438 4.3877 1.5913 0 4026
-10.437 -7.0345 0.58695 1 1743
-10.421 0.94835 1.7191 0 2700
-10.4 0.42861 0.4854 1 2573
-10.263 -0.61695 1.2024 0 2207
-10.162 6.5414 2.277 1 5176
-10.09 -7.3688 0.29009 1 1628
-10.089 0.18314 0.94137 2 2499
-10.041 -0.39979 1.8934 0 2275
-10.029 1.799 1.9197 1 2939
-10.003 -0.512 0.93449 1 2233
-9.9328 5.7996 -1.0731 2 4866
-9.8827 0.86984 -0.92558 0 2688
-9.8582 -7.1545 0.2828 2 1636
-9.8478 -0.67654 1.3873 0 2177
-9.8172 1.2663 1.1576 2 2794
-9.8147 10.847 2.0559 0 7474
-9.8032 5.9933 1.072 0 5012
-9.7485 1.0573 -1.3781 0 2737
-9.723 -6.3118 2.1841 0 1790
-9.7227 0.20706 1.8323 1 2515
-9.7149 -6.3888 0.54223 1 1771
-9.6654 3.5447 0.71989 0 3754
-9.6645 -6.7596 1.9377 1 1692
-9.6276 1.4131 1.8334 0 2841
-9.6083 2.9651 0.70315 0 3452
-9.5953 -6.8797 0.27412 1 1652
-9.53 0.1181 0.66645 0 2477
-9.3858 -6.4098 0.53003 1 1722
-9.3842 3.7857 -0.47189 0 3934
-9.3461 10.275 1.2958 1 7444
-9.3381 3.4246 -1.3979 0 3748
-9.3059 3.5946 1.402 0 3863
-9.2895 5.7867 1.5381 0 5076
-9.2815 10.753 1.9963 1 7694
-9.2606 -0.74509 1.7504 0 2135
-9.128 11.48 1.3683 0 8087
-9.1197 0.88134 -0.85479 0 2709
-9.1066 10.55 2.6258 0 7697
-9.1038 -9.8037 1.5645 0 1113
-9.0745 -1.0211 1.0679 0 2033
-9.0417 -11.813 2.8028 2 901
-9.0358 8.3936 1.7333 0 6665
-9.0267 -7.4331 1.0909 2 1456
-8.9708 1.5028 0.63604 1 2897
-8.9434 -0.56267 0.83603 1 2196
-8.8931 7.9346 1.1119 2 6488
-8.8148 -1.7534 1.4766 0 1819
-8.7928 11.13 2.3303 0 8118
-8.7908 -10.088 2.1984 2 1050
-8.7865 6.8426 1.5651 0 5898
-8.7382 7.5214 1.3483 1 6342
-8.7174 8.433 1.7046 0 6846
-8.7088 6.6608 0 0 5817
-8.6825 10.173 1.8797 2 7748
-8.6568 7.8578 1.9208 1 6565
-8.6491 11.415 2.6984 2 8311
-8.6402 -11.031 2.3021 0 924
-8.5838 11.399 2.0055 2 8333
-8.5392 12.273 2.1012 0 8683
-8.5228 9.8738 1.2169 2 7690
-8.4859 7.836 1.6233 1 6641
-8.4835 9.6565 2.1118 1 7614
-8.453 -12.262 1.0415 2 782
-8.4272 -7.5295 1.5882 2 1339
-8.4264 -10.507 1.575 2 942
-8.4227 2.7872 1.6716 2 3583
-8.4116 6.2061 1.4691 0 5684
-8.3562 5.6533 1.4179 2 5355
-8.3497 10.699 2.557 0 8172
-8.3378 -6.5848 0.49546 1 1512
-8.2751 -11.151 2.6162 0 873
-8.23 -11.361 0.65422 1 839
-8.2267 1.6245 1.3777 0 3001
-8.217 -11.343 1.638 0 841
-8.2103 -12.049 2.0492 1 764
-8.2085 6.1654 1.2005 1 5754
-8.1613 -6.4085 0.72561 0 1522
-8.1078 11.722 2.3417 1 8710
-8.0979 8.794 1.6801 2 7387
-8.094 4.9484 1.5586 1 5018
-8.0919 7.1743 1.2646 1 6465
-8.0909 -12.187 1.0229 1 725
-8.0779 -7.2632 0.25221 0 1326
-8.0664 -10.232 1.2156 1 926
-8.0583 -0.88537 0.94802 0 2042
-8.0539 -9.6907 -0.29255 0 979
-8.0329 8.2344 2.1674 1 7110
-8.0025 -6.5127 1.2066 0 1473
-7.995 4.6048 1.5158 1 4840
-7.989 8.8851 1.3973 0 7499
-7.9645 1.074 1.5142 0 2810
-7.9595 3.901 1.6701 1 4386
-7.9331 10.792 1.2496 2 8435
-7.9291 -10.488 0.91939 1 886
-7.9138 2.2663 0.57563 0 3350
-7.8973 8.0448 1.5843 2 7079
-7.8966 -12.113 2.0322 1 706
-7.8895 -8.8488 1.3864 0 1069
-7.8892 8.2297 1.3332 0 7184
-7.8879 -11.366 0.64518 1 787
-7.8821 4.0352 1.2445 1 4504
-7.8735 7.4874 1.527 1 6771
-7.8658 7.2634 1.759 2 6643
-7.8377 -5.8314 1.605 2 1610
-7.8175 -9.5716 1.153 2 960
-7.8053 5.551 1.3461 1 5543
-7.7933 -9.3771 1.4259 0 982
-7.7911 -10.56 1.8443 0 864
-7.7681 2.128 1.5175 0 3298
-7.7627 -11.119 0.94827 1 793
-7.6862 11.047 1.2555 0 8679
-7.6693 12.674 2.4338 1 9270
-7.6568 -12.359 1.0166 1 646
-7.632 -12.252 2.3715 2 655
-7.6221 -6.2032 0.45829 2 1470
-7.5968 1.0028 1.0769 0 2802
-7.5909 7.8689 1.2786 1 7159
-7.5781 -0.16932 0 0 2334
-7.5683 8.9749 1.3729 0 7806
-7.5578 -0.83038 1.0686 2 2043
-7.5425 5.4298 0.86705 1 5587
-7.5273 -12.15 2.6929 0 650
-7.5198 -9.889 1.4528 0 894
-7.5118 9.5081 1.1305 1 8113
-7.5033 -9.6942 1.1437 2 909
-7.4823 6.2917 1.8419 1 6245
-7.4329 2.3165 1.0942 2 3471
-7.3987 10.187 2.3722 0 8499
-7.378 -0.98182 1.4023 1 1985
-7.3306 10.213 1.1729 2 8547
-7.3272 -7.6622 1.2398 1 1148
-7.3046 3.0197 0.92433 2 3992
-7.2992 1.6182 1.4086 0 3081
-7.2875 -6.0374 1.1067 0 1447
-7.283 -6.2843 0.4486 0 1381
-7.2688 -7.4669 1.9634 2 1168
-7.2615 -7.3739 0.96552 2 1178
-7.2395 4.687 1.6249 2 5200
-7.1976 -5.9269 0.43481 0 1454
-7.1737 -9.9612 2.0168 0 836
-7.1679 5.7159 -1.2885 0 5980
-7.1637 10.625 1.8009 2 8825
-7.1564 11.233 1.5576 2 9061
-7.1467 12.882 -1.3744 2 9623
-7.1293 -9.4919 -0.5536 0 880
-7.1255 -9.9602 1.4321 1 827
-7.1154 -12.265 1.6582 0 580
-7.0771 6.5742 0.45046 0 6659
-7.0687 -6.3157 1.786 2 1341
-7.0272 0.86532 -0.33018 0 2775
-6.9476 -7.566 1.2012 2 1103
-6.9441 0.89571 0.65322 1 2793
-6.9355 4.1278 0.75298 0 4935
-6.9172 -11.852 1.6047 2 587
-6.9134 -0.75958 -0.48634 1 2038
-6.8597 -8.2537 1.7632 1 984
-6.8431 1.5397 0.82026 2 3091
-6.8355 -6.257 1.0837 1 1303
-6.833 10.586 1.4735 0 9009
-6.8202 -10.949 2.4303 0 656
-6.7838 1.6061 1.3135 2 3145
-6.7527 3.2151 0.87461 1 4300
-6.7468 11.381 1.2343 0 9354
-6.73 -11.924 2.2496 0 551
-6.7099 -5.6223 1.6493 2 1431
-6.6723 8.7491 -0.25546 0 8269
-6.6665 1.1359 0.63092 0 2906
-6.6507 -0.59239 -0.62293 0 2097
-6.6479 -5.6378 1.0193 0 1411
-6.6462 4.3591 1.4975 2 5245
-6.6393 -11.836 0.94897 1 540
-6.6303 10.476 2.3359 0 9093
-6.6208 2.9644 0.33829 0 4135
-6.6129 -10.404 0.86205 1 673
-6.6082 -10.397 2.3211 1 678
-6.6039 -5.4033 0.39792 0 1463
-6.5724 6.0691 0 0 6632
-6.5075 -11.53 0.92581 1 548
-6.4966 -0.14516 0.15087 0 2335
-6.4432 0.37828 0.14985 0 2616
-6.4083 -11.354 1.8324 0 550
-6.3967 7.9077 1.9163 2 8012
-6.3927 0.97708 0.30158 0 2854
-6.388 -4.3055 0.90086 2 1746
-6.3742 3.4049 0.67421 2 4619
-6.348 -6.4126 1.7001 0 1186
-6.3409 -11.463 0.6109 1 529
-6.3078 -5.7035 1.3972 2 1321
-6.2066 -10.846 2.0531 1 567
-6.1868 9.4689 1.3227 0 8960
-6.185 5.8817 -0.59684 0 6759
-6.1611 4.0409 0.17106 0 5233
-6.131 6.6979 1.4918 0 7419
-6.0865 -6.7859 1.7175 1 1079
-6.0681 -4.7103 0.89831 2 1546
-6.0559 0.32056 -0.1408 0 2600
-6.0393 9.605 1.8641 0 9116
-5.9848 0.35137 0.70109 0 2618
-5.9399 -10.589 1.9947 0 543
-5.824 3.2429 0 0 4728
-5.7906 8.4761 0.23833 0 8755
-5.7902 -4.5728 1.3901 0 1517
-5.7624 5.2581 -0.91225 0 6572
-5.6862 0.20254 0.26534 0 2552
-5.6846 0.58344 -0.13267 0 2723
-5.6609 -5.6156 1.5023 2 1197
-5.5777 0.053544 0 0 2461
-5.5249 -6.34 0.58805 0 1046
-5.5205 -5.2296 1.4327 0 1254
-5.5137 2.2243 -0.69528 1 3932
-5.4884 -12.539 0.63829 1 464
-5.4864 -4.933 -0.1713 0 1325
-5.4859 3.7591 0.1544 0 5393
-5.4632 -6.851 1.4396 0 937
-5.3708 3.6802 1.0697 0 5405
-5.3477 -7.0735 0.8273 0 887
-5.3088 2.2142 0 0 4002
-5.2878 -0.39573 -0.12311 2 2148
-5.2714 4.4075 -0.48048 1 6202
-5.2652 -4.4921 -0.48397 0 1397
-5.2247 0.080251 0.4875 0 2491
-5.2237 2.6742 -0.13625 0 4494
-5.2109 7.2597 -0.41674 0 8538
-5.1292 5.3505 -0.51829 0 7173
-5.0527 -3.3863 0.71131 0 1755
-5.0392 2.8429 -0.40459 0 4767
-5.0349 0.94863 -0.35827 2 2960
-5.0174 -9.8007 1.8089 0 495
-5.001 6.1824 0.18462 0 8000
-4.9836 1.5075 0.12088 0 3420
-4.95 5.975 -0.54257 0 7884
-4.9215 8.6352 0.46351 0 9522
-4.8795 -5.9383 0.17844 1 965
-4.8025 5.1285 0.16313 0 7292
-4.7822 -3.536 0.41589 0 1615
-4.775 -3.1199 0.80164 1 1782
-4.7729 2.4099 -0.49883 0 4448
-4.7517 -9.2816 0.24209 0 494
-4.6894 6.1158 -1.2662 0 8229
-4.6339 -6.8908 0.77472 0 743
-4.5989 -5.4672 0.33316 0 996
-4.5782 9.6591 -0.24817 0 10117
-4.5693 5.9591 1.2337 0 8254
-4.5554 -5.816 0.86393 0 923
-4.5163 10.054 1.549 0 10266
-4.5014 3.8993 0.69644 0 6367
-4.5012 10.583 -0.26702 0 10377
-4.4972 5.7935 0.68424 0 8192
-4.4511 -8.2151 -0.8717 0 516
-4.4189 5.7277 0.33736 0 8216
-4.2958 -8.8942 -0.46062 0 482
-4.2219 -5.9014 -0.33838 0 823
-4.2191 -5.4158 -0.48006 0 913
-4.1683 7.1705 0 0 9432
-4.1682 4.5265 -0.28695 0 7373
-4.1598 -9.5806 -0.48708 0 463
-4.1086 -4.8004 0.44184 0 1018
-4.1018 -5.3282 -0.15612 0 902
-4.0147 8.6647 -0.44534 0 10183
-4.0001 -5.6579 0.48453 0 809
-3.9747 -8.8772 1.367 0 468
-3.9569 -10.406 1.5646 0 433
-3.952 -4.5351 -0.28053 0 1043
-3.8953 -6.4983 1.2448 1 618
-3.8343 7.7378 -0.20049 0 9998
-3.8217 -9.9612 1.4995 1 436
-3.7739 9.8931 0.49378 1 10582
-3.7666 6.8826 0.18216 0 9682
-3.7236 6.1532 0.3354 0 9260
-3.6835 -4.2017 1.0528 0 1055
-3.6645 6.6056 -0.17538 0 9628
-3.601 9.6108 -0.23828 0 10613
-3.5966 -4.0795 -0.12627 0 1057
-3.5274 10.028 0 0 10712
-3.4993 6.223 0.83489 0 9584
-3.4917 3.9052 0.12162 0 7521
-3.4777 8.4542 -0.21224 0 10443
-3.4625 11.772 -0.28489 0 10932
-3.4596 10.013 1.7405 0 10748
-3.3909 -10.241 0 0 406
-3.3598 4.1534 -0.24913 0 7994
-3.2501 10.591 1.2955 0 10898
-3.1199 8.0395 -0.20022 1 10547
-3.0657 5.6817 0.75498 0 9739
-3.0093 7.1906 0.91155 0 10415
-2.9451 4.2581 0.36204 0 8702
-2.9218 -9.0839 1.3411 0 401
-2.8992 -7.7583 1.5605 0 430
-2.8747 -5.9071 0.6129 0 484
-2.8367 -4.4356 -0.36817 0 679
-2.8001 -7.5655 0.94338 0 426
-2.7859 6.0127 0.30903 0 10187
-2.6041 9.9052 1.9297 0 11028
-2.5502 -9.4123 0.90978 0 375
-2.5065 -5.3459 0.55085 0 473
-2.4614 4.9303 0.38533 0 9983
-2.3881 -5.637 0 1 462
-2.3593 10.162 0.48652 1 11079
-2.3473 -6.9547 0.6848 1 410
-2.3015 -7.9424 1.3586 0 387
-2.2919 -8.4589 1.2317 0 376
-2.2208 -5.9431 0.59191 0 428
-2.2202 -10.581 1.5195 0 308
-2.1814 -9.2063 1.5544 0 332
-2.1806 -5.1848 0.7905 0 461
-2.1695 -5.8617 0.14511 0 424
-2.056 6.6997 -0.16271 0 10896
-2.0519 9.0682 -0.21586 0 11085
-2.0391 9.3917 0.67203 0 11094
-2.0286 8.2965 0.79683 0 11051
-2.0075 -6.7085 0.32655 0 390
-1.9391 -5.3802 0.6688 0 421
-1.9263 -5.8177 -0.14228 0 405
-1.9148 6.9515 0.5042 0 10996
-1.8007 -7.044 1.0218 2 358
-1.7992 -7.3973 0.71025 0 342
-1.7881 -9.1734 0 0 298
-1.7181 -7.0641 0.16879 0 340
-1.7158 -11.239 1.868 0 257
-1.7091 -4.9217 0 0 417
-1.6875 10.74 -0.76021 0 11148
-1.61 -7.5616 0.54061 0 311
-1.6061 -9.2407 0.87504 0 279
-1.6017 -4.8374 0.83719 1 407
-1.589 7.6459 1.283 0 11101
-1.574 11.059 -0.78113 0 11173
-1.5668 -6.1289 0 0 355
-1.5566 7.2669 -0.69335 0 11097
-1.5134 -7.7641 1.1117 0 299
-1.48 8.168 -0.38711 0 11124
-1.4322 -5.5378 0 0 361
-1.4182 7.5928 -1.4553 0 11120
-1.3698 -10.843 1.7956 0 234
-1.3525 12.29 1.1535 0 11213
-1.2836 -5.021 0.85146 0 359
-1.2618 -10.741 1.009 0 222
-1.2587 9.8663 -1.1631 0 11189
-1.2471 7.6408 -0.17974 0 11143
-1.2155 6.4023 1.0706 0 11116
-1.1033 -7.992 0.18731 0 243
-1.0965 -5.0845 0.48527 0 314
-1.0698 -6.863 0.64801 0 261
-1.0636 9.1925 -0.86334 0 11204
-1.045 -6.2313 0.14669 0 269
-0.89133 -7.2177 1.1948 0 228
-0.8752 -8.7529 0.61511 0 205
-0.85758 -5.5015 -0.25966 1 260
-0.85393 9.2401 0.21544 0 11233
-0.84959 -7.0412 -0.33074 1 224
-0.84129 10.082 -0.4718 0 11243
-0.82191 11.41 0 0 11260
-0.81317 -7.6852 1.0861 0 213
-0.76318 7.1295 -0.33438 0 11216
-0.75466 -6.4241 -0.15017 1 221
-0.72826 -9.5298 0.44571 0 189
-0.6886 -11.1 1.8271 0 179
-0.61734 5.2081 -0.12176 0 11201
-0.59704 9.9032 0.46267 0 11271
-0.58923 -9.4977 0 0 177
-0.58649 -6.6502 0 0 196
-0.52677 -10.435 1.7165 0 165
-0.51439 -10.189 1.1931 0 164
-0.35562 -8.5563 -0.19882 1 153
-0.34586 9.3873 -1.3202 0 11301
-0.31092 -8.0204 0.56126 0 149
-0.30248 -5.1368 0.48007 0 174
-0.26749 9.5166 1.5641 0 11313
-0.23338 10.364 -0.72491 0 11316
-0.20301 5.0766 0.95724 0 11300
-0.15157 -11.896 1.672 0 119
-0.14885 13.536 0.6313 1 11334
-0.12081 10.987 0.7683 0 11335
-0.10626 -8.3393 0 0 118
-0.072872 -7.4556 -0.17311 0 116
-0.050309 6.2661 -0.14549 0 11338
-0.043529 5.4217 -1.2847 0 11341
0.006499 9.3095 0.21614 0 11358
0.00682 9.7694 -0.22682 0 11356
0.014768 -7.0508 0.49304 0 107
0.056712 -7.5565 1.2415 0 100
0.096566 -5.9487 0.83615 0 94
0.10041 6.537 -0.91882 0 11380
0.10103 8.2692 0.192 0 11377
0.10635 -10.155 0.9475 0 97
0.17924 -9.3351 1.534 0 92
0.20466 7.7127 -0.90226 0 11399
0.24317 -8.7603 -0.20347 0 86
0.2673 -9.6296 1.3539 0 87
0.3847 -10.491 0.97945 0 82
0.40801 -7.1413 0.66734 2 64
0.55022 -9.6303 0 0 63
0.57765 -7.4732 0.69929 0 44
0.63423 -4.9924 0.82681 0 4
0.64078 -9.7503 -0.45568 0 49
0.65506 -9.5351 0.44571 0 48
0.66792 -7.2689 1.3753 0 30
0.67636 12.174 2.0032 0 11453
0.73594 10.446 1.973 0 11474
0.80404 -9.0269 0.8455 0 32
0.8175 5.5765 -1.198 0 11654
0.83979 -7.6681 -0.17909 0 20
0.90073 5.586 0.9296 0 11704
0.94204 12.384 1.7455 0 11489
0.94329 -7.5732 0.3559 0 27059
0.9676 8.2492 -0.19284 0 11574
0.97985 9.8342 -1.3889 0 11534
1.0302 -6.0976 0 0 26997
1.0896 -5.0871 0.9802 0 26939
1.1036 -6.8903 -0.16201 0 27011
1.1097 -6.4513 0 0 26992
1.1246 9.5878 -0.45018 0 11572
1.1694 5.3543 0.90042 0 11940
1.2208 8.0063 0.94709 0 11672
1.2491 -8.1061 0.19042 0 27019
1.264 -7.3481 0.17311 0 26993
1.2774 -7.8261 1.3028 0 27007
1.3184 7.7454 -1.1042 0 11722
1.3215 -10.12 1.4343 0 27052
1.3794 -9.1319 1.7401 0 27023
1.3892 -8.3733 -0.19706 0 27002
1.4902 6.3735 0.76543 0 12029
1.5559 -6.8817 0.65823 0 26924
1.5696 -7.4417 0.53182 0 26943
1.5947 6.6477 -0.6378 0 12054
1.5991 -6.3757 0.76869 0 26898
1.6163 6.8323 0.49095 0 12046
1.6513 6.628 -0.31854 0 12098
1.6536 -5.283 0.9095 1 26848
1.6618 10.306 0.97388 0 11701
1.709 -6.1376 0.29711 0 26871
1.7657 13.111 0.92511 1 11623
1.8323 10.564 2.02 0 11743
1.8327 -9.2136 1.5434 0 26960
1.8694 6.3231 1.0833 0 12350
1.8876 7.5764 0 0 12100
1.8992 5.0447 -1.4111 0 12765
1.9069 -5.0894 0.63558 0 26762
1.9077 -9.8786 1.653 1 26967
1.9539 -8.6419 0 0 26922
1.9592 11.295 0 0 11736
2.0141 -6.2995 1.2461 0 26839
2.03 -4.6246 -0.23553 0 26637
2.0324 5.5001 -0.27344 0 12719
2.0592 -6.925 0.67402 1 26859
2.0637 -8.4401 0.60758 0 26904
2.0663 10.65 1.7824 0 11820
2.1004 12.11 0.57316 1 11739
2.1556 7.6126 0.18369 0 12275
2.1893 8.2745 1.4062 0 12181
2.2304 11.306 1.3476 0 11836
2.231 6.9488 1.199 0 12477
2.2743 -6.2894 0 0 26778
2.2879 -8.2166 0.59642 0 26872
2.3315 -6.2227 0.61996 0 26761
2.3914 6.3053 -0.47155 0 12777
2.4169 -13.834 2.3073 0 26988
2.4175 6.0997 -0.76729 0 12878
2.4368 8.7043 1.703 0 12266
2.4751 -4.6549 0 0 26416
2.5117 -7.5636 0.93199 0 26822
2.5253 5.8244 -0.14739 0 13073
2.5367 -7.9342 0.77713 0 26838
2.63 -8.9417 1.3099 0 26863
2.663 6.5028 -0.98757 1 12949
2.6695 12.57 2.421 0 11913
2.6864 -10.343 0 0 26888
2.6931 -8.11 1.404 0 26823
2.7025 -12.813 1.2217 0 26944
2.7164 -6.6037 -0.49932 0 26700
2.7614 9.971 1.4541 0 12245
2.7732 -6.0768 0.46709 0 26600
2.824 -7.5372 1.1312 0 26763
2.8315 6.6384 1.0143 0 13049
2.8624 -10.758 0.51913 1 26882
2.8799 7.8611 0 0 12702
2.8885 -4.5357 0.62884 2 26202
2.9337 -9.866 1.9393 0 26860
2.981 9.2848 0.90978 0 12473
3.0259 6.8187 1.2256 0 13137
3.0546 8.1137 0.20128 0 12759
3.0747 -8.9043 1.7749 0 26802
3.089 5.8712 0.15403 0 13583
3.098 -7.987 0.79924 0 26741
3.1092 8.1979 1.6519 0 12795
3.1131 -9.0156 0 0 26800
3.1942 8.4221 1.2659 0 12791
3.1983 8.0699 -0.40481 0 12882
3.2534 7.687 1.5727 0 13035
3.2727 -4.2451 -0.24997 0 25873
3.2984 10.708 2.1111 0 12415
3.3066 -7.0813 1.284 0 26580
3.3352 -10.126 1.4983 0 26826
3.339 -9.2341 1.85 0 26783
3.3419 -9.8619 1.9619 0 26813
3.4418 12.872 0 0 12192
3.4637 13.749 -1.3228 0 12110
3.4839 9.4284 -0.70287 1 12718
3.5154 -10.274 1.784 1 26806
3.5357 4.573 -0.1342 0 14916
3.5428 -8.27 0.83937 0 26670
3.5514 -5.3676 -0.60045 0 26135
3.5736 -4.2922 0.78494 0 25722
3.6158 6.7775 -0.35823 0 13621
3.6337 -5.5255 0.61699 1 26151
3.6525 3.5076 0 0 16010
3.7045 4.4086 0.13369 0 15210
3.7089 -7.4357 0.97172 0 26504
3.7891 7.254 0.57228 0 13564
3.8038 9.1336 0 0 12991
3.8088 -3.8168 -0.25146 0 25380
3.8398 4.6251 0.42035 0 15171
3.8737 -11.321 0.55798 1 26804
3.8878 4.6563 0 1 15189
3.8882 3.6898 -1.1394 0 16069
3.8917 -9.1505 -0.69533 0 26675
3.9304 4.5167 -0.41868 1 15326
3.9505 8.6967 1.5693 0 13192
4.0402 3.3127 -0.73428 2 16612
4.0611 13.588 2.33 0 12367
4.0821 3.8307 0 0 16102
4.1122 2.8485 -1.4344 1 17287
4.1263 2.8935 0.35241 0 17240
4.1941 -2.7362 -0.35018 0 24539
4.2553 4.6147 -0.29273 2 15546
4.3055 7.1911 0.58609 0 13983
4.3152 2.633 0.95242 0 17725
4.3525 5.1505 1.2705 0 15242
4.493 -5.057 -0.31546 0 25589
4.5622 -11.464 0.28647 1 26724
4.6539 13.679 1.0104 1 12572
4.6818 -2.3834 0.86313 2 23952
4.7061 5.8032 0.69706 0 15097
4.7548 -5.0794 -0.97783 1 25483
4.7785 8.7101 1.6322 2 13712
4.8009 -2.8983 -0.26152 0 24344
4.84 1.4007 -0.11698 0 19919
4.8507 -1.8475 0.12051 1 23386
4.8823 -8.4598 0.91127 0 26317
4.8932 7.663 1.0632 0 14229
4.9034 6.9872 0 0 14554
5.056 -10.362 -0.53767 0 26528
5.0659 3.0523 0.13732 0 17761
5.1057 -2.7687 -0.95424 1 24070
5.1101 0.15345 0.23841 0 21591
5.1231 6.3537 -0.18949 1 15069
5.1539 -8.581 1.6446 1 26269
5.1636 9.744 1.5498 0 13610
5.1957 6.6838 -0.19655 0 14939
5.2048 -12.34 0.31093 1 26680
5.2464 -0.54493 0.12246 0 22349
5.2528 -0.59198 0.74291 2 22393
5.286 0.93207 1.0113 0 20725
5.3012 11.579 0.29566 1 13201
5.3591 -0.18059 0.25006 0 21984
5.4132 -6.7737 1.014 0 25808
5.4158 -10.046 -1.0647 0 26393
5.4252 13.922 2.4548 0 12858
5.4413 4.9286 1.2062 0 16242
5.485 -5.9964 0.95035 0 25536
5.5468 1.5696 1.0861 0 19976
5.5521 7.9116 0.2244 0 14556
5.5783 3.747 1.104 1 17410
5.6025 11.783 1.5258 0 13300
5.603 0.085084 -0.5228 0 21671
5.6191 6.6493 -0.20212 0 15230
5.6276 0.66009 0.39622 0 21075
5.6405 -10.68 1.9844 0 26436
5.6612 13.594 2.0695 1 12998
5.6634 12.655 2.2778 1 13155
5.6906 6.3512 -0.19799 1 15436
5.6962 12.728 2.6273 0 13157
5.7203 2.4801 0.43598 0 18872
5.7282 -7.1679 0.64162 1 25806
5.7349 -0.91653 -0.27084 0 22603
5.7863 12.839 0.65673 1 13165
5.7998 -6.0564 0.78234 1 25444
5.8068 -13.228 1.0102 1 26639
5.8165 4.1826 -0.3341 0 17137
5.8372 -3.7116 1.1365 1 24484
5.8633 -0.062427 0.41003 0 21836
5.8706 0.24297 -0.274 0 21521
5.8832 -4.0844 1.1767 1 24715
5.9076 -8.1911 1.181 0 25999
5.9171 4.4105 0.17134 0 16994
5.9211 -7.7726 1.6053 0 25903
5.95 -7.4029 -0.44292 0 25790
5.9557 -4.7272 0.35459 0 25021
5.9842 -11.734 2.4818 0 26485
6.0031 -8.8499 0.74779 0 26096
6.0084 11.338 2.1082 1 13612
6.0173 -1.5059 1.0191 1 22916
6.0416 11.164 0.59198 1 13663
6.0753 -8.5742 0.98038 1 26027
6.0799 -0.95209 0 0 22592
6.1022 1.0409 0.14372 0 20755
6.1539 2.5415 0 0 19015
6.1847 -1.7583 1.0564 0 23039
6.1865 -2.69 0.7889 0 23623
6.1879 6.8291 -0.21396 0 15484
6.229 -11.715 2.1799 1 26424
6.2483 4.8887 0.74016 0 16812
6.2887 -11.496 0.61108 1 26378
6.3016 -6.6545 1.7267 0 25470
6.3203 -4.07 -0.70133 0 24506
6.3449 7.8241 0.7044 1 15095
6.3465 2.3037 0.94888 0 19388
6.3719 -7.3897 1.1411 1 25648
6.3868 -0.38392 0.44742 2 22132
6.4009 -6.0193 0.61442 0 25297
6.4087 -6.8869 0.21841 0 25498
6.4284 -0.21662 0 0 21982
6.4615 2.7587 1.1543 1 18924
6.4657 5.7892 1.2197 0 16285
6.5022 -8.3856 0.24636 1 25861
6.5219 11.888 2.5547 1 13714
6.5422 9.5618 0.81015 0 14463
6.6185 -5.6049 1.0142 1 25153
6.623 9.3817 2.1637 0 14593
6.6409 -12.406 1.9776 0 26410
6.6447 -8.9929 1.0432 1 25958
6.6616 3.0485 -0.17009 2 18692
6.6692 -10.404 2.0304 1 26195
6.6822 -6.5437 1.5366 2 25355
6.6964 -3.2646 0.52094 0 23856
6.6985 -4.3417 0.55819 2 24530
6.6986 12.05 1.9376 0 13752
6.6987 8.3077 0.74625 0 15074
6.7139 12.157 2.2817 2 13733
6.7211 -8.4587 1.5184 0 25821
6.7403 2.492 0.33512 0 19339
6.7636 -7.8828 1.7065 0 25662
6.7668 -8.0787 0.98317 2 25707
6.8045 3.8592 0.9148 1 17959
6.8138 8.5051 1.7905 2 15060
6.849 11.072 1.5225 0 14109
6.8845 8.8022 0.78141 1 14967
6.8992 12.493 0.99794 1 13726
6.9251 -6.4781 1.3327 0 25292
6.939 -3.0663 0.88716 2 23655
6.9684 8.593 2.0844 2 15102
6.9949 10.159 0.86247 1 14488
7.0006 -0.56079 0.98702 1 22242
7.0284 1.2811 1.1738 0 20686
7.029 7.6226 0.48354 1 15550
7.045 13.205 2.1035 0 13630
7.0498 -4.3984 0.97172 0 24434
7.0708 -9.3357 1.0926 2 25911
7.0768 -1.879 1.029 1 22963
7.109 -8.4872 1.556 2 25710
7.1286 0.94103 0.5028 0 20993
7.1301 12.996 1.0366 2 13704
7.1395 -6.3722 1.803 1 25230
7.1403 -10.598 1.4944 0 26110
7.1563 1.3898 0 0 20595
7.1913 12.421 1.6784 1 13876
7.1944 3.916 0.38198 0 18095
7.2033 -2.887 0.724 2 23475
7.2394 5.2694 0.62613 0 17094
7.2609 -2.0875 1.4234 0 23054
7.2797 9.5283 0.55919 1 14873
7.2958 10.796 0.91116 1 14417
7.3314 13.001 2.0976 0 13792
7.3493 -4.4369 0.80091 0 24351
7.3721 8.7238 0.53263 1 15233
7.3757 1.8581 1.4331 0 20192
7.3985 -7.7692 0.50031 1 25454
7.4033 9.1816 2.2222 0 15082
7.4086 7.5364 1.9911 1 15793
7.416 -13.023 2.8236 0 26338
7.4327 0.58888 -0.17311 0 21297
7.4391 4.8736 1.04 0 17488
7.4428 -1.3204 1.4242 2 22678
7.4492 9.1336 1.6564 0 15120
7.4635 9.3728 1.9685 1 15037
7.4717 -8.3157 2.1063 1 25573
7.4754 -10.117 0.87963 1 25957
7.5065 11.756 0.97534 1 14225
7.5341 -5.7 1.5521 1 24924
7.5782 -10.57 1.2134 0 26008
7.5908 -4.349 1.0231 0 24213
7.6121 11.544 1.9434 1 14337
7.6213 -6.0124 0.22538 0 25008
7.6472 7.1761 1.4738 0 16112
7.65 -11.354 0.63847 2 26107
7.6615 -2.1291 0.18462 1 23008
7.6748 -2.6696 0.18866 0 23249
7.6909 8.739 0.54288 1 15374
7.6976 -9.7469 1.7455 0 25833
7.6982 -6.4779 1.653 0 25146
7.7335 -12.304 1.3559 1 26216
7.7367 1.3865 0 0 20699
7.741 4.8804 1.7241 0 17613
7.7516 -10.748 0.61798 1 25997
7.7524 -9.7566 0.8714 1 25817
7.7609 -12.187 2.3738 0 26204
7.7623 9.4635 1.7202 1 15140
7.777 6.2284 0.69673 0 16717
7.7835 8.6384 1.6342 1 15472
7.7936 7.1816 1.7412 2 16177
7.7961 -3.4174 1.6038 1 23644
7.7997 -5.1215 1.533 1 24565
7.8029 -6.608 -0.715 0 25150
7.819 11.355 0.64294 2 14486
7.8455 -0.40293 -0.18239 0 22078
7.8622 6.2966 1.8978 1 16725
7.8776 -10.097 0.89553 1 25850
7.8834 -11.2 1.2778 0 26039
7.8856 1.3451 0.93548 2 20760
7.9041 -1.6182 1.5201 1 22768
7.9142 -10.711 2.5092 0 25961
7.9271 12.656 0 2 14149
7.9574 -9.1701 1.4198 0 25637
8.0189 8.0161 2.1363 0 15859
8.0668 -10.721 1.569 2 25923
8.0988 1.2595 1.3466 0 20861
8.1008 -3.9213 0.62934 0 23840
8.1009 -6.5811 0.24232 0 25067
8.1195 12.239 2.0642 0 14356
8.1233 11.095 1.9326 2 14721
8.141 -11.288 1.9559 0 26000
8.1701 -6.795 0.49555 1 25115
8.1934 -8.9572 1.9944 0 25538
8.1946 -5.3808 0.45717 1 24559
8.2179 3.9074 0.21126 1 18564
8.2278 5.4211 0.91926 0 17467
8.2406 0.7253 1.5586 0 21254
8.2855 3.0633 0.82414 0 19341
8.2868 2.295 1.6201 0 20021
8.2995 -6.6254 1.2419 0 25036
8.3095 -0.13634 1.3654 0 21881
8.327 8.6682 1.6893 1 15704
8.3589 -6.3955 1.7292 1 24951
8.359 -4.0139 1.0844 2 23825
8.37 7.6751 2.1396 2 16202
8.3866 -7.6634 1.3285 0 25262
8.3904 -5.9342 0.47925 1 24759
8.3934 3.1298 1.259 1 19320
8.4028 11.617 2.0149 1 14675
8.4109 -1.2931 0.19757 0 22580
8.4192 -8.4369 0.55583 1 25381
8.4235 11.297 0.98538 1 14782
8.4377 -3.1833 0.42056 2 23374
8.4568 -10.212 2.4981 2 25736
8.4575 11.413 1.6612 0 14761
8.4628 11.28 1.9818 0 14811
8.463 -2.5648 1.2428 0 23101
8.4747 -1.003 1.6079 2 22425
8.52 -6.4835 0.49928 2 24932
8.5229 1.0994 1.2077 0 21012
8.5313 9.0373 1.1595 0 15631
8.5459 -9.5615 1.8023 0 25583
8.5474 -4.9309 1.6212 1 24231
8.5585 -8.6818 1.1374 0 25400
8.5681 0.3067 1.0026 0 21559
8.5777 -9.6545 0.29984 1 25590
8.5971 8.6452 0.85256 1 15829
8.6095 -8.1872 0.27584 2 25311
8.619 6.3082 1.7548 2 17076
8.6393 -3.9956 1.7934 0 23754
8.6478 -1.6919 0.82209 1 22738
8.6492 -8.7219 2.0181 2 25394
8.6664 3.8151 1.3308 1 18824
8.674 -5.0687 0.93728 2 24263
8.6804 -8.6532 0.28456 1 25372
8.716 -5.6494 0.48437 1 24528
8.748 -11.213 2.6795 0 25856
8.7505 6.8048 2.0885 2 16841
8.7627 9.5594 0.60475 1 15529
8.7723 -3.1392 1.5307 2 23295
8.8124 4.4091 1.6189 0 18391
8.8337 -6.9265 1.3127 2 24999
8.8634 8.8604 0.29097 1 15848
8.8636 -6.5851 0.51493 2 24874
8.8668 -9.1498 2.0933 0 25428
8.8744 -6.8342 2.1104 2 24966
8.8769 -11.866 1.733 1 25934
8.8839 -8.4482 1.723 0 25316
8.8954 0.4195 1.0414 2 21493
8.9055 1.7811 0.63506 0 20555
8.9209 1.7324 0.21099 0 20597
8.9461 -4.2021 0.69115 0 23780
8.9556 0.78824 0.41925 0 21245
8.9635 -3.9608 1.8463 0 23660
8.9676 7.7543 1.3864 1 16433
8.9872 2.2108 1.7438 2 20238
9.0163 4.7417 0.71235 0 18217
9.0297 -9.646 2.1708 0 25493
9.0617 7.2158 1.0807 0 16743
9.0636 7.4317 1.6473 0 16630
9.0884 5.9882 1.2728 1 17468
9.0982 -11.734 1.0383 1 25863
9.1008 4.6231 1.4346 0 18338
9.1036 -9.783 0.62319 1 25499
9.1178 -2.3394 0.8782 0 22933
9.1333 3.3441 0.68013 2 19363
9.1386 -11.241 1.3516 1 25769
9.1562 0.61778 1.5077 2 21384
9.1655 10.908 0.99626 1 15214
9.1928 7.7192 1.1199 0 16540
9.2063 -2.9063 1.8189 1 23146
9.2141 -0.84828 1.3004 0 22298
9.2303 -1.2021 1.7538 2 22479
9.231 -10.209 2.2613 2 25561
9.2338 -3.7927 1.8808 2 23526
9.2368 10.194 1.2834 1 15492
9.2383 3.6297 0.69408 2 19169
9.2526 8.4844 2.0625 1 16200
9.2594 11.289 1.021 1 15135
9.2608 -11.588 2.0848 0 25809
9.2613 -2.6907 1.1278 1 23058
9.268 6.1065 1.5599 0 17469
9.2693 -1.6444 0 0 22673
9.2741 -5.1344 0.49434 1 24126
9.2802 -7.1467 1.0928 2 24962
9.2825 4.3463 1.9311 0 18628
9.284 7.7489 0.56394 1 16558
9.2999 7.496 0.27732 0 16690
9.3084 -7.7417 1.7015 2 25119
9.3416 -9.8646 2.2321 1 25469
9.3558 -11.237 0.68189 1 25717
9.4077 -4.6864 0.98057 0 23901
9.4211 8.4888 1.7823 0 16263
9.4265 7.3754 0.55816 2 16808
9.4359 4.2545 0.72379 0 18747
9.4374 9.938 0.63912 1 15649
9.4654 -11.229 1.7174 0 25697
9.4747 7.2335 1.1121 2 16902
9.4754 -0.9842 1.7949 0 22357
9.4761 6.6896 0.54093 1 17214
9.4916 -5.1128 0.25031 0 24063
9.4973 0.25533 0.88637 2 21607
9.509 -0.76173 0.22148 0 22237
9.5182 6.6375 1.6308 0 17267
9.5451 5.4533 1.2856 0 17937
9.5463 -1.4114 0.90031 1 22558
9.5767 -4.945 1.5148 1 23981
9.5958 3.6413 0.95753 2 19270
9.6023 2.2717 0.22909 0 20293
9.6492 -0.97162 0 0 22335
9.6526 7.5523 0.85703 1 16810
9.6597 7.5118 0.2841 2 16831
9.6607 7.4237 2.2955 0 16885
9.6749 -5.1053 0.76495 1 24021
9.6754 -0.89074 0.67943 1 22295
9.6953 3.2365 0.23731 2 19591
9.7052 -7.3427 2.2929 1 24926
9.7466 6.6262 1.3782 0 17362
9.7613 3.0086 1.1945 0 19788
9.785 -1.973 1.1673 1 22758
9.8264 4.6009 0.50599 1 18617
9.8529 2.1213 1.8989 1 20453
9.8659 -5.5387 1.8589 0 24164
9.8661 -6.6448 1.6717 2 24630
9.8696 1.9739 -0.46937 0 20549
9.8867 2.675 1.1977 1 20060
9.9116 -7.3181 1.1494 1 24864
9.9241 -7.2394 0.85898 1 24833
9.9375 -6.4831 2.2355 0 24550
9.9652 0.70383 1.6413 0 21363
10.01 7.4176 0.58099 1 17020
10.025 2.8368 0.97202 1 19969
10.032 -5.1072 1.3165 0 23950
10.035 8.1348 1.2052 2 16672
10.049 -1.4553 0.94731 2 22545
10.102 -1.7322 1.9311 1 22656
10.102 7.7122 1.7861 0 16905
10.145 3.032 1.7396 2 19864
10.154 2.592 1.9745 0 20171
10.214 7.3453 0.87977 1 17144
10.214 7.8941 2.4322 0 16863
10.227 -5.0214 0.53133 1 23869
10.237 3.8846 2.063 0 19277
10.306 -10.823 2.1004 0 25457
10.333 -1.9879 1.2305 2 22728
10.346 -3.0391 -0.25035 0 23065
10.365 -0.86311 0.24149 2 22252
10.391 7.3762 1.7909 2 17196
10.416 9.7195 1.3291 0 16132
10.445 8.1225 0.61704 1 16833
10.458 -0.71663 0.48885 1 22177
10.485 -0.56785 0.97964 2 22099
10.521 -6.9083 1.4719 0 24563
10.532 -7.4075 1.2013 0 24745
10.608 -6.9657 1.184 0 24562
10.632 4.1067 1.8725 0 19226
10.675 -3.0348 0.51754 1 23034
10.735 3.548 0.52723 1 19617
10.754 0.94653 0.7549 0 21246
10.781 4.2358 1.3545 0 19173
10.79 -1.0256 0.50543 1 22309
10.894 -2.0309 -0.5168 0 22704
10.921 -6.4688 1.1842 1 24299
10.957 -3.394 -0.26632 0 23117
11.027 -1.1746 1.0346 0 22365
11.08 -6.7369 1.5165 0 24369
11.119 4.8576 1.4189 0 18849
11.371 -7.1826 0.94046 1 24463
11.608 -0.32829 1.9078 0 21953
11.724 0.82803 0.27287 0 21355
11.784 -0.15837 2.2203 0 21864
11.804 -2.5608 -0.28043 0 22802
11.891 -0.47137 -0.2763 0 22017
11.989 -0.6871 1.973 0 22122
12.064 1.5176 0.56701 1 21027
12.066 0.43192 1.9837 0 21563
12.199 1.321 -0.57223 0 21121
12.245 -1.0541 0.57316 1 22269
12.581 -0.20642 2.3707 0 21883
-10.796 0.85345 -1.522 0 2662
-9.5539 9.0854 -1.5418 2 6755
-9.2856 3.3449 -1.6215 0 3711
-4.3921 12.486 -1.5478 2 10707
-3.5405 13.621 -1.6459 1 11030
-1.9684 10.538 -1.5067 0 11117
4.3262 1.3475 -1.6492 0 19759
4.5778 -5.6611 -1.725 0 25783
4.6142 14.235 -1.7499 1 12484
8.0541 5.579 -1.846 0 17293
