VERSION .7
FIELDS x y z intensity index
SIZE 8 8 8 8 8
TYPE F F F F F
COUNT 1 1 1 1 1
WIDTH 570
HEIGHT 1
VIEWPOINT 0 0 0 1 0 0 0
POINTS 570
DATA ascii
-4.4494 1.4853 -0.10891 0 2229
-4.4354 2.0316 0.80152 0 2708
-4.2256 2.1922 -0.33288 2 2862
-4.2062 1.6934 -0.42303 0 2496
-3.8174 1.189 -0.27958 0 2152
-3.7017 3.2957 -0.57959 0 3059
-3.6295 1.883 -0.094932 0 2863
-3.6228 0.066399 0.59531 1 784
-3.5892 -2.5469 0.72306 0 14086
-3.5347 1.2137 0.52524 1 2272
-3.4587 3.5616 -0.23152 0 3098
-3.1573 3.0319 0.71917 1 3082
-3.094 3.6393 -0.22276 0 3150
-3.0645 -0.0058836 -0.21429 1 675
-2.9813 -2.6219 0.74801 0 13885
-2.9578 1.5667 0.47041 0 2890
-2.9301 2.0931 -1.3106 0 2965
-2.7791 4.0848 0.46093 0 3270
-2.7638 -3.4695 0.51873 1 13361
-2.6482 3.5503 0.30972 0 3222
-2.4896 -3.8988 0.43158 1 13016
-2.4539 -3.0608 0.73913 0 13374
-2.3478 3.2256 -1.0444 0 3235
-2.3355 2.8646 0 0 3169
-2.2664 -2.5294 0.63989 0 13566
-2.2094 4.0828 0.87466 0 3368
-2.2062 2.0944 0 0 3078
-2.142 3.6509 0.098275 1 3340
-2.0489 4.4423 0 0 3442
-1.9186 2.3659 0.4281 0 3173
-1.86 4.0947 0.52593 0 3452
-1.5057 4.2214 -0.73635 0 3574
-1.3828 -4.6682 -0.11304 0 12544
-1.3625 -4.2795 0.20944 0 12574
-1.3596 -3.6756 0.36562 0 12612
-1.186 4.1443 0.50409 1 3646
-1.0929 3.7351 -0.54695 0 3638
-1.0385 -4.1619 0.29995 0 12501
-0.96382 4.1222 -1.2139 1 3685
-0.94307 -4.4254 0.10505 0 12462
-0.89848 -3.647 0 1 12497
-0.84123 3.9041 -0.18624 0 3696
-0.7855 -3.6423 0.61217 0 12466
-0.66075 3.687 -0.61541 0 3713
-0.48244 4.441 -0.31237 0 3732
-0.45493 -3.5172 0.58266 0 12441
-0.45397 4.6889 0.77396 0 3737
-0.36399 -4.2632 0.80615 0 12424
-0.30162 3.6686 0.2574 0 3741
-0.29982 3.3008 -0.9504 0 3738
-0.28655 3.2492 0.38144 0 3739
-0.25715 -4.7791 0 0 12410
-0.22292 3.6034 -0.94513 0 3744
-0.15358 3.9796 -0.65432 0 3749
-0.15213 4.6595 0 0 3752
0.057997 3.5348 -0.49685 0 3759
0.085203 3.0314 0.21206 0 3764
0.12239 -4.9723 0.34781 0 12370
0.15171 -3.0051 0.28072 0 12359
0.29498 -4.5247 0.42303 0 12353
0.48466 -4.3345 0.71657 0 12349
0.5476 3.2549 -0.78206 0 3830
0.70612 -4.4382 0 0 12345
0.70947 3.4229 -0.49128 0 3862
0.82094 -4.2751 0.61181 0 12340
0.98949 3.3707 0.57715 0 3956
1.1473 -3.3377 0.2468 0 12333
1.2087 3.6826 0.54472 0 3998
1.3743 3.3195 0.67692 0 4138
1.432 4.779 -1.4306 0 3962
1.4406 2.8944 -0.075064 0 4323
1.4482 -3.4485 0.70469 0 12329
1.4922 -2.896 0.38097 0 12315
1.5278 -3.6062 -0.27386 0 12328
1.5518 -3.466 0.35429 0 12323
1.5647 3.9398 -1.2156 1 4114
1.6244 2.877 0.62248 1 4522
1.6451 3.6984 0.66502 0 4200
1.7428 3.1728 0 0 4480
1.8034 3.0677 -0.332 1 4574
2.1517 -2.4884 -0.30691 0 11990
2.1646 2.5587 0.31267 2 5296
2.2192 2.518 -0.15652 0 5380
2.394 -2.8169 0.43231 0 12006
2.4269 3.1175 0.3686 1 5114
2.4749 -1.9364 -0.29317 0 11578
2.5167 -3.8415 0.75451 0 12260
2.5514 -1.6613 0.2129 0 11285
2.7058 -3.8571 -0.43956 0 12195
2.7343 -4.0706 0.92391 0 12231
2.7527 -2.1537 0.57423 0 11584
2.7879 2.5093 -0.26228 0 5868
2.7885 1.2761 -0.80281 0 7439
2.8066 3.1846 0.098553 0 5381
2.9274 2.59 -0.83082 0 5918
3.1261 -1.2605 0.63507 0 10496
3.1376 0.13096 0.29298 1 9606
3.2229 2.4739 -0.094329 1 6266
3.264 -0.65636 0.54699 0 10055
3.3411 0.5705 -0.9719 1 8881
3.4766 -1.5815 -0.35633 0 10691
3.5101 -0.94118 0.68469 0 10144
3.5117 1.965 0.66113 1 7069
3.5632 2.3781 0.60206 0 6680
3.5922 0.7852 0.25712 0 8615
3.9416 -1.5376 0.098228 0 10440
3.9621 1.7302 0.30232 0 7531
3.9759 -0.37654 0.75246 0 9963
4.1224 0.83871 0.097671 0 8698
4.2085 1.7812 -0.97136 1 7591
4.396 1.2448 -0.53429 0 8269
4.4411 -0.53586 0.84281 0 9993
4.4524 1.501 -1.3473 0 7988
4.4527 -0.88166 0.74575 1 10052
4.4625 2.1842 0.46353 0 7315
4.5996 0.93581 -0.65968 0 8691
-2.3429 -1.7675 0.20522 0 14051
2.4915 -1.5406 -0.27329 0 11194
2.8988 0.29854 0.34079 0 9302
-14.798 -0.24537 2.7884 2 620
-14.704 -1.0076 2.7769 0 397
-14.692 -1.0531 1.7225 1 383
-14.646 -2.0349 2.0781 1 143
-14.596 -2.0721 0.68748 1 129
-14.59 2.2692 1.3776 0 1435
-14.483 2.0406 0.68207 1 1363
-14.479 -2.1794 0.33995 2 100
-14.448 -0.99002 2.0353 0 395
-14.427 -2.4765 1.3657 1 39
-14.406 -0.82563 2.7188 2 442
-14.377 -1.2401 0.67294 1 324
-14.371 -1.2396 0.33489 1 323
-14.361 -2.2489 0 0 85
-14.23 3.6299 0.34097 1 1914
-14.217 -0.97418 0 1 390
-14.216 4.0711 2.7862 1 2069
-14.209 -1.3482 0.99808 1 291
-14.174 1.997 1.3354 0 1365
-14.162 -1.8821 2.6917 2 163
-13.948 2.8808 -0.33066 1 1672
-13.938 -1.6078 -0.65431 0 212
-13.908 -1.4839 -1.3049 0 242
-13.858 -1.5593 1.9598 0 227
-13.843 1.2988 1.954 1 1140
-13.796 -2.0765 1.6315 0 104
-13.755 -2.154 2.6232 1 91
-13.732 3.1223 -0.32695 2 1771
-13.69 -2.3894 1.6252 0 33
-13.653 -2.464 1.2944 0 16
-13.648 0.92562 0.63791 1 1010
-13.63 -2.1783 0.64369 1 77
-13.593 4.7547 0.33433 1 2290
-13.578 -1.3697 0.63642 1 268
-13.545 0.8759 -1.2663 0 991
-13.539 4.261 2.3319 0 2170
-13.524 -1.5217 1.5915 0 226
-13.5 4.991 1.0064 1 2367
-13.464 -1.4746 1.9036 0 239
-13.336 2.1147 0.94422 1 1449
-13.313 -1.3429 0.31065 1 267
-13.236 -2.1153 1.2505 1 79
-13.226 0.77649 -1.236 1 965
-13.198 4.025 0.32036 2 2131
-13.158 -1.8281 2.1825 0 144
-13.132 -1.4776 -0.3068 0 222
-13.082 -1.509 1.5399 0 218
-13.078 -2.1627 1.5501 0 59
-13.069 5.7098 1.3306 1 2630
-13.031 -1.2731 1.8401 0 282
-13.017 2.9597 1.5611 0 1777
-12.921 0.79709 -1.2078 0 977
-12.91 1.8903 0.60847 1 1393
-12.881 2.2736 0.91465 1 1535
-12.879 0.9458 0 2 1036
-12.832 2.4943 0 0 1613
-12.712 1.0049 2.4025 2 1072
-12.679 1.0424 -1.4877 2 1074
-12.669 1.1485 1.1868 0 1125
-12.625 5.8229 1.6259 0 2717
-12.615 6.0849 2.3011 0 2784
-12.481 3.6095 1.826 0 2078
-12.239 3.6184 2.0969 2 2102
-12.201 6.3732 2.2616 1 2877
-12.112 3.7724 1.4835 1 2158
-11.877 -0.19695 1.3892 0 617
-11.768 -0.60441 0 0 458
-11.75 2.3885 -0.83847 2 1655
-11.739 -8.1314 0.33154 1 14103
-11.672 -7.9834 0.98887 1 14114
-11.591 0.95294 0 2 1078
-11.554 1.388 -0.5427 2 1260
-11.474 3.9015 1.7032 2 2260
-11.407 -1.823 0.80778 0 78
-11.262 1.1897 0.26293 0 1190
-11.17 -0.5424 2.107 0 475
-11.139 1.338 2.1137 2 1268
-11.089 0.52487 1.8239 1 922
-11.01 -8.9249 -0.66093 0 13986
-10.976 -1.1072 1.0292 1 270
-10.952 4.8234 0.8368 2 2642
-10.931 4.0412 1.9146 2 2375
-10.835 -7.689 -0.30847 0 14084
-10.775 -7.697 -0.61751 1 14081
-10.773 5.5082 1.9879 1 2854
-10.739 4.363 0.81057 1 2513
-10.697 -8.5668 -0.95831 1 13996
-10.652 0.59738 2.01 2 963
-10.086 1.3601 1.6721 0 1340
-9.9463 -10.292 -1.0009 0 13672
-9.0685 -8.6027 1.1662 0 13773
-9.0488 -8.391 2.0275 0 13803
-8.9198 0.085627 -0.62376 0 730
-8.7138 -10.559 0.95734 1 13421
-8.5739 -9.4623 1.4932 0 13580
-8.3968 -8.689 1.6982 0 13679
-8.3533 -6.2241 0.24186 0 14059
-8.3472 -9.9973 0.60735 1 13438
-8.3402 -6.2916 -0.24255 0 14049
-8.3146 4.0715 -0.43174 0 2797
-8.3018 -10.866 0.95622 1 13293
-8.3005 -9.7083 1.4937 0 13486
-8.3004 -9.0552 2.3144 0 13601
-8.2431 2.5674 -0.20045 0 2153
-8.1338 2.7152 -0.59963 0 2228
-8.1187 -8.4987 -0.82187 0 13654
-7.9651 -7.2122 0.24947 0 13836
-7.9485 -5.1717 1.558 0 14148
-7.8463 5.9578 1.6186 0 2991
-7.7666 -9.5773 2.0259 1 13394
-7.6664 -7.1091 1.4694 0 13802
-7.5653 -6.7334 1.9082 0 13866
-7.5457 -10.816 1.8535 0 13145
-7.4408 -8.3046 1.5671 1 13564
-7.3981 -10.228 2.0738 0 13207
-7.3854 -7.127 1.9337 0 13757
-7.1922 -10.567 0.29677 1 13107
-7.0834 -11.831 2.2655 1 12948
-7.0763 -11.146 1.2317 0 13007
-7.0353 -12.734 0.67844 1 12874
-7.0329 -0.62643 -0.49374 1 309
-6.9814 -13.264 1.3984 0 12825
-6.9761 2.9267 -0.70579 0 2561
-6.9403 -7.1393 0.92892 0 13688
-6.9004 -12.746 0.33651 1 12849
-6.8993 -9.8313 -0.83987 2 13148
-6.8961 -10.011 0.28224 1 13123
-6.8943 -9.5311 -0.82257 2 13199
-6.8882 11.428 2.1922 0 3328
-6.6985 -9.9684 1.6879 2 13091
-6.6348 -5.6009 1.0154 0 13942
-6.5438 -11.221 1.2119 0 12924
-6.5248 -9.3531 -0.79746 0 13138
-6.4539 -12.705 1.3295 0 12794
-6.2024 -7.9244 -0.46928 2 13325
-6.1902 -11.279 1.8081 0 12871
-6.0883 3.7867 1.178 2 2959
-6.0314 5.1568 -0.37006 0 3049
-6.025 -10.402 1.975 1 12921
-5.9142 1.8036 -0.57686 0 2130
-5.6913 2.8886 0.4463 0 2842
-5.6693 2.2469 0.14159 0 2468
-5.6042 -13.443 1.7032 0 12672
-5.6005 5.832 1.3284 0 3101
-5.5544 2.9645 0 0 2893
-5.3929 -11.091 2.3237 0 12766
-5.3208 -8.3327 1.1562 0 13017
-5.1561 1.6396 -0.12562 0 2173
-5.0455 -3.6256 0.57965 0 14079
-4.9644 -6.7385 1.3751 1 13237
-4.9119 4.6094 0 0 3073
-4.8952 2.8732 -0.39691 0 2954
-4.8867 3.2813 -0.82724 1 2961
-4.8568 3.2219 0.68157 0 2960
-4.6953 3.3751 0.95003 0 2966
-4.503 3.1378 0.90171 0 2963
-4.4923 4.3655 1.0291 0 3085
-4.4722 11.103 2.2552 0 3518
-4.3996 4.009 0.97791 0 3065
-4.1558 4.3763 0.99153 0 3105
-4.1526 5.0321 0.15147 0 3162
-4.1313 -12.24 2.1225 0 12590
-4.1246 3.2856 0.86637 0 3010
-4.0853 7.2031 1.3605 0 3349
-3.6429 4.1394 0.90593 1 3136
-3.1838 4.7398 -0.80247 0 3273
-3.1145 5.6002 0 0 3357
-3.0822 -4.1066 0.11921 0 13263
-3.0734 -7.6839 -0.19214 0 12646
-3.0594 -8.1222 1.6353 0 12620
-2.9529 14.297 2.3984 0 3702
-2.9098 4.148 -0.95464 0 3255
-2.8267 6.6787 0.50713 0 3492
-2.8118 -8.0249 0.5946 0 12599
-2.7622 -5.1732 0.13615 0 12837
-2.647 -7.0273 1.2337 0 12619
-2.23 5.3518 0.40542 0 3502
-2.0651 -5.8936 0.58262 0 12600
-1.9212 5.8708 0.5763 0 3610
-1.6538 -5.8287 0.99542 0 12535
-1.4903 5.7711 -0.13838 0 3663
-1.2645 -8.2636 0.19409 0 12443
-1.2083 7.4851 -0.17603 0 3724
-1.1084 -9.421 0 0 12438
-1.0026 8.3216 -0.1946 0 3728
-0.92176 7.8584 -1.112 1 3729
-0.77195 -14.346 2.7069 0 12411
-0.52413 -5.2234 0.86248 0 12431
-0.42972 10.427 -1.4666 0 3746
-0.35585 -5.4731 0.38352 0 12416
-0.22495 5.4581 0.8975 1 3748
-0.066895 6.9683 1.1449 0 3757
0.18509 6.5851 1.0823 0 3765
0.22819 9.0774 1.4918 0 3763
0.23394 5.1321 -0.35925 1 3770
0.30993 5.4413 -0.25416 0 3775
0.32123 6.6393 -1.2524 0 3773
0.48282 5.2544 0.12251 0 3799
0.49835 5.4235 0.50812 0 3800
0.53168 -5.308 0.12385 0 12351
0.55515 8.1017 -0.94965 1 3780
0.61356 6.4667 -0.75963 0 3802
0.61668 5.9573 0.84172 0 3810
0.62046 5.1272 -0.11991 0 3818
0.63874 5.4048 -0.50775 0 3816
0.65011 7.8239 0.54898 0 3791
0.72022 8.3838 0.98403 0 3793
0.73885 6.5766 0 0 3814
0.84129 -5.9559 0.70341 0 12347
0.84832 -5.0531 0.96538 0 12344
0.86267 -5.4222 0.90204 1 12346
1.0354 6.7504 0.47755 0 3821
1.1221 6.8977 -0.81724 0 3825
1.2346 -5.0114 0.97242 0 12336
1.2744 5.9699 0.71386 0 3870
1.6845 -4.8535 0.35925 0 12332
1.7817 5.5326 -0.13495 1 3988
1.9442 5.1561 0.6444 0 4074
1.9945 5.4297 0.95035 0 4056
2.1207 -12.189 2.0327 0 12343
2.1894 -5.0041 0.25472 0 12324
2.331 11.406 1.9127 0 3861
2.3799 7.7698 1.1421 0 3971
2.4305 10.1 1.7068 0 3908
2.5085 5.7254 0.58318 0 4181
2.632 -5.2196 -0.27261 0 12318
2.6472 6.344 0.64133 0 4144
2.8098 -5.9067 1.2324 0 12321
2.9596 4.2142 -0.48044 0 4882
2.9914 8.6047 1.4967 0 4028
3.2461 -7.541 1.3488 0 12325
3.2631 4.4765 -0.77853 0 4950
3.3563 8.9009 0.88749 0 4073
3.5544 4.1529 -0.50998 0 5317
3.5777 -4.7135 0.4138 0 12114
3.6368 -7.2657 1.3349 0 12320
3.6375 -4.2304 0.91663 0 11999
3.7148 -5.2311 1.0541 0 12188
3.7386 -4.7527 0.99347 1 12082
3.838 -10.109 1.7765 0 12331
3.9155 -3.4862 0.12172 0 11749
4.0764 -4.6844 0.72617 0 11986
4.2362 -4.5174 0.43305 0 11923
4.4454 -2.6269 -0.48174 0 11122
4.705 -4.5467 0.30512 0 11833
4.7099 -7.9198 1.5139 0 12295
4.7364 3.0023 -0.65579 0 6791
4.7394 1.8612 0.83654 0 7728
4.9452 -5.7189 0.88414 0 11992
5.1023 -0.096188 -0.59678 0 9812
5.1369 -0.58981 -0.12005 0 9988
5.3555 -4.043 -0.78471 0 11524
5.3798 -5.8016 0.92526 0 11936
5.3802 4.9283 1.1987 1 5834
5.4139 4.873 0 0 5869
5.4678 -3.5373 0.1512 0 11273
5.5076 -1.546 0.13281 1 10162
5.5557 -3.7558 1.1018 0 11345
5.5799 -6.1927 0.19353 0 11962
5.6019 -0.23577 0.92117 0 9881
5.6424 -7.6142 1.557 1 12143
5.8326 12.245 0.94841 1 4264
5.9775 5.6015 1.5434 0 5785
6.0546 6.9088 1.7308 0 5377
6.0553 0.80042 0.85842 1 9126
6.1057 5.4649 0.95824 1 5890
6.1314 12.672 0.9844 1 4283
6.2387 13.198 1.0208 1 4255
6.3244 1.6733 0.45746 0 8378
6.3439 12.559 1.6454 0 4345
6.3991 0.11952 1.0515 0 9697
6.4184 7.6302 0.93022 0 5283
6.447 3.5092 0.6848 0 7116
6.4761 12.732 2.3469 0 4357
6.4834 -0.38745 1.0671 2 9909
6.623 -4.5349 1.5123 0 11365
6.6315 -3.6156 1.4231 1 11009
6.6647 -4.91 -0.7723 0 11485
6.6656 5.9997 0.62711 0 5873
6.6806 9.5126 1.9098 0 4890
6.6821 10.313 1.1465 0 4742
6.6912 5.0477 0.78196 1 6322
6.7112 -3.4358 0.52722 0 10909
6.8842 -3.7285 1.2863 2 10995
6.9033 -1.3469 0.65619 0 10049
6.9189 -1.8332 1.0059 1 10135
6.9462 -3.4059 1.271 0 10841
6.9466 1.1637 0.65712 1 8897
6.9541 0.73582 0.48899 0 9287
7.0076 4.9727 0.80166 1 6519
7.0396 12.987 2.7832 0 4466
7.0434 3.1995 0 0 7452
7.0872 11.511 1.5808 0 4651
7.0926 1.6779 0.85231 2 8524
7.1006 6.9316 1.6303 2 5695
7.1469 5.1659 0.61665 0 6449
7.1476 5.7222 1.2868 1 6166
7.2534 3.683 1.5327 0 7251
7.2536 -8.8433 1.6074 0 12046
7.2544 -7.1688 0.47562 1 11855
7.277 5.897 1.5388 1 6136
7.2846 12.986 0.69437 1 4507
7.303 3.87 -0.38543 0 7161
7.4187 10 0.8707 1 4996
7.4197 9.8178 1.4391 0 5039
7.4558 6.9066 1.9148 0 5809
7.4853 12.825 1.3854 0 4567
7.5029 11.887 2.6484 0 4696
7.5377 -7.325 0.49015 1 11839
7.5665 8.3887 1.3211 0 5436
7.5858 9.9147 1.1647 0 5074
7.5937 -1.9653 0.7318 0 10121
7.6397 9.5804 1.7221 0 5167
7.6914 -6.9302 0.96589 2 11763
7.7091 -8.0727 1.8339 0 11908
7.7591 5.2731 0.87523 1 6635
7.7702 10.995 2.5366 0 4905
7.7716 10.863 2.1945 0 4925
7.7902 -6.6983 1.2015 0 11717
7.8381 5.0979 1.3141 0 6738
7.8841 10.562 2.4833 1 5018
7.8917 12.664 2.8113 1 4675
7.9036 9.1273 1.4119 0 5349
7.9288 4.7134 0.86055 1 6947
7.9768 6.9292 0.98577 0 5956
8.0427 -3.7129 0.61944 0 10727
8.0638 8.6383 0.82634 0 5507
8.0768 10.187 1.8271 1 5155
8.0977 2.7551 1.6116 0 7975
8.1082 -1.6305 1.5582 0 10056
8.1388 3.8108 1.0509 2 7395
8.1463 4.7775 1.7793 2 6979
8.1555 10.349 1.5409 1 5140
8.1592 7.7374 0.78629 0 5748
8.1646 -6.2355 0.95846 1 11546
8.1889 8.9712 1.7071 0 5460
8.2056 10.667 1.8914 0 5092
8.2284 8.5625 1.669 0 5570
8.2555 6.8053 1.5036 0 6092
8.269 -8.4647 1.3838 2 11885
8.2865 9.7954 2.4173 0 5302
8.3365 -9.2522 1.1619 0 11963
8.3394 5.7745 1.9111 0 6595
8.3458 6.5251 1.2389 0 6224
8.3579 1.6246 1.1966 2 8751
8.3584 8.3993 2.2326 0 5637
8.3769 2.2948 1.427 1 8332
8.4124 -9.2873 1.7611 1 11958
8.4208 -8.4679 1.1141 1 11868
8.4403 -2.449 0.40984 0 10182
8.459 -4.9351 0.4567 1 11105
8.5017 3.4246 1.0718 0 7680
8.5222 -6.911 1.542 0 11634
8.5357 10.037 2.1646 2 5314
8.5626 -1.7452 0.61107 0 10058
8.5709 7.4927 0.79606 0 5942
8.5745 -6.6703 0.75965 0 11571
8.5765 7.8561 1.3601 1 5831
8.6193 6.5377 0.5045 2 6301
8.62 6.5382 1.0094 1 6305
8.6292 12.21 2.4565 1 4903
8.6635 8.5077 0.84908 1 5679
8.7567 -6.8958 2.1 0 11593
8.7688 -7.5397 2.1789 0 11720
8.7743 -9.3013 1.4953 0 11920
8.7987 2.5746 0.64106 0 8227
8.8204 -8.04 0.83457 1 11776
8.84 -1.2235 1.2542 1 10005
8.9 0.65826 0.41618 0 9461
8.9169 0.73468 0.83473 2 9413
8.9234 5.8038 2.0056 0 6741
8.9356 -7.5085 0.81615 0 11683
8.9361 9.9699 2.1997 1 5426
8.9427 -7.6001 1.3724 0 11701
8.9519 7.6025 1.6506 0 6016
9.0101 -2.7272 0.439 0 10209
9.0199 5.1867 0.97072 0 7017
9.0326 10.431 1.9392 0 5351
9.0345 -2.2559 0.43425 0 10105
9.0877 -9.3516 0.6081 1 11888
9.0971 -6.0372 0.50916 1 11309
9.1008 -6.786 0.79383 0 11509
9.1117 3.4267 1.8341 0 7803
9.1394 -6.2954 1.0354 1 11371
9.1744 2.1451 1.1018 0 8538
9.2433 0.46663 1.3007 0 9575
9.2698 3.8264 0.93561 1 7632
9.2978 8.1741 2.034 1 5933
9.3187 -5.0807 1.7438 0 11007
9.3259 -2.8227 0.90904 2 10210
9.3451 2.07 0.44636 0 8599
9.3769 -3.6578 1.6536 0 10448
9.3812 -6.3039 1.8569 0 11335
9.4576 -3.9446 0.23791 0 10530
9.4762 3.101 0.93022 1 8040
9.4805 -3.139 0.93171 2 10265
9.5008 1.6223 1.1271 1 8883
9.5185 -9.357 0.62245 1 11849
9.5223 11.457 2.8069 1 5264
9.5264 1.7966 0.67789 0 8780
9.5691 5.3173 1.7986 1 7081
9.613 -4.0094 1.4638 1 10535
9.6155 -6.5445 2.1915 0 11356
9.6297 6.6679 1.6461 0 6592
9.6479 -9.4843 0.94604 1 11850
9.6552 7.1471 2.2633 0 6377
9.6692 -7.8411 2.3455 2 11636
9.7124 -3.5946 1.4555 0 10383
9.7171 -7.467 0.57149 1 11552
9.7306 -1.1741 1.1462 0 9991
9.7389 -7.8052 2.0505 0 11621
9.7393 3.5699 1.7042 0 7847
9.8245 11.015 1.0321 1 5407
9.8283 6.1129 1.6267 1 6850
9.8314 -2.5444 1.9134 1 10125
9.8391 -6.4483 1.3757 0 11295
9.8475 -5.8191 1.0671 2 11127
9.8605 10.867 2.0623 0 5449
9.8689 6.3796 0.82173 0 6751
9.8732 6.4658 1.6587 0 6725
9.9355 -3.7781 1.243 0 10414
9.972 -7.5281 2.0528 0 11530
10 -7.5028 1.1664 2 11519
10.011 -4.1753 1.782 2 10537
10.022 7.0674 2.0148 0 6545
10.031 -5.0625 0.52397 1 10882
10.035 10.679 1.3672 0 5520
10.045 8.088 0.90181 1 6146
10.124 -3.2584 0.99227 0 10245
10.15 -4.5445 0.77765 0 10671
10.195 -3.9072 1.7937 0 10427
10.215 1.052 1.9348 1 9307
10.223 -8.341 1.8543 0 11641
10.226 -0.3446 0 0 9856
10.295 -8.4446 0.93111 1 11647
10.36 -3.4643 1.7947 2 10278
10.435 7.0068 0.87893 1 6662
10.481 -1.5141 0.988 0 10008
10.489 -7.7788 1.5271 0 11502
10.491 -8.7598 1.9209 0 11675
10.606 -3.3439 1.3004 0 10234
10.673 5.656 1.6976 0 7168
10.789 -7.2034 0.30118 1 11318
10.802 -2.6633 1.038 0 10101
11.289 -7.5859 1.2689 0 11333
-12.888 2.5426 -1.5362 1 1623
-4.2628 3.1983 -1.5281 0 2983
-1.4204 5.7053 -1.9866 0 3671
0.9878 5.1392 -1.7683 1 3850
2.6239 6.2879 -1.9537 0 4143
4.976 11.015 -1.6987 2 4212
