VERSION .7
FIELDS x y z intensity index
SIZE 8 8 8 8 8
TYPE F F F F F
COUNT 1 1 1 1 1
WIDTH 569
HEIGHT 1
VIEWPOINT 0 0 0 1 0 0 0
POINTS 569
DATA ascii
-3.8099 1.1612 -0.092472 0 2175
-3.561 0.23964 -0.082863 0 1058
-3.5417 -3.312 0.79666 0 19243
-3.4084 0.81639 0.32698 0 1838
-3.3821 0.67642 -0.080077 1 1640
-3.3033 0.16503 0.38678 1 982
-3.189 1.0639 0.23508 0 2335
-3.0283 -2.5636 -0.18503 1 19373
-2.795 2.4015 -0.25768 0 5755
-2.4964 3.6693 0 0 8178
-2.3199 1.9247 0.42364 0 5595
-2.1978 -3.2818 0.18419 0 18572
-2.0812 4.0688 0.42637 0 8910
-1.7812 -3.4958 0.64459 0 18336
-1.7458 -3.9192 0.7049 0 18219
-1.4366 4.7613 0.81709 0 9582
-1.4185 3.3256 0.59401 0 9201
-1.2099 3.0282 -1.0175 1 9310
-1.1981 4.1 -0.39851 0 9602
-0.66434 4.727 0.55822 0 9742
-0.56706 3.6462 0.17208 0 9736
-0.47735 3.3249 -0.71397 0 9741
-0.35726 -4.1587 0.68577 0 17969
-0.33773 3.8448 -1.3042 0 9749
-0.31117 4.0813 0.67248 0 9754
-0.31095 3.7902 -0.088294 0 9753
-0.27093 2.9886 -0.78559 0 9748
-0.2679 -4.9788 0 0 17958
-0.23004 3.729 -0.97806 0 9757
-0.15812 -4.0065 0.18699 0 17948
-0.11709 3.9451 0.36822 0 9762
0.0084403 4.0301 -0.28182 0 9770
0.087656 -4.15 0.78208 0 17914
0.12838 3.4845 0.32531 0 9779
0.32142 4.1394 -0.29033 0 9792
0.36615 3.8448 0.63454 0 9798
0.48555 3.3447 0.23633 0 9824
0.57857 3.6162 -0.77842 0 9828
0.76178 3.5174 -1.032 0 9861
0.77454 -4.1031 0.4883 1 17885
0.80422 4.0468 0.28851 0 9844
0.84095 3.9327 -0.18754 0 9857
0.91585 -3.0604 -0.14897 0 17875
1.1176 -3.6215 0 0 17874
1.1541 3.5437 0.26061 0 9981
1.3017 -4.131 0.40408 0 17873
1.3388 4.2384 -0.1032 0 9973
1.3528 -3.7228 0.46321 0 17871
1.4832 3.0183 -0.39329 0 10243
1.4904 4.3606 0.7571 0 10004
1.4928 -3.8288 0.19164 0 17869
1.5406 3.7175 0.66113 0 10113
1.5635 3.2779 -1.0414 0 10210
1.7074 2.8813 0.39166 0 10519
1.7706 -2.4451 0.28165 0 17623
1.7999 -3.5911 0.093261 0 17835
1.848 2.4128 -1.0269 0 11004
2.1665 -3.6649 0.19854 0 17752
2.2025 -3.6267 0.69712 0 17735
2.3206 3.6951 -0.30511 0 10612
2.5702 -3.7509 0.74705 0 17660
2.6839 -2.6338 0.43975 1 17409
2.7095 3.1612 -0.19416 1 11226
2.7575 2.2155 0.49713 0 12196
2.7743 3.4753 -0.10324 0 11093
2.8685 3.0302 -0.78616 0 11477
2.8748 -1.8569 -0.48098 0 16962
2.8776 2.8199 0.09354 0 11700
2.8781 1.1262 -0.50776 0 13662
2.908 -0.75802 -0.069772 0 16005
2.9089 -3.8047 -0.56008 0 17569
2.9566 -3.6213 -0.21801 0 17497
3.1192 0.49125 0.51879 0 14776
3.1226 -3.5644 0.11002 0 17454
3.2061 -3.3951 -0.43566 0 17424
3.3082 1.4179 -0.25168 0 13474
3.3915 0.19555 0.07887 0 15177
3.4149 -2.163 -0.5681 1 16941
3.4441 0.89521 -1.0204 0 14359
3.4531 2.0601 -0.093354 0 12794
3.4585 0.41118 0.32494 1 14931
3.4684 -0.11082 -0.99505 0 15449
3.5189 -3.5361 0.11582 0 17411
3.5805 -1.3082 0 0 16207
3.597 3.0852 -0.22099 0 12034
3.6934 0.75748 -0.44091 0 14569
3.7825 -2.4733 0.74251 0 16982
3.8415 0.14355 0.54027 1 15241
3.8548 1.0019 0.46576 0 14361
3.8617 1.7485 -1.1097 1 13365
3.929 2.4542 -0.98467 0 12710
3.9807 -0.66329 -0.1882 0 15775
4.0553 -0.79709 0.095953 0 15859
4.1129 1.6384 -0.30958 1 13628
4.3357 1.1011 0.84281 0 14390
4.3468 -1.9718 -0.67081 1 16463
4.5049 0.99293 -0.21512 0 14512
4.6487 0.96777 0.78012 0 14566
4.7484 0.27379 0.89614 0 15182
-0.25523 2.9056 0.13602 0 9750
0.19906 2.8976 -1.1341 0 9788
-14.89 1.4836 1.7499 0 1206
-14.789 0.77765 2.4331 1 997
-14.669 -1.0103 2.7702 0 443
-14.643 2.8862 1.3925 0 1629
-14.497 1.6517 1.3612 0 1268
-14.467 -1.5895 2.7421 1 282
-14.36 0.9236 1.6828 0 1049
-14.334 0.010004 1.6763 0 761
-14.325 3.919 0.6926 1 2008
-14.308 1.7973 2.0266 0 1318
-14.224 1.6207 1.6742 0 1269
-14.223 -1.8927 0.66912 1 182
-14.161 -0.97534 -0.66195 1 434
-14.1 3.2449 1.0117 1 1790
-14.082 2.3136 2.3446 0 1481
-13.982 0.89929 1.3072 0 1048
-13.927 3.6381 0.67127 1 1943
-13.884 1.0172 2.2872 1 1092
-13.882 -1.3612 1.9604 1 323
-13.879 4.0531 0.67425 1 2104
-13.867 3.026 0.9925 1 1731
-13.851 1.4167 1.9568 0 1220
-13.842 2.8539 1.9863 0 1674
-13.836 2.4348 -1.3107 0 1528
-13.808 4.3829 -1.3516 1 2243
-13.773 -0.31015 0.96334 1 649
-13.765 -1.8757 2.2823 1 175
-13.705 4.6177 0.67443 1 2352
-13.7 4.7467 1.3527 1 2405
-13.657 -1.9437 0.64332 1 152
-13.654 0.24787 0.95497 1 838
-13.611 3.015 0.65012 1 1745
-13.588 3.5064 0.6544 1 1927
-13.583 0.32247 1.9095 0 866
-13.579 2.5535 0.64434 1 1586
-13.572 6.0682 1.7385 0 3023
-13.555 0.32182 1.265 1 864
-13.554 -2.0087 0 1 131
-13.525 4.8667 1.6809 0 2480
-13.493 -1.7956 0.31604 2 181
-13.461 -1.3578 -1.2622 0 304
-13.435 1.1399 2.5403 0 1148
-13.43 0.70618 1.5727 0 996
-13.43 1.7681 1.5841 0 1343
-13.426 -0.070302 1.5701 2 735
-13.416 1.6473 2.2207 2 1307
-13.347 5.4198 1.6846 0 2761
-13.252 6.1992 2.0561 0 3165
-13.25 5.833 1.693 0 2976
-13.181 2.6746 0 0 1653
-13.161 1.2278 0.92427 1 1182
-12.974 0.38279 1.2109 1 889
-12.961 -1.344 -0.30253 2 295
-12.938 1.1342 1.5188 1 1160
-12.881 1.657 2.447 0 1331
-12.84 -0.10309 1.5016 0 722
-12.828 2.8414 0.30504 1 1744
-12.813 -1.8989 1.8204 1 136
-12.764 5.2715 1.615 0 2805
-12.721 6.3201 2.6762 0 3362
-12.696 -1.5792 1.7981 0 220
-12.675 -0.69311 2.0855 2 508
-12.562 5.7062 2.2668 0 3073
-12.538 2.7773 2.1098 1 1749
-12.426 2.2604 2.3796 1 1563
-12.377 2.8871 1.4863 1 1808
-12.365 5.1445 1.8822 0 2824
-12.363 -1.5377 0 2 214
-12.318 -1.4623 -0.288 2 236
-12.316 0.68424 1.7335 1 1010
-12.301 6.3818 2.611 0 3515
-12.288 -8.0653 0.34125 1 19699
-12.271 -1.134 1.7319 0 345
-12.267 1.1445 0.28605 1 1180
-12.241 7.9649 2.0525 0 4431
-12.222 -1.4877 0.28586 2 227
-12.193 1.0689 0.85591 1 1158
-12.174 5.1476 0.92427 1 2860
-12.154 2.5768 0.5794 1 1700
-12.126 -8.0628 -0.67909 1 19683
-12.094 2.5994 1.1541 0 1716
-12.051 -8.8458 1.3947 0 19567
-11.981 1.7521 0.8467 2 1403
-11.962 2.8299 1.4375 1 1824
-11.958 1.6806 2.2751 0 1382
-11.924 -1.0663 1.9668 1 358
-11.899 4.0857 -0.87977 0 2378
-11.848 -9.065 0.34635 1 19514
-11.827 -1.5738 -0.277 0 179
-11.795 -7.7891 -0.65916 0 19692
-11.779 0.45043 0.54968 2 924
-11.774 0.24662 1.9347 1 854
-11.77 2.8192 -0.28099 0 1835
-11.733 2.845 0.28029 1 1851
-11.721 -8.1888 -0.33196 0 19628
-11.706 0.38218 2.2066 1 904
-11.704 -1.6283 0.82634 1 163
-11.698 3.8618 -1.1493 0 2313
-11.683 -8.4664 0.33498 1 19581
-11.681 7.2198 2.2561 0 4207
-11.673 2.9753 1.4087 0 1914
-11.658 -8.2448 0.66586 1 19609
-11.62 0.27588 -1.0844 0 858
-11.614 0.14392 1.3583 2 814
-11.516 -8.145 0.98636 1 19610
-11.355 -0.65077 0 1 488
-11.352 0.86155 0.26432 0 1101
-11.34 0.92631 1.8692 1 1133
-11.231 -0.90759 2.123 0 392
-11.206 0.20342 1.3106 0 840
-11.173 -0.80285 -0.52239 2 421
-11.168 -7.2834 0.6218 1 19707
-11.117 -7.2055 1.5492 0 19714
-11.106 -0.5723 2.0952 1 522
-11.084 -0.47424 0.51736 1 556
-11.08 -1.0551 1.0383 2 330
-11.035 -7.1962 0.9212 1 19708
-10.973 -1.5265 1.2955 0 164
-10.958 -10.126 -0.69577 0 19252
-10.922 -1.6811 0.77276 0 115
-10.902 -8.4446 0.96431 1 19498
-10.884 -1.1958 1.2804 0 279
-10.848 -1.3839 -0.51 1 201
-10.835 -8.392 1.2786 1 19499
-10.825 -8.7381 0.97282 1 19442
-10.801 -10.221 0.34524 2 19223
-10.79 0.38246 -0.25068 0 909
-10.779 4.4122 -1.0867 2 2770
-10.61 -7.1862 -0.29752 0 19661
-10.589 -6.9052 -0.88395 1 19706
-10.432 1.0063 -1.2256 0 1187
-10.415 6.0278 -1.1227 0 3908
-10.387 -7.8553 -0.30234 0 19528
-10.283 10.402 1.7104 0 6548
-10.234 -7.6451 0.29659 1 19542
-10.174 0.98147 -1.4365 1 1186
-10.134 -0.43358 -1.1861 1 549
-10.093 6.0786 -1.3778 2 4071
-10.015 3.7663 -0.99822 1 2569
-10.005 -7.5669 -0.58499 0 19527
-9.9926 -10.928 -0.69055 0 19048
-9.7136 3.4283 0.72031 0 2440
-9.6899 2.7383 -1.1775 0 2049
-9.6159 2.4511 1.8697 0 1917
-9.601 3.1437 1.6598 0 2307
-9.5357 -1.7243 0.67761 0 27
-9.5214 -0.15955 0.6659 0 676
-9.4604 3.6809 0.23568 0 2652
-9.4507 -11.283 -1.0292 0 18895
-9.4501 6.9978 -1.0971 1 5013
-9.3726 2.0144 -1.1211 2 1708
-9.3342 1.6728 1.558 0 1550
-9.324 -9.6789 -0.62673 1 19120
-9.3218 -1.6857 1.5564 1 31
-9.3163 -9.9522 -0.3165 0 19073
-9.3163 -1.6276 0.21957 0 40
-9.3098 -11.182 -0.67853 0 18886
-9.2495 -1.726 0.87783 0 15
-9.1717 -1.5233 0.65013 0 73
-9.1683 3.7527 -1.3923 0 2768
-9.1566 4.1884 1.4151 0 3095
-9.1004 -1.4007 1.294 2 118
-9.0615 -11.75 -0.69195 0 18793
-9.043 -0.30947 1.0581 0 599
-8.9149 -0.27705 -1.043 1 603
-8.8891 3.1112 1.1013 0 2425
-8.8241 -6.1649 0.50198 1 19629
-8.7286 -7.8786 1.6525 0 19287
-8.7253 -0.2986 1.6449 0 601
-8.7205 2.8251 1.7271 0 2291
-8.6847 -1.4923 -1.0305 0 47
-8.6741 -7.3432 0.26386 1 19375
-8.5487 -7.7651 -0.26813 0 19275
-8.5404 -1.5705 1.4267 0 23
-8.5175 -5.9862 0.48549 1 19619
-8.4988 2.9996 1.054 0 2443
-8.4962 1.9054 1.4306 1 1763
-8.4941 -9.0263 0.57801 1 19084
-8.4469 -8.9199 -0.28521 1 19093
-8.3635 -6.0988 0.9657 0 19575
-8.2881 6.2546 1.9563 0 5124
-8.2357 2.8277 0.20217 0 2382
-8.2151 -8.4774 -0.27407 0 19130
-8.0912 2.6994 -1.4014 2 2326
-8.0905 -8.0174 1.6008 0 19180
-8.0447 6.7145 -1.2254 1 5604
-7.9273 -6.1402 0.4676 1 19497
-7.9117 3.373 0.40108 0 2881
-7.8749 4.2864 1.2601 0 3690
-7.8723 2.3513 0.57451 0 2141
-7.8217 -6.3952 0.70649 2 19425
-7.8051 -5.059 1.5281 1 19715
-7.7987 -7.4604 1.2621 1 19213
-7.7747 -5.1031 0.43369 0 19700
-7.7522 5.9528 1.8415 0 5215
-7.7157 -9.3732 -0.84894 0 18874
-7.6714 3.4847 1.5875 0 3075
-7.6105 -7.4945 0.24798 0 19182
-7.6104 -8.6201 -0.26697 2 18989
-7.5035 -9.2298 0.55472 1 18859
-7.4206 -6.9757 1.191 2 19234
-7.3517 0.85972 1.3946 0 1283
-7.2338 -4.7771 0.60618 0 19693
-7.2256 5.0051 -0.82005 2 4696
-7.207 -8.4026 1.0328 0 18938
-7.1756 4.8491 0.80797 1 4598
-7.1181 5.0829 0.61162 2 4855
-7.0809 5.1201 1.2281 0 4915
-7.0036 -8.3614 -0.25323 0 18896
-6.9162 -5.9572 0.42568 0 19350
-6.9157 0.66713 0.6482 1 1194
-6.8494 0.94313 0.97171 0 1368
-6.8317 5.0922 -0.39736 2 5046
-6.8285 -7.6885 1.9374 1 19006
-6.7879 -7.5999 1.4321 1 19014
-6.786 -6.7247 0.44552 1 19177
-6.7844 -9.1286 -0.5304 1 18734
-6.7028 -7.1603 0.68585 1 19075
-6.6995 -5.2192 1.6001 1 19493
-6.5865 -6.7565 -0.44003 1 19137
-6.557 -5.1728 0.77918 2 19474
-6.5001 1.2435 0 0 1599
-6.4796 0.097264 -0.91075 1 818
-6.4706 -5.8405 1.6423 0 19289
-6.3955 -6.7963 1.3116 2 19088
-6.395 -6.9545 1.7801 0 19059
-6.2241 -5.5885 1.576 2 19300
-6.188 4.4188 -0.35459 2 4845
-6.1552 -8.2278 0.95864 1 18748
-6.0078 -0.2056 -0.42035 1 591
-5.991 -7.5453 1.8152 0 18835
-5.9286 7.2279 1.0932 1 7449
-5.8106 -6.3545 0.40155 0 19049
-5.769 6.4003 0.80389 1 6995
-5.7507 -7.1601 -0.64218 2 18845
-5.6567 -8.4467 0.94843 2 18574
-5.6307 3.6636 0.46974 1 4425
-5.6145 2.9514 1.0421 2 3565
-5.5979 5.2789 1.0814 0 6222
-5.5159 -8.5525 1.9174 0 18529
-5.452 -0.82356 0.77492 1 128
-5.4216 2.3495 0.97078 0 2934
-5.1824 -0.53737 0.856 2 302
-5.0761 1.5956 0.37208 0 2232
-5.0737 3.7134 -1.1846 0 4976
-4.9916 -6.1751 1.496 1 18856
-4.9648 -5.7234 1.4275 1 18964
-4.9466 -6.1921 0.36959 0 18838
-4.4901 -6.4604 0.36689 0 18628
-4.2635 -5.2127 -0.15635 0 18868
-4.1964 -4.9817 0.76172 0 18907
-3.872 -5.2404 0.60788 0 18729
-3.7659 3.2933 0.7031 0 5852
-3.5465 5.8514 0.63835 0 8536
-3.133 -6.2838 0.65507 0 18316
-3.0096 6.5767 0.67477 0 9106
-2.9914 8.0221 1.0012 0 9386
-2.6608 -7.7849 0.38366 0 18051
-2.6607 8.05 1.3929 0 9507
-2.485 4.8249 0.89166 0 8898
-2.46 -5.7897 0.58689 0 18177
-2.3833 -5.2685 0.95003 0 18231
-2.3826 7.2084 -0.17626 0 9501
-2.2235 -6.6376 1.1501 0 18045
-1.7715 -5.087 0.50255 0 18060
-1.7124 7.9539 -0.56893 0 9715
-1.5714 6.2374 -0.44979 0 9675
-1.5322 -5.2671 1.0335 0 18016
-1.4744 4.8347 -0.23571 1 9570
-1.4175 5.0633 0 0 9624
-1.345 -4.9436 0.84173 0 18011
-1.2136 -6.3142 1.0564 0 17992
-1.105 5.5151 -0.7905 0 9724
-1.0074 8.8142 1.0375 0 9746
-0.95621 -5.21 0.49419 0 17988
-0.88748 -6.0028 0 0 17985
-0.80808 6.2733 -0.29497 0 9743
-0.69985 8.248 0.968 0 9752
-0.63238 5.034 -0.35478 2 9744
-0.52239 7.1478 0.66864 0 9756
-0.45503 6.226 -0.87735 0 9755
-0.32496 6.5046 1.07 0 9760
-0.28661 -6.336 0.44351 0 17953
-0.13434 -8.2759 1.3599 1 17931
-0.12354 6.8053 0.63501 0 9765
-0.12043 5.7492 -0.13351 0 9764
0.12865 -6.091 1.0009 0 17913
0.17558 6.2469 -0.73082 0 9775
0.21424 5.0072 -0.94428 0 9781
0.25017 6.2558 0.5841 0 9780
0.31854 -7.1525 1.0062 0 17904
0.40836 6.1973 1.0204 0 9786
0.41808 5.3843 -0.50385 1 9791
0.42753 9.3428 1.5366 0 9783
0.50598 -5.5384 0.91371 0 17894
0.54786 5.2835 0.62117 0 9806
0.6048 7.2632 1.1974 0 9795
0.60937 -8.2585 1.3605 0 17895
0.64837 5.7441 0.676 0 9813
0.70313 -13.196 2.1711 0 17900
0.82945 4.9941 -0.23608 0 9829
0.83478 5.5328 -1.4648 0 9826
0.9947 7.819 0 0 9820
1.0239 7.212 1.1968 0 9823
1.0443 8.2085 1.1629 0 9822
1.2135 -8.2474 1.3696 0 17890
1.2138 6.9406 0.82397 0 9830
1.2631 5.5152 0 0 9875
1.2882 -12.86 2.1235 0 17893
1.3182 -8.7886 1.4601 0 17888
1.368 -6.6114 1.1092 0 17880
1.5338 6.2824 0.30158 0 9893
1.6263 8.8437 0 0 9833
1.7 -11.554 0.27115 0 17889
1.7339 -9.1852 0.87207 0 17884
1.7414 7.8162 0.18592 0 9867
1.7452 7.7191 1.3002 0 9871
1.7821 4.9744 0 2 10027
1.8758 -7.4348 0.89668 1 17878
1.9337 -6.6086 1.1313 0 17876
2.0988 -5.2902 0.53097 0 17868
2.1075 5.1232 0.91014 1 10107
2.1111 -10.517 0.24905 0 17881
2.1551 5.4211 0.95846 0 10088
2.1914 -8.6857 1.4717 0 17879
2.2971 5.321 0.27028 0 10141
2.4422 -5.4957 0.56107 0 17862
2.4773 6.1254 1.0856 0 10097
2.5762 6.0603 0.77008 0 10130
2.5966 -4.696 0.88161 0 17809
2.6049 9.2609 0.89752 0 9941
2.6051 6.7725 -0.50741 0 10062
2.8242 -4.3077 0.84627 2 17690
2.8466 5.1396 0.96527 0 10423
3.0433 6.4702 1.3472 0 10199
3.116 4.8649 0.81194 0 10653
3.1815 4.0328 0.11926 0 11072
3.2694 9.1261 1.5927 0 10029
3.3687 9.0775 -0.67706 0 10045
3.3974 -6.9811 1.2756 1 17853
3.4462 3.9504 -0.24447 0 11263
3.6734 -3.8669 0.74959 0 17421
3.7215 7.2537 1.3394 0 10314
3.7801 4.6513 0.98472 0 11133
3.815 -9.8663 0.7397 0 17870
4.1723 -5.1413 1.0878 0 17506
4.3078 -6.134 1.2315 0 17644
4.4025 -10.478 1.8673 0 17867
4.5073 -4.0542 0.14075 0 17405
4.7847 4.1991 0 1 11981
4.8472 5.5252 0.51397 0 11280
4.9176 -2.6934 -0.788 1 16756
4.9883 -5.1584 1.1789 0 17415
5.0571 -1.3333 0.85924 0 16016
5.1158 -3.1793 0.98958 0 16923
5.1273 0.32618 0.47932 0 15157
5.232 -5.1649 0.85975 0 17410
5.3101 -6.7431 1.4101 0 17532
5.4557 0.29834 -1.4304 1 15189
5.483 -1.0777 0.26059 0 15860
5.5073 -8.1926 1.6219 0 17672
5.6906 -4.7716 1.2201 0 17374
6.0014 7.4296 -0.66785 0 11115
6.0806 2.0416 -0.59841 0 13987
6.176 -4.3518 0.70486 0 17106
6.251 12.45 1.2997 0 10274
6.3514 13.215 0.68375 1 10218
6.404 9.5662 0.80499 0 10736
6.4043 13.032 1.3547 0 10246
6.4937 7.8971 1.9263 2 11158
6.5432 13.032 1.7053 0 10275
6.5468 0.47388 0.459 0 15123
6.6447 4.9097 -0.19181 0 12368
6.6629 13.071 2.4104 0 10304
6.6997 8.0957 1.2289 0 11165
6.767 0.43049 -0.31621 1 15154
6.8071 6.9877 1.6027 0 11577
6.8417 12.954 1.7132 0 10350
6.8454 -0.55799 -0.15946 0 15576
6.8589 -5.618 1.6704 0 17351
6.9223 8.4183 1.5317 0 11155
6.9316 7.3685 1.6621 2 11459
6.9762 12.093 1.9621 0 10481
6.9839 -4.8035 1.3926 1 17063
6.9855 3.8483 0.74406 0 12965
7.0872 10.197 1.1585 0 10824
7.1005 1.7375 1.201 1 14424
7.1273 -4.2893 1.3667 2 16881
7.164 1.2967 0.67923 0 14668
7.2737 4.7507 -0.2017 0 12619
7.3018 6.6395 0.92074 0 11891
7.3536 0.57486 -0.17125 0 15097
7.3978 2.8724 0.92804 0 13693
7.4389 9.772 1.726 0 10996
7.5443 4.0147 1.2011 0 13039
7.5808 3.4054 1.3654 2 13381
7.6244 1.8431 0 0 14432
7.6882 7.799 1.2807 0 11608
7.7186 6.2392 1.6306 0 12180
7.7423 2.6765 1.5434 0 13952
7.8341 10.165 2.1085 1 11027
7.8437 9.1514 0.56208 1 11227
7.8491 -6.429 0.94657 1 17349
7.8583 7.7008 1.8076 1 11708
7.9203 11.464 0.97436 1 10809
8.1153 7.0844 2.0296 0 12004
8.1764 9.4324 1.4598 0 11255
8.2923 8.3708 2.22 0 11628
8.2926 5.2789 1.615 1 12673
8.3896 7.4539 2.1144 1 11961
8.4122 8.7875 1.9986 0 11522
8.424 -5.9712 1.2075 0 17118
8.5048 10.157 0.92637 1 11183
8.5213 10.119 2.4925 0 11201
8.5346 5.7502 1.9389 0 12566
8.6015 10.15 1.2412 0 11208
8.6242 6.6104 0.50673 1 12294
8.77 6.7221 1.8154 1 12300
8.7861 -12.066 1.7455 0 17619
8.7977 5.4953 1.7042 0 12711
8.8127 -7.9267 1.9474 0 17406
8.8684 5.2594 1.4491 1 12817
8.9682 -11.871 0.69381 1 17587
8.9892 5.5453 1.2351 1 12735
9.0287 -8.2184 1.139 0 17407
9.056 5.6963 1.7577 0 12697
9.19 8.5998 1.4719 0 11810
9.1984 5.6368 2.0326 0 12750
9.2604 -3.4752 0.92279 0 16238
9.2725 10.205 1.2864 0 11362
9.3608 4.1091 1.6796 2 13430
9.3615 -11.336 0.68561 1 17488
9.3778 -5.6437 0.25411 0 16877
9.4517 -11.308 1.0306 1 17478
9.4629 7.0792 1.6609 0 12351
9.51 3.6925 1.4338 0 13694
9.5118 5.3815 1.5359 1 12911
9.5124 -3.2903 1.1771 0 16156
9.5191 2.5649 1.8574 0 14322
9.5639 9.5406 2.2194 0 11660
9.5876 3.9165 0.72421 2 13584
9.6054 -11.159 0.34185 1 17461
9.6156 2.6197 1.4006 0 14304
9.6864 7.7409 1.45 0 12209
9.7003 8.664 1.8279 0 11946
9.7258 10.16 2.6499 0 11524
9.7518 8.2147 1.1896 2 12083
9.7675 8.1814 2.0933 0 12099
9.8271 8.6242 2.1481 1 11991
9.9364 4.0914 0.75142 0 13567
9.9533 7.139 1.1428 1 12441
9.9816 4.0775 2.0315 0 13589
10.021 5.0377 1.5763 0 13157
10.044 7.8358 0.89079 1 12258
10.082 7.4493 2.3618 1 12378
10.123 7.2607 0.87112 1 12439
10.159 8.972 2.5536 0 11976
10.231 7.9815 2.4447 0 12263
10.297 4.3452 0.52118 1 13514
10.903 3.6946 1.3462 0 13979
11.437 1.6991 1.8997 0 14815
-6.0701 4.0513 -1.7292 1 4545
-4.0843 13.976 -1.7028 0 9601
-1.9709 12.94 -1.8396 0 9737
-1.0123 4.1715 -1.5623 0 9692
1.4296 3.0643 -1.6985 0 10189
2.4621 4.5028 -1.6014 0 10398
6.0628 4.2169 -1.9333 0 12503
