VERSION .7
FIELDS x y z intensity index
SIZE 8 8 8 8 8
TYPE F F F F F
COUNT 1 1 1 1 1
WIDTH 743
HEIGHT 1
VIEWPOINT 0 0 0 1 0 0 0
POINTS 743
DATA ascii
-4.3897 1.3975 0.10696 0 2379
-3.7314 -0.50849 0.17562 0 241
-3.5796 1.9274 0.66794 2 3570
-3.5493 -0.59904 -0.42093 0 120
-3.4431 -3.4001 0.45145 0 20120
-3.4254 2.1638 -0.18894 0 4150
-3.3358 2.7606 0.71138 1 5359
-3.2957 2.2898 -1.356 1 4567
-3.2553 1.3805 0.4135 0 2953
-3.1566 3.3556 0.21484 0 6554
-3.0693 2.8712 -0.097578 2 5913
-3.0247 1.4956 -0.88334 2 3320
-2.7466 -4.1402 0.46353 0 19558
-2.7217 4.0443 -0.4548 1 8087
-2.3745 3.5046 0.6955 0 8081
-2.3287 2.9529 -1.3688 0 7389
-2.2367 2.7191 0.57845 2 7209
-2.103 -3.2089 0.26828 0 19544
-2.014 -3.8524 0.40557 0 19324
-1.9279 4.3361 0.44272 0 9487
-1.6426 3.0078 -0.31973 2 8883
-1.6211 -3.408 0.17599 0 19251
-1.1401 3.6898 -1.011 1 10168
-1.0673 -4.3388 0.73408 0 19019
-1.0578 -4.8434 0.81449 0 19003
-0.96102 -4.4003 0 0 19001
-0.72721 -4.7635 0.67722 0 18989
-0.64698 4.0034 -1.0616 0 10597
-0.60078 -3.0012 0.28555 0 18996
-0.5504 3.4058 0 0 10596
-0.52511 4.8337 0.33999 0 10678
-0.48392 3.9186 0.2761 0 10656
-0.39482 -2.9949 0.56916 0 18987
-0.21096 -3.4295 0 0 18969
-0.047091 3.0312 -1.0244 0 10712
0.11192 -4.3914 0.61737 0 18928
0.12419 4.3911 0.10199 0 10715
0.2901 4.6109 0.75905 0 10719
0.30119 -3.3615 0.39468 0 18914
0.42773 3.2799 0.54343 0 10732
0.50673 -3.8804 0.45763 0 18909
0.52132 -4.398 -0.10282 0 18910
0.62221 -3.9688 0.7569 0 18907
0.68694 -3.3525 0.56223 1 18905
0.71013 -3.1409 0.22517 0 18904
1.0559 4.8715 0.11573 0 10785
1.5332 2.9642 0.54829 0 11046
1.5397 -4.3795 0.87466 0 18898
1.5663 3.5955 -1.0267 0 10919
1.8988 4.4689 -1.1505 0 10907
1.9473 2.9044 0.32624 0 11309
2.0309 -3.2921 0.63551 0 18828
2.0749 -4.3442 0.33664 0 18889
2.1163 3.3645 0.65302 1 11234
2.1572 3.0065 0.60795 0 11420
2.3651 2.7555 0.5966 1 11656
2.3808 4.0419 -1.3451 0 11162
2.3841 -2.6824 -0.50436 2 18491
2.4727 -1.8137 0.21443 0 18100
2.4762 3.6492 0 0 11323
2.747 1.2127 -0.14003 0 13942
2.7696 -2.1709 0.081702 0 18186
2.7747 3.3901 0.10171 2 11590
2.9294 1.1239 -0.89968 0 14311
2.954 -0.86661 0.21527 0 16994
3.0559 0.50425 -0.8881 0 15481
3.0833 -2.9321 0.098785 0 18376
3.1271 0.81863 -0.15074 1 15016
3.3836 -2.7982 0.82726 0 18249
3.5353 -0.46857 0.5859 0 16648
3.5966 -0.42377 -0.59498 1 16607
3.5987 -2.2426 -0.59594 0 17822
3.6285 -1.3566 0.72987 0 17139
3.6591 0.079842 0 0 16070
3.7838 -0.28052 0.4437 0 16482
3.7894 -1.4033 0.093818 0 17126
3.8554 1.3275 0.19015 0 14535
3.9653 2.5204 -0.32855 2 12949
4.0015 -2.829 -1.4052 0 18019
4.023 2.8802 0.81287 0 12650
4.2321 -2.3093 -0.90836 0 17635
4.2956 1.8084 0.10821 1 14057
4.5 0.98609 0.10696 1 15257
4.5313 -1.7539 0.45331 0 17165
4.5486 0.13818 -1.1913 2 16043
4.7192 1.3988 -1.2885 0 14823
4.9984 -0.1239 0.5847 0 16288
-2.5249 0.8282 -0.061694 0 2429
-1.918 2.2777 0.34822 0 7098
-0.16162 2.0354 -1.1472 0 10699
-0.093596 -2.4475 0.28643 2 18961
-14.76 2.5654 1.3977 0 1640
-14.427 0.17878 1.6872 0 874
-14.419 3.1993 1.378 0 1884
-14.228 1.9212 2.7051 0 1466
-14.077 3.6851 2.045 0 2097
-14.026 4.3311 2.0631 0 2333
-13.961 2.2562 0.32834 1 1581
-13.948 3.0538 1.3321 0 1868
-13.877 3.7625 1.6814 1 2138
-13.847 3.5836 1.0002 1 2078
-13.835 0.73473 0.32166 1 1070
-13.767 0.36773 0.96306 1 941
-13.601 1.5593 1.2773 0 1362
-13.558 3.4634 1.3055 0 2061
-13.451 5.0236 1.6791 0 2692
-13.45 2.4588 1.2756 2 1686
-13.343 2.841 1.9172 0 1839
-13.316 1.0971 2.1951 1 1213
-13.286 2.5488 2.5488 1 1736
-13.215 2.8137 2.2198 1 1840
-13.199 1.1641 0.30764 1 1237
-13.176 3.4101 2.5644 1 2085
-13.117 1.1961 0.61425 1 1250
-13.083 0.8483 0.91674 1 1125
-13.005 5.4723 1.65 0 2934
-12.91 5.1244 1.2958 1 2811
-12.904 2.3939 0.91772 1 1700
-12.832 7.5465 2.4458 0 3873
-12.729 2.3615 0.30058 1 1698
-12.699 6.5543 2.3478 0 3447
-12.683 0.78238 0.88856 2 1111
-12.615 1.2214 0.59105 1 1278
-12.608 1.1119 0.88507 1 1238
-12.603 4.0537 2.4944 0 2405
-12.594 3.7712 1.5374 0 2283
-12.557 6.0245 1.2994 0 3241
-12.55 7.5823 1.3679 0 3976
-12.532 3.5133 2.1384 2 2190
-12.531 7.6129 1.7146 0 4005
-12.478 1.3909 2.0628 1 1351
-12.477 4.0539 1.5341 0 2417
-12.449 2.35 1.182 0 1716
-12.443 1.4969 0.58444 1 1389
-12.397 -8.1559 1.3845 1 20651
-12.382 3.5879 1.8118 1 2237
-12.304 1.0137 0.86331 1 1209
-12.271 0.7957 1.7283 0 1128
-12.265 -8.2261 2.4263 1 20632
-12.17 4.4248 1.5144 0 2639
-12.159 4.7064 0.91172 1 2758
-12.135 -8.548 1.038 1 20563
-12.135 3.1 1.7603 2 2063
-12.132 1.8911 1.4359 2 1560
-12.127 -7.8303 1.3467 0 45
-12.106 2.0301 1.1452 0 1613
-12.07 6.1871 0.63251 1 3420
-12.061 8.277 0.33962 1 4511
-12.054 0.25671 0.27992 1 912
-12.042 5.5261 0.92651 1 3127
-12.039 5.3147 0.61369 1 3040
-11.978 6.0952 1.2539 2 3402
-11.881 7.1783 0.64732 1 3972
-11.865 3.97 1.1673 1 2467
-11.851 2.957 2.0067 0 2029
-11.827 9.2174 2.4636 0 5093
-11.793 2.511 1.1249 1 1837
-11.748 5.3911 0.60279 1 3126
-11.729 4.1905 0.87098 1 2599
-11.72 -8.0097 -0.99263 1 20605
-11.715 0.24948 0.81936 0 914
-11.697 7.3459 0.32068 1 4129
-11.664 3.8622 1.7269 0 2453
-11.663 0.38078 0.27092 2 969
-11.631 1.0606 1.0896 0 1252
-11.629 1.436 1.925 1 1409
-11.609 0.75276 1.0853 0 1126
-11.606 0.8869 1.6358 0 1183
-11.592 3.0002 1.4003 1 2080
-11.588 4.4065 1.4498 0 2727
-11.587 6.328 0.30652 1 3604
-11.563 3.0983 0.83708 1 2122
-11.527 6.5588 2.1789 0 3752
-11.516 5.5718 0.89456 1 3259
-11.486 -8.4991 2.3475 2 20501
-11.458 8.1069 0.32588 1 4643
-11.423 3.3468 1.6729 2 2254
-11.411 9.2178 2.4101 2 5259
-11.405 6.6221 0.3062 1 3811
-11.363 -7.3876 0.63204 1 40
-11.293 0.0098554 0.26219 0 822
-11.293 6.823 2.4859 0 3983
-11.278 9.1103 0.67611 1 5250
-11.268 7.9278 0.64248 1 4617
-11.265 4.4327 1.1294 2 2794
-11.265 8.8937 1.0037 1 5140
-11.249 8.104 2.6121 0 4737
-11.239 7.7617 0.31711 1 4539
-11.231 2.2543 -0.26595 2 1771
-11.224 -8.4087 0.3256 1 20481
-11.22 -7.3812 1.8875 0 20652
-11.216 -8.9764 0.33354 1 20383
-11.216 1.3493 1.054 0 1391
-11.213 -8.1468 0.9692 2 20525
-11.186 7.6247 0.6313 1 4485
-11.152 2.9548 0.26785 0 2109
-11.12 9.4241 2.3948 0 5461
-11.114 3.2921 0.54055 1 2268
-11.108 6.0662 2.0794 0 3615
-11.078 0.78045 0.25783 0 1151
-11.049 3.4858 0.81015 0 2363
-10.995 7.6845 2.2039 0 4599
-10.979 7.6731 2.5236 0 4601
-10.952 7.0096 2.4499 0 4222
-10.932 2.4938 0.26033 0 1912
-10.851 -9.3169 0.33205 1 20285
-10.843 4.7484 0.82773 0 3023
-10.838 1.7224 -0.51177 2 1566
-10.83 3.5859 1.0644 0 2450
-10.785 9.0275 0.65589 1 5404
-10.783 3.094 0 2 2214
-10.783 7.7687 0.30856 2 4725
-10.78 0.82377 -0.251 1 1177
-10.778 -8.7778 0.32272 1 20356
-10.754 4.1239 0.80541 0 2742
-10.719 1.7976 2.0478 2 1617
-10.66 8.4154 2.5588 0 5149
-10.622 1.3118 0.24849 1 1403
-10.621 7.8446 2.4877 0 4844
-10.566 2.7662 -1.019 2 2089
-10.536 6.0343 0 0 3763
-10.516 6.1059 0.85033 1 3815
-10.494 -0.8738 0 0 454
-10.471 2.9708 0 2 2198
-10.47 5.7176 0.5563 1 3606
-10.409 4.2373 0.78588 1 2863
-10.372 0.63985 0 0 1108
-10.309 1.1491 0.24084 0 1345
-10.199 2.1715 -0.24209 2 1832
-10.198 6.3625 0 1 4101
-10.128 0.24576 0.47245 1 927
-10.06 -9.5898 0.32268 1 20146
-10.014 1.2367 0 1 1402
-10.005 1.9194 0.23652 0 1729
-9.859 10.602 2.0347 0 6619
-9.8393 10.644 1.3523 1 6644
-9.8238 2.4512 0.47217 1 2024
-9.8147 3.2497 0.72296 0 2449
-9.7991 2.5361 0 2 2075
-9.7851 4.5566 0 2 3158
-9.784 8.6897 2.4655 2 5676
-9.7556 9.7863 0.32082 1 6267
-9.7496 0.74505 0 1 1178
-9.7122 2.0396 0 0 1816
-9.6668 4.2334 -0.24501 2 3018
-9.6634 8.3766 0.29691 1 5558
-9.6324 2.8222 0.23304 1 2250
-9.6269 -7.7929 0.8661 2 20366
-9.6128 -0.0755 1.5794 2 788
-9.5909 4.9502 -0.25058 2 3438
-9.5897 6.2944 -0.26632 1 4314
-9.5657 9.1604 2.176 1 6045
-9.5587 6.3148 1.0688 0 4349
-9.5166 11.438 1.0405 1 7148
-9.5123 -6.621 -0.81043 1 20576
-9.5053 9.9886 1.9378 1 6504
-9.4804 3.0183 -0.23099 2 2377
-9.4389 0.037889 -0.66004 0 830
-9.4203 9.9513 2.5818 0 6536
-9.3958 7.0674 2.2152 1 4924
-9.3841 11.408 1.3781 0 7203
-9.3661 6.2677 2.1233 0 4412
-9.3227 -0.26366 1.0907 2 694
-9.3226 8.4237 0.29171 1 5748
-9.314 8.7128 0 0 5915
-9.289 -7.5194 -0.55732 0 20364
-9.2472 -0.20662 -0.21475 0 714
-9.2299 0.16917 0.64553 0 899
-9.219 1.3548 0 1 1513
-9.2186 3.535 -0.92112 1 2735
-9.1871 9.7662 1.8844 0 6561
-9.1815 9.0479 0.29928 1 6181
-9.159 6.7231 0.52984 1 4806
-9.117 9.9739 2.2201 0 6704
-9.0277 9.8762 2.521 0 6706
-8.9891 -7.2766 1.3525 0 20368
-8.9658 1.6391 -0.85033 0 1679
-8.9485 -6.5015 -0.77346 1 20521
-8.9378 2.0126 0.64064 0 1898
-8.9072 6.8644 1.3151 0 5030
-8.9042 6.4978 -0.25592 0 4774
-8.8794 -8.1279 1.1231 1 20190
-8.8693 9.7643 2.1672 2 6734
-8.8159 5.8995 1.4908 0 4408
-8.8118 -12.102 0.34756 1 19672
-8.7038 6.2359 -0.24859 0 4693
-8.6887 -10.97 -0.3249 0 19784
-8.6716 -9.3941 2.1004 0 20019
-8.6578 5.9415 1.2279 1 4518
-8.6395 -5.7205 1.9522 0 28
-8.6369 6.7746 1.8034 0 5118
-8.6335 -6.4681 -0.75435 1 20478
-8.6329 7.8443 1.3641 0 5783
-8.6167 -5.7055 1.4524 0 26
-8.6107 -7.8406 1.6367 0 20200
-8.5622 7.6905 1.6175 0 5730
-8.5533 3.4263 -0.85962 0 2820
-8.5439 -9.647 -0.90111 2 19961
-8.521 -10.381 0.31181 1 19836
-8.5185 2.364 -0.41226 0 2163
-8.4679 -7.5791 1.5972 0 20225
-8.4646 -10.25 1.8683 1 19849
-8.4626 -12.059 -0.34203 0 19628
-8.4573 -7.4798 -0.7895 2 20239
-8.4522 1.7488 -1.0093 0 1797
-8.3842 -7.5042 2.12 0 20227
-8.3679 -11.21 -0.65235 0 19706
-8.3667 0.37115 0.97938 0 1032
-8.3399 -6.5135 0.98726 0 20420
-8.3272 8.8521 1.1338 1 6557
-8.2866 8.166 0 0 6179
-8.2522 0.24636 0.5773 0 956
-8.1962 -11.323 -0.97743 1 19662
-8.1672 -6.8095 1.4944 0 20325
-8.134 9.8358 2.4048 0 7183
-8.1293 8.8468 2.2637 0 6680
-8.1106 -7.0853 1.7694 0 20263
-8.0353 -0.13324 0.56196 0 743
-8.0258 8.2877 0.26785 0 6408
-8.017 10.166 1.8195 0 7399
-8.0168 6.1027 -0.23392 2 4963
-7.9846 -7.7946 1.8333 1 20131
-7.9699 -7.9616 1.5832 0 20112
-7.9552 -6.069 1.8852 1 20460
-7.9 -6.6242 1.2056 1 20316
-7.8676 9.1825 0 0 7004
-7.8508 -11.609 -0.32537 0 19581
-7.8483 -6.7007 1.6955 2 20295
-7.8225 9.5675 1.153 1 7233
-7.801 -11.684 2.6469 1 19570
-7.7976 -9.1686 1.4075 1 19895
-7.7907 -7.5155 1.7785 2 20141
-7.7825 -11.577 -0.97547 1 19571
-7.7818 -9.7063 0.28884 1 19799
-7.7731 -9.8143 1.168 1 19786
-7.7249 -6.832 1.4493 0 20245
-7.7068 -9.8466 2.3559 2 19775
-7.6973 3.8899 1.4169 0 3385
-7.6679 -1.2268 1.4631 0 163
-7.6295 -11.944 1.3222 0 19514
-7.5656 -9.722 1.7313 0 19768
-7.5467 8.2127 1.0406 2 6672
-7.5428 -11.435 1.602 0 19550
-7.5129 -11.529 -0.64173 1 19535
-7.4708 3.1681 -0.75707 1 2942
-7.4219 2.6282 1.4834 0 2588
-7.4212 -12.312 1.3412 2 19463
-7.4129 -6.988 1.6737 1 20160
-7.37 8.6536 1.0605 1 7040
-7.2908 -6.716 1.3931 0 20182
-7.2532 -10.087 -0.86875 0 19656
-7.2419 3.554 -0.75261 0 3291
-7.1982 -8.8195 1.5999 2 19830
-7.1494 -8.972 1.0703 2 19793
-7.1431 7.7274 -0.24432 2 6636
-7.1338 8.3763 2.073 0 7048
-7.0999 8.3364 0.51065 1 7037
-7.0874 -12.486 2.3589 2 19411
-7.0709 -9.2551 2.1944 0 19748
-7.0681 7.4274 0.71696 0 6498
-7.0546 9.6708 1.3998 0 7747
-7.0409 -12.829 2.4042 2 19385
-7.0198 -7.5173 0.95957 0 20032
-6.9824 -11.213 2.4888 0 19493
-6.976 -10.063 1.1424 0 19615
-6.9739 -8.8527 2.1233 2 19782
-6.9698 -9.9872 -0.56795 0 19619
-6.8679 -5.082 1.6097 2 20502
-6.8473 -12.916 2.7543 0 19343
-6.7963 -5.4683 1.4331 1 20378
-6.7674 6.3684 1.306 1 5953
-6.7212 -10.385 -0.57689 1 19526
-6.7208 -6.6741 0.4417 0 20116
-6.6699 -6.9797 1.129 0 20066
-6.5859 8.104 0.97425 2 7260
-6.5314 -10.225 -0.28169 0 19511
-6.5175 -6.3225 1.4918 0 20136
-6.5056 -4.1749 1.4564 2 51
-6.4859 -4.3223 0.72716 1 20638
-6.3833 2.7954 1.1449 0 3029
-6.3805 -7.6826 0.93171 2 19856
-6.3804 -0.85019 1.2127 0 259
-6.3244 -13.6 2.1079 1 19238
-6.3119 -10.75 1.163 0 19439
-6.3116 -7.0024 0.8795 1 19989
-6.2964 -7.8088 0.46779 1 19809
-6.2525 -11.083 0.88981 1 19404
-6.2514 -0.013095 0.73105 0 812
-6.2454 -5.5899 1.3771 2 20226
-6.2156 -12.869 2.0085 0 19270
-6.1692 5.3477 1.5382 0 5568
-6.1084 -4.0446 0.85673 0 25
-6.1014 -13.532 0.69223 1 19220
-6.0965 -11.341 1.2013 0 19359
-6.0762 -7.0618 1.7552 0 19920
-6.0672 -13.557 2.7984 0 19219
-6.0571 0.30366 0.70922 0 1059
-6.0552 -6.7557 1.0609 0 19981
-6.016 -8.9493 1.7717 1 19578
-5.9881 -11.219 1.4872 0 19350
-5.9824 -8.2159 1.9148 1 19679
-5.9506 0.45474 0.9805 1 1184
-5.9501 -6.0845 1.6034 0 20096
-5.947 -8.2154 0.9462 0 19666
-5.931 -11.671 1.2213 0 19299
-5.9065 6.5391 0.82209 0 6757
-5.8994 6.5313 1.6582 0 6764
-5.8412 -9.0256 2.0256 0 19534
-5.8037 5.1836 -1.0936 0 5679
-5.7973 -6.8554 1.6915 0 19888
-5.796 -11.574 0.90516 1 19291
-5.7874 -8.4523 1.93 0 19598
-5.7466 -6.0493 0.77843 0 20056
-5.6618 -12.753 2.2924 0 19215
-5.6539 -10.973 1.4435 0 19311
-5.5966 -9.9203 1.6008 0 19405
-5.5549 -7.0972 1.054 1 19773
-5.4956 -3.6402 0.46095 0 20646
-5.4666 -5.3683 0.89599 2 20125
-5.4651 -7.0228 1.462 1 19769
-5.4173 -9.349 1.7752 2 19430
-5.4121 -13.896 1.7439 0 19143
-5.3993 5.6401 -0.18128 0 6463
-5.2043 6.4429 1.5605 1 7295
-5.1718 -7.9366 1.5564 1 19541
-4.9992 -12.299 2.5014 0 19162
-4.8893 -9.8322 1.8041 1 19290
-4.7667 -13.75 1.3577 0 19092
-4.7449 -12.183 0.91423 1 19142
-4.7417 -8.1832 0.44105 0 19426
-4.7407 -11.57 2.3559 0 19169
-4.7134 -12.526 1.2487 0 19133
-4.6651 -7.7396 1.4847 0 19466
-4.562 -12.453 2.1789 0 19126
-4.5121 -8.1133 1.5252 0 19397
-4.4573 -13.214 1.301 1 19080
-4.4121 -2.9592 0.12334 0 4
-4.0513 6.986 1.3268 0 8693
-3.913 4.3079 0.40696 0 6727
-3.5252 4.0682 0.75655 0 6960
-3.4547 -7.5422 -0.1926 0 19227
-3.3866 6.8523 1.2558 0 9206
-3.1997 5.0323 0.8381 0 8343
-2.304 -7.1077 1.2276 0 19069
-2.3006 -9.8473 1.6614 0 19009
-2.1741 -7.673 1.3103 0 19033
-1.9502 -5.9527 0 0 19070
-1.5512 -7.2049 0.51536 0 18999
-1.1772 5.1605 0.49381 0 10445
-1.0337 -5.24 0.37348 0 18995
-0.92692 5.9396 -0.28034 0 10606
-0.73781 6.4357 -0.60435 0 10668
-0.63112 -6.9618 0.81747 0 18977
-0.56104 -5.0496 0.11796 0 18985
-0.53033 6.2243 0.5828 1 10697
-0.47696 -6.7698 -0.31649 0 18971
-0.41813 6.165 1.0152 0 10706
0.09866 -7.155 1.0057 0 18932
0.13665 6.1158 -0.28528 0 10714
0.29215 5.1134 -0.47784 1 10716
0.53376 6.2007 -0.7278 1 10722
0.56157 -5.886 0.97143 0 18913
0.67886 5.5934 -0.13082 0 10727
0.82259 6.0443 0 0 10733
0.8998 -7.7768 0.9155 0 18911
1.0312 4.962 0.47282 0 10776
1.104 10.628 0.99692 0 10723
1.1686 -7.5836 1.2606 0 18908
1.5636 4.9987 -1.3711 0 10820
1.5892 5.9021 -0.14191 0 10806
1.7989 5.3114 0.65579 0 10838
1.8691 -9.5443 1.5979 0 18906
1.915 -7.635 1.4831 0 18903
1.9584 -4.6048 0.94279 0 18891
2.0415 4.8049 -0.12121 0 10906
2.1171 6.2512 0 0 10837
2.2644 4.5378 0.59307 0 11014
2.4526 -6.3167 0.15732 0 18895
2.4666 4.4463 -1.3311 0 11113
2.5082 7.406 1.2846 0 10839
2.6047 5.979 -0.60844 0 10917
2.7302 12.956 2.1753 0 10779
3.0792 -7.7297 1.367 1 18894
3.1305 5.6826 0.60528 0 11108
3.1419 -8.3901 0.83584 0 18897
3.1778 7.2944 -0.55638 0 10918
3.3625 -3.8047 -0.35506 0 18495
3.5243 -4.6838 -0.27335 0 18676
3.5345 7.5694 0 0 10958
3.7015 -8.9185 1.8193 0 18892
3.7476 6.7138 1.2632 0 11121
3.85 -5.4014 1.0898 0 18728
3.9278 7.4876 0.78884 1 11056
4.0415 4.9678 1.0522 0 11586
4.1317 -5.5553 -1.4716 0 18697
4.1494 -5.3186 0.94805 0 18646
4.2501 -7.9363 1.0528 0 18877
4.289 -3.2238 -0.62745 0 18132
4.3886 3.5843 0.79635 0 12346
4.627 -2.2209 0.23935 0 17451
4.65 -3.866 -0.42286 0 18251
4.718 9.4545 1.736 0 11016
4.7334 6.4038 1.3083 0 11461
4.7774 -1.568 0.4691 2 17051
4.8978 2.9569 0.53376 0 13084
4.9955 3.4256 0.42356 0 12771
5.0334 -0.59307 -0.71229 0 16608
5.1134 -1.2295 -0.49066 0 16899
5.2272 1.749 -0.25705 0 14589
5.2846 -1.8538 0.39161 0 17087
5.3103 4.6292 -0.49262 0 12212
5.5308 1.6394 -0.6746 0 14811
5.6839 1.7031 -1.1179 1 14808
5.7808 6.3575 1.4117 0 11745
5.8019 3.5931 0.63668 2 13019
5.824 5.2883 -1.1056 0 12110
5.9186 3.8598 0 0 12890
6.2228 -2.0423 0.7659 0 17052
6.2353 -1.9075 1.0713 2 17021
6.2563 6.2673 -0.82618 0 11893
6.2576 -6.5689 1.7093 1 18448
6.3202 2.3204 0.31397 0 14408
6.335 1.7986 0.61439 1 14894
6.3521 2.5858 0.63984 1 14139
6.5074 -1.9908 0.9564 0 17019
6.5928 7.9101 0.96069 0 11614
6.8206 -4.7616 1.1691 0 17993
6.8342 -2.6002 -0.8551 0 17147
6.9746 -5.9716 1.2904 0 18284
7.0575 -7.0304 0.69659 0 18420
7.1058 -4.634 0.59321 0 17894
7.1727 4.6455 1.6101 1 12914
7.1899 -5.503 0.42223 0 18159
7.2418 0.19849 1.3649 0 16059
7.2605 -10.439 1.487 0 18744
7.2702 3.698 1.3401 2 13575
7.3361 0.010245 0.51299 0 16158
7.3517 -5.2925 1.7067 0 18071
7.3536 -4.8857 1.6634 0 17920
7.3663 -9.3844 1.113 0 18638
7.3784 -7.477 0.48987 1 18424
7.3913 0.032251 1.0388 0 16149
7.4914 -1.1263 1.0647 0 16691
7.5226 -10.816 0.30587 1 18742
7.5357 -5.9406 1.3486 1 18196
7.5771 -9.9427 1.4619 0 18665
7.5969 1.6647 1.4653 0 15265
7.6041 -11.638 0.97213 1 18792
7.6096 -0.98426 1.4457 0 16642
7.6326 -9.551 0.85494 1 18616
7.6687 -6.0455 1.6043 2 18197
7.6705 -2.6907 0.75837 0 17088
7.6839 -10.78 1.2351 1 18724
7.6841 -10.083 1.7817 0 18667
7.7211 -1.9509 0.9313 0 16924
7.736 -12.624 1.3813 0 18830
7.7814 6.2051 1.6351 0 12395
7.7867 -6.5153 0.47347 1 18257
7.787 2.9363 1.1696 0 14356
7.7944 -7.5401 1.7817 0 18396
7.8534 -4.7731 0.85739 1 17784
7.8597 -11.092 0.95064 1 18730
7.8619 5.8005 1.8408 0 12571
7.8806 4.0675 0.62014 0 13527
7.9094 -11.237 2.2577 0 18738
7.912 -12.193 1.356 1 18796
7.9442 -8.4331 1.0809 0 18453
8.0305 0.060272 1.5131 1 16139
8.0307 -5.8175 1.1596 0 18078
8.0552 1.8641 0.77137 2 15197
8.0564 -5.4874 0.90941 0 17956
8.0701 3.5897 0.61762 0 13930
8.0727 0.59849 0.75521 1 15861
8.0926 -3.598 0.6193 0 17325
8.1213 -0.24529 1.5308 2 16322
8.1268 -12.524 1.044 1 18795
8.1292 5.9279 1.8956 0 12600
8.1819 -4.0154 0.42503 0 17481
8.1935 7.3516 1.027 1 12147
8.2219 5.6023 0.46397 0 12784
8.2271 -9.2566 1.1554 1 18493
8.2492 6.2004 1.6955 0 12524
8.2641 -8.8777 0.56562 1 18459
8.2668 -9.1973 1.738 0 18485
8.2717 -9.5289 0.58844 1 18508
8.2902 -6.7349 0.24798 0 18229
8.294 -6.9768 1.2674 2 18265
8.3192 -3.2737 1.4688 0 17183
8.3279 -6.4087 0.73481 0 18169
8.3289 -6.5659 1.2403 2 18195
8.3374 4.4256 1.3266 0 13446
8.3412 -11.347 1.3139 1 18704
8.371 -10.599 0.31358 1 18631
8.371 8.2434 1.9302 0 11939
8.3733 -3.7228 1.0716 0 17327
8.3758 -10.168 2.1643 0 18583
8.3914 -9.3919 0.29241 1 18487
8.4 -6.5841 1.7535 2 18190
8.4031 8.2232 0.54829 1 11946
8.4342 -11.903 2.3968 0 18734
8.4451 7.4454 0.78727 1 12189
8.4789 -10.238 1.8683 0 18572
8.5063 1.052 1.4082 0 15654
8.5066 7.6755 0.53431 2 12128
8.5075 -7.2841 1.8401 0 18285
8.5182 9.2537 2.0664 0 11762
8.5781 4.6169 1.1392 2 13404
8.6085 9.1928 1.77 0 11787
8.6134 -10.456 1.2639 1 18580
8.6171 0.96352 0.60632 0 15699
8.6294 -2.5873 0.84049 1 17006
8.6351 -10.364 1.5776 0 18561
8.6527 -5.5677 0.23889 0 17876
8.6742 5.4097 0.47673 1 13001
8.6877 7.9776 0.27384 1 12092
8.6906 -9.5575 1.2052 0 18473
8.7244 4.4683 0.68543 0 13550
8.7276 -11.735 2.0553 0 18696
8.729 -4.2499 1.3645 1 17472
8.7721 -10.782 0.97199 1 18596
8.7832 4.4348 1.3828 2 13593
8.8306 5.4347 0.96738 0 13036
8.8431 4.993 0.23578 0 13262
8.8519 -10.136 0.62757 1 18502
8.8665 -7.2442 0.53394 1 18235
8.8706 -1.892 0.42298 0 16854
8.9092 -4.5003 0.23174 0 17522
8.9098 -2.5835 1.7478 1 16992
8.9149 -9.3062 2.1173 0 18443
8.9505 -10.554 0.32128 1 18533
8.9516 -11.003 0.66148 1 18595
8.9527 -11.963 0.34691 1 18684
8.9668 -5.1001 1.6948 1 17695
9.0151 -10.385 1.283 0 18509
9.0378 -11.933 1.3965 1 18671
9.0795 -7.7327 1.9594 1 18281
9.1121 -9.899 0.31237 1 18464
9.1344 1.7541 1.5281 1 15384
9.1362 -4.5154 0.71263 0 17493
9.1477 1.8944 0.43565 1 15313
9.1538 -2.6854 0.44487 0 16993
9.1646 -1.5123 1.7501 0 16755
9.172 -10.444 2.2836 0 18499
9.1727 -6.0552 0.25518 2 17905
9.1811 1.515 0.65069 0 15480
9.2059 9.4402 0.92204 1 11849
9.2079 -7.6147 1.6793 0 18247
9.2612 5.4814 1.7681 0 13143
9.2642 0.6592 0.8665 1 15877
9.2677 4.9194 0.7337 0 13443
9.3475 -10.098 1.2838 2 18462
9.3643 -7.5587 2.2674 0 18227
9.3655 -4.1346 0.95511 0 17314
9.4018 0.96993 0.44077 0 15736
9.4038 5.9403 1.8274 1 12975
9.4132 5.3866 1.5242 0 13232
9.4452 9.5213 0.62543 1 11883
9.5023 8.9358 0.60829 1 12051
9.5449 -9.9013 1.9328 0 18441
9.6131 0.9646 0.22431 0 15750
9.6211 5.6154 0.5195 1 13171
9.6399 -7.1149 2.2574 2 18114
9.645 -7.468 0.85298 1 18176
9.6546 -4.8431 1.7746 2 17518
9.6651 -6.4629 0.26994 0 17923
9.703 5.2223 0.77053 0 13402
9.7198 -10.689 2.7221 0 18477
9.74 3.2287 1.4421 0 14614
9.7648 -2.258 0.93505 1 16883
9.7783 -2.4434 1.4165 0 16919
9.7821 -8.8295 0.61453 1 18334
9.8116 8.8035 1.5416 0 12149
9.8226 7.8329 0.87851 1 12391
9.8231 8.266 1.1977 0 12288
9.8557 5.3446 1.3111 0 13382
9.8895 -2.0156 1.4185 0 16841
9.9026 -10.948 2.4253 0 18481
9.9233 -10.294 0.33196 2 18438
9.9244 -9.7153 0.97115 1 18405
9.9356 -9.8976 0.3256 1 18419
9.9374 3.1028 0.72798 1 14725
9.9596 -1.1735 0.93561 2 16611
9.9834 8.3504 1.522 0 12301
9.9904 3.3427 1.7308 1 14599
10.001 1.0318 0.93802 0 15738
10.014 -1.0932 0.23387 0 16581
10.08 0.65889 1.1813 1 15903
10.087 4.9113 1.312 0 13696
10.126 -6.8145 2.2996 0 17939
10.135 2.8146 1.7282 1 14936
10.15 -10.286 1.0105 1 18425
10.181 4.4247 0.77625 0 13984
10.205 -10.105 2.3595 0 18418
10.208 -5.5334 1.0833 2 17622
10.212 -7.4415 1.4777 0 18091
10.223 2.0223 0.97221 1 15355
10.224 -3.7859 2.0541 0 17131
10.267 -6.5255 1.9986 1 17865
10.293 -8.7108 0.31307 1 18270
10.317 -8.8836 0.95204 1 18287
10.368 -5.8972 2.2474 0 17696
10.373 4.4351 1.5855 0 14026
10.385 3.8127 1.2937 0 14411
10.391 0.014511 0.96942 1 16159
10.434 -6.2964 0.85215 1 17773
10.529 -8.9671 1.2903 0 18278
10.532 -9.7324 1.677 0 18360
10.532 -7.2223 1.1914 0 17965
10.541 2.5326 1.0114 0 15147
10.544 4.948 0.27041 0 13791
10.549 0.503 0.49248 1 15973
10.572 3.3657 1.2974 2 14690
10.595 -6.439 2.0369 0 17787
10.626 -0.63315 2.0056 0 16427
10.656 -2.2067 1.2725 0 16846
10.696 -6.6657 1.1758 0 17830
10.696 -0.014934 0.99785 0 16174
10.723 -5.1076 0.55388 2 17438
10.723 0.29391 1.0008 0 16053
10.742 -6.5289 2.3685 0 17788
10.748 -1.841 2.0544 1 16779
10.821 -5.1545 1.6846 0 17441
10.839 4.8574 1.6692 0 13914
10.864 -4.7959 1.3887 0 17315
10.866 -0.80558 1.7901 0 16486
10.917 -10.205 2.4552 0 18369
10.934 3.1044 0.79481 0 14893
10.96 4.0239 1.9182 0 14414
11.016 0.24038 1.2886 0 16073
11.017 -4.8636 0.2796 1 17312
11.142 -6.2093 2.4033 0 17666
11.169 -6.2652 1.7998 0 17677
11.171 -6.1361 1.4904 0 17645
11.183 -6.5739 1.2102 1 17739
11.191 4.0003 1.1088 0 14462
11.243 -1.9258 1.3339 0 16776
11.449 -4.7774 1.4507 0 17248
11.644 -5.2185 0.59506 2 17334
11.752 -6.5489 0.94074 1 17662
11.803 -4.6066 0.59086 1 17171
-8.2299 -7.1089 -1.5284 0 20273
-0.77014 -0.48781 -0.19377 2 54
5.5547 -4.0476 -1.9708 0 18089
