VERSION .7
FIELDS x y z intensity index
SIZE 8 8 8 8 8
TYPE F F F F F
COUNT 1 1 1 1 1
WIDTH 473
HEIGHT 1
VIEWPOINT 0 0 0 1 0 0 0
POINTS 473
DATA ascii
-4.7587 0.12461 0.33288 0 242
-4.7151 -0.38434 -0.10983 0 115
-4.6018 1.3902 -0.56217 0 278
-4.5873 -0.013611 0.86429 0 234
-4.5434 0.58282 0.75256 2 258
-4.4992 1.3447 0.65996 0 277
-4.188 1.0411 -0.30177 0 274
-3.9217 1.4104 -0.48737 1 299
-3.9023 1.2898 0.2874 0 286
-3.893 0.51114 0.27456 0 259
-3.8892 0.21471 -0.36339 0 246
-3.8306 2.8604 -0.11099 0 928
-3.7201 3.2522e-07 0.61119 2 235
-3.6396 -3.2668 0.11355 0 12919
-3.5114 1.8883 -0.84745 0 557
-3.3488 2.2964 0.76505 0 826
-3.3255 0.47625 -0.31342 0 260
-3.2818 1.5971 0.68765 0 481
-3.2764 0.97924 -0.23913 1 276
-3.1584 0.40516 0.37238 0 257
-3.118 3.0184 0.81763 0 1260
-2.7649 1.2571 0.49901 0 446
-2.7593 -3.9465 0.79115 0 12604
-2.7373 2.9935 0.47436 0 1421
-2.699 -2.4792 0.60212 0 12901
-2.673 -2.1715 0.5658 0 13007
-2.5402 3.3382 0.58954 0 1675
-2.5001 3.7815 -1.1867 1 1859
-2.4988 -2.6387 0.16947 0 12802
-2.3017 2.9705 -0.17525 0 1651
-2.2961 -2.6164 -0.08082 0 12747
-2.2652 3.5378 0.097532 0 1904
-2.1068 2.6231 -0.96473 0 1596
-1.9979 -3.466 0.37324 0 12500
-1.9919 -3.8575 0.30358 1 12429
-1.9083 3.3106 -1.0003 0 2074
-1.8727 3.5279 -1.3496 0 2206
-1.7195 -4.1186 0.20813 0 12265
-1.4801 3.9969 0.599 0 2628
-1.4767 3.9184 -0.19528 0 2609
-1.4428 -3.4559 0.086948 0 12264
-1.4269 -4.0295 0.70231 0 12115
-1.4086 -4.2073 -0.10301 0 12075
-1.3571 3.0295 0.3097 0 2427
-1.3433 4.7917 0.93761 0 2814
-0.92176 4.3291 -1.4956 0 2892
-0.8753 3.4693 -0.58785 2 2846
-0.76129 3.213 -0.23089 0 2869
-0.67047 3.7375 0.71543 0 2906
-0.53398 4.3364 0.82319 0 2917
-0.51007 -4.0319 0.28419 0 11943
-0.49733 -4.829 0.91465 0 11931
-0.44925 3.4828 -0.9193 0 2915
-0.38848 -3.6715 0.34444 0 11933
-0.37294 4.1058 0.67734 0 2922
0.024765 3.0845 -0.14385 0 2947
0.063311 -4.7107 0.88762 0 11873
0.17943 -3.5056 -0.16369 1 11855
0.29881 3.5734 -0.7622 0 2990
0.41654 -4.8192 0.79471 0 11846
0.50503 4.7179 0.22127 0 2997
0.59262 -3.2772 -0.15531 0 11839
0.93473 3.4691 0.67692 0 3155
0.99147 4.8258 0.45963 0 3077
0.998 4.1252 -1.4341 0 3130
1.0837 -3.7644 0.4581 0 11826
1.3061 -2.928 0.29911 0 11798
1.342 3.5439 -1.2805 0 3293
1.5558 4.0383 -1.2409 0 3306
1.574 2.7023 -0.97584 1 3822
1.6033 -4.473 0.55567 0 11823
1.6138 -3.591 0.091404 1 11796
1.7352 2.8271 -1.2073 0 3900
1.7702 4.5948 0.80898 0 3307
2.1804 -2.1449 0.21387 0 11192
2.1825 3.5104 0.19276 0 3926
2.3512 3.4159 -0.096278 0 4096
2.5911 3.2366 0.3868 1 4403
2.7341 2.5648 0.26214 0 5117
3.1209 2.3835 0.36637 0 5671
3.2287 1.8799 -0.97806 0 6354
3.2375 2.8663 0 0 5259
3.2549 -2.026 0.44834 0 10616
3.4158 0.058431 -0.15932 0 9030
3.6793 0.77803 -1.3688 0 8057
3.695 -0.88504 -0.35448 0 9690
3.9186 0.80581 -0.37324 0 8080
4.0829 0.85074 0.78579 0 8078
4.1023 0.38056 -0.48179 2 8647
4.2087 1.1356 -0.20329 2 7789
4.3151 -0.32597 -0.3026 0 9445
4.404 -1.2595 0.75256 0 9730
4.4058 2.0293 0.11262 0 6966
4.5678 -1.1507 0.32939 1 9703
4.6441 0.038908 -0.98716 1 9083
2.1916 -0.59299 0.15877 0 9716
2.2448 -1.6048 0.51991 0 10866
2.9345 0.068131 0.27385 0 9009
-14.686 -0.7645 2.0667 2 185
-14.655 -1.7112 2.0737 0 13461
-14.019 -1.1427 1.9768 1 120
-13.903 -1.4981 2.6347 0 51
-13.841 -1.5721 0.97408 2 27
-13.538 -1.7439 1.9184 2 13436
-13.28 -1.0428 1.8722 1 127
-13.157 -0.22735 2.4792 0 229
-13.105 -1.3727 1.5409 2 55
-12.417 -8.4072 -0.69931 0 13226
-12.414 -2.3008 0.88284 1 13313
-12.056 -1.3693 1.4189 2 29
-11.809 -0.34224 2.2259 0 220
-11.718 -1.2668 2.2207 1 13483
-11.5 -2.2001 1.9237 2 13307
-11.346 -9.6667 0.69512 1 12961
-11.308 -9.7989 1.396 2 12949
-11.101 -8.2924 0.96892 1 13110
-10.903 -7.7573 0.93571 1 13173
-10.693 -7.4207 1.2143 1 13200
-10.689 -9.7058 2.0291 0 12911
-10.504 -8.6341 1.2685 0 12994
-10.241 -8.9309 1.9097 0 12944
-10.104 -9.069 1.2667 0 12921
-9.9873 7.6857 2.3744 0 965
-9.7103 0.17119 1.5956 1 240
-9.5858 0.69721 1.5791 0 249
-8.8364 -11.061 -0.98998 1 12673
-8.6086 0.57782 0 0 247
-8.4961 0.965 0.39875 0 254
-8.135 2.4576 0.99379 0 279
-8.1254 3.5246 1.2448 0 412
-7.7894 5.4057 1.1088 0 838
-7.4584 1.2013 0.88344 0 263
-7.0654 0.30848 0.16419 0 245
-7.0083 10.155 2.3248 0 1803
-6.954 2.2985 -0.17004 0 285
-6.8796 4.3156 1.3343 0 714
-6.8596 3.5375 0 0 519
-6.8074 0.99551 1.1303 0 261
-6.533 -0.2464 0.60993 0 208
-6.3932 1.7286 -0.30885 0 275
-6.3038 1.0357 -0.14832 0 264
-6.2421 0.41898 1.0278 1 248
-6.2209 4.2087 0.87833 0 808
-6.1145 2.2594 1.071 0 310
-6.0472 2.5209 -0.92077 0 378
-6.0462 3.1394 1.1193 0 526
-5.9384 2.0031 0.29226 1 288
-5.9169 1.8429 -0.289 0 280
-5.9088 4.2836 1.199 0 889
-5.8868 -0.291 0 0 190
-5.853 1.2249 0.98245 0 271
-5.8472 2.1444 0 0 306
-5.8221 -12.787 0.3262 1 12325
-5.6855 1.8079 0.98018 0 284
-5.5526 0.50239 0.91598 1 251
-5.4807 2.9474 0.58057 0 556
-5.4521 0.04758 -0.50868 0 238
-5.4367 -0.14236 0.12627 0 223
-5.4321 0.095766 0.63534 0 239
-5.3819 9.7937 0.25945 0 2145
-5.3088 2.6805 -1.2641 0 506
-5.286 2.4773 0.40821 0 461
-5.2024 -5.5945 1.2551 0 12789
-5.1985 4.1484 1.0927 0 1010
-5.1721 -0.48254 0.1206 0 88
-5.0244 -0.82638 0.47505 0 13350
-5.0127 0.14527 0.8239 0 243
-4.9604 -13.511 1.0064 1 12139
-4.9334 2.089 -0.62652 1 387
-4.9004 2.7646 -0.13063 0 600
-4.851 3.8243 1.0149 0 995
-4.5441 -4.9399 1.1027 1 12780
-4.4493 7.7188 0.8312 0 2073
-4.4302 6.5779 0.55456 0 1833
-4.3981 -5.8833 1.2068 0 12643
-4.3412 3.1831 -0.75655 0 899
-4.2558 -7.4793 1.0063 0 12492
-4.1599 6.8418 -0.74704 0 1971
-4.1552 11.324 1.9818 0 2637
-4.1219 -3.0601 0.96723 0 13123
-3.9996 3.7167 1.0287 0 1200
-3.9918 5.1797 0.76474 0 1660
-3.9786 -6.457 1.2461 1 12530
-3.8516 -3.7077 0.24931 0 12865
-3.7909 -5.7755 1.3016 0 12553
-3.6263 4.6801 0.97272 0 1653
-3.5599 -7.0967 0.74072 0 12407
-2.9834 7.7115 1.5579 0 2590
-2.9644 4.5456 -1.1535 1 1879
-2.8045 -4.2436 -0.1181 0 12555
-2.6725 4.6987 0.8881 0 2101
-2.6269 4.4102 -1.0911 0 2008
-2.579 6.6046 0.99648 0 2581
-2.2464 -5.5183 0 0 12240
-2.0457 -9.5996 1.1478 0 11977
-1.9424 -4.6162 0.46725 0 12270
-1.7892 -5.9112 0 0 12026
-1.7665 -8.1913 1.3767 2 11980
-1.7515 4.9025 0 0 2658
-1.7501 -6.3796 1.0869 0 12002
-1.5451 -8.5871 1.4335 0 11966
-1.4216 5.7019 -0.13643 0 2855
-1.3838 -5.6896 0.96202 1 11988
-1.3432 -4.9542 0.60027 0 12000
-1.3122 8.7695 1.4568 0 2911
-1.2321 -8.3744 1.3907 0 11949
-1.2137 -9.1819 0.86408 0 11945
-1.1769 -5.9494 0.99639 0 11972
-1.1146 5.4012 -1.0391 0 2898
-1.0848 7.0976 0 0 2910
-0.90889 6.4589 1.0716 0 2913
-0.89757 -5.0749 0.48081 0 11965
-0.80766 5.0032 -0.47282 0 2909
-0.80492 5.7201 -0.13411 0 2912
-0.76911 -7.0683 0 0 11935
-0.45914 -8.1611 0.57158 0 11913
-0.38676 -5.9486 1.1231 0 11917
-0.17903 -5.0016 0.70338 0 11900
-0.11312 6.231 0 0 2940
-0.10876 9.0303 1.4837 0 2942
-0.073397 6.0943 -1.1483 0 2943
0.026774 5.1137 -0.71869 0 2946
0.16996 -5.4999 0.64347 0 11866
0.57334 -7.3838 0 0 11849
0.72587 -5.972 0 0 11844
0.85522 5.1436 -0.98242 0 3021
0.87362 8.3823 1.5879 0 2996
0.91639 -5.155 0.86021 0 11841
0.94468 5.3906 0.63999 0 3033
1.2994 -5.2504 1.0191 0 11831
1.4124 6.8746 -0.82072 0 3075
1.4165 5.501 0.13188 0 3143
1.6164 11.12 1.8462 0 3004
2.0292 5.2208 -1.4663 2 3313
2.0307 6.7471 -0.16359 0 3184
2.1763 -6.5499 0.64393 0 11824
2.35 5.7471 0.57927 0 3348
2.4204 -8.3148 1.4228 0 11825
3.0082 4.2643 0.12116 0 4146
3.0992 -4.7998 0.93868 0 11698
3.1744 -6.9559 0 0 11794
3.3861 -6.4495 1.1968 0 11780
3.4398 4.1213 0.25034 0 4485
3.5072 3.5689 -0.3499 0 4916
3.9909 -7.6598 1.01 0 11782
4.0891 -6.3743 0.70654 0 11700
4.3134 2.6995 -1.3321 0 6179
4.546 -5.9631 1.0538 0 11530
4.6578 3.5986 0 0 5632
4.6871 -7.5478 1.2487 0 11722
4.736 -5.0521 -0.8098 1 11258
4.7717 -1.9707 -1.0974 1 9951
4.8244 7.7086 0.6359 0 3938
4.8627 -3.0079 -0.80359 1 10598
4.8792 3.0738 0.94743 0 6166
4.9321 3.1264 -1.2412 0 6149
4.9669 2.855 0.66996 0 6391
4.9698 1.6225 0.85891 0 7545
5.0944 -2.6985 0.53784 0 10318
5.0998 2.2249 0.25947 0 7084
5.1877 3.8429 -0.75498 1 5745
5.3094 4.9545 0 0 5128
5.3201 -5.5478 1.0803 0 11241
5.3995 2.3939 0.13713 0 7053
5.4018 1.9054 0 0 7438
5.5101 -4.47 0.66195 0 11036
5.5449 2.1008 -0.27652 0 7332
5.5672 1.5901 -0.40487 0 7720
5.7665 -6.8771 1.0495 0 11404
5.7711 5.1672 0.7227 2 5235
5.7894 -1.4049 0.41659 0 9693
5.8536 -8.5682 1.7049 1 11636
5.9597 2.5396 -0.15041 0 7128
5.9775 5.2921 1.122 0 5268
6.0987 4.462 1.2415 2 5785
6.2938 10.529 1.4345 0 3864
6.2976 -5.1088 1.3323 1 11037
6.3108 3.2936 1.1695 1 6693
6.3149 10.564 2.3188 0 3868
6.3164 -1.6112 1.071 0 9708
6.3562 1.6367 0.61234 1 7847
6.3568 4.9683 1.5201 0 5606
6.3919 -5.7634 1.6216 1 11124
6.4274 9.9466 1.1049 0 3994
6.4343 1.2449 -0.92105 0 8134
6.4475 4.9527 1.1426 0 5655
6.4935 4.172 1.4542 1 6115
6.5028 0.66053 -0.15175 1 8602
6.5383 0.83642 1.083 0 8463
6.5425 -4.1793 1.4627 0 10662
6.5624 6.4488 1.5116 2 5014
6.6142 -9.1607 0.26233 0 11582
6.6401 6.1964 1.7112 0 5138
6.6472 -0.77617 0.78262 0 9552
6.6768 4.8849 0.3858 0 5779
6.7029 -9.0025 0.52341 1 11546
6.7164 6.12 0.84773 2 5192
6.7356 -5.2115 1.1969 0 10991
6.7828 8.2723 0.99803 0 4453
6.7975 -10.666 1.4791 0 11705
6.8141 -3.1198 1.0533 0 10093
6.9108 -10.987 1.2109 0 11712
6.9222 -1.0111 0.65266 1 9606
6.9665 1.8146 0.84186 0 7832
7.0673 6.9063 1.6235 1 5028
7.1085 -4.1157 0.96057 0 10458
7.1293 -5.546 1.0563 0 10996
7.1372 9.9325 1.1411 1 4186
7.1401 -7.0239 1.1713 0 11194
7.2078 5.0245 1.4435 0 5908
7.215 3.3231 0.74109 1 6970
7.2381 -9.2112 0.27198 0 11492
7.2841 -10.939 0.91897 1 11661
7.3264 6.9914 1.1843 0 5080
7.4901 -8.6682 1.3397 0 11362
7.528 8.4078 2.1263 0 4687
7.5335 -4.3917 0.81355 1 10468
7.603 4.1936 1.0154 1 6532
7.6235 -2.6921 0.94547 2 9808
7.6415 3.0487 1.5501 2 7261
7.6718 -7.0818 0.48689 1 11137
7.7178 11.723 2.6443 0 4032
7.7886 2.1981 -0.9464 0 7734
7.8072 -6.5627 0.71319 0 11066
7.8118 7.8995 1.0365 0 4940
7.8264 -9.0574 1.6823 1 11363
7.8552 -2.4196 1.5486 0 9752
7.9142 -8.7465 1.3794 2 11297
7.9589 -0.74113 1.506 2 9501
7.973 -9.3981 1.1498 1 11387
7.9932 -0.25539 0.74611 2 9295
8.0083 9.4799 0.86777 1 4511
8.0215 10.446 1.2288 0 4316
8.0858 -9.6945 2.3785 2 11417
8.0927 10.347 2.1581 0 4358
8.095 7.4229 1.2844 1 5178
8.1365 -5.7482 1.165 2 10843
8.1827 6.3632 1.953 0 5624
8.183 4.579 1.7667 2 6484
8.1874 11.057 2.5921 0 4247
8.2488 -4.7759 0.4445 0 10454
8.252 12.143 2.412 0 4083
8.2546 2.7508 1.6393 1 7517
8.3137 4.0981 1.0839 2 6825
8.3268 10.646 1.5806 0 4354
8.3326 -8.1485 1.3629 0 11189
8.3353 9.3653 0.8767 1 4664
8.3405 9.2566 1.1624 0 4697
8.3813 6.1319 0.96886 1 5782
8.3953 10.611 2.223 0 4384
8.4094 -10.329 2.5096 1 11453
8.4149 10.263 0.61891 1 4449
8.4233 -9.9853 1.836 1 11397
8.44 -4.7927 1.135 2 10424
8.4609 11.701 1.6886 0 4199
8.478 -3.9102 1.3121 0 10104
8.5126 9.4476 1.7873 1 4701
8.5343 8.5343 1.6962 0 4971
8.5384 -9.0576 1.7494 0 11256
8.5628 8.3211 1.9617 1 5041
8.5737 -4.3215 1.5774 0 10246
8.5827 9.4754 2.1004 0 4718
8.6057 10.555 1.2706 0 4439
8.6066 10.433 0.94576 2 4463
8.6156 0.97706 0.60632 1 8539
8.6265 -8.1008 2.2296 0 11158
8.6519 -8.5111 2.2866 0 11196
8.6568 -1.1627 0.40733 0 9585
8.6591 11.975 2.4279 0 4202
8.7057 4.0097 1.1209 0 6971
8.743 10.724 0.96752 1 4437
8.769 -4.0147 1.8171 0 10097
8.7866 8.2917 1.6979 0 5109
8.8129 2.7939 1.2993 0 7591
8.815 6.6498 1.8141 0 5707
8.8248 -0.61709 1.6667 2 9436
8.9028 -10.873 1.3111 0 11439
8.9123 9.8392 1.8658 1 4716
8.9231 9.1887 1.195 1 4891
8.9529 9.5975 1.2245 2 4783
8.9555 -11 1.9935 0 11451
8.9698 5.3662 0.73091 1 6291
8.9799 7.0184 1.8725 1 5604
8.9869 4.4925 1.893 0 6797
8.9957 2.1763 1.7438 2 7920
9.005 11.108 1.3341 0 4426
9.0054 -5.7858 0.74849 0 10669
9.0399 -1.4027 0.42661 0 9615
9.0865 -4.7827 1.687 2 10308
9.1165 -11.134 0.67108 1 11438
9.1236 -6.0916 1.0235 0 10741
9.1439 -9.5886 0.92651 1 11244
9.1485 5.3996 2.0015 0 6324
9.1815 -4.1379 1.8974 0 10077
9.1842 -11.546 1.7253 0 11480
9.2178 -9.1729 0.90935 1 11201
9.2631 1.3794 1.7645 0 8353
9.268 -9.6107 0.62263 2 11232
9.32 -10.479 2.3041 0 11326
9.3217 4.2934 0.71765 0 6969
9.3235 8.8539 1.807 0 5095
9.3267 10.851 0.66726 1 4548
9.3286 -6.7082 1.072 0 10875
9.3466 -9.4681 1.2412 2 11213
9.3597 -9.1529 1.2213 1 11188
9.3721 6.1353 1.3099 0 6065
9.3885 1.7028 0.44496 0 8195
9.4579 0.24271 1.3297 0 8998
9.4693 -9.9856 2.2609 1 11253
9.4746 -10.107 1.6201 0 11260
9.4749 -2.6776 0.6885 0 9725
9.5072 6.8316 1.0922 0 5830
9.5576 -10.871 1.6928 0 11344
9.569 -9.3054 0.62245 1 11185
9.5845 -10.467 2.674 0 11288
9.6008 5.0791 0.75951 0 6654
9.6085 9.0136 1.8516 0 5123
9.6128 -10.377 0.98915 1 11271
9.6241 -9.6915 0.31711 1 11207
9.6319 -9.988 1.9501 0 11236
9.6456 -5.3665 0.51475 1 10384
9.6563 -0.057302 0.67524 0 9139
9.6714 2.1052 0.69212 0 8027
9.6861 -0.70621 0.90607 0 9439
9.7318 -8.0852 0.59003 1 11057
9.7446 -0.31134 1.1401 0 9296
9.7495 -0.79471 1.3748 0 9466
9.753 -10.529 1.3389 0 11272
9.7969 0.6782 1.6134 1 8795
9.8182 4.6285 1.7833 2 6925
9.8255 0.45305 0.6878 1 8906
9.8425 -9.9705 2.3018 0 11214
9.8689 -10.594 1.0124 1 11265
9.9159 -8.3352 1.5148 0 11068
9.9213 -0.37594 1.3953 2 9329
9.9275 10.899 2.4221 0 4732
9.9428 -10.249 2.0069 0 11228
9.9503 0.54759 0.23137 0 8861
9.9536 -8.1672 2.4259 0 11051
10.01 -5.7585 1.623 0 10446
10.015 -9.2452 2.5681 0 11141
10.046 1.7624 0.95159 1 8222
10.048 5.4309 1.3357 0 6599
10.055 10.055 2.3362 0 4972
10.086 -10.636 1.3676 1 11251
10.127 -3.4771 0.24859 0 9788
10.169 -3.8245 1.0136 1 9856
10.176 -9.1242 1.9209 0 11119
10.184 -0.14931 1.191 0 9176
10.185 0.6479 1.6767 0 8824
10.196 2.1245 1.218 0 8073
10.212 -8.734 0.62664 1 11079
10.229 -3.9839 1.2837 0 9888
10.277 -9.5973 1.9763 0 11151
10.295 -9.4439 1.6338 0 11135
10.295 4.5642 1.3169 0 7057
10.3 -8.3055 1.5474 0 11033
10.304 2.0552 1.7263 1 8116
10.313 -10.565 0.34278 1 11219
10.319 2.246 1.9896 0 8034
10.37 2.4476 1.7506 0 7949
10.389 9.8657 1.0018 1 5090
10.39 -9.3685 0.32481 1 11121
10.407 0.26708 1.9615 0 9002
10.448 -0.78925 1.9741 0 9453
10.612 -1.0517 0 0 9510
10.624 -10.513 0.347 1 11197
10.708 -4.205 1.0733 0 9896
10.779 -5.0493 1.6729 0 10129
10.966 -4.6775 1.1123 0 9994
-0.88252 4.0374 -1.5042 0 2889
-0.35101 5.4427 -1.9851 0 2928
8.9412 4.8648 -1.9178 1 6583
