VERSION .7
FIELDS x y z intensity index
SIZE 8 8 8 8 8
TYPE F F F F F
COUNT 1 1 1 1 1
WIDTH 640
HEIGHT 1
VIEWPOINT 0 0 0 1 0 0 0
POINTS 640
DATA ascii
-4.9635 -0.08144 0.58052 0 14180
-4.7268 -0.40855 0.77948 0 14033
-4.4107 1.1563 0.85911 0 16
-4.406 0.50433 0.41374 0 14404
-4.3924 -0.52066 -0.20627 0 13937
-3.9544 -2.9658 0.93132 0 13573
-3.9541 1.4267 -0.69063 0 274
-3.9076 1.447 0.096743 0 310
-3.822 0.43749 -0.089315 0 14403
-3.781 -0.19419 0 0 14119
-3.5907 -0.63896 0.42651 0 13775
-3.5752 1.0597 0.26075 0 83
-3.537 0.023458 -0.08212 0 14218
-3.4602 1.1464 -0.95425 0 184
-3.4071 -3.5281 0.45759 0 13186
-3.4044 -0.38427 0 0 13954
-3.3283 1.4114 -0.76844 0 521
-3.2941 1.3969 0.58785 0 522
-3.24 3.3074 0.76067 0 2853
-3.2283 0.4084 -0.45732 1 14419
-3.1465 3.6286 0.67499 0 3257
-3.0741 -2.6423 0.66599 1 13381
-3.0237 0.99181 -0.22252 1 170
-2.9673 -2.5058 0.18112 0 13406
-2.9552 -2.3113 0.61638 0 13520
-2.9058 1.7322 -0.39561 1 1247
-2.8992 2.9073 0.77357 0 2797
-2.8579 1.8418 0 0 1441
-2.8384 3.0705 -0.195 1 3040
-2.8138 2.0541 -0.48961 2 1767
-2.8067 1.0673 0.14003 0 344
-2.7312 2.9546 0.18764 0 3044
-2.7279 2.6426 0 0 2669
-2.6713 1.6666 0.3682 2 1361
-2.4444 3.6308 -0.40835 0 3854
-2.4143 -3.8577 -0.31823 1 12623
-2.3102 4.1747 0.44514 1 4140
-2.1728 -3.2383 0.54806 0 12704
-1.7733 3.6407 0.18885 0 4331
-1.6832 -3.954 0.40092 0 12459
-1.579 -2.9647 0.55186 1 12528
-1.2236 3.9576 0.68058 0 4737
-1.2205 4.1204 0.40092 1 4760
-1.1191 -3.8419 0.75394 0 12442
-1.0445 4.464 0.75321 1 4849
-0.90565 4.3163 -1.2646 0 4867
-0.85768 3.1633 -0.85802 0 4799
-0.78724 -3.1763 0.61656 0 12438
-0.69794 3.0995 -0.073764 0 4855
-0.65022 -3.5886 -0.084673 1 12435
-0.46521 4.5172 -0.53104 0 4901
-0.44211 3.58 0.25224 0 4895
-0.42434 3.807 0.72172 0 4897
-0.16351 3.6714 0.085323 0 4906
0.16836 4.5697 0.31976 0 4921
0.30421 4.8352 0.9128 0 4929
0.35073 -4.1164 0.77838 0 12340
0.36482 3.0059 -0.79268 0 4946
0.43217 -3.9846 0 0 12337
0.47024 -3.903 0.45972 1 12334
0.65896 -3.6697 0.70247 0 12319
0.66158 4.8612 0 0 4951
0.82249 4.477 -0.85762 0 4992
0.84691 -4.8777 -0.11494 1 12320
0.96784 -4.3584 0.41653 0 12277
1.09 3.9146 0.66761 0 5074
1.1184 -3.8196 0.74987 0 12172
1.2022 -3.1366 0.39282 0 12051
1.3278 4.284 -0.31363 0 5110
1.3913 3.747 -1.1461 0 5124
1.5241 3.1206 0.32401 0 5190
1.6035 -2.656 0.28945 0 11731
1.6761 -3.1142 0.58104 0 11798
1.7216 2.7919 0.53889 1 5241
1.9321 -2.465 0.51457 0 11499
2.198 2.8666 -0.33701 2 5289
2.2055 4.2658 -0.33581 0 5197
2.2645 2.1407 0.51198 1 5369
2.3625 3.1386 0.2747 0 5281
2.3705 2.4445 0.079056 0 5338
2.4785 3.701 0.626 0 5263
2.5277 2.4461 -0.92082 0 5364
2.7188 2.3279 -0.25029 0 5430
2.9186 2.4412 0.08834 0 5448
2.9206 -3.2734 0.40928 1 11332
3.0461 -1.8902 0.67543 0 10647
3.0725 1.1481 0 2 7103
3.2071 3.1582 0.2099 0 5359
3.246 1.3872 0.4128 0 6851
3.2731 2.4451 -0.19053 0 5590
3.2972 3.3824 0.66386 0 5341
3.3956 1.8154 0.63259 1 6334
3.4062 -1.298 0.59887 0 9960
3.529 1.4488 0.62676 0 6931
3.5813 3.0136 0.3273 0 5446
3.915 0.17504 -0.090986 1 8706
3.9227 2.7223 -0.22267 0 5730
3.9932 -2.228 0.75127 0 10482
4.0445 0.93523 -0.58341 1 7692
4.1564 -1.5557 0 0 9945
4.3394 0.81915 0 0 7881
4.3508 -1.5424 0.7584 1 9920
4.4362 1.3141 -0.32353 0 7442
4.4389 1.3851 0 0 7373
4.5393 0.60003 0.32018 0 8200
-2.193 -1.4351 0.43059 0 13726
-1.7981 1.9222 0.36992 0 3011
-1.5208 -2.415 0.4011 0 12632
0.59572 -2.8416 0.27087 0 12293
2.4298 1.545 0.47307 1 5927
-14.874 -0.7639 2.0932 0 14120
-14.851 -1.0229 1.7409 1 14075
-14.786 -1.0599 1.0366 1 14067
-14.784 -2.1937 -0.347 0 13850
-14.766 -1.1051 1.3815 0 14059
-14.691 -2.2192 0.34496 1 13842
-14.66 -2.042 1.7309 0 13880
-14.557 -2.9379 2.798 0 13752
-13.573 5.1614 2.3858 0 350
-13.299 -1.2665 2.517 0 14008
-12.845 -2.1703 1.2154 1 13795
-12.448 1.3919 -1.1686 0 14397
-12.425 6.3663 -0.65105 1 877
-12.42 -1.6946 -0.29102 0 13886
-12.317 0.583 -0.28628 0 14284
-12.279 -8.5563 1.7502 0 13654
-12.254 -8.587 1.0463 1 13647
-12.231 3.3163 -0.88619 0 14672
-12.222 2.2365 -0.28846 0 14519
-12.144 4.8228 -0.30337 1 407
-12.061 -8.7213 2.8043 1 13615
-12.056 8.3761 -1.0265 0 1635
-12.05 -7.7866 1.0032 2 13731
-12.026 -7.7203 2.6925 0 13739
-11.933 2.8692 -0.57232 0 14621
-11.868 4.5128 -0.29478 0 343
-11.846 5.7698 0 0 770
-11.826 8.3668 -0.33632 2 1686
-11.818 2.3057 -0.84196 1 14536
-11.813 4.8881 -0.59617 1 472
-11.802 6.0108 -0.3075 0 862
-11.786 4.5196 -0.8827 1 356
-11.773 0.96997 -1.1021 0 14344
-11.754 4.0839 -1.4551 2 231
-11.69 1.8955 -0.27496 0 14484
-11.689 7.9708 -0.32848 0 1588
-11.679 3.1359 -0.84559 0 14667
-11.674 3.0954 -1.4124 1 14659
-11.674 3.5736 -0.56934 0 111
-11.666 4.0535 -1.1522 0 232
-11.629 2.3702 -1.1073 1 14551
-11.626 -9.1978 0.34417 1 13499
-11.512 -7.3903 1.9225 0 13737
-11.473 2.0995 -1.0881 1 14517
-11.419 7.2635 -0.63111 2 1405
-11.39 2.2883 -0.54177 0 14546
-11.371 6.957 0 0 1303
-11.208 4.6012 -1.1303 0 457
-11.192 3.3875 -0.54531 2 101
-11.172 -0.64023 -0.52183 0 14105
-11.13 1.4712 -0.78504 2 14432
-11.129 1.0774 -0.78183 2 14372
-11.014 -0.59841 2.0781 0 14113
-10.99 6.7242 -1.202 1 1298
-10.978 2.2715 -0.78392 2 14559
-10.94 6.6044 -0.29668 0 1272
-10.915 2.2246 -0.25861 1 14554
-10.875 4.3894 -0.82006 1 432
-10.872 9.2137 0.99654 1 2225
-10.788 8.4621 -0.6394 0 1977
-10.73 3.9394 -1.0664 0 298
-10.73 9.7498 0 0 2451
-10.711 6.8133 -0.29473 0 1407
-10.694 9.1692 1.3142 0 2264
-10.63 8.6942 -0.96027 0 2107
-10.578 6.5176 -0.5794 1 1316
-10.559 0.43702 -0.739 2 14274
-10.547 3.358 -0.25699 0 146
-10.466 2.7418 -0.25119 0 14657
-10.363 -9.2782 2.6206 0 13320
-10.353 3.1001 -0.25091 0 91
-10.304 8.7326 -0.9445 0 2217
-10.293 6.422 -0.84838 0 1350
-10.274 -9.1502 2.2603 0 13327
-10.272 5.0035 -0.79899 1 766
-10.198 10.901 2.8125 0 3015
-10.157 1.4636 -0.95734 0 14450
-10.129 1.7934 -0.47972 0 14509
-10.085 6.292 -0.27598 0 1353
-10.063 -8.8006 2.1964 0 13357
-10.047 -9.6449 2.2882 0 13245
-10.025 7.8158 0 0 1962
-10.008 8.186 -1.2063 1 2106
-9.9847 8.1173 0 0 2092
-9.963 2.8267 -1.4555 1 54
-9.9345 6.6104 -0.27704 0 1525
-9.8901 9.7496 -1.2957 1 2722
-9.886 8.2279 0.59981 1 2170
-9.8681 10.017 2.3102 1 2833
-9.8047 -10.394 2.3475 0 13162
-9.8021 11.107 2.791 0 3206
-9.7964 7.5035 0.86289 1 1916
-9.7925 -0.41557 -0.45708 0 14136
-9.7765 -10.543 -0.33382 0 13144
-9.7692 -8.0589 0.59058 1 13443
-9.7533 7.7387 0.58062 1 2021
-9.7288 8.7906 -0.91688 2 2431
-9.7185 7.6669 0.2874 1 1999
-9.7103 -11.167 -0.34357 0 13070
-9.6558 7.3958 0.5672 1 1914
-9.6407 6.864 -1.1041 0 1699
-9.6318 8.062 -0.29162 2 2185
-9.626 7.1098 -0.55807 0 1806
-9.6205 -10.499 1.3285 0 13136
-9.618 -6.7823 -0.27324 1 13639
-9.5068 8.0055 -0.57959 1 2202
-9.5041 5.3706 -1.0185 1 1094
-9.4992 1.2557 -1.3466 0 14429
-9.4884 8.7219 1.2024 0 2497
-9.4192 -8.7897 2.1166 0 13272
-9.3815 8.3293 1.1704 0 2381
-9.3766 0.1162 -0.87486 0 14224
-9.3184 -0.56014 -0.65278 2 14096
-9.2977 -1.5442 0.87932 1 13803
-9.2524 6.7544 -0.53422 0 1771
-9.2504 1.553 -1.3182 1 14490
-9.2091 -10.17 -0.31854 0 13124
-9.2087 -1.3368 0.65069 0 13859
-9.1344 0.8313 -0.85572 1 14362
-9.1333 2.5655 -0.66338 1 49
-9.0358 -1.6633 0.64246 0 13765
-9.0306 0.42745 -0.84346 1 14281
-9.0256 -0.43669 -0.42139 2 14125
-8.9854 10.931 2.3248 0 3413
-8.9769 -9.2409 2.1166 0 13194
-8.9073 -11.739 -0.34213 0 12856
-8.9012 -8.2541 1.4196 0 13278
-8.8915 4.955 -0.47469 0 1067
-8.8486 5.5938 -0.73202 1 1386
-8.8461 8.6748 0.86638 1 2712
-8.842 10.95 2.6517 0 3468
-8.7891 -0.8107 -0.41161 1 14012
-8.7888 -0.78438 -0.82321 2 14019
-8.7859 9.2844 1.1925 0 2969
-8.7814 7.0958 0 1 2072
-8.7698 -8.0389 -0.27621 0 13288
-8.7252 -8.476 0.85061 1 13236
-8.686 -1.3385 0.61455 0 13835
-8.6782 7.9354 -0.82229 1 2468
-8.6442 9.2926 -1.4842 1 3018
-8.584 9.557 -0.59906 0 3137
-8.575 -1.4488 1.2222 1 13797
-8.5312 -8.7361 0.2835 1 13200
-8.5242 1.277 -1.2114 2 14457
-8.5153 -1.6691 1.6349 0 13755
-8.5081 -5.9996 -0.48549 2 13638
-8.2262 5.6095 -0.92892 2 1586
-8.2213 2.9663 -1.2283 2 275
-8.1652 -5.4435 -0.22784 0 13702
-8.0427 5.7963 -0.69324 2 1737
-7.9661 -7.1752 -0.24891 2 13308
-7.9604 -8.8378 1.1097 0 13118
-7.7754 3.875 -1.4273 1 809
-7.6834 1.5437 -1.1014 0 14542
-7.5656 0.0079229 -1.0633 0 14206
-7.3829 -6.6874 -0.23127 0 13302
-6.8224 -0.64972 0.80144 0 14005
-6.7596 -6.4551 1.5356 0 13250
-6.7374 -10.304 2.0226 1 12677
-6.6808 -8.4502 1.5139 0 12924
-6.5293 1.6304 1.1057 0 14637
-6.4512 -10.454 0.85898 1 12615
-6.3688 -10.176 1.9724 0 12627
-6.3353 -9.5643 1.0703 0 12689
-6.3348 -8.7095 1.7694 1 12805
-6.1297 1.4185 1.0337 0 14605
-6.0696 11.273 -1.4972 1 4176
-5.98 -11.473 1.513 0 12515
-5.9022 -10.934 2.3411 0 12538
-5.7416 -5.1408 1.2662 0 13319
-5.7329 7.908 1.1422 0 3715
-5.7317 2.9368 0.45035 0 884
-5.7222 5.1091 -1.2603 0 2387
-5.5808 0.19976 -0.3905 0 14264
-5.5593 -10.813 2.2907 0 12508
-5.1906 -8.6318 0.93969 0 12600
-5.1798 -4.557 0.80678 0 13346
-5.1249 0.16732 0.72064 0 14261
-5.1075 -0.24712 0.84011 0 14126
-4.9842 6.835 0.78921 0 3698
-4.9279 7.8527 1.0842 0 3975
-4.6642 9.5757 1.7499 0 4333
-4.6145 3.9565 0.99866 0 2268
-4.5621 -4.4832 1.0509 0 13230
-4.5451 8.3294 1.559 1 4161
-4.4994 7.0763 1.3777 0 3955
-4.4601 12.477 2.177 0 4639
-4.4359 6.0476 1.4131 0 3687
-4.412 4.2487 -1.3019 0 2659
-4.3405 2.8501 0.97834 0 1501
-4.134 6.9819 0 0 4056
-3.8597 5.3873 0.61829 0 3740
-3.2338 8.6537 1.5178 0 4600
-3.1347 -6.6107 0.68257 0 12476
-2.9972 4.2363 0.36287 0 3763
-2.9154 4.8925 0.53134 0 4046
-2.875 6.7273 1.202 0 4475
-2.6999 -5.7767 1.0476 0 12474
-2.6888 9.0772 1.5554 0 4761
-2.5216 7.9975 1.3777 0 4722
-2.4539 -5.2913 0.54416 1 12471
-2.4177 -9.1962 0.88712 0 12439
-2.2229 -8.3482 1.2141 0 12440
-2.0463 -6.4625 1.2772 0 12444
-1.7471 -7.2383 1.2234 0 12437
-1.1711 9.7204 1.6086 0 4896
-1.015 6.6408 -1.4279 0 4889
-0.94964 8.9749 1.4828 0 4900
-0.88616 -5.7441 0.95489 0 12434
-0.82863 -9.2663 1.5285 0 12417
-0.64002 -5.9889 0.70434 0 12425
-0.57608 6.7473 0.79192 0 4903
-0.38784 6.2692 -0.73454 0 4905
-0.19872 6.0221 -1.2807 0 4908
-0.10831 -6.5315 1.0732 0 12382
-0.026829 -5.49 0.25602 0 12376
-0.0084529 6.9192 1.1368 0 4913
0.11064 10.392 0.96961 0 4916
0.33962 -6.395 0 0 12347
0.44671 -5.859 0 0 12341
0.46428 -7.5048 1.2354 0 12343
0.94323 -4.9212 0.82325 0 12312
1.1133 10.452 1.7269 0 4943
1.1897 8.9522 1.4837 0 4950
1.317 -7.7127 1.4742 0 12321
1.3902 -8.7475 1.4552 0 12322
1.4395 6.1181 0.735 0 5037
1.5257 -5.6941 0.96851 0 12206
1.5345 6.5221 1.1008 0 5038
1.8453 -6.0394 0.73849 0 12158
1.8479 5.4563 0.94646 1 5115
1.8574 -6.5464 1.118 2 12188
1.889 6.2843 1.0781 0 5100
2.5272 11.649 2.2459 0 5019
2.5705 7.2468 0.53768 0 5121
2.6495 -7.1549 1.2535 0 12069
2.6625 6.5767 0.66195 0 5136
2.7974 8.1059 1.4088 0 5119
2.8394 7.8524 0 0 5123
2.8562 -6.7418 1.2029 0 11990
3.0937 5.9403 0.46834 0 5200
3.1856 6.1613 -0.16104 0 5198
3.1982 -8.267 1.6701 0 12046
3.284 5.028 0.98667 0 5253
3.2959 5.0136 0.55977 0 5256
3.5652 6.5202 1.4001 0 5208
3.5661 -6.4466 1.2104 0 11791
3.6306 -5.2316 1.1998 0 11621
3.6624 -3.9165 0.88096 0 11297
3.7592 11.887 2.0482 0 5114
3.7917 4.5769 -0.69505 0 5302
3.8856 5.1921 1.0655 0 5279
3.9082 5.6907 1.1342 0 5268
3.9699 8.2563 1.5051 0 5187
4.1021 3.1946 -0.36357 0 5529
4.2173 7.352 0.19678 0 5219
4.2211 3.8328 -0.93673 0 5386
4.2467 -8.6572 1.5842 0 11867
4.3238 4.4587 -0.4343 0 5336
4.4707 2.5926 0 0 6137
4.6376 7.5739 1.4591 0 5239
4.6974 -3.0669 0.26161 0 10730
4.8707 -2.8098 1.0594 0 10536
4.8743 -1.5406 0 0 9841
4.914 1.9347 0.36929 0 7007
5.0061 4.8733 0.817 0 5362
5.0709 -0.30393 0 0 9245
5.0759 -0.92978 -0.24065 0 9682
5.0879 2.1933 0.38743 0 6835
5.2695 -0.79317 -0.49716 0 9609
5.2742 -5.2926 1.2276 0 11242
5.3289 6.4737 -0.98054 0 5301
5.33 3.1735 -0.28928 2 6076
5.362 -1.7629 0.92733 0 9854
5.4109 0.90838 -0.38366 0 7987
5.4597 7.5229 -0.64999 0 5271
5.4647 -0.80696 0.25761 0 9603
5.4946 3.3592 -0.75312 0 6007
5.6031 -3.1263 0.14897 0 10475
5.6436 -1.1205 -0.26832 0 9705
5.7604 0.52728 -0.1343 0 8437
5.838 0.14268 -0.40835 0 8805
5.8568 -3.1786 -0.46597 1 10431
5.8973 -0.38653 0 0 9272
5.9062 -9.4702 0.25913 0 11705
5.9183 1.3153 -0.70898 0 7732
5.9373 1.5731 0.71828 0 7576
6.0057 2.303 -0.75219 0 7051
6.1417 1.6468 -0.7436 1 7555
6.1931 -0.78677 -0.58243 0 9541
6.1998 2.5871 1.1037 0 6898
6.2696 1.3361 -0.44826 0 7776
6.2846 -11.677 0.30787 1 11795
6.4229 -0.77839 0.60361 1 9525
6.4283 -1.767 0.3109 0 9806
6.4284 6.5165 0.64009 0 5348
6.4844 3.2528 0.67681 0 6477
6.4968 6.1095 0.62362 0 5370
6.5588 7.5106 -0.2315 0 5312
6.7284 7.5306 1.6591 0 5321
6.8077 -2.2594 0.66919 0 9858
6.8715 2.635 1.2091 0 7064
6.9256 0.089455 0.1608 1 8869
6.9517 -5.1703 1.6323 0 10965
6.9822 7.2886 0.23434 0 5334
7.0402 -9.8955 2.2881 0 11602
7.0704 0.9346 1.0023 0 8205
7.0765 -10.851 1.8207 0 11682
7.1725 -1.3799 0 0 9697
7.2014 5.6771 0.42764 1 5519
7.2145 -5.8318 1.7478 1 11065
7.218 -2.2564 0.88437 0 9838
7.264 -10.397 1.7825 0 11615
7.2854 0.094103 -0.16916 0 8867
7.2976 -6.5547 1.1471 1 11165
7.322 0.030674 0.34146 0 8918
7.3276 3.8618 1.3608 2 6365
7.368 5.1764 1.053 0 5710
7.3885 4.7871 0.82135 0 5873
7.3986 -2.384 1.4646 2 9847
7.4151 -10.361 1.49 0 11594
7.4214 -0.66104 1.0471 0 9376
7.4342 -10.511 0.90028 1 11603
7.4582 -5.379 0.21349 0 10911
7.4862 -7.5545 1.2437 0 11247
7.4932 -0.77567 0.70282 0 9455
7.5358 -11.711 0.32333 1 11688
7.6178 -7.3822 0.98967 2 11218
7.6296 -11.624 0.97227 1 11675
7.6453 -4.744 0.2089 1 10641
7.7201 5.6647 0.22231 0 5626
7.724 2.3379 1.5205 0 7425
7.7273 -6.4313 1.1757 0 11090
7.7894 -9.3658 2.2951 0 11429
7.8405 6.2545 1.6478 0 5500
7.8839 -7.4216 0.75714 0 11197
7.8893 -0.74715 0.55415 0 9406
7.9244 -9.699 1.4647 0 11449
7.9454 0.30801 0.3708 1 8739
7.96 6.2751 0.94564 0 5521
7.9607 -11.833 2.0044 0 11653
7.9638 -10.465 1.2269 0 11530
7.9867 -11.021 0.95176 2 11581
8.0191 -8.5754 1.65 0 11296
8.0211 -10.804 0.31242 2 11556
8.0234 -6.332 0.71472 0 11042
8.0537 6.3901 0.47944 1 5507
8.0539 -11.896 1.3402 1 11644
8.0911 -5.4513 0.68222 0 10813
8.1059 -12.349 0.34296 1 11673
8.1177 1.9264 0.97567 0 7677
8.1258 -11.631 0.32941 1 11612
8.1777 2.3449 0.59488 0 7486
8.2031 -8.0894 1.6191 0 11231
8.215 -1.4826 0.19381 0 9676
8.2492 2.8147 0.81318 1 7252
8.2508 -2.268 0.79831 0 9807
8.2777 -0.32813 1.5608 2 9159
8.2797 0.58624 1.1665 0 8572
8.3421 0.73718 1.5779 1 8467
8.3504 2.5275 0.40686 1 7419
8.358 -8.3376 1.3806 1 11237
8.3584 -8.4878 2.2444 0 11254
8.3743 5.4259 1.88 1 5880
8.3782 -5.7883 0.23643 0 10853
8.3841 -9.6176 2.0962 0 11359
8.3928 -9.0824 1.738 0 11308
8.401 -10.408 0.93529 1 11460
8.4015 -7.5462 0.26219 1 11162
8.4015 2.4886 1.0247 0 7449
8.4421 -1.7007 0.19994 0 9711
8.4453 -9.1971 0.58229 1 11310
8.4549 -9.3114 0.87949 1 11320
8.4586 -8.5357 0.5604 1 11244
8.544 -10.339 0.3114 1 11431
8.5531 -11.593 2.0247 0 11568
8.6352 -6.6933 1.795 2 11021
8.6481 -2.7866 0 0 9846
8.649 -7.5957 1.6177 0 11143
8.6558 -0.99845 1.4315 2 9506
8.6592 -9.9929 2.1724 1 11370
8.6611 -5.4058 0.95251 0 10654
8.6677 4.2201 0.67413 2 6561
8.6771 -2.064 1.043 1 9756
8.6852 -11.213 1.6586 0 11512
8.6891 5.883 1.724 1 5787
8.6901 -3.3115 0.86761 1 9958
8.696 -10.33 1.8978 0 11413
8.7137 -9.6572 1.5211 1 11324
8.716 -0.72424 1.2292 2 9350
8.7336 -4.6106 0.69059 0 10396
8.7349 -8.662 2.3177 0 11235
8.7419 -7.9936 2.2318 0 11181
8.7433 4.4473 0.22774 1 6437
8.7471 -10.899 1.6342 0 11470
8.7533 -8.1941 1.6851 1 11194
8.8098 6.1139 1.0004 0 5736
8.8556 0.8106 1.2498 0 8447
8.8775 -5.4338 1.71 1 10627
8.8794 -8.1194 1.407 0 11179
8.8885 0.13808 1.6749 1 8864
8.9145 -11.107 1.3287 1 11468
8.9344 -10.311 1.5954 0 11369
8.9461 -11.215 2.3569 1 11479
8.9577 -0.19702 1.4721 0 9067
8.9583 -11.027 0.99347 1 11453
8.9909 -3.2777 1.5722 1 9934
8.9961 6.7201 0.2607 1 5593
9.0377 -1.9012 1.7401 0 9721
9.069 -8.5372 1.4565 0 11199
9.0741 -3.1599 1.1236 0 9905
9.0993 -7.1425 1.0792 0 11034
9.1075 2.0775 0.87151 2 7710
9.1934 -9.2773 2.1458 1 11248
9.2036 0.81331 0.21451 0 8457
9.2467 -11.253 1.7032 0 11442
9.2701 6.2386 0.52108 1 5793
9.304 6.9073 0.81029 0 5606
9.312 -4.2771 1.4402 1 10177
9.3338 5.6327 1.2749 2 6052
9.3501 4.3204 0 2 6683
9.3529 -6.4618 2.1418 0 10859
9.3535 -7.4294 0.55704 1 11046
9.3696 -8.0819 1.447 0 11129
9.3827 -1.0558 1.7789 0 9499
9.4022 4.4464 0.72728 2 6638
9.409 -6.998 1.3713 2 10961
9.4184 -7.2165 2.2355 0 11007
9.4208 -1.2788 1.1118 1 9574
9.429 -11.475 0.34482 1 11439
9.4746 -7.7053 2.0064 0 11068
9.5207 -5.3493 1.0188 0 10489
9.5247 6.0562 1.3199 0 5923
9.5248 -7.9781 0.28846 1 11096
9.5277 -6.9528 0.27384 0 10928
9.5299 -7.5696 1.7104 0 11049
9.5427 -7.9028 1.7413 0 11085
9.5461 4.2802 1.7188 2 6757
9.5496 -0.3485 0 0 9134
9.5558 3.2605 1.419 0 7255
9.5588 6.1531 0 0 5882
9.5636 4.8288 2.0185 0 6465
9.6113 -9.478 2.5432 0 11232
9.6273 -1.4216 0.90793 2 9605
9.6351 -6.5726 1.6392 0 10838
9.6383 -6.7013 1.0952 1 10865
9.6555 -11.076 1.7183 0 11358
9.6607 4.4312 0.49565 1 6704
9.6645 5.5304 -0.25852 1 6169
9.6778 -2.0659 0.69198 0 9722
9.6808 -5.3309 2.0822 0 10461
9.6926 5.8493 1.0562 0 6050
9.718 -7.355 2.2963 0 10994
9.7566 -9.6752 0.96083 1 11233
9.7988 -10.122 2.6543 1 11269
9.8062 3.4072 1.214 0 7227
9.8175 5.2113 0.77723 0 6344
9.8456 5.4867 1.3181 0 6241
9.8897 -8.9895 2.1958 1 11176
9.9032 -3.2254 0.24181 0 9848
9.9423 0.99588 1.6416 0 8393
9.9588 -3.6306 0 0 9932
9.9691 -1.7991 1.6643 0 9679
9.9813 -5.7976 0.26799 0 10539
9.9824 -6.4357 0.55388 1 10703
9.9934 -10.028 1.6556 0 11241
10.011 5.9254 1.0853 0 6097
10.016 -10.533 1.6997 0 11280
10.053 5.5613 1.6147 0 6257
10.07 -9.704 1.9654 0 11214
10.097 4.4892 0 1 6763
10.1 4.848 1.3102 0 6603
10.102 -8.7659 1.5641 0 11134
10.121 -8.632 1.241 0 11118
10.122 -10.644 1.0271 1 11279
10.122 -3.8207 1.0094 2 9953
10.132 -10.587 2.761 0 11277
10.152 7.0929 0.28754 1 5719
10.17 -0.66657 0.95084 0 9276
10.184 -7.1651 1.75 0 10881
10.189 -9.3727 2.2746 1 11183
10.193 5.1848 1.3374 0 6443
10.196 0.9602 0.71612 0 8421
10.199 -10.785 0.69223 1 11284
10.242 4.2403 2.0885 0 6916
10.277 1.3019 0.48307 1 8233
10.283 3.9083 0.25541 0 7072
10.303 -5.025 0.26614 1 10274
10.304 0.60856 0 0 8627
10.311 3.9187 1.0291 2 7076
10.326 -3.8299 0.77011 0 9941
10.327 6.3957 1.1333 1 5981
10.352 3.6312 1.5418 0 7215
10.358 -4.2589 1.8401 1 10028
10.369 -8.5871 0.94143 1 11082
10.398 -0.68154 0.48596 1 9274
10.437 1.1357 1.4755 0 8343
10.442 4.5729 0.53161 1 6804
10.455 -4.2986 0.79048 0 10025
10.499 -0.16859 0 0 9027
10.507 -4.9732 1.9098 2 10227
10.53 6.8694 1.4702 0 5858
10.535 -1.2431 1.2405 0 9515
10.536 -3.4641 0.2575 0 9852
10.563 3.5323 1.3025 0 7279
10.59 -5.6711 0.84001 1 10415
10.621 -6.6292 0.58388 1 10652
10.633 1.5322 1.5097 0 8139
10.643 -6.6868 1.1727 0 10665
10.655 5.0777 0.82536 0 6618
10.657 4.7383 1.0881 1 6769
10.662 0.78862 0.99747 2 8551
10.668 -9.643 2.0211 0 11171
10.696 -5.846 1.1372 1 10446
10.705 -4.4363 1.0811 0 10034
10.716 -4.5532 1.6364 0 10062
10.758 0.35688 0 0 8765
10.798 4.4706 1.0904 2 6909
10.811 -8.0407 0.62832 1 10957
10.837 -4.941 1.1112 1 10164
10.876 -0.1139 0.25253 0 8995
11.003 -5.4858 1.147 0 10315
11.116 -8.7723 0.32876 1 11041
11.142 -9.7852 1.7341 0 11142
11.254 -5.0531 2.0268 0 10145
-0.25573 3.6119 -1.8187 0 4904
2.7046 2.2486 -1.7667 0 5452
4.556 11.254 -1.9947 0 5133
5.6516 5.6971 -1.512 0 5351
5.688 0.35387 -1.7783 0 8612
