VERSION .7
FIELDS x y z intensity index
SIZE 8 8 8 8 8
TYPE F F F F F
COUNT 1 1 1 1 1
WIDTH 556
HEIGHT 1
VIEWPOINT 0 0 0 1 0 0 0
POINTS 556
DATA ascii
-4.9805 0.24184 0.4652 0 88
-4.9111 -0.53352 0 0 17070
-4.8154 0.17826 0.11188 0 61
-4.5353 0.55284 0.31948 0 235
-4.4798 0.19246 0.73668 0 75
-4.366 -0.041913 0.5106 0 17208
-4.245 2.327 0.45164 0 1439
-4.03 -0.4613 0.47436 0 17063
-4.0265 -2.8298 0.92724 0 16974
-4.021 2.0843 -0.21121 1 1302
-3.9174 1.696 -0.70133 1 1004
-3.8397 0.46806 0.63551 1 236
-3.7765 0.93739 0.36302 0 516
-3.7035 0.78247 0.62189 0 420
-3.6884 -2.8394 -0.10807 0 16867
-3.6488 2.4197 -0.93061 0 2022
-3.6206 1.8099 0.66502 0 1239
-3.5644 -2.9467 0.32339 0 16785
-3.554 -0.14709 -0.082584 1 17153
-3.552 1.802 0.092472 0 1264
-3.3424 -0.52042 0.55575 0 17046
-3.2438 2.2062 -0.36599 0 2097
-3.1656 0.52577 0.52722 0 322
-3.1397 3.1972 -1.1731 0 3834
-3.1249 -0.2388 0.51489 0 17103
-3.1231 2.4585 0.65302 2 2704
-3.0506 -2.0778 -0.085694 0 16993
-2.9092 0.7937 0.49544 0 582
-2.7978 -2.2989 0.25322 0 16791
-2.7472 -3.8119 -0.10909 0 16092
-2.6133 2.3963 0.66803 0 3392
-2.4044 -3.6841 -0.20515 0 15996
-2.3781 -2.8573 0.52246 0 16305
-2.2461 3.7604 0.51222 0 5598
-2.1477 -2.4046 0.22545 0 16397
-2.0814 -4.2393 0.77591 1 15902
-2.0111 -3.5808 0.67475 0 15919
-2.0026 3.0233 -0.50965 1 5288
-1.8687 3.367 -1.1042 0 5769
-1.7465 -3.9228 0 2 15887
-1.7033 3.8474 0.69128 0 6154
-1.5583 4.0851 0.5113 0 6272
-1.5242 -2.8284 0.52786 0 15910
-1.5227 -3.9647 0.69777 2 15865
-1.1774 -2.8895 0.51263 0 15877
-1.0587 3.9347 -1.0667 0 6477
-1.0032 4.8313 0.57704 0 6539
-0.86915 -4.9042 0.23226 0 15797
-0.76132 4.8506 0.34334 0 6566
-0.75859 -4.4286 -0.20953 0 15796
-0.65886 -3.2764 0 1 15806
-0.46756 4.5168 0.31753 0 6592
-0.44818 4.5792 0.86688 0 6595
-0.34768 4.1754 -0.68836 0 6601
-0.34055 -4.27 0.29953 1 15777
-0.33924 4.3789 -1.1498 0 6604
-0.23808 3.1962 0.52657 0 6606
-0.22139 4.3255 -0.40408 0 6612
-0.21712 3.4607 -0.24247 1 6608
-0.12619 -4.1781 0.68674 0 15753
-0.076307 -4.8041 0.11155 0 15740
0.015311 -3.5089 0.5765 0 15730
0.13822 3.8242 -0.6287 0 6653
0.20233 -3.7603 0.7095 0 15709
0.20722 4.1047 -0.2874 0 6659
0.25622 -3.4561 0.24233 0 15703
0.44474 3.2175 -0.22713 0 6718
0.5548 -3.551 0.16761 0 15695
0.70808 -4.7098 -0.11058 0 15696
0.77222 -4.0176 0.67215 0 15686
0.8422 -4.4445 0.63574 0 15687
1.1947 4.0307 0 0 6890
1.3656 2.8863 -1.1622 0 7164
1.4327 2.8748 0 0 7217
1.4466 3.0575 0.63729 0 7172
1.4553 4.522 0.89503 1 6913
1.4812 4.3411 -0.32074 1 6933
1.4996 2.6173 -1.0193 0 7407
1.8754 3.046 0.67395 0 7578
1.9847 2.4579 0.073346 0 8116
2.2156 3.4604 0.67507 0 7654
2.2445 2.1121 0 0 8709
2.2485 3.5816 -0.098182 0 7606
2.406 2.8734 0.34965 0 8195
2.428 2.4203 -0.15987 2 8594
2.4378 3.5298 -0.6029 2 7777
2.5137 -3.092 -0.56003 0 15236
2.5503 -3.4961 0.60819 0 15362
2.605 -1.7644 -0.29354 0 14577
2.6329 3.7671 0 0 7800
2.6439 -3.6916 0.10542 0 15378
2.7674 -2.0688 -0.65099 0 14746
2.8647 3.5873 0.10658 0 8091
2.9171 2.9079 0.095628 0 8597
2.9378 -1.7736 0.23996 0 14362
2.9491 2.9584 -1.0935 0 8587
2.9872 1.4133 -0.86511 1 10386
3.2165 -3.2811 0.53731 0 15029
3.2629 -2.7799 0.70425 0 14893
3.4004 1.5497 -0.26131 0 10467
3.4832 -1.4186 -0.52858 0 13763
3.5181 0.16837 0.16425 0 12597
3.5554 -1.2124 0.43928 0 13636
3.6189 -0.21563 -0.42395 1 13066
3.6702 -2.5977 -0.4195 0 14649
3.677 0.51023 0.6099 0 12110
3.9323 1.1543 0.38234 0 11260
4.3546 -2.3447 0.81255 0 14175
4.3904 -1.8033 -0.7798 0 13774
4.4473 0.09704 -0.73084 0 12712
4.6666 0.18335 0.54614 0 12642
4.7413 -0.99741 0.79601 0 13468
4.8267 -0.44266 0.56682 1 13220
-0.4695 2.8829 0.47988 0 6565
0.070184 -2.8313 0.53361 1 15720
0.59593 2.4803 -0.35851 0 6835
1.6615 -2.1312 0.25211 0 15291
1.8139 1.9175 0.18458 0 8473
-12.205 -0.2919 -1.4277 2 17179
-12.119 1.8696 -1.434 2 294
-12.113 1.513 -1.4275 2 238
-11.638 3.9506 -1.4372 2 741
-11.446 8.4787 1.3289 0 2441
-11.343 4.9486 -1.4472 2 1017
-11.312 7.8355 -0.96222 1 2169
-11.065 8.8109 2.3238 2 2757
-10.199 10.149 0.67099 1 3731
-10.187 10.137 1.3408 1 3734
-9.6877 9.3652 0.31284 2 3610
-9.0599 10.991 2.6836 2 4540
-8.9911 11.508 0 0 4744
-8.9904 8.7917 0.29195 2 3659
-8.9375 11.999 0 0 4915
-8.9269 9.8554 1.8688 1 4174
-8.9089 11.896 0.34505 2 4896
-8.7861 1.9382 1.4782 0 442
-8.5345 0.96484 1.4111 0 216
-8.5257 12.167 1.7374 0 5123
-8.2204 11.174 -0.32207 1 4953
-7.8917 0.088154 1.2966 0 12
-7.8232 6.8874 -1.2189 1 3195
-7.7977 2.2477 1.3333 0 621
-7.6067 1.5145 1.2743 0 391
-7.5479 0.036887 0 0 17237
-7.3223 1.6153 1.0538 0 441
-7.2056 10.226 1.1671 0 5103
-7.1027 -9.5533 1.9558 0 16139
-7.0608 4.2812 -1.3566 0 1702
-6.9927 9.3882 1.369 0 4919
-6.9763 0.21802 0.65117 0 49
-6.8665 9.0006 1.591 0 4837
-6.8438 9.5347 1.9283 0 5046
-6.6919 3.7186 -0.35702 0 1463
-6.602 1.6387 1.2816 0 518
-6.5773 -0.19636 0.15277 0 17172
-6.5617 0.49107 0 0 144
-6.5587 12.945 2.3841 1 5966
-6.5555 4.8864 0.95615 0 2468
-6.4876 0.069073 0 0 17250
-6.4379 8.1459 1.7058 0 4705
-6.3956 7.5334 1.8619 0 4425
-6.2686 1.5932 0.75637 0 534
-6.2242 -5.0565 0.37397 0 16807
-6.2077 -6.2229 0.82005 0 16552
-6.1738 11.759 1.8666 0 5888
-6.0646 0.33057 0.56664 0 101
-6.0637 10.08 2.2163 0 5587
-5.9779 -0.30074 0.27913 0 17140
-5.8058 1.1401 0.97207 0 384
-5.7368 0.47972 0.94581 0 160
-5.7344 2.2116 0.71874 0 866
-5.7216 0.49555 0.5358 2 166
-5.6161 5.7189 0.93734 0 3835
-5.453 0.23427 0 0 74
-5.1397 -6.5525 -0.19335 0 16217
-5.1364 1.2426 -0.12269 0 500
-5.0184 -8.4688 1.6173 0 15932
-4.7394 2.8736 0.12868 0 1713
-4.6381 -3.004 0.90788 0 17021
-4.5218 -3.3179 -0.13021 0 16920
-4.3854 -4.2216 0.42565 0 16590
-4.3265 -2.8745 0.24223 0 17009
-4.2112 3.9078 0.94387 0 3441
-3.8971 8.8777 1.8267 0 6160
-3.8886 -7.4762 1.3845 0 15907
-3.8293 3.2556 0.46892 0 3057
-3.824 -3.7448 0.87934 0 16575
-3.7615 7.872 1.0203 0 6069
-3.7533 -5.4692 0.61885 1 16043
-3.5069 8.521 1.5139 0 6216
-3.4741 4.7537 0.68854 0 4980
-3.1205 -11.895 2.0203 0 15835
-3.0606 -8.0402 0.60158 0 15864
-3.0325 9.2179 1.5943 0 6385
-2.9248 4.1248 0.23581 0 5083
-2.8681 7.863 1.3751 0 6305
-2.8498 -6.6044 0.84116 0 15884
-2.8471 5.3501 -0.85174 1 5849
-2.6423 -9.3003 1.5885 0 15852
-2.4196 4.4825 0.47524 0 5830
-2.2594 9.2546 1.7949 0 6508
-2.06 -5.7062 0.99672 1 15859
-1.5453 -8.4445 0.80091 0 15798
-1.5371 6.7113 -0.80516 0 6521
-1.2827 -8.7072 1.6582 0 15794
-1.2758 -8.4856 1.4098 0 15795
-1.0851 8.9536 1.4818 0 6584
-1.0776 -5.6119 0.13267 0 15801
-0.85636 5.9062 0.9805 0 6568
-0.76011 -5.4919 0.64835 0 15793
-0.73257 7.9572 1.3129 0 6597
-0.71898 5.9326 -0.55754 0 6582
-0.70877 -9.9609 1.6407 0 15773
-0.65639 5.9934 0.42161 0 6589
-0.62834 7.0682 -0.16475 0 6599
-0.59292 -5.7474 0.40403 0 15786
-0.59013 5.3884 1.0213 0 6590
-0.30563 6.3397 -0.29599 0 6613
-0.28119 7.6686 -0.89738 0 6619
-0.21141 8.41 0.9838 0 6625
-0.13344 -5.4211 0.3792 0 15747
-0.11273 5.0454 -1.4471 0 6627
-0.027798 5.6879 0 0 6636
0.038066 9.4831 1.7867 0 6643
0.093906 -7.1735 0.16656 0 15725
0.16732 -12.782 2.1001 0 15726
0.1895 5.243 -0.73734 1 6654
0.20495 5.2631 0.4914 2 6656
0.65013 -12.082 1.9879 0 15708
0.73416 8.0515 -0.75428 0 6681
0.8378 -5.1556 0.36524 0 15693
0.84302 -8.3867 1.3848 0 15701
0.97211 8.7077 1.6508 0 6693
1.0771 4.9862 -0.59655 1 6801
1.2553 6.5433 0.77914 0 6774
1.3803 5.6707 0.6825 0 6840
1.4056 -8.815 1.4665 0 15694
1.4127 7.9793 1.3313 0 6754
1.4347 5.411 0 0 6863
1.855 -7.2458 0.6978 0 15674
1.9254 5.8665 0.14335 0 6918
1.9338 -9.33 1.5654 0 15684
1.9689 7.0091 -1.1961 0 6873
2.0053 4.6517 0.59237 0 7068
2.0137 6.3212 0.15403 0 6910
2.1931 -4.6354 0 0 15623
2.2322 5.4807 -1.2579 0 7027
2.2871 -11.192 1.8767 0 15685
2.3857 -4.4606 0.2359 0 15588
2.4713 4.821 -1.4182 0 7254
2.521 5.171 1.0839 0 7201
2.5299 4.7641 -0.25155 0 7297
2.5815 -5.9828 0.91576 0 15654
2.6257 7.6256 0.75242 0 6936
2.6472 7.688 1.3359 0 6937
2.6897 -4.96 0.92701 0 15584
2.696 -8.8958 1.5272 0 15669
2.7214 9.6881 1.6533 0 6876
2.7224 5.841 -0.14962 0 7146
2.7443 5.1332 0.54305 0 7309
2.7765 -6.0449 0 0 15633
2.7836 -5.6248 1.0311 0 15616
2.7985 -6.5929 -0.334 0 15655
2.8212 -4.4318 0.98982 0 15488
2.9653 10.328 2.0245 0 6882
3.0462 -6.632 1.199 1 15635
3.2683 -4.6746 0.26599 0 15404
3.3025 -4.6112 -0.2645 1 15377
3.4011 7.1886 -0.5561 0 7163
3.4552 -3.8469 -0.60468 2 15095
3.4644 -5.0162 1.0016 0 15424
3.5984 -4.2991 0.39203 0 15189
3.6071 -4.0856 -0.25416 0 15111
3.6914 -7.6258 0.99077 0 15621
3.7398 3.6636 0.48843 0 8634
3.7455 6.4535 -0.69613 0 7430
3.7519 -4.1772 0.78911 0 15099
3.7799 -6.0538 0.66585 0 15498
3.788 -5.4848 -0.46611 0 15416
3.8215 3.992 -0.64626 0 8493
3.8763 -4.4686 0.27587 0 15130
3.9996 3.6765 -1.1547 0 8756
4.2278 5.3265 -0.63445 1 8072
4.4046 -4.7068 0.45077 0 15060
4.5273 -5.8408 1.3923 0 15300
4.573 8.3771 1.568 0 7343
4.758 3.1456 -0.26599 0 9522
4.9934 -5.3063 1.1971 0 15057
5.0088 -2.773 0.53413 2 14220
5.0193 9.0663 0.96682 0 7361
5.0521 -7.5497 0.42363 0 15448
5.0827 4.9791 -0.66381 0 8629
5.1127 0.90611 0.85308 0 11897
5.1904 -10.488 1.3685 0 15615
5.2605 2.5464 0.13569 0 10330
5.3206 0.64293 -0.7532 0 12201
5.369 -4.7101 0.33307 0 14914
5.3749 9.641 1.8135 1 7375
5.4242 -7.3438 -1.0677 0 15348
5.4539 4.1774 1.1287 0 9173
5.4574 10.208 1.3536 0 7310
5.4845 1.0701 0.26059 0 11788
5.5925 -1.1084 0.5319 1 13453
5.6064 5.8198 0.75391 2 8512
5.6098 0.80938 -0.26431 0 12069
5.612 5.3742 0.72493 2 8679
5.6758 -2.8882 -0.59414 0 14081
5.7406 -1.2412 0.96494 0 13482
5.7461 8.8077 0.73537 0 7686
5.8951 9.151 0.76118 0 7660
5.9435 5.658 0.57382 0 8690
5.9897 -1.8335 1.0291 0 13596
6.1097 -6.4926 0.83175 1 15054
6.1759 -9.6422 1.8812 0 15485
6.1834 3.0145 0.80446 0 10318
6.1921 1.3569 1.0415 0 11658
6.2326 -10.115 1.3894 0 15508
6.3059 -6.1087 1.6541 0 14997
6.3069 -6.0714 1.0238 0 14992
6.3246 -10.468 0.85521 1 15520
6.379 1.2273 0 0 11804
6.3839 5.4698 0.9831 0 8906
6.4119 5.3688 1.5756 2 8959
6.4164 -2.7873 0.65266 0 13844
6.4352 9.2075 1.8456 2 7811
6.4797 -6.8067 0.43826 0 15044
6.536 -0.38945 0.61086 2 13067
6.5592 3.0128 0.16758 0 10454
6.6273 3.7725 1.4368 1 9907
6.6608 -6.1571 0.84625 0 14966
6.6662 9.422 0.80708 1 7833
6.6745 -8.0624 1.224 0 15214
6.7025 9.705 2.2222 1 7787
6.7731 9.6336 1.655 0 7824
6.7822 4.9784 1.3822 2 9278
6.7984 9.2077 0.53375 1 7922
6.8036 0.38634 -0.31779 0 12552
6.8039 -1.933 1.1621 2 13570
6.912 3.9345 1.3067 0 9905
6.9203 7.4864 0.47543 1 8416
6.9325 11.704 0.9512 1 7473
6.9358 -6.9141 0.4567 0 15013
6.9515 5.7508 0.63088 0 8982
6.959 -5.3283 0.61288 0 14777
6.9711 -6.7108 0.67664 0 14991
7.0402 10.194 0.28763 1 7779
7.0981 10.343 1.467 0 7771
7.1016 8.4814 0.51586 1 8192
7.1159 -0.052163 -1.0001 0 12853
7.1442 -9.1639 0.81252 0 15290
7.1467 10.225 1.7533 0 7809
7.1543 1.6123 1.2049 0 11623
7.1643 -5.5853 1.4925 1 14804
7.1783 5.532 0.8455 1 9156
7.19 10.68 0.90028 2 7740
7.2866 9.7473 2.2929 2 7956
7.3174 9.616 1.1273 0 7989
7.4488 1.7691 0 0 11546
7.4553 -11.94 0.65645 1 15497
7.4563 7.9235 0.50739 1 8462
7.4709 10.96 2.1792 1 7765
7.4729 5.7903 1.7812 0 9144
7.4973 -7.2173 0.48531 1 14990
7.5079 8.4564 1.8579 2 8312
7.5139 8.2663 0.25936 0 8359
7.5145 6.1461 0.9057 1 9009
7.561 -2.9282 0.56698 0 13720
7.5675 9.5341 1.7107 0 8083
7.5831 -8.3396 0.52565 1 15085
7.627 -1.4411 -0.18021 0 13435
7.6312 -3.5569 0.78549 1 13950
7.673 10.392 1.2052 0 7925
7.696 8.7694 0.81587 0 8287
7.7139 -11.308 1.2771 1 15431
7.7439 11.87 1.9918 0 7692
7.7583 -6.4183 1.4151 0 14861
7.7686 -4.8449 0.21256 0 14415
7.7702 4.5115 0.83826 2 9849
7.7966 -6.3723 0.70412 0 14846
7.8007 10.631 2.4844 0 7918
7.848 -7.2954 0.24877 0 14968
7.8739 -11.401 1.9473 0 15422
7.8772 7.7166 0.25602 0 8631
7.8888 -3.6769 0.20207 0 13946
7.8891 8.5824 1.6383 0 8402
7.892 -10 1.4897 0 15279
7.8955 10.312 1.5188 1 8003
7.897 9.2136 1.7054 0 8245
7.9111 -11.315 0.32054 1 15403
7.9521 -11.374 2.2801 0 15410
7.9619 -8.4106 0.54009 1 15048
7.9853 -6.5638 0.48205 1 14852
7.9989 9.0094 1.4089 0 8310
8.0079 8.415 1.9085 0 8488
8.0251 8.528 1.3694 0 8465
8.0469 8.0722 1.6019 0 8588
8.0943 -11.651 1.3235 0 15411
8.0996 8.9671 1.1273 1 8345
8.1013 -10.141 2.4455 1 15266
8.1211 11.402 1.637 0 7850
8.1241 -11.763 0.33191 1 15417
8.1283 7.8741 2.1322 0 8661
8.1446 2.0126 0.78271 1 11503
8.1578 8.3217 0.54344 1 8552
8.1606 -6.7511 0.2459 0 14857
8.1871 -6.5732 1.9782 0 14835
8.1884 10.443 2.5003 1 8056
8.1951 -10.703 0.31297 1 15307
8.2044 2.5633 1.208 1 11183
8.2051 -10.845 1.5903 0 15321
8.2506 -11.377 0.98273 1 15366
8.2511 -8.9761 0.85256 1 15078
8.2658 6.4047 1.2228 0 9141
8.2756 -11.483 0.32862 1 15372
8.2896 -10.886 0.95678 1 15312
8.2984 -7.1554 1.2814 1 14902
8.3029 -4.0442 0.21442 1 14021
8.3426 9.025 1.4372 0 8419
8.3734 -9.7625 1.8076 1 15149
8.3808 -8.3051 0.27393 0 15008
8.403 3.9166 1.7467 2 10427
8.4259 7.7453 0.26572 0 8752
8.4473 -7.8525 1.3487 0 14970
8.4509 3.7608 0.43136 0 10521
8.4609 -10.108 2.4836 0 15196
8.4841 -10.751 2.5803 1 15282
8.5143 8.3407 0.83345 0 8633
8.537 -10.629 1.5943 1 15255
8.5566 5.4093 1.1838 0 9654
8.5709 -10.927 1.624 2 15286
8.5871 6.738 0.25342 0 9107
8.5872 1.5482 0.20258 0 11874
8.6322 11.406 1.3345 0 7977
8.6521 -0.41105 1.4231 2 13032
8.7056 11.103 1.3163 0 8051
8.7222 -3.5523 1.1013 0 13769
8.7376 -10.073 0.30959 1 15129
8.7451 5.49 1.6964 0 9672
8.7679 4.8882 0.93654 2 9951
8.7972 9.0306 1.1762 1 8538
8.8363 -10.069 1.8827 0 15123
8.8397 1.887 1.485 0 11694
8.854 11.357 2.7132 0 8044
8.8624 -2.5697 0.64525 0 13575
8.8702 -9.8168 2.1737 1 15094
8.9186 10.406 1.6026 0 8244
8.9441 -10.935 1.9854 2 15233
8.9662 5.594 0.739 0 9684
8.9735 -6.7081 1.3102 1 14743
8.9802 -9.7693 1.8649 0 15079
8.9841 -4.5422 1.4148 1 14078
8.9869 5.0473 0.2393 0 9931
9.0509 6.3281 2.0807 1 9400
9.0567 -9.6781 2.4973 0 15062
9.0605 -6.5659 1.0439 0 14693
9.0646 5.9137 0.25128 0 9564
9.066 0.80593 0.63646 0 12382
9.0783 -2.8085 0.6645 0 13598
9.0938 4.2386 0.46788 1 10418
9.1007 -6.3984 0.77792 0 14642
9.1016 9.2845 1.213 0 8553
9.1039 9.2415 1.8232 0 8567
9.1322 1.8115 1.7541 0 11776
9.1475 -7.7494 0.27834 1 14882
9.1728 8.942 1.8003 0 8648
9.1755 5.6514 0.50254 1 9708
9.1791 -8.6379 0.58779 1 14976
9.1936 8.9061 0.59692 1 8655
9.1972 6.1176 0.51512 1 9510
9.2019 -4.6825 0.48149 1 14086
9.2195 -7.1411 1.9159 0 14795
9.2456 -6.7841 0.53478 1 14709
9.2459 3.3963 1.6183 1 10929
9.3187 5.5198 1.7794 0 9804
9.3191 5.4108 0 0 9844
9.321 1.5983 1.3291 0 11930
9.3398 0.066834 0 0 12787
9.3423 0.23322 0.65348 0 12703
9.347 -9.7606 2.5462 1 15042
9.3572 8.5025 0.88409 1 8775
9.3686 11.261 1.713 0 8183
9.3977 -8.9963 2.1374 0 14988
9.4264 5.655 2.0711 1 9772
9.47 5.7987 1.2986 0 9725
9.4726 -2.9305 1.8682 0 13602
9.4727 -4.5142 1.9771 2 13992
9.4815 -8.6669 1.8054 0 14956
9.5261 4.2732 0.97406 0 10506
9.5326 5.0622 1.7733 0 10082
9.5385 -6.1048 1.0566 0 14477
9.5415 -5.799 1.0417 0 14374
9.5458 6.3879 0.80318 0 9496
9.5459 5.3613 1.0214 0 9935
9.6 -3.0582 1.1782 0 13610
9.6223 -1.8477 0.68515 0 13443
9.6288 6.0448 0.26395 0 9665
9.633 8.7531 0.60698 1 8774
9.6841 -3.3364 1.6828 2 13643
9.6892 10.482 1.3317 0 8418
9.7075 9.0303 2.1783 1 8736
9.7164 9.632 1.9228 0 8612
9.7186 -1.8364 1.1566 1 13439
9.7364 -0.8039 0.91146 1 13186
9.7453 8.7011 0.30332 1 8810
9.7558 -4.4439 1.7613 0 13919
9.7966 -9.4308 0.31571 1 14989
9.8249 -0.072021 1.8512 0 12866
9.8326 -5.6312 0.26307 0 14274
9.834 -11.139 1.7376 0 15115
9.8449 -5.5609 1.5891 0 14257
9.8594 -9.8835 2.6303 1 15021
9.8711 -1.0776 0.69436 0 13271
9.8874 6.4948 1.6626 1 9552
9.9164 9.0106 1.5669 0 8777
9.9197 -3.2883 0.73077 0 13624
9.9222 1.6124 0.93784 0 11980
9.9604 8.689 0.92427 1 8864
9.9663 -3.958 1.0004 1 13744
9.9727 5.7508 1.074 1 9867
9.9858 0.91405 1.8893 0 12373
9.9863 4.1692 2.0389 0 10668
9.9871 -0.041834 0.46574 1 12842
9.992 9.7406 0.32398 1 8643
9.9924 0.62342 1.6449 1 12529
9.9989 -9.5719 1.9454 0 14987
10.021 -6.0119 1.3666 0 14352
10.094 -9.2266 2.5766 0 14958
10.113 -6.8083 1.1374 1 14571
10.129 -5.9571 2.214 0 14321
10.135 -5.2333 1.0642 1 14107
10.14 -9.8781 0.32866 1 14998
10.187 0.25431 1.1917 2 12706
10.191 -10.765 2.4354 1 15052
10.212 -10.538 2.0623 0 15034
10.214 -0.51743 0.23745 0 13036
10.221 1.3874 0.72128 0 12124
10.238 -4.4175 1.3039 0 13834
10.284 -9.022 1.2763 0 14916
10.287 -0.043091 0.23884 0 12841
10.315 -4.9158 0.2653 0 13983
10.322 10.171 1.3519 0 8621
10.39 -4.6958 0.79732 0 13903
10.442 10.23 2.4017 0 8636
10.443 0.16587 1.7159 0 12750
10.459 -0.28483 0.97611 1 12951
10.509 -9.2194 0.97757 1 14915
10.58 -8.2957 1.5722 0 14811
10.6 -10.269 2.4247 1 14996
10.615 -0.47645 1.7457 2 13020
10.722 0.26766 1.0006 0 12704
10.757 -9.3802 1.3315 0 14912
-9.2791 6.6701 -1.6061 1 2305
-0.11965 9.0197 -1.9174 0 6634
1.1395 3.2178 -1.7146 0 6951
2.4594 1.9409 -1.5737 0 9087
6.3691 1.6709 -1.8881 0 11412
