VERSION .7
FIELDS x y z intensity index
SIZE 8 8 8 8 8
TYPE F F F F F
COUNT 1 1 1 1 1
WIDTH 563
HEIGHT 1
VIEWPOINT 0 0 0 1 0 0 0
POINTS 563
DATA ascii
-3.8211 -0.46917 0.4502 0 258
-3.6945 2.0487 0.59371 0 3770
-3.5243 -2.3844 0.80171 0 19038
-3.3704 3.3622 -0.11053 0 6383
-3.3536 -3.1526 -0.32186 0 18562
-3.3398 -3.5665 -0.34167 0 18418
-3.2542 -3.5538 0.67722 0 18389
-3.1596 2.0253 -0.087133 0 4330
-3.0919 1.4874 -0.32011 0 3305
-3.0435 -0.26734 0.35728 0 406
-2.6339 2.7379 0.7158 0 6552
-2.467 -3.3158 -0.095953 0 18118
-2.4156 -3.584 0.71009 0 18014
-2.3258 3.9563 0.86466 0 7955
-2.1304 -4.3334 0.22518 0 17692
-2.023 2.6288 0.077013 0 7277
-1.9556 3.8984 0.30498 0 8245
-1.9091 3.9457 -0.30651 0 8298
-1.8987 4.4066 -0.33553 0 8439
-1.7911 4.2587 0 0 8461
-1.7839 -2.5976 -0.07316 0 18026
-1.5112 4.6511 0.80347 0 8574
-1.4329 4.1215 0.7169 0 8549
-1.2884 4.0837 -1.4469 0 8585
-1.2367 4.5581 0.22025 0 8604
-1.2063 4.347 -0.52756 0 8599
-1.1874 3.066 0.54019 0 8505
-1.1021 4.2069 0.10097 0 8608
-0.96936 3.493 0.084162 0 8601
-0.9566 -3.4354 0.1663 0 17346
-0.93501 3.9927 -1.1759 2 8620
-0.8682 4.1306 -0.097996 0 8627
-0.70873 4.295 -0.40612 0 8641
-0.64606 -3.6979 0.70728 1 17322
-0.21354 -3.3753 0 0 17283
-0.15812 -3.7108 0.61022 2 17274
-0.13677 3.0591 0.57693 0 8668
-0.074899 4.0101 -1.05 0 8674
0.16939 -3.1896 0.298 0 17221
0.33327 3.8874 0.64102 0 8705
0.45388 4.2753 0.40111 0 8719
0.49409 -3.7429 0.62027 0 17212
0.58684 3.4259 0.4885 1 8761
0.59228 -3.3017 -0.15643 0 17209
0.81985 4.5474 -0.32311 0 8768
0.82986 4.3877 -1.169 0 8787
0.92566 4.4659 0.74932 0 8811
0.97124 -3.2852 0.64544 0 17204
1.0291 3.6659 -1.3859 0 8902
1.1518 3.3431 0.4135 0 8968
1.2473 3.7278 -0.091265 2 8955
1.3075 4.0628 -1.2238 1 8940
1.4047 -4.5071 0.88947 0 17200
1.4289 3.2366 0 0 9117
1.4465 4.5848 -0.78985 0 8930
1.449 4.2058 0.73084 0 8969
1.4561 3.1731 -1.0011 0 9149
1.4644 3.2906 0.59174 0 9127
1.8097 -4.0742 0 0 17172
1.841 2.7531 0.23159 0 9709
1.8999 -2.8445 -0.40002 0 17078
2.061 3.6999 0.69582 0 9385
2.1265 -3.1838 0.62903 0 17082
2.6369 4.2297 -0.46502 0 9547
2.688 -2.3765 0.58947 0 16786
2.7652 3.2849 -0.60345 1 10181
2.9729 -4.0089 0.70143 0 17021
3.104 -0.30709 0.072418 0 15036
3.1301 -1.8467 -0.33906 0 16170
3.1631 1.9021 0.2581 0 11795
3.231 0.78106 -0.95315 0 13528
3.2952 3.4267 0 0 10496
3.316 -3.4918 0.79115 0 16804
3.3356 0.24202 0.15596 0 14369
3.4492 2.8575 0.31321 0 11094
3.4684 1.3585 -1.3558 0 12775
3.5252 -1.6724 0.18195 0 15868
3.5702 -2.307 -1.2189 1 16327
3.6069 3.3588 -0.45982 0 10807
3.6598 0.04216 0.51438 0 14640
3.6852 1.8262 -0.095489 2 12236
3.7668 0.4385 -0.99275 1 14066
3.79 -2.8747 0.22183 0 16652
3.8452 0.46941 0.18065 1 14030
3.9348 0.13535 -0.46042 0 14537
3.9515 -1.7925 -0.9223 0 15799
4.0853 -2.5231 0.78888 0 16251
4.2209 -1.6262 0.74316 1 15597
4.226 1.4074 -0.626 0 13067
4.3253 -1.3026 0.52825 0 15432
4.3595 -0.8561 -0.10315 0 15305
4.405 0.83791 0 0 13732
4.6019 -0.84959 -0.43659 1 15283
4.66 -1.1999 0 0 15389
-1.7185 0.63878 0.30122 1 2670
-0.62034 2.9085 -1.4938 0 8625
0.2828 -2.7507 0.32336 0 17214
0.93966 1.1641 -0.84056 1 10088
-14.933 0.25023 2.099 0 904
-14.665 0.92775 1.7183 0 1125
-14.591 0.75444 0.3392 1 1065
-14.58 2.5053 1.3802 0 1621
-14.562 2.7646 1.0364 1 1709
-14.472 -0.34357 2.0344 0 709
-14.318 1.1118 2.3595 0 1195
-14.27 1.78 2.0211 0 1403
-14.029 1.9517 1.3215 1 1473
-13.916 5.5378 2.4607 0 2827
-13.903 2.4714 1.3174 1 1650
-13.902 0.18927 1.6259 0 889
-13.807 5.5898 0.34584 1 2857
-13.699 2.2753 0.6476 1 1591
-13.677 5.9074 1.7423 0 3022
-13.644 4.7112 0.33512 2 2510
-13.643 1.4171 2.5844 0 1313
-13.626 2.2997 0.32082 1 1604
-13.581 4.6897 0.67006 1 2511
-13.542 5.715 2.4149 0 2964
-13.478 1.717 0.95008 1 1415
-13.472 -0.59528 1.2581 0 613
-13.433 1.0029 0 2 1176
-13.419 1.042 0.62767 1 1191
-13.372 0.14937 1.8794 0 876
-13.366 0.57421 0 0 1023
-13.361 1.74 1.257 2 1431
-13.354 6.568 -1.0406 0 3374
-13.328 3.5464 1.6129 0 2077
-13.321 0.80306 1.8755 0 1112
-13.195 6.0243 2.7328 1 3179
-13.19 5.79 1.0073 1 3063
-13.184 6.1564 2.045 0 3234
-13.127 0.44695 1.846 0 989
-13.113 5.6636 2.0074 0 3024
-13.012 2.3952 1.2343 1 1680
-12.964 1.7667 0.91493 1 1459
-12.912 2.1793 1.5313 0 1608
-12.824 1.409 2.1196 2 1341
-12.823 2.4346 0.30304 1 1708
-12.785 1.8947 0.30007 1 1512
-12.782 2.7729 1.2202 0 1842
-12.771 1.2162 0.89707 1 1269
-12.729 0.43338 0.59394 1 985
-12.713 2.2988 2.434 0 1669
-12.712 2.6071 1.8237 0 1786
-12.686 -2.3123 2.4296 0 47
-12.618 -1.8858 1.7931 0 157
-12.596 1.0511 0.58947 2 1215
-12.554 0.39015 1.4688 1 975
-12.55 2.1971 0.89093 1 1635
-12.502 4.6469 -0.93264 0 2658
-12.499 -2.0513 2.081 1 112
-12.447 2.1008 1.1777 2 1607
-12.388 -8.2743 1.3898 0 19050
-12.355 2.2742 1.4691 1 1681
-12.332 2.9401 1.7817 1 1947
-12.325 0.88562 -0.28689 0 1161
-12.319 0.31182 0.2861 1 944
-12.268 -1.4715 0.864 1 268
-12.242 2.0661 -0.28823 0 1602
-12.241 0.30985 -0.57102 0 941
-12.217 -8.0096 2.4 0 19067
-12.195 4.6911 0.30337 1 2734
-12.171 2.0542 2.3255 0 1610
-12.142 1.5813 -0.57102 0 1425
-12.14 -8.5766 0.3451 1 18980
-12.053 1.6424 0 0 1457
-12.011 0.37326 0.27899 1 971
-12.006 1.3912 1.9857 0 1365
-11.991 -8.1123 1.3506 0 19035
-11.982 -8.4151 -0.68282 0 18987
-11.975 -8.2028 2.3848 0 19021
-11.965 0.82406 0.55928 1 1149
-11.944 1.6977 1.1255 0 1487
-11.93 3.2099 1.4447 0 2094
-11.927 -8.6338 1.3737 0 18951
-11.839 -7.5624 1.9743 0 19076
-11.835 0.61195 1.1056 0 1068
-11.607 6.2604 2.4847 2 3685
-11.597 1.0718 1.362 0 1258
-11.59 6.1234 0.61127 1 3606
-11.578 4.924 2.067 0 2984
-11.576 -7.8319 -0.6518 0 19032
-11.513 -7.4057 1.9239 0 19075
-11.508 -7.5446 1.2838 0 19064
-11.495 1.4338 1.0807 1 1401
-11.463 7.6823 2.2671 1 4544
-11.393 7.9213 0.97031 1 4702
-11.363 9.7493 1.7509 2 5715
-11.312 -7.2763 1.5729 0 19074
-11.267 -8.3552 -0.65412 0 18915
-11.21 -9.5371 0.34171 1 18718
-11.185 -8.0968 1.9406 0 18953
-11.161 -9.1123 -0.67192 0 18782
-11.089 1.9054 1.5813 0 1623
-11.034 -7.2344 1.8543 0 19066
-10.939 8.7448 1.6377 1 5357
-10.933 -7.4887 1.5497 0 19020
-10.926 9.6492 2.3948 2 5867
-10.905 -7.3336 0.91897 1 19042
-10.834 -7.2856 0.60885 1 19041
-10.812 -9.9836 0.68627 1 18587
-10.707 8.87 1.2971 1 5534
-10.696 1.2678 -1.2595 1 1368
-10.145 0.37732 0 2 998
-10.074 2.1855 -0.72086 2 1835
-9.9864 2.9999 0.24209 0 2250
-9.9013 -9.8016 0.32347 1 18510
-9.6451 -10.114 -0.97729 0 18442
-9.5504 -7.3442 -1.124 0 18861
-9.4466 -6.6343 0.53832 1 18989
-9.3477 -7.7221 1.704 0 18769
-9.1881 2.5584 -0.44478 2 2137
-9.0876 -11.636 2.4256 1 18176
-9.0851 -6.4947 0.5208 1 18966
-9.0627 -7.2658 2.1885 1 18813
-8.9869 -8.3453 -0.85759 0 18576
-8.9792 -8.1504 2.2848 0 18618
-8.9498 -7.4356 0.81364 2 18761
-8.833 -8.4942 1.4331 0 18542
-8.7982 2.1496 -1.2729 1 1964
-8.7595 -9.6265 1.522 0 18380
-8.6212 -8.7822 1.1481 0 18485
-8.6166 2.9753 -1.4977 1 2502
-8.6084 -6.3467 1.2507 0 18928
-8.5902 1.6309 -0.203 0 1706
-8.5039 -5.7532 0.23837 1 19033
-8.4985 -8.6572 1.9931 0 18488
-8.4972 -5.9675 1.9563 0 18993
-8.4963 -8.8104 1.7202 1 18465
-8.472 -7.3828 1.3141 0 18681
-8.454 2.1455 0 1 2010
-8.429 -1.3335 1.6079 2 130
-8.3908 -9.2765 2.055 0 18372
-8.301 -7.9382 1.3432 0 18548
-8.2749 0.61784 0.77416 1 1180
-8.2684 0.56948 0 0 1148
-8.2226 0.5202 0.38422 0 1122
-8.1847 -12.527 -1.0463 0 17977
-8.0707 -0.30864 1.1351 0 642
-8.0555 -12.567 1.3926 0 17964
-8.0457 -8.1503 2.1578 2 18494
-8.0052 1.543 1.536 0 1727
-7.9648 -10.198 1.5132 0 18174
-7.9387 -5.7108 0.45605 0 18956
-7.9227 -8.308 1.8861 0 18446
-7.9194 -0.51074 -0.18425 2 508
-7.8841 -8.3664 0.80387 0 18428
-7.8168 7.8963 0.25796 0 6431
-7.7789 -7.7464 1.5429 0 18507
-7.7028 -1.1952 0.54508 1 135
-7.655 -8.4127 1.5985 0 18381
-7.641 -11.994 1.663 0 17957
-7.6063 -12.168 2.3576 0 17943
-7.6034 -9.8518 0.28893 1 18159
-7.5619 1.3238 1.4464 0 1638
-7.5543 -11.858 1.976 0 17958
-7.5397 -6.8438 1.1908 1 18616
-7.4967 3.1637 -1.3368 1 2947
-7.4255 -8.9632 1.0859 0 18244
-7.4102 -9.5463 0.56357 1 18165
-7.3664 -9.1065 1.6461 0 18215
-7.338 -10.685 0.60447 1 18027
-7.2648 -6.5943 0.22779 0 18612
-7.201 1.3255 0 2 1677
-7.1564 3.4165 -1.1145 1 3282
-7.1313 -0.68918 0.50099 2 365
-7.1258 -6.8934 1.1594 2 18536
-7.0422 -9.6396 1.9613 1 18098
-7.0181 -11.675 2.5666 1 17915
-6.9824 2.7097 0.52373 0 2756
-6.9776 2.6366 0.87229 2 2705
-6.9664 -10.793 1.1985 0 17968
-6.9292 -13.215 2.0971 0 17767
-6.8406 6.7859 0.44934 0 6362
-6.7615 -9.5425 1.0911 0 18064
-6.7189 10.567 2.0573 0 7792
-6.7132 -12.442 2.6636 1 17807
-6.7126 -10.08 0.56478 1 17997
-6.7058 -12.428 1.6514 1 17804
-6.6548 -6.4377 1.3013 1 18537
-6.652 -0.62177 -0.6233 2 371
-6.5656 -9.3246 0.79746 1 18056
-6.4678 -12.154 2.594 1 17790
-6.4392 0.74618 0.91103 0 1364
-6.4115 9.5918 1.8955 0 7676
-6.3966 -12.724 2.3397 2 17717
-6.3692 -13.547 1.7506 0 17653
-6.3374 -12.789 0.99808 2 17700
-6.3263 -12.767 1.3293 2 17701
-6.2603 -11.939 0.94269 1 17764
-6.182 0.33588 1.1665 2 1086
-6.1418 7.0455 1.5356 0 6913
-6.1351 -13.55 0.34533 1 17613
-6.1262 -13.031 2.3657 0 17654
-6.1224 -5.8201 0.7881 1 18553
-6.1133 -12.904 -0.66586 0 17655
-6.079 -7.4695 1.8145 1 18223
-6.0501 -10.689 1.1459 0 17856
-6.0335 -13.022 1.3389 1 17638
-5.9838 -13.118 2.0264 0 17623
-5.8935 -6.7845 1.0509 0 18312
-5.7946 -13.201 2.7162 0 17587
-5.7066 -7.5318 0.21939 0 18141
-5.7015 -13.738 1.0401 1 17532
-5.6739 -11.8 1.8401 0 17674
-5.6689 -11.966 2.1753 0 17660
-5.6557 -10.482 1.9568 1 17806
-5.6278 1.1542 1.0824 0 1788
-5.606 -11.074 1.7444 0 17724
-5.5749 -6.0541 0.57549 1 18395
-5.5463 10.444 1.9429 0 8147
-5.5128 -8.4373 1.8989 2 17984
-5.4938 5.3894 -0.17868 0 6310
-5.4642 -6.1849 1.1599 0 18337
-5.4632 -8.3614 1.168 0 17981
-5.4358 3.2868 1.1968 0 4105
-5.3653 -12.518 2.2376 1 17562
-5.3328 -3.6309 1.0599 0 19030
-4.9304 -4.2199 0.75893 0 18710
-4.8788 -7.5127 1.4717 1 17975
-4.8745 1.6661 0.97057 0 2501
-4.7985 -6.9402 1.5897 0 18037
-4.5997 -7.0399 1.1819 0 17982
-4.5441 7.9408 1.7238 0 8011
-4.5336 2.4626 0.72509 0 3703
-4.3435 -12.452 0.92218 1 17421
-4.2546 7.003 1.3462 0 7887
-4.2493 -6.3046 0.70932 0 18012
-4.1568 -11.195 0 0 17451
-4.1331 -12.204 0.90097 1 17407
-4.0707 -11.463 0.28243 2 17429
-3.9404 -11.859 0.29013 1 17400
-3.6255 -4.0307 0.89069 0 18362
-3.4308 10.763 1.856 0 8584
-3.0188 6.5785 -0.16805 0 8372
-2.9531 9.003 1.5567 0 8569
-2.6491 6.5076 -0.82165 1 8482
-2.4656 -6.5215 0 0 17458
-2.1848 -8.724 1.4776 0 17334
-2.1796 6.21 0.61402 0 8543
-2.0097 -6.553 0.63947 0 17381
-1.8957 4.7324 0 0 8492
-1.7598 -12.396 2.057 0 17314
-1.7277 -10.402 1.7324 0 17320
-1.5976 6.0985 -0.14637 0 8607
-1.5545 7.6201 0.90946 0 8630
-1.5083 -7.8254 0.74351 0 17325
-1.3737 -11.589 1.3648 0 17309
-1.3086 -5.1563 0.6221 0 17335
-1.2624 -5.9803 1.0042 0 17327
-0.9655 5.2814 0.37543 0 8636
-0.95283 6.8932 1.1433 0 8647
-0.8845 -7.8361 -0.18309 1 17307
-0.74675 10.072 0.9423 0 8663
-0.71981 -8.927 1.4714 0 17291
-0.6501 6.3016 -1.0408 0 8659
-0.48997 -7.1321 0.66696 0 17285
-0.47764 7.3266 0.68499 0 8665
-0.47385 -6.5944 1.0862 0 17287
-0.41624 -8.5412 1.4049 0 17279
-0.3556 7.4575 0 0 8667
-0.31688 6.2553 -0.73245 0 8666
-0.29917 7.6828 0.71731 0 8669
-0.15833 -5.5983 0.13003 0 17262
0.20898 5.3189 -0.37222 2 8692
0.26376 7.2975 0.68127 0 8691
0.57842 -5.8053 0 0 17215
0.63147 -9.765 0.22719 0 17217
0.85897 -5.6265 0.93511 0 17210
0.87249 5.0936 -1.4818 0 8759
1.1799 4.968 0.96205 0 8863
1.2022 -8.3739 0.19641 0 17211
1.2408 6.4617 1.081 0 8791
1.2455 -9.6555 1.5995 0 17213
1.2536 9.0573 1.0693 0 8728
1.3663 4.8674 0.59121 0 8903
1.4207 -5.4975 1.0698 0 17205
1.4216 5.9032 0 0 8867
1.4353 6.7409 0 0 8819
1.5333 -4.9688 0 1 17201
1.8273 6.36 1.0872 0 8908
1.9244 8.6517 1.4562 0 8834
2.0598 8.0398 0.97056 0 8885
2.1001 -6.1726 0.45593 0 17197
2.1498 6.3587 0.78495 0 8960
2.3173 11.703 1.3952 0 8798
2.3815 7.3251 0.71861 0 8944
2.4044 -4.8352 0 0 17146
2.4727 8.6063 1.6871 0 8909
2.5036 -4.6555 0.61815 0 17136
2.5598 -4.3579 0.47152 1 17120
2.6865 9.0637 -0.21948 0 8916
2.9162 7.3393 0.36829 0 9044
2.9346 4.9249 0.67042 0 9478
2.9515 -7.2037 0.91039 0 17182
2.9788 6.1156 0.63464 0 9220
3.2929 9.2989 1.1536 0 8983
3.3737 9.7043 0 0 8973
3.6909 -7.4746 1.3696 1 17149
4.0805 -4.5255 0.5685 1 16825
4.1332 5.4354 0.63705 0 9953
4.2282 -9.8985 1.7684 0 17178
4.3158 -6.109 0.52303 0 17050
4.3812 3.849 0.95813 0 10963
4.4639 -5.1569 1.1206 0 16853
4.5523 -6.3258 1.2804 1 17042
4.8246 -8.4997 0.91183 1 17132
4.8508 -3.7235 0.42761 0 16678
4.9185 -1.3881 0.11865 1 15411
4.9327 -3.0465 0.27037 0 16247
4.9823 -2.8998 0.94711 0 16155
4.9897 4.4597 -1.2609 0 10924
5.0064 -5.3649 0.85812 0 16810
5.0528 3.6028 -0.72571 0 11400
5.1328 -1.7935 0.89328 1 15515
5.1879 5.3014 1.3975 0 10554
5.2675 -0.84561 -0.37306 0 15247
5.3572 5.1338 -0.34602 0 10739
5.4822 -9.1528 1.7528 0 17116
5.5412 -4.676 0.67644 0 16772
5.5788 1.7858 0.27317 0 13141
5.6042 2.4823 0.57184 0 12487
5.6184 6.9604 1.0461 0 10096
5.7281 -0.38347 -0.67135 0 14935
5.7666 9.0692 1.0027 1 9587
5.7676 -5.9998 1.3673 0 16798
5.7759 -6.22 0.99262 0 16813
5.9582 -2.2764 0.59507 0 15586
6.009 -1.9617 0.29478 0 15470
6.0733 8.2316 0.95437 1 9893
6.1302 -2.2203 -0.91632 0 15537
6.1899 0.19777 0.57779 0 14555
6.2166 -1.6576 1.057 0 15397
6.2274 -2.568 -0.78773 1 15659
6.2481 7.5179 1.1432 0 10164
6.3516 9.7396 0.81308 0 9654
6.4642 1.2694 1.0823 0 13711
6.4798 9.6321 1.3576 0 9723
6.523 -2.2575 1.3005 0 15510
6.5506 -8.2707 1.7334 0 16956
6.5767 4.7747 -0.379 0 11361
6.6905 -4.6587 1.3394 1 16471
6.6957 -0.93745 1.2738 0 15195
6.7099 10.626 1.1725 1 9574
6.7475 12.355 0.9844 1 9359
6.7825 2.6131 0.84999 1 12820
6.7952 -1.5426 -0.16178 0 15358
6.9699 10.043 1.1405 0 9778
7.0133 4.7021 0.19604 0 11548
7.0158 5.446 1.0386 0 11233
7.044 10.667 2.1001 1 9690
7.0808 -3.5628 0.55428 1 15951
7.1233 -1.8343 1.0338 0 15390
7.1593 8.9204 1.3376 0 10083
7.1889 4.3503 0.98263 0 11784
7.1973 -3.0151 1.282 2 15685
7.2078 3.6536 0.945 0 12184
7.2121 10.455 1.1849 0 9767
7.2395 12.399 1.3395 0 9447
7.2632 2.0484 0.88251 0 13331
7.375 1.5811 0.88205 0 13638
7.4298 1.3261 0.70412 1 13779
7.4395 -4.6813 0.82005 0 16283
7.4872 -5.2757 1.5048 0 16498
7.5057 10.418 1.5016 0 9851
7.5187 7.2886 1.7204 1 10715
7.5663 2.3494 0.55401 0 13185
7.5979 7.9925 1.5498 0 10477
7.6528 4.0468 1.2167 0 12074
7.6679 3.4509 0.98333 1 12458
7.6748 10.155 1.4886 0 9943
7.6796 9.0203 1.1052 0 10215
7.6927 8.7749 0.81601 0 10278
7.7039 10.007 0.88312 1 9979
7.727 8.6119 1.6261 0 10340
7.7468 4.0087 1.6434 0 12132
7.8261 7.723 0.76886 0 10646
7.851 5.1965 0.65836 0 11581
7.8907 2.1779 0.19005 0 13359
7.8937 2.5511 0.58009 0 13125
7.8951 -10.911 1.2565 0 17035
7.9463 -1.0179 0.74741 1 15148
7.9923 4.5274 0.64232 0 11920
8.0243 4.8253 0.87356 0 11797
8.0319 5.2479 0.89511 2 11606
8.0566 -0.6553 0.37695 0 14986
8.0753 3.2185 1.6379 1 12736
8.1097 11.257 1.2944 0 9849
8.1133 8.3344 0.54242 1 10528
8.1239 10.812 2.5481 0 9935
8.1737 -0.30972 1.1496 1 14840
8.2485 3.885 1.7178 1 12363
8.2536 4.3922 1.7615 0 12062
8.2689 8.3969 1.0995 2 10564
8.3318 9.1213 1.4447 0 10381
8.3776 2.2307 1.6334 2 13413
8.3974 8.4326 2.2422 2 10597
8.428 8.0314 1.9127 2 10765
8.4479 5.5577 1.9052 0 11596
8.4498 8.5805 0.8421 1 10562
8.4642 3.5164 1.0718 2 12623
8.4768 5.0974 1.6251 0 11800
8.537 -11.17 0.65562 1 16992
8.5612 9.8243 1.5239 0 10268
8.5834 -0.57463 1.6208 2 14942
8.627 -11.353 2.6866 0 17002
8.6341 8.182 1.6717 2 10779
8.7051 8.7937 1.447 2 10579
8.7204 7.5246 1.0746 0 11001
8.7849 4.579 1.3923 0 12109
8.7896 7.6757 0.54419 1 10971
8.8051 9.7585 2.1594 1 10355
8.821 9.014 1.7725 1 10552
8.8677 0.5921 1.0393 2 14400
8.9274 3.1159 1.1058 1 13002
8.939 0.49038 1.6867 1 14457
8.9479 7.6774 1.657 2 11021
9.02 9.2174 0.90181 1 10546
9.0926 10.252 1.9259 0 10313
9.1311 4.5925 1.6792 0 12209
9.1374 4.1738 1.1747 1 12425
9.1919 5.5625 1.7652 0 11785
9.2039 -1.6693 1.3146 0 15280
9.2335 4.644 1.2087 2 12206
9.2584 -10.821 0.99584 1 16861
9.2627 3.5038 1.627 0 12854
9.2735 -10.778 0.3301 1 16856
9.3236 -1.691 0.44189 0 15277
9.3416 -5.9581 1.0337 1 16307
9.3589 1.2271 0.88062 0 13986
9.4046 8.1637 1.7502 1 10990
9.4161 9.6727 0.94394 1 10530
9.4759 0.13728 0.88415 0 14626
9.504 5.9434 1.0458 1 11706
9.5604 3.184 1.8985 1 13082
9.5775 4.4763 1.2363 0 12376
9.6656 4.0492 1.7217 1 12607
9.7542 8.8757 2.4847 0 10874
9.7738 -1.2226 0.68878 0 15133
9.8148 2.709 0.94991 2 13362
9.8291 -0.62873 0.91889 0 14928
9.8333 8.8415 0.92469 1 10899
9.8777 -0.89025 0.69352 2 15013
9.8903 3.6782 1.234 0 12883
9.9254 2.5835 1.1994 0 13442
9.959 0.11473 0.69645 2 14638
10.033 5.6836 1.3485 0 11923
10.19 0.55903 0.95214 1 14450
10.222 8.3693 2.1705 0 11122
10.31 8.0496 2.1491 0 11221
10.322 4.043 1.8213 0 12784
10.328 8.8617 1.2696 0 11017
10.419 0.3329 0.72896 1 14554
10.552 -1.7582 0.99803 1 15258
10.616 8.895 1.6196 0 11071
10.894 -0.47375 1.0174 0 14855
10.939 2.0807 1.8294 0 13737
11.478 0.4309 1.3432 0 14528
-7.7748 6.0329 -1.8541 2 5217
-6.5225 3.2081 -1.7223 2 3390
-1.3573 5.568 -1.6434 0 8613
0.21333 5.9021 -1.9956 0 8690
2.3785 2.9111 -1.5702 0 10117
