VERSION .7
FIELDS x y z intensity index
SIZE 8 8 8 8 8
TYPE F F F F F
COUNT 1 1 1 1 1
WIDTH 788
HEIGHT 1
VIEWPOINT 0 0 0 1 0 0 0
POINTS 788
DATA ascii
-4.7765 -0.28796 0.44644 1 1132
-4.5123 -0.88528 0.75548 1 704
-4.0963 0.93518 -0.29381 2 2370
-4.0761 1.2206 0.69906 0 2694
-4.0384 1.6456 0.10125 0 3242
-3.8094 2.6664 0.43381 2 5099
-3.8021 0.68274 0.089687 0 2169
-3.743 2.6355 -1.1984 1 5125
-3.4029 0.33966 0.64433 1 1823
-3.3696 1.2045 0.33385 0 2986
-3.1635 -2.4021 0.74838 0 504
-3.0872 0.66635 -0.22085 1 2317
-3.0215 0.58951 0.21527 0 2236
-2.6022 3.0062 -1.0409 2 7499
-2.2194 -2.8002 0.082955 0 20153
-2.083 -2.2756 0.36076 0 30
-1.7664 -3.6089 0 1 19621
-1.6282 -4.2594 0 0 19431
-1.3579 -4.1966 0.72468 0 19372
-1.2879 -3.6492 0.18046 0 19398
-1.2119 -3.3718 -0.083187 0 19404
-0.93446 3.8656 0.46507 0 10747
-0.79583 3.5142 0.25196 0 10776
-0.77914 -4.676 0.77883 0 19285
-0.69363 -3.3289 0.55867 0 19292
-0.53809 3.7808 -1.39 0 10893
-0.52018 3.1353 0.29651 0 10868
-0.42662 3.2714 -0.94599 1 10905
-0.40245 4.5094 -0.74381 2 10930
-0.36369 2.9879 -1.2572 0 10912
-0.31392 3.3025 0.46623 0 10928
-0.23202 3.2368 0.075342 0 10934
-0.18522 3.6064 -0.25252 1 10935
0.36251 4.2372 -1.1133 0 10949
0.58168 -4.0516 0.67248 0 19193
0.7384 4.8198 -0.68529 0 10991
0.83789 4.3593 -1.2729 0 11021
1.1007 3.1066 -0.54148 0 11115
1.4339 3.3763 -1.0518 1 11194
1.4406 4.0257 -1.226 1 11122
1.4918 -3.2523 0.16686 0 19176
1.5091 4.6389 0.9191 0 11090
1.5115 3.7696 -1.4782 0 11165
1.5631 -4.3776 0.54359 0 19182
1.7735 -2.6662 0.37447 1 19066
1.8456 4.0478 -1.2756 1 11236
1.8809 3.6131 0.66923 1 11370
2.0062 4.2691 0.88873 0 11264
2.101 -4.2811 -0.22239 0 19173
2.2648 -3.123 -0.17991 0 18976
2.3901 -4.175 0.6761 0 19152
2.5871 -3.9401 0.43975 2 19089
2.6281 -2.5001 0.59596 0 18608
2.6576 1.763 0.52397 0 13483
2.6747 4.0441 -1.3903 0 11709
2.8038 -3.511 0.20953 0 18887
2.9009 -0.913 0.49966 1 17329
2.9019 3.5029 -0.10561 0 12137
2.9681 3.8695 -0.11322 1 11978
3.0328 2.8006 0.38513 0 12761
3.1406 0.86801 -0.53532 0 15269
3.3143 1.9073 -0.44718 1 13834
3.4043 0.23626 -0.97851 0 16349
3.4175 0.22759 -0.07952 0 16363
3.5585 1.7936 -0.092518 0 14150
3.7153 -0.28196 0 0 17044
3.7297 0.53347 0.3515 0 15951
3.8003 2.1712 -0.10162 0 13853
3.928 3.0392 -0.46335 0 13137
4.2345 0.096834 0.29619 0 16577
-2.7973 -0.47362 0.19839 0 740
-1.7205 -1.2671 0.14942 1 538
-0.77121 2.8288 0.34288 0 10646
-0.62299 2.1374 -0.75227 0 10582
1.7873 0.35681 -0.52261 0 15657
-14.531 2.6985 1.3789 0 2198
-14.466 3.5692 1.0419 1 2454
-14.248 -0.36065 0.66465 1 1282
-14.144 4.9641 1.0482 1 2954
-14.009 -0.80285 0 0 1142
-13.94 2.5033 0.9904 1 2171
-13.935 4.0405 1.0145 1 2647
-13.889 -0.47289 1.6252 0 1249
-13.834 -1.6422 0.64965 1 886
-13.781 4.3003 1.0095 1 2752
-13.697 5.1239 1.7102 0 3062
-13.526 -0.1086 -0.31404 0 1352
-13.504 5.5465 1.0208 1 3264
-13.486 2.1045 1.2734 2 2069
-13.422 4.7107 1.3271 0 2956
-13.366 5.0427 1.3328 0 3078
-13.348 1.9615 2.2165 0 2033
-13.344 0.9823 2.521 0 1718
-13.318 0.66998 0.30959 1 1615
-13.2 1.4364 1.2388 2 1859
-13.193 -0.71682 0.30675 1 1156
-13.152 -1.2548 2.4892 0 980
-13.067 2.0392 2.4918 0 2073
-13.045 -0.97858 0.61006 1 1062
-13.014 5.1761 1.3066 0 3192
-12.989 -0.065747 1.2119 1 1370
-12.94 -0.5514 1.2083 1 1211
-12.916 4.7061 0.96124 1 3011
-12.901 -0.17564 0.60167 1 1335
-12.839 1.8502 2.1312 0 2019
-12.814 -1.9013 0 1 790
-12.795 -0.80725 1.4993 0 1119
-12.771 0.86391 0 2 1687
-12.761 5.0293 0.95915 1 3170
-12.669 2.5822 1.512 0 2274
-12.668 -1.3918 0.59431 1 922
-12.653 1.7108 -0.59543 0 1970
-12.63 0.85436 -0.2939 1 1686
-12.625 -0.42984 0.58909 2 1247
-12.612 0.78023 0.58928 1 1662
-12.564 -0.61008 -0.29204 0 1182
-12.554 2.5976 0.59785 1 2283
-12.504 0.010912 0 0 1388
-12.492 1.7645 2.377 1 2005
-12.487 -0.31607 0.29 1 1281
-12.479 -0.78731 0 0 1114
-12.465 2.9971 0.59785 1 2427
-12.398 2.8304 0.88926 1 2376
-12.233 -0.95198 2.0158 2 1054
-12.203 2.414 2.3437 0 2252
-12.106 -0.51585 -0.28131 0 1206
-12.069 2.5719 1.4431 0 2310
-12.051 1.4882 0.28192 2 1918
-12.007 -1.3193 1.127 2 923
-11.962 -1.3883 0.2796 1 897
-11.909 1.4706 1.9714 1 1922
-11.858 3.3666 -1.15 0 2614
-11.833 3.6221 -0.57708 1 2718
-11.819 -1.5413 1.3938 0 848
-11.784 0.38887 0.27375 0 1536
-11.706 -0.15938 0.81866 0 1336
-11.639 6.537 0.93348 1 4193
-11.596 2.0822 -0.5494 0 2166
-11.561 1.154 1.3587 2 1821
-11.526 7.2919 0.95371 1 4669
-11.511 0.074337 2.1689 0 1420
-11.51 -1.9489 0 0 739
-11.507 -0.25913 1.0738 0 1297
-11.505 1.5555 1.0831 2 1975
-11.503 0.010039 -0.26706 0 1387
-11.503 0.91337 2.1741 1 1736
-11.464 0.64295 1.0712 2 1643
-11.439 8.7741 0.67229 1 5494
-11.436 3.1393 0.55304 1 2576
-11.415 -0.98866 1.3399 0 1014
-11.329 5.0061 0.8661 1 3444
-11.298 3.7473 -0.83233 1 2844
-11.264 2.6753 -1.0801 2 2409
-11.127 7.0394 0.30569 1 4665
-11.095 9.9271 0.69428 1 6247
-11.067 0.36519 -0.7743 0 1532
-11.063 0.040545 1.2937 0 1405
-11.062 0.94058 0 0 1754
-11 0.84061 1.0292 0 1724
-10.931 7.5578 0.9293 1 5046
-10.901 -0.24548 1.7914 0 1300
-10.883 4.8454 0.27658 0 3463
-10.765 1.7436 -0.76258 0 2089
-10.765 8.2035 0.31423 2 5465
-10.736 5.0087 0.82843 0 3592
-10.709 5.6127 0.84545 1 3951
-10.683 9.6627 0.67173 1 6306
-10.665 3.8125 -0.79201 0 2978
-10.663 5.7893 -0.5658 1 4061
-10.639 3.0528 -1.2944 1 2626
-10.636 0.41046 0 0 1559
-10.626 -0.39151 1.2435 0 1237
-10.594 10.4 0 0 6711
-10.592 10.46 0.34561 1 6740
-10.557 -9.1901 -0.65273 0 309
-10.546 6.3316 1.1476 0 4451
-10.529 0.34744 -0.49127 1 1533
-10.522 8.4662 0.62981 1 5719
-10.432 9.0588 0.96613 1 6101
-10.37 0.73243 0 0 1699
-10.355 1.8594 -0.9815 0 2164
-10.351 0.64036 -0.96756 0 1658
-10.343 -8.4415 -0.30996 0 396
-10.333 6.2456 0 0 4472
-10.321 5.8369 -0.55295 0 4210
-10.32 9.6171 0.65785 1 6453
-10.291 8.8332 -0.31488 2 6036
-10.271 5.8891 0.55211 1 4268
-10.268 7.8251 0 2 5463
-10.255 7.2664 0.29181 2 5146
-10.239 1.2645 -0.23954 2 1916
-10.235 2.3047 0.24357 0 2359
-10.235 5.143 1.0686 1 3810
-10.176 1.5881 0.23912 0 2067
-10.124 -8.9699 -0.31404 0 284
-10.073 9.227 0.31715 1 6363
-10.069 5.5815 1.618 0 4148
-10.063 8.894 0.31181 1 6188
-10.054 4.5122 1.8106 1 3490
-10.046 9.5768 1.6231 0 6576
-10.006 -8.6611 -0.61714 1 317
-10.003 0.64685 1.1722 0 1677
-10.001 -8.0183 1.499 0 432
-9.9977 -0.86589 -0.46798 2 1009
-9.9414 6.5352 -0.55481 1 4820
-9.928 5.467 -0.52854 2 4108
-9.8945 1.0173 1.6342 0 1836
-9.8582 1.6815 -0.93301 0 2125
-9.8538 -8.7856 0.61565 1 277
-9.8143 -8.9053 2.1773 2 257
-9.8009 -8.3324 1.2002 0 344
-9.6824 -0.27553 -0.67734 1 1267
-9.6705 9.2769 1.5671 0 6606
-9.6555 -0.021908 -0.45028 1 1377
-9.5734 6.9122 0 2 5226
-9.5723 -7.6251 -0.85577 2 435
-9.5403 -0.29648 1.1162 1 1260
-9.5304 1.1499 -0.44767 0 1903
-9.5018 -7.389 1.9775 1 471
-9.4935 -9.4538 1.25 0 145
-9.4854 11.36 1.3807 0 7667
-9.4675 1.1423 1.5667 1 1909
-9.4637 9.3455 -0.3088 2 6736
-9.4289 6.7206 0.26883 0 5173
-9.4189 -9.9358 1.601 0 75
-9.4088 9.3466 2.1789 1 6777
-9.4073 6.6657 -0.53767 2 5140
-9.3922 -1.4775 -0.44338 0 765
-9.3881 0.3098 -0.87634 0 1531
-9.3734 -10.33 2.2917 0 20349
-9.3528 -8.4865 -0.88312 1 249
-9.3446 4.0632 -0.95066 0 3390
-9.2995 -9.2026 1.2206 0 151
-9.2601 -8.6958 0.88828 1 204
-9.2337 6.5016 -0.26219 0 5116
-9.223 1.3817 1.7571 0 2047
-9.2211 7.3743 0.82564 0 5692
-9.2131 9.0442 -0.90279 1 6705
-9.1975 6.8881 -0.26678 2 5380
-9.1824 6.8768 0.8022 0 5387
-9.1789 -7.9007 2.2818 1 330
-9.1397 9.9603 2.547 1 7238
-9.1174 -7.8008 1.9714 2 339
-9.107 6.4124 0 0 5118
-9.1025 -8.2104 2.3096 0 266
-9.0987 7.4525 -0.54847 0 5798
-9.0879 4.1091 -0.69743 2 3496
-9.0786 1.9595 -0.8665 1 2316
-9.0746 -0.02059 -0.84662 1 1375
-9.0562 2.8016 -0.44208 1 2734
-9.0193 9.7741 2.1851 0 7208
-9.0134 4.5926 0 0 3850
-8.9632 1.2119 1.486 2 1978
-8.9568 -10.588 0.96975 1 20253
-8.951 -7.3892 1.3573 0 381
-8.9201 8.3123 -0.5686 0 6445
-8.8913 4.468 -0.92836 0 3799
-8.8538 6.9124 0.78546 0 5579
-8.8138 -10.609 -0.96445 1 20215
-8.7834 4.769 -0.93245 1 4059
-8.7764 4.6351 0.46285 0 3975
-8.7741 7.7109 -0.27119 0 6155
-8.752 -7.3542 0.5331 1 355
-8.7397 -6.6748 -0.25532 2 494
-8.7378 -7.2568 -0.79425 2 366
-8.7319 8.5241 0.56906 1 6685
-8.6842 7.5411 -0.53636 0 6092
-8.6766 -7.6414 1.0787 0 296
-8.6751 1.4051 -1.0277 1 2087
-8.6562 7.6074 0 0 6157
-8.6416 -8.115 1.106 1 205
-8.6337 -8.6942 1.1431 0 133
-8.6065 -8.2274 1.9561 2 187
-8.5977 -9.6974 -0.60437 1 20317
-8.5953 -10.464 1.5836 0 20203
-8.5399 5.8321 1.699 2 5001
-8.5151 6.6887 0 0 5602
-8.4898 12.247 -0.34598 0 8452
-8.4808 -9.482 1.4877 1 5
-8.4742 -8.4861 0.27844 1 138
-8.4375 7.1151 0.25625 0 5951
-8.4284 -9.341 1.1738 0 20341
-8.4154 0.91569 1.5949 2 1863
-8.3696 -11.221 0.325 1 20068
-8.3684 7.7519 1.8741 1 6432
-8.3454 4.9827 1.5969 0 4430
-8.3225 10.384 2.5073 0 7860
-8.3208 -7.6353 1.3206 0 237
-8.3141 -10.064 2.4596 0 20213
-8.3028 10.119 1.2212 0 7749
-8.2774 -8.5805 1.1123 0 101
-8.2488 3.1962 1.6667 2 3139
-8.2458 6.9979 1.7768 1 5991
-8.2042 0.9391 0.96568 0 1885
-8.1964 3.5367 1.6819 1 3386
-8.1835 -9.619 -0.88312 2 20258
-8.1602 -7.488 1.5565 0 238
-8.126 9.609 1.7686 0 7615
-8.011 8.4833 0 0 7079
-8.005 9.5264 2.0443 1 7645
-7.9913 8.3099 -0.26767 0 6991
-7.9778 -10.956 1.2644 0 20036
-7.9467 12.693 2.4603 1 8834
-7.9357 2.9402 1.1894 2 3047
-7.9027 7.6663 1.0272 1 6658
-7.8902 -0.40661 -0.55247 0 1167
-7.8763 1.6053 1.3206 2 2275
-7.816 4.8821 1.2951 2 4620
-7.8095 -11.697 1.6447 0 19906
-7.7824 5.415 1.5577 0 5077
-7.782 10.567 2.4725 0 8227
-7.7682 5.4373 0 1 5092
-7.7623 -11.926 2.3378 0 19885
-7.743 7.3813 0.99803 0 6574
-7.7124 9.12 2.2503 2 7619
-7.7101 9.3965 -0.56683 1 7739
-7.707 -11.618 1.3007 1 19899
-7.7013 7.3006 1.7434 0 6550
-7.6197 -10.522 1.2121 0 20028
-7.5915 -7.9136 -0.51139 2 88
-7.5564 -8.8819 -0.54381 2 20259
-7.5559 1.7694 0.724 0 2404
-7.5436 11.965 1.3196 0 8806
-7.5118 7.5066 1.2419 0 6802
-7.4859 1.5734 1.2568 2 2300
-7.4618 -7.9183 1.7875 0 68
-7.4492 -8.7034 -0.80108 2 20269
-7.4012 -11.157 0.31084 1 19898
-7.3928 6.8482 -0.23396 2 6417
-7.3867 10.728 2.454 0 8488
-7.3599 -7.6721 1.2433 0 91
-7.3548 -6.7064 -0.23109 2 243
-7.3028 10.734 1.8246 0 8533
-7.2866 7.2816 0.96106 0 6800
-7.2679 -4.6409 1.2119 0 693
-7.2669 12.725 2.4075 0 9154
-7.2571 -10.8 2.1377 2 19915
-7.2282 -10.757 1.5155 1 19913
-7.2238 -12.147 1.3185 1 19806
-7.2101 3.1605 0.92061 0 3426
-7.1735 -10.875 0.60754 1 19893
-7.1543 13.138 -0.34733 0 9296
-7.1492 -10.909 2.4573 0 19892
-7.1021 -0.63635 0.49862 0 1000
-7.0731 -6.9169 0.92297 0 163
-7.0582 3.1913 1.2726 1 3510
-7.054 10.71 2.4162 0 8650
-7.0518 11.872 0.96557 1 9010
-6.9972 -0.38018 0.65377 1 1159
-6.956 1.0632 0.49206 1 2054
-6.8798 7.7218 1.9485 0 7369
-6.8193 -9.0266 2.1315 0 20086
-6.7973 4.6681 0.57661 0 5019
-6.7883 -8.614 1.2825 0 20146
-6.7566 4.4147 0.94384 0 4805
-6.7522 -1.3247 1.2964 1 705
-6.7504 -8.7751 1.556 0 20111
-6.6879 7.9084 1.7016 1 7617
-6.6808 10.264 1.1426 2 8689
-6.6702 10.787 1.1833 0 8873
-6.6433 10.681 2.3699 2 8856
-6.5964 -13.087 2.4078 0 19652
-6.5437 -11.849 1.5829 0 19743
-6.5186 11.341 2.1491 1 9132
-6.5054 10.521 1.4465 0 8875
-6.4948 -9.6037 0.81071 0 19921
-6.465 -10.382 1.4303 2 19846
-6.4515 -6.2041 1.6864 0 181
-6.451 0.0056298 0.30084 0 1389
-6.4436 12.89 2.3676 1 9567
-6.4214 -13.505 1.7488 0 19594
-6.3993 11.288 1.5174 0 9173
-6.3738 -13.315 -0.34273 0 19596
-6.3573 5.2686 1.5556 2 5874
-6.3357 -4.5543 1.4701 1 568
-6.3273 -9.7767 1.6367 0 19879
-6.3163 -9.3397 1.0519 0 19922
-6.2989 -9.4341 0.529 1 19905
-6.2964 -12.864 -0.33252 0 19620
-6.2916 -11.017 1.1836 0 19772
-6.2874 13.241 2.7617 0 9725
-6.2801 6.2757 0.62083 0 6798
-6.2781 4.3116 1.4349 2 5029
-6.2426 6.4217 -1.4714 2 6922
-6.2388 13.44 1.3824 0 9779
-6.2112 -6.0065 0.80612 1 174
-6.1928 0.61813 -0.7278 1 1813
-6.1798 -6.3327 -0.41264 1 113
-6.1555 -13.551 1.3885 0 19559
-6.1265 -7.9182 1.407 1 20120
-6.1194 11.094 2.0816 1 9264
-6.1147 13.38 2.0676 0 9823
-6.1109 7.7211 1.8552 0 7917
-6.0829 -9.8993 1.3587 2 19833
-6.0821 11.739 2.1721 1 9457
-6.0774 -8.9291 1.0077 1 19932
-6.0135 -7.9111 1.8723 1 20094
-6.0043 12.935 2.343 1 9783
-5.9941 -8.4345 1.2101 0 20005
-5.9646 -10.098 2.2096 1 19803
-5.9471 -10.068 1.0909 1 19801
-5.9221 -11.333 1.4953 0 19686
-5.9098 0.26113 0.41366 1 1590
-5.8621 -4.5062 1.3931 0 490
-5.8109 13.756 2.8136 0 10015
-5.8073 -7.8768 0.68431 0 20051
-5.7716 -11.876 0.9233 1 19614
-5.7382 11.311 2.3896 0 9524
-5.6725 -4.7396 0.68963 1 363
-5.6536 0.54737 1.0702 0 1811
-5.5936 13.686 1.729 0 10080
-5.5607 -13.931 1.7541 0 19450
-5.5505 13.473 2.7454 0 10068
-5.5355 -7.459 1.7501 0 20064
-5.4599 13.466 2.0422 0 10097
-5.4057 2.7734 0.56683 1 3879
-5.3993 6.2375 0.96475 0 7500
-5.3878 -10.461 2.217 1 19673
-5.3784 -4.1599 0.47546 0 476
-5.2945 -10.432 1.368 0 19657
-5.2461 -5.7492 0.91016 0 20354
-5.2309 -8.6816 1.9097 0 19818
-5.1576 11.822 1.5083 0 9934
-5.1398 1.4428 0.87707 0 2610
-5.0711 7.896 1.5418 0 8742
-5.0383 -8.8799 1.4349 0 19766
-4.9925 -9.2877 1.9867 2 19718
-4.9731 -0.94508 0.83168 2 708
-4.9571 -5.4154 1.2062 0 32
-4.9511 11.813 1.195 1 10025
-4.7953 -5.224 0.66158 1 20361
-4.7674 10.356 1.3332 0 9804
-4.7141 -14 0.68888 1 19383
-4.6811 -3.2838 0.39984 0 593
-4.5877 -5.7552 0.34323 0 20161
-4.4769 3.8426 0.68994 0 6046
-4.4125 -3.3699 0.64928 0 495
-4.3862 -4.096 0.41965 0 213
-4.3756 -11.148 1.1173 0 19441
-4.3143 -14.015 1.0254 1 19348
-4.2897 4.7045 0.74453 0 7259
-4.1364 -9.6232 0.97722 2 19508
-4.0787 -3.9443 0.93219 0 175
-4.0662 -3.1826 0.48174 0 463
-4.0312 5.575 1.1303 0 8301
-3.8269 -9.5004 1.1977 0 19458
-3.8115 -10.14 1.0107 0 19425
-3.7914 3.7219 0.49567 0 6717
-3.6873 5.1924 0.44533 0 8365
-3.4449 7.4214 0 0 9774
-3.067 5.1265 0.98148 1 8993
-3.0442 5.0885 -1.2604 0 8992
-2.9549 4.9746 0 0 9005
-2.9112 -4.2502 0.48062 0 19943
-2.8941 4.5639 -0.25202 0 8777
-2.7548 7.606 1.3291 0 10287
-2.5985 6.8048 -0.16911 0 10197
-2.5129 -7.3942 0.36419 0 19389
-2.4579 6.3271 0.79377 0 10167
-1.7801 -9.0566 0.86111 0 19289
-1.4131 -7.909 1.32 0 19286
-1.3625 5.7061 -0.54732 0 10753
-1.2255 -6.5359 0.465 0 19288
-1.189 5.2503 1.0143 0 10778
-1.0182 8.8137 0.62041 0 10917
-0.90906 -4.9289 0 0 19287
-0.85692 -5.4411 0.90496 0 19284
-0.63184 -5.1758 0.98242 0 19282
-0.58417 5.9686 0.70132 0 10927
-0.54603 5.2569 -0.86832 0 10923
-0.45834 5.6966 -0.66833 0 10933
-0.42723 -5.4774 -0.25621 0 19272
-0.3457 8.7597 1.4403 0 10937
-0.040238 5.2396 0.86086 0 10938
-0.012843 6.6886 -1.4217 0 10939
0.0055799 6.3944 0.74778 0 10940
0.11512 7.495 0.34956 0 10941
0.28658 -7.494 0.69966 0 19210
0.32717 -9.2304 1.5174 0 19213
0.3328 5.6516 0.66206 1 10943
0.46871 6.1334 0.57389 0 10947
0.48786 -7.5647 1.2454 1 19200
0.5403 5.4036 0.12608 0 10960
0.5557 -5.2607 0.61862 0 19198
0.55613 7.8351 -0.54926 0 10946
0.61531 -4.9969 0.11689 0 19195
0.68639 -4.9785 0.94687 1 19194
0.70485 5.3323 -0.5018 0 10974
0.83262 -6.7616 1.1193 0 19196
0.86276 7.1609 0.67291 0 10966
1.2327 6.5237 0.6194 0 11018
1.3584 -11.598 1.9185 0 19197
1.3585 4.9454 -0.11907 0 11054
1.8343 4.6927 0.82779 1 11153
1.8387 -4.7951 0.72175 0 19181
1.8811 7.8234 -0.56266 0 11040
2.0017 5.3 0.52856 0 11140
2.0618 4.9313 0.37376 0 11184
2.0973 8.3868 1.011 0 11044
2.1054 -9.1195 1.7634 0 19192
2.3469 5.3975 0.27447 0 11207
2.381 -9.6717 1.6364 0 19187
2.4125 -4.4804 0.11814 0 19159
2.4899 8.2159 1.4104 1 11074
2.6905 9.5782 1.8745 0 11058
2.8721 5.4798 -0.43263 1 11376
3.2403 11.038 1.89 0 11067
3.3843 3.9681 -0.36469 0 12200
3.4296 -5.8293 1.1112 0 19146
3.5049 5.3317 0.74615 0 11703
3.5607 -10.648 1.8446 0 19184
3.7042 -7.2293 1.5305 0 19164
3.7633 -11.048 1.9176 0 19183
3.8857 5.486 -0.31351 0 11827
3.9699 -7.4789 -0.78995 0 19161
4.082 10.357 1.829 0 11157
4.3643 4.8521 -0.45635 0 12350
4.3658 -5.8062 0.67774 0 18946
4.4126 3.2532 -0.51146 0 13242
4.5835 -6.4377 -0.55261 0 18997
4.6018 8.4754 0.89975 0 11414
4.6261 -8.6567 1.8493 0 19160
4.6705 2.1059 -0.84173 0 14404
4.691 -6.5091 0.93827 0 18985
4.705 1.9431 -1.3326 0 14629
4.7812 2.4815 -0.37668 0 14072
4.8282 1.6738 0.96279 0 14937
4.8627 1.9745 0.24475 0 14663
4.8668 -6.1668 0.73292 1 18901
4.8823 1.2272 -0.46966 2 15394
4.9031 3.8156 -0.43444 1 13124
4.9048 -6.9349 1.3955 0 19009
4.9758 3.6471 1.0136 0 13264
5.0439 -8.6872 1.6504 0 19150
5.0716 4.1157 -0.76381 0 13042
5.1194 2.6741 0.26935 0 14062
5.2701 9.642 1.0252 0 11423
5.2916 5.8501 1.296 1 12370
5.3061 4.3322 0 1 13031
5.3469 1.6296 -0.5215 0 15130
5.3825 6.5762 1.3962 1 12120
5.7121 -0.88734 0.676 0 17203
5.7527 7.5982 1.7956 0 11964
5.7611 1.8852 0.56553 0 15023
5.7796 -1.0524 1.1068 0 17219
6.1707 -3.5069 0.83001 1 18073
6.1811 10.569 2.0116 0 11516
6.2386 -2.4928 -0.78564 0 17536
6.353 11.312 1.2104 0 11455
6.3743 -1.1228 -0.90964 0 17215
6.3841 0.16606 0.59581 0 16564
6.4204 11.054 1.4949 0 11503
6.4623 8.2773 1.7253 0 12022
6.5386 10.746 2.3699 0 11586
6.6088 -5.8614 0.82414 2 18566
6.6556 -8.3852 0.99877 0 18895
6.6791 3.4666 1.2363 0 14085
6.7679 -1.152 0.80283 0 17212
6.9138 10.258 1.1541 0 11739
6.9174 -4.0649 -0.93827 0 18110
6.921 -1.3842 -0.16387 0 17225
6.9416 11.04 1.5251 0 11636
6.9443 5.6697 1.0484 0 13037
6.9896 -8.5457 1.03 0 18862
7.0063 12.384 1.3274 0 11465
7.0531 9.5981 0.83289 0 11901
7.0682 -3.1884 1.2739 0 17703
7.0739 -0.22601 1.3335 0 16888
7.0934 -8.3229 2.0604 0 18818
7.1375 12.04 1.6368 1 11534
7.2003 12.552 1.0119 1 11484
7.2097 11.467 1.9036 0 11638
7.2118 -9.1943 1.0902 0 18906
7.2405 -10.291 0.29213 1 19012
7.2746 -3.8859 1.355 0 17956
7.2846 0.84673 1.2049 1 16108
7.3182 5.3287 1.7056 0 13280
7.3278 -8.7515 1.3348 0 18836
7.3914 -8.9283 0.26911 0 18844
7.4376 1.8944 1.261 2 15389
7.4796 1.3593 1.249 0 15755
7.511 1.683 0.53824 0 15534
7.5146 -9.6426 1.1405 0 18912
7.5182 -0.72525 1.4231 2 17107
7.5714 -10.568 1.8271 0 18992
7.5717 9.6983 0.86038 1 12016
7.5916 5.8738 1.1225 2 13145
7.6008 -0.97638 1.259 2 17177
7.6037 -7.8491 0.50962 1 18673
7.6584 8.5625 1.3434 0 12344
7.6746 9.101 0.83247 0 12180
7.6761 10.377 1.2043 0 11912
7.7009 -2.474 1.1368 0 17337
7.7021 -8.572 1.0751 0 18766
7.7068 -1.4966 1.2898 0 17223
7.7114 -3.3179 0.39149 0 17622
7.7118 11.807 0.65766 1 11693
7.7305 9.3845 1.7088 0 12131
7.7817 -4.7873 0.85238 0 18171
7.8144 -4.441 0.41916 0 18071
7.8144 4.2871 1.6793 2 13955
7.892 7.5867 0.76551 0 12679
7.9404 11.781 1.6614 0 11741
7.9703 7.5292 1.5409 0 12720
8.0043 10.692 1.2461 0 11935
8.0383 5.3003 0.67329 2 13492
8.0644 12.193 2.7543 0 11714
8.0956 -9.3326 2.3277 0 18800
8.1338 7.2929 1.0192 0 12823
8.1394 -7.5663 1.8258 0 18596
8.1657 10.273 2.4725 0 12061
8.1697 1.5333 1.1682 0 15724
8.1873 6.2574 1.4482 2 13171
8.2166 -2.4042 0.59865 0 17285
8.221 -7.7743 1.5902 0 18603
8.2295 -4.3059 0.43313 0 17921
8.2359 -10.882 0.63642 1 18939
8.2825 -0.04915 1.164 0 16777
8.2997 -4.4633 1.5483 1 17967
8.3202 7.2047 0.51326 1 12901
8.3439 7.0962 1.2809 0 12942
8.3718 -2.85 0.20532 0 17378
8.3827 -10.374 0.62198 1 18875
8.3854 1.1233 0.98937 0 16003
8.3933 -10.962 0.96543 1 18929
8.4399 -7.578 1.0582 0 18573
8.4966 7.9872 1.088 0 12729
8.5208 6.3581 1.4942 0 13226
8.5224 9.9293 1.2208 0 12221
8.5367 9.7172 2.437 0 12303
8.5599 -0.39918 1.6145 0 16938
8.5819 -2.645 0.41879 0 17311
8.5896 -10.63 1.275 2 18876
8.5944 9.2293 1.1766 2 12432
8.5973 -10.894 1.9504 0 18904
8.6538 9.5673 0.90209 1 12365
8.6657 3.6962 0.87894 0 14549
8.7258 -8.1569 1.6787 0 18598
8.7276 11.877 2.7769 0 11907
8.7802 -8.2567 0.8428 1 18600
8.7814 -2.7637 1.7345 0 17331
8.7909 8.0695 0.55649 1 12771
8.7938 6.804 1.5626 0 13146
8.795 -8.511 1.1418 0 18618
8.8415 -10.44 0.63801 2 18820
8.8788 9.4814 1.2119 2 12445
8.9585 7.3979 1.9088 1 13010
9.0089 1.7169 1.5067 1 15712
9.0234 -6.0338 1.0127 0 18290
9.0256 -10.658 0.97659 1 18821
9.0514 8.8083 1.775 0 12657
9.0569 -10.507 2.2791 2 18806
9.0614 -3.3807 0.45102 0 17455
9.0643 6.0543 2.0537 2 13472
9.0693 -1.0879 0.85219 0 17159
9.0775 7.8107 2.2563 0 12920
9.0857 -10.729 1.3116 0 18822
9.1156 9.4 0.91562 1 12519
9.1528 1.3646 1.5204 0 15921
9.159 7.6554 0.55667 1 12975
9.16 0.90461 1.5123 1 16201
9.1869 2.453 0.66492 1 15324
9.1912 9.262 0.30295 1 12573
9.1919 1.1514 0.86427 0 16054
9.2007 -5.476 1.2521 0 18133
9.2109 9.3862 1.8482 0 12552
9.2314 -2.2709 1.3361 0 17239
9.2444 -5.4323 0.50003 1 18115
9.2448 -4.0101 0.46993 1 17633
9.252 5.612 1.0095 0 13672
9.2733 -10.263 1.2905 1 18760
9.2755 9.788 2.5407 0 12475
9.2893 2.8312 1.8297 0 15147
9.296 2.1376 0.8899 2 15505
9.3006 5.715 0.50906 1 13644
9.3276 10.937 1.6809 0 12207
9.3301 9.9634 1.9184 1 12448
9.3396 -8.333 0.2906 2 18569
9.3431 4.8492 0.4909 1 14078
9.3458 -8.1443 0.5781 1 18550
9.38 9.8362 2.233 2 12487
9.3868 -8.7258 0.59767 1 18593
9.4004 4.8415 1.9922 0 14105
9.4356 1.8563 1.1246 0 15676
9.4396 1.431 0.22166 0 15895
9.4509 -8.338 0.8813 2 18560
9.4793 0.96454 1.5654 1 16186
9.4807 -2.7132 0.45987 0 17277
9.5093 10.155 0.97282 1 12443
9.5194 2.9923 0.93096 1 15087
9.5561 -8.1819 1.4712 0 18544
9.559 -7.8602 1.4472 0 18520
9.5757 5.5844 1.5579 0 13805
9.6206 -5.9557 2.1318 0 18183
9.6405 4.7919 0.75281 0 14191
9.6476 7.0713 2.2537 0 13265
9.6891 7.4052 1.4261 0 13170
9.694 -8.347 1.1935 1 18545
9.7056 10.54 2.354 2 12410
9.7236 5.0467 2.0641 0 14087
9.7419 9.4241 2.2269 2 12671
9.7574 2.0971 1.6397 0 15582
9.7724 -5.5537 2.1178 1 18076
9.8179 4.9874 0.51354 1 14134
9.8239 10.302 1.6647 0 12485
9.8515 8.5759 1.2186 0 12890
9.8578 11.154 0.69419 1 12312
9.8613 0.025814 0.22895 0 16729
9.8748 0.80145 0.46201 0 16287
9.9005 -9.3624 2.5673 0 18605
9.9058 -0.46195 1.3937 1 16934
9.9234 -0.60868 0 0 16987
9.9353 -7.4191 0.86707 1 18432
9.9429 6.9389 0.2815 1 13367
9.9629 -0.96107 0.46677 1 17100
9.965 -5.1367 0.26029 1 17897
9.9782 5.2498 0.26177 1 14042
9.9947 10.733 0.3405 1 12428
10.02 -10.644 1.7095 0 18713
10.051 -2.9714 1.2256 0 17292
10.055 0.99302 1.9037 0 16203
10.06 1.7088 1.9226 0 15816
10.066 -0.32162 0.70426 1 16880
10.115 -3.2163 1.7438 0 17333
10.122 10.38 1.0138 1 12531
10.123 10.682 2.4179 0 12474
10.133 10.265 1.6867 0 12566
10.135 4.8191 0.78476 0 14296
10.159 -9.0638 2.5651 0 18572
10.176 9.7825 2.6595 1 12684
10.176 10.611 1.7193 0 12497
10.196 0.79888 1.4374 0 16309
10.201 -4.3573 1.2972 0 17611
10.209 -9.6007 1.6389 0 18601
10.21 -4.7132 0.26108 0 17734
10.216 -0.03031 0.95307 2 16763
10.223 9.8891 1.6633 0 12670
10.233 10.366 2.7443 0 12569
10.237 -4.7258 1.5846 0 17739
10.24 -0.41666 1.6838 1 16918
10.261 -5.1429 1.3422 0 17859
10.285 7.266 0.29236 1 13339
10.323 -9.7618 2.3342 0 18604
10.325 -10.474 1.0285 1 18662
10.337 2.633 1.4992 0 15387
10.353 2.4111 0.99171 0 15489
10.365 -10.39 1.3692 1 18650
10.369 -9.9194 1.3388 0 18609
10.398 -3.674 2.0778 0 17411
10.441 5.2627 1.3673 0 14156
10.466 6.5605 0.57605 1 13601
10.478 5.9496 0.56189 1 13873
10.488 -4.7311 1.3455 0 17700
10.49 0.94543 1.4802 0 16249
10.499 6.4137 2.0213 1 13660
10.501 -2.6123 1.0095 1 17240
10.508 -0.12288 0.49006 1 16795
10.511 0.36154 1.7279 0 16527
10.526 -0.61433 1.4819 0 16980
10.593 -5.114 0.2731 0 17803
10.598 -8.9718 1.9515 0 18538
10.608 0.48915 1.2419 0 16467
10.625 -5.0951 0.82396 0 17793
10.676 0.77461 0.74849 0 16334
10.684 0.4646 2.0148 0 16486
10.69 -3.4651 1.8462 0 17345
10.713 -3.9969 1.0668 0 17456
10.721 -0.71958 1.2565 0 17017
10.727 -3.9341 0 0 17432
10.825 -3.7908 1.6119 0 17399
10.834 10.004 1.0311 1 12759
10.837 -9.0127 0.65729 1 18527
10.867 6.2541 1.4663 0 13846
10.93 -5.011 1.1218 0 17724
10.932 -9.1439 1.3297 0 18532
10.968 6.1849 0.88047 1 13886
10.984 -9.9733 0.34445 1 18576
10.988 5.3806 0.57055 1 14223
11.026 4.3298 1.3852 0 14725
11.09 0.31945 1.2974 0 16553
11.107 4.4334 0.5577 1 14695
11.184 -0.94306 1.3125 0 17066
11.297 5.6523 0.58909 1 14172
0.55157 3.9852 -1.6804 0 10979
2.8046 2.5745 -1.802 0 12767
2.8606 3.6222 -1.9279 0 12036
3.5765 4.3171 -1.6075 1 12141
5.3373 0.70077 -1.5436 0 16019
