VERSION .7
FIELDS x y z intensity index
SIZE 8 8 8 8 8
TYPE F F F F F
COUNT 1 1 1 1 1
WIDTH 589
HEIGHT 1
VIEWPOINT 0 0 0 1 0 0 0
POINTS 589
DATA ascii
-4.7598 1.4253 -0.23171 0 2127
-4.1249 0.59514 0.48737 0 1412
-4.1031 1.2162 -0.29926 0 2109
-3.9029 -0.25512 0.73691 0 448
-3.6164 1.4965 0.18251 0 2778
-3.5929 -2.5628 0.3086 0 19646
-3.5276 2.3155 0.39368 1 4293
-3.4039 1.562 0.52635 0 3059
-2.5446 2.1036 0.464 0 5361
-2.5016 4.0822 0.90206 0 8478
-2.2704 -3.1342 0.63584 0 18650
-2.1699 2.9175 0 0 7732
-2.1233 -2.7591 0.24345 0 18737
-1.9326 4.4384 -1.3881 0 9199
-1.5418 -3.5492 0.45252 1 18154
-1.4965 -4.0717 0 0 18064
-1.3268 -4.0761 0.80763 0 18029
-1.2615 3.2257 0.56904 0 9350
-1.2001 2.7772 0.49706 0 9215
-1.1399 -3.5021 0.43069 0 18028
-0.91936 3.715 -1.0019 1 9744
-0.89392 -3.4491 0.082723 0 18011
-0.87002 -4.9041 0.11564 1 17972
-0.69085 3.9543 -0.65951 0 9835
-0.56131 -3.9588 0.65691 1 17965
-0.50771 3.0081 -0.14227 0 9840
-0.44252 -3.3298 0.077988 0 17962
-0.34801 -4.0511 0 0 17947
-0.049524 4.5037 0 0 9867
-0.037871 4.6166 0.32283 0 9868
0.15208 -3.2129 -0.15 1 17887
0.1565 -4.0553 0.47459 0 17892
0.19511 3.6859 0.69543 0 9872
0.27468 3.2305 0.45565 0 9879
0.35172 3.6461 0.25615 0 9885
0.41934 4.9318 -0.8132 0 9877
0.61094 -4.9543 0.34906 0 17873
0.7126 -2.9705 0.28499 0 17864
0.86478 3.853 -1.1323 0 9943
0.93743 3.9077 -0.37491 0 9959
1.0092 3.529 -1.3359 0 10021
1.014 3.8352 0.46391 0 9993
1.2337 3.9249 -1.1797 0 10050
1.2694 4.1624 -0.71495 0 10037
1.2885 4.1395 -0.30316 2 10046
1.3794 3.573 0 2 10126
1.6331 3.3857 0.087273 0 10271
2.0095 -4.1978 0 0 17845
2.0945 3.3886 -0.18577 0 10601
2.171 -3.7755 0.61208 0 17797
2.2535 4.4094 -0.34627 0 10335
2.357 3.1053 -0.27261 1 11012
2.4189 -2.7321 0.084719 0 17395
2.5255 -3.308 -0.29102 0 17515
2.558 3.4519 -0.70587 0 10958
2.5718 1.8843 0.22294 1 12359
2.6609 3.5478 -0.10296 0 10984
2.6639 2.8072 -0.54389 1 11528
2.7888 3.6968 0.32381 1 11004
2.9167 -1.8162 0.5645 0 16966
2.9402 -3.1885 0.40464 0 17357
2.9626 -3.6993 -0.66608 0 17472
2.9747 -2.0368 0.2521 0 17093
2.9753 -1.667 -0.47931 0 16766
3.0517 3.3117 -0.95723 2 11475
3.0691 1.0067 -0.30134 0 13915
3.1388 -1.3181 0.55932 0 16314
3.1636 0.54077 0.60471 0 14529
3.2836 -0.51244 -0.38864 0 15849
3.3988 2.6602 0.81319 0 12192
3.4485 0.094517 0.56677 1 15188
3.4682 1.4822 0.71061 0 13561
3.4809 0.67852 0.58266 0 14434
3.5049 2.3251 0 0 12589
3.6631 3.0607 0.55822 0 12033
3.7114 0.66713 -0.98717 0 14490
3.7472 1.3616 -0.092565 0 13777
3.7815 -2.637 0.75743 0 17122
3.7852 2.5763 -0.53545 0 12528
3.7856 1.938 -0.098739 0 13221
3.7951 1.5829 0.48086 0 13596
3.8764 -3.0341 0.45926 0 17264
3.9963 -2.3936 0.54475 0 16912
4.0825 0.63784 0 0 14584
4.2642 -0.56367 -0.40129 0 15819
4.5311 0.84224 -1.2065 0 14467
4.6375 0.65589 0.43696 0 14645
4.6526 -0.9339 0.66692 0 15909
4.7389 0.17211 -1.008 1 15139
0.41684 -1.6534 0.28014 1 17863
2.2201 -0.98613 0.4577 0 16384
-14.932 0.84526 2.4571 0 1014
-14.794 -2.1793 2.4568 1 124
-14.5 1.963 2.4039 1 1375
-14.479 3.0881 2.0806 0 1701
-14.472 -2.5231 0 0 34
-14.464 1.324 -1.0157 0 1170
-14.446 3.8304 2.4555 1 1964
-14.416 1.5738 0 0 1248
-14.342 2.8397 2.402 0 1638
-14.077 2.9126 2.7084 0 1676
-13.921 4.3891 -0.68068 0 2204
-13.909 5.2918 1.3884 1 2585
-13.795 1.9903 -1.3003 0 1403
-13.778 5.0093 1.0251 1 2487
-13.731 -0.18215 0.31882 2 682
-13.729 4.3763 0 0 2224
-13.71 -2.4298 1.299 0 29
-13.661 4.5258 -1.0063 1 2293
-13.65 1.3649 -1.2799 0 1208
-13.644 5.325 1.0242 1 2638
-13.632 2.9473 2.6277 0 1717
-13.56 6.1712 1.7423 0 3036
-13.528 3.1679 2.2827 2 1809
-13.526 4.3114 -0.32959 0 2223
-13.513 6.2008 1.3871 0 3055
-13.51 2.7167 -1.2856 0 1643
-13.506 6.1977 0.34501 1 3050
-13.491 2.7497 -0.96278 0 1655
-13.425 -0.21324 0.31172 1 667
-13.422 3.2671 0.96599 2 1852
-13.407 0.71672 -0.31172 2 994
-13.407 4.3589 0.32732 1 2261
-13.269 3.1904 1.2732 1 1838
-13.261 3.0665 1.5917 0 1791
-13.261 3.5583 2.5869 1 1980
-13.236 6.0236 0.33762 1 3030
-13.233 4.0483 2.2736 1 2168
-13.232 6.9234 2.4535 1 3453
-13.226 4.2158 1.9509 0 2231
-13.212 1.0119 -0.30764 0 1105
-13.204 2.732 -1.2579 0 1665
-13.204 3.8685 1.9337 0 2101
-13.121 6.9647 1.7371 0 3495
-13.109 3.0699 1.8922 0 1808
-13.087 7.0406 2.7999 0 3547
-13.077 4.0406 2.5788 0 2185
-13.076 2.8271 1.2481 0 1714
-13.036 7.3602 0.34756 1 3704
-13.033 5.7076 0.33034 1 2920
-12.959 1.6418 1.5276 0 1334
-12.956 7.1698 2.4328 1 3640
-12.954 0.7333 -0.30123 0 1009
-12.952 4.0838 0.94966 1 2208
-12.925 0.5417 0 2 939
-12.875 -0.1708 0.90042 1 683
-12.847 1.176 2.1196 0 1178
-12.841 -0.12999 1.8048 0 699
-12.824 6.8993 0.67909 1 3537
-12.817 5.2174 1.9448 0 2745
-12.767 0.79431 0.59655 2 1037
-12.761 0.20046 1.7937 0 821
-12.75 -0.2782 0.29608 1 644
-12.679 -0.82878 2.0875 2 447
-12.656 2.7734 0.906 1 1727
-12.649 2.9248 1.8246 0 1792
-12.604 5.6936 0.3211 1 3008
-12.583 3.7298 1.5348 1 2116
-12.563 1.0373 1.4742 0 1135
-12.5 -1.2564 1.7656 0 296
-12.468 -1.6171 0.5863 1 179
-12.453 -8.3492 1.3988 1 19722
-12.453 0.99101 0.58257 1 1120
-12.451 0.84445 0.87265 1 1067
-12.446 2.7274 2.4007 0 1732
-12.383 1.2382 0.28893 1 1212
-12.382 -1.6433 0.29 1 166
-12.353 7.4607 1.3464 0 3952
-12.348 3.0466 0.5931 1 1865
-12.322 2.9241 0 1 1819
-12.313 0.015041 2.32 0 753
-12.298 1.8116 0.2886 1 1421
-12.296 -0.23396 0.57354 1 658
-12.279 1.8088 0.86791 1 1423
-12.277 0.83265 1.7294 0 1070
-12.252 7.3472 0.33168 1 3923
-12.235 3.0913 0.88242 1 1900
-12.226 -2.0569 1.4498 0 55
-12.206 5.5548 -0.31135 0 3027
-12.201 4.5568 0 0 2541
-12.167 -0.019115 0.28248 1 735
-12.121 3.4001 0.29227 2 2034
-12.093 7.3035 1.9854 0 3955
-12.078 3.9268 -0.29487 2 2259
-12.075 3.9256 2.3922 1 2271
-12.033 -8.7942 1.743 0 19616
-12.032 5.775 0 0 3174
-12.017 4.6492 1.8109 0 2622
-12.014 6.8331 0.64453 1 3730
-11.999 -0.29955 1.972 2 637
-11.991 7.5248 1.3207 0 4105
-11.983 8.7384 2.7943 0 4770
-11.96 3.355 2.0408 0 2039
-11.934 -0.12081 1.3957 0 698
-11.929 3.425 -0.57875 0 2063
-11.929 7.2474 -0.32407 0 3968
-11.922 -8.8769 0.3451 1 19588
-11.873 6.1282 -0.93432 1 3390
-11.796 -8.7826 1.372 0 19590
-11.796 2.3357 0.56077 2 1633
-11.781 -1.3902 1.949 1 226
-11.777 2.9058 0.84824 1 1866
-11.775 0.084257 0.27338 0 775
-11.774 8.8469 1.7223 0 4904
-11.763 6.244 -0.62105 0 3483
-11.751 5.4323 0 0 3071
-11.736 -1.9386 0.27616 0 62
-11.723 7.8387 2.6569 0 4384
-11.718 4.7702 0 0 2736
-11.708 2.7072 2.264 0 1795
-11.69 1.0331 1.3724 0 1164
-11.681 5.0718 1.1881 1 2904
-11.661 2.66 1.3987 0 1775
-11.658 2.3083 0 0 1632
-11.656 4.5493 1.4633 2 2641
-11.648 2.6935 1.9643 1 1793
-11.637 -8.2489 -0.66521 0 19653
-11.624 4.9293 1.4765 1 2843
-11.612 2.4766 0.83024 0 1699
-11.58 -8.8277 1.7028 0 19554
-11.559 5.2216 2.0839 0 3018
-11.555 4.8215 2.057 0 2804
-11.535 8.2069 2.6673 0 4658
-11.505 -9.201 0.68701 1 19481
-11.503 5.8966 -0.9039 1 3368
-11.48 -8.4916 0.99849 1 19599
-11.421 6.8978 -0.30977 1 3944
-11.319 -9.1558 -0.338 0 19464
-11.277 -9.4521 1.3728 0 19417
-11.253 6.7961 -0.61304 2 3942
-11.237 -7.677 -0.63465 0 19694
-11.198 -9.897 2.8158 1 19333
-11.184 -0.89392 1.0467 1 384
-11.183 -1.8814 0 0 52
-11.128 6.806 -0.30285 2 3992
-11.077 -0.88537 0 0 380
-11.074 -1.078 1.3011 0 308
-11.054 0.49423 -0.2569 1 951
-11.05 0.78433 0 0 1079
-11.019 7.5559 0.31019 1 4482
-11.018 -0.62567 1.0296 0 487
-10.982 -9.9302 0.34375 1 19287
-10.95 4.4217 1.1017 0 2722
-10.949 -8.502 0.32184 1 19523
-10.874 -7.8052 -0.93599 0 19635
-10.836 3.5899 1.8754 2 2303
-10.822 4.5892 -0.27291 0 2834
-10.809 3.0321 0 0 2033
-10.774 -10.033 -0.68655 0 19240
-10.733 3.6622 -1.3262 2 2346
-10.714 1.1355 0.75337 1 1238
-10.711 -0.8242 -0.24942 2 391
-10.667 3.6731 0 0 2371
-10.659 -9.9257 1.7032 0 19244
-10.524 2.7905 0 0 1957
-10.495 -9.4893 -0.65981 0 19285
-10.461 1.569 -0.7397 1 1431
-10.415 2.7947 -0.75407 0 1970
-10.384 -1.8104 0.73705 0 36
-10.382 -10.609 2.0862 0 19142
-10.325 -10.551 2.7814 0 19144
-10.321 3.724 -1.0237 0 2461
-10.319 -10.244 0.67807 1 19169
-10.217 3.1567 -1.2505 1 2172
-10.195 1.6512 -1.2077 1 1485
-10.136 -9.5486 1.2992 1 19227
-10.112 6.0232 0 0 3900
-10.067 -10.342 2.3712 0 19134
-10.018 4.3872 -1.0203 2 2914
-9.9119 -10.734 2.0534 0 19057
-9.8884 -11.153 2.0948 0 18988
-9.8223 -1.5962 -0.46406 2 70
-9.8054 4.7422 1.7895 0 3211
-9.8004 2.6572 -1.4271 1 1982
-9.7836 0.07001 1.375 0 779
-9.7366 3.1655 -1.1973 0 2255
-9.6465 6.4504 1.9065 0 4382
-9.6439 1.0221 1.1341 0 1240
-9.6327 -11.314 1.3863 1 18911
-9.6245 9.1589 0 1 6073
-9.6064 -6.397 -0.53822 0 19727
-9.5834 8.4044 -1.1892 1 5636
-9.5454 4.3441 1.723 1 3039
-9.5341 5.7174 -0.2581 0 3919
-9.5311 5.4917 -0.51298 0 3769
-9.5234 0.17787 -1.1139 0 824
-9.5045 0.48148 0.88786 1 984
-9.4908 -1.5678 -0.22333 2 60
-9.4733 4.8561 1.4961 0 3381
-9.4663 4.815 0.49528 1 3354
-9.464 -9.7797 -0.63465 0 19121
-9.4493 -7.737 -0.56953 0 19445
-9.4114 -11.188 2.0548 1 18889
-9.4112 -6.1515 1.8472 0 19757
-9.4067 9.6462 -1.257 2 6453
-9.3353 0.39126 0.21693 1 940
-9.3174 -7.9046 -0.28368 0 19400
-9.2935 3.6271 1.639 1 2645
-9.2885 9.6961 -0.93892 2 6546
-9.2433 -11.591 1.3832 0 18796
-9.1952 8.3993 -1.1619 2 5850
-9.1535 0.38365 -1.0714 2 934
-9.129 10.584 -0.6518 0 7074
-9.1257 4.4135 1.1854 0 3207
-8.951 -11.771 1.3796 0 18719
-8.9197 6.545 2.0844 0 4799
-8.8697 -6.0596 1.7648 2 19699
-8.8482 6.1795 1.2621 0 4572
-8.8137 5.3546 0.48093 1 3973
-8.7592 -12.158 1.398 0 18641
-8.7553 -1.0859 0.41142 1 199
-8.6717 2.3512 1.0507 1 1992
-8.6621 3.975 -0.88916 1 3045
-8.3574 4.2235 -1.316 2 3319
-8.2923 -0.4941 0.38739 0 470
-8.2486 -0.061908 1.5542 0 715
-8.2443 -5.9176 1.4262 0 19640
-8.2442 5.0086 0.67455 2 3975
-8.2424 -5.9863 0.47506 1 19622
-8.2386 3.8645 -1.0642 2 3104
-8.1699 8.5284 2.2252 0 6565
-8.1531 1.6395 -1.1688 2 1641
-8.1008 -6.4784 0.72533 1 19482
-8.0427 -0.43276 0.56321 0 499
-8.0272 -0.59371 0.94129 0 410
-8.0268 -7.2579 0.75672 0 19289
-7.9112 -0.19749 0.73831 2 634
-7.8782 -11.352 1.2892 0 18594
-7.827 8.0262 2.1122 0 6476
-7.8071 4.0295 -1.2347 2 3387
-7.7893 -6.529 1.6698 1 19418
-7.7891 6.4781 -1.1847 1 5367
-7.7546 -0.59669 0.3627 0 394
-7.7119 3.1393 1.368 2 2746
-7.6676 -12.371 1.7021 0 18470
-7.5926 8.3999 1.3241 1 6852
-7.5807 -0.78205 0.71099 1 281
-7.5297 -12.808 1.039 1 18429
-7.4715 -5.07 1.269 2 19706
-7.4533 -6.6266 -0.46509 0 19315
-7.2588 4.2383 0.78419 2 3829
-7.2523 0.30396 -1.0201 0 933
-7.2518 -6.4091 1.1318 1 19330
-7.2079 -12.668 1.3598 0 18402
-7.1981 7.4253 1.2094 1 6501
-7.1946 9.4992 1.1117 0 7662
-7.1152 7.1301 1.4157 0 6353
-7.0982 0.87783 0.33354 0 1319
-7.0693 -4.9481 0.60339 0 19668
-7.0572 -6.46 -0.22213 0 19267
-7.017 -11.628 0.94966 1 18449
-6.962 2.5312 0.69112 2 2489
-6.9417 -7.8738 1.4752 1 18977
-6.9073 7.868 1.9726 0 7005
-6.9011 -7.2165 -0.46565 0 19106
-6.867 2.8655 1.0457 0 2802
-6.8645 -6.8526 0.45233 0 19161
-6.7944 -6.7447 1.5729 2 19173
-6.7857 6.4191 1.5346 0 6056
-6.7561 -7.2273 1.6254 1 19077
-6.731 -7.1603 0.91684 0 19084
-6.6764 7.8754 1.451 0 7168
-6.5759 -6.1235 1.4763 1 19245
-6.5308 1.7121 1.1092 0 1947
-6.3504 -0.69436 0.59599 0 258
-6.3425 -0.58167 0.29702 0 331
-6.2359 0.18835 0.43626 0 884
-6.2328 4.0647 1.402 2 4275
-6.1634 -13.537 0.34533 1 18198
-6.0908 9.2688 0.77555 0 8248
-5.9177 -6.7932 1.4802 1 18956
-5.7576 -7.0494 1.7149 0 18838
-5.7378 -6.4718 1.0114 0 18987
-5.7291 1.6071 -0.97759 1 2026
-5.6953 -1.0772 0.9523 0 10
-5.5257 -5.8474 0.94082 0 19094
-5.487 0.27796 0.25621 0 982
-5.4845 6.6226 1.4127 0 7274
-5.4256 1.0586 0.9082 1 1629
-5.3411 -12.793 1.6212 0 18132
-5.3327 7.0002 1.4458 2 7640
-5.217 -12.809 0.64499 1 18111
-5.2122 -13.815 0 0 18075
-5.2053 -13.56 1.3551 1 18083
-5.0632 -5.8122 1.0833 0 18955
-4.9632 -4.8688 0.81305 1 19184
-4.6357 3.6782 0.69203 0 5162
-4.6036 -14.143 1.0401 2 18026
-4.5368 -13.05 0 0 18041
-4.4344 -4.6925 0.1499 0 19091
-4.4147 9.5282 1.9785 0 9109
-4.0635 -6.8629 1.5027 0 18439
-4.025 -12.742 2.1954 0 18021
-3.9527 -13.465 1.3092 0 18017
-3.7866 7.1698 1.1395 0 8856
-2.9865 -4.5812 0.89847 0 18525
-2.9419 6.2095 0.80353 0 9066
-2.7548 5.6858 0 0 9019
-2.7394 -4.9136 0.65788 0 18393
-2.7287 8.2848 1.02 0 9562
-2.5692 5.3815 0.69737 0 9053
-2.5236 4.5191 0 0 8726
-2.5065 -8.36 -0.20263 0 18019
-2.4814 7.0582 1.2292 0 9472
-2.3445 5.1781 -0.39747 0 9137
-1.9273 5.5313 0.96235 0 9483
-1.9265 -5.3893 0.9403 0 18057
-1.6682 -7.9298 1.3313 0 17978
-1.5703 5.3946 -0.13044 0 9661
-1.5155 -8.5423 1.4254 0 17973
-1.468 4.9368 -1.4769 0 9647
-1.2677 8.5536 1.0112 0 9847
-1.247 5.367 0 0 9770
-0.8488 -7.193 1.19 0 17959
-0.83782 -5.2542 0.12353 0 17969
-0.8321 -5.4252 0.3838 0 17967
-0.79233 -5.8295 0.96656 0 17963
-0.70974 6.6412 -0.62312 0 9851
-0.6971 5.1155 0.84821 0 9848
-0.56377 7.2605 1.1964 0 9853
-0.46195 -5.5593 -0.12952 0 17945
-0.31314 -6.139 0.42984 0 17935
0.34814 6.9687 0.98061 0 9871
0.40136 5.7112 0.94062 0 9873
0.40189 9.0595 1.4899 0 9870
0.46758 -6.8942 0 0 17881
0.49813 5.8585 -0.41114 0 9878
0.54481 -5.6272 0.66113 0 17875
0.5511 -6.0555 0.71107 0 17876
0.55279 -6.4746 0.45439 0 17877
0.76603 6.9055 0.6482 0 9893
0.79379 -6.1539 0.43389 0 17872
0.81529 -5.9134 0.69807 0 17871
0.91269 -9.1602 1.2938 0 17874
0.94408 5.1038 0.24205 0 9918
1.1565 -6.896 1.1488 0 17867
1.509 7.5452 0.71787 0 9925
1.5416 5.3904 -0.13017 0 10020
1.7491 8.476 0.4036 0 9928
1.7636 -11.565 1.9221 0 17869
2.0107 -6.2665 0.76961 0 17860
2.1174 5.302 0.53264 0 10141
2.125 -10.145 1.2121 0 17865
2.1936 -7.6601 0 0 17862
2.281 -11.374 1.9059 0 17866
2.2917 -7.2816 1.2542 0 17861
2.4658 -4.9651 0.91079 1 17839
2.7064 -5.7801 -0.59544 0 17849
2.7088 -7.8093 0.19191 1 17858
2.7431 -6.0839 -0.46667 0 17854
2.8159 9.1419 1.5716 0 10042
2.8612 4.3707 0.85827 0 10701
2.8637 -8.3356 1.4481 0 17859
2.9435 4.1712 0.59701 0 10846
3.4212 -5.4963 1.2198 0 17763
3.4784 6.1331 0.49304 0 10457
3.6094 3.8262 0 0 11518
3.7971 5.9488 1.1595 0 10657
3.8379 -6.8587 0.36652 0 17809
3.8635 -3.4617 0.48397 1 17309
3.9222 4.0644 0.92798 0 11575
4.0178 4.283 -0.54788 0 11502
4.1448 6.1704 1.4005 0 10746
4.1972 5.3376 0.15765 0 11098
4.206 4.0433 0.68227 0 11748
4.3136 5.6521 -0.16508 0 11028
4.4032 -2.4327 0.82649 0 16752
4.4888 -4.9262 -0.77937 1 17363
4.5185 -7.0302 0.97729 0 17734
4.7266 -4.2083 0.44254 0 17307
4.767 6.7552 -0.57814 0 10838
4.7961 2.0151 0.8547 0 13585
4.8253 -2.3462 0.62745 0 16516
4.8448 4.3151 0.60528 0 11903
4.8556 4.3521 1.0713 0 11892
4.9421 -1.8783 0.49326 0 16230
4.9539 -4.3124 1.0791 1 17305
5.1137 -5.4532 1.2282 0 17342
5.2455 4.5905 0.81515 0 11939
5.5049 3.5178 -0.30466 0 12667
5.5345 -3.0389 -0.88737 0 16730
5.5531 1.3014 0.93706 0 14278
5.6219 -5.3368 0.36149 0 17311
5.8279 -4.5894 0.17222 0 17268
5.9905 3.7549 0 0 12714
6.3267 0.52348 1.1961 0 14921
6.3614 -5.569 1.389 0 17306
6.4231 -4.9949 0.75911 0 17260
6.5405 2.422 1.1459 0 13759
6.5798 9.7403 1.9312 1 10757
6.635 -2.1751 1.1472 0 16126
6.6662 -2.7803 0.84465 0 16304
6.9053 5.664 1.0444 0 12071
6.918 10.973 1.2102 0 10632
6.9438 5.3726 1.6541 1 12223
6.994 9.0557 0.80011 0 11056
7.0522 -9.4613 2.2233 0 17546
7.0792 10.032 0.85856 1 10843
7.1022 -2.7448 0.89041 0 16244
7.1576 6.3014 1.7967 0 11929
7.2975 9.9125 2.0223 2 10956
7.3142 6.5927 1.1515 0 11878
7.33 9.6045 1.985 0 11038
7.3443 8.9062 0.80722 0 11198
7.3695 7.4549 1.2259 0 11631
7.4245 -5.3057 1.7193 0 17162
7.4657 1.8172 -0.35832 0 14233
7.5437 8.0417 1.8115 0 11513
7.5513 5.5004 1.313 2 12380
7.6324 5.0633 1.5048 0 12596
7.6359 4.7863 0.63018 0 12719
7.6872 4.9769 1.0709 1 12646
7.8829 0.69938 1.3002 2 14888
7.9452 2.6569 1.1774 0 13896
7.9777 5.098 1.1071 0 12676
8.0858 6.0336 1.4179 0 12318
8.2163 6.0931 0.71528 0 12330
8.2435 11.472 2.3209 0 10904
8.3429 2.6577 0.81689 0 13956
8.3838 8.5374 1.9659 0 11618
8.4018 9.2238 2.0499 2 11448
8.4559 8.6108 0.84391 1 11611
8.4583 7.0672 1.0283 0 12031
8.4792 9.2502 1.4674 0 11461
8.4815 8.3873 1.1128 0 11686
8.5349 6.7987 1.7927 1 12144
8.5683 6.0869 0.73495 0 12433
8.5701 5.9033 1.7097 2 12509
8.5737 7.5481 1.8767 0 11928
8.5899 -5.6296 1.6874 0 17033
8.6017 8.359 1.4026 0 11725
8.607 5.7859 0.96756 1 12565
8.7006 -9.5485 0.60242 1 17365
8.7327 1.912 -0.20755 0 14334
8.7505 8.7048 2.3255 0 11677
8.7744 -5.6764 0.73077 1 17019
8.8423 7.2968 1.0696 1 12057
8.855 -5.6914 1.231 0 17012
8.8646 10.557 2.2648 1 11240
8.9011 5.6532 0.49173 1 12687
8.9557 -3.4611 1.5774 0 16246
8.9773 6.8216 1.0519 1 12269
9.0029 6.5578 1.3025 1 12379
9.0034 6.5582 1.83 2 12381
9.01 7.7965 0.83317 0 11959
9.0285 -11.011 0.9957 1 17454
9.0348 -6.4207 1.0341 1 17151
9.0687 5.503 1.2405 1 12783
9.0718 -7.1825 1.901 0 17272
9.2191 -2.3551 1.1127 0 15998
9.3089 8.0069 1.1455 1 11973
9.3437 10.932 2.3627 0 11274
9.3735 5.183 1.2526 0 13047
9.3764 11.306 1.3703 0 11214
9.3987 -9.2425 0.92176 1 17315
9.4243 10.716 1.6689 0 11337
9.4815 7.4666 0.84391 1 12172
9.4827 8.3483 1.4774 0 11927
9.4829 8.5475 1.1911 0 11876
9.4993 9.8919 1.2795 0 11558
9.5 -6.8718 1.9263 0 17179
9.5856 9.7612 1.5999 0 11615
9.5987 6.7812 1.9309 1 12452
9.6717 -5.2382 0.76913 1 16713
9.6896 11.337 1.0429 1 11266
9.7036 -6.56 1.9244 0 17075
9.7495 -4.7783 0.75923 0 16527
9.7719 5.3633 0.2588 0 13059
9.779 -4.9676 1.0233 2 16590
9.8302 8.5062 1.2128 1 11961
9.8531 5.0442 1.5557 0 13230
9.906 9.965 1.3109 1 11643
9.9849 -9.3666 0.95734 1 17310
10.071 -10.368 0.33558 1 17325
10.106 10.524 2.3971 0 11563
10.151 9.3118 2.2632 1 11840
10.288 -10.411 1.3655 0 17320
10.336 10.644 2.7954 0 11589
10.347 6.5286 0.57055 1 12703
10.369 -2.3653 1.7473 0 15949
10.424 -10.126 1.3559 0 17313
10.522 9.5948 1.3285 0 11850
10.924 5.7109 0.57484 1 13172
10.959 -3.244 1.8777 0 16072
11.086 6.042 1.4765 0 13082
11.933 -1.2269 -1.4029 0 15747
11.963 4.0005 0.58826 1 13894
2.2242 4.6112 -1.7299 0 10272
4.6317 -2.8483 -1.6967 0 16950
