VERSION .7
FIELDS x y z intensity index
SIZE 8 8 8 8 8
TYPE F F F F F
COUNT 1 1 1 1 1
WIDTH 629
HEIGHT 1
VIEWPOINT 0 0 0 1 0 0 0
POINTS 629
DATA ascii
-4.9614 0.41924 -0.69976 0 1151
-4.6865 0.1219 0.54823 0 904
-4.5731 -0.73576 0.43213 0 87
-4.1476 2.3879 -0.78628 0 3853
-4.0568 -2.8787 0.46409 0 20973
-4.0434 -0.22323 -0.18885 1 515
-3.7945 2.9391 0.78855 0 5155
-3.6854 0.65847 0.61509 2 1597
-3.6289 1.8435 0.37974 1 3429
-3.5885 1.6316 0 0 3092
-3.5787 -2.5236 0.61542 0 20980
-3.3757 -2.5613 0.19761 0 20924
-3.3344 -2.8158 0.51037 0 20802
-2.5938 -3.8629 -0.21699 0 20044
-2.5735 -2.1617 0.47235 1 20813
-2.3844 2.2548 0.46122 1 6151
-2.0999 3.4308 0.56532 2 8686
-1.7877 2.9403 0.079892 0 8704
-1.5907 3.941 -1.436 0 9946
-1.5794 -4.0613 0.71592 0 19540
-1.4211 2.8729 0.074414 0 9374
-1.3839 4.0957 -0.40334 1 10280
-1.1563 -3.5399 0.17366 0 19456
-0.81641 -3.9114 -0.18633 1 19402
-0.48205 3.732 -0.087365 0 11007
-0.44483 -4.2537 0.50014 1 19389
-0.33884 -4.0267 0.093818 0 19382
-0.25705 -3.7038 0.43417 0 19376
-0.17985 3.0634 -0.28629 0 11055
-0.17717 3.757 -1.1736 1 11057
-0.17195 -3.1344 0.44118 0 19375
-0.12392 4.1268 -1.3951 0 11062
0.10546 3.7289 0.70284 0 11069
0.13622 3.4214 0.56256 2 11070
0.17376 3.7828 0.2648 0 11071
0.24437 -3.2349 0.22685 0 19311
0.27848 4.8741 0.68612 0 11072
0.39643 -3.0153 0.49966 0 19305
0.49941 -3.4872 0.57877 2 19303
0.52595 3.771 -0.35522 0 11082
0.76335 -3.9381 0.75579 2 19300
0.80325 -3.7887 0.089919 0 19295
0.81772 4.3779 -0.83911 1 11112
0.90862 -4.9072 0.11587 0 19301
0.97709 -2.9841 0 0 19293
1.0148 3.5602 0.17264 0 11153
1.0532 4.6544 0.78401 0 11134
1.1974 4.3413 -0.95723 0 11148
1.3504 -2.862 -0.14758 1 19283
1.4195 4.0286 -0.19919 1 11198
1.543 -4.1757 0.52059 1 19291
1.6601 -3.4914 0 0 19282
1.6621 3.5035 0.73061 0 11325
1.6719 -4.4105 0.77494 1 19290
1.7554 3.7003 -0.19099 1 11323
1.8061 -3.7697 0 0 19281
1.8198 2.8174 0 0 11614
2.0475 -3.6816 0.59204 0 19263
2.0996 4.2056 0.32869 0 11359
2.1224 3.6969 0.70036 0 11496
2.1549 -4.1273 0 0 19270
2.3266 2.6916 0.41605 0 11990
2.3927 -4.0523 0.55032 0 19246
2.4015 2.431 -0.31881 0 12232
2.4993 4.322 0.11591 0 11500
2.5281 3.3536 -0.29367 1 11804
2.5322 2.491 0 1 12288
2.5429 -2.8884 0.72506 2 18819
2.742 1.9008 0.15559 0 12981
2.7955 2.267 -0.25168 0 12681
2.8159 3.646 0.32214 0 11832
2.8228 1.3933 -0.82408 0 13631
2.9534 1.1897 0 0 14084
2.9614 -1.8526 0.57391 0 18082
2.9927 0.51854 0.49901 1 15421
3.0007 0.31538 -0.07005 0 15751
3.0341 -0.93282 0.29614 0 17191
3.0525 -3.6326 -0.22127 1 18862
3.0695 3.0195 0.60512 0 12297
3.0744 2.5226 -0.46507 0 12657
3.1142 -1.9978 0.34519 1 18127
3.1781 0.0016634 0.59878 2 16269
3.2892 -1.3881 0.58655 2 17489
3.4825 2.7414 0.83504 0 12751
3.5246 -0.64943 0.58882 0 16879
3.5732 1.92 -0.37844 0 13473
3.5753 -2.2073 -0.392 1 18053
3.6251 2.0569 0 2 13378
3.6784 1.6709 0.28251 1 13805
3.7446 1.8875 0.49039 0 13590
3.9567 1.5538 -0.098692 1 14142
3.9671 2.2821 0.75191 0 13358
3.9837 -0.34572 0.37305 0 16630
4.02 1.6193 -1.3524 0 14088
4.0217 2.2055 -0.53638 0 13438
4.076 0.74293 0.7806 0 15371
4.1432 -2.346 -0.44421 0 17897
4.1869 -1.1164 0.40427 1 17098
4.2134 2.3751 0.22556 0 13394
4.3441 -0.82554 -0.5171 0 16890
4.4538 0.74371 0.74186 0 15455
4.5514 -1.6782 0.56728 1 17344
4.6425 -1.7118 0 0 17338
4.6715 0.069307 0 0 16188
4.8038 -1.148 0.93057 1 17044
4.8296 0.183 -0.56519 0 16076
0.39408 -2.934 0.48636 0 19304
-14.549 -2.5209 1.3776 1 44
-14.392 2.7039 1.024 1 1635
-14.287 3.9085 0.69074 1 2044
-14.251 -2.5052 2.0336 0 36
-14.19 -1.9513 2.013 0 171
-14.051 3.11 1.3427 0 1788
-13.985 4.5817 1.029 1 2331
-13.965 -2.0447 1.6505 0 141
-13.911 0.8484 1.6298 0 1055
-13.857 -2.686 2.319 0 4
-13.749 4.7208 2.3884 1 2426
-13.724 -2.4544 1.3007 0 25
-13.7 5.8974 1.043 1 2940
-13.558 -2.4663 0.96362 1 17
-13.547 5.1432 0.67574 1 2630
-13.4 0.6202 1.8852 0 993
-13.394 1.2873 1.8911 0 1218
-13.379 -2.0353 1.9019 0 120
-13.327 6.3395 0.34264 1 3221
-13.293 3.6365 2.2642 2 2050
-13.213 -2.4036 1.2529 0 18
-13.161 5.2615 0 0 2747
-13.142 5.3392 1.6589 0 2797
-13.126 -1.8051 1.5495 0 170
-13.004 -2.4079 2.4918 0 15
-12.988 3.4339 1.888 0 2001
-12.89 5.9478 0 1 3133
-12.889 -0.93746 1.8162 0 437
-12.808 1.5681 0.60176 1 1337
-12.799 0.37092 2.1037 2 921
-12.796 -0.85441 1.4997 1 463
-12.786 5.283 0.96738 1 2836
-12.777 2.6715 1.5265 0 1730
-12.756 4.2557 0.94032 1 2366
-12.749 7.6361 2.4415 0 4034
-12.732 0.48019 0.2958 1 954
-12.667 2.421 0.29942 1 1647
-12.645 0.80886 2.3874 0 1073
-12.639 6.1973 0.65645 1 3310
-12.637 4.9677 0.31525 1 2708
-12.576 -1.9513 2.3977 0 111
-12.555 5.7532 0 2 3112
-12.549 -0.65548 0.58602 1 534
-12.536 -0.5079 0.2913 1 592
-12.503 3.8918 2.1513 1 2251
-12.495 6.2598 1.3038 0 3385
-12.47 -1.3459 0.5849 1 281
-12.462 2.3817 1.7831 1 1649
-12.421 0.42942 -0.28856 0 940
-12.374 5.2807 0 1 2914
-12.367 4.6116 2.1685 1 2601
-12.36 5.7032 0.31604 2 3135
-12.354 7.2597 2.0138 0 3952
-12.335 8.2484 2.7958 0 4506
-12.331 5.3078 -0.31167 1 2935
-12.307 3.711 1.5032 1 2195
-12.282 2.0861 0.87112 1 1552
-12.282 8.3123 2.0843 0 4558
-12.28 3.5491 1.1925 1 2127
-12.251 0.42354 0.57167 1 942
-12.249 3.8552 1.8048 0 2266
-12.24 4.9354 0.61546 1 2770
-12.222 6.5285 0 0 3591
-12.202 6.3355 1.2827 2 3501
-12.156 0.24614 -0.28229 0 871
-12.124 2.5725 1.4493 1 1744
-12.119 -1.6278 2.009 2 184
-12.099 -1.0543 -0.28196 1 364
-12.097 3.0429 1.753 0 1940
-12.094 4.2732 1.5 0 2482
-12.079 1.4104 0.28234 1 1308
-12.049 5.3519 0 2 3025
-12.015 7.2479 2.3054 1 4058
-11.977 -0.38266 0.83791 1 634
-11.969 2.2487 2.0009 2 1639
-11.964 4.0683 1.179 2 2402
-11.961 2.3922 0 1 1684
-11.953 3.1604 0.86456 2 1998
-11.949 -2.0704 0.56552 1 43
-11.949 -0.24194 0.55732 1 690
-11.912 4.1295 0.88158 1 2439
-11.898 6.8969 1.6082 0 3898
-11.801 -1.7279 0.55621 1 138
-11.739 5.0532 1.1924 2 2942
-11.663 5.1367 0 2 3001
-11.646 -0.33751 0.2705 0 647
-11.629 0.19893 1.3601 0 863
-11.593 2.2807 0.8262 2 1673
-11.562 -0.87542 0.2692 0 419
-11.47 4.5854 0.28679 1 2748
-11.44 9.6848 2.4626 0 5591
-11.402 2.1421 1.0824 1 1636
-11.382 5.1753 1.1665 0 3098
-11.363 6.6775 2.4833 0 3955
-11.338 4.1178 0.56254 1 2535
-11.297 6.3317 2.4399 0 3775
-11.283 -8.5612 -0.9904 2 20922
-11.269 7.2512 1.8833 0 4336
-11.253 2.8684 0.26962 1 1950
-11.252 -0.2632 0.26131 0 674
-11.246 6.6932 1.5304 0 4005
-11.22 -2.1424 1.8767 0 6
-11.171 6.6489 1.8271 0 4007
-11.157 4.9138 1.1374 0 3009
-11.108 2.7285 1.8793 1 1911
-11.099 10.018 2.1012 0 5913
-11.096 -9.8239 -0.34408 0 20740
-11.086 3.8431 0.2724 0 2437
-11.049 1.8133 -0.25996 1 1524
-11.002 2.0013 1.8371 0 1611
-10.983 1.9623 0.25903 0 1591
-10.942 5.4819 0.28415 1 3379
-10.898 5.2612 1.129 0 3270
-10.893 -0.50799 -0.25318 2 560
-10.834 1.2957 -0.25332 2 1321
-10.794 5.0198 2.2429 0 3168
-10.771 5.4312 0.8435 1 3404
-10.716 9.7883 2.0397 0 5973
-10.701 4.1336 1.3415 0 2676
-10.664 0.15635 1.7522 1 853
-10.63 0.55524 2.0056 0 1016
-10.622 -9.7944 -0.33544 0 20682
-10.586 9.2802 1.9785 0 5766
-10.542 4.6101 0 0 2979
-10.52 4.93 0.81238 0 3180
-10.488 3.436 1.8132 2 2337
-10.466 4.5768 1.8767 0 2992
-10.407 3.6079 -0.25574 0 2435
-10.396 5.5111 0 0 3567
-10.357 6.3316 1.706 1 4111
-10.356 -6.9511 0.28958 1 21009
-10.235 2.3573 1.7256 1 1836
-10.233 -8.746 -0.62776 0 20789
-10.111 -6.8278 -0.28326 0 21004
-10.095 3.4663 0.74639 0 2418
-9.9337 -10.344 2.7021 0 20552
-9.9319 2.2583 1.6734 1 1821
-9.7743 4.1711 -0.24673 0 2913
-9.7704 -10.779 -0.33776 0 20465
-9.717 -9.1121 1.8722 0 20662
-9.512 2.8122 1.6296 0 2163
-9.5073 -11.128 -0.33981 0 20386
-9.4973 2.7736 0 1 2141
-9.4829 3.0136 1.3984 1 2283
-9.3764 -8.7437 1.4993 0 20668
-9.3299 -10.725 2.3355 0 20415
-9.2827 4.0266 1.6624 1 2969
-9.2222 -10.174 2.2561 2 20470
-9.1071 -9.9386 1.5764 0 20486
-9.0895 0.79363 0.42549 0 1171
-9.0845 6.7443 1.8589 0 4958
-9.0772 -6.4818 -0.52015 0 20964
-9.0682 1.784 0 0 1671
-9.0324 -6.8139 1.8589 2 20932
-8.9909 2.8296 1.5486 2 2268
-8.9846 -6.6144 0.78016 0 20950
-8.867 -6.728 1.5643 0 20927
-8.8233 -6.2219 1.2626 0 20979
-8.7989 -5.8283 0.98465 0 21015
-8.7804 0.63709 1.2372 0 1106
-8.7671 3.6225 0 1 2832
-8.7591 -8.8575 2.0466 1 20588
-8.7345 2.999 1.08 0 2422
-8.7305 -10.839 0.97324 1 20300
-8.7203 -7.8988 1.3759 0 20711
-8.7142 -9.1796 0.88507 1 20531
-8.6648 4.0294 1.57 1 3166
-8.6331 3.5389 1.3113 0 2820
-8.6081 2.8435 -0.21048 2 2345
-8.5963 -6.5605 2.0374 0 20920
-8.5874 0.19937 -0.19943 0 885
-8.5167 -0.66878 -0.79701 1 400
-8.4446 10.321 2.5125 0 7447
-8.442 -8.6902 1.9905 2 20568
-8.4241 1.9154 1.2141 1 1820
-8.3718 3.6315 1.7193 0 2971
-8.3669 -7.8461 1.8845 0 20663
-8.3276 -6.5133 1.737 2 20896
-8.1846 -8.5737 0.82885 0 20540
-8.1811 8.591 2.2352 0 6679
-8.1314 -8.177 0.80638 2 20591
-8.1257 -6.3897 0.9644 0 20887
-8.1136 1.8687 0 0 1830
-8.0126 9.7408 2.0722 2 7416
-7.9616 6.5049 1.9371 0 5416
-7.9386 9.9374 1.7875 0 7564
-7.9018 -1.2954 -0.37341 0 71
-7.8623 -9.0957 1.9753 0 20407
-7.8434 3.2152 1.5971 0 2824
-7.8124 -10.55 0.6122 1 20167
-7.7669 9.6119 1.4451 0 7502
-7.7507 -8.2623 1.5921 0 20515
-7.7461 3.1753 0.78104 2 2816
-7.7193 8.5371 2.1685 1 6944
-7.7179 1.8472 -0.18425 2 1876
-7.7154 -8.2246 1.0521 2 20513
-7.703 -8.6033 1.0774 0 20450
-7.6657 10.008 0.29269 1 7760
-7.6548 9.6996 2.0301 0 7625
-7.6339 -11.095 1.2565 0 20077
-7.6283 -9.41 1.9902 1 20313
-7.6206 10.25 1.7951 0 7899
-7.5391 5.7683 1.3341 0 5096
-7.487 1.679 1.4457 2 1807
-7.4368 -8.1158 1.547 1 20487
-7.4302 -10.409 2.4096 0 20125
-7.4256 -11.783 2.2882 0 19969
-7.4134 -10.635 1.516 0 20090
-7.4131 9.2796 1.3889 0 7562
-7.3628 12.861 1.0363 1 8921
-7.2685 -0.17002 0.85022 0 678
-7.1931 2.0585 -0.34891 2 2104
-7.1895 -10.383 0.88312 1 20083
-7.189 -11.341 2.5299 0 19979
-7.1607 2.1838 1.4105 0 2218
-7.0668 11.183 2.1734 0 8566
-7.0658 3.0899 0.17905 1 2981
-6.998 11.739 2.2454 0 8784
-6.9657 -8.6482 2.0922 0 20304
-6.9513 1.222 0.82537 1 1581
-6.9376 3.3732 -1.0842 1 3279
-6.9305 10.29 -0.28805 1 8299
-6.9117 3.1164 -0.35357 1 3069
-6.9095 7.7769 1.96 0 7034
-6.8242 8.1471 1.4936 1 7326
-6.8236 -9.7306 1.9526 2 20099
-6.7543 3.0952 -0.69316 2 3108
-6.7448 11.542 1.8788 0 8854
-6.7221 -8.9108 1.3053 0 20199
-6.7081 -12.417 2.3186 0 19824
-6.6723 2.488 0.66436 2 2596
-6.6408 12.949 2.391 2 9276
-6.64 2.3892 -0.49346 2 2512
-6.5943 10.923 1.4921 2 8732
-6.5632 -11.268 1.8326 0 19897
-6.5256 11.021 0 1 8798
-6.521 11.784 1.2565 0 9033
-6.4893 11.253 1.8257 0 8901
-6.4689 11 0.89232 1 8825
-6.4316 -10.277 1.1311 2 19961
-6.3697 13.469 1.39 0 9527
-6.3283 13.085 1.356 0 9453
-6.3129 -7.3889 1.3658 1 20390
-6.3032 -8.6122 0.4977 1 20150
-6.2116 -6.8963 0.64901 0 20458
-6.211 -7.5749 1.8456 0 20331
-6.1858 -10.275 0.55928 1 19928
-6.1731 -7.9412 0.93839 0 20249
-6.1525 -1.0815 0.5828 1 34
-6.0893 -10.521 1.7085 0 19889
-6.0681 -13.278 2.7506 0 19640
-6.0301 -9.4507 0.78392 0 19983
-6.0145 -10.824 0.57745 1 19848
-5.9887 -6.056 0.7946 1 20586
-5.9429 -6.5979 1.673 2 20463
-5.9262 0.79599 -0.41812 0 1388
-5.9215 2.4057 1.2042 0 2803
-5.8932 -11.292 1.4895 0 19788
-5.7338 -10.912 0.28619 1 19793
-5.6841 8.8744 1.7314 0 8516
-5.6615 -12.292 1.2626 1 19643
-5.6387 -11.202 1.7625 0 19743
-5.6258 -6.7379 1.2336 1 20356
-5.6104 -9.8282 1.5905 0 19878
-5.4172 -10.837 1.1303 0 19733
-5.3648 -8.6795 0.95196 1 19951
-5.3143 11.072 2.0178 1 9483
-5.3035 0.98006 -0.6307 0 1614
-5.2938 -3.4642 0.59024 0 21019
-5.2513 10.096 0.79578 0 9228
-5.2231 12.024 1.8424 0 9782
-5.18 -7.1638 0.61818 0 20138
-5.1066 9.6855 1.7989 1 9194
-5.0954 9.8679 1.0361 0 9248
-4.9855 -6.7326 0.58581 0 20168
-4.88 -8.9099 1.188 0 19837
-4.8351 -12.544 0.94004 1 19534
-4.7741 -9.4841 0.9906 1 19741
-4.641 -8.4141 1.5787 1 19845
-4.5629 -13.312 2.6514 0 19487
-4.4753 -4.9131 0.46472 0 20476
-4.3459 4.7527 -1.3689 0 6882
-4.3184 -6.9001 1.144 0 19963
-4.266 -14.31 1.7462 0 19432
-4.0505 -4.7408 0.72919 0 20389
-4.0337 6.4227 0.88693 0 8587
-3.6508 8.2657 0 0 9730
-3.618 4.929 -0.71502 0 7931
-3.4722 -4.8931 0.55977 2 20113
-2.5386 -8.345 1.6434 0 19442
-1.6414 -5.0758 0.12385 0 19454
-1.4621 -11.705 1.938 0 19396
-1.1959 -10.562 1.7464 0 19394
-0.78558 5.5685 0.65765 0 10993
-0.74622 -6.258 -0.14632 0 19395
-0.72559 6.3389 0.59525 0 11020
-0.60827 5.056 -0.23748 0 11014
-0.57816 5.3307 0 2 11027
-0.54583 -5.0822 0.83978 0 19391
-0.38514 5.6786 0.93511 0 11052
-0.18221 6.0679 0.70991 0 11063
-0.12823 5.401 0.50403 0 11064
-0.10889 8.665 -0.20119 0 11066
-0.037278 5.7725 -0.67507 0 11067
0.0030679 -5.8601 0.68529 0 19342
0.30421 -5.5101 0.38589 0 19317
0.55973 -7.1121 -0.16563 0 19310
0.66167 9.2082 -0.43052 0 11074
0.73831 6.9085 0.6482 0 11075
0.84212 -7.5914 -0.17733 0 19307
0.92675 -12.268 2.0213 0 19312
0.94149 5.0406 0.47839 0 11111
1.0741 -8.7601 1.45 0 19306
1.3261 -7.9331 0.94059 0 19302
1.3407 5.5545 0.39957 0 11138
1.6204 -6.5184 0.62665 1 19294
1.7938 6.4375 -0.31164 0 11150
1.9678 5.912 0.58132 1 11181
2.0112 4.882 0 0 11254
2.2432 5.7714 0 0 11232
2.2678 -4.917 -0.37864 0 19285
2.834 4.621 -0.37906 0 11564
2.8878 6.5693 0 0 11281
2.8943 10.862 1.8469 0 11143
2.9684 -5.2659 0.99315 0 19261
3.1311 -4.1733 -0.36483 0 19029
3.1653 -4.7713 -0.26702 0 19161
3.2236 4.2255 0.87318 1 11821
3.3277 4.2839 -0.12594 0 11840
3.3494 -5.7457 0.77775 0 19253
3.4264 -4.0317 0.49363 1 18848
3.9313 3.5635 0 1 12442
3.9461 -5.6251 -0.48048 0 19101
4.3423 7.0805 -0.7749 0 11563
4.3465 -2.4953 0.5861 0 17929
4.3707 -5.8595 1.201 0 19042
4.5354 9.209 -0.23833 0 11346
4.6068 4.2749 -0.43947 0 12395
4.7113 -5.1976 0.9859 0 18798
4.7598 2.3991 0.24857 0 13588
4.833 -7.0163 1.3997 0 19125
4.8528 -6.5462 1.3388 0 19051
4.8694 1.5625 -1.4664 0 14571
5.1146 -2.0561 0.64464 0 17433
5.3829 -2.6103 0.13889 0 17668
5.5953 -2.5747 -0.57463 0 17590
5.6884 -0.40975 -0.66694 0 16579
5.7414 1.7696 0.56051 0 14644
5.7768 4.2824 -0.84093 0 12861
5.777 0.75953 -0.5436 0 15618
5.7886 -1.5977 0.70225 2 17121
6.0255 2.2853 0.45063 0 14226
6.063 1.4702 0.87679 0 15010
6.1274 -2.2399 0 1 17330
6.1372 -1.9634 1.0586 2 17219
6.199 -2.0429 0.30438 2 17240
6.3294 8.8181 1.7833 0 11750
6.4304 3.0575 -0.33205 1 13700
6.5445 -2.3471 0.81305 0 17319
6.5571 -7.4901 0.92873 2 18821
6.734 -6.4961 1.5372 2 18687
6.8048 2.0766 -0.4975 0 14652
6.8079 5.4562 1.0203 0 12714
6.8094 1.404 0.81305 0 15231
6.8136 -7.1325 0.68975 0 18756
6.8872 0.9055 0.32394 0 15624
6.9015 5.7993 1.0542 0 12619
6.9793 0.97839 1.1579 0 15584
7.0357 -11.831 1.9345 0 19242
7.0414 1.9263 1.1994 0 14845
7.0598 -10.439 1.4737 0 19141
7.0615 2.6318 -0.17496 0 14262
7.0643 -10.198 1.1574 0 19114
7.0663 3.537 1.2983 1 13605
7.1656 -9.8446 0.85145 1 19064
7.1659 -3.6308 0.93943 0 17727
7.2139 -4.9007 1.4328 0 18221
7.2561 -3.7036 1.5349 0 17741
7.2731 -6.861 0.93282 2 18668
7.3503 1.0108 0.86765 0 15598
7.3523 -10.221 1.7694 0 19082
7.4167 -4.6688 1.2317 0 18094
7.4473 -12.039 1.3207 1 19227
7.4616 -12.063 2.3303 0 19229
7.4941 -7.7957 0.75616 0 18750
7.5137 -12.465 1.3579 0 19236
7.5185 -4.9481 1.0526 0 18167
7.5237 -10.086 1.174 0 19038
7.5699 -12.162 1.0017 1 19221
7.6453 -4.5359 1.6749 1 17996
7.6525 -10.513 1.2132 0 19065
7.6564 -5.984 0.45316 0 18492
7.7181 -12.318 0.67788 1 19214
7.797 -2.9774 1.3712 0 17382
7.8014 2.2562 1.3343 0 14757
7.8297 -5.7958 1.6005 0 18393
7.8789 -0.9158 0.92758 1 16721
7.8835 -12.582 1.0383 1 19215
7.8974 -6.707 1.7023 0 18583
7.9561 8.9991 1.1206 0 12032
7.9713 3.8758 1.0365 0 13661
7.9794 -3.1528 0.1992 0 17409
8.0052 -0.53171 1.5116 1 16568
8.0098 -4.4472 -1.0714 0 17865
8.0152 -3.6629 0.61623 0 17584
8.0251 -7.6556 1.5587 0 18679
8.0296 0.37446 0.5621 0 16036
8.0575 -5.4389 0.2257 0 18205
8.0632 2.7151 0.99495 0 14488
8.1339 -7.3651 2.0674 0 18640
8.1475 3.1161 1.4331 0 14209
8.1485 -6.7171 0.98521 1 18552
8.2235 8.8712 0.84587 1 12140
8.2932 -12.421 1.3934 0 19155
8.3143 4.1327 1.0858 0 13616
8.352 3.1127 1.6793 2 14275
8.4577 -6.7276 1.7755 2 18520
8.4582 -11.481 1.3304 0 19053
8.4703 -6.3852 1.9985 0 18440
8.4821 -1.4865 1.2102 0 16860
8.485 -3.2113 1.7093 1 17375
8.5232 9.1432 1.1662 0 12152
8.5234 -11.637 1.0087 1 19058
8.5309 -9.4116 0.29492 1 18795
8.5553 1.5594 0.81132 0 15366
8.5619 -1.7077 1.021 2 16912
8.5693 -9.2898 2.0764 0 18785
8.5699 -11.278 1.9907 0 19018
8.5708 -4.4067 1.3544 0 17747
8.6211 1.0066 1.426 0 15696
8.6318 -11.028 0.6531 1 18973
8.7392 -5.7166 1.2212 0 18157
8.8894 -7.9565 2.2477 0 18630
8.9057 7.8431 0.82982 0 12523
8.9343 -9.1361 1.1922 0 18734
8.9621 -4.4138 1.6413 0 17693
8.9633 -11.732 2.7817 0 19013
8.9644 0.80952 0.83974 1 15816
8.9958 -11.293 0.33521 1 18951
8.9981 -11.092 1.6702 0 18915
9.0015 -8.9451 0.5918 1 18710
9.0232 -5.8665 2.0278 1 18150
9.0411 2.4429 0.87374 0 14860
9.051 -2.2148 1.7556 2 17056
9.0576 -3.4878 1.135 0 17389
9.0705 -10.181 2.2402 0 18810
9.0997 -9.4197 1.2219 1 18745
9.1426 -9.6242 2.501 0 18764
9.1462 -11.825 2.4561 2 18996
9.1568 -11.628 2.0801 0 18968
9.1695 -8.8456 1.1886 0 18685
9.2437 -10.021 1.5943 0 18783
9.2729 -0.56228 0.43323 0 16538
9.2842 -3.2095 0.91647 1 17285
9.2857 -2.4464 0.67148 0 17090
9.3284 -5.4292 1.7733 1 17955
9.3309 -2.6017 1.3614 0 17128
9.3383 -10.357 2.2911 0 18803
9.3469 -6.3093 1.0521 2 18209
9.3899 -9.3311 1.5481 0 18713
9.4157 -7.1806 1.3847 0 18465
9.4966 -9.2738 0.619 1 18694
9.5135 3.2035 0.93654 1 14487
9.5384 -6.1189 0.79243 0 18126
9.5561 -0.94372 1.1229 2 16666
9.5772 -0.52539 0.44729 0 16512
9.5842 7.3197 1.1251 0 12809
9.5996 -4.6924 0.24808 0 17678
9.6413 -9.7462 1.9267 0 18728
9.6575 -1.6057 0.68459 1 16842
9.678 -4.2847 0.98744 0 17543
9.6833 3.9359 0.97518 0 14068
9.6865 8.3317 0.89344 1 12574
9.6961 -9.6354 2.5755 0 18715
9.7103 -10.101 2.6399 0 18754
9.7112 -9.0022 1.861 0 18655
9.7274 -9.3838 1.5806 1 18686
9.7415 2.9727 0.47496 1 14659
9.7458 -6.2519 1.9023 1 18128
9.7931 4.0765 1.2405 0 14018
9.7977 -4.7174 0.50711 2 17659
9.8171 6.2687 1.9137 0 13150
9.8343 -0.65319 0.68919 2 16559
9.9241 -6.6989 1.9672 1 18211
9.9363 -7.4902 1.4551 0 18437
9.9543 -4.1354 1.0056 0 17468
9.9836 -7.166 1.7271 1 18333
9.9978 -1.4247 1.4193 0 16792
10.052 -6.5356 1.6851 0 18148
10.08 -9.1273 1.9111 0 18638
10.146 -1.4458 1.6838 2 16793
10.167 -9.4746 2.2833 0 18660
10.244 -6.7857 2.3151 1 18180
10.299 8.3522 1.2371 0 12688
10.416 -2.9376 1.2656 0 17134
10.429 -4.6935 1.067 0 17565
10.458 -0.32866 0.24292 0 16418
10.527 -1.2832 0.49453 1 16734
10.539 -4.7764 1.3532 0 17574
10.559 -7.1734 2.4051 0 18223
10.575 -0.48758 1.9945 0 16487
10.587 -6.9676 2.0823 2 18168
10.593 -0.73327 0.9906 2 16572
10.633 0.24871 1.7473 0 16155
10.66 -2.6084 1.5423 0 17054
10.669 -2.6758 0.76913 0 17063
10.698 -6.7343 1.1794 1 18092
10.699 -7.1757 1.5065 0 18199
10.764 -2.1118 2.0667 0 16908
10.796 -4.8588 0.82787 0 17564
10.801 -6.454 1.4714 0 18005
10.887 -1.5824 0.76927 0 16798
10.892 -2.137 0.51764 1 16903
10.899 -5.2476 0.84587 1 17660
10.934 -0.089695 1.0201 0 16304
10.973 -5.0496 1.127 0 17595
11.052 -6.0509 1.7708 0 17847
11.112 -6.3791 0.29747 1 17923
11.184 -0.48046 0.52201 1 16467
11.2 -9.7291 1.3841 0 18602
12.419 -2.3263 2.0758 0 16888
-0.1145 5.4659 -1.9899 0 11065
