VERSION .7
FIELDS x y z intensity index
SIZE 8 8 8 8 8
TYPE F F F F F
COUNT 1 1 1 1 1
WIDTH 554
HEIGHT 1
VIEWPOINT 0 0 0 1 0 0 0
POINTS 554
DATA ascii
-4.2194 1.6928 -0.42414 0 2589
-3.7993 0.84647 -0.27219 0 1680
-3.7404 2.971 0.1109 0 3584
-3.685 1.9726 -0.29228 0 3134
-3.6485 3.1294 -0.67555 0 3622
-3.5986 -2.4374 0.50828 1 14968
-3.4295 2.0056 0.09224 0 3299
-3.297 -2.3596 0.47413 0 14902
-3.2038 3.4659 -0.55195 0 3707
-3.1242 1.7921 0.59174 0 3269
-3.1088 1.134 0.076828 0 2446
-3.1083 2.484 -0.092379 0 3586
-3.0683 3.6644 -1.3705 0 3744
-3.0655 3.6185 -0.33162 2 3734
-3.0216 2.1134 -1.3421 0 3539
-2.9919 2.6573 0.75394 0 3649
-2.9869 2.3027 -0.61962 0 3576
-2.9805 2.2558 0.61411 0 3575
-2.9132 3.0072 -0.097207 0 3695
-2.7142 4.1588 0.58075 0 3849
-2.6463 2.1776 0.31973 0 3602
-2.5855 -3.6707 0.63101 0 13863
-2.3918 3.2382 -1.1544 0 3798
-2.3688 -3.864 0.85392 0 13683
-2.2091 2.5332 -0.078035 0 3725
-1.899 -4.3219 0.77558 0 13457
-1.8918 3.8788 -0.91731 0 4003
-1.8504 2.4011 0.49803 0 3781
-1.7814 -3.9326 -0.20133 0 13472
-1.7675 -3.2731 0.34704 0 13586
-1.5073 4.025 -0.91356 2 4109
-1.1682 4.8435 0.46483 0 4231
-1.1483 -4.8052 0.46093 0 13244
-1.0181 -4.3715 0.41876 0 13238
-0.99547 -2.9597 0.14562 0 13337
-0.86967 -3.015 0.51554 0 13288
-0.79279 4.3886 0.52152 0 4284
-0.68746 3.7383 0.088247 0 4280
-0.676 4.853 -0.68863 0 4304
-0.65058 -4.5541 0.75581 0 13215
-0.62767 4.0781 0.38494 0 4296
-0.58618 3.3552 -1.0628 1 4287
-0.58243 -4.87 -0.11387 0 13208
-0.55451 -4.1339 0.096835 1 13213
-0.51799 -3.2267 0.22852 0 13216
-0.47537 -3.5439 0.41814 0 13214
-0.46582 3.0265 0.57693 0 4297
-0.32765 3.4469 0.4049 0 4318
-0.30835 -3.1168 0.51457 0 13199
-0.28229 4.9257 -1.0487 0 4322
0.31596 4.1633 -1.093 0 4360
0.32928 3.0509 -0.80331 0 4380
0.57422 -4.3912 0.7276 0 13105
0.66921 -3.411 0 0 13095
0.76028 -3.8752 0.64881 0 13096
0.80567 2.947 0.35728 0 4558
1.0559 3.3246 -1.1787 0 4608
1.6072 -2.8605 0.076178 0 13042
1.7997 -2.4509 -0.1418 0 12912
1.8825 3.9081 0.71268 0 4917
1.8985 -2.3774 0.57323 0 12853
1.9416 3.9114 -0.10138 0 4953
1.9719 3.3867 0.090986 0 5197
1.9724 -4.1953 -0.4325 0 13062
1.9982 3.6483 0.48644 1 5106
2.0115 -3.1598 -0.34946 0 13021
2.1205 4.4337 0.22919 0 4906
2.148 -4.2158 0.44142 0 13055
2.3869 -2.6893 0.59077 0 12745
2.4432 -3.1351 0.65302 0 12871
2.5075 -2.6359 -0.16966 0 12706
2.5398 3.5818 -0.61709 0 5568
2.5409 -3.5465 0.10129 0 12933
2.5948 -3.2891 -0.19537 0 12860
2.8484 -1.7122 0.38864 0 11942
2.9647 -1.323 0.53338 1 11495
3.0143 0.025254 -0.78913 0 10425
3.0687 0.15868 -0.50484 0 10297
3.0843 -2.1063 0.26117 0 12143
3.1415 3.6821 -0.33846 1 5953
3.1888 -0.21404 0 0 10596
3.3979 1.6441 0.26396 0 8013
3.5224 0.18214 -0.92335 0 10303
3.7138 -1.8145 0.58091 2 11646
3.733 -3.2393 0.46112 0 12548
3.8918 -0.15903 -0.36339 0 10540
3.9382 -0.6562 0.65594 1 10786
4.1689 2.3404 -1.2516 0 7692
4.21 2.1897 0.66692 0 7850
4.2468 -0.8988 -0.10078 0 10859
4.3573 -2.3688 0.81482 0 11790
4.598 -0.16137 -0.6466 0 10528
4.6376 -1.3088 -0.11188 0 10983
4.6666 0.87165 -0.6672 1 9627
4.68 -0.46301 -0.21931 2 10661
4.7925 0.82436 0.45368 1 9714
-2.1386 1.8118 0.32778 0 3616
-0.93037 -2.5687 0 0 13356
1.6294 1.2771 0.34013 1 6940
-14.916 1.5046 1.7532 0 1114
-14.884 0.2494 2.0921 0 733
-14.849 -1.3043 2.449 1 293
-14.793 1.8426 -1.0424 2 1220
-14.747 -0.82191 -0.34292 0 417
-14.652 2.0801 1.7306 0 1303
-14.616 1.6059 1.0282 1 1155
-14.576 -1.2368 1.0229 1 301
-14.434 -0.47127 0 0 520
-14.43 -1.3056 2.7299 0 285
-14.368 0.11536 2.0194 0 696
-14.294 -1.1727 0 0 311
-14.206 4.6762 0.34723 2 2254
-14.085 1.2149 2.6636 2 1048
-14.079 0.47934 1.3142 2 807
-14.032 1.1709 -1.3137 0 1025
-13.901 0.43199 2.2849 2 795
-13.819 1.6771 -0.97338 0 1208
-13.805 1.842 -1.2994 0 1257
-13.803 -0.048181 0.64369 1 642
-13.799 0.90925 2.272 0 957
-13.786 -0.086621 0.32008 1 630
-13.714 3.2671 0.9858 2 1759
-13.69 0.028673 2.2493 2 671
-13.682 -1.1225 2.5866 0 318
-13.656 1.3414 2.2544 1 1102
-13.613 -0.40166 0.63512 1 534
-13.579 -0.5193 1.5892 0 501
-13.489 4.3959 -0.99208 1 2233
-13.483 5.0063 2.0214 0 2478
-13.461 4.3867 1.6556 1 2241
-13.381 -0.39479 0.31079 2 533
-13.361 4.5251 1.3161 2 2314
-13.168 -0.89076 0.92288 1 373
-13.149 -1.0372 2.4851 0 331
-13.148 2.3373 0 1 1462
-13.086 0.82561 2.1543 0 945
-13.04 -1.1798 1.5311 1 282
-13.025 -0.15914 1.8307 0 609
-12.952 -1.4803 0.91158 2 192
-12.938 2.0307 2.1517 1 1373
-12.764 -0.34315 1.7945 1 549
-12.764 2.3449 -1.2108 2 1486
-12.761 -0.23166 2.0969 1 586
-12.749 1.4752 1.5009 0 1186
-12.703 -0.26388 -0.59254 0 569
-12.633 7.0028 2.3731 1 3206
-12.17 -2.1064 0.57596 1 23
-12.119 4.5819 0.906 1 2498
-12.065 4.4798 1.2007 2 2474
-12.009 5.5617 1.2347 2 2861
-11.74 4.3966 -0.29106 0 2484
-11.573 1.8869 1.3713 2 1399
-11.572 3.6597 0.56599 1 2182
-11.542 4.0599 2.3051 2 2394
-11.527 3.0283 0 0 1885
-11.495 3.7839 0 2 2253
-11.469 3.0475 1.6679 2 1908
-11.119 0.73271 1.0396 1 955
-11.082 -0.45674 1.0348 2 487
-11.047 6.2041 1.7806 0 3229
-10.975 3.6785 1.9017 2 2301
-10.974 -7.3827 -0.30708 0 14973
-10.965 3.6412 1.0779 1 2275
-10.91 1.6461 2.0789 1 1348
-10.892 4.9683 1.9668 1 2838
-10.857 -1.7507 0.769 0 50
-10.854 -1.4945 1.0222 2 116
-10.821 -1.2023 1.2732 1 206
-10.806 5.3103 0.84196 1 2969
-10.752 2.1719 1.2828 1 1579
-10.725 6.3984 2.0518 1 3339
-10.521 -0.8299 1.2342 0 328
-10.334 -9.4332 -0.32486 0 14536
-10.273 4.7946 2.1359 2 2883
-10.203 -0.6294 1.1954 0 399
-10.121 5.0858 2.1341 2 3023
-9.7555 -8.5043 -0.60353 0 14608
-9.4806 -7.9298 1.4454 0 14675
-9.0698 9.0951 -0.29821 0 3685
-8.8815 7.8882 1.9516 0 3648
-8.8128 -8.2354 1.4105 0 14506
-8.7794 -8.4486 1.7124 0 14472
-8.7357 -7.8381 1.6495 0 14568
-8.6815 -10.054 0.92888 1 14189
-8.2623 -8.4224 2.2229 0 14409
-8.2418 -5.8984 -0.47264 0 14898
-8.0178 -6.2845 0.23652 0 14764
-7.9159 -8.5006 1.0837 0 14320
-7.8821 -6.8712 -0.97555 0 14606
-7.8129 -6.654 1.6861 0 14652
-7.7109 -8.9837 0.55211 1 14177
-7.6575 -12.326 1.697 0 13692
-7.654 -5.5814 0.66241 0 14873
-7.6388 -7.8305 1.7973 0 14400
-7.612 -8.8155 2.1944 1 14194
-7.6108 -6.9887 0.72254 0 14530
-7.5766 5.6003 1.5479 0 3574
-7.5719 -10.483 1.2065 0 13898
-7.5713 -7.3705 1.736 0 14462
-7.4852 -7.0364 1.9356 0 14500
-7.4754 -6.0686 1.8141 2 14723
-7.4655 -7.7443 2.0267 0 14382
-7.4653 -10.598 1.516 0 13862
-7.3313 -0.11133 -0.51271 0 590
-7.3193 9.4462 0 0 3778
-7.2586 -10.116 2.3459 2 13891
-7.2546 7.3643 1.6984 0 3690
-7.1867 -10.083 2.0343 1 13882
-7.1157 8.3995 1.8086 0 3737
-7.105 -11.811 0.64276 1 13663
-7.08 -10.051 0.28545 2 13860
-7.0769 -5.8858 1.5123 1 14685
-7.0622 -0.49756 -0.82792 0 354
-7.0002 -11.491 0.94088 1 13674
-6.9713 0.72533 0.49011 0 1127
-6.9679 -10.207 2.3285 2 13821
-6.9646 -10.591 1.7814 0 13768
-6.8375 -9.6498 1.1034 0 13871
-6.8366 -13.212 1.0402 1 13564
-6.747 -12.329 1.6435 0 13599
-6.7118 -9.6498 1.652 1 13848
-6.6988 -9.8718 2.2477 2 13811
-6.6414 -12.136 0.96738 1 13597
-6.5652 -10.568 2.044 0 13694
-6.4492 4.5663 1.2983 0 3552
-6.35 3.1909 -0.49695 0 3008
-6.3309 5.8216 -0.8024 0 3665
-6.224 5.9957 1.4199 0 3675
-6.0226 -6.6234 0.62599 0 14280
-5.9003 10.441 1.9704 0 3924
-5.835 -5.6485 1.3343 1 14466
-5.8256 -11.834 1.5425 0 13531
-5.7613 4.4931 0.8544 0 3580
-5.7362 6.0977 -0.19437 0 3703
-5.7092 4.9507 1.2415 0 3634
-5.699 -12.477 1.604 0 13482
-5.6295 -0.035372 0.65834 0 633
-5.5729 4.3462 0.65935 0 3579
-5.5325 -6.3376 0.9838 0 14213
-5.5251 -13.092 0.6627 1 13430
-5.522 4.4892 1.1692 0 3598
-5.4445 6.9412 1.4494 0 3773
-5.3715 5.9447 0 0 3717
-5.3708 6.604 1.6038 0 3754
-5.3554 5.3704 1.2461 0 3686
-5.3317 -13.962 2.4555 1 13378
-5.2515 8.7503 1.6767 0 3894
-5.1687 -13.891 2.7925 0 13370
-5.0905 -14.055 1.7481 0 13359
-5.037 2.367 0.91436 0 2895
-5.0107 4.2209 -0.61123 0 3609
-4.8898 8.2583 1.5768 0 3903
-4.7623 7.4352 -0.205 0 3858
-4.685 -13.416 1.3258 0 13348
-4.4548 6.7406 -1.3274 0 3840
-4.2825 3.5871 0.39064 0 3607
-4.0845 3.5846 1.0239 0 3641
-4.025 -5.2797 1.0907 0 13985
-3.9189 -4.2084 -0.13351 0 14317
-3.6601 3.6703 -0.36245 1 3683
-3.3158 -8.1088 1.4393 0 13413
-3.3037 8.6652 1.5236 0 4105
-3.2521 4.0739 -0.73261 1 3760
-3.0108 4.1516 0.23916 0 3805
-2.9826 -4.369 0.61862 0 13819
-2.9378 4.6149 0.8988 1 3862
-2.933 8.5763 0 0 4134
-2.862 9.6311 1.6507 1 4169
-2.5667 6.0408 -0.92244 0 4067
-2.1448 -4.7656 0 0 13468
-2.0752 -10.899 1.8229 0 13219
-2.0722 8.4812 0.61051 0 4226
-2.0574 -4.9086 1.0028 0 13429
-1.9963 6.7179 0.81956 0 4168
-1.9624 -6.316 0.46249 0 13303
-1.8832 4.7735 -0.7212 0 4093
-1.8738 -5.7979 0.42607 0 13317
-1.7601 6.4649 1.1008 0 4193
-1.4996 -11.421 2.1704 0 13211
-1.3626 -8.3209 0.19576 0 13218
-1.3539 -6.3099 1.0603 0 13224
-1.2808 -7.9788 0.945 0 13217
-1.2454 4.8539 -1.3118 0 4213
-1.1911 6.4768 0.61439 0 4281
-1.1147 -5.5836 0.26553 0 13220
-0.95721 -10.621 0.99487 0 13194
-0.91953 6.0945 -0.86621 0 4298
-0.82288 -8.8368 1.4581 0 13196
-0.64446 6.0304 0.99639 0 4317
-0.55819 9.2588 1.5239 0 4321
-0.5435 -10.371 1.7062 0 13178
-0.5249 -6.6994 1.104 0 13189
-0.4285 -6.384 0.44742 0 13185
-0.40743 -10.013 1.6465 0 13170
-0.25456 6.9093 0 1 4326
-0.13311 5.2226 0.24363 0 4328
-0.12689 -6.213 0.14428 0 13153
-0.093698 -10.737 2.023 0 13145
0.029539 -11.283 1.8537 0 13140
0.067316 5.5097 0.90528 1 4338
0.23423 7.8922 -0.73663 0 4341
0.26964 5.7604 0.67437 0 4348
0.32881 6.2119 1.022 0 4350
0.43107 5.277 0.12292 0 4363
0.44797 -5.346 0.5005 1 13108
0.47056 -8.5778 0.80147 0 13115
0.51177 5.1637 0.72927 0 4377
0.69618 -6.316 0.14753 0 13106
0.81003 6.0149 -0.4244 0 4386
0.88413 -5.5075 0.6523 0 13101
1.0955 7.6399 0 0 4392
1.2515 -4.8674 0.35143 0 13093
1.3825 6.0073 -0.14312 0 4504
1.4355 6.9683 1.1689 0 4466
1.5476 4.9232 -1.0969 0 4604
1.6243 7.6617 0.73069 0 4475
1.9331 7.5896 -0.18183 0 4539
1.9754 -5.3632 0.939 0 13077
2.0239 9.5461 1.8386 0 4477
2.0628 6.0733 1.0538 0 4636
2.1666 7.9251 0.57451 0 4556
2.1765 -4.9581 0.37864 0 13067
2.1942 -5.9126 0.58838 0 13076
2.229 6.091 0 0 4678
2.2895 -6.5671 1.1426 0 13078
2.4554 -5.1432 0.53171 0 13059
2.6144 5.4664 1.1416 0 4910
2.6276 6.6433 0.16586 0 4733
2.9144 -4.4066 0.86799 0 13009
3.083 -4.3285 -0.24782 0 12940
3.1595 11.557 2.2574 0 4559
3.2782 -10.899 1.8699 0 13085
3.5539 5.5401 0 0 5371
3.5812 -6.2888 1.189 0 13041
4.029 7.4608 0.79107 0 5080
4.0381 -3.7341 0.25649 0 12604
4.0386 -4.9114 0.7436 0 12822
4.0676 -8.5203 1.5512 0 13061
4.1069 -6.7071 1.2921 0 13030
4.2473 -7.8815 0.83528 0 13052
4.2925 4.4793 0 0 6211
4.4518 -4.6537 0.75312 0 12702
4.6301 5.0582 -1.292 0 6115
4.8817 -8.1827 1.5654 0 13036
4.9995 -5.1017 -0.66641 0 12680
5.0511 -10.58 1.371 0 13060
5.093 -5.4769 -0.87461 0 12718
5.1208 -0.20925 0.59934 0 10541
5.1885 3.0526 0.56162 0 7602
5.2046 -3.1075 0.56553 0 11930
5.241 5.5616 0.89366 0 6177
5.3218 -2.375 0.27177 0 11491
5.3793 1.4979 -0.653 1 9075
5.4051 -0.45768 -0.50608 0 10633
5.5018 -4.4489 1.3331 0 12436
5.5286 2.2371 -0.55642 1 8381
5.7262 -1.2821 0 0 10880
5.8043 6.4894 1.2236 0 6057
5.8341 3.4999 -0.47574 0 7553
5.8402 7.5211 1.5645 0 5763
5.8778 4.2081 1.362 0 7188
5.9225 6.7391 1.474 0 6021
5.9387 -8.925 1.7613 0 13005
5.9407 7.838 1.853 0 5720
5.9607 -0.088436 -0.69714 1 10477
5.9937 -0.74974 0.14024 0 10711
5.994 11.407 1.2022 0 5042
6.0735 7.5056 1.3569 1 5847
6.0818 6.4178 1.034 0 6190
6.1459 13.542 1.0399 1 4850
6.1597 4.6282 1.2658 0 7049
6.2105 -0.99698 0 0 10770
6.2643 11.513 1.8421 0 5096
6.2679 5.5571 1.5782 1 6591
6.3023 -1.6029 0.30326 0 10934
6.3189 8.1846 1.9482 0 5753
6.3334 0.14373 1.0408 0 10393
6.335 -1.5338 0 0 10911
6.3861 -7.4535 1.1478 0 12773
6.4175 0.59421 -0.30056 0 10121
6.4287 1.0113 -0.60714 0 9789
6.4445 -2.1463 0.63371 0 11132
6.5031 7.1044 1.3536 0 6112
6.5729 0.49307 -0.61494 0 10207
6.5877 8.3805 0.9945 0 5780
6.6042 1.452 -0.79075 0 9439
6.6481 -3.1995 0.68833 2 11619
6.6692 13.055 0.68366 1 5002
6.6705 5.2927 -0.59544 0 6899
6.7207 5.9963 0.8403 1 6572
6.7526 -0.19687 0.47239 0 10516
6.7607 -0.0035399 -0.31528 0 10447
6.8184 1.941 1.3357 0 9057
6.8188 11.641 0.94339 1 5211
6.8336 5.4845 1.0247 0 6878
6.8957 4.5555 1.5571 0 7383
6.9482 -3.5709 0.72883 2 11717
6.9748 3.0588 0.89064 0 8220
6.9949 -5.2634 -1.2303 0 12321
7.0177 -2.5876 0.6978 1 11241
7.0217 -0.87834 0.99453 0 10713
7.0937 2.5399 0.88112 0 8636
7.0987 -1.1396 1.1812 2 10776
7.1014 -4.294 1.3634 0 11952
7.134 4.6542 0.99611 0 7402
7.1574 3.8025 0.75614 0 7802
7.1746 -2.4326 0.35329 0 11157
7.1792 10.632 1.5002 0 5466
7.1867 -7.0871 0.7058 0 12657
7.1938 -7.7822 1.4894 0 12722
7.2191 -2.952 -1.0961 0 11356
7.225 4.2797 1.3796 2 7591
7.3034 12.706 2.4078 0 5179
7.3348 10.668 2.127 0 5508
7.3363 -8.3126 0.77527 0 12749
7.3623 3.4065 0.56726 0 8108
7.3626 3.3058 1.1343 0 8173
7.374 11.416 1.91 0 5383
7.423 -8.0301 1.7966 0 12723
7.4675 -4.4887 0.60925 1 11940
7.4857 5.9694 0.89325 1 6891
7.5241 4.8174 1.2556 0 7440
7.5636 11.419 0.95776 1 5426
7.5857 -1.0837 0.7149 1 10753
7.5991 -3.6018 0.78457 0 11591
7.6014 11.849 1.6463 0 5373
7.6265 -0.66455 1.2577 0 10642
7.6337 7.2593 0.73663 0 6423
7.7046 11.41 2.2619 0 5469
7.7107 1.213 0.364 0 9796
7.7212 4.0451 1.6423 2 7838
7.7226 7.823 1.806 0 6283
7.7252 -0.22523 0.72103 0 10517
7.7401 5.6442 1.8049 2 7134
7.7712 8.3921 1.6074 0 6139
7.778 1.2918 1.1081 0 9751
7.8029 6.1912 0.92929 1 6906
7.8401 -6.6442 0.47925 1 12514
7.8572 11.011 1.262 0 5594
7.8753 8.6035 1.9163 1 6114
7.9049 0.86991 0.5561 0 10042
7.9076 6.1981 1.4121 0 6939
7.9472 0.27197 0.9299 0 10358
8.0151 12.179 2.7469 1 5418
8.0246 7.8117 2.11 1 6378
8.0261 -8.7836 1.1101 0 12727
8.0346 10.724 1.8833 0 5695
8.0358 -7.097 0.24891 0 12563
8.0841 -7.0946 0.75211 0 12559
8.0907 -7.4816 1.5487 0 12607
8.0961 0.74962 0.75856 2 10126
8.1107 -5.5017 1.6102 1 12133
8.115 -2.3392 0.59056 2 11000
8.1602 9.8465 1.7973 0 5897
8.19 2.639 1.4137 0 8838
8.1952 -8.0365 1.8858 2 12655
8.2217 5.7441 1.8897 1 7255
8.2554 -2.0751 1.6038 0 10933
8.2768 1.6945 0.98798 2 9538
8.2877 -6.3525 1.9674 1 12355
8.3452 -7.5909 1.3192 0 12591
8.3736 -1.3442 0.39549 0 10771
8.3825 3.617 1.4999 2 8257
8.3871 -8.7094 2.2781 0 12697
8.4333 -8.3629 1.9513 1 12666
8.4442 -0.10022 1.3874 0 10475
8.4473 -1.1331 0.79516 2 10731
8.4489 -1.5324 0.8011 1 10812
8.4583 7.8133 1.6183 0 6491
8.4599 -2.6788 1.6719 1 11078
8.5071 -8.3892 2.2511 1 12662
8.524 -0.57214 0.59739 0 10597
8.5702 9.307 1.4795 0 6125
8.5771 7.477 1.0616 0 6626
8.5808 -8.8085 2.0203 0 12687
8.5926 -2.3991 0.83231 2 10978
8.6007 -4.388 0.22417 0 11705
8.643 -7.1146 0.78281 0 12463
8.6687 0.44824 0.80983 0 10302
8.6811 -8.4125 0.84531 2 12645
8.6863 11.386 1.0014 1 5725
8.7333 -5.7084 1.4663 0 12065
8.7847 -1.5426 1.6804 1 10804
8.8132 8.0447 1.3954 0 6518
8.8153 -6.4779 2.0611 1 12284
8.8159 -8.2989 1.4159 0 12619
8.8343 3.9038 0.67538 0 8203
8.8799 9.2664 1.1974 0 6215
8.9044 10.875 2.3092 0 5875
8.9492 -7.1083 1.8777 0 12410
8.959 7.8541 1.1115 0 6613
9.0251 -7.0817 1.3415 1 12390
9.0305 3.6816 1.3706 0 8374
9.0323 -6.7595 2.1255 1 12319
9.0348 2.4327 1.5372 0 9136
9.0371 11.435 2.0483 1 5796
9.075 0.15365 1.4912 0 10406
9.0974 -4.2499 0.46826 1 11564
9.1273 -5.1998 0.48987 1 11850
9.1351 9.309 2.4573 0 6271
9.1523 8.8044 2.0865 2 6406
9.1876 -8.4012 1.7497 0 12597
9.1896 3.352 1.3748 2 8599
9.2201 7.2685 1.9289 1 6925
9.231 3.3361 0.22788 0 8611
9.2598 6.8744 1.6208 1 7082
9.2679 -8.2313 1.4496 0 12571
9.2848 4.7268 0.97202 1 7896
9.2859 2.6119 1.8175 0 9073
9.2904 -4.8075 0.97592 0 11727
9.3042 8.5467 1.7756 0 6505
9.3045 -4.2462 0.95419 0 11529
9.3289 8.9743 1.8193 0 6405
9.3808 7.7109 1.9951 0 6801
9.3887 9.0824 2.1462 2 6393
9.4257 -2.9593 0.22937 1 11066
9.4437 -8.1429 0.87196 1 12541
9.4962 6.7586 1.915 2 7206
9.5085 -6.0553 1.8521 0 12024
9.5119 7.5851 2.2922 0 6895
9.5299 -6.0292 1.0521 0 12013
9.548 -6.803 2.2089 0 12231
9.5523 7.0916 1.3913 0 7081
9.5557 -1.6781 1.594 0 10803
9.6132 1.7106 1.8397 0 9688
9.6727 -8.1972 2.3888 0 12518
9.7051 -4.9152 1.0149 0 11697
9.8004 -7.0735 0.84517 1 12247
9.8419 4.419 1.2616 0 8172
9.8719 7.026 1.7029 1 7205
9.8902 6.9561 1.1281 0 7235
9.9005 -7.0542 1.7085 0 12229
9.9172 -3.3317 1.9711 2 11151
9.9174 6.7601 1.4036 0 7313
9.9368 3.0797 1.2166 1 8908
9.95 -3.3737 1.2286 0 11159
9.9596 -3.7039 0.74305 0 11251
9.9842 -1.8433 0.47347 1 10816
10.016 -7.769 1.4823 0 12367
10.026 6.5412 1.9668 1 7403
10.133 -7.5832 2.0794 1 12317
10.134 -7.4472 1.7675 0 12281
10.18 1.4162 1.6886 0 9891
10.181 -5.9565 1.3794 1 11898
10.331 6.5689 2.3066 0 7452
10.331 8.4409 1.8749 0 6822
10.335 -7.0579 1.7589 0 12146
10.401 -2.0123 1.9959 1 10837
10.402 -6.9265 1.4614 1 12096
10.472 -2.7278 1.5209 0 10947
10.989 -5.8896 1.7522 0 11772
11.366 -7.0583 0.93557 1 11989
12.842 -0.19053 2.1102 0 10482
6.9907 2.5499 -1.948 1 8598
