VERSION .7
FIELDS x y z intensity index
SIZE 8 8 8 8 8
TYPE F F F F F
COUNT 1 1 1 1 1
WIDTH 553
HEIGHT 1
VIEWPOINT 0 0 0 1 0 0 0
POINTS 553
DATA ascii
-4.2057 2.6382 -1.2997 1 4282
-4.0695 2.7553 0.57471 0 4597
-3.8396 -0.35551 0 0 305
-3.6506 -2.6767 0.1051 0 19617
-3.3926 -3.2071 0.32646 0 19286
-3.3743 2.7579 0 0 5455
-3.3035 1.7285 0.70247 0 3604
-3.2834 -2.3205 0.47018 0 19675
-3.1235 -0.13474 0.29168 0 518
-2.968 0.54099 0.56842 0 1564
-2.9632 0.95251 0.29038 0 2306
-2.8499 1.9778 0.65359 2 4713
-2.734 -2.937 0.56393 0 19141
-2.6559 3.5105 0 0 7687
-2.6292 -3.4092 0.40166 0 18866
-2.4875 2.2077 -0.23257 0 5840
-2.4718 2.7032 0.60179 1 6913
-2.0686 4.4401 0.80477 0 8811
-1.9776 3.6197 0.67766 0 8497
-1.9709 -4.5283 0.23031 0 18234
-1.8376 -4.2221 0.53847 0 18236
-1.6701 4.2441 0.74932 0 9027
-1.6334 -2.6654 0.5136 1 18568
-1.4836 -2.9967 0.23382 0 18340
-1.314 4.5796 0.33316 0 9305
-1.3091 -4.3579 0.42452 0 18042
-1.1305 3.899 0.66696 1 9301
-0.99824 4.098 -1.1042 1 9358
-0.9713 -2.9249 0 0 18062
-0.82417 4.5851 -0.32576 1 9390
-0.81961 -4.1242 0.097625 0 18006
-0.7629 3.5345 -1.3161 0 9375
-0.666 -3.7541 0.26661 0 17996
-0.64882 4.24 -0.40018 0 9400
-0.54877 4.3439 -1.1462 0 9404
-0.54785 3.8785 -0.36544 0 9402
-0.45883 3.188 -0.52916 0 9401
-0.40982 -3.3816 0.55964 1 17988
-0.17702 3.9748 -0.3712 0 9412
-0.14088 -3.842 0.26884 0 17955
-0.086145 4.0122 -1.356 0 9417
0.066321 -3.5509 0.66914 0 17924
0.10736 4.8051 -0.33609 2 9427
0.20501 4.4973 0 0 9431
0.22686 3.2938 0.464 0 9434
0.22715 -4.4996 0.52686 0 17912
0.41274 -4.1205 0.78023 0 17901
0.49541 -3.5794 0.59369 0 17897
0.86278 3.4864 -0.42 0 9546
0.98191 4.8654 0.81547 0 9518
1.3927 4.7382 0.23031 0 9596
1.3961 3.9315 0.68545 0 9672
1.5594 4.1246 -0.93727 0 9706
1.5972 -2.8672 0.53921 0 17773
1.6638 3.5087 -1.0166 0 9874
2.0016 3.1213 0.17292 0 10289
2.0052 -4.0876 0.74802 0 17834
2.0371 -2.8813 0.57974 0 17659
2.0577 -4.1038 0.32102 0 17823
2.0881 -3.7224 0.59984 0 17770
2.1069 -2.5935 0.31175 0 17544
2.2291 2.7224 -1.1889 0 10811
2.2987 3.2829 0.18689 0 10463
2.3237 2.788 -0.59628 0 10844
2.3836 1.9579 0.50679 1 11748
2.3893 -2.3017 0.62507 0 17426
2.4691 3.8505 0.42675 1 10291
2.5974 2.2365 0.23968 0 11618
2.6044 3.6297 0.8417 0 10519
2.6774 1.9275 -0.94599 1 12106
2.6848 3.2213 0.49039 0 10853
2.7866 -4.1406 0.70143 0 17706
2.7976 3.4364 -0.30986 2 10792
2.8354 -1.476 0.14907 0 16717
2.9499 -1.6922 0.3977 1 16870
2.9668 -3.4652 0.85948 0 17509
3.0147 3.3132 0.52384 0 11047
3.0158 2.0029 0.6821 0 12404
3.0446 -3.1276 0.10134 0 17450
3.1253 -2.9596 0.70717 0 17406
3.1284 1.9754 -1.4448 0 12541
3.1941 0.50761 -1.0092 0 14756
3.2421 -2.7156 -0.49457 0 17342
3.2993 -2.2095 0.65237 0 17087
3.4087 0.70466 0.65581 2 14449
3.4383 3.2686 0 0 11367
3.4572 0.45699 -0.57293 2 14905
3.6394 0.48107 -0.2567 1 14908
3.6782 0.57271 -0.97451 0 14778
3.7061 0.9702 -0.088944 0 14111
3.7779 -2.1514 0.81911 0 16861
3.781 -0.007259 0.087783 1 15475
3.7989 -2.9638 0.33692 0 17286
3.8411 1.9673 -0.91731 0 12982
3.8794 2.7417 0.89503 0 12179
3.8954 1.9805 0 0 12990
3.8966 0.093872 -0.18177 0 15399
3.9389 0.47457 -1.444 0 14978
3.9432 1.6576 0.39906 0 13345
4.3651 -1.6791 0.2181 0 16186
4.5309 0.53146 0 0 14995
4.5443 1.6972 0.45257 1 13572
4.5883 -0.34178 0.86688 0 15635
4.596 -0.34235 0.32227 0 15631
4.599 1.7031 0.80574 1 13591
4.6722 -0.0089699 0.54637 0 15477
4.7243 1.3253 0.11392 0 14016
4.7301 1.2665 -0.45684 1 14076
0.75097 2.8224 -1.063 0 9563
0.75815 1.6363 -0.7042 0 9855
1.8615 2.2082 -1.4507 0 10874
-14.948 0.046959 -0.34705 0 717
-14.636 -2.1299 2.7865 0 123
-14.56 -2.7696 2.7925 0 9
-14.541 2.1731 1.3716 0 1408
-14.512 -1.8977 2.4046 1 168
-14.499 -2.0249 2.0575 1 139
-14.476 2.5551 2.0659 0 1536
-14.426 -2.5307 -0.34004 0 30
-14.389 1.5175 1.3499 0 1195
-14.26 -2.5016 2.3786 0 35
-14.216 -0.98411 1.3295 0 406
-14.197 0.74897 1.3263 0 952
-14.168 0.13106 -0.32894 0 744
-14.099 2.4454 2.0111 0 1523
-14.039 -0.5614 1.9746 0 531
-14.035 -1.6264 2.3212 2 225
-14.025 -1.7097 1.9857 1 199
-13.84 0.0048287 1.9451 0 709
-13.71 0.88178 0.31896 1 1003
-13.697 3.2858 1.9796 0 1839
-13.669 1.96 0.64397 1 1377
-13.664 -1.5061 1.6075 1 246
-13.636 -1.9479 1.2851 1 128
-13.581 0.12563 1.5882 1 750
-13.541 5.4655 2.0522 0 2824
-13.508 4.6461 0.99891 1 2441
-13.425 2.4058 1.2724 0 1548
-13.344 -2.5818 2.233 2 5
-13.232 -0.6101 0.92623 1 505
-13.179 -0.451 1.8532 0 557
-13.146 4.8628 1.6391 0 2608
-13.14 0.35096 0.30518 1 827
-13.101 4.8463 2.295 1 2612
-13.09 3.2225 2.5399 0 1874
-13.076 -1.8261 2.1692 1 140
-13.017 -2.204 1.8555 0 50
-13.016 0.19538 1.5223 0 775
-13.002 5.551 1.9868 0 2979
-12.989 -1.395 1.2187 1 255
-12.943 -0.37058 2.1273 1 585
-12.915 -1.4623 1.5199 0 234
-12.9 -1.8015 1.2152 0 137
-12.89 -1.7221 0.90935 1 156
-12.852 -2.294 1.218 0 25
-12.816 -2.1332 0.30165 1 55
-12.814 0.67605 0.59841 1 950
-12.805 0.8999 0.29803 2 1030
-12.799 -0.031273 -0.29714 0 693
-12.743 4.7595 1.5908 0 2628
-12.679 -0.21246 1.1831 2 635
-12.629 -0.2866 2.0755 0 611
-12.619 -2.1366 0.89498 1 47
-12.55 -0.14019 1.4677 1 663
-12.448 -2.2936 1.7789 0 16
-12.444 2.834 -0.29631 0 1771
-12.401 1.122 1.75 0 1126
-12.388 7.6242 0.67835 1 4197
-12.284 1.6172 1.1559 1 1322
-12.258 -0.45806 -0.2848 0 539
-12.227 -0.41843 2.01 1 558
-12.226 -1.4168 1.4393 0 223
-12.207 -1.4513 2.0197 2 213
-12.157 5.0705 1.5404 0 2910
-12.051 -2.3315 2.3125 2 6
-11.966 4.586 1.1955 0 2688
-11.926 -8.3259 1.357 0 19691
-11.702 -9.002 -0.6885 0 19554
-11.659 7.6967 2.2953 1 4492
-11.65 0.95372 1.6428 0 1088
-11.612 -9.2565 -0.34477 0 19506
-11.58 -0.49952 -0.26911 1 514
-11.572 1.047 0.26976 0 1122
-11.494 -9.1099 -1.0256 0 19514
-11.47 4.2044 1.4287 0 2588
-11.466 4.319 1.1431 0 2646
-11.414 0.071714 1.6041 1 736
-11.371 0.23422 1.8686 2 806
-11.223 1.7133 -1.3276 1 1414
-11.212 -1.8984 0.53031 1 46
-10.974 -9.3367 1.0076 1 19415
-10.935 -0.69564 0.76621 0 428
-10.916 -0.78822 1.5381 0 394
-10.852 -8.9649 -0.32681 0 19456
-10.826 7.9936 1.8914 0 4992
-10.788 -9.7371 -0.33739 0 19332
-10.776 4.4197 -0.54316 0 2856
-10.755 -0.90315 1.0069 0 344
-10.728 -9.6221 1.0077 1 19339
-10.724 -9.2896 -0.32941 0 19387
-10.658 2.2014 -0.76104 2 1665
-10.612 -8.2136 0.93836 1 19549
-10.553 -8.9277 -0.64462 0 19422
-10.538 -6.9962 -0.88451 0 19758
-10.502 -7.5604 -0.90488 2 19642
-10.501 -10.338 0.34213 1 19255
-10.484 -9.5161 0.66027 1 19326
-10.479 -7.6362 -0.30104 0 19626
-10.29 -1.7423 0.97369 1 48
-10.219 -7.5781 0.59329 1 19602
-10.04 -9.4385 0.31994 1 19288
-9.8422 0.83512 1.6228 1 1102
-9.657 -10.487 -0.33099 0 19120
-9.6144 0.45004 1.5813 2 925
-9.5576 -10.206 -0.65207 1 19145
-9.5555 4.3829 -1.4775 2 3168
-9.494 -10.375 -0.98343 2 19110
-9.4601 -10.588 -0.66214 0 19077
-9.4277 -7.5153 -0.84308 0 19505
-9.3825 -9.3989 0.30833 1 19237
-9.2309 0.08539 -1.2974 1 739
-8.8606 -5.7015 1.4808 0 19792
-8.8296 6.8786 -0.78267 0 5225
-8.7862 -6.7176 -1.0318 0 19562
-8.7791 -10.791 1.6268 0 18937
-8.6252 -6.554 1.7798 1 19576
-8.6191 -10.404 0.31367 1 18962
-8.6011 -9.7974 1.5246 0 19055
-8.5901 1.6449 1.6479 0 1604
-8.5453 2.9124 0.6313 0 2421
-8.5395 -9.6081 -0.29844 0 19069
-8.483 4.7235 -0.22542 0 3805
-8.4105 -9.5197 1.1851 1 19061
-8.3794 0.711 0.78457 0 1100
-8.3747 -10.926 -0.31961 1 18854
-8.3735 -6.521 -0.24641 0 19539
-8.3665 6.0608 -0.96385 0 4884
-8.2905 -0.020258 -1.1652 0 689
-8.2418 4.1596 0.43052 0 3474
-8.2014 -0.5433 1.5486 0 420
-8.1447 -6.8512 -0.2471 0 19431
-8.1213 -9.5763 0.58555 1 19000
-8.1167 -7.1533 1.7775 0 19371
-8.0703 1.5205 0.76617 1 1587
-8.0618 1.6138 0.19089 0 1640
-8.0553 -7.8416 0.52425 1 19267
-8.0447 3.109 0.80463 1 2708
-7.9501 -10.562 2.4907 1 18837
-7.9425 5.1127 1.7797 0 4387
-7.8603 -10.382 0.60726 1 18840
-7.7492 -9.9292 0.88075 1 18882
-7.7278 2.0201 1.1226 0 1956
-7.7119 5.2214 0.65125 0 4593
-7.7011 -5.544 1.7878 2 19650
-7.6611 4.1233 0.81169 1 3693
-7.5774 -7.5063 0.74584 0 19251
-7.4892 -9.5962 -0.28261 0 18880
-7.4777 -6.1422 1.36 1 19470
-7.4096 -10.392 0.89246 1 18756
-7.3935 2.6167 1.2885 2 2510
-7.312 -9.7139 0.85019 1 18833
-7.2936 3.8162 1.3524 1 3602
-7.1786 -7.1112 1.6601 1 19253
-7.1748 -0.10019 1.0084 0 650
-7.1362 0.89771 0.50294 2 1292
-7.1259 6.2868 -0.88656 0 5808
-7.1177 -0.65904 1.1744 2 311
-7.1102 0.66585 0.83512 0 1140
-7.099 -8.4693 -0.77276 2 18980
-7.0817 -8.0156 2.0152 0 19065
-7.0498 -7.932 0.74207 2 19071
-7.0476 -4.5349 1.579 0 19794
-6.9752 -5.6646 0.20862 0 19484
-6.97 -7.0212 0.22969 0 19230
-6.9636 -6.8551 0.91164 2 19258
-6.9191 -10.932 1.207 1 18604
-6.8041 3.1411 1.412 0 3210
-6.7959 0.51695 0.79703 0 1062
-6.7935 -0.92818 0.96363 1 148
-6.7857 -9.4607 1.3615 0 18767
-6.7807 -8.4849 -0.75951 2 18910
-6.7756 0.29938 -0.15746 2 905
-6.7698 -9.4944 2.197 0 18761
-6.7624 -4.8361 0.58135 0 19655
-6.6711 -8.7538 0.51326 1 18846
-6.6556 -10.793 0.59133 2 18571
-6.5379 -11.179 1.8201 0 18526
-6.4976 -6.5821 1.0816 1 19227
-6.4901 -10.666 1.7547 1 18562
-6.3863 -7.4405 0.45726 0 19019
-6.2757 -10.791 0.87293 1 18516
-6.1822 -10.927 1.7644 0 18491
-6.1659 -8.865 1.2628 1 18724
-6.1602 -11.261 -0.5986 0 18449
-6.1574 3.8625 1.0215 0 4285
-6.0804 -0.19108 -0.28369 1 564
-5.9699 5.3246 0.93548 1 5883
-5.9551 -7.6718 1.1357 0 18875
-5.8248 -5.315 1.4857 0 19321
-5.7776 -10.862 1.1478 0 18422
-5.4773 -4.3412 1.3168 0 19519
-5.4081 -10.683 1.1171 0 18366
-5.4071 -10.53 1.9448 0 18385
-5.3996 -5.4091 1.0741 0 19241
-5.3707 3.9164 1.2524 0 4937
-5.3597 -9.2833 1.0001 0 18510
-5.314 3.8992 0.77078 0 4960
-5.2161 -4.0372 1.2427 0 19552
-5.1718 1.6625 -0.50682 0 2298
-4.8973 -7.6932 1.4983 1 18614
-4.252 -9.3215 0.95586 1 18267
-4.1828 -4.7915 0.59339 0 19045
-4.1516 -8.5689 0.44403 0 18316
-4.1338 -5.0505 1.0723 0 18948
-4.1226 3.4704 -0.37682 2 5593
-3.7333 4.5112 -0.27307 0 7354
-3.689 -8.678 1.5492 0 18219
-3.48 -4.3797 -0.26087 1 18905
-3.3983 -9.3166 1.6293 0 18124
-2.8615 -6.6251 0.67328 0 18228
-2.7914 -8.4059 1.4552 0 18065
-2.7732 5.3684 -0.14029 1 8599
-2.6589 4.5814 0.37041 0 8370
-2.5896 -9.0013 1.5388 0 18036
-2.5124 7.1624 1.247 0 9146
-2.5063 4.6199 0 0 8504
-2.3629 5.7074 1.0149 0 8966
-2.2253 -10.258 0.97927 0 18009
-2.126 -5.2148 0.5254 0 18196
-2.0504 7.6416 1.2999 0 9333
-1.9857 7.2338 0.69985 0 9324
-1.9742 7.192 1.2253 0 9325
-1.789 5.7937 0.56571 0 9254
-1.7396 6.7122 1.3064 0 9342
-1.7074 4.9141 0.8547 0 9156
-1.6877 -6.5024 1.2657 0 18018
-1.5487 5.0154 -1.3741 0 9255
-1.4877 9.0156 1.5012 0 9395
-1.1782 -5.4312 0.91306 1 18010
-1.1268 6.9569 1.1579 0 9396
-1.1065 -8.1412 0.9608 0 17992
-1.071 -6.0371 0.28593 0 17995
-0.9571 8.5868 1.6279 0 9406
-0.94415 5.2526 -1.1344 0 9392
-0.70978 9.288 1.5304 0 9410
-0.67006 4.9559 -0.82163 1 9403
-0.57046 4.9837 -0.46799 0 9405
-0.57 -5.497 0.12831 0 17981
-0.46945 5.899 0.69203 0 9409
-0.40235 -8.8605 -0.20593 0 17963
-0.21316 -5.0023 0.8226 0 17960
-0.071924 10.844 1.7817 0 9423
-0.031023 -6.5833 0.6142 0 17934
0.12314 -7.9266 0.73961 0 17926
0.36656 -6.2064 0.28994 0 17905
0.51465 -9.6906 0.67859 0 17909
0.68779 -5.5775 0.65718 0 17899
0.70875 -5.4871 1.0424 0 17898
0.93284 5.0827 0.48211 0 9506
0.93311 -8.804 1.4545 0 17900
0.97101 -5.8909 -0.13861 0 17895
1.0612 8.544 0.19989 0 9458
1.1623 6.2288 0.14711 0 9509
1.1769 6.9656 -0.32944 0 9496
1.1787 5.0098 -0.11949 0 9538
1.1864 5.0426 -1.1011 0 9539
1.1907 -6.3076 0.29935 0 17890
1.4128 6.3362 0.75916 0 9531
1.4182 -8.1597 0.77268 0 17894
1.557 5.2362 0.8975 1 9601
1.5912 8.9603 0.84903 0 9502
1.6032 -8.6247 1.4413 0 17891
1.6179 -4.9853 0.48898 0 17884
1.6269 10.169 1.6919 0 9491
1.9256 -5.2479 0 0 17879
2.1748 -6.4999 1.1261 0 17883
2.3246 -11.07 2.1311 0 17889
2.4902 -7.3698 1.4657 0 17882
2.6345 -5.7015 0.58596 0 17867
2.7293 -7.9311 1.378 0 17880
2.8096 8.2109 0.80965 0 9645
2.8585 8.2783 1.6501 0 9649
2.9054 10.206 1.241 0 9584
2.9378 5.6773 0.447 0 9956
2.9558 4.2214 -0.72426 0 10460
3.1048 -5.2479 0.56887 0 17754
3.4343 10.652 1.8388 0 9622
3.4461 5.733 0.62405 0 10193
3.511 -4.757 0.55159 0 17629
3.5303 4.9202 -0.56497 0 10508
3.7359 -4.7973 0.14117 0 17580
3.9362 -5.7422 0.6495 0 17684
4.0742 -2.9743 0.82876 0 17215
4.1893 6.0209 1.382 0 10459
4.2189 3.7404 -0.39426 1 11539
4.3615 -6.2057 0.70765 0 17662
4.4196 -7.6211 1.4474 0 17759
4.6336 5.3059 0.32851 0 10952
4.6797 -1.9403 0.47263 1 16285
4.7549 2.0813 0.85275 0 13266
4.8456 4.6063 -0.46751 0 11365
4.9046 -6.0761 1.4712 0 17554
4.9669 4.0553 0.59822 1 11759
4.97 -3.5202 1.0006 1 17170
5.0051 -4.4484 1.1001 0 17365
5.0543 2.8132 0.95035 0 12823
5.091 2.4054 0.79134 0 13119
5.1536 -0.641 0.36315 0 15721
5.2354 2.5467 0 0 13062
5.2742 -7.6483 1.7504 0 17680
5.3382 -0.30593 0.37389 0 15601
5.358 5.2726 1.235 0 11290
5.4235 4.0988 -0.15783 0 11963
5.5993 4.518 -0.67124 0 11779
5.6525 -9.1809 1.7713 0 17741
5.7205 2.4637 1.0233 0 13298
5.7213 4.9263 0.17529 0 11615
5.7347 -5.9239 -1.1588 0 17451
5.7427 -0.16241 0.94387 0 15550
5.8607 9.321 1.8089 0 10264
5.9011 -5.0027 1.271 1 17351
5.9174 -6.8265 0.4213 0 17501
6.0522 0.49758 -0.99769 0 15169
6.0589 6.9381 1.0772 0 10958
6.108 11.473 1.2126 0 9994
6.1256 -7.5 1.8245 0 17541
6.1609 11.418 0.90725 1 10015
6.2306 0.42257 -0.58262 0 15247
6.2478 11.038 2.0839 0 10107
6.3112 1.42 -0.30167 0 14325
6.3325 7.9212 -0.23545 0 10756
6.351 -1.6106 0.45816 0 15894
6.3587 13.319 1.726 0 9882
6.3617 7.1553 0.89325 1 10991
6.4574 0.75743 0.76032 0 14999
6.6274 10.883 0.59422 1 10210
6.646 -0.5721 1.0959 0 15655
6.6487 -2.1885 0.65303 0 16045
6.6498 -1.2409 -0.63111 1 15815
6.688 4.1661 -0.36745 0 12570
6.7063 0.39608 0.94415 0 15291
6.7226 0.92925 0.63315 0 14881
6.7246 12.298 1.6391 0 10039
6.8532 -1.6744 0.49332 0 15878
6.8785 12.323 0.65813 1 10080
7.0111 5.2679 0.20361 0 11981
7.0219 7.7631 1.7198 1 11037
7.0685 8.1371 1.2605 0 10943
7.0761 1.6337 -0.50783 0 14293
7.1177 -0.75815 0 0 15696
7.1266 4.1879 0 0 12699
7.1435 10.456 1.7797 0 10423
7.1687 10.054 1.444 0 10502
7.1806 2.9919 -0.90969 0 13352
7.271 5.2343 0.83584 1 12107
7.3158 -0.18391 0.8558 0 15539
7.3587 11.331 1.8989 0 10319
7.3741 1.2804 1.0519 1 14660
7.3849 8.0254 2.0548 0 11080
7.4148 10.083 2.3581 0 10573
7.4232 1.2675 -0.88065 0 14665
7.4862 11.384 0.95273 1 10343
7.5228 -1.0452 -0.70858 0 15738
7.5384 10.015 1.7617 0 10619
7.5759 9.9412 1.4616 0 10640
7.6412 7.6545 2.0378 1 11250
7.6885 3.9091 1.0087 0 12995
7.7217 7.7812 1.5406 2 11234
7.7222 -3.2842 0.78289 0 16326
7.7253 11.823 0.98761 1 10327
7.8028 2.9142 0.97404 1 13573
7.8085 5.2828 1.5489 2 12323
7.8297 4.847 1.5129 0 12595
7.8689 6.2727 1.4143 2 11822
7.9976 -4.4642 1.5048 0 16829
8.0155 0.42568 1.5123 2 15313
8.0194 5.1603 1.7967 1 12501
8.0645 5.1892 1.3478 0 12499
8.1158 6.3934 1.2082 2 11849
8.1282 1.7277 -0.19293 0 14398
8.1962 6.8945 1.7597 1 11688
8.2471 5.8652 0.94415 2 12152
8.2607 3.8749 1.2823 0 13134
8.274 10.163 1.8418 0 10802
8.2774 5.674 1.4104 0 12277
8.2947 10.066 2.1429 0 10829
8.36 7.5459 2.1218 2 11505
8.3854 6.2207 1.221 2 12020
8.3922 -8.0451 1.0846 0 17417
8.4097 3.0542 0.83473 1 13620
8.4556 12.377 1.0482 1 10418
8.5468 4.8869 0.45913 0 12760
8.6123 2.1457 1.0379 0 14187
8.6895 10.359 0.63055 1 10862
8.7128 -4.3764 0.6818 0 16656
8.7378 -8.6227 2.3129 0 17435
8.8317 11.656 1.7102 1 10628
8.8669 6.7011 1.2997 0 11971
8.8795 3.6418 1.5768 0 13398
8.9908 6.6698 0.78281 0 12016
9.0255 -4.3418 0.70036 0 16577
9.0678 1.901 1.3021 1 14426
9.106 -4.8092 1.6919 0 16746
9.1426 2.057 0.65529 2 14331
9.1688 7.9395 2.2851 0 11609
9.1779 10.625 1.6419 1 10931
9.2219 7.3961 1.3824 1 11805
9.2356 2.6762 0.44841 0 13968
9.2413 -10.001 0.95218 1 17473
9.2418 6.5727 1.3262 0 12154
9.2956 10.761 1.3267 0 10929
9.3058 -9.6129 0.93557 1 17453
9.3219 10.922 2.3592 1 10908
9.3314 10.933 1.6809 0 10905
9.3674 4.7277 1.4747 0 13009
9.3852 -11.553 2.4454 0 17547
9.3876 6.6763 1.8926 1 12155
9.4506 -7.461 0.27955 1 17297
9.4711 10.347 1.3087 0 11059
9.4725 5.0919 1.5114 0 12889
9.5106 10.39 1.9796 0 11063
9.5171 -5.1287 1.7762 0 16779
9.5296 0.78348 1.8015 2 15183
9.5428 7.0407 0.82926 0 12032
9.6239 3.6866 1.6932 1 13520
9.6396 0.59634 0 0 15275
9.6708 3.8055 0.72672 0 13468
9.6758 5.095 0.76467 0 12932
9.6879 4.1723 1.2335 0 13296
9.7331 5.9108 1.8709 2 12637
9.738 1.3998 1.6163 2 14852
9.7763 -7.2262 1.9973 0 17232
9.7899 6.9188 1.1184 0 12175
9.7964 7.4036 1.7257 0 11972
9.7983 -3.7025 0.97722 0 16164
9.8466 7.572 1.4526 0 11920
9.898 6.9487 1.4143 0 12199
9.9035 6.4955 2.2315 1 12444
9.952 -1.1797 1.6465 0 15713
10.122 10.678 2.7721 0 11137
10.125 10.744 1.7265 0 11123
10.225 6.4567 1.6996 0 12549
10.43 6.0071 1.4075 0 12748
10.457 5.8205 1.1166 1 12821
10.566 3.0618 0.76927 0 13970
10.787 1.6795 1.5342 0 14780
10.86 3.3847 1.8689 0 13866
10.873 0.38921 1.7875 0 15365
10.913 2.3853 1.5699 0 14368
10.932 2.9271 1.0558 0 14085
11.11 2.9083 2.1637 0 14123
11.858 0.28565 1.9487 0 15403
10.172 -0.96695 -1.9252 2 15676
