VERSION .7
FIELDS x y z intensity index
SIZE 8 8 8 8 8
TYPE F F F F F
COUNT 1 1 1 1 1
WIDTH 597
HEIGHT 1
VIEWPOINT 0 0 0 1 0 0 0
POINTS 597
DATA ascii
-4.8617 0.87476 0.81158 0 15166
-4.6634 1.5603 0.9265 0 218
-3.9648 2.224 0 0 1119
-3.7007 0.27306 0.43394 0 14992
-3.4109 -0.085744 0 0 14775
-3.3553 1.8051 0.44555 0 1031
-3.3386 3.084 0.74673 0 2463
-2.9466 2.987 0.68934 0 2755
-2.8724 -3.6449 0.32451 0 13319
-2.7446 2.4342 -1.3352 1 2335
-2.5279 3.6115 -1.2641 0 3717
-2.4791 -1.9341 0.29335 0 13960
-2.3481 -3.5142 0.59399 0 13131
-2.2229 -3.0128 0.70543 0 13241
-2.156 -4.0668 -0.21466 0 12981
-1.9613 -2.9903 -0.16677 0 13106
-1.516 -2.8596 0.53176 2 12982
-1.3955 4.6397 -0.79601 0 4706
-1.1721 -4.819 0.81482 0 12939
-0.92779 -3.0366 -0.073717 0 12945
-0.83543 -4.0412 0.67799 1 12936
-0.65631 -3.1748 0.37912 1 12935
-0.53994 3.2474 0 0 4840
-0.43841 4.7439 0.78272 0 4857
-0.40978 -4.8194 -0.22556 0 12919
-0.32691 3.1366 -1.1478 0 4851
-0.28812 -4.0794 -0.19071 0 12913
-0.20618 3.9875 -0.8487 1 4866
-0.14401 3.352 -0.077895 2 4869
-0.12913 -4.803 -0.11155 0 12891
-0.074691 -3.5072 0 0 12885
-0.048491 3.388 -0.72021 0 4875
0.047214 -4.4346 0.10296 0 12871
0.18792 -3.2791 0.15317 0 12851
0.19219 -3.5373 0.58201 0 12853
0.2434 -3.684 -0.17217 1 12848
0.48477 -4.9529 0.23208 0 12844
0.54457 -4.2747 0.40204 0 12837
0.57108 -4.9432 0.58192 0 12841
0.6652 4.6391 -0.32772 1 4920
0.73394 -3.3381 0.64396 1 12828
0.8338 3.0859 -0.44925 0 5031
0.91899 3.2155 -1.13 0 5044
0.9639 -4.3841 -0.10422 0 12827
0.99247 3.9925 -0.4811 0 5011
1.1874 4.2017 0.5106 0 5042
1.4877 3.5775 0.27093 0 5079
1.5978 3.7189 -0.18876 2 5090
1.6016 -2.8307 0.53435 1 12192
1.815 4.2246 0 2 5091
1.9334 2.61 0.22713 0 5245
1.9714 2.8113 0.64692 0 5234
1.982 3.7944 0.50061 0 5139
1.9994 3.1144 0.2588 0 5198
2.0006 2.9427 -1.2024 0 5223
2.276 2.4838 0.55348 1 5298
2.6401 3.3586 0 0 5267
2.8894 4.0225 -0.11499 0 5237
3.0142 3.2894 -0.52175 0 5295
3.2583 2.7691 0 0 5540
3.5723 -3.2643 0.79504 1 11403
3.631 0.9607 0.70765 1 7770
3.7286 2.8662 0.21931 0 5738
3.8218 -3.086 0.80704 0 11287
4.4109 1.2507 0.3206 0 7666
4.5648 1.7331 0.571 0 7292
4.8726 -0.30485 -0.34139 0 9614
-2.0265 -1.5443 0.4186 0 13999
0.43305 1.8066 -0.26109 0 5002
1.454 -1.0537 -0.51489 0 11144
2.5689 -1.1255 0.52842 0 10339
-14.952 -0.93806 2.4613 0 14646
-14.885 0.14549 2.0921 0 14873
-14.849 0.01555 2.7976 2 14855
-14.625 -1.0457 2.7625 0 14615
-14.394 -1.5358 0.33609 1 14475
-14.365 -2.2085 0.33744 2 14318
-14.324 -0.97902 2.7051 0 14626
-14.248 -1.2691 2.6951 0 14549
-13.098 -2.2059 0.30838 1 14276
-12.995 -0.66056 2.1377 2 14693
-12.94 -1.95 -0.61024 1 14323
-12.739 -0.9467 1.1918 1 14602
-12.736 -1.958 0.60093 1 14319
-12.46 8.1226 -0.69363 1 1484
-12.448 8.1704 -1.0412 1 1500
-12.447 5.2349 -0.62971 2 527
-12.435 -2.4329 2.3874 0 14222
-12.384 -8.3467 0.34672 1 14163
-12.377 1.2725 -0.58024 0 15041
-12.358 -8.0718 2.0745 0 14199
-12.349 -7.9185 2.4101 1 14206
-12.261 1.6578 -0.28726 1 15089
-12.254 -8.2594 2.4279 1 14165
-12.211 4.0858 -0.29896 0 213
-12.128 -1.3283 -0.28326 0 14463
-12.085 4.1566 -0.59599 0 246
-12.001 3.7426 -0.87907 1 145
-11.962 -9.0045 2.821 0 14021
-11.942 4.6201 -0.89539 2 394
-11.931 1.9688 -0.28076 0 15141
-11.894 6.0082 -0.62142 0 877
-11.869 5.444 -0.60894 0 680
-11.859 4.1949 -0.87963 1 278
-11.854 5.5629 -0.30402 0 726
-11.834 8.9439 0 0 1888
-11.803 5.4538 -0.90921 1 694
-11.777 0.38656 -0.5495 0 14914
-11.754 7.4678 -1.2992 1 1420
-11.726 6.6696 -0.31321 0 1151
-11.706 5.1239 -0.5959 0 602
-11.699 3.727 -0.28508 1 165
-11.692 9.158 -0.6926 0 1983
-11.668 5.1511 -1.1899 1 616
-11.656 -9.1489 2.4344 1 13951
-11.636 7.3472 -0.64173 1 1405
-11.574 7.3083 -0.3178 0 1407
-11.558 4.2432 0 0 325
-11.503 2.4157 -1.3745 2 15216
-11.436 4.8471 -0.28837 1 543
-11.376 3.8416 -0.55993 0 224
-11.372 7.0428 -0.31056 0 1360
-11.36 -9.7467 0.34751 1 13813
-11.297 4.9449 -0.86233 1 601
-11.043 2.2166 -1.0508 0 15201
-11.039 7.4742 -0.6217 1 1580
-10.918 8.3024 -0.31845 0 1904
-10.887 4.2489 -1.3666 2 403
-10.887 4.9938 -1.1175 0 678
-10.875 4.6452 -1.3829 1 554
-10.847 5.1275 -1.4031 1 737
-10.845 1.182 -0.76286 0 15049
-10.8 8.2629 0 0 1921
-10.796 0.92173 -0.25156 0 15011
-10.792 10.145 1.0357 1 2514
-10.696 5.0947 -0.82843 2 754
-10.69 4.6438 -1.0874 0 584
-10.63 3.3865 -0.78016 2 164
-10.584 7.3449 -0.90084 0 1646
-10.459 3.1317 -0.76341 2 111
-10.4 5.0633 -0.26855 0 798
-10.326 -7.8184 2.128 0 14010
-10.267 -10.677 2.0818 0 13619
-10.254 5.2156 -1.0733 0 892
-10.244 -1.1545 -0.72086 2 14450
-10.182 4.8128 -0.52518 0 740
-10.15 -8.3581 0.30527 1 13874
-10.15 -0.93267 -0.47534 0 14529
-10.124 7.243 -0.58052 0 1736
-10.1 6.3775 -0.83526 0 1404
-10.092 4.629 -0.25778 0 681
-10.09 8.3385 0.61043 1 2151
-10.066 9.406 -0.96334 0 2488
-10.011 7.5658 -0.58518 0 1886
-9.9981 2.8367 -0.48465 0 74
-9.9485 9.7355 -1.2986 0 2632
-9.9248 10.842 2.4149 0 2983
-9.857 8.4395 0.90739 1 2245
-9.829 2.8203 -0.954 0 80
-9.8129 5.1366 -0.51652 0 959
-9.5386 -9.5186 1.2572 0 13648
-9.5207 -11.318 -0.34338 2 13411
-9.4983 0.31177 -0.22064 0 14915
-9.4129 9.4293 0.93167 1 2714
-9.396 9.2495 1.2301 0 2661
-9.3257 3.7017 1.6484 0 438
-9.2984 2.3494 -0.67064 1 15300
-9.2873 1.393 -0.87616 0 15110
-9.1703 7.5353 -0.5535 1 2130
-9.1651 1.7318 -0.65222 1 15182
-9.1532 6.1206 -0.25564 0 1548
-9.0358 5.967 -0.50496 1 1517
-9.024 2.8747 -0.88359 0 163
-9.0229 -0.96268 0.42316 2 14476
-8.9953 -1.6509 0.21233 0 14235
-8.9781 -0.66719 -0.83993 1 14597
-8.9102 -1.7691 1.7115 1 14220
-8.7976 8.0785 0 0 2436
-8.7674 9.6929 0.6095 1 3014
-8.7293 -7.6689 1.084 0 13777
-8.6969 5.8485 -0.97778 0 1561
-8.6942 0.56527 -0.4063 1 14976
-8.6166 3.2783 -1.0781 1 369
-8.6159 -11.606 -0.33558 0 13244
-8.6104 10.453 -0.31441 0 3307
-8.5987 -7.9597 0.54642 1 13704
-8.5973 6.0042 -0.73328 0 1664
-8.5901 -9.6346 1.2043 0 13518
-8.5108 -11.063 -0.32407 0 13285
-8.4451 -10.1 -0.61397 0 13402
-8.414 -6.8868 -0.25244 0 13881
-8.3745 -10.442 0.93599 1 13340
-8.3236 -8.4083 1.9438 0 13643
-8.2806 -10.204 1.226 1 13359
-8.2388 -10.328 2.4892 0 13336
-8.1007 6.3861 -0.96236 2 1996
-8.0323 -7.7431 0.78016 0 13668
-8.0296 6.6356 -0.7284 1 2145
-8.0175 4.5269 -1.0767 1 1129
-8.0074 -11.543 -0.32616 0 13167
-7.9636 1.5278 -0.75651 1 15185
-7.9547 6.8518 -1.4755 1 2254
-7.894 3.9289 -0.82265 0 842
-7.8646 -12.704 -1.0448 1 13067
-7.8539 -6.1273 -0.23127 2 13956
-7.8372 -11.729 -0.65785 0 13127
-7.5542 -0.93692 0.89018 2 14415
-7.5494 0.073789 -1.0611 1 14870
-7.4957 -0.92965 1.4231 2 14417
-7.4953 0.07326 -0.52415 1 14872
-7.4257 12.199 -0.99863 0 3970
-7.3825 -1.3763 0.52513 0 14228
-7.3633 -0.39749 -0.68796 1 14671
-7.3393 9.2865 1.1043 0 3430
-7.311 1.3379 1.2211 1 15173
-7.3044 4.6409 1.4218 0 1432
-7.2901 -0.96753 0.34295 0 14384
-7.261 -6.7616 -0.6938 0 13693
-7.146 4.5402 0.99007 0 1429
-7.0673 5.2467 1.0293 0 1846
-7.0236 9.6141 1.9561 0 3625
-6.8751 -8.3699 1.5223 0 13379
-6.7384 -8.1569 1.7383 1 13389
-6.7109 -9.3771 2.1726 1 13201
-6.4724 -7.383 1.6131 0 13490
-6.369 9.5032 1.3378 0 3802
-6.3367 -7.2716 1.3555 0 13480
-6.2552 4.025 1.2221 0 1463
-5.9899 -8.5291 1.7123 0 13177
-5.9516 -10.128 2.2133 0 13036
-5.9512 -9.999 1.9117 0 13046
-5.9418 -11.123 2.0719 0 12984
-5.8513 -9.696 2.1337 1 13057
-5.8336 8.7603 1.7292 0 3816
-5.8071 1.4328 0.69946 0 15292
-5.7259 3.0805 0 0 1025
-5.6609 7.5616 1.7797 0 3576
-5.4942 3.3366 0 0 1316
-5.4848 -6.7949 1.6453 1 13354
-5.3835 6.9353 1.6541 0 3480
-5.2446 -8.1474 1.8256 0 13094
-5.1293 -8.0205 1.5641 1 13087
-4.9106 7.81 -0.21419 0 3917
-4.85 1.2552 -0.35032 1 22
-4.7926 -5.3433 1.1793 0 13530
-4.6807 6.2182 0.91016 0 3554
-4.6733 4.3671 1.0509 0 2501
-4.6671 -4.7942 0.31202 0 13632
-4.4558 -2.9661 0.49939 0 14180
-4.2166 6.2138 0.70059 1 3776
-4.0872 -6.6436 0.72772 0 13064
-4.0094 5.2593 0.61699 0 3521
-3.9457 -3.6962 0.5044 0 13690
-3.7989 -4.88 -0.14358 1 13302
-3.7875 -7.4494 1.5745 0 12976
-3.0901 -5.9895 1.1073 0 12977
-3.0072 -8.9101 1.545 0 12946
-2.9116 4.9766 0.26888 0 4022
-2.6757 8.6333 1.057 0 4694
-2.555 5.3088 -0.41198 0 4285
-2.536 -4.6187 0.49158 0 12991
-2.4861 4.5129 -0.24028 0 4096
-2.4759 -5.8441 1.0428 0 12961
-2.4644 7.7127 0.7554 0 4673
-2.3888 -10.074 1.701 0 12938
-2.3517 -8.6736 1.0509 0 12942
-2.3368 -5.0204 0.77826 0 12966
-2.1639 -7.719 1.3171 0 12943
-2.0522 5.5716 0.69435 0 4580
-1.9685 -10.108 1.6919 0 12934
-1.881 10.56 1.7623 0 4838
-1.8695 -6.5934 0.80144 0 12944
-1.6382 -10.32 1.2219 0 12930
-1.6364 5.2799 -0.77686 1 4686
-1.5755 -9.7597 1.8626 0 12931
-1.5534 13.085 2.165 0 4849
-1.4667 10.091 1.9211 0 4845
-1.3887 5.0381 0.85859 0 4755
-1.2507 -10.142 1.6789 0 12928
-0.98592 -5.8853 0.69783 0 12932
-0.92607 6.1233 1.0175 0 4844
-0.9054 4.9234 0 0 4835
-0.87974 6.1736 0 0 4846
-0.86815 9.394 1.7775 0 4858
-0.78463 8.757 1.4445 0 4859
-0.61538 6.2424 0.43863 0 4854
-0.55814 -10.509 0.98187 0 12910
-0.41773 6.0343 0.70736 0 4862
-0.31789 6.1478 -0.7199 0 4865
-0.30048 6.5167 0.60863 0 4868
-0.16217 7.1462 -0.16596 0 4871
-0.11942 -5.6075 0.92149 0 12886
-0.1048 6.2543 -0.29171 0 4874
-0.047288 5.8899 0.8278 0 4877
0.08925 9.8338 1.6157 0 4880
0.10941 7.2889 1.3735 0 4882
0.31452 -7.9695 1.5027 0 12860
0.41661 -8.112 0.94988 0 12855
0.41996 5.9908 -0.28006 0 4892
0.51445 -7.177 1.3557 0 12846
0.60676 7.995 0 0 4895
0.63437 -5.1003 0.96835 0 12840
0.64007 5.7608 0.9523 0 4904
0.79612 -6.8912 1.1397 0 12842
0.79729 -5.3862 0.63674 0 12833
0.85752 9.8015 1.8537 0 4902
1.2792 -6.7439 0.15937 0 12831
1.385 7.1454 0.85115 1 4965
1.4646 -6.8432 1.1498 0 12829
1.5899 5.3847 0.13035 0 5048
1.6315 5.1369 0.8855 2 5054
1.6628 -7.2658 0.69539 0 12821
1.6751 4.8347 0.11879 0 5061
1.7375 6.9897 0.50364 0 5014
2.0153 5.0031 0.88615 1 5069
2.0282 6.5158 -0.15844 0 5053
2.1371 9.6638 1.6261 0 4991
2.2205 -10.1 -0.48223 0 12826
2.2661 5.3593 0.54286 0 5087
2.3928 -10.583 1.7827 0 12825
2.6081 -8.415 1.4474 1 12714
2.8096 7.3498 1.2927 0 5065
2.9091 -7.9111 1.3848 0 12606
3.0476 5.3387 0.57351 0 5157
3.2882 4.3589 0.25463 0 5251
3.408 -7.5304 0.96661 0 12439
3.501 -8.1725 1.4607 0 12492
3.5056 4.0313 0.87772 0 5282
3.7065 8.0474 0 0 5107
3.8566 -3.6051 0.86734 1 11424
3.8893 4.1013 0.92863 0 5315
3.9387 -11.098 1.9347 0 12633
3.9869 5.1921 -0.15198 0 5259
3.9931 -3.9556 0.92344 0 11472
4.0159 5.2016 0.61309 0 5264
4.1036 -7.7177 1.4361 0 12273
4.221 -4.062 0.68506 0 11447
4.2423 -6.1039 0.86927 0 11921
4.2651 4.1708 -0.41714 0 5378
4.3217 -3.2685 0.50552 2 11203
4.4835 5.2199 -0.80469 0 5276
5.0795 -2.0358 0.51053 0 10208
5.1115 -3.5951 0.29143 0 11094
5.1318 -1.5562 0.1245 0 9975
5.1483 -9.037 1.7088 0 12183
5.1932 1.6693 0.8962 0 7511
5.2075 2.065 0 0 7226
5.3838 -3.2298 0.88236 0 10851
5.4244 -0.41929 -0.76462 0 9672
5.453 -6.787 -0.81225 0 11716
5.5016 -3.7502 0.15458 0 11049
5.7109 1.407 -0.41128 0 7863
5.7315 4.5151 -0.68071 0 5686
5.7458 2.201 -0.43026 0 7274
5.7566 1.0327 -0.82196 0 8229
6.0123 3.5288 -1.3135 0 6432
6.028 0.61868 -0.56534 0 8702
6.0342 -1.583 1.0249 0 9932
6.1293 0.66585 1.0129 0 8682
6.1629 0.16784 -0.57519 0 9109
6.1788 -11.543 2.151 0 12264
6.1984 1.7388 1.0577 0 7686
6.2824 0.11624 1.1839 0 9174
6.3486 0.39274 1.045 0 8952
6.3894 -0.25216 -0.44714 0 9519
6.3944 7.3975 0.68375 0 5280
6.4177 -4.4322 1.2814 2 11073
6.4243 -8.2882 0.97834 0 11761
6.4325 1.9237 0.94359 0 7601
6.4726 7.0636 0.66994 0 5297
6.4987 -8.6902 1.5251 0 11809
6.5813 -9.5259 1.6272 0 11931
6.5926 0.082849 -0.77101 0 9191
6.6979 -4.0436 0.18165 0 10856
6.75 5.157 1.6005 0 5763
6.77 -8.9418 1.3116 0 11789
6.7835 -8.8501 0.77974 0 11774
6.8062 1.161 1.3009 0 8298
6.827 -4.0956 1.308 2 10852
6.8316 4.8837 0.19497 1 5911
6.8621 -9.9993 1.9925 1 11944
6.875 -10.526 1.4702 0 12022
6.8799 -1.4912 1.1566 0 9870
6.922 -4.8055 0.98542 0 11081
6.9275 6.9347 0.68543 0 5360
6.9317 -4.7249 0.39121 0 11051
6.9344 2.3634 0.34164 0 7427
6.9725 6.8543 0.227 0 5373
6.9788 1.7387 0.3354 0 7850
7.0267 6.4433 0.44459 1 5435
7.0482 4.9462 0.80333 2 5957
7.0769 -2.3473 0 0 10026
7.1183 8.5802 1.8316 0 5272
7.2085 -4.764 0.80612 2 10999
7.2905 -9.4566 1.3964 0 11772
7.3033 -9.6462 1.7004 1 11791
7.3287 -9.3938 2.2448 0 11759
7.3461 -9.1432 1.927 1 11720
7.3606 3.0444 0.37146 0 7165
7.444 -7.9077 0.50646 1 11547
7.4782 -6.5999 1.1664 0 11367
7.4801 -8.3748 0.2607 0 11607
7.4856 -3.2548 1.3411 1 10324
7.5168 2.1526 0.54675 0 7649
7.5675 -8.1778 2.0993 2 11579
7.5892 -9.3853 1.4115 0 11711
7.5982 -9.5147 1.7113 0 11728
7.6076 5.4726 0.21758 1 5896
7.6207 -8.4845 1.064 0 11602
7.6665 5.7207 0.44608 0 5814
7.6883 -4.1432 0.20277 0 10657
7.7456 7.1026 1.7266 0 5439
7.7784 3.7837 1.6297 1 6888
7.7789 2.523 0.18986 1 7492
7.7846 -9.5143 2.0197 1 11700
7.8347 3.6152 0.805 0 6988
7.8441 -4.4037 1.6949 1 10740
7.852 -5.0273 0.86984 0 10943
7.8571 5.0869 1.3155 0 6144
7.9041 1.2561 0.74667 1 8364
7.9477 -9.7136 1.7639 2 11699
8.0025 -6.0523 1.8904 0 11207
8.0195 -0.24642 0.37416 0 9477
8.074 -4.8437 0.2186 0 10845
8.0943 -7.0561 1.7642 1 11357
8.1003 -8.6562 0.55285 1 11557
8.1128 2.8697 1.0063 0 7386
8.1276 -6.4511 0.72561 0 11263
8.1306 -8.0544 2.1563 1 11473
8.1404 4.0498 0.424 0 6827
8.2018 -6.4704 1.2217 0 11257
8.2217 -1.3125 0.77676 1 9845
8.222 -10.665 0.31265 1 11768
8.2338 7.5502 2.1048 0 5440
8.2569 4.4403 0.65557 0 6654
8.2623 4.0781 1.736 1 6852
8.2716 -2.3781 0.40136 0 9954
8.2915 7.4762 1.569 0 5461
8.3168 2.3817 1.0117 0 7653
8.3239 3.8145 0.85423 0 7003
8.3329 8.0977 0.54186 1 5384
8.3559 -7.6353 0.26279 0 11401
8.3909 5.9631 0 0 5924
8.3937 6.532 0.99227 0 5719
8.3965 3.4146 1.06 0 7192
8.3989 -10.088 1.535 0 11679
8.4093 2.5437 0.20398 1 7585
8.4294 -9.6018 1.4942 0 11627
8.4392 -10.69 2.2376 0 11746
8.502 -10.969 2.6147 0 11767
8.5675 -5.5893 1.4377 2 10979
8.5857 -9.0665 2.0515 0 11539
8.5871 -6.2641 0.24678 0 11150
8.5914 -1.2181 1.6349 2 9829
8.5969 -10.084 2.4966 2 11658
8.605 -10.215 0.3101 1 11665
8.613 -10.594 1.9189 0 11705
8.6264 -6.3692 1.254 2 11172
8.658 0.21009 0.40388 1 9131
8.7178 -4.0356 0.67175 1 10422
8.7636 2.9289 1.5181 0 7460
8.769 -8.5902 2.0168 2 11461
8.848 -8.4642 2.307 0 11445
8.8634 -8.2393 1.129 1 11417
8.8701 0.9636 1.2539 1 8680
8.8963 3.4685 0.89083 1 7252
8.9165 -7.5031 0.54344 1 11330
8.9235 -5.5285 1.9778 2 10900
8.9338 -7.091 1.603 0 11266
8.9484 -10.132 1.5808 0 11623
8.969 2.5684 0.8704 0 7651
8.9882 -5.8281 1.76 1 10969
8.9909 1.0562 0.84457 2 8623
9.06 -10.687 1.6384 0 11661
9.098 -0.88726 1.7223 0 9750
9.1012 -6.9257 1.879 0 11214
9.122 -5.8001 2.0367 1 10936
9.1262 3.8946 1.3945 1 7117
9.1268 -5.51 1.7516 2 10864
9.1284 -5.7663 0.25068 0 10919
9.1315 8.1846 0.57186 1 5468
9.2565 -6.5467 0.52872 1 11104
9.2844 4.8517 1.9737 2 6717
9.285 6.2416 0.52173 1 6052
9.3085 0.11698 0.65097 0 9199
9.3564 1.8764 0.66729 0 8117
9.3974 -6.9006 2.1966 0 11168
9.3979 -6.7332 1.8994 0 11124
9.4515 -6.1661 1.0528 1 10977
9.4583 7.187 1.3892 0 5772
9.4728 2.4481 0 1 7792
9.4825 -2.4877 0.91461 1 9930
9.5078 -7.1076 0.2756 0 11182
9.515 -3.2818 0.46937 1 10049
9.5176 7.6305 0.28322 1 5648
9.5247 -9.8287 0.95706 2 11509
9.5323 -10.186 2.2921 0 11562
9.535 -10.189 1.9612 0 11561
9.5532 4.1797 1.4655 0 7080
9.5541 -6.4346 0.26743 0 11027
9.5591 6.5845 0.5413 1 5995
9.5791 0.42661 0.6705 0 9032
9.5979 6.4519 -0.2685 0 6048
9.6482 -4.4663 0.9919 0 10423
9.6518 7.4195 0 0 5735
9.6695 -1.6859 0.91573 0 9853
9.6722 -9.6385 1.2739 2 11477
9.7199 6.9485 1.1147 0 5915
9.7233 7.9358 0.29139 1 5611
9.7237 5.2993 0.51642 1 6621
9.7655 -3.395 0.72296 2 10057
9.7791 7.4713 1.1481 0 5756
9.8191 -10.315 2.3397 0 11533
9.83 7.9744 1.4802 0 5631
9.8447 5.2213 1.0396 1 6683
9.8568 -6.0735 0.80959 0 10891
9.8609 -5.0918 0.51754 1 10601
9.8649 -5.9556 2.1711 0 10866
9.8777 -3.1505 0 2 10002
9.8875 -2.8427 0 0 9953
9.9365 -5.8461 1.6203 0 10820
9.9403 7.0642 0.56869 1 5927
9.9495 -5.7768 0.26711 0 10797
9.9505 0.15284 0.69589 0 9182
9.976 6.7492 0.84224 1 6038
10.01 -2.3829 1.2033 0 9919
10.021 -9.0449 2.2178 0 11392
10.022 -3.8813 1.0027 2 10169
10.037 5.2827 1.8634 1 6701
10.039 -2.9814 0.97704 1 9968
10.044 -9.7266 0.97771 1 11451
10.06 -4.2701 1.0196 1 10284
10.06 -0.049164 0.93858 2 9325
10.066 -3.3389 1.2403 0 10029
10.076 -5.2387 1.0595 0 10610
10.101 -4.0831 0.25295 0 10216
10.133 -10.161 2.3576 0 11487
10.149 4.5079 1.5607 0 7057
10.155 -3.5304 1.003 2 10058
10.156 -3.6345 0.25044 0 10075
10.163 6.9145 0 0 6019
10.164 -4.4533 1.5596 0 10336
10.17 -5.6305 1.3594 0 10704
10.184 -0.548 0.71319 0 9581
10.195 -9.7017 2.3122 1 11439
10.215 -0.61225 0.23759 0 9601
10.254 7.3762 1.1784 0 5901
10.298 -7.7403 0.90084 2 11193
10.305 -10.155 1.3497 0 11463
10.333 0.85315 0 0 8833
10.364 -0.37822 0.96756 0 9510
10.388 -5.4008 1.3692 1 10611
10.39 1.588 0.49015 1 8398
10.407 -9.7286 1.3291 0 11422
10.426 -3.9021 0.51913 2 10127
10.427 -10.641 0.34589 1 11497
10.436 6.6636 1.4479 0 6178
10.46 -7.224 0.59282 1 11069
10.47 -2.8467 1.7827 0 9944
10.492 -8.0798 2.1757 1 11227
10.499 6.0444 0.84712 1 6490
10.527 -10.374 1.0335 1 11462
10.544 5.8257 0.27969 1 6588
10.546 -5.7189 0.55947 1 10667
10.552 -4.5533 0.26683 0 10304
10.586 0.71608 1.2407 0 8919
10.605 -8.1198 0.3101 1 11216
10.616 -8.8358 1.9412 1 11318
10.618 2.4513 1.5315 0 7963
10.652 0.25847 0.24738 0 9130
10.674 5.578 1.4084 0 6712
10.676 5.741 1.1309 1 6655
10.721 -4.9627 1.3815 0 10424
10.773 -5.7211 0.85298 1 10640
10.796 -3.7912 0.80011 0 10064
10.798 5.4094 0.56319 1 6809
10.854 -8.7144 2.2869 0 11280
10.856 1.0855 2.0556 1 8739
10.89 -9.6587 1.0179 1 11371
10.899 -6.8001 0.89832 1 10905
10.912 4.0735 1.9137 0 7317
10.946 1.4139 0.77179 0 8548
11.113 -4.3036 1.6748 0 10171
11.209 -4.153 1.9639 1 10119
11.24 -9.627 1.7306 0 11347
11.255 -4.3588 1.4115 0 10170
11.265 -2.7108 1.9036 0 9920
11.361 -9.0694 2.3884 0 11272
11.368 -9.4047 2.424 0 11311
-9.0888 3.1011 -1.5778 0 231
-5.9697 6.4107 -1.6504 2 2934
-1.7713 9.776 -1.8719 0 4837
-1.7377 8.7279 -1.8916 0 4828
-0.65979 -0.67423 -0.15499 2 13635
0.41478 5.0668 -1.8503 0 4899
3.964 9.841 -1.9989 1 5070
5.8615 3.6513 -1.9802 0 6251
