VERSION .7
FIELDS x y z intensity index
SIZE 8 8 8 8 8
TYPE F F F F F
COUNT 1 1 1 1 1
WIDTH 705
HEIGHT 1
VIEWPOINT 0 0 0 1 0 0 0
POINTS 705
DATA ascii
-4.2729 0.59444 0.81282 0 1381
-4.151 2.7642 0.81936 2 4296
-4.1295 2.0905 0.6505 0 3246
-3.8968 -0.19536 0.64102 1 509
-3.8745 0.4826 0.27303 1 1321
-3.7477 2.8882 0.66497 0 4959
-3.712 -2.8648 0.21866 0 20733
-3.5626 -0.054101 0.082723 0 666
-3.3816 1.5783 0.34816 1 2995
-3.2045 0.43668 0.22615 0 1369
-3.1136 0.17844 0.36471 0 1007
-3.0251 3.9282 0 2 7515
-2.5983 3.067 -0.18745 2 7060
-2.2947 -3.0763 0.44881 0 19951
-1.6947 -3.7886 0.68188 0 19444
-1.2904 -3.1762 0.15987 0 19370
-1.219 3.2602 -1.1761 0 9894
-1.1842 3.0593 0.15298 0 9821
-0.90212 4.3524 -1.2745 0 10597
-0.89163 3.8498 -0.18428 0 10512
-0.8436 -3.0133 -0.07265 0 19241
-0.79973 3.0098 0.51165 0 10392
-0.78286 4.734 0.33553 0 10727
-0.76931 4.0598 0.3855 0 10661
-0.52406 -4.4678 0.41969 0 19200
-0.4595 3.617 0.17003 0 10789
-0.13093 4.7468 -1.3616 0 10839
0.083212 -4.2186 0.69323 0 19142
0.17279 3.2323 -0.84738 0 10849
0.28527 -4.3178 0.40371 0 19124
0.30522 3.5823 -1.3086 0 10856
0.37915 3.3124 0 1 10863
0.44494 3.8871 0.27358 0 10864
0.60874 4.1424 -1.0961 0 10883
0.76095 4.7828 0.56635 0 10888
0.78697 -4.6578 0.55241 0 19116
0.80527 3.8379 -0.55113 1 10903
0.96497 -3.5419 0.42929 0 19112
1.1096 4.2875 0.41318 0 10946
1.1884 3.6252 0.088572 1 11017
1.3317 3.0922 0.63433 0 11114
1.4012 4.7854 0.4652 0 10979
1.5735 3.5144 -0.26926 0 11131
1.8131 2.9287 0.40281 0 11404
2.1121 -2.3367 0.51749 0 18663
2.1727 2.793 -0.58136 0 11697
2.2556 -3.0887 0.26745 0 18904
2.3919 -2.0501 0.22029 0 18447
2.3921 4.0707 0.44049 0 11320
2.5102 -3.5903 0.10171 0 18948
2.5545 1.64 -0.87046 1 13051
2.6236 -2.1451 0.39631 0 18402
2.6282 -3.0298 0.093122 0 18705
2.6847 -3.2257 -0.58982 0 18744
2.6974 -3.1449 0.5823 0 18718
2.7077 -3.5339 -1.1655 0 18849
2.8407 -1.0542 0 0 17241
2.9039 3.2003 0.30219 0 11971
3.0171 -0.024223 -0.07005 0 16524
3.1101 -1.1026 0.54213 0 17205
3.1109 3.551 0.88947 0 11911
3.2332 -2.5516 0.67669 0 18368
3.2747 2.931 -0.10203 0 12298
3.3012 1.7104 0 0 13531
3.3045 -2.325 0.4725 1 18207
3.3588 -0.037519 -0.47208 0 16536
3.5139 -2.5325 0.30288 0 18240
3.6413 -2.562 0.73149 1 18208
3.6564 2.9609 0.77299 0 12492
3.7037 -2.081 0.59705 0 17857
3.7278 1.7701 -0.67799 1 13712
3.7812 -0.15121 0.44253 0 16668
4.0094 -2.2069 0.75191 1 17825
4.9144 -0.84356 0.93946 0 16904
0.18133 2.2786 -1.1482 0 10855
1.6515 1.3531 0.30006 0 12467
-14.946 0.33656 2.4561 1 845
-14.905 0.24976 2.0951 0 818
-14.483 0.073302 1.3512 0 762
-14.305 1.3623 2.3608 1 1184
-14.269 -2.3853 1.3497 0 66
-14.265 0.7351 2.0074 0 980
-13.952 4.0613 1.6993 0 1948
-13.92 0.75633 2.6266 0 996
-13.857 4.5614 1.706 0 2154
-13.841 4.4252 2.3874 2 2105
-13.829 0.95488 1.2932 0 1060
-13.766 3.5756 1.6633 0 1809
-13.707 -1.6029 1.6138 1 232
-13.696 0.62673 1.2791 2 949
-13.649 -1.396 2.2541 1 295
-13.641 4.095 1.3287 2 1996
-13.521 1.9196 1.5971 0 1392
-13.477 -1.1838 0.94604 2 351
-13.458 0.45822 1.5748 0 896
-13.424 1.7102 0.94632 1 1334
-13.401 -2.3243 2.5625 2 53
-13.393 3.0256 2.5869 0 1673
-13.383 4.2323 2.306 1 2089
-13.38 -0.70355 0.31107 1 492
-13.366 4.741 2.33 1 2312
-13.363 -2.3178 1.9061 0 51
-13.311 -1.5213 0.62478 1 242
-13.262 4.7509 1.3142 2 2326
-13.259 0.14348 1.5506 1 789
-13.225 -1.2384 0.30838 1 325
-13.221 0.60497 2.1744 2 952
-13.213 -0.62078 2.4921 0 523
-13.194 -0.54376 2.1695 2 550
-13.117 -1.3417 0.92204 2 291
-13.065 1.4747 0.91939 1 1266
-13.022 -0.30916 0 0 626
-13.017 -1.4072 2.151 1 270
-13.008 -0.11806 0.90962 1 696
-12.988 1.6546 1.2215 0 1335
-12.957 1.3847 2.4551 0 1242
-12.95 -0.081371 1.8201 1 710
-12.946 -1.4796 2.4551 1 248
-12.941 -1.5134 1.2156 1 231
-12.931 -0.30699 2.437 0 632
-12.911 3.5176 1.2485 0 1862
-12.908 -0.081103 1.5095 2 709
-12.887 -1.6188 0.60568 1 199
-12.849 1.0383 0.90139 2 1112
-12.816 -1.2769 1.8101 2 304
-12.803 -1.2757 0.89972 1 302
-12.802 5.3974 2.6177 1 2717
-12.798 0.10275 2.4114 1 778
-12.797 5.5271 1.3005 1 2776
-12.778 6.1441 1.3228 0 3083
-12.772 -2.0594 2.1254 1 90
-12.711 1.1724 1.7939 0 1169
-12.651 -1.7398 1.1914 0 161
-12.646 3.0126 1.2128 0 1718
-12.632 5.5874 0.64416 2 2838
-12.612 6.1102 0.97994 1 3103
-12.597 7.6654 2.4227 1 3923
-12.595 -0.043965 0.88075 2 721
-12.586 3.5426 1.2199 1 1903
-12.583 -1.5495 0.59124 2 209
-12.565 1.6408 1.4819 0 1347
-12.564 0.94029 0.88102 1 1086
-12.541 4.6965 1.2494 1 2422
-12.533 4.49 1.5569 0 2328
-12.526 -0.95286 0.29167 1 396
-12.512 -0.88153 2.3633 2 427
-12.511 1.7761 0.58928 1 1390
-12.5 1.3756 0.87935 1 1252
-12.473 8.306 0.69884 1 4286
-12.46 2.5509 1.1866 0 1598
-12.456 3.1982 0.59972 1 1794
-12.422 6.469 1.3066 0 3338
-12.419 8.2138 1.0412 1 4261
-12.416 -0.18855 2.3396 2 673
-12.36 4.7965 1.5504 0 2502
-12.356 8.3277 0.34593 2 4340
-12.355 3.2482 0.8933 1 1823
-12.354 2.8681 1.1833 2 1696
-12.342 0.67055 1.4454 0 993
-12.318 2.3387 0.58472 1 1543
-12.266 -0.2912 1.7244 0 630
-12.215 4.7772 0.91716 1 2519
-12.151 1.3372 2.0083 2 1256
-12.103 5.6924 0.31051 2 3011
-12.093 6.9368 1.9593 0 3689
-12.083 1.6101 0.85242 1 1358
-12.066 1.5029 1.1344 1 1322
-12.034 3.5783 1.4681 0 1981
-12.007 3.2712 0.28893 1 1860
-12.006 0.23471 1.6876 0 830
-11.944 -9.0563 1.0482 1 20758
-11.921 4.0003 1.4705 0 2191
-11.899 4.7351 1.1948 0 2561
-11.896 5.3413 0.91186 2 2882
-11.895 5.8454 1.8627 1 3154
-11.884 -8.6405 2.414 1 20825
-11.859 -8.1049 0.33349 1 20900
-11.788 3.9557 1.16 2 2189
-11.756 7.1056 0.96055 1 3890
-11.733 -2.1387 1.6762 0 26
-11.722 4.467 0.29125 1 2458
-11.69 0.66993 1.6456 0 1008
-11.687 -0.31419 0.27143 0 613
-11.67 0.66881 0.54512 1 1004
-11.641 -9.0424 0.68739 1 20724
-11.62 5.5053 0.29854 1 3033
-11.571 3.6995 0 0 2098
-11.55 3.8757 0.28285 1 2187
-11.545 -0.81341 0 1 419
-11.512 3.6032 0.8435 1 2064
-11.506 -9.0969 2.0614 0 20699
-11.494 5.1245 1.4716 0 2866
-11.458 -9.5599 1.745 1 20618
-11.4 3.8255 1.9756 1 2193
-11.338 1.1137 0.26451 0 1193
-11.332 8.9432 0 0 5066
-11.322 0.71631 0.2634 0 1033
-11.281 5.9204 0.2958 1 3357
-11.264 4.2922 1.4096 0 2463
-11.226 4.7329 1.1366 1 2709
-11.184 -9.3847 0.33897 1 20606
-11.167 6.406 1.5055 1 3687
-11.158 2.7242 1.8871 0 1747
-11.151 3.0673 1.9001 1 1878
-11.116 0.47559 1.038 0 935
-11.116 6.3763 2.4144 1 3693
-11.109 -1.7594 1.0493 0 95
-11.093 7.6671 0.94297 1 4449
-11.092 -0.038717 0.51726 2 720
-11.066 -1.0675 1.0372 2 315
-11.059 -1.0669 1.5615 1 317
-11.001 -8.966 0.3295 1 20650
-10.946 4.6552 1.9542 1 2735
-10.922 2.3037 0.78057 0 1619
-10.892 5.3147 1.1307 0 3127
-10.888 1.7089 0.77067 0 1436
-10.866 2.2918 0.25783 1 1618
-10.847 9.3034 0 0 5471
-10.812 -0.97829 1.7837 2 342
-10.766 1.4672 0 2 1367
-10.724 6.613 2.07 1 3978
-10.714 4.5171 1.6342 2 2713
-10.707 9.2913 2.671 2 5543
-10.676 3.8604 0.79383 0 2344
-10.641 0.23963 0.7443 0 841
-10.622 -1.871 -0.2504 0 37
-10.559 5.1157 1.9276 0 3110
-10.551 8.8939 2.5999 0 5397
-10.533 -1.1684 1.9967 1 261
-10.523 -1.8859 0.24822 0 31
-10.498 4.3912 -0.26419 0 2682
-10.485 -1.879 0.74486 0 32
-10.461 4.7341 0 0 2899
-10.427 5.3886 -0.27249 0 3306
-10.398 -1.0635 0 0 288
-10.388 8.1573 0.30666 1 5038
-10.379 9.0067 0.31906 1 5530
-10.354 -0.72944 0.24097 0 420
-10.316 9.3774 1.3007 0 5758
-10.225 9.7403 2.6606 0 6006
-10.164 -0.15434 -0.47403 2 663
-10.131 9.2642 2.5866 0 5794
-10.126 7.441 0 0 4724
-10.032 -7.3797 0.87084 1 20802
-10.021 1.8122 0 1 1512
-10.018 6.4611 0.83359 0 4153
-9.9823 6.8992 2.2863 0 4459
-9.9412 4.7438 -0.25574 0 3054
-9.9104 -7.6486 -0.29065 0 20731
-9.9088 -6.8586 -0.56198 1 20885
-9.8962 5.0098 0 0 3236
-9.7312 2.7683 -0.23489 0 1915
-9.6926 6.1701 2.1648 2 4110
-9.6783 0.66829 0.22524 1 1057
-9.6546 7.2252 -0.27997 0 4805
-9.6171 1.5387 0.45419 0 1446
-9.5999 1.1651 0.67622 2 1307
-9.5912 7.5313 -0.28313 0 5034
-9.5884 3.3109 0.94638 0 2247
-9.5361 6.3501 0.266 0 4284
-9.5319 6.6298 1.3578 0 4479
-9.5261 6.4206 2.1644 1 4353
-9.4843 4.6279 -0.24501 2 3119
-9.4747 5.3605 0 2 3630
-9.454 3.0481 1.8715 0 2122
-9.4353 4.4701 0.97406 0 3039
-9.41 7.9746 2.0265 1 5424
-9.4029 5.9488 1.5637 0 4081
-9.3928 4.1879 1.6896 0 2869
-9.3644 3.1715 1.3895 1 2211
-9.295 6.7458 0.26665 0 4674
-9.291 4.1717 1.191 0 2886
-9.2824 -7.1639 0.81992 0 20734
-9.2507 5.776 1.7918 0 4030
-9.1282 4.1311 0.70063 0 2905
-9.1161 -7.5603 1.9458 1 20629
-9.0952 -10.507 -0.64807 0 20155
-9.0859 0.46822 -1.0639 1 969
-9.0539 -7.7301 0.83247 0 20582
-9.0363 4.0573 -0.22997 2 2877
-9.0302 4.2147 0.23137 0 2990
-9.0148 -5.9351 1.0069 0 20951
-8.9995 -10.906 0.98873 1 20086
-8.9893 -1.5834 0.63827 0 39
-8.9842 3.1621 1.7945 0 2293
-8.9413 -7.1531 2.1574 0 20683
-8.9248 4.071 1.8482 0 2935
-8.8747 5.7964 1.7415 0 4216
-8.843 -10.281 -0.94827 0 20146
-8.8375 2.7949 1.3027 0 2087
-8.8375 5.5566 -0.24237 0 4042
-8.8215 -9.2344 -0.89302 0 20307
-8.7929 -9.2044 2.0914 0 20314
-8.7808 -10.266 1.2604 0 20140
-8.685 -8.0932 1.6684 0 20436
-8.6663 -5.7775 1.4638 0 20937
-8.5614 -12.277 -1.0466 2 19861
-8.5385 -7.6827 1.8871 0 20492
-8.5091 12.027 2.4205 1 7889
-8.4873 -8.2882 1.949 1 20394
-8.4751 -0.76682 -0.19757 0 335
-8.4552 -5.6368 0.94806 0 20935
-8.4451 -9.3661 -0.88186 0 20214
-8.4349 -10.654 1.9097 0 20030
-8.4087 11.599 1.6754 0 7782
-8.4073 7.0421 1.8018 0 5368
-8.3616 -5.9313 1.9315 0 20861
-8.3498 -10.733 2.5621 0 20010
-8.3395 6.6669 1.7541 0 5134
-8.3214 -7.4428 1.8342 1 20502
-8.2936 -10.475 1.5625 2 20029
-8.2778 -5.9067 -0.7111 2 20843
-8.259 6.253 1.7019 2 4877
-8.2547 -9.713 -0.89135 0 20127
-8.2476 -8.9943 2.2992 0 20252
-8.2077 -11.477 1.65 2 19898
-8.0856 -10.394 1.8507 2 20008
-8.038 -10.776 1.2542 0 19950
-8.0104 -11.921 1.6795 2 19820
-7.9945 -5.7743 1.6202 2 20832
-7.9376 -9.7882 1.7711 0 20060
-7.9124 6.59 0.96069 1 5333
-7.9082 -11.619 1.3113 2 19835
-7.9077 -8.1373 1.3269 0 20337
-7.8828 -8.016 0.78616 0 20350
-7.8826 -5.353 1.7952 0 20916
-7.8791 -8.3904 0.80485 0 20284
-7.8735 2.9767 0.78531 0 2442
-7.8596 -0.62271 -0.922 1 381
-7.8378 -11.743 0.65841 1 19812
-7.8374 -10.442 2.4599 0 19961
-7.7675 6.3916 1.6527 1 5278
-7.7674 -1.392 1.4868 2 35
-7.7374 -12.354 1.7046 0 19729
-7.7118 -9.5608 2.0181 1 20051
-7.6817 12.081 1.6742 0 8331
-7.673 -9.1866 1.9665 0 20107
-7.6433 -8.1393 1.0417 0 20285
-7.6133 -7.3495 1.2375 0 20403
-7.5886 12.244 2.3666 1 8434
-7.5605 12.943 1.7529 0 8659
-7.5151 5.4221 1.3024 0 4654
-7.4774 -8.1032 2.0774 0 20260
-7.458 -8.7198 1.8851 0 20143
-7.4399 5.1747 1.4889 0 4483
-7.4199 -12.146 2.3384 0 19700
-7.4042 -5.7848 1.5437 1 20718
-7.3975 -9.5094 1.4089 0 20007
-7.3924 0.96536 -0.87183 1 1338
-7.3146 -7.3942 0.97035 2 20357
-7.3132 -7.7877 1.2493 1 20286
-7.2704 -9.568 1.9743 1 19976
-7.2508 11.93 1.9621 0 8511
-7.2507 12.173 2.6695 0 8590
-7.2318 -10.762 2.1303 0 19822
-7.1952 -10.249 1.4644 1 19872
-7.1438 -6.5027 1.1297 1 20470
-7.1357 -12.736 2.7506 0 19632
-7.1337 -11.241 2.1873 0 19751
-7.0903 -10.688 1.8026 0 19807
-7.0848 6.0424 0.86873 1 5448
-7.067 -5.7905 0.85238 2 20643
-7.0488 12.388 2.3417 2 8761
-7.0426 2.4981 1.0502 2 2310
-7.021 -12.205 2.6529 1 19651
-6.9849 -6.0356 1.2974 2 20566
-6.9607 -8.6295 -0.77527 1 20044
-6.9189 4.4624 1.5512 1 4163
-6.9027 -9.7744 1.1164 2 19880
-6.8791 -12.198 1.9682 0 19634
-6.8703 -12.099 2.2859 1 19639
-6.8662 6.7333 1.8119 1 6152
-6.8628 -6.7018 0.89492 0 20392
-6.8539 -10.135 0.57055 1 19826
-6.8223 6.2013 0.21405 0 5754
-6.8119 -4.8321 0.77918 2 20858
-6.7706 11.661 1.5769 0 8684
-6.758 6.1085 -0.2115 2 5723
-6.7552 12.288 1.9707 0 8886
-6.7058 10.752 2.082 0 8409
-6.6986 6.569 1.0972 1 6147
-6.6983 3.8424 -1.0853 2 3670
-6.6682 -10.113 1.1301 1 19797
-6.6152 5.2884 0.79014 2 5128
-6.5926 2.1484 -0.97449 2 2124
-6.5397 -10.502 2.0327 1 19721
-6.5366 -9.4895 0.26753 0 19847
-6.5298 11.032 1.8017 0 8611
-6.5279 2.1488 -1.4608 2 2157
-6.5262 -10.088 0.56031 1 19774
-6.5237 -5.2527 0.58568 0 20668
-6.4507 13.433 0 0 9297
-6.4217 -4.525 1.4801 0 20867
-6.3419 -10.185 1.1193 0 19718
-6.3138 -6.3469 1.6867 0 20366
-6.3111 11.325 1.8221 1 8834
-6.2779 3.4101 1.3461 1 3490
-6.2566 11.077 2.0901 2 8786
-6.2249 -9.5599 1.6033 1 19783
-6.2234 -11.424 2.451 2 19613
-6.2152 -5.1857 1.1376 0 20619
-6.2137 -4.301 1.4238 1 20890
-6.2077 1.807 1.0622 0 1950
-6.1886 -11.36 0.30035 1 19610
-6.1569 13.623 0.34709 1 9456
-6.1372 -9.0749 1.2811 0 19829
-6.0208 -4.4845 0.70041 0 20785
-5.9997 -9.2742 2.0811 0 19777
-5.9683 -9.4628 1.3083 0 19739
-5.9465 -5.6371 0.19024 0 20416
-5.9358 -4.9227 0.90179 0 20627
-5.8774 3.3933 1.2787 0 3721
-5.8766 3.5984 -1.2983 2 3951
-5.8655 -8.9497 1.758 1 19792
-5.8161 11.182 2.3748 0 9083
-5.7834 0.85712 0.54546 0 1409
-5.7412 6.7031 -1.45 2 6992
-5.7276 -3.8663 1.302 2 20923
-5.7033 3.7478 1.1212 1 4243
-5.6096 -9.1289 1.5059 0 19706
-5.5409 -9.3804 1.0164 0 19669
-5.5378 -8.7803 1.7055 0 19740
-5.5307 4.9433 0.51871 0 5673
-5.5165 -4.6289 1.0121 0 20610
-5.4137 -6.5954 0.39792 0 20076
-5.3907 -9.826 1.3106 0 19616
-5.3683 -10.968 2.3007 0 19515
-5.3077 0.77052 -0.75376 1 1393
-5.2892 -10.961 0.85103 1 19498
-5.2883 -10.634 0.27574 0 19523
-5.2206 -8.3353 0.91759 0 19728
-5.2002 -9.7432 1.0304 1 19591
-5.1273 6.091 0.93106 0 7102
-5.1145 -4.7112 1.3101 0 20455
-5.0652 -5.3938 1.0399 1 20287
-5.042 -10.927 1.4073 0 19465
-5.0267 1.1356 0.36036 0 1671
-5.0057 -11.102 0.85159 1 19447
-4.9904 4.0124 1.2065 1 5164
-4.9748 1.1852 0.96353 0 1720
-4.9673 -11.284 0.28624 1 19434
-4.7938 -7.5539 1.6856 1 19752
-4.7931 -6.6239 1.5405 2 19916
-4.7625 -14.127 2.4493 0 19301
-4.7388 -11.29 2.0116 1 19404
-4.6234 -10.173 0.78141 0 19453
-4.6051 2.8021 0.50292 0 3918
-4.3704 -5.4532 0.81724 0 20041
-4.2189 -11.725 2.0473 0 19318
-4.1932 13.986 -1.3622 1 10241
-4.013 12.704 1.558 0 10177
-3.9973 -3.6821 0.38003 1 20450
-3.9576 -5.9297 0.66511 0 19814
-3.7276 12.982 0.9445 1 10298
-3.717 5.6264 1.2705 0 8178
-3.5684 7.3228 0 0 9255
-3.5131 11.469 1.9707 0 10224
-3.226 5.4833 -1.3523 0 8636
-2.9451 5.176 1.122 0 8763
-2.939 -6.0472 0.47016 0 19507
-2.5924 -5.2965 0.96883 0 19514
-2.3021 7.4416 1.2798 0 10209
-2.1817 -6.7305 0.66009 0 19282
-1.9798 -5.3579 0 0 19326
-1.7508 -5.9873 0 0 19261
-1.7455 6.1398 0.29767 0 10313
-1.7076 -7.0316 0 0 19222
-1.667 8.6729 1.451 0 10651
-1.4308 -6.1242 0.73547 0 19220
-1.4094 -5.0343 0.85891 0 19246
-1.2751 -8.3717 0.9903 0 19203
-1.273 -5.449 0.52205 1 19219
-1.1023 -5.7568 0.963 0 19205
-1.0679 5.6357 0.4011 0 10660
-0.97569 10.023 0.93951 0 10813
-0.66123 -9.8 1.6137 0 19183
-0.42993 -8.6058 1.4156 0 19179
-0.42977 5.1831 -0.73094 2 10821
-0.032883 6.9776 0.65099 0 10842
0.35416 -9.6125 1.5804 0 19135
0.57452 5.4297 0 0 10861
0.67599 6.3886 0.44923 0 10862
0.67839 5.3625 -1.1489 0 10868
0.75619 -5.8065 0.96202 0 19118
0.83483 -6.0009 0.70852 0 19117
0.86937 -9.4073 1.5521 0 19123
0.90096 6.5263 -0.15296 0 10875
1.019 6.7939 1.1287 0 10886
1.0465 7.253 -0.51243 1 10879
1.2079 7.4579 -1.4234 0 10889
1.3128 6.0876 0.72826 0 10911
1.7232 -6.1183 0.59302 1 19111
1.9259 10.381 1.7347 0 10891
2.0453 -6.4011 1.104 0 19107
2.0979 -6.9793 1.3731 0 19110
2.108 5.1835 -0.52205 0 11092
2.127 4.7108 0.60445 0 11136
2.4755 9.8047 1.6614 0 10939
2.5623 4.3604 -1.324 0 11321
2.736 4.4507 0.61095 0 11392
2.8456 7.3592 1.2963 0 11071
2.8917 11.32 1.9195 0 10943
2.9207 -4.4143 -0.37013 1 19003
3.0994 4.8167 -0.26711 0 11470
3.16 -6.024 0.63464 0 19093
3.2987 5.192 -0.57389 0 11450
3.401 -4.4644 0.39245 0 18855
3.443 -9.7932 1.7055 0 19106
3.6522 5.6757 1.2716 0 11478
3.7106 -4.2266 0.39329 0 18693
3.7155 4.3688 0.53506 2 11844
3.7308 4.1377 0.91533 0 11962
3.7644 6.2011 -0.50727 0 11365
3.8494 5.7611 0.81027 0 11524
4.0419 5.0415 -1.3735 0 11748
4.0698 5.2316 -0.15389 0 11700
4.1061 3.6315 1.0328 0 12325
4.1798 12.995 2.2428 0 11010
4.2351 3.6389 -0.52094 2 12372
4.2974 3.9131 0.95489 0 12278
4.3155 5.3521 -0.48076 1 11752
4.3418 -5.0926 0.15537 0 18721
4.4972 3.7072 0.68157 0 12455
4.5336 -3.5561 0.40291 1 18360
4.5354 -4.5465 1.0551 0 18585
4.6774 -2.5917 -0.75153 0 17828
4.7658 3.7463 0 0 12549
4.8105 2.167 -0.61699 0 13823
4.8158 3.3746 -0.54862 0 12804
5.0985 -1.6921 0.88258 0 17150
5.2225 -1.1167 -0.12399 0 16934
5.3058 -2.2184 0.94484 0 17384
5.4636 -1.6049 -0.13221 0 17057
5.5403 -2.8816 -0.58262 0 17751
5.5708 -6.1632 -0.58093 0 18659
5.6609 3.9904 0 0 12789
5.6969 -2.2085 0 0 17292
5.9131 5.9421 0.98031 0 12131
6.0867 0.49828 0.42705 1 16083
6.3127 -7.8571 1.6559 0 18797
6.328 -2.121 0 0 17153
6.4811 -9.3808 1.6024 0 18966
6.4821 5.5031 0.7933 0 12398
6.5776 1.6144 1.2761 0 15004
6.626 8.7168 1.7989 0 11675
6.6358 -4.9896 1.1668 0 18309
6.6943 -3.5564 0.88646 0 17781
6.7478 -8.9158 1.0432 0 18861
6.7701 -4.5596 1.5379 2 18136
6.8349 -7.9267 0.97648 0 18713
6.8533 -3.1001 0.35077 0 17502
6.8895 -7.7136 1.4535 1 18674
7.0588 -9.7299 0.27909 1 18910
7.083 3.7234 0 0 13503
7.1371 5.031 0.81466 0 12795
7.152 -9.975 0.85828 1 18924
7.1563 -7.2165 0.71068 0 18587
7.2547 -7.7961 1.2454 0 18643
7.2685 2.6599 -0.1797 0 14265
7.2848 -0.60788 1.0274 0 16801
7.3085 -10.074 1.1611 0 18911
7.3419 -9.3534 2.2403 0 18826
7.5548 -8.262 1.0445 1 18653
7.5679 -10.12 0.29338 1 18875
7.6274 3.2266 0.57912 0 13968
7.6652 11.612 2.2859 0 11510
7.7172 -9.1031 2.2485 2 18731
7.9027 1.8448 1.529 0 15074
7.9093 -0.82153 0.18462 0 16831
7.9512 -4.9608 0.43705 0 18020
7.9928 -3.3124 1.4215 0 17374
8.0046 -8.072 2.1418 0 18590
8.0606 -5.029 0.88637 0 18023
8.0844 5.226 0.67315 0 13033
8.0896 -9.8871 0.8933 1 18767
8.1511 6.6006 0.97852 1 12490
8.166 0.19387 0.95522 0 16388
8.1738 -5.404 1.6099 0 18107
8.1832 -7.1336 1.2695 0 18465
8.1894 -8.5518 1.1047 0 18615
8.2043 -9.7395 0.29566 1 18733
8.2156 -10.041 2.4444 0 18774
8.2433 -8.2175 0.81392 2 18577
8.2689 -0.83555 0.38757 0 16825
8.3293 11.647 1.0013 1 11597
8.3583 -9.5208 2.387 0 18697
8.3911 -9.4511 2.0764 1 18683
8.4313 1.5855 0.59991 0 15365
8.4397 2.385 1.0256 0 14770
8.456 -5.3787 1.8882 0 18056
8.471 -0.70686 1.6016 2 16803
8.4821 -7.7942 2.1704 0 18503
8.4977 5.5269 0.47273 1 13017
8.5019 -8.6244 0.84684 1 18592
8.5256 10.819 1.6108 0 11724
8.5677 2.5819 0.41729 0 14656
8.57 -4.4917 1.823 0 17769
8.5785 -4.0606 1.7882 0 17605
8.6261 4.7579 0.91907 0 13404
8.6466 -6.7385 1.5406 0 18354
8.6979 2.9289 1.2899 1 14461
8.7407 6.5914 1.2802 0 12656
8.8511 1.5846 1.6941 0 15430
8.8684 2.315 1.0718 0 14904
8.9047 -10.265 1.5892 0 18708
8.9295 -10.111 1.2585 0 18687
9.0002 3.5308 0.90198 0 14119
9.0491 -5.0139 1.6997 0 17836
9.0777 -6.0404 1.2751 0 18117
9.0967 -4.8327 1.4477 1 17782
9.1023 6.904 1.0658 0 12645
9.1628 2.7055 1.5697 0 14701
9.1811 -8.1944 1.4391 0 18482
9.192 -8.647 1.7736 1 18522
9.2155 1.733 1.7667 1 15373
9.2376 -4.5375 1.2036 0 17665
9.3455 2.1507 1.3478 1 15089
9.356 6.7205 0.5372 1 12747
9.4025 -4.3525 1.7023 1 17554
9.4186 0.96335 0.44152 0 15923
9.4373 11.428 1.7332 0 11795
9.5089 -10.045 1.6175 1 18626
9.5101 0.47511 0 0 16263
9.5286 -6.5807 1.6275 0 18174
9.5303 -7.6106 0.85284 2 18378
9.5353 -10.129 1.9551 0 18633
9.575 -4.3313 1.98 0 17509
9.575 -1.2215 1.5859 0 16879
9.5957 1.1221 1.3578 0 15831
9.6002 1.4913 0.22556 1 15584
9.6019 10.048 0.97185 1 12058
9.651 5.1078 0.76355 0 13490
9.6552 1.4137 -1.3714 0 15633
9.6581 3.4372 0.95642 0 14336
9.686 -4.9673 0.76118 0 17733
9.7026 -4.2531 1.2389 0 17450
9.7162 -3.5403 0.96478 2 17226
9.7452 -9.4934 1.2693 1 18546
9.7677 -9.0799 1.2442 0 18511
9.7704 -2.9946 1.6789 1 17092
9.7821 -4.2189 0.24733 1 17424
9.7839 1.0007 1.853 0 15931
9.7865 5.3646 1.8336 0 13420
9.7945 -2.3913 0.94062 2 16971
9.8004 -7.5938 1.7424 0 18347
9.8153 -1.5107 0.9265 2 16896
9.8436 -9.5291 2.2509 0 18543
9.8515 -0.73555 1.3884 0 16786
9.856 5.624 0.52919 2 13322
9.8812 -8.3208 0.60242 1 18429
9.8924 -4.9322 1.8161 2 17688
9.93 -7.2863 1.1491 0 18267
9.9431 -0.71447 0.93003 0 16776
9.9438 1.3957 0.23313 0 15678
9.9483 -8.3772 2.1367 0 18433
9.976 -1.8345 0.70928 0 16909
9.9873 0.49894 1.4054 0 16268
9.9987 -6.9467 1.4238 1 18186
10.018 -9.424 2.5914 1 18524
10.053 -6.896 2.0028 2 18161
10.057 -0.20013 1.6527 1 16585
10.072 2.5356 0.48437 1 14957
10.105 -3.0336 0.49201 1 17074
10.125 -8.8266 0.31186 1 18462
10.13 -4.0989 2.0589 1 17348
10.172 5.6499 0.81364 0 13388
10.233 -2.975 1.7509 0 17055
10.234 -7.5092 1.7839 0 18269
10.304 -2.3598 1.7366 0 16953
10.314 -2.901 0.74918 0 17035
10.331 0.66628 0.72393 1 16194
10.333 0.33737 0.48214 1 16345
10.335 -9.0097 0.6394 1 18463
10.349 -8.5128 2.2016 0 18410
10.491 2.8032 1.0131 0 14867
10.498 -9.539 1.3233 0 18490
10.518 -4.469 1.3364 1 17405
10.565 1.8591 2.0211 0 15451
10.57 -8.7442 2.2538 0 18415
10.643 -2.6653 0.76718 0 16981
10.661 -10.142 1.3728 0 18529
10.666 0.40602 0.9958 0 16320
10.677 0.40645 1.5017 0 16323
10.697 0.56624 1.76 1 16257
10.773 1.4814 1.7866 0 15702
10.843 -2.8486 2.1122 0 17004
10.844 -6.6815 0.89065 1 18005
10.879 -4.5843 1.3806 0 17392
10.928 -9.2576 2.353 0 18440
10.964 -7.9543 1.5841 0 18247
10.973 1.6379 1.2974 0 15626
10.998 -2.4502 1.3176 0 16946
11.043 -7.8626 0.31474 1 18222
11.162 -9.3461 0.67891 1 18423
11.166 -8.812 1.3271 2 18366
11.18 -3.0083 0 0 17011
11.201 -7.1747 1.241 0 18062
11.421 -3.0731 0.55155 1 17012
11.432 -7.4126 1.2711 1 18081
11.552 -8.4766 0.66819 1 18263
-0.13805 3.7828 -1.9013 1 10836
1.0387 3.965 -1.712 0 10949
2.3124 1.9514 -1.5198 0 12403
2.3434 3.2171 -1.9992 0 11619
4.746 3.9346 -1.9237 2 12439
