VERSION .7
FIELDS x y z intensity index
SIZE 8 8 8 8 8
TYPE F F F F F
COUNT 1 1 1 1 1
WIDTH 705
HEIGHT 1
VIEWPOINT 0 0 0 1 0 0 0
POINTS 705
DATA ascii
-3.9134 2.2466 0.42099 0 3766
-3.6814 2.1135 -1.2172 0 3765
-3.6314 -2.8249 0.6466 0 19897
-3.5699 0.31672 0.58882 0 1121
-3.2614 -3.5418 0.67666 0 19320
-3.2466 0.79204 -0.23368 1 1801
-3.2416 2.4445 0 0 4910
-3.196 1.2192 0.40002 0 2542
-3.1766 0.94277 0.5444 1 2069
-3.1478 -0.069784 0.3682 0 614
-3.0443 3.1536 0.20441 0 6391
-3.0404 -2.1993 0.43882 0 20026
-2.9956 2.5153 -0.54973 1 5385
-2.8675 2.7374 -0.27721 1 6003
-2.429 -3.5595 -0.20096 0 18864
-2.3628 2.7508 -0.33831 0 6907
-2.3426 -4.0608 0.54823 0 18692
-1.8928 -4.3159 -0.10942 0 18567
-1.8667 4.1868 -0.42767 1 9447
-1.8572 -3.2193 0.70025 1 18694
-1.6783 3.4609 -1.2997 0 9244
-1.4654 3.2867 0.50576 0 9457
-1.433 3.0234 0.23396 0 9300
-1.2629 3.8054 0.75542 0 9905
-1.2542 4.5101 0.7691 1 10066
-1.0701 2.8082 -1.0938 0 9736
-1.0623 -3.8698 0.093168 0 18414
-1.0168 -2.8446 0.56916 0 18507
-0.90339 -3.1819 0.54343 0 18425
-0.84788 3.4729 0.50241 0 10141
-0.71498 4.2498 0.30135 0 10258
-0.62655 -4.2584 0.81097 0 18358
-0.46538 4.1555 -0.195 0 10302
-0.4316 -3.0593 0.43422 0 18356
-0.24196 3.7114 -1.3537 0 10307
-0.23402 -3.9861 -0.092704 0 18324
-0.050193 3.9939 0.2793 1 10314
0.032799 3.1319 -1.0583 0 10317
0.042595 -3.9362 0.27526 0 18287
0.096364 3.8334 -0.26814 1 10318
0.26446 4.9149 -1.0462 0 10321
0.31116 4.3623 0.71852 0 10324
0.35494 -4.2447 0.39739 0 18260
0.40604 -4.1189 0.096093 0 18255
0.43949 -4.905 0.11434 2 18259
0.7666 4.7071 0.67026 0 10346
0.7845 4.5751 -0.43306 0 10348
0.99695 -3.3808 0.57909 0 18239
1.0744 -3.3543 0.16425 0 18236
1.0918 -3.9104 0 0 18240
1.1087 -4.4665 0.42935 2 18242
1.1231 4.7735 0.68919 0 10381
1.1311 3.1817 -0.55478 0 10523
1.3224 -4.1286 0.40445 0 18237
1.402 -3.2368 -0.24666 0 18228
1.4851 -4.1342 0.10199 0 18233
1.5175 4.6047 0.68139 0 10495
1.5933 4.5244 0.11137 0 10522
1.7297 4.2006 0.10547 0 10592
1.8086 3.0667 0.58493 0 10953
1.9839 3.3412 -0.54612 0 10956
2.0073 2.6609 0.077385 0 11364
2.0451 -3.6059 0.19332 0 18187
2.0868 -4.0815 0.42767 1 18212
2.1317 4.0277 0.21251 0 10818
2.1627 -4.0267 0.10612 0 18194
2.1868 -4.4344 0.5782 1 18218
2.2795 -3.3935 0.77023 1 18082
2.4876 -1.8508 0.28927 0 17457
2.5079 2.952 -1.014 2 11579
2.6109 -2.947 0.64686 2 17738
2.6946 2.9222 -0.55864 1 11750
2.6973 2.7276 0 0 11947
2.7025 -1.9613 0.46929 0 17429
2.7458 1.8647 -0.07706 0 12670
2.8109 3.9364 0.45127 0 11275
2.8269 -3.0082 -0.38513 0 17678
2.8558 -3.9481 -0.22723 0 17989
2.8698 3.1683 -0.099249 0 11712
2.9434 0.60259 0.42225 0 14519
3.1546 1.9354 0.2588 0 12849
3.1786 2.637 0.38532 0 12327
3.1806 0.17226 -0.52333 0 15301
3.1842 1.0076 -0.23354 1 13988
3.1937 -0.79864 0 0 16382
3.4152 2.8163 0.72727 0 12339
3.4843 0.36191 -0.081331 0 15081
3.4888 0.64158 -1.1069 0 14639
3.5195 -3.4755 0.57843 0 17633
3.568 1.3036 -0.26563 1 13791
3.7789 3.0253 -0.11239 0 12390
3.7805 2.6976 0.87503 0 12598
3.7857 -2.6973 0.54359 0 17409
3.8398 -2.9968 0.5696 0 17496
3.8536 2.7681 0.11016 0 12584
3.9306 1.2197 -0.19192 0 14017
3.9688 -1.1643 0.38587 1 16438
3.9746 -1.701 0.20161 0 16641
4.1744 1.0207 0.40092 0 14331
4.2167 -1.0155 -0.20227 1 16375
4.253 0.75528 0.60707 0 14676
4.2872 1.4821 0.85466 0 13869
4.7407 -0.71104 0.78758 0 16230
-0.78281 1.3641 -0.78998 1 8663
-14.932 -0.15377 1.3932 1 670
-14.786 2.1808 0.347 1 1378
-14.666 2.4226 2.8006 0 1463
-14.658 -0.36846 1.0253 1 599
-14.575 3.1113 2.0946 0 1674
-14.524 0.99017 0.338 1 1026
-14.419 -2.5606 1.3663 1 28
-14.414 0.89676 0 0 997
-14.38 -1.5317 1.6912 0 261
-14.327 0.56041 0.33289 1 889
-14.307 2.7499 2.3935 0 1585
-14.283 3.7071 0 0 1880
-14.253 -0.81432 1.3319 0 463
-14.238 4.0047 0 0 1990
-14.136 2.9763 2.7217 2 1662
-14.109 -2.0055 1.6665 0 132
-14.027 -1.2494 1.3139 0 332
-13.687 4.3233 2.7043 0 2174
-13.644 0.49076 0.95469 1 878
-13.614 3.4071 0.32583 1 1832
-13.59 5.315 1.3614 2 2602
-13.573 0.21323 1.2665 0 787
-13.542 5.0711 2.0322 0 2506
-13.5 -2.2421 2.2483 2 61
-13.42 0.40767 0 0 851
-13.393 5.8789 0.68207 1 2899
-13.358 -1.4228 0.93934 1 259
-13.31 4.8548 0.99068 1 2445
-13.306 -2.2864 1.2596 2 41
-13.298 0.59455 1.8708 0 919
-13.297 4.5034 2.6451 0 2299
-13.252 6.1907 2.7558 2 3097
-13.234 -2.4719 0.94143 1 10
-13.232 -1.2182 0.30852 1 316
-13.217 3.7176 2.2557 1 1997
-13.193 0.82079 1.2332 0 1001
-13.056 0.054689 0.30313 1 733
-13.027 0.77622 0 0 982
-13.018 -0.32726 0.30234 1 598
-13.013 5.4009 0.98524 1 2746
-13 5.6581 -0.32918 1 2873
-12.986 5.0394 1.9576 1 2584
-12.908 4.4977 2.5755 0 2360
-12.846 2.1635 2.4544 2 1476
-12.833 5.3261 -0.32258 0 2741
-12.812 5.8467 0.65673 1 3016
-12.8 6.5781 2.3644 0 3382
-12.783 6.196 0.99333 1 3194
-12.766 1.4681 0.8986 1 1235
-12.73 -2.3777 1.2082 0 11
-12.698 1.9861 0.59934 1 1419
-12.661 4.491 1.888 0 2393
-12.647 1.269 0.59273 1 1168
-12.631 0.090389 2.3799 0 751
-12.601 5.4426 1.6052 0 2862
-12.598 0.59851 0 1 928
-12.587 0.41756 1.4728 1 869
-12.528 -0.27773 0.29092 1 610
-12.487 4.9265 1.8866 0 2626
-12.442 1.3605 -0.2906 0 1204
-12.429 3.6157 0.30053 1 2034
-12.419 7.0777 1.3336 0 3742
-12.414 2.4647 0 0 1605
-12.377 4.0716 1.5237 1 2238
-12.372 0.051823 1.1543 0 735
-12.37 -0.12739 -0.28721 1 665
-12.349 2.5619 1.7725 0 1649
-12.311 6.6484 2.6362 0 3550
-12.304 5.8319 1.9136 0 3136
-12.278 3.8783 0.60046 1 2165
-12.273 5.1362 0 1 2763
-12.256 6.0733 -0.31757 0 3257
-12.235 3.7897 1.195 0 2131
-12.191 8.7019 0.69847 1 4681
-12.189 3.6593 1.7887 0 2082
-12.179 1.1855 0.85563 1 1156
-12.164 5.091 1.2303 2 2770
-12.163 -0.729 2.0019 2 453
-12.149 3.6056 -0.29422 2 2063
-12.144 -8.4123 1.7276 0 20102
-12.122 4.8655 1.8357 0 2665
-12.11 8.7498 0 0 4732
-12.056 -2.141 1.4319 0 29
-12.05 3.4258 0 2 2007
-12.046 -0.15979 0.27969 1 653
-12.043 -8.1903 2.744 0 20136
-12.029 8.9075 0.34751 2 4833
-11.986 8.8204 1.3884 2 4813
-11.953 8.8998 1.7427 0 4864
-11.938 -0.85363 1.3996 0 404
-11.927 -0.020817 0.83401 0 708
-11.926 4.1928 2.3818 0 2379
-11.921 5.2725 0.30262 1 2921
-11.91 5.2282 2.4507 0 2911
-11.898 1.5812 0.55975 1 1315
-11.871 -0.71154 0.27612 1 449
-11.862 3.0059 1.431 0 1852
-11.85 0.80782 0.55388 1 1027
-11.836 -8.0921 2.3556 1 20125
-11.835 0.49603 1.3852 0 905
-11.808 -2.097 0.27844 1 26
-11.767 0.35745 1.6545 0 857
-11.698 5.2597 2.1072 2 2979
-11.695 -1.318 0.54885 1 235
-11.695 4.4193 2.0541 2 2527
-11.694 0.66199 0.27194 2 968
-11.643 4.5182 0.28995 1 2576
-11.604 8.4865 1.6812 0 4790
-11.587 -1.0321 0.27008 0 329
-11.545 -8.299 1.9982 0 20038
-11.478 5.773 1.5025 1 3311
-11.473 6.1079 2.4488 0 3499
-11.391 1.5786 0 2 1338
-11.376 -0.64994 0.79676 0 462
-11.366 4.2563 0.28178 1 2500
-11.358 6.2158 1.5141 0 3593
-11.349 -8.9308 1.6888 0 19872
-11.349 6.1669 0 0 3561
-11.348 -7.5196 1.592 1 20176
-11.343 5.7896 2.0923 1 3359
-11.283 -0.053171 1.0527 0 696
-11.283 3.2822 1.6514 0 2038
-11.279 -1.533 1.3311 0 152
-11.226 1.0928 1.5852 0 1159
-11.222 -9.3766 2.4026 1 19770
-11.204 -8.1998 2.6158 0 20007
-11.173 7.0769 0.92483 1 4163
-11.172 1.1526 0.52378 1 1182
-11.151 7.3414 -0.30996 0 4317
-11.136 -0.081634 1.5651 0 685
-11.129 7.0952 1.5434 1 4195
-11.109 9.7151 1.032 1 5594
-11.103 5.8265 1.4663 0 3446
-11.09 -9.2074 2.0258 0 19780
-11.06 -9.078 2.3507 2 19801
-11.016 5.579 0 0 3325
-10.989 -8.6478 2.6347 0 19875
-10.963 -7.0436 2.4551 0 20219
-10.945 1.3556 -0.25606 0 1274
-10.898 0.1712 1.2746 0 788
-10.894 -8.7277 2.2934 1 19843
-10.863 1.7945 1.0272 2 1459
-10.854 0.61444 0.76021 0 970
-10.83 4.2028 1.3585 0 2582
-10.748 -0.82887 1.771 1 382
-10.706 1.9939 0.50785 1 1553
-10.666 -9.8977 2.3906 1 19560
-10.664 -7.3404 2.127 2 20115
-10.662 -9.0613 2.2989 1 19734
-10.652 -9.3777 2.3316 1 19662
-10.651 0.60292 0.99524 0 971
-10.632 -9.3599 2.6688 0 19663
-10.631 8.0165 0.30912 1 4912
-10.615 8.249 -1.2542 0 5043
-10.56 -0.66065 0.73984 0 438
-10.504 0.74738 1.2314 0 1043
-10.499 -7.9229 1.8485 2 19953
-10.481 1.6714 0.99023 2 1433
-10.388 8.4154 -0.93488 0 5236
-10.372 3.5451 0.76648 0 2310
-10.365 1.8369 1.231 0 1515
-10.277 -10.23 2.7321 0 19467
-10.275 -9.6454 1.3148 2 19538
-10.269 -0.28505 0.23851 0 583
-10.241 -10.432 1.3638 0 19434
-10.241 0.61024 0.95716 0 986
-10.214 3.4594 -0.50291 2 2285
-10.15 -0.34201 -0.23578 2 556
-10.123 -0.57836 0.2354 1 461
-10.118 -8.0076 2.1199 1 19863
-10.11 -10.299 1.6877 0 19435
-10.086 0.33458 -0.23429 2 865
-10.056 -7.4028 2.0515 1 19996
-10.047 -9.8248 1.6433 0 19484
-10.012 0.62287 -0.46779 1 995
-9.8661 4.5025 -1.0118 1 3008
-9.7893 -7.6565 1.7466 0 19885
-9.7803 4.8125 -0.50832 2 3232
-9.7043 -8.1544 1.7814 1 19757
-9.7025 -11.368 -0.69698 0 19194
-9.6968 -10.649 2.7136 0 19300
-9.6877 3.4059 -0.71807 2 2365
-9.6745 4.0787 -0.24376 1 2785
-9.6469 -11.303 -0.34501 1 19195
-9.615 4.0893 -0.73063 1 2806
-9.5952 -7.152 2.2548 0 19976
-9.5894 8.0951 -0.87754 0 5419
-9.5648 2.131 -0.22751 0 1711
-9.5195 3.6943 -0.23708 2 2574
-9.5161 -6.1139 1.3227 0 20217
-9.3916 5.2445 1.2579 0 3667
-9.3744 0.85974 -0.439 1 1127
-9.3717 2.636 -0.454 1 1988
-9.2836 -11.338 -0.34022 0 19132
-9.2547 -11.782 -0.34784 0 19073
-9.2542 -1.0135 0.86854 1 249
-9.2129 -8.0143 1.1392 1 19685
-9.1725 -9.179 1.8237 0 19458
-9.1566 -7.2056 1.9143 2 19874
-9.1333 -7.4489 1.3782 0 19809
-9.086 -8.8853 2.3944 0 19487
-9.0759 -8.6188 2.0563 1 19521
-9.0511 -10.605 0.3237 1 19196
-9.0012 -1.0144 -0.42242 0 231
-8.8738 10.826 2.2998 0 7141
-8.8717 6.5288 -0.77025 2 4802
-8.8605 1.6502 0.84086 2 1555
-8.785 9.5871 1.5206 1 6631
-8.7459 4.82 1.6407 2 3623
-8.7035 -9.2911 1.7892 0 19352
-8.6644 10.326 0.6286 1 7026
-8.6643 0.23596 1.633 0 844
-8.664 -8.3755 1.9798 2 19502
-8.6246 8.981 -0.8707 1 6411
-8.6075 5.5599 0.71654 0 4244
-8.6037 9.4453 1.7956 0 6659
-8.5899 -1.5023 1.2256 1 36
-8.5637 9.5645 2.4188 0 6743
-8.5342 -9.6495 0.60074 1 19249
-8.517 -9.5794 2.1059 0 19262
-8.4905 -0.11263 -0.59377 0 649
-8.4355 4.9412 0.68361 1 3842
-8.4244 -7.6388 2.1426 0 19605
-8.362 6.9744 -1.0159 1 5364
-8.3262 2.9829 0.41245 0 2407
-8.318 6.1213 1.2077 0 4815
-8.3112 0.63951 0.77769 1 1065
-8.3071 4.6104 -0.88637 1 3629
-8.261 -0.18314 -0.38534 1 607
-8.2385 -7.0862 2.0474 0 19711
-8.193 2.6684 -0.80389 0 2212
-8.1916 0.84507 -0.38403 0 1179
-8.1771 -10.793 2.2246 0 19029
-8.1682 -1.087 0.76877 0 162
-8.167 -6.5056 1.4674 0 19853
-8.1554 5.3693 1.8397 2 4334
-8.1157 6.0097 1.6591 2 4843
-8.1078 -10.381 1.5404 1 19068
-8.0452 -10.06 1.8104 0 19100
-8.0438 -9.211 2.304 2 19238
-8.0015 0.52164 1.3174 1 1017
-7.9374 -9.6392 -0.2899 0 19142
-7.8984 -10.238 2.4362 0 19052
-7.8893 -8.7712 -0.82494 1 19271
-7.8887 -10.669 2.4999 0 18993
-7.8768 9.4944 1.1509 0 7082
-7.8543 1.136 1.1153 2 1369
-7.8157 11.799 2.6666 0 8093
-7.8081 0.30542 0.72902 1 891
-7.7669 11.726 -0.65589 1 8075
-7.7668 -9.831 1.7608 0 19084
-7.7596 1.7288 -0.92967 0 1707
-7.7537 2.9036 -0.96823 1 2495
-7.7399 -9.6196 2.3263 2 19109
-7.597 -10.211 1.7887 0 19002
-7.5656 -0.47333 1.2454 2 442
-7.5614 6.4603 0.2309 0 5482
-7.5548 1.047 1.0719 0 1344
-7.5424 6.4032 0.69184 1 5456
-7.5287 10.049 1.7647 0 7546
-7.5006 -11.264 2.2233 1 18839
-7.5 5.3201 1.0753 2 4659
-7.4815 10.045 -0.29078 0 7562
-7.4667 -8.0127 1.5393 0 19341
-7.4623 3.5657 1.5582 0 3162
-7.4345 8.1133 2.0733 1 6636
-7.3934 5.3088 1.4954 0 4718
-7.3132 -8.7713 -0.79857 1 19160
-7.2028 8.584 1.3104 0 7031
-7.1955 7.4537 1.456 1 6398
-7.1934 2.6481 0.53601 0 2464
-7.1114 -7.9509 1.4992 1 19268
-7.0872 8.9611 2.1526 2 7301
-7.0819 0.81439 1.3431 1 1240
-7.0608 3.576 -1.4912 2 3339
-7.0294 -9.0004 0.79857 0 19066
-7.0292 10.155 -0.57596 0 7882
-7.0185 -9.9679 1.4256 0 18915
-6.9531 12.79 2.7428 1 8888
-6.9241 5.3497 1.2297 0 5033
-6.8765 -10.597 0.29329 1 18801
-6.8617 8.8844 1.5777 0 7408
-6.8566 1.9286 1.342 2 1999
-6.8478 12.094 2.2833 0 8733
-6.7604 -1.3239 1.2979 1 3
-6.7558 4.6744 1.1546 2 4551
-6.7203 12.806 2.0325 0 9009
-6.712 11.696 2.2155 2 8681
-6.6662 -9.8275 2.2374 0 18862
-6.6369 -10.692 1.4716 0 18761
-6.4959 6.3126 -0.63339 0 6081
-6.4683 -7.3136 0.9109 0 19251
-6.4513 12.738 2.6903 0 9129
-6.1939 -7.4289 1.5891 0 19166
-6.1765 -8.3531 -0.72644 2 18983
-6.1489 -0.4591 -0.72106 1 384
-6.1296 -8.2897 1.2056 2 18990
-6.1226 -10.973 2.0644 0 18664
-5.9465 -10.238 1.3845 0 18698
-5.9231 -7.5404 0.6705 0 19075
-5.8824 -10.916 0.86707 1 18637
-5.8668 -0.54012 0.41198 0 318
-5.8646 5.1016 0.54354 0 5566
-5.8642 3.3666 0.79075 0 3768
-5.8589 -9.3182 0.76969 2 18770
-5.7628 -10.252 2.2159 2 18670
-5.7509 -10.231 1.6495 0 18669
-5.7402 -7.3949 0.87337 0 19059
-5.7348 6.0433 -0.97427 1 6453
-5.7303 -9.3546 1.5418 0 18750
-5.7091 -8.2604 1.6497 0 18890
-5.6693 -7.7603 0.67203 0 18968
-5.5405 -0.76979 0.52187 0 142
-5.4758 6.2947 0.97567 0 6869
-5.4532 1.2811 0.52261 1 1766
-5.4234 12.256 2.2019 0 9476
-5.4077 -6.4469 0.98403 0 19173
-5.3778 1.6329 0.39301 1 2096
-5.3695 -7.8186 0.88489 0 18879
-5.338 5.0374 1.2059 1 5963
-5.3113 10.953 0.28261 1 9243
-5.2079 -9.2049 1.4864 0 18675
-5.1064 5.5377 0.88089 0 6604
-4.7682 -8.2091 0.22041 0 18696
-4.703 4.8718 0.47351 0 6393
-4.5702 -9.3043 1.4569 0 18599
-4.2508 -9.6196 1.9815 0 18570
-3.7889 -4.2361 0.53023 0 19266
-3.5993 -5.9152 1.3046 0 18746
-3.1426 -4.6908 0.39482 0 18844
-2.798 -4.5983 0.50217 1 18743
-2.6807 8.8345 1.5168 0 9996
-2.5927 -6.4139 0.16062 0 18542
-2.5453 6.5081 -0.16224 0 9697
-2.4691 4.4215 -0.71173 1 8763
-2.3736 5.2035 0.93965 0 9402
-2.3095 -5.4383 0.55122 0 18563
-2.3047 -6.161 0 0 18518
-2.2144 5.0042 0.51053 0 9471
-2.0761 5.4481 0.6818 0 9739
-2.0126 -5.6303 0.69923 0 18505
-1.9059 -7.2702 0.35049 0 18407
-1.846 5.1557 -0.51091 1 9809
-1.791 -13.865 2.2969 0 18352
-1.7639 -7.3416 0.88298 0 18393
-1.5784 -5.271 0.90398 0 18438
-1.5079 -4.9787 0 0 18440
-1.4806 -7.8509 0.74536 0 18363
-1.2304 -7.6135 1.4531 0 18360
-1.2285 -5.6916 0.54323 0 18372
-1.195 -7.0059 0.66306 0 18361
-1.1375 7.5568 0.89366 0 10276
-1.0621 -5.291 0.50347 0 18366
-0.77249 -5.2503 0.87188 0 18357
-0.71275 -10.536 1.735 0 18327
-0.45423 -4.9912 0.94428 0 18340
-0.45091 5.0824 -1.4631 0 10305
-0.44854 -6.3665 0.14818 0 18328
-0.44101 7.0687 -0.99537 0 10308
-0.32999 5.5707 -0.12956 0 10309
-0.2126 -6.5467 1.0762 0 18310
-0.13037 -5.4511 0.38129 0 18303
-0.13011 6.9663 -0.97922 0 10311
-0.11474 6.1431 -0.71851 1 10312
-0.10541 6.71 0.62609 0 10313
0.019368 11.098 1.0354 0 10316
0.177 -12.837 2.1092 0 18285
0.32141 -5.0945 -0.11851 0 18263
0.3308 5.0335 0.82876 0 10322
0.36438 -5.7756 0.81333 0 18264
0.38527 -7.9342 1.3051 0 18271
0.55287 -10.729 1.2563 0 18269
0.63322 -9.1472 1.5064 0 18262
0.72418 -7.8212 1.2905 0 18258
0.76216 5.6002 0.26357 0 10337
0.82208 -8.3392 1.3767 0 18256
0.93493 -11.181 1.8433 0 18261
0.94779 -7.4192 0.6978 0 18251
1.0964 5.1982 1.0009 0 10362
1.1164 -9.8754 1.1622 0 18254
1.1874 8.5351 1.0077 0 10341
1.2436 -6.3269 0.60157 0 18244
1.3932 -9.0307 1.5012 0 18246
1.4219 6.377 0.60956 0 10372
1.4505 4.9798 0.97723 0 10454
1.4698 4.8376 0 0 10471
1.5297 7.6974 0.73217 0 10354
1.535 7.2779 -0.17269 0 10360
1.6729 9.0973 -0.86297 0 10350
1.6827 6.1763 1.2061 0 10429
1.7682 5.5306 0.13481 0 10486
1.9223 11.003 1.0421 0 10349
2.0704 4.9862 0.75877 0 10597
2.1393 -5.1016 0.51611 2 18229
2.3476 -7.405 0.72474 0 18238
2.3496 -6.5406 0.64839 0 18234
2.4119 6.1043 -0.61234 0 10566
2.4666 4.5963 -0.24326 0 10834
2.4968 4.6235 0.122 0 10842
2.7762 4.495 0.86799 0 11023
2.8666 -6.5676 1.1773 0 18227
2.9922 9.1709 1.5849 1 10491
3.0234 5.5568 0 0 10851
3.0352 -4.6917 0.65346 0 18113
3.078 8.2766 0.61748 0 10542
3.1102 -4.2448 -0.73957 0 17978
3.1134 -6.5039 0.67272 0 18220
3.1795 -4.9147 0.9617 0 18116
3.3711 8.912 1.5654 0 10549
3.38 3.9561 0.48545 0 11590
3.55 5.0964 -0.87289 0 11230
3.7208 -6.4265 0.3463 0 18181
4.1096 5.5823 -0.64671 0 11319
4.1613 -6.0029 0.85417 0 18038
4.3546 4.9168 1.0791 0 11671
4.3616 -2.8858 0.85924 0 17284
4.3953 5.901 0 1 11340
4.5975 6.1725 0.71805 1 11344
4.6083 3.5157 0.9523 0 12490
4.7483 -8.3722 1.5813 0 18188
4.9271 -3.3623 1.1239 0 17350
4.9801 -3.8172 0.58541 0 17485
5.0203 1.0278 0.23897 0 14517
5.1296 4.6447 0.97254 0 12172
5.2138 -2.5995 0.95716 0 16834
5.2458 6.101 1.3219 1 11608
5.2799 0.78249 -0.75014 0 14849
5.3077 -3.8521 0.15226 0 17425
5.3694 0.89178 0.63651 0 14756
5.3879 0.22959 -0.3771 1 15356
5.3976 -0.71348 0.12641 1 16178
5.4523 0.67816 0.90269 0 14993
5.573 4.3808 0.49569 0 12428
5.6037 11.633 0.29979 1 10710
5.6262 2.394 -0.14196 0 13585
5.6338 5.2831 0.90319 0 12116
5.6945 0.85919 0.53729 0 14843
5.8348 -0.26088 0.5449 0 15805
5.9079 4.2437 -0.16888 0 12581
5.9127 5.294 1.4953 0 12193
6.0753 1.6165 -0.43961 0 14218
6.1363 -9.7935 1.8988 0 18147
6.3744 -10.107 0.55723 1 18139
6.6291 -5.2035 -0.5893 0 17500
6.638 -10.807 0.29445 1 18156
6.6508 5.6803 1.0228 0 12277
6.6645 0.67226 -0.78332 0 15090
6.7331 -2.1903 0.99509 0 16465
6.7636 -3.6206 -0.89715 0 16922
6.8598 -1.8201 1.3372 0 16402
6.8953 -11.296 1.2347 0 18160
6.9057 -11.385 0.93111 1 18164
6.9068 -11.1 0.60968 1 18148
6.9127 -11.787 0.95552 1 18177
6.9189 1.0032 -0.98256 0 14865
6.9341 2.0843 1.3642 0 14068
6.9464 5.5612 -0.62223 0 12388
6.9684 -11.416 1.5641 0 18161
7.0174 -5.5083 1.6808 0 17502
7.0716 -11.816 0.31971 1 18170
7.0995 -8.5971 1.0402 0 17835
7.1308 3.2302 1.4749 0 13485
7.1343 9.9284 1.7182 0 11287
7.1447 1.3332 0 0 14621
7.1605 -9.3148 1.0961 0 17921
7.1645 -8.8822 0.53217 1 17862
7.1707 -3.5502 0.93571 0 16822
7.1725 -9.1113 0.81085 0 17893
7.2185 -10.479 1.7884 0 18047
7.251 10.218 1.169 0 11263
7.2558 -8.7334 0.79397 0 17826
7.2708 -9.404 0.83122 0 17915
7.3536 -4.0494 0.98171 1 16964
7.4073 -11.238 1.2557 0 18096
7.4353 10.166 0.88075 1 11311
7.4768 1.8739 0 0 14300
7.5013 10.769 0.91772 1 11233
7.5387 9.878 1.1593 1 11389
7.571 -1.0008 0.71248 0 16180
7.5715 -8.3942 1.8573 0 17722
7.6003 3.4429 -0.77843 0 13473
7.6418 -10.495 0.90781 1 17985
7.6451 -10.766 1.5441 0 18008
7.7071 4.1603 1.0242 0 13097
7.7278 8.7809 1.9218 1 11658
7.7914 -4.2005 0.82581 0 16935
7.795 3.2097 0 0 13637
7.8002 1.8583 1.3174 0 14360
7.8183 -0.076418 0.91434 0 15605
7.8696 -9.3026 0.56822 1 17808
8.0341 -3.9463 1.0468 0 16812
8.0681 -6.8012 -0.73788 0 17541
8.1205 10.017 1.8123 0 11487
8.1573 7.3037 1.7989 0 12192
8.1728 -8.4042 1.926 0 17660
8.1835 0.18285 1.1504 0 15459
8.197 -8.8767 0.84489 1 17698
8.2176 -8.6959 1.6815 0 17674
8.2828 -7.152 0.76523 0 17552
8.2919 -9.5826 2.082 0 17785
8.3661 -11.216 2.2989 1 17962
8.3917 -9.8707 1.5151 0 17802
8.4012 10.305 1.8685 0 11498
8.4196 -9.1178 0.28814 1 17697
8.4288 11.878 1.7032 0 11265
8.4375 7.5972 1.8654 0 12182
8.4392 9.99 1.8379 0 11570
8.4758 -9.675 0.89944 1 17758
8.5207 -6.6117 0.2504 2 17492
8.5387 10.165 0.92832 1 11552
8.5528 -10.236 2.1915 1 17823
8.608 -10.741 0.9625 1 17869
8.6113 -10.615 2.2457 0 17858
8.6362 -10.838 1.2929 0 17877
8.672 -5.1388 0.94044 1 17062
8.7226 -9.9567 2.494 0 17763
8.7504 -10.048 0.30935 1 17769
8.8004 10.733 1.9507 0 11510
8.8067 10.68 2.6081 0 11524
8.8319 5.311 1.2052 0 12884
8.8411 -8.9873 2.0713 2 17654
8.9097 -1.928 1.066 2 16346
9.0041 -4.7192 0.94843 0 16904
9.0375 1.2846 0.85163 0 14889
9.1432 -8.2673 0.57484 1 17579
9.2113 10.284 1.9404 0 11696
9.2274 -9.2661 1.5292 2 17647
9.2295 11.192 1.3534 0 11518
9.2329 -9.3269 0.91772 1 17650
9.3118 -7.6706 1.9821 0 17528
9.3155 -9.0842 2.1377 0 17626
9.3327 -4.3202 1.6896 0 16735
9.3619 11.483 1.3822 0 11494
9.3878 8.7543 1.1976 0 12126
9.4022 -11.386 1.0325 1 17834
9.4088 -2.7924 1.6125 0 16444
9.4346 10.292 2.6306 0 11748
9.4794 -9.0904 0.61248 1 17607
9.4988 -0.038131 1.7897 0 15580
9.5077 -8.4532 2.397 0 17572
9.5526 10.24 0.32514 1 11779
9.5541 -11.167 0.68534 1 17794
9.5652 -5.7428 0.78016 0 17083
9.5761 -11.461 1.3934 2 17819
9.6208 -6.0867 1.0621 0 17173
9.7638 10.97 1.7174 0 11681
9.822 -9.311 2.5499 0 17603
9.8259 -9.2013 1.2559 1 17596
9.8492 -5.6819 1.0608 1 17026
9.9164 10.028 2.317 0 11955
9.938 -10.952 1.7295 1 17716
9.9815 -9.347 2.2467 2 17599
10.025 -10.804 2.4214 1 17694
10.126 -0.42085 1.4243 0 15793
10.164 -10.57 1.0254 1 17665
10.172 -10.215 0.3347 1 17645
10.179 -5.6797 1.3631 0 16983
10.179 9.8852 0.99222 1 12037
10.19 -2.2647 1.2207 0 16354
10.215 10.212 2.7214 0 11981
10.222 -10.757 1.3845 0 17669
10.226 -10.821 2.8051 0 17676
10.235 -9.5846 1.9707 0 17598
10.248 -9.8827 1.6649 0 17614
10.267 9.0833 2.2522 0 12217
10.398 -9.9716 2.367 2 17611
10.422 -9.4233 0.3262 1 17578
10.52 -8.7682 2.5803 0 17535
10.533 -5.404 1.1045 0 16873
10.541 -10.108 1.7079 0 17609
10.588 -9.4139 2.3277 0 17571
10.589 -9.8052 1.3464 1 17590
10.606 -9.4294 0.99236 1 17569
10.612 -10.233 2.4221 1 17615
10.64 -9.0811 2.2982 0 17547
10.641 -0.47574 1.7499 0 15810
10.655 10.347 0.6926 1 12035
10.702 9.522 1.0017 1 12201
10.74 0.8 1.7694 0 15222
10.812 9.3986 1.3365 0 12246
10.897 -8.3074 1.2784 0 17479
10.961 9.6971 1.3653 0 12214
11.038 -9.6392 1.3672 0 17560
11.087 9.0297 0.99989 1 12360
11.191 -9.773 1.039 1 17559
11.246 9.894 1.3975 0 12225
11.396 -9.1107 1.7063 0 17510
13.249 -1.7136 2.1948 0 16171
14.198 2.611 2.3718 0 14645
14.381 -2.3704 -1.3598 1 16259
14.728 -2.1223 -0.34547 0 16213
-3.9279 10.211 -1.5376 2 9717
-1.5766 9.7237 -1.856 0 10265
-0.75675 -0.4797 -0.19045 2 20220
0.15676 4.275 -1.7868 0 10319
1.1709 4.2979 -1.5052 0 10428
2.255 4.6132 -1.735 0 10731
3.6043 3.2272 -1.5096 0 12188
4.8666 5.6599 -1.9541 2 11604
5.3478 1.0143 -1.6985 0 14606
13.772 0.10576 -1.6105 0 15514
