VERSION .7
FIELDS x y z intensity index
SIZE 8 8 8 8 8
TYPE F F F F F
COUNT 1 1 1 1 1
WIDTH 486
HEIGHT 1
VIEWPOINT 0 0 0 1 0 0 0
POINTS 486
DATA ascii
-4.6539 1.0122 -0.11058 0 938
-4.4869 1.0582 -0.43009 0 939
-4.2628 2.0865 -1.2425 0 1000
-4.0734 -0.10951 -0.094607 0 590
-4.0362 1.8624 0.2073 0 973
-4.0266 2.3014 -0.76197 0 1121
-3.9858 1.7001 -0.40427 0 966
-3.9241 -2.7334 0.33441 0 13324
-3.9079 -0.68204 0.46391 0 13444
-3.8519 -0.38379 -0.089872 2 261
-3.6251 0.88839 0.70321 0 942
-3.6021 2.8899 0.75872 0 1369
-3.4907 2.736 0.31014 0 1342
-3.4765 1.3997 0.34965 0 965
-3.365 -0.38458 0.39607 0 204
-3.2013 0.82433 0.5431 0 948
-3.1544 2.7027 0.29047 0 1431
-2.9604 -3.8152 0.45053 0 12818
-2.9513 3.7424 0.89799 0 1853
-2.9491 2.2022 0.60471 0 1296
-2.7917 2.1882 -1.0171 0 1343
-2.7256 2.4897 -0.78466 0 1502
-2.525 2.2927 -1.1524 0 1495
-2.5156 3.3675 -0.49155 0 1904
-2.3714 3.8774 0.74673 0 2163
-2.272 -3.4339 -0.19202 2 12696
-2.0994 2.5377 -0.38516 0 1799
-2.0871 -4.4134 0.68612 0 12375
-1.9823 2.9634 0.67173 0 2051
-1.961 2.8769 -0.99836 0 2029
-1.8547 -3.1727 0.085323 0 12595
-1.8404 2.5688 0 0 1968
-1.7522 -4.4894 0.90799 0 12189
-1.6391 -4.0609 0.20422 0 12220
-1.5802 -2.8147 0.30116 0 12562
-1.5109 2.8692 -0.8489 0 2369
-1.441 4.7757 0.46539 0 2850
-1.1509 3.893 0.66696 0 2862
-1.1416 4.3209 -0.20841 0 2907
-0.91444 4.4391 0.85392 0 2976
-0.8398 3.6904 -0.26466 1 2954
-0.83336 -4.5676 -0.21652 2 12003
-0.7873 3.5571 -0.95374 2 2961
-0.7577 3.6206 0.08588 0 2973
-0.41314 3.4493 0 0 2997
-0.25879 -4.0237 0 0 11966
-0.19455 3.1901 0 0 3013
-0.002407 -4.597 -0.21438 0 11932
0.018274 -3.272 0.2288 0 11928
0.12559 3.9095 0.64265 0 3032
0.1565 4.8716 -0.68501 0 3031
0.19761 -4.5625 0.75029 0 11913
0.35302 3.5619 -0.93703 0 3068
0.36736 3.8083 0.44741 0 3067
0.53823 3.1621 0.60434 0 3138
0.58346 -3.3225 0.31472 0 11893
0.59512 -3.2747 -0.15522 0 11892
0.59866 3.5171 -0.41721 0 3133
0.61891 -4.1611 -0.097671 1 11895
0.72796 3.9316 0.65691 0 3159
0.84629 4.2276 0.30149 0 3180
0.87725 -3.8119 0.64265 0 11891
0.9691 -3.0792 0.22573 0 11876
1.0961 4.6297 -1.2455 0 3220
1.1771 4.8434 0.46502 0 3225
1.1926 3.3401 0.33088 0 3327
1.202 -3.7081 0 0 11875
1.3224 -4.2017 0.41095 0 11877
1.3643 3.7874 -0.18773 0 3332
1.4 -4.0001 0 0 11874
1.4147 -4.5449 0 1 11878
1.5342 3.933 -0.39386 0 3393
1.671 3.381 0.61962 0 3637
1.7723 -3.6418 -0.28321 1 11825
1.8048 4.0593 0.72987 0 3507
1.8562 -2.9407 0.24317 0 11776
1.9658 2.4767 0 0 4488
2.0773 2.5717 -1.2032 0 4531
2.1177 3.1068 -0.17534 0 4127
2.312 3.7802 0.30986 0 3926
2.4033 3.9035 0 1 3939
2.4163 3.2512 0.7632 0 4331
2.5924 -2.2219 0.15922 0 11103
2.9701 1.8037 0.6547 0 6343
3.0845 -1.0802 -0.53694 0 9805
3.1316 0.20032 0 0 8954
3.2528 1.2787 -0.081145 0 7168
3.2562 1.7146 0 0 6604
3.3489 1.8639 -0.268 0 6493
3.3988 1.2897 0.42511 0 7238
3.5279 0.51593 -1.4893 0 8531
3.5799 1.9926 0.67312 0 6502
3.5956 1.9344 -0.094793 0 6562
3.7631 -0.45072 0 0 9358
3.8191 1.7898 -0.29493 0 6844
3.9192 0.57315 -0.091961 0 8532
3.9579 0.85139 0.47343 0 8096
4.1587 -0.47308 0.48946 0 9350
4.2694 0.13641 -0.2987 0 9070
4.3924 -0.56424 -0.62238 1 9369
4.499 0.56437 -0.42303 0 8637
4.9432 -0.38904 0.4626 0 9299
1.5327 0.93701 0.33846 1 6329
1.6474 -0.94922 -0.26721 0 10530
2.9279 -0.27264 0.48312 1 9320
-14.802 -1.5192 2.8036 1 257
-14.703 1.0591 2.0717 1 870
-14.567 0.20341 2.3935 1 746
-14.218 -1.084 2.6866 2 373
-14.137 -1.1226 2.33 1 358
-13.939 -1.7189 0.32607 2 164
-13.909 -0.087394 1.6266 1 678
-13.641 -0.0071409 0.63614 2 695
-13.334 0.53556 1.5606 1 812
-12.896 6.5935 2.3796 0 1039
-12.581 1.3134 2.3833 0 906
-12.504 0.57656 0.8753 1 821
-12.407 -7.9713 2.0726 0 13385
-12.397 1.2942 1.1628 0 904
-12.352 -8.2876 2.4438 0 13357
-12.211 -8.4047 1.383 0 13332
-12.182 1.4505 2.3114 0 919
-12.126 -8.5543 0.34454 1 13311
-12.116 0.34689 1.7035 1 785
-12.1 -2.3302 2.0246 2 13405
-12.069 -2.25 1.7255 0 13413
-11.744 -2.2253 1.6798 0 13409
-11.492 0.2929 1.8887 2 778
-11.129 -8.6014 2.3109 2 13233
-11.06 0.53901 1.8193 1 831
-11.045 -7.7916 0.9452 2 13313
-10.651 -8.182 0.9392 1 13236
-10.637 -0.99985 0.99673 1 291
-10.572 -7.0931 1.1877 0 13354
-10.491 -9.7416 -0.33238 0 13045
-10.325 2.4692 1.7441 0 941
-10.071 -7.8342 1.4921 0 13224
-10.013 -7.5071 1.4635 0 13256
-9.4161 1.7078 1.5722 0 934
-9.2498 -9.5351 -0.30843 1 12988
-9.1827 4.6305 1.6896 0 1027
-8.8224 -9.524 -0.90781 2 12926
-8.3534 2.3354 1.425 0 956
-7.8381 -11.559 0.32425 1 12717
-7.7835 -7.3966 1.0017 0 13029
-7.753 -11.577 2.2891 0 12709
-7.7188 -10.695 2.1669 0 12765
-7.6953 -10.347 -0.90167 0 12783
-7.5453 -12.089 -0.66456 0 12646
-7.4975 5.9787 -0.22264 0 1363
-7.1946 0.14066 0 0 756
-7.066 3.0139 -0.17835 0 967
-6.8773 2.3587 1.1945 0 961
-6.8621 2.047 0.66808 1 957
-6.7267 -7.9797 0.97369 0 12872
-6.6892 0.77751 -0.15635 0 915
-6.6881 -10.438 0.28781 1 12665
-6.6439 7.0159 1.5875 0 1663
-6.5781 -11.789 2.5436 1 12557
-6.2427 1.6856 0.15013 0 954
-6.1887 1.5361 -0.74569 1 943
-6.1725 -13.658 0 0 12330
-6.1684 -13.649 1.7516 0 12334
-6.1433 0.83934 -0.14395 0 927
-6.0575 1.5238 1.0262 0 944
-6.0262 2.0292 0.7436 0 960
-6.0171 1.8316 1.0334 0 958
-5.996 1.233 0.5711 0 937
-5.947 5.3698 1.3164 1 1487
-5.921 3.7852 0.65563 0 1173
-5.7739 -10.643 0.8467 1 12525
-5.7401 2.311 -0.72362 1 964
-5.6732 5.6219 1.3122 0 1597
-5.5806 2.4963 0.57036 0 968
-5.5631 1.7114 -0.13513 0 959
-5.5296 2.0961 -0.41352 1 963
-5.4636 3.8613 1.0992 0 1239
-5.4369 0.4403 0.38143 0 882
-5.3891 5.3405 0.70784 0 1596
-5.3241 3.602 0.59971 0 1208
-5.3087 0.93129 0.8855 0 933
-5.2981 -12.092 1.5439 0 12297
-5.2469 4.1616 0.62479 0 1357
-5.0795 1.3411 0.86313 0 951
-5.0775 -12.779 0.96152 1 12203
-5.0594 2.8531 0.67925 0 1117
-5.0573 1.3816 -0.12172 1 955
-5.0236 1.0184 0.47821 1 936
-5.0037 5.3471 1.3798 0 1677
-4.8711 2.3842 0.89101 0 1003
-4.7859 4.7976 0.63222 0 1608
-4.5666 6.3738 1.2882 1 1971
-4.4795 -5.8399 0.68666 0 12810
-4.3632 -2.9474 0.86508 0 13348
-4.0622 -9.6495 1.7201 0 12260
-4.0109 3.0125 0.46799 0 1302
-3.694 -10.632 1.8491 0 12103
-3.6333 -3.7453 0.85729 0 12992
-3.5601 8.6848 1.5421 0 2634
-3.5339 4.9053 0.56404 0 1960
-3.3945 10.681 1.8414 0 2817
-3.3893 7.1733 1.3034 0 2492
-3.3578 -5.705 0.4629 0 12603
-3.2465 4.8826 0.96332 0 2059
-3.2431 4.9711 -1.2616 0 2086
-3.2252 -3.8944 0.23581 0 12859
-2.9845 4.6045 -1.4364 0 2094
-2.9214 -5.0295 0.13504 0 12589
-2.8115 -11.875 2.2992 0 12030
-2.7948 -4.1986 0.35269 0 12702
-2.1986 9.1863 0.44049 0 2940
-1.829 -6.2467 -0.30354 0 12053
-1.7571 4.7937 0.83881 1 2730
-1.7567 6.9783 -0.16707 0 2925
-1.6593 9.2684 1.547 0 2986
-1.5972 6.1937 -0.1485 0 2916
-1.5533 7.5405 1.2649 0 2975
-1.529 -6.6227 1.1167 0 12024
-1.527 4.9027 -1.3443 1 2829
-1.3958 8.3587 1.3923 0 2989
-1.3857 -5.1716 0 0 12042
-1.2413 -5.1077 0.73873 0 12035
-1.2126 7.2619 -1.3872 0 2990
-1.1812 7.7734 1.2918 0 2995
-0.97488 6.2828 0 0 2994
-0.77677 6.1922 0.4364 0 2996
-0.74839 7.1565 1.1822 0 3000
-0.25177 -5.7434 0.94451 0 11959
-0.017608 -5.3098 0.62094 0 11936
0.021772 -8.316 0 0 11930
0.075412 8.4725 0.39512 0 3027
0.2274 11.134 1.8297 0 3030
0.23971 13.598 2.2343 0 3029
0.24495 -6.0722 0.42496 0 11915
0.35398 -8.1728 0.7632 0 11911
0.46442 -6.1478 1.0129 0 11903
0.76982 -8.0242 0.94268 0 11899
0.7937 11.322 1.8647 0 3055
0.95376 -6.1609 -0.14474 0 11894
0.97433 5.1813 0.61653 0 3164
1.0938 9.1188 0.85684 0 3081
1.107 12.259 2.0223 0 3063
1.2399 6.285 -0.59767 1 3175
1.288 9.7833 1.6212 0 3093
1.3806 4.821 0.8239 0 3252
1.4978 -5.8802 0 0 11884
1.9001 6.936 1.1815 0 3244
2.0412 -5.0649 0.89718 0 11868
2.1567 -4.9319 0.37641 0 11860
2.1697 5.2903 0 0 3435
2.2195 7.5755 0 0 3256
2.2309 5.2226 -1.2071 0 3469
2.3685 4.5229 0.83881 1 3710
2.4103 -6.7652 1.1799 0 11873
2.4434 5.4115 0.69435 0 3519
2.47 -5.6968 -0.28956 1 11862
2.5724 6.6561 1.0029 0 3387
2.6183 7.1433 1.2499 0 3345
2.6312 4.5064 -0.24335 2 3851
2.715 9.1835 0.89343 0 3258
2.8084 -4.6556 0.89328 1 11797
3.0122 -6.528 1.3546 0 11839
3.0375 5.3383 0 0 3807
3.3281 -3.887 -0.59841 0 11437
3.3622 -5.8001 1.1014 0 11810
3.5511 -13.761 2.3349 0 11883
3.5754 -4.673 -0.68808 0 11589
3.7782 -6.5626 1.2441 0 11812
3.8326 -5.9562 -0.49527 0 11764
3.8671 -7.6654 1.2066 0 11824
3.9382 -9.224 1.6478 0 11864
3.9737 -4.1278 -0.80526 0 11296
4.2571 -5.532 0.81631 0 11584
4.3462 -6.5441 -0.73292 0 11741
4.3611 -4.8012 -0.45356 0 11358
4.7195 3.3367 0.40417 0 5985
4.7514 -2.3638 -0.49511 0 10289
4.8202 2.5748 -0.63906 1 6574
4.9038 -3.9625 -0.58819 1 11039
4.9431 5.1009 1.3383 0 4966
5.0021 -4.4161 0.7803 1 11137
5.0945 -3.8543 0.59599 0 10955
5.1216 -6.4921 1.3586 0 11554
5.316 -5.5551 1.2632 0 11304
5.3314 -1.5934 0.3891 0 9680
5.4245 2.6586 0.9925 0 6763
5.4865 2.267 -0.13783 0 7076
5.5265 -0.62869 1.048 0 9352
5.5291 -6.1948 -0.97102 0 11381
5.5423 3.342 -0.6038 0 6346
5.6314 7.3522 1.7449 1 4411
5.6981 2.773 1.0411 0 6780
5.841 -1.2224 0.27829 0 9499
5.8462 -2.8451 0.60658 2 10258
5.9761 -0.26197 0.98277 0 9254
6.0268 7.0715 0.64971 0 4650
6.09 -1.4228 1.1783 1 9554
6.1155 -0.87581 0.72246 0 9395
6.1542 -1.5504 0.44379 0 9583
6.2347 0.39881 0.73059 0 8959
6.31 7.8565 1.8985 0 4526
6.351 -7.5021 0.45838 0 11453
6.4259 -2.9 -0.82444 1 10133
6.4321 11.783 2.2055 0 3756
6.4477 10.676 1.1636 0 3907
6.4681 5.8403 0.60939 0 5307
6.4919 8.4268 1.495 0 4422
6.5034 11.514 2.4914 0 3803
6.6419 6.733 0.44105 0 5005
6.6801 3.2986 1.224 0 6747
6.6909 -4.8791 1.3605 0 10896
6.6979 -2.5443 0.66845 1 9886
6.7268 -8.8431 1.5615 0 11597
6.7719 12.077 0.96822 1 3785
6.7891 -7.1742 0.46062 0 11313
6.8164 -8.2955 1.2556 0 11494
6.8188 8.69 1.8148 0 4469
6.8487 10.112 1.4282 0 4120
6.9787 8.0935 1.7558 2 4686
7.0164 -6.2998 1.5492 0 11152
7.0273 -8.3956 1.0214 1 11469
7.0294 11.346 2.5147 1 3962
7.0542 -4.2002 0.5741 1 10590
7.1683 5.4529 1.0533 2 5807
7.1858 -7.2488 0.47599 1 11267
7.1878 1.6555 -0.51578 0 8004
7.2148 -3.5626 1.516 0 10287
7.2864 7.2206 1.1996 2 5070
7.3377 5.1551 -0.2082 0 5995
7.3615 6.232 1.3555 0 5480
7.3686 9.3403 0.83192 1 4477
7.3719 -0.96791 1.4009 0 9377
7.4098 -7.0959 1.933 0 11226
7.4189 10.111 1.4665 0 4286
7.4332 -6.8712 1.4226 0 11185
7.4856 2.0717 -0.54312 1 7758
7.5262 -4.5419 0.40993 2 10608
7.5848 1.6538 0.54284 0 8078
7.59 -7.794 1.529 0 11288
7.6065 0.93127 0.53587 0 8659
7.63 -7.9732 2.0793 1 11305
7.6397 -11.873 0.32778 1 11765
7.7836 12.087 0.67043 1 4021
7.8704 -4.7796 0.42941 0 10618
7.8723 -7.6715 0.5126 1 11238
7.9031 -5.2191 0.66227 0 10734
7.9504 7.4347 1.5298 0 5214
7.9603 12.123 2.7325 0 4062
7.9629 9.3431 2.3129 0 4658
7.963 -1.3797 1.3278 1 9438
7.9849 10.811 1.8889 0 4310
8.0024 -0.4418 1.3167 0 9270
8.0063 3.3902 1.2219 0 7036
8.0557 9.3425 1.4426 0 4682
8.0737 10.541 0.92846 1 4401
8.1077 -8.2304 1.8981 0 11275
8.1402 -4.628 0.43667 0 10509
8.2022 -8.7712 0.27881 1 11324
8.2096 9.8081 1.1933 0 4614
8.2348 8.7508 1.4052 0 4898
8.2657 -0.12119 1.5575 0 9201
8.2861 -8.5536 1.6737 1 11293
8.2894 -8.3126 2.2118 1 11265
8.3184 -4.5693 1.3338 0 10469
8.3529 -4.1555 0.8704 1 10295
8.3535 -4.5261 1.7901 0 10448
8.3893 -8.9713 0.57279 1 11325
8.4067 -8.7848 1.1344 1 11302
8.4118 12.117 2.4234 1 4165
8.4151 12.121 0.68813 1 4158
8.4331 -9.2841 0.5849 1 11359
8.4653 1.6915 0.40257 2 8181
8.4678 6.3232 1.4853 0 5858
8.4766 4.005 0.65557 0 6834
8.4923 8.8619 2.3125 1 4937
8.4924 -4.9249 1.148 0 10548
8.4986 -8.6724 2.2877 0 11282
8.5037 9.6898 1.2028 0 4727
8.5296 -9.0135 2.0388 2 11317
8.5398 8.5607 1.9866 1 5044
8.5484 -3.0793 1.0625 0 9832
8.5494 -6.546 1.7691 0 10977
8.5676 -1.8445 1.2317 0 9514
8.6061 -7.247 0.26121 0 11083
8.6524 -7.458 2.1522 0 11113
8.6911 -2.9046 0.64078 1 9768
8.7109 -1.2475 0.82098 0 9394
8.7161 0.8623 0.61246 0 8783
8.7213 -6.9646 0.25913 0 11027
8.7233 5.8663 1.2293 0 6113
8.7446 7.8021 0.54652 1 5341
8.7484 7.3616 1.6069 0 5494
8.767 3.6817 1.7915 0 7054
8.769 -4.4584 0.22839 0 10329
8.7934 2.2414 0.84662 0 7884
8.8019 -5.0042 1.184 0 10513
8.8228 -11.12 0.66195 1 11542
8.838 3.236 1.5463 2 7304
8.8474 -6.7301 1.3 0 10967
8.852 -4.1805 0.91331 0 10211
8.8961 -10.951 1.3163 0 11510
8.9147 -7.7276 1.9383 0 11120
8.942 9.2856 2.1179 1 4950
8.945 9.0677 1.4895 0 5011
8.9841 -5.8947 1.0025 1 10726
8.9925 7.13 1.8855 2 5647
8.9945 0.6258 0.42046 0 8931
8.9973 -4.4761 1.4123 1 10297
9.0046 -2.7203 1.7723 2 9695
9.008 6.3686 2.0785 1 5991
9.0094 6.0221 1.7804 0 6129
9.0598 1.5389 0.6426 2 8396
9.0737 -9.099 0.59925 1 11261
9.0962 -9.6695 1.8658 0 11323
9.0981 -9.901 1.5724 0 11346
9.1093 3.3083 1.826 1 7321
9.141 -2.993 0.67259 1 9754
9.1469 -4.2905 1.1815 0 10198
9.1532 8.7043 1.1784 0 5165
9.1586 -0.1071 1.5048 0 9194
9.2445 1.9582 1.1051 0 8113
9.2842 -9.5338 0.62058 1 11284
9.3103 1.4164 0.21865 0 8498
9.3112 -8.6072 2.0832 0 11186
9.3145 -2.2053 0 0 9555
9.3176 -3.8214 1.8974 1 10014
9.3264 -0.76022 0.873 1 9304
9.3454 1.4217 0.66101 1 8500
9.383 -9.0896 0.60922 1 11232
9.402 -11.233 1.0243 1 11468
9.4032 -1.8807 0.22264 0 9477
9.4393 -8.7256 1.5032 0 11184
9.4434 1.6889 1.8075 0 8348
9.4506 2.8533 0.69031 0 7634
9.4512 11.49 1.388 2 4576
9.4666 -3.1932 0.93208 2 9776
9.4714 -6.4126 0.79983 0 10769
9.4753 0.85398 0.44366 1 8831
9.4755 0.60611 0.66394 0 8957
9.4843 -2.0696 0.4527 0 9517
9.5065 -9.2092 0.92553 1 11233
9.5135 -9.0564 1.846 0 11220
9.5147 10.526 1.6593 0 4805
9.5463 -3.8802 1.4482 1 9999
9.5809 6.5283 0.81071 0 6075
9.5867 -2.7164 1.1652 0 9647
9.6222 7.6731 2.022 0 5633
9.644 4.2495 1.7314 1 6969
9.6676 6.627 1.9257 1 6062
9.6943 -6.4849 1.0881 0 10752
9.7053 3.9449 0.73258 0 7112
9.7088 6.448 2.1959 0 6148
9.7449 -1.7446 0.69226 0 9443
9.7845 7.135 1.9895 1 5919
9.8071 -8.1132 2.3981 0 11064
9.8578 -3.4522 1.2214 1 9810
9.8736 -8.2147 0.59897 1 11068
9.8828 6.3984 0.54903 1 6203
9.9134 -3.9972 1.5022 0 9989
9.9642 2.0798 1.9178 0 8136
10.011 0.6702 1.8904 2 8949
10.02 -8.486 1.8454 1 11094
10.027 -1.5271 1.4254 0 9410
10.042 -6.3411 1.9513 0 10676
10.045 6.5483 2.2592 0 6195
10.051 -6.3466 0.83122 0 10674
10.103 -1.0334 0.9475 0 9331
10.123 1.4804 0.47711 1 8536
10.162 1.7261 1.6935 1 8402
10.3 4.1177 2.09 0 7149
10.304 -1.4444 0.72756 0 9387
10.317 1.6286 0.24251 0 8465
10.422 3.2442 1.2765 0 7585
10.455 2.599 1.0051 0 7913
10.507 -3.3755 1.8132 0 9743
10.517 3.718 0.78002 0 7364
10.665 -7.4957 1.8321 0 10838
10.671 -7.4526 0.60698 1 10824
10.688 -7.7937 0.92497 1 10892
10.769 -0.31397 1.77 0 9234
-10.242 -9.1251 -1.9278 0 13089
-5.2826 4.5486 -1.8249 0 1438
-0.75849 -0.48061 -0.19086 2 13389
1.7759 3.2983 -1.8816 0 3733
7.5358 0.06445 -1.9728 0 9143
11.475 4.0567 -1.9996 1 7355
