VERSION .7
FIELDS x y z intensity index
SIZE 8 8 8 8 8
TYPE F F F F F
COUNT 1 1 1 1 1
WIDTH 793
HEIGHT 1
VIEWPOINT 0 0 0 1 0 0 0
POINTS 793
DATA ascii
-4.4868 -0.13473 0.10422 0 1009
-4.2628 -0.22863 0.49922 0 904
-4.0584 0.62464 0.38309 0 1864
-3.8843 2.447 0.32102 0 4650
-3.668 3.0442 -0.11067 1 5793
-3.4435 0.4277 0 1 1725
-3.3968 2.5933 0.29884 0 5427
-3.2745 1.9073 -1.2805 0 4348
-3.2735 3.0007 0.4143 0 6286
-3.094 -3.7842 0.92095 0 20656
-3.0785 0.65941 0.29372 0 2136
-3.0408 -3.1019 0.71365 2 20882
-3.0207 2.8515 0 0 6418
-3.0098 1.0883 0.14925 0 2909
-2.9364 3.1677 -0.20143 0 7059
-2.7987 2.1366 0.081748 0 5424
-2.4972 -2.033 -0.22517 1 136
-2.4341 2.3803 0.47848 1 6592
-2.3813 3.1601 0.36915 0 7997
-2.3811 2.9935 0.088805 0 7762
-2.3309 3.8778 0.85244 0 8881
-2.2345 3.694 -0.20133 1 8845
-2.1093 -2.3492 0.0733 0 20763
-2.0259 -3.357 0.36581 0 20301
-1.7912 4.3523 -0.32911 0 9890
-1.7267 -2.7346 -0.22615 1 20337
-1.6892 -4.1892 0.31586 0 19975
-1.4426 -4.4476 0.88095 0 19895
-1.4157 3.4708 0.43835 0 9918
-1.1041 4.3601 0.73895 0 10703
-0.84764 3.1546 -1.3644 0 10625
-0.79365 -4.4331 0.73992 0 19815
-0.71023 3.6916 -0.98414 0 10891
-0.43659 4.6273 0.43362 0 11021
-0.42692 -4.8797 0.80477 0 19796
-0.40337 3.4183 0 2 11002
-0.23167 3.2639 -0.93827 1 11036
-0.21725 3.8496 0.4509 0 11044
-0.11543 -3.9593 0.46321 0 19773
-0.073468 4.6767 0.76845 0 11057
-0.012574 -4.5031 -0.21 0 19757
0.01328 -4.7556 0.55613 0 19754
0.032114 4.1817 -0.39015 0 11058
0.041856 3.9967 -1.1461 0 11060
0.12903 3.0405 0.49998 0 11064
0.12998 3.5618 0.58558 0 11061
0.46254 3.908 -0.64654 0 11083
0.46739 -4.2133 0.69647 0 19725
0.57505 3.2915 -0.71023 0 11115
0.89379 4.8651 -0.46149 0 11117
0.9026 -4.5089 0.75548 2 19719
0.91318 3.3518 0 0 11179
0.99127 4.7039 0.56217 0 11122
1.0289 4.4926 0.86836 0 11137
1.0508 4.5879 -0.10928 0 11136
1.0536 -4.2352 0.51037 0 19715
1.0598 3.0128 0.60174 0 11251
1.1061 4.4696 -1.3203 0 11151
1.1253 3.5583 -0.61314 0 11205
1.2564 -3.1443 0 1 19704
1.4063 -2.7877 0.21834 0 19689
1.4219 3.139 0 2 11369
1.4491 4.0054 0.39739 0 11262
1.4929 -4.5594 0.90391 0 19711
1.8684 4.391 0.78401 0 11333
1.8727 4.5503 -0.45907 0 11317
1.9778 3.2682 -1.0954 0 11622
2.0407 -3.877 0.71982 0 19682
2.1745 3.5933 0 0 11619
2.4448 -3.2526 0.094468 1 19484
2.4748 2.3086 0.63766 0 12822
2.5 3.947 0.54637 0 11693
2.5982 1.8451 -0.44786 0 13514
2.6062 4.0626 -0.11206 0 11712
2.6812 2.8087 -0.090151 0 12525
2.724 -3.1625 -0.3894 0 19341
2.7748 1.6918 0.38005 0 13954
2.9424 1.0086 0.29019 0 14981
2.9433 3.3267 0.83689 1 12346
2.9884 -1.7115 0.5658 0 18554
3.0341 2.4447 0.27247 0 13200
3.0485 3.4048 -0.42637 0 12363
3.2892 0.17008 -0.38516 0 16723
3.2897 -2.7869 0.30149 0 19046
3.3731 2.153 0.18661 0 13845
3.3751 -2.826 -0.51478 0 19036
3.4313 2.2037 -0.28516 1 13823
3.567 0.39191 -0.33478 0 16338
3.5859 -0.31562 0.59142 1 17346
3.7799 1.7948 0.78838 1 14446
3.7852 -1.9822 0.80504 1 18434
3.7867 1.2722 0.37268 0 15011
3.9163 0.59298 -0.091961 0 16090
3.9226 0.89983 -0.5656 0 15586
4.0091 1.7216 -0.6132 0 14613
4.0567 -2.9225 0.34962 0 18875
4.0848 -0.27489 0.28628 0 17260
4.1231 2.0458 -0.32186 0 14355
4.5005 0.96482 -0.32186 1 15686
4.5238 2.0989 -1.43 0 14478
4.5412 -0.99347 -0.32507 2 17582
4.584 -0.93345 0.65745 0 17561
4.7005 0.31056 -0.10937 0 16641
-2.765 0.7965 0.47274 1 2505
-0.16501 2.6448 0.30989 1 11042
0.81197 1.9729 0.24949 0 11318
-14.883 1.5879 1.3964 0 1646
-14.875 -1.1864 1.745 0 802
-14.841 -2.0119 2.4607 1 592
-14.734 -0.69741 2.4234 0 934
-14.654 1.9943 1.7295 0 1785
-14.653 -2.6814 2.4474 0 460
-14.645 -2.2436 1.036 1 532
-14.589 0.95621 1.0224 1 1455
-14.553 1.5064 1.365 2 1633
-14.492 1.0362 1.3555 2 1482
-14.403 -1.9525 1.0164 1 588
-14.356 1.9104 1.0127 1 1770
-14.339 1.0681 0.67052 1 1494
-14.193 -0.88299 1.3267 0 869
-14.166 -1.1299 2.3349 0 804
-14.133 2.4691 2.0163 0 1959
-14.11 0.55684 1.3174 2 1331
-14.07 3.0548 1.3432 0 2152
-14.01 2.0738 0.66046 1 1836
-13.975 -1.4812 0.98273 1 697
-13.892 1.0348 0.97408 1 1495
-13.854 1.3535 0.32319 1 1602
-13.847 2.9661 1.6561 0 2137
-13.789 3.7128 1.3323 1 2405
-13.693 0.46141 1.2782 0 1303
-13.512 1.4822 0.9505 1 1659
-13.428 1.5893 2.5477 1 1706
-13.382 2.0167 1.2626 1 1851
-13.38 1.2719 0.31205 1 1589
-13.318 0.72127 2.5129 2 1405
-13.286 2.8458 2.5599 0 2141
-13.25 0.90797 1.5532 0 1470
-13.156 1.4036 2.1737 2 1649
-13.138 -0.28438 1.226 1 1046
-13.121 0.8991 0.61332 1 1467
-13.087 3.0792 1.5722 0 2242
-13.066 2.128 0.30736 1 1902
-13.003 -0.46998 1.5216 0 986
-13 4.0341 2.2363 1 2623
-12.997 2.2707 0.9226 1 1956
-12.984 4.1486 2.5681 0 2674
-12.921 1.5682 1.8293 0 1717
-12.919 1.1916 1.2104 1 1578
-12.865 0.47175 1.2011 2 1318
-12.849 1.3301 0.60242 2 1631
-12.835 1.4805 1.2054 2 1687
-12.804 1.1022 1.8062 2 1554
-12.683 1.2793 0.89135 1 1617
-12.674 0.022117 2.0823 1 1151
-12.365 2.343 2.3711 2 2034
-12.357 0.56114 2.0323 1 1362
-12.34 0.99072 2.3325 0 1528
-12.31 -8.2442 0.69093 1 402
-12.289 -8.1863 1.3776 1 414
-12.284 3.7698 2.1111 1 2605
-12.185 3.2035 0.88102 1 2374
-12.121 -8.5344 0.6913 1 334
-12.102 -0.68082 0.28141 1 892
-12.059 5.1758 -0.30466 0 3336
-12.011 0.96427 1.1242 1 1524
-11.899 2.3646 1.4187 0 2077
-11.858 6.0083 0.61993 1 3858
-11.847 5.2053 -0.60344 0 3404
-11.81 -1.9171 0.27779 0 508
-11.741 2.5492 2.2637 2 2156
-11.662 2.3177 1.1093 1 2076
-11.66 -8.4187 1.3417 1 299
-11.649 -1.9577 0 0 489
-11.643 5.2766 0.89386 1 3501
-11.621 0.62937 1.912 0 1404
-11.572 9.3812 1.3898 0 5691
-11.512 9.3326 0.34408 1 5687
-11.505 2.9903 0.83122 0 2359
-11.437 0.78372 0.80164 0 1468
-11.412 2.8264 0.54829 1 2298
-11.388 -8.8427 1.686 0 201
-11.348 -1.9765 0.26743 0 473
-11.282 1.7365 0.26502 1 1862
-11.278 -7.5127 -0.94757 1 408
-11.261 0.80522 0.52649 1 1480
-11.251 -9.7189 0.69335 1 53
-11.233 -9.703 1.3848 0 55
-11.221 7.7236 0.31627 1 5001
-11.209 -1.918 0 1 479
-11.149 9.1483 -0.33484 1 5737
-11.133 -10.014 0.69829 1 2
-11.092 -8.7629 1.6531 0 180
-11.055 2.7728 -0.53152 1 2310
-11.046 -9.5958 1.7111 0 47
-10.938 4.2514 -0.54726 2 3067
-10.893 2.8312 -0.78699 2 2355
-10.864 0.87222 0.76216 0 1523
-10.859 10.312 1.0472 1 6450
-10.77 -1.1415 0.50506 1 696
-10.76 1.5276 0.50683 1 1808
-10.756 -1.8734 0 1 472
-10.751 10.089 0.34231 1 6394
-10.668 9.8998 -0.3379 1 6334
-10.605 4.6245 0.80904 0 3388
-10.542 3.7828 0.52229 1 2888
-10.466 10.411 1.3772 0 6673
-10.438 0.59452 0.97537 1 1416
-10.436 -10.583 1.3867 0 20885
-10.433 6.1139 -0.28076 1 4367
-10.351 3.4111 -0.50823 2 2715
-10.221 10.526 0.34064 1 6836
-10.193 -0.57345 -0.23703 2 890
-10.119 8.4488 -0.30606 0 5823
-10.098 8.2856 0 0 5739
-10.085 10.032 -0.66335 2 6663
-10.008 8.306 0.60652 1 5798
-10.003 -7.4422 -0.87182 1 250
-9.905 1.759 0 2 1969
-9.8772 8.7417 0 0 6113
-9.8649 6.3332 1.926 0 4729
-9.7456 2.7761 -0.23526 1 2480
-9.7279 -7.5921 -0.86289 0 191
-9.7248 -10.458 1.67 0 20817
-9.7239 2.6183 -0.93951 2 2399
-9.6943 7.4441 1.4294 0 5458
-9.6913 7.3561 1.9989 1 5408
-9.6322 7.3964 0.84922 1 5454
-9.5936 -8.09 -0.87754 0 83
-9.5898 11.228 0.34282 1 7438
-9.5412 4.9077 1.001 1 3914
-9.5387 0.43315 -0.89083 2 1351
-9.5198 -0.231 0.88842 0 1033
-9.4881 -11.535 -1.0444 0 20657
-9.4866 -0.34288 -0.88563 2 977
-9.4155 11.289 0 0 7540
-9.3944 -10.274 2.2872 0 20791
-9.37 11.708 0.34816 1 7734
-9.3667 -0.093187 1.7649 2 1098
-9.3319 10.996 -0.33484 0 7460
-9.292 11.337 -0.34032 0 7617
-9.2775 4.7373 1.2182 0 3890
-9.2653 5.7604 0 0 4597
-9.2012 -9.6084 -0.93027 0 20846
-9.1952 -10.608 1.6417 0 20729
-9.1947 1.2236 -0.86538 2 1764
-9.1874 -8.3452 -0.86791 0 21003
-9.1639 5.088 1.9748 0 4192
-9.1361 -8.1228 2.3033 0 19
-9.0859 5.7616 1.2581 0 4676
-9.0542 5.0271 1.4555 0 4188
-9.0224 -9.5343 1.535 0 20839
-9.009 -7.1635 -0.80485 0 166
-8.9344 -1.6092 1.0616 0 463
-8.9191 -10.528 1.9392 0 20695
-8.9136 -10.968 -0.98831 1 20642
-8.8935 -7.86 0.82996 1 21
-8.8425 0.89196 -0.82915 2 1611
-8.839 -7.7981 -0.82424 0 21047
-8.829 8.8351 -0.58248 0 6690
-8.761 0.72952 1.6564 2 1541
-8.7449 -11.918 2.7851 0 20531
-8.7315 -11.826 0.34129 1 20534
-8.7256 -12.112 -1.0438 2 20500
-8.7137 -8.5391 0.85312 1 20916
-8.7006 2.7 -1.0653 2 2610
-8.6818 4.6259 1.3825 0 4040
-8.6812 -7.2355 2.1292 0 105
-8.6775 4.5887 -0.6864 2 3999
-8.66 1.0756 -1.0205 2 1720
-8.6459 -10.087 0.61956 1 20710
-8.6458 4.8003 -0.9226 2 4172
-8.6457 4.288 1.5855 2 3793
-8.6446 9.6617 0.301 1 7226
-8.6404 -10.441 0.31465 1 20664
-8.616 -6.1435 1.4872 0 316
-8.5709 -11.827 -1.0214 2 20508
-8.5426 -11.928 2.4104 1 20498
-8.4822 0.014802 0.99193 2 1149
-8.4775 1.6064 1.4176 2 2033
-8.4683 -0.87362 0.5953 1 709
-8.4567 0.55428 1.5968 0 1459
-8.353 -0.81166 1.5812 2 735
-8.329 -0.95634 0.19465 2 664
-8.3241 -6.0812 0.72086 0 279
-8.2532 -9.4076 1.4635 0 20741
-8.243 -9.0145 2.3014 0 20792
-8.1912 11.909 -0.67406 0 8371
-8.1812 -10.307 2.162 2 20620
-8.1087 -1.1931 0 0 548
-8.0638 -9.6922 1.4744 0 20672
-8.059 -7.085 1.5081 0 32
-8.0539 -5.2965 -0.2238 0 424
-8.025 -1.4208 -0.18921 1 466
-8.0238 4.3348 1.0665 0 4088
-8.02 -10.604 0.62003 1 20567
-8.0055 3.6568 1.6582 0 3534
-8.0008 3.626 -1.0272 2 3491
-7.9805 -9.1547 0.56636 1 20734
-7.8827 6.542 1.93 0 5810
-7.8679 -8.2679 2.1504 0 20845
-7.8661 -10.211 1.8115 0 20593
-7.8529 -10.765 1.8727 0 20520
-7.8307 1.9873 0.94477 2 2330
-7.8273 -9.5733 0.8647 1 20652
-7.8045 1.6717 1.1217 0 2138
-7.7943 -11.16 -0.9519 1 20466
-7.7693 -1.282 -0.92084 1 496
-7.727 4.086 1.4361 2 4018
-7.6495 -8.3656 0.52863 1 20787
-7.64 -0.12002 -1.0739 2 1063
-7.6355 9.4899 1.7118 0 7714
-7.569 -0.91193 -0.35552 2 638
-7.5636 -7.5847 0.99933 0 20896
-7.5459 -1.3591 0.53615 2 462
-7.5405 -6.2492 0.91369 0 112
-7.5127 7.9195 2.0567 0 6961
-7.5088 -1.2619 0.89041 0 492
-7.5016 9.1035 1.6578 1 7603
-7.4961 6.4454 1.8626 0 5983
-7.4638 -1.4117 1.248 0 454
-7.453 -9.9698 1.7494 1 20551
-7.4442 -9.3252 1.1132 0 20626
-7.3265 2.3185 0.71694 2 2650
-7.3165 -8.1486 0.76579 0 20764
-7.3037 -8.3782 1.5621 0 20736
-7.2716 5.9285 1.0972 2 5719
-7.2492 7.8641 0.99785 0 7096
-7.2487 7.4644 0.97072 1 6840
-7.2314 7.1535 0.94898 2 6644
-7.2142 -9.8317 2.0035 0 20530
-7.1928 -1.2088 1.3742 0 495
-7.1788 -8.6746 2.1215 2 20667
-7.1329 -6.6726 -0.45549 0 20967
-7.1171 7.5896 0.72756 0 7009
-7.1058 -6.7597 1.8478 2 20955
-7.0884 -0.81389 0.66566 0 666
-7.0523 8.866 1.0569 1 7766
-7.0498 -4.4895 1.3732 2 443
-7.044 -0.72669 1.3342 0 713
-7.0104 -7.2798 1.6604 1 20859
-7.0011 -6.2861 0.65794 1 21022
-6.982 -10.641 1.4884 2 20380
-6.9727 -7.6254 0.72254 0 20788
-6.9527 -9.4753 1.6517 1 20529
-6.8794 -8.717 2.0922 1 20616
-6.8302 -11.168 1.5309 1 20310
-6.8224 0.95033 0.96809 0 1799
-6.7579 -10.498 1.7547 1 20362
-6.7578 -11.049 2.4403 1 20313
-6.7503 2.8265 0.8558 1 3277
-6.7141 -11.416 2.176 2 20281
-6.6854 3.1245 1.0371 2 3598
-6.6788 -0.22156 1.259 0 1001
-6.5992 6.4872 0.86334 1 6617
-6.5739 6.9299 1.5693 0 6959
-6.5235 4.4068 1.2934 0 4934
-6.472 -6.0543 0.61972 0 20968
-6.4607 4.5592 0.36875 0 5103
-6.449 -10.345 0.85242 1 20327
-6.2681 -10.387 1.4187 1 20302
-6.2677 -10.18 0.27755 0 20314
-6.2629 5.0463 1.1304 0 5669
-6.1796 -6.0178 0.20026 0 20922
-6.1676 1.6803 0.447 0 2420
-6.1666 3.037 1.1293 2 3768
-6.1582 -9.9438 2.2037 0 20325
-6.1497 3.8487 1.1919 0 4634
-6.1168 -6.6148 1.2662 1 20809
-6.0434 3.4948 1.3153 0 4336
-6.0115 -6.9742 1.294 0 20722
-5.9717 -10.227 1.9458 0 20274
-5.9689 -8.4364 1.4524 0 20484
-5.8934 -7.7418 0.90774 0 20577
-5.8158 4.7415 0.52471 0 5715
-5.7939 0.044495 1.0917 2 1182
-5.7732 -11.686 2.4559 1 20135
-5.732 7.7463 0.67385 0 8069
-5.7235 8.4314 1.1917 0 8434
-5.7098 2.161 0.42691 0 3009
-5.6997 7.9437 1.6063 0 8206
-5.6004 -9.8464 0.52826 1 20252
-5.595 8.5631 1.6805 1 8588
-5.5193 4.3683 -1.4961 2 5592
-5.5178 6.8163 1.6523 0 7691
-5.4802 -11.866 2.4625 0 20076
-5.4768 6.7247 1.2189 1 7657
-5.4635 -10.012 0.7976 0 20218
-5.3564 -10.843 1.1283 0 20132
-5.2843 -8.812 1.4441 0 20297
-5.2708 -10.005 1.0551 1 20190
-5.1422 -9.235 0.98614 1 20233
-5.1219 -10.215 2.1529 2 20149
-5.1156 -3.8297 1.0499 1 248
-5.1112 9.0932 -0.24218 0 9065
-5.0954 -4.6805 0.80911 0 20992
-5.0773 -11.789 1.1976 0 20021
-5.057 13.627 1.6997 0 10119
-4.9816 -10.314 0.80094 0 20111
-4.9567 -4.9967 1.3261 2 20894
-4.9076 -14.148 2.4603 0 19918
-4.8758 5.8108 1.0661 0 7522
-4.8271 -11.483 0.28921 1 19997
-4.7733 6.4508 1.512 0 8079
-4.756 -8.8997 1.4182 0 20203
-4.7232 -12.009 0.90237 1 19963
-4.6765 -9.0645 0.95159 0 20174
-4.3726 -3.4545 -0.12938 0 177
-4.138 4.464 1.1468 0 7076
-3.6969 -9.2429 0.92873 0 19972
-3.6697 -8.1313 1.6808 0 20059
-3.609 -3.8352 0.24559 0 20831
-3.5032 -7.7012 1.39 0 20064
-3.4173 -9.9359 1.7263 0 19913
-3.0772 -11.639 1.9779 0 19839
-2.8802 -5.0353 0.54119 0 20258
-2.3683 -6.8275 0.67421 0 19917
-2.3288 9.546 0 0 10736
-2.1262 9.551 1.6076 0 10816
-2.0641 -9.3182 1.568 0 19821
-1.9763 -7.8505 1.33 0 19836
-1.9029 8.3152 1.1988 0 10796
-1.8278 -6.1825 -0.30065 0 19856
-1.6885 8.5198 1.427 0 10878
-1.6658 -5.817 0.70759 0 19850
-1.5867 -6.6192 1.1183 0 19832
-1.25 9.209 1.5269 0 10983
-1.2091 5.151 0.49363 0 10769
-1.2078 6.9272 -1.1553 0 10923
-1.2002 -6.704 0.31761 0 19814
-1.1988 -5.1393 0.86702 0 19828
-1.1623 5.5205 0.52633 0 10851
-0.93404 -8.2235 1.5594 0 19806
-0.88862 -6.9176 0.81561 0 19808
-0.85438 8.5147 1.6123 0 11016
-0.83441 5.4465 0.51406 0 10958
-0.78109 -6.5213 1.0791 1 19807
-0.71336 -6.9865 0.49109 0 19802
-0.65812 7.9709 0 0 11030
-0.54517 7.9968 0.93734 0 11039
-0.45468 6.4058 1.0551 0 11037
-0.16879 -6.4458 0.75405 0 19770
0.11751 -10.201 0.95177 0 19750
0.23288 5.4876 -0.12752 0 11063
0.33842 -5.2761 0.99612 0 19728
0.38138 -5.9459 0.55587 1 19727
0.40868 -7.4025 0.69167 0 19732
0.45113 6.6004 -0.46262 1 11068
0.48133 5.4039 0.89134 1 11070
0.48625 -5.9526 -0.13866 0 19726
0.51296 6.4035 0 0 11069
0.67857 11.322 1.8634 0 11067
0.72881 7.2378 -0.67867 1 11073
0.88481 5.3447 -1.4182 0 11113
1.1348 -6.4553 0.15217 0 19722
1.1381 6.3002 0.5973 0 11116
1.206 -6.3161 0.75196 0 19721
1.2657 -8.32 -0.19539 0 19723
1.3134 -8.9808 1.4912 0 19724
1.3225 8.1294 -0.7684 0 11111
1.335 6.154 -0.29366 0 11127
1.4111 6.4182 -0.61309 0 11128
1.4549 7.548 1.2629 2 11120
1.5034 -5.7551 0.97726 0 19714
1.6609 9.0408 0.85758 0 11118
1.675 -6.3398 0.76683 0 19713
1.7109 -8.9601 0 0 19720
1.8073 8.4591 1.4211 0 11125
1.8555 5.2749 0.52168 0 11249
2.0434 -9.2399 1.5547 0 19718
2.077 -5.0692 0.51109 0 19702
2.0862 7.7533 -1.1284 0 11174
2.1018 5.5594 0.69505 0 11279
2.2342 -7.5572 1.1075 0 19712
2.2361 5.2551 -0.66787 1 11331
2.259 -5.4672 0.27587 0 19700
2.6305 5.8476 1.0535 0 11364
2.6631 6.2105 1.1102 0 11338
2.6668 12.655 2.1248 0 11123
2.7612 9.1804 1.1211 0 11195
2.7931 -7.6947 1.5423 0 19706
2.804 5.696 0.74244 0 11424
2.9445 7.9899 -0.59544 0 11269
2.957 6.1884 0.31984 0 11399
3.0251 5.3775 0.72153 1 11534
3.0601 4.0359 -0.95427 0 11994
3.0847 3.9954 0.59028 0 12020
3.089 6.0521 1.1164 0 11454
3.0947 9.3138 1.6125 0 11229
3.1402 6.522 0.67532 0 11404
3.1972 -7.8034 1.3855 0 19703
3.3547 7.2336 0.93246 0 11385
3.5833 -3.7223 0.60422 0 19237
3.6625 -8.7214 1.5541 0 19699
3.6683 -7.2182 0.94686 0 19687
3.7104 -3.9901 0.38101 0 19266
3.9187 3.1767 0.23525 0 13185
4.2437 4.939 -0.60751 0 12274
4.3012 5.8789 -0.6796 0 11927
4.436 13.75 2.3738 0 11217
4.7764 2.6172 -1.4258 0 14180
4.8086 -1.9087 0.48267 2 18009
4.9183 -3.6981 1.011 0 18928
4.9689 -0.65504 -0.5861 0 17443
5.0142 -2.6258 -0.92992 0 18426
5.0914 2.5451 -0.39803 0 14340
5.1268 -3.0356 0.55587 0 18602
5.1287 -5.3894 0.69409 0 19244
5.184 -3.3191 1.0113 0 18720
5.2438 -0.87846 0.49604 0 17506
5.3617 -0.61184 0.12529 0 17404
5.431 2.1306 0 0 14777
5.4937 1.9357 -0.81862 1 14929
5.506 -5.1201 0.87926 0 19126
5.5422 1.4251 -0.13286 0 15425
5.5449 -0.19751 1.0454 0 17155
5.7171 4.4973 -0.16888 0 13265
5.7205 3.1566 0.60956 0 14166
5.7477 2.1204 -0.14224 0 14866
5.9595 -2.8822 -0.4629 0 18315
5.9857 1.9923 0.44114 0 15025
6.0363 0.73582 1.1457 0 16278
6.0993 -1.2598 0 0 17563
6.1701 1.7007 1.0515 1 15328
6.2402 11.398 0.90865 1 11509
6.2758 11.156 0.59692 1 11533
6.3039 5.6463 1.1894 0 12927
6.4267 -0.84723 0.91103 0 17448
6.4671 1.3463 1.2446 0 15742
6.4921 -2.0894 0 0 17804
6.4959 6.0596 1.0389 0 12820
6.4969 -3.7208 0.87554 0 18552
6.5419 11.469 0.9233 1 11544
6.5514 3.4192 0.51676 0 14269
6.5711 -9.1818 1.0534 0 19522
6.5946 3.7129 0 0 14121
6.6299 12.543 0.99208 1 11483
6.64 -0.25508 1.0917 0 17166
6.645 11.89 0.95245 1 11527
6.6534 2.3653 1.1601 1 14925
6.7635 1.3883 1.3009 0 15764
6.8176 7.5717 1.9197 2 12389
6.8235 0.57059 -0.80074 0 16541
6.8391 -7.7519 1.2089 1 19322
6.9271 -2.7973 1.4075 0 18028
6.9988 -9.2038 2.1785 0 19479
7.0208 12.229 1.9818 0 11553
7.0532 6.1377 0.43602 0 12998
7.0665 1.2587 1.1793 2 15933
7.0859 12.015 0.65049 1 11579
7.1334 -4.8025 -1.0056 0 18787
7.1556 -8.808 0.79355 0 19401
7.1588 12.99 1.3837 0 11516
7.1681 6.0211 0.87337 2 13096
7.1763 -8.0404 1.0055 0 19311
7.2057 3.3432 0.74109 1 14479
7.2101 -9.2584 1.9279 2 19459
7.2359 -9.6267 0.56161 1 19485
7.3477 -4.208 0.59209 1 18551
7.3742 1.9883 1.2548 1 15364
7.3787 8.0047 1.0157 0 12443
7.4261 -0.89209 -0.6978 0 17417
7.4496 -8.6977 1.3392 0 19346
7.4559 -1.316 0.70635 1 17517
7.4703 -9.5926 0.85019 1 19455
7.5244 -4.4552 1.0226 0 18603
7.5271 9.3484 1.6868 0 12105
7.5563 -3.0514 0.38003 0 18022
7.5681 9.7427 1.7338 0 12032
7.5729 -0.97683 1.2545 1 17439
7.6335 -5.1044 1.5087 2 18784
7.6652 -0.493 1.2619 1 17253
7.7022 -2.0149 0.37127 0 17657
7.7098 10.741 0.92455 2 11900
7.7614 9.7539 1.4577 0 12078
7.762 6.7118 0.95734 1 13018
7.7661 -4.9399 1.7341 0 18711
7.855 -4.2295 0.83231 1 18471
7.8562 3.0267 1.3832 1 14808
7.8745 10.763 1.2442 0 11929
7.8976 -7.2216 0.9984 1 19107
7.9835 -7.6452 1.8161 0 19148
7.9903 -7.9265 0.26131 0 19176
8.0071 -9.8563 1.1847 0 19402
8.0169 3.8911 0.83138 0 14404
8.0226 6.8981 0.49341 1 13033
8.0285 -7.9144 2.1241 1 19175
8.0316 -8.2016 1.6133 0 19220
8.055 9.8308 1.4863 1 12149
8.0734 3.0282 0.40211 0 14843
8.0796 9.974 2.1089 0 12121
8.0993 -3.8875 1.6927 1 18314
8.0993 9.483 1.4584 0 12267
8.1457 -10.392 1.8557 0 19451
8.1691 4.8852 1.5638 2 14005
8.1721 -6.8816 0.99673 1 19042
8.1764 -8.7497 1.9675 0 19263
8.1804 11.181 2.6103 0 11936
8.1881 -8.8609 0.56263 1 19271
8.1996 -8.0831 0.80513 0 19171
8.2078 10.884 2.5684 0 11985
8.2157 2.6299 1.4173 0 15093
8.269 -4.5159 1.1018 0 18490
8.3293 6.247 1.4633 2 13391
8.3361 4.8226 1.8145 2 14076
8.3461 -5.689 1.6595 1 18810
8.3565 9.4453 1.1766 0 12340
8.407 -2.7057 0.82395 2 17807
8.4179 9.349 0.58667 1 12381
8.4522 8.2625 1.6612 0 12708
8.4543 7.5723 0.52928 1 12921
8.508 -1.4528 1.0093 1 17510
8.511 4.1953 0.88526 0 14376
8.5167 5.7186 1.6854 2 13690
8.5201 12.236 2.4496 0 11853
8.5203 -2.8476 1.4759 0 17838
8.5229 9.6333 1.5042 1 12342
8.5454 5.5579 1.4326 0 13798
8.5649 -3.5145 0.43174 1 18040
8.5664 -11.606 1.3458 0 19499
8.586 -6.574 2.0374 2 18949
8.602 -5.7217 0.96385 0 18772
8.6081 -0.20436 1.6223 0 17105
8.634 -1.1382 0.60897 0 17446
8.653 9.4431 1.8001 0 12433
8.6548 -5.975 1.7279 0 18824
8.7093 4.1355 1.355 0 14442
8.7187 -8.2074 1.1171 2 19133
8.7342 -5.9179 0.73774 0 18800
8.7391 -7.7589 2.2018 0 19081
8.7716 0.27413 0.81875 1 16835
8.8288 3.6715 1.8015 2 14686
8.8492 -6.8617 0.5222 2 18956
8.8573 -2.8199 1.5272 0 17801
8.884 12.081 1.7536 0 11943
8.8915 -0.54694 0.41543 0 17236
8.9093 9.8394 0.92818 2 12399
8.9207 4.955 1.1933 0 14154
8.9254 9.7952 1.8624 0 12418
8.9385 -9.2853 0.90125 1 19236
8.9517 10.356 1.6008 0 12292
8.9583 -9.2572 0.60074 1 19231
8.9678 -5.7749 2.0096 0 18731
8.9776 -4.598 1.9004 1 18407
8.9842 7.1106 0.53431 1 13251
8.9954 9.157 2.4185 0 12608
8.9984 9.1601 1.5016 0 12605
9.0266 -1.5413 1.5045 0 17511
9.0401 3.3656 1.8175 0 14860
9.0775 7.4909 0.54885 1 13139
9.0866 -8.2104 1.4321 0 19095
9.1017 10.349 1.2858 2 12326
9.1738 10.131 1.9209 0 12403
9.2077 -1.9303 1.5457 0 17573
9.2355 6.5198 1.322 2 13540
9.2447 0.80068 0.64887 1 16532
9.2813 4.4728 0.72044 0 14418
9.2945 -9.8838 1.5866 1 19256
9.2989 1.5995 1.5502 2 15974
9.3131 9.2096 0.6108 1 12669
9.3286 -5.7457 0.51093 1 18658
9.3395 -7.461 1.9639 0 18988
9.3403 9.4518 2.5036 0 12622
9.4168 8.0484 1.4486 0 13054
9.4474 -6.978 1.0958 0 18908
9.4484 -3.8443 1.1929 2 18031
9.4742 5.9294 0.78155 1 13888
9.4812 -9.6819 1.2643 1 19218
9.4904 0.51897 1.3358 1 16718
9.4974 -0.72578 1.1139 0 17299
9.5042 0.10285 1.7908 1 16944
9.5183 -8.7556 1.8176 2 19114
9.5306 9.1555 0.92413 1 12744
9.536 -9.8541 2.5836 0 19234
9.5541 0.10339 0.66813 0 16936
9.5692 -4.628 1.4939 0 18322
9.5852 0.10373 1.3472 1 16941
9.611 -3.9104 1.4583 0 18032
9.633 11.078 1.0265 1 12300
9.6445 -5.6742 0.52183 1 18590
9.6477 -4.7682 0.75253 0 18351
9.6496 7.3218 1.7024 0 13364
9.65 2.0988 1.6225 2 15678
9.6574 0.5281 1.8223 2 16721
9.6798 -3.811 1.96 0 18004
9.6926 4.9535 1.5298 1 14307
9.6971 7.5408 0.85898 1 13303
9.7007 5.8011 1.5885 0 14003
9.7232 -1.5122 1.6167 0 17493
9.7353 9.0815 0.62086 1 12815
9.7443 -9.2794 1.8911 0 19143
9.7509 -3.291 0.96013 0 17842
9.7585 -3.2009 0 0 17821
9.7671 -8.2743 2.4118 0 19050
9.7837 3.5127 1.2156 0 14907
9.7937 -4.6295 1.7798 0 18288
9.7961 -2.9651 0.7157 0 17762
9.8018 -8.2538 1.8009 0 19043
9.8404 8.02 2.3918 0 13178
9.8495 -4.4493 1.5189 1 18189
9.8663 0.82503 1.3915 0 16555
9.8741 5.6366 0.53021 1 14096
9.8832 -9.1392 2.5362 2 19123
9.8939 -3.3393 1.9674 0 17846
9.8947 6.3963 1.9357 0 13816
9.8949 -9.15 0.94241 2 19118
9.9148 11.136 2.4496 0 12358
9.9197 -3.3827 1.2256 1 17852
9.926 6.0161 0.26948 0 13964
9.9286 -6.6843 0.55816 2 18790
9.939 -8.1756 2.1144 0 19020
9.9446 11.169 2.1018 0 12357
9.9544 2.165 0.71235 1 15672
9.9603 1.6275 1.9015 0 16032
9.9676 -8.1991 0.90251 2 19017
9.981 2.1707 1.9245 0 15680
10 -4.9056 1.83 2 18344
10.004 -2.4332 1.6916 1 17629
10.036 -5.2556 1.0569 0 18430
10.065 -0.06324 1.4146 0 17020
10.087 -1.0335 0.94601 0 17377
10.112 -2.4911 0 0 17631
10.114 -8.1697 1.5204 0 18998
10.116 7.3118 0.87279 1 13478
10.12 -9.8002 0.9851 1 19156
10.125 -4.0888 1.277 0 18024
10.127 -5.8376 1.9205 0 18564
10.131 1.7753 0.71919 0 15947
10.136 10.809 1.0362 1 12485
10.154 6.8181 2.3044 1 13692
10.194 -4.3588 1.5582 0 18099
10.196 -7.4409 2.0738 2 18893
10.234 -4.0621 2.0744 0 18013
10.236 -8.3215 0.61518 1 19003
10.267 3.0568 0.49956 1 15196
10.284 0.47239 1.4468 0 16767
10.285 1.526 1.2159 2 16115
10.295 -8.3162 1.2347 0 18997
10.323 0.53378 0.72282 0 16730
10.354 2.5643 0.24766 0 15480
10.37 0.9291 1.2175 0 16515
10.388 -6.651 0.28637 1 18714
10.415 5.9864 0.84001 1 14083
10.416 5.6273 0.55211 1 14203
10.428 -8.3751 1.8797 0 18994
10.461 10.649 1.0438 1 12601
10.511 3.1636 1.2837 0 15181
10.523 -8.5545 1.2652 2 19004
10.528 -9.1294 1.6296 0 19065
10.547 5.5422 0.27663 0 14254
10.594 -3.8538 1.3183 0 17911
10.601 -9.6937 1.0045 1 19106
10.605 5.3015 1.1062 0 14347
10.609 6.945 2.0832 0 13780
10.61 -8.3735 0.31381 1 18974
10.615 -8.8343 1.615 0 19033
10.641 -9.6724 1.6816 0 19101
10.653 9.7106 1.008 1 12873
10.685 -3.9886 1.8738 0 17941
10.7 9.6956 1.6886 0 12892
10.728 -9.471 0.33224 1 19075
10.735 -9.7578 1.3534 0 19100
10.738 -9.7023 2.0339 0 19096
10.749 6.2186 0.57913 1 14068
10.779 -0.66303 -0.25072 0 17234
10.827 -2.2363 1.8164 1 17567
10.893 6.4265 1.1799 0 14031
10.894 -8.3959 1.6085 0 18952
10.946 6.6736 0.59785 1 13949
10.985 2.8943 1.5966 0 15396
11.004 6.3661 0.88898 1 14070
11.006 0.63267 1.0285 1 16697
11.017 -3.3999 1.0757 1 17774
11.019 -3.4361 0 0 17780
11.074 -8.3271 1.2927 0 18926
11.087 -5.2837 0.85884 1 18297
11.09 -7.5596 1.2522 0 18809
11.092 -7.5611 0.31167 1 18805
11.205 -8.3277 1.6326 0 18915
11.312 5.9868 2.1027 0 14247
11.317 -1.76 0.2659 0 17488
11.363 -3.1129 0 0 17681
11.399 6.0736 1.205 1 14232
11.41 -2.7414 1.9279 0 17623
11.545 -8.8398 1.3566 0 18946
11.545 -3.4946 0.28006 1 17760
11.811 2.6056 1.1285 0 15656
0.22474 4.9876 -1.687 0 11065
1.439 3.6143 -1.6249 0 11302
4.0906 3.4962 -1.543 0 13051
4.2891 1.4409 -1.5289 0 15009
4.9815 3.1797 -1.9969 2 13844
5.6104 0.094013 -1.7509 0 16907
