VERSION .7
FIELDS x y z intensity index
SIZE 8 8 8 8 8
TYPE F F F F F
COUNT 1 1 1 1 1
WIDTH 813
HEIGHT 1
VIEWPOINT 0 0 0 1 0 0 0
POINTS 813
DATA ascii
-4.6824 0.68309 0 1 1737
-4.3952 0.024546 -0.20497 0 1070
-4.0961 0.91785 0.68966 0 2117
-4.0953 -0.24976 0.095257 0 765
-3.9397 1.5202 -0.098042 1 3017
-3.8671 -0.5311 0.45647 0 460
-3.7405 1.5816 -1.0631 0 3265
-3.3257 1.9652 0.089687 1 4361
-3.3054 1.4668 0.33738 1 3397
-3.3005 1.9753 0.63195 1 4426
-3.1865 1.0929 -0.71605 1 2771
-3.1165 -2.4542 0.65172 0 38
-3.0093 1.6736 0.64877 0 4144
-2.8203 2.0036 0.24192 0 5145
-2.7708 -3.3493 -0.10092 0 20917
-2.5998 -1.8695 0.22392 0 159
-2.5616 -3.5544 -0.30637 1 20744
-2.2626 -2.0559 0.35751 1 21299
-2.0127 -2.8627 0.24471 0 20720
-1.9771 2.7362 0.23606 0 8167
-1.9107 2.6279 -1.2687 0 8141
-1.8768 -4.3896 0 1 20267
-1.7975 -4.4157 0.55752 1 20230
-1.7421 -3.0004 0.57002 0 20520
-1.5883 -3.4901 0.72246 0 20312
-1.2683 3.5054 -0.34779 1 10300
-1.1095 3.6541 0.62741 0 10626
-1.069 -4.7553 0 0 20025
-0.95693 -3.8842 0.65724 0 20034
-0.92321 -4.5337 0.32353 0 20020
-0.77104 4.128 0.49109 1 11056
-0.74619 3.0915 0.22238 0 10900
-0.57865 -3.6452 0.43162 0 20013
-0.48434 -4.3385 0.71722 1 20006
-0.4734 3.3263 -0.23494 1 11127
-0.47312 4.4271 0.73149 0 11164
-0.42217 -4.4912 0.31544 0 19998
-0.047564 4.4673 0.52245 0 11218
-0.045834 3.3666 0.55316 0 11216
-0.043236 3.1757 -0.91071 0 11215
-0.027579 -4.2708 -0.099157 1 19958
0.16066 3.3942 0 0 11224
0.19142 -4.2154 0.29507 0 19938
0.23489 3.0737 0.14376 1 11228
0.26681 4.3252 -0.30302 0 11226
0.44193 4.1836 -0.097671 1 11231
0.48407 3.3633 0 0 11250
0.57783 -4.1483 0.78912 1 19928
0.59008 -3.6232 0.42929 0 19924
0.59236 3.3526 0.47848 0 11279
0.67799 -4.5747 0.32339 0 19927
1.124 -4.718 0 0 19920
1.1598 4.3773 0.42247 0 11356
1.3096 2.709 -0.28072 0 11581
1.3771 4.4625 -0.65634 1 11385
1.6605 2.7505 0.52786 0 11776
1.72 3.8398 -0.19621 0 11536
1.7312 3.4768 0.63811 0 11603
1.9993 4.4279 -1.2718 1 11542
2.045 2.4729 -0.52722 0 12263
2.0659 3.3372 0.7395 0 11807
2.0688 -4.2081 0.7704 1 19899
2.1235 -2.5181 0.23034 0 19529
2.1362 4.3877 0.91947 0 11587
2.1529 4.3869 -0.57146 0 11590
2.1679 3.4332 0.37881 0 11823
2.3522 -3.7643 0.41411 0 19843
2.3579 -3.1132 0.73579 0 19686
2.4802 4.2768 0.34571 1 11734
2.6374 -2.6876 0.61865 0 19419
2.7338 -2.6752 0.088805 0 19386
2.7893 -3.1022 -0.29172 0 19472
2.9047 0.83619 -0.21136 0 15655
3.2398 -2.3177 -1.1422 1 19014
3.2473 2.4444 0.76579 1 13514
3.3571 -2.0235 0.18279 1 18730
3.4018 1.186 0.50631 0 15339
3.5846 -1.8209 0.3751 2 18459
3.5938 1.0346 -0.3489 0 15653
3.6988 -0.27162 0.69876 0 17296
3.8257 0.70285 -0.54667 0 16168
3.8465 3.0204 0.57193 0 13382
3.9131 -0.014342 0.73728 0 17019
4.1041 0.4872 0.095953 0 16448
4.1399 0.12793 -0.28963 0 16855
4.1543 0.29924 0.58536 0 16677
4.1737 -0.026953 -1.1968 0 17024
4.2139 0.20389 0.09795 0 16775
4.4246 0.97281 0.85355 0 16033
4.8455 0.08035 -0.33888 1 16914
4.8496 -0.031317 -1.0308 2 17030
-1.4788 2.1245 0.48769 0 8308
0.15374 2.8948 -1.4561 0 11225
-14.787 -1.549 2.8014 0 580
-14.743 -0.12866 2.072 0 1009
-14.566 -1.1873 1.709 0 677
-14.486 -0.50333 1.0136 1 881
-14.425 -2.2796 2.3994 1 392
-14.379 -1.2125 0.67294 1 661
-14.378 -1.2528 2.7191 2 653
-14.142 -1.0708 2.6721 2 705
-14.117 -0.45106 2.3206 0 899
-14.107 -1.7671 0.99417 1 500
-14.043 0.24022 2.6462 1 1133
-14.017 -0.16148 1.9701 2 995
-13.99 -1.7103 1.6482 0 513
-13.972 -0.65155 0.65226 1 829
-13.904 -1.2532 0.65105 1 634
-13.834 -1.1277 0.32226 1 673
-13.828 -0.52155 1.291 0 868
-13.818 0.35942 2.271 0 1175
-13.8 -2.468 1.6394 0 317
-13.788 0.11551 1.9378 0 1090
-13.768 -0.47839 0.31984 1 879
-13.763 0.83453 1.6124 0 1337
-13.763 5.8195 1.3941 1 3264
-13.676 -1.0739 2.2538 0 692
-13.575 -1.7438 0.95706 2 489
-13.499 -2.2929 1.6013 0 346
-13.401 -1.6383 0.31344 1 509
-13.372 0.81082 2.524 2 1339
-13.353 -1.0485 1.2496 2 690
-13.335 -1.4745 2.5277 2 560
-13.247 0.65486 1.8641 0 1283
-13.208 -0.76852 1.2343 1 780
-13.206 -2.2432 0.62468 1 343
-13.194 0.073687 1.8543 0 1076
-13.177 -1.8448 1.8699 0 450
-13.166 -0.26888 2.481 0 953
-13.166 0.26659 1.2286 0 1144
-13.144 -0.91683 1.5409 1 729
-13.126 -0.64888 0.30513 1 815
-13.116 -0.45573 0.61201 1 880
-13.099 5.5388 0.3302 1 3258
-13.095 6.9893 1.038 1 3986
-13.076 -0.15063 1.5292 1 994
-13.017 -0.1136 1.2145 0 1007
-12.998 -1.3249 0.60931 1 587
-12.945 7.0025 0.34171 1 4032
-12.792 -1.7568 0.60214 2 458
-12.759 -1.7863 2.1166 2 451
-12.754 -0.48106 2.4048 1 871
-12.722 0.07105 2.397 1 1078
-12.71 -0.075429 0.2951 1 1019
-12.678 0.2567 0.59133 1 1142
-12.675 5.7523 1.6277 0 3470
-12.632 6.0442 0.97924 1 3624
-12.568 0.7621 0.88047 1 1335
-12.546 -2.0186 2.0878 0 380
-12.474 7.2248 1.008 1 4285
-12.472 -1.8572 1.1764 0 415
-12.447 7.0162 1.333 0 4187
-12.365 6.0976 1.9376 0 3725
-12.353 -2.3207 2.3681 1 296
-12.349 7.5883 0.67593 1 4529
-12.314 5.6769 1.5857 0 3511
-12.287 6.1448 2.257 2 3773
-12.226 -2.1469 0.28819 1 324
-12.202 6.3302 2.5899 1 3897
-12.195 -0.53029 1.7154 0 845
-12.161 -0.67137 1.1363 0 793
-12.133 7.0727 0.98203 2 4311
-12.125 2.0965 -0.57381 0 1859
-12.069 7.9096 1.6874 1 4802
-12.035 -1.0487 0.56338 1 648
-12 6.0433 2.2074 1 3796
-11.993 -0.03349 0.55928 1 1033
-11.913 7.4645 0.65562 1 4611
-11.839 8.8828 1.7309 0 5398
-11.835 9.0944 1.0437 1 5509
-11.791 6.9178 0.95594 1 4339
-11.748 6.4854 0.6258 1 4107
-11.707 1.535 0.27412 1 1666
-11.621 8.9303 1.3674 0 5511
-11.611 8.5507 1.3453 1 5314
-11.608 5.8916 2.1387 1 3821
-11.597 8.701 0.67611 1 5393
-11.582 4.2382 0.28633 1 2901
-11.495 6.0426 1.8251 0 3943
-11.478 6.5123 0.30638 1 4205
-11.474 9.2554 1.0309 1 5738
-11.433 -2.0077 1.0829 0 326
-11.433 7.067 0.9399 1 4560
-11.387 1.3921 0.53496 1 1623
-11.379 5.7754 0.89232 1 3813
-11.361 8.3209 1.6468 0 5288
-11.345 -9.6073 0.34514 1 21393
-11.328 1.1546 1.0623 0 1531
-11.294 -0.52667 0 2 827
-11.26 -0.72222 -1.0527 1 746
-11.252 5.2302 1.1576 0 3532
-11.217 6.1921 0.29747 1 4105
-11.18 1.6669 -0.52714 2 1750
-11.162 6.2076 0.59562 1 4133
-11.157 4.6807 0.2809 2 3234
-11.148 7.209 1.5525 0 4750
-11.145 -8.0644 0.31938 1 150
-11.024 6.2547 -0.29427 2 4201
-10.998 8.8141 1.6482 0 5713
-10.984 5.9415 0 0 4030
-10.953 5.0102 -0.5617 1 3482
-10.923 8.3419 2.258 1 5486
-10.917 10.067 0.69251 1 6350
-10.911 7.4683 0.30699 1 4978
-10.87 5.0525 0.83819 1 3530
-10.809 -9.2613 0.33048 1 21376
-10.795 7.389 0.91479 1 4981
-10.764 8.5222 0.64024 1 5651
-10.76 -10.243 0.34491 1 21235
-10.734 1.0941 -1.0066 2 1524
-10.717 0.43418 0.75002 0 1239
-10.71 -8.8604 0.32272 1 21424
-10.673 0.089412 0.2478 0 1086
-10.624 9.1377 0.65347 1 6040
-10.608 8.2488 0.62664 1 5565
-10.603 -8.568 0.3165 1 21456
-10.593 7.9968 0.30815 1 5419
-10.583 1.9882 -0.50217 1 1926
-10.572 7.4164 -0.60223 1 5080
-10.554 7.8238 0.61267 1 5339
-10.497 10.442 0.69046 1 6705
-10.431 6.0419 0.27988 2 4281
-10.43 7.3658 -0.89288 2 5106
-10.364 7.7756 0.906 1 5395
-10.348 3.6156 0.25448 0 2804
-10.33 3.6783 -0.76676 1 2839
-10.323 8.8792 0.31613 2 6038
-10.293 4.3183 0 1 3232
-10.277 9.3182 0.97003 1 6277
-10.271 -7.4763 0.59245 1 141
-10.271 10.767 0.69391 1 6950
-10.254 -10.832 -0.34631 0 21118
-10.236 7.6797 0.2971 1 5391
-10.161 4.577 -0.51968 1 3434
-10.15 1.151 0.47636 1 1584
-10.13 7.9776 0.90167 1 5624
-10.115 -8.4154 -0.92009 2 21414
-10.081 -1.6797 0.95344 0 355
-10.005 6.2276 -0.27361 0 4579
-9.95 4.8336 -0.51586 1 3661
-9.9255 1.8647 -1.181 2 1923
-9.8254 -0.71464 -0.22872 2 710
-9.8177 3.2089 -0.48167 1 2661
-9.8158 7.1447 0.28187 1 5252
-9.81 -0.94287 -0.91944 1 605
-9.7753 -0.93953 1.6134 1 616
-9.7745 -10.325 0.3301 1 21119
-9.7567 -0.36799 -0.9109 2 862
-9.7405 0.70676 -0.68292 1 1385
-9.5734 -1.6571 1.1362 2 335
-9.5626 2.317 1.3828 0 2214
-9.5189 1.8417 -0.45214 2 1956
-9.5172 -1.2513 1.8086 0 483
-9.4744 -6.4074 -0.53338 1 225
-9.4589 9.5752 0.62767 1 6787
-9.4547 0.74078 -0.44226 0 1414
-9.4497 2.61 1.8471 0 2395
-9.4231 9.2149 0.92162 1 6623
-9.3836 -0.98295 -0.65976 2 571
-9.3584 8.0495 0 1 6036
-9.3285 2.2327 0 1 2191
-9.2715 8.2606 -0.86833 1 6186
-9.2692 3.3006 -0.91796 2 2838
-9.2111 1.3437 -1.0886 2 1732
-9.2052 -9.3378 2.1543 0 21177
-9.2008 -7.4162 1.9416 1 7
-9.142 9.2544 -0.30202 1 6781
-9.1379 3.1929 1.8237 0 2815
-9.1257 2.1842 -0.21786 2 2190
-9.1194 -1.3336 1.5142 1 428
-9.0954 -8.5054 -0.28911 0 21252
-9.0773 6.6071 -1.0474 0 5242
-9.0645 6.8008 1.8618 0 5402
-9.061 -10.635 -0.97701 0 20955
-9.0532 3.3417 -1.1285 2 2914
-9.0127 -6.5217 0.77792 0 151
-8.9997 -7.8509 0.83512 1 21357
-8.9668 -7.5054 -0.54531 0 21407
-8.9643 5.3991 1.2238 0 4451
-8.9086 2.4354 1.7401 1 2380
-8.8957 3.4326 1.115 1 3025
-8.8844 -8.1668 2.2737 0 21285
-8.8569 0.84814 1.0405 0 1506
-8.8284 6.1176 1.2561 0 5035
-8.8184 11.917 2.4357 0 8085
-8.7172 -0.12781 -0.81336 1 970
-8.7151 -10.353 -0.94632 0 20939
-8.6823 2.8378 -0.85219 0 2659
-8.6463 12.117 2.0921 0 8218
-8.644 -7.8544 -0.81671 1 21295
-8.6373 0.17489 1.2141 0 1146
-8.6364 -11.211 -0.98957 0 20816
-8.6334 -8.6605 1.43 0 21186
-8.6054 5.6398 -0.71947 1 4789
-8.6042 -8.5294 1.1303 2 21196
-8.5478 -9.802 1.2134 0 20998
-8.5425 3.1261 -0.84866 1 2896
-8.5404 4.6197 0.90588 0 4037
-8.5067 -5.7141 1.9308 0 234
-8.5027 -0.61843 -0.59614 1 708
-8.4903 -0.5178 -0.99471 1 760
-8.4895 7.432 -0.26196 0 6113
-8.4753 -6.7924 1.5265 0 13
-8.4718 -0.86352 -0.19771 1 584
-8.4647 1.0844 0.99797 0 1655
-8.4592 1.4627 -0.80091 0 1857
-8.4258 -7.838 1.8906 0 21265
-8.4233 -5.6966 1.1892 0 228
-8.4139 0.023493 1.5853 1 1065
-8.4094 7.1899 0 0 6010
-8.4067 -10.352 -0.9325 0 20892
-8.306 -11.462 1.9893 0 20756
-8.2953 12.065 2.4055 0 8355
-8.2941 0.31282 1.5638 0 1231
-8.282 -11.701 2.701 0 20731
-8.245 5.2973 0.68529 0 4718
-8.2261 12.414 2.4467 0 8496
-8.2214 5.1513 1.594 0 4621
-8.2074 11.857 1.0084 1 8327
-8.0512 -5.2425 1.3503 2 262
-8.047 -9.9621 1.7998 0 20888
-8.0339 11.685 1.323 0 8352
-8.032 2.1687 1.5675 2 2362
-7.9867 -8.5408 -0.54531 0 21099
-7.9862 -11.359 1.9515 0 20722
-7.9223 -8.873 1.6717 0 21036
-7.8856 5.8074 1.1452 0 5316
-7.8756 -0.59632 1.2976 2 704
-7.8391 2.6397 0.9673 1 2728
-7.8264 -12.633 2.7999 0 20579
-7.8072 -9.6652 -0.5794 0 20883
-7.8021 -0.021787 -0.7279 0 1027
-7.7931 -10.301 0.90321 1 20796
-7.7754 4.904 1.5103 2 4648
-7.7209 0.090288 0.90296 2 1103
-7.6538 5.9905 -0.22566 0 5587
-7.6134 1.3164 1.2694 2 1866
-7.5934 -10.728 2.1594 1 20730
-7.5685 -1.31 1.2619 0 337
-7.5683 -4.8962 0.63032 0 265
-7.5084 4.5544 1.2342 0 4481
-7.5069 -6.2457 -0.22672 0 21416
-7.5036 -6.6223 1.8856 0 21344
-7.4778 6.2082 1.8312 0 5886
-7.4654 0.86905 1.416 1 1601
-7.4576 12.397 1.3497 0 8831
-7.4222 -7.5292 0.49304 1 21175
-7.399 -8.3837 1.3076 1 21017
-7.3566 1.9396 1.2499 2 2326
-7.3515 -12.847 2.7888 0 20512
-7.3398 -7.7103 1.749 1 21131
-7.3294 -13.061 2.1049 0 20497
-7.3211 -12.291 2.6954 2 20549
-7.3166 -5.2285 1.0516 0 168
-7.2963 -10.846 1.8371 0 20663
-7.2937 5.3421 1.4853 1 5292
-7.2721 2.6152 1.0861 2 2871
-7.2612 -5.3808 -0.20983 0 118
-7.2548 12.986 1.3878 0 9100
-7.2538 10.226 2.3622 0 8242
-7.2368 -12.068 2.3118 1 20554
-7.2035 3.7101 0.94756 2 3868
-7.1944 -6.0219 1.0972 2 21410
-7.183 -11.74 0.64183 1 20564
-7.1828 -10.285 1.763 0 20714
-7.1541 -7.2979 1.4363 0 21172
-7.1462 -5.4282 0.62753 0 88
-7.1311 -11.285 1.5611 0 20596
-7.1161 6.8816 1.6264 0 6573
-7.1159 -11.787 0.96278 1 20556
-7.107 -1.1435 0.50336 0 376
-7.0442 -11.37 0.93529 1 20574
-7.0343 5.4387 1.6753 0 5546
-6.9995 -0.83712 0.65767 0 522
-6.9554 -10.339 2.0473 1 20664
-6.9401 -12.367 0.99166 1 20495
-6.9268 -11.474 2.2019 0 20559
-6.8624 13.16 0.69214 1 9319
-6.8376 -4.4795 0.95592 2 257
-6.8003 7.5978 1.9211 0 7261
-6.7804 -12.172 1.6294 0 20491
-6.7504 -8.5046 1.2698 0 20862
-6.7342 -5.3451 0.19961 0 21478
-6.7337 -10.453 1.7475 0 20613
-6.722 -9.7368 1.6628 2 20696
-6.7105 -4.285 1.5001 0 274
-6.6915 -10.324 0.57372 1 20616
-6.5801 4.3652 1.1098 1 4855
-6.5639 -0.36238 1.08 2 795
-6.4244 -4.2329 0.8997 2 252
-6.3723 -7.7965 1.1775 2 20902
-6.3167 3.159 0.99258 0 3771
-6.3077 2.434 1.2738 0 3030
-6.2794 2.0937 0.61755 2 2705
-6.2684 8.367 -0.97537 2 8022
-6.2637 -6.2092 1.449 2 21198
-6.2623 -7.9408 0.47161 1 20852
-6.2253 -7.568 0.91424 0 20910
-6.2155 -9.9045 1.0909 0 20587
-6.0992 5.7577 1.1788 0 6464
-6.0822 -0.94375 0.4304 0 397
-6.0023 -12.416 2.2658 2 20353
-5.991 -11.136 0.88423 1 20455
-5.9637 -13.002 2.3501 1 20315
-5.9465 -11.438 2.1179 2 20421
-5.9368 -12.188 2.5544 1 20360
-5.9364 -0.15545 0.97564 0 926
-5.9187 -12.618 1.6298 0 20331
-5.9136 -12.141 -0.31353 0 20355
-5.8991 -11.76 0.30545 1 20376
-5.8988 2.95 0.61532 0 3767
-5.8855 -10.706 1.4287 0 20476
-5.7914 11.036 2.0476 1 9306
-5.7626 -11.165 0.58593 1 20407
-5.714 -8.1272 1.6322 1 20723
-5.7031 0.56422 0.67019 0 1519
-5.6869 5.0954 1.4386 0 6230
-5.6116 -6.0009 1.3498 0 21105
-5.5981 -9.7119 1.5754 0 20515
-5.4446 1.6252 1.0705 2 2511
-5.4369 0.23643 0 1 1250
-5.4087 -11.021 1.1454 0 20361
-5.3754 10.605 1.6709 0 9409
-5.3707 -6.3802 0.77806 0 20943
-5.3559 -6.5112 1.3852 1 20913
-5.3495 -7.5582 0.8639 0 20729
-5.3482 -7.7008 1.3177 0 20705
-5.3239 10.739 1.4017 0 9475
-5.3138 -8.2995 1.1524 0 20608
-5.2725 -9.2137 1.2414 0 20511
-5.2172 6.559 -0.39083 0 7787
-5.2124 4.1506 0.62163 1 5684
-5.1938 11.466 2.068 2 9761
-5.1058 -7.3108 1.0428 0 20713
-4.8738 2.5447 0.51295 2 3915
-4.8399 4.044 1.1883 0 5914
-4.7905 -3.9154 1.0165 0 21443
-4.7382 -11.261 1.1398 0 20259
-4.701 -5.7149 -0.51745 0 20907
-4.6289 -8.3645 1.5706 1 20484
-4.5679 3.0097 0.76879 0 4831
-4.3853 -12.061 2.1085 1 20148
-4.3549 -13.277 1.634 0 20094
-4.2232 -12.998 0.95566 1 20090
-4.0458 5.2385 0.93023 0 7922
-4.0007 12.642 2.1786 0 10562
-3.932 7.182 1.5427 0 9176
-3.8782 11.782 2.0379 0 10492
-3.8547 4.3584 -0.13509 0 7303
-3.6595 -3.8902 -0.37348 1 21106
-3.5108 5.8361 1.119 1 8836
-3.4707 5.5478 0.4576 0 8691
-3.2501 4.0365 -0.24167 0 7739
-2.981 6.9485 1.4246 0 9909
-2.9556 5.3606 0.5711 0 9147
-2.8536 -5.6887 -0.14776 0 20375
-2.6437 6.1152 -0.15468 0 9873
-2.6182 9.3964 1.8378 0 10759
-2.3738 -5.377 -0.2741 0 20287
-2.2111 -5.0514 0.90593 0 20285
-2.0467 -5.4799 0.96105 0 20166
-2.0105 9.0017 0.64497 0 10957
-1.6447 -8.1936 0.97729 0 20019
-1.6036 -5.9143 1.0068 0 20047
-1.5158 -5.1172 0.3732 0 20060
-1.4501 -8.6377 1.439 0 20014
-1.1612 -8.9896 1.06 0 20008
-1.1221 5.3112 0.50645 0 10993
-0.83516 -5.5616 0 0 20012
-0.83284 11.181 1.842 0 11190
-0.58701 -6.2448 0.14562 0 19997
-0.56344 6.738 0.47281 0 11182
-0.557 9.2391 1.5207 0 11202
-0.51846 -8.8045 1.449 0 19988
-0.50786 8.8888 1.0412 0 11204
-0.23175 5.7952 0.40556 0 11211
-0.21044 6.2128 -0.14432 0 11212
-0.062453 12.338 2.0272 0 11221
0.33614 -9.0805 1.2771 0 19943
0.5369 5.3981 -0.37934 0 11230
0.58879 -7.3179 1.2062 0 19930
0.6841 6.3075 0.59191 0 11233
0.84155 -5.2657 -0.12381 0 19925
0.95609 -5.0359 0.96575 0 19921
1.1504 -7.0639 0.66771 0 19923
1.3073 -5.0333 0.24251 0 19919
1.5853 -5.0128 0.86378 0 19916
1.6603 -5.196 0.6379 0 19915
1.7323 9.3374 1.5602 0 11288
1.7536 9.9251 1.6559 0 11280
1.8069 4.6704 0.35018 0 11469
1.8137 6.1863 -0.90602 0 11376
1.8177 6.9387 0.66919 0 11353
2.1134 4.9049 0.49827 1 11514
2.1139 9.5275 1.6034 1 11317
2.1937 6.4958 -0.63965 0 11407
2.2074 5.5162 0.69481 0 11486
2.2921 5.0765 0.25975 0 11541
2.3631 6.4402 1.1271 0 11443
2.5474 -6.6779 0.83582 0 19914
2.5653 5.8606 1.2053 0 11523
2.612 -5.679 0.58318 0 19910
2.6749 -6.3385 1.1303 0 19911
2.6779 6.8018 1.201 0 11479
2.7232 6.1714 0.47169 0 11527
2.737 4.1985 0.5861 0 11859
2.8866 4.6629 -0.25574 0 11802
2.9187 -4.1207 -0.35311 0 19739
2.9198 4.3125 0 0 11905
3.0064 4.885 0.4011 0 11794
3.3387 5.1549 0.86315 0 11851
3.4252 -6.2614 -0.66585 0 19891
3.4504 7.5225 0.77212 1 11554
3.4862 -3.7437 0.35771 0 19451
3.7153 5.3857 -0.30512 0 11934
4.2849 -2.8093 0.47802 0 18872
4.2877 4.0845 0.83226 0 12813
4.4118 -3.9336 0.9711 0 19321
4.4219 -2.8257 0.98871 0 18832
4.4925 4.0636 0.56515 0 12939
4.6526 -5.5174 1.1857 0 19533
4.7017 -1.96 -0.47524 0 18191
4.7038 6.1858 0.5434 0 12106
4.7203 -3.566 0.83142 0 19125
4.7832 -4.2647 0.7494 0 19319
4.8173 2.9717 0.3958 0 14028
4.8353 -7.3526 1.0291 0 19820
4.9332 5.3723 -1.3742 0 12499
4.9712 -4.6961 0.31891 0 19362
5.0808 -0.52147 -0.35715 2 17386
5.1063 1.896 0.63697 0 15184
5.1339 0.71513 -0.4836 0 16354
5.246 -1.4706 -1.1581 0 17859
5.2983 -3.0491 -0.42747 0 18650
5.4153 0.18438 -0.50552 0 16840
5.4367 5.3333 -0.17682 0 12736
5.5179 1.0646 0.65718 0 16141
5.5201 6.795 1.4383 0 12240
5.5803 -2.7543 -0.58057 1 18410
5.6284 8.7437 1.7084 0 11845
5.6307 -0.2488 0.39412 0 17178
5.6687 -1.6587 -0.13713 0 17878
5.8391 0.98551 -0.69249 0 16230
5.8537 -5.1553 0.72772 0 19304
5.8902 1.4022 0.99477 0 15935
5.9648 3.9465 1.3475 0 13863
5.9715 0.6192 0.98634 0 16529
5.9872 -4.7182 0.71118 0 19189
6.1193 9.2102 1.8167 0 11885
6.1282 0.26113 0.86204 0 16807
6.2751 -0.62412 -0.88625 0 17374
6.3297 -1.4416 1.2231 0 17749
6.4341 -1.603 0.77542 0 17795
6.5017 1.7897 0.47155 0 15725
6.5359 -0.8222 0.61457 0 17459
6.6012 7.3134 0.68891 0 12456
6.623 8.5506 0.7563 0 12143
6.7689 -3.7151 0.90296 0 18577
6.7798 5.9898 1.4863 0 13030
6.7998 1.1684 1.1335 0 16227
6.8214 -10.917 0.90014 1 19842
6.8544 -0.58401 0.48104 0 17326
6.8713 5.0512 1.1986 1 13589
6.8787 8.6725 2.0856 0 12198
6.9571 8.619 1.2953 0 12225
6.9612 -6.9297 1.6137 1 19401
6.9862 7.2623 0.46993 1 12593
6.998 -10.501 1.1773 0 19804
7.1272 7.3214 1.436 0 12627
7.1303 -11.709 0.63931 1 19852
7.1681 2.5201 1.2483 1 15318
7.1686 -11.472 1.582 0 19844
7.2054 -7.2585 0.95419 0 19409
7.2512 2.3869 0.89273 0 15451
7.2677 8.387 1.0354 0 12369
7.2769 7.5645 0.97927 1 12596
7.291 -7.1349 1.676 0 19390
7.294 -6.5033 0.68333 0 19317
7.3063 8.2844 0.51512 1 12405
7.3344 6.5946 0.92019 0 12959
7.3525 -2.3847 0.36046 0 17956
7.3563 -8.0364 1.5312 0 19460
7.4564 -5.9439 0.44469 0 19202
7.5023 -11.194 1.8939 0 19799
7.5535 8.9257 0.27147 0 12317
7.5619 10.19 1.1838 0 12071
7.5782 7.1789 0.4868 1 12821
7.5981 5.5142 1.5424 2 13624
7.6043 6.995 1.9467 1 12897
7.6077 -2.6389 0.56307 1 18017
7.6341 -10.778 0.92358 1 19740
7.6342 -12.058 0.99794 1 19835
7.6718 -7.6371 0.25133 0 19396
7.6831 -1.8928 1.4908 0 17790
7.7124 -7.0375 0.48689 1 19335
7.7328 -8.2548 1.3227 0 19449
7.7357 -7.3486 0.99543 1 19370
7.7571 9.0568 1.3945 0 12348
7.7579 4.3606 1.6767 2 14249
7.7882 7.1641 0.98726 0 12894
7.7988 -10.865 0.31051 1 19726
7.8361 -7.5779 1.532 0 19382
7.8419 9.8269 0.5863 1 12203
7.8647 9.7433 0.87558 1 12222
7.9124 9.4598 0.57512 1 12292
7.9272 -5.4299 1.1236 0 18941
7.9626 7.4591 1.0179 2 12852
7.9962 -6.4891 1.6919 1 19222
8.0056 -10.505 0.92358 1 19673
8.0058 -7.0507 0.74598 0 19303
8.0593 10.473 2.1711 0 12136
8.0939 2.7428 1.2011 0 15400
8.0975 -5.2767 1.3583 0 18863
8.1138 -8.0292 1.8754 1 19395
8.1501 -11.355 1.6345 0 19728
8.1553 -4.2038 1.5074 0 18484
8.2087 10.729 2.2194 0 12124
8.226 -8.2346 1.0859 0 19405
8.2456 1.7888 0.78717 0 16043
8.2565 -11.302 2.2995 0 19714
8.2726 6.8121 1.7606 0 13233
8.2809 5.5143 1.8745 0 13846
8.2903 5.5877 0.6991 0 13813
8.3081 -2.6947 1.2275 0 17959
8.3406 -2.8118 0.82116 0 17988
8.3635 7.7855 1.066 2 12865
8.3877 -9.6014 1.4909 0 19497
8.396 8.6248 1.9775 0 12628
8.4031 -11.159 1.3033 1 19688
8.4277 4.0541 1.3144 0 14629
8.4288 7.667 0.79676 2 12920
8.4478 -9.6703 0.29812 1 19495
8.4537 9.4783 2.3929 0 12436
8.457 -11.649 1.0066 1 19719
8.4822 -8.2026 1.3799 0 19381
8.4938 8.6283 1.4159 0 12655
8.506 1.4127 0.80444 0 16251
8.5063 8.945 1.4435 0 12569
8.5177 -11.732 0.3366 1 19717
8.524 -4.6783 0.45344 0 18574
8.5294 -3.24 0.42549 0 18100
8.5307 8.6657 2.2911 0 12657
8.5328 -6.5238 2.0237 0 19151
8.5337 -8.9519 1.4463 0 19437
8.5358 -7.7452 1.0753 0 19332
8.548 -4.2507 0.89065 0 18425
8.6276 -12.02 1.3804 2 19727
8.6485 -8.4132 1.1257 0 19384
8.6876 10.505 2.5684 0 12276
8.6992 -0.30986 0.6087 0 17147
8.7079 4.7951 0.92743 2 14292
8.7112 -7.4086 0.53329 1 19269
8.7314 -9.3764 2.105 0 19453
8.7338 2.8193 0.21308 0 15481
8.7415 -12.179 2.4629 2 19731
8.7481 6.4308 0.75923 0 13585
8.774 9.442 1.8115 0 12521
8.8029 -11.979 0.69325 1 19708
8.8143 10.416 0.95413 1 12320
8.8214 -8.7815 1.4556 0 19400
8.8225 -7.2882 1.6083 1 19239
8.8231 9.83 2.1701 1 12448
8.8242 -2.5821 1.7323 2 17883
8.8261 10.25 2.2223 0 12361
8.8462 9.5197 2.4485 0 12523
8.8502 -10.246 1.9028 0 19507
8.86 -4.1825 1.846 0 18354
8.8617 -2.6233 0.86222 2 17887
8.8703 5.225 0.48009 1 14136
8.874 -11.569 1.0196 1 19665
8.9032 -11.002 0.9897 1 19581
8.9105 4.3171 0.46173 2 14607
8.9208 -11.087 0.66363 1 19588
8.9325 -2.5041 1.3038 0 17858
8.9549 0.72207 1.6927 2 16637
8.9553 -10.62 2.6173 0 19534
8.9629 -10.629 1.954 0 19532
8.9641 7.5565 1.371 1 13162
8.9762 -10.525 2.2726 0 19521
9.0744 -5.6505 0.74751 0 18787
9.0784 9.7695 0.30963 1 12513
9.093 -8.638 2.0606 0 19371
9.1075 -11.119 2.708 0 19573
9.1138 7.5933 1.1067 2 13193
9.1171 -11.001 1.333 0 19552
9.1188 4.4831 0.23591 0 14572
9.1369 -11.843 1.7492 0 19661
9.1374 3.546 0.22756 1 15096
9.1519 -8.5015 1.7555 0 19349
9.1535 -7.6971 2.2533 0 19260
9.161 -10.673 0.98357 1 19512
9.2237 -5.67 0.25137 0 18764
9.2286 9.2674 2.1487 0 12685
9.2306 -7.7125 0.84112 2 19249
9.2314 8.794 2.4022 0 12815
9.2581 -2.0525 1.558 1 17731
9.2718 4.9631 0.49043 1 14357
9.2796 -9.4002 2.1701 1 19416
9.2863 9.3253 0.30555 1 12675
9.3225 6.5641 0.5317 1 13705
9.3258 8.1901 2.3385 1 13051
9.3288 -4.0795 0.94991 0 18244
9.3412 -3.3024 0.69282 0 18036
9.3543 10.123 2.2645 0 12509
9.4108 8.9649 1.5199 0 12811
9.43 -10.488 1.6493 0 19476
9.4413 6.0542 1.8427 0 13937
9.4566 -5.5882 1.0248 1 18705
9.4569 -3.2507 1.8841 0 18012
9.4659 3.3595 0.93709 2 15289
9.4661 -4.304 0.72714 0 18294
9.4693 -0.39191 1.1083 0 17170
9.474 8.6722 2.1102 0 12910
9.4752 -10.351 1.3092 2 19459
9.5541 9.5341 1.2592 0 12698
9.6044 8.0963 2.0638 1 13164
9.6259 -8.3323 1.4888 0 19287
9.6601 3.3678 1.1964 0 15337
9.6705 -2.711 1.8923 1 17860
9.6917 -7.148 1.9785 1 19073
9.693 -11.293 2.4451 2 19515
9.7009 8.3235 1.7964 0 13117
9.7062 7.8993 0.5836 2 13262
9.727 7.2345 0.84768 1 13548
9.7279 -9.9721 1.6291 0 19423
9.7423 -3.7319 0.48652 1 18111
9.8043 9.2359 2.2129 1 12842
9.8178 7.9389 1.4765 0 13287
9.8305 -3.6677 0.9789 1 18084
9.8333 5.7923 1.0647 0 14139
9.8368 -6.3662 1.0932 0 18851
9.8596 2.8701 0.47888 2 15642
9.8644 0.62407 1.8623 1 16725
9.8796 -5.8801 1.6158 0 18715
9.9053 6.5537 1.3889 0 13859
9.9316 6.8232 1.6935 0 13776
9.9703 -1.5506 0.94137 0 17529
10.02 7.5011 0.58369 1 13526
10.021 -2.2529 1.9352 0 17740
10.022 -6.6131 1.9727 0 18884
10.022 -5.615 0.80332 0 18605
10.033 -0.50123 0.70245 0 17196
10.052 3.8323 1.0036 0 15134
10.06 -11.126 0.6995 1 19467
10.062 -7.4617 1.4649 0 19084
10.063 6.7825 1.9938 0 13817
10.109 -7.0545 1.7324 0 18974
10.141 7.0953 1.7394 0 13726
10.153 -1.8525 0.4813 1 17590
10.174 7.384 1.1729 0 13622
10.179 3.5486 1.771 1 15341
10.188 -10.811 2.4406 2 19446
10.196 -2.6653 1.2324 0 17824
10.205 2.588 0.98224 0 15843
10.215 2.4015 1.724 0 15953
10.219 4.2747 0.77458 0 14936
10.22 -9.1638 0.64015 1 19324
10.222 -0.037467 1.1954 2 17013
10.23 0.14107 1.4379 2 16934
10.237 -7.1438 1.4598 1 18973
10.268 10.073 1.3419 0 12741
10.287 -4.4985 1.313 1 18245
10.337 8.1639 1.5404 0 13362
10.368 6.5188 1.1426 0 13983
10.39 -1.2168 1.2233 0 17439
10.417 -7.3133 0.59357 1 18982
10.422 8.3763 2.1967 1 13305
10.425 8.6335 1.5829 0 13214
10.446 -10.523 2.7936 0 19412
10.47 -10.547 0.69307 1 19408
10.482 -1.5049 1.9952 0 17511
10.498 -0.46387 1.2289 0 17180
10.54 -5.6277 1.1147 1 18531
10.574 6.9509 1.4798 0 13874
10.58 0.024007 1.2372 0 16984
10.591 0.11277 1.7402 1 16949
10.616 -1.2151 1.5017 0 17430
10.621 8.7463 0.64164 1 13225
10.63 3.4622 0.52136 1 15466
10.675 -4.7438 0.81685 0 18263
10.687 -4.9722 0.54968 1 18326
10.7 -6.6215 0.87991 1 18777
10.733 -5.2974 0.27788 1 18413
10.737 0.79977 1.2591 0 16662
10.77 0.36668 1.5145 1 16848
10.778 4.3614 2.1907 0 15017
10.812 3.2827 1.588 0 15578
10.818 -7.6934 1.2384 0 19003
10.869 -0.070191 0.76007 0 17023
10.873 -1.7572 1.8096 1 17547
10.884 4.4773 0.82299 0 14977
10.887 7.1107 1.5206 0 13889
10.893 -5.0678 1.6884 1 18329
10.909 7.7725 2.2006 0 13674
10.917 8.4194 1.9376 0 13434
10.928 2.7713 0.52574 1 15841
10.957 -0.10327 0.25439 0 17036
11.035 -1.5843 1.5668 0 17509
11.063 -5.3053 2.0158 0 18373
11.068 2.4334 1.8618 0 16031
11.07 0.090804 1.0328 0 16957
11.074 -7.6312 0.94046 1 18950
11.119 -6.1479 1.7856 0 18587
11.171 -1.0796 1.0471 0 17368
11.268 -6.057 0.89456 1 18542
11.334 -2.1683 1.0766 0 17618
11.411 -0.87001 0.80025 0 17301
11.428 -0.20745 1.6063 0 17080
11.715 -1.2024 1.0987 0 17390
11.963 -0.80715 1.1186 1 17270
12.203 -3.0787 2.0677 0 17804
6.122 2.1523 -1.6988 1 15314
7.1451 1.2702 -1.7195 1 16201
