VERSION .7
FIELDS x y z intensity index
SIZE 8 8 8 8 8
TYPE F F F F F
COUNT 1 1 1 1 1
WIDTH 597
HEIGHT 1
VIEWPOINT 0 0 0 1 0 0 0
POINTS 597
DATA ascii
-4.7182 1.2801 0.4561 0 13108
-4.7006 -0.80771 0.55776 0 11304
-4.5475 1.657 0 2 13625
-4.2602 -0.31734 0 0 11623
-4.2474 1.8038 0.53964 0 13990
-4.2394 -0.70335 0.2004 0 11319
-4.1071 1.6336 0 0 13817
-3.9733 2.8846 0 1 15717
-3.8899 -2.7238 0.11025 0 11218
-3.7812 -0.66129 0.26842 0 11297
-3.6074 -3.2458 0.2263 0 10916
-3.4259 -2.8574 0.31195 0 11032
-3.2411 2.7013 0.49341 0 16200
-3.2313 2.5832 -0.096046 0 16049
-3.2202 0.93435 0.47124 0 13201
-2.9323 -3.2339 -0.30525 1 10705
-2.9085 3.7308 -1.2384 0 503
-2.7548 -2.6133 0.71543 1 10843
-2.7054 -1.8262 -0.22824 0 11241
-2.5941 -2.0392 0.30784 0 11106
-2.5278 -3.4728 -0.20031 1 10582
-2.2591 -4.2061 0.33385 0 10510
-2.0669 3.6104 -1.2981 1 1256
-1.9585 3.0601 -1.1337 1 1033
-1.9046 3.2373 0 0 1208
-1.8885 -3.8313 0.39851 0 10477
-1.8273 -3.7616 0.68707 1 10470
-1.6743 -3.1851 0.33571 0 10505
-1.6581 -4.5334 0.90947 0 10392
-1.6315 -3.3097 0 0 10475
-1.5112 4.2698 -1.1857 1 1922
-1.4916 4.1363 -0.72241 0 1896
-1.2565 3.456 0.69284 0 1895
-1.2268 3.9339 0.67702 0 2016
-1.2247 2.818 0.14329 0 1664
-1.1413 3.3777 0.24931 0 1962
-1.1276 3.5761 -1.1701 0 2010
-1.1125 -4.1233 0.70166 1 10375
-1.0384 4.0621 -1.0976 0 2092
-0.94932 4.3358 0.72922 0 2142
-0.32427 3.0647 0.58064 0 2222
-0.26131 4.9204 -0.92835 0 2255
-0.14753 4.4947 0.20972 0 2270
0.027404 3.4894 0.24401 0 2299
0.042499 3.1623 -0.90685 0 2305
0.18859 4.4258 0.51803 0 2324
0.34237 -4.8961 0.3432 1 10249
0.51514 -4.773 0.11146 1 10245
0.52491 3.1639 0.07446 0 2490
0.53436 -4.3583 0.40965 0 10243
0.72658 -3.0689 0.51814 0 10228
0.8329 -4.817 0.80315 1 10237
1.0286 3.1229 0.54019 1 3157
1.2418 2.8723 -0.97643 0 3583
1.3107 3.8702 0.76986 0 3203
1.3145 -2.8937 0.22224 0 10204
1.4416 3.2593 -0.93298 0 3632
1.4531 -3.1738 0.65766 2 10203
1.5057 3.5976 0 1 3531
1.6585 3.3944 -0.17618 0 3829
1.8434 3.9785 0.1018 0 3717
1.8751 3.6753 0 0 3936
1.9206 -4.2281 0.43325 0 10205
1.9286 2.8582 0 2 4608
1.9921 -3.2204 0.2648 0 10177
1.9999 -4.0235 -0.20953 0 10198
2.054 3.6289 0.38903 0 4195
2.0574 -2.5065 -0.8489 0 10103
2.0589 3.2745 -0.54361 1 4423
2.106 -2.8743 0.24917 0 10138
2.1617 -2.44 -0.30413 1 10094
2.1828 4.0455 0.32144 0 4071
2.28 3.1988 -0.83497 2 4748
2.321 -3.3073 0.4725 0 10148
2.3517 -2.9155 0.61541 2 10110
2.3658 3.3788 0.67766 0 4700
2.4949 4.0969 -0.22369 1 4357
2.5688 3.1007 0.47087 0 5098
2.5954 1.8227 0.52106 0 6325
2.6218 3.6113 -0.41634 0 4784
2.6682 2.8986 -0.18373 1 5351
2.7525 -3.9456 0.22435 0 10151
2.8143 -3.6598 0.32283 0 10121
2.8889 -3.966 0.57378 0 10140
2.9964 3.3702 -0.63379 1 5250
3.0105 -2.2554 -0.35095 0 10053
3.0178 -1.6632 0.56612 0 9836
3.0388 -3.8134 -0.68529 2 10112
3.047 0.028719 0.070747 0 9073
3.0592 1.8695 0.2507 0 6584
3.1081 -1.8447 0.3372 0 9901
3.129 -3.3719 -0.42916 0 10088
3.1618 3.4541 -0.10872 0 5335
3.1761 3.4698 0.55009 0 5341
3.2534 3.1101 -0.1045 0 5638
3.3333 -1.1186 0 0 9511
3.3564 2.1309 -0.1854 2 6512
3.4211 2.7448 0.51292 0 6030
3.4315 -0.34675 -0.32178 0 9344
3.4325 1.8839 0.64329 2 6788
3.4961 0.18567 0.5752 1 8932
3.5206 -2.7984 -0.52593 0 10069
3.5547 -0.85931 -0.25573 0 9453
3.5674 -0.18384 0.58688 0 9247
3.6121 3.1455 0.90243 0 5846
3.7109 0.4563 0.26145 0 8634
3.7179 0.73346 -1.2805 0 8266
3.86 1.6091 0.68707 2 7305
3.9321 -1.2822 0.28921 0 9506
3.9696 1.0259 -0.2867 0 7972
4.0264 -0.31194 0.47227 0 9296
4.217 -0.35189 -0.29591 0 9313
4.3127 0.30309 -0.20161 0 8869
4.3378 -0.010599 0.71268 1 9115
4.37 1.9869 -1.3765 0 7137
4.3793 1.3239 -0.64298 0 7782
4.4278 -0.84144 0.31516 0 9429
4.4326 -0.3956 -0.62544 0 9323
-0.87233 2.3134 -0.7715 0 1854
0.24486 2.9406 0.20634 0 2363
-14.899 0.84343 1.3923 0 12160
-14.891 -0.80649 1.3913 0 11703
-14.765 0.18555 -0.34282 0 11958
-14.756 -0.069537 0.68813 1 11893
-14.745 -2.4015 -0.6967 0 11325
-14.609 -0.28052 -0.33925 0 11834
-14.586 1.1197 1.3648 0 12248
-14.515 -0.65406 0 0 11735
-14.501 -0.11136 1.3529 1 11883
-14.455 3.6147 0.69484 1 13000
-14.42 0.2668 0 0 11986
-14.406 -0.64912 2.0266 0 11740
-14.357 -0.3559 -1.3399 0 11808
-14.329 -0.81868 -0.66931 2 11687
-14.318 0.34993 0.66791 1 12014
-14.301 -2.3726 -0.33656 0 11316
-14.285 0.3092 2.3475 1 12005
-14.269 -0.60305 1.3324 1 11752
-14.264 0.63525 0.3315 1 12104
-14.252 -0.72943 -0.33131 1 11709
-14.218 2.859 -0.6763 1 12778
-14.192 2.769 0 0 12754
-14.175 0.55199 0 1 12078
-14.167 2.2539 -1.0031 0 12604
-14.074 0.42263 -0.65664 2 12034
-14.028 2.4407 -0.664 0 12665
-14.017 4.1122 0.33916 1 13212
-14.013 4.6915 1.3787 0 13451
-14.004 2.3134 0.32955 1 12631
-14.002 0.097756 -0.65301 0 11933
-13.987 0.2588 -0.97826 2 11983
-13.93 2.632 -0.32913 0 12726
-13.799 1.6234 0.97157 1 12430
-13.792 0.33707 -1.2871 0 12008
-13.76 0.17293 2.2609 1 11966
-13.741 1.4976 0 0 12388
-13.731 0.73401 -1.2828 0 12140
-13.703 4.0641 1.6714 0 13231
-13.69 0.92847 1.9284 0 12213
-13.661 -0.21937 1.2747 0 11851
-13.64 0.5717 0.31697 2 12091
-13.634 -0.54045 1.273 1 11763
-13.614 5.2751 1.021 1 13761
-13.591 4.163 1.3261 0 13283
-13.582 4.6845 1.0046 2 13507
-13.495 0.24969 1.8969 1 11991
-13.477 -0.063513 1.8941 0 11896
-13.448 -0.56836 -0.31251 0 11747
-13.43 -0.53236 0.31205 1 11760
-13.428 0.32818 0.31186 2 12013
-13.404 -0.21524 0.62515 1 11849
-13.325 1.3347 0 0 12350
-13.305 1.45 -0.93585 2 12385
-13.112 7.1669 -1.3941 1 14721
-13.093 1.3507 -0.30559 1 12362
-13.031 3.6998 -0.31451 0 13165
-12.978 2.2207 0.30569 1 12655
-12.975 -1.5725 0 1 11460
-12.806 -0.35546 0.29742 1 11800
-12.671 6.3644 -0.99152 2 14458
-12.622 -2.0173 -0.29677 0 11334
-12.568 1.2966 -0.88354 0 12360
-12.561 1.369 1.7758 0 12392
-12.533 -1.5189 -0.88284 0 11457
-12.43 -0.67317 -1.1613 0 11697
-12.424 0.52073 2.3429 0 12096
-12.419 1.244 0.87279 1 12352
-12.301 -1.2733 -1.1537 1 11517
-12.292 -1.2009 -0.57596 0 11540
-12.279 3.3315 -0.88967 0 13101
-12.248 4.0626 0.90237 1 13431
-12.197 5.4329 -1.2457 0 14111
-12.143 3.6016 0 2 13226
-12.137 0.89768 -0.85103 0 12230
-12.041 4.7455 -0.90502 0 13794
-12.04 6.0923 -1.2589 0 14479
-12.024 -0.9315 -1.1251 0 11608
-12.017 0.53518 -0.56096 0 12101
-11.957 -1.8383 1.9876 1 11360
-11.935 1.438 -1.1216 0 12438
-11.834 1.5348 -1.3954 1 12473
-11.784 0.66707 -1.1011 2 12153
-11.778 1.5276 -0.83052 0 12475
-11.747 -1.353 -0.55145 0 11480
-11.714 6.8532 0.63288 1 14955
-11.693 8.2823 2.0138 0 15642
-11.648 1.0293 -0.81769 1 12297
-11.647 6.8139 -1.2589 1 14945
-11.624 2.4412 0 0 12815
-11.619 8.6415 0.33619 1 15804
-11.596 1.638 -0.54614 2 12525
-11.527 7.9668 2.3021 0 15559
-11.495 8.6556 2.364 0 15859
-11.487 8.082 1.3103 0 15617
-11.481 8.5387 1.3349 0 15809
-11.436 -1.2524 1.0733 1 11505
-11.416 -0.25308 -1.0653 0 11821
-11.412 4.8465 0.28786 1 13983
-11.301 8.9252 2.7132 1 16021
-11.243 -1.3625 1.3244 0 11465
-11.169 5.9336 -0.88437 1 14631
-11.102 -1.7426 2.1174 0 11352
-11.074 -2.0645 1.3174 0 11275
-11.048 -0.17741 0.25653 0 11848
-10.944 -1.5868 1.2932 0 11382
-10.907 5.5572 0.28419 1 14507
-10.83 3.3174 0.26298 0 13281
-10.824 1.3041 -0.50841 0 12440
-10.736 3.4573 -1.0523 0 13366
-10.671 4.1668 0.53422 1 13780
-10.554 1.9008 -1.0004 1 12685
-10.535 4.5808 0 2 14046
-10.494 -8.0032 -0.92288 0 11137
-10.475 9.4181 0 0 16452
-10.442 -0.90069 -0.48875 0 11581
-10.347 -10.835 -1.0476 1 10739
-10.284 3.3436 0.50431 1 13392
-10.261 5.5664 -1.0891 1 14697
-10.244 -9.325 -0.64602 0 10894
-10.122 5.3436 -0.80039 0 14609
-10.12 -11.036 -0.69829 0 10711
-10.101 -0.78253 0.47245 1 11613
-10.087 0.89138 -1.4232 1 12294
-10.049 1.0952 -0.94304 0 12384
-10.045 -9.0923 -0.94743 1 10901
-9.8246 2.0346 0.46788 1 12806
-9.8068 -7.7533 -0.87419 0 11096
-9.7836 2.7464 1.6695 0 13157
-9.761 -7.7643 0.58164 1 11092
-9.7522 9.2966 2.2136 0 16626
-9.7329 -1.4963 1.3839 0 11359
-9.6667 11.215 0 0 204
-9.637 10.858 -0.33707 1 120
-9.6117 11.278 -0.34403 1 232
-9.5988 -0.88538 0.44953 0 11563
-9.5763 6.7378 -1.0924 1 15607
-9.5582 -0.68346 0.67008 0 11635
-9.4819 3.3596 1.1764 0 13571
-9.4249 -7.5399 1.4115 0 11087
-9.3787 -8.2423 1.1649 2 10956
-9.2327 7.4233 -0.27505 2 16069
-9.2168 1.3314 1.3088 2 12544
-9.1868 -7.2215 1.9198 1 11109
-9.1729 -7.4733 2.2292 0 11066
-9.1414 -7.3578 1.6492 1 11081
-9.0572 3.972 0.69157 0 14075
-9.0295 -11.405 -1.0172 0 10622
-8.9336 -10.508 -0.96445 0 10667
-8.8586 -6.2028 1.2646 0 11220
-8.8534 -9.4842 -0.90725 0 10722
-8.8247 -8.0835 2.2548 2 10892
-8.8237 0.83253 -1.2456 0 12318
-8.8061 2.419 1.2835 2 13124
-8.7981 -9.4778 -0.60307 0 10719
-8.7945 6.6223 0.2556 0 15849
-8.6565 1.9508 0.20602 2 12886
-8.6304 7.8037 -0.5426 1 16470
-8.6229 2.0225 1.2448 2 12930
-8.6098 -5.882 0.24209 0 11235
-8.6043 -9.2691 -0.88437 1 10718
-8.5513 -0.41225 1.4066 0 11729
-8.5457 -0.43739 -0.79831 1 11708
-8.5039 -8.1607 1.6564 1 10828
-8.431 -6.1615 0.73021 0 11191
-8.2782 1.2209 1.176 0 12558
-8.2045 -6.2185 0.48009 2 11150
-8.1767 0.96199 1.5512 0 12435
-8.1752 -1.4533 -0.97102 1 11287
-8.1403 -6.7895 -0.74123 0 11028
-8.1189 -7.7912 0.78685 2 10825
-8.0681 1.7916 1.5571 1 12877
-8.0068 -8.5323 0.27166 1 10726
-7.9435 -8.2171 -0.26535 0 10752
-7.9206 -7.8217 1.0385 0 10796
-7.8919 7.0166 -1.2349 1 16408
-7.8674 3.3411 -1.4043 2 13975
-7.8102 3.5593 1.6171 2 14192
-7.8079 -5.9545 0.9161 0 11142
-7.779 -7.3794 0.50003 1 10837
-7.6808 4.0805 -1.4289 2 14628
-7.6566 -6.616 0.47189 2 10982
-7.6405 2.5343 0.18689 0 13429
-7.5815 -6.2475 0.68696 0 11049
-7.5691 -1.4111 -0.9004 0 11272
-7.4871 -8.3563 0.52323 1 10701
-7.4295 -11.065 -0.62152 2 10550
-7.2611 -11.088 -0.92678 0 10539
-7.1257 -0.30115 0.16559 0 11749
-7.0128 -0.9544 1.3335 0 11416
-6.9555 1.6724 1.0054 1 12958
-6.8878 8.524 1.8005 0 395
-6.7853 0.028421 -0.95361 1 11920
-6.6441 -4.426 0.74481 0 11246
-6.5644 3.1072 1.0207 0 14296
-6.563 10.064 -0.27895 0 986
-6.5595 0.522 0.15277 0 12260
-6.5434 -4.9901 -0.38375 0 11138
-6.3954 -9.2879 1.8527 0 10563
-6.3818 -9.6236 1.3504 0 10545
-6.3412 0.37563 -0.14748 0 12167
-6.0548 -8.0204 1.8934 0 10602
-6.0059 0.3726 0.28062 0 12182
-5.9179 -8.3335 1.6792 0 10574
-5.7386 6.2429 -0.19687 0 33
-5.6898 -6.7306 1.2386 0 10665
-5.6509 0.28528 0.9296 0 12137
-5.5773 0.70656 -0.26217 0 12464
-5.5139 -0.93063 0.26077 0 11310
-5.4002 0.98917 -0.25602 0 12699
-5.2209 5.6204 1.2603 0 16945
-5.1856 2.7549 0.68668 0 14644
-5.1764 -0.12832 0 0 11812
-5.1007 0.34594 0.23841 0 12209
-4.9639 -5.979 0.5434 0 10652
-4.949 -7.6034 -0.42307 0 10538
-4.8759 -3.2298 0.54565 1 11250
-4.8447 8.9976 1.6789 0 1353
-4.7736 -3.0634 0.93187 0 11252
-4.6929 3.324 0.94484 0 15644
-4.6076 -5.4504 0.66585 1 10664
-4.5966 -8.9941 1.6595 0 10493
-4.5502 -4.1186 0.28621 0 10905
-4.5186 -4.8152 0.61606 1 10728
-4.4381 -7.5646 1.4409 0 10524
-4.4345 -3.6335 0.67042 0 11059
-4.4308 2.4037 -1.4454 0 14709
-4.3336 -7.7415 1.6716 0 10519
-4.3309 -5.6707 0.83443 0 10608
-4.3036 2.9368 0.856 1 15516
-4.2342 3.2856 -0.62675 1 15947
-4.2305 7.5914 1.2214 0 1303
-4.2255 -5.1204 0.77635 0 10647
-4.1929 4.7242 0.58931 0 126
-4.0319 4.1201 0.94711 0 16810
-4.013 6.6445 -0.72419 0 1155
-3.9369 -5.3751 1.0946 0 10586
-3.9074 -7.433 1.1802 0 10506
-3.8588 -11.144 1.1002 0 10386
-3.7316 6.6962 0.89645 0 1302
-3.7152 -5.5686 0.15542 0 10548
-3.5705 -3.6742 0.84173 1 10764
-3.3012 -8.7921 -0.21804 0 10396
-3.2855 7.5023 1.3456 1 1651
-2.8972 11.76 1.9899 0 2109
-2.7891 -7.1059 0.35599 0 10408
-2.7145 8.1983 1.6271 0 1980
-2.7138 4.3245 -0.35701 1 1074
-2.683 -8.5405 1.4708 0 10384
-2.6514 5.3599 0.98245 0 1469
-2.6104 -5.0706 0.66694 0 10496
-2.5505 5.2363 0.13523 1 1490
-2.1921 8.2674 -0.59809 1 2075
-2.1309 9.2225 0.21976 0 2124
-2.1268 8.3193 1.4108 0 2093
-2.0166 -9.6782 1.8626 0 10363
-1.9313 -5.0523 1.0191 0 10402
-1.9046 -5.3488 0.26478 0 10389
-1.8999 4.7864 0.48044 1 1802
-1.8873 -9.4623 1.5852 1 10361
-1.8724 6.5257 -1.1154 0 2044
-1.7759 -4.8085 0 0 10394
-1.6669 -5.3062 0.51889 0 10383
-1.5237 11.796 1.1097 0 2208
-1.512 -8.911 1.057 0 10355
-1.4259 -6.8431 -0.16229 0 10362
-1.4012 6.2227 -0.74592 0 2133
-1.3311 5.5401 0.26571 0 2114
-1.297 9.5929 1.5904 0 2203
-1.1685 5.7383 -0.68482 0 2158
-1.1322 -5.1281 0.86281 0 10365
-1.1289 -4.9095 0.58912 0 10366
-1.0882 5.6775 -1.2288 0 2165
-1.0682 6.0396 0.28602 0 2175
-1.0668 6.2479 -0.14716 0 2180
-1.0016 9.4658 0.88805 0 2220
-0.73459 -6.6538 1.0998 0 10337
-0.70431 6.3189 0 1 2217
-0.65173 6.1594 0.72432 0 2221
-0.62717 -5.2518 0.86897 0 10342
-0.61629 6.3539 1.2027 0 2227
-0.60911 9.3938 -1.323 0 2245
-0.60154 -5.6102 0.92701 0 10335
-0.58648 -5.038 0 0 10340
-0.56298 7.9908 1.3161 0 2243
-0.41219 -5.9392 0.27764 0 10319
-0.37007 6.9683 -1.4832 0 2254
-0.32414 5.2396 0.86248 0 2250
-0.27077 -8.5214 1.4007 0 10302
-0.24754 6.3857 -0.74731 0 2267
-0.088576 -6.1886 0.28863 0 10288
-0.047836 -8.8413 1.4526 0 10284
-0.025368 6.3191 0.29469 0 2292
0.031768 -5.3533 0.75237 1 10277
0.088612 6.5934 0 0 2304
0.34961 -5.4357 0.89491 0 10252
0.37741 -5.6229 0.52577 0 10250
0.47798 -5.293 -0.12339 1 10247
0.60448 11.161 1.3072 0 2332
0.69218 8.0409 1.1343 0 2370
0.85029 7.7515 0 0 2397
0.95181 -6.7897 1.1264 0 10240
1.0172 -6.2049 1.033 0 10238
1.024 11.102 -0.25885 0 2377
1.0353 6.3572 -0.30037 0 2480
1.1265 6.6674 -0.79075 0 2497
1.1932 6.8296 -0.48481 1 2517
1.2989 -6.7961 0.48383 0 10233
1.3547 8.3181 1.5879 0 2486
1.3939 5.5004 -0.79746 0 2794
1.4238 5.0586 0.49028 0 2928
1.4397 -6.5922 1.1086 0 10230
1.4466 9.9646 1.4151 0 2446
1.4617 -5.4059 0 0 10226
1.4692 -7.8206 0.74239 0 10234
1.4696 -7.2363 0 0 10231
1.5672 -5.3595 0.653 0 10222
1.7242 8.6841 -0.20555 0 2590
1.9657 -6.5147 1.118 0 10220
1.9846 9.4095 1.1246 0 2640
1.9858 6.2792 1.082 0 3096
2.0936 -8.0201 1.3618 1 10227
2.1473 -7.7533 0.94082 0 10225
2.1884 -5.719 0.57129 2 10214
2.2734 -5.7861 1.0214 0 10213
2.3151 -7.4422 0 0 10219
2.4575 5.5984 0 0 3613
2.4623 -7.0352 0.69539 0 10216
2.4884 -5.0816 0.9296 0 10201
2.4896 -8.9046 1.5191 0 10224
2.6879 -4.7028 1.0206 0 10193
2.6883 5.5461 -0.28742 0 3811
2.7216 -8.5639 0 1 10218
2.7445 6.6686 1.1848 0 3506
2.7538 4.6731 0.25295 0 4289
2.7674 5.2757 -0.41659 0 4002
2.8683 5.8704 0.60956 0 3835
2.8694 -8.1255 1.0077 0 10215
2.8794 -9.6342 0.23345 0 10221
2.8902 -7.356 -0.36857 0 10212
2.9554 -4.2364 -0.3612 1 10150
2.9635 -6.0041 -0.46821 0 10199
2.9649 4.9994 -0.67971 1 4296
3.2065 -4.2199 -0.74485 0 10126
3.3647 8.8253 0.66045 0 3376
3.4436 -10.127 1.7574 0 10217
3.4715 10.25 0 0 3197
3.4748 11.095 1.9101 0 3079
3.577 3.6655 0.7198 0 5498
3.6282 7.164 1.3193 0 3923
3.6444 -8.4704 1.0783 0 10207
3.7143 -5.2927 -0.75614 0 10147
3.8658 8.5379 1.5398 0 3677
3.9813 -4.7903 0.8754 0 10101
4.0074 -6.152 -0.68499 0 10165
4.1112 -8.3957 1.0932 0 10200
4.134 -2.9488 0.47375 0 10026
4.1919 7.0683 1.3501 0 4308
4.2368 8.6104 0.89529 0 3855
4.3437 -9.7058 1.747 1 10206
4.3462 6.3642 1.2662 0 4646
4.4242 -8.6456 0.90607 0 10197
4.4463 -2.5702 0.47914 2 9877
4.4836 -3.0254 -0.76016 0 9982
4.497 -5.0438 1.1102 0 10092
4.5245 5.4266 0.65916 0 5112
4.5407 12.004 2.1085 0 3362
4.5919 -9.8789 1.7898 0 10202
4.5973 4.9369 -0.7889 1 5376
4.5999 -2.4644 -0.61026 0 9810
4.6637 8.6434 0.91629 0 4072
4.6917 -1.9635 0.71479 0 9611
4.8452 4.6855 0.15649 0 5617
4.8455 -2.1787 0.87286 0 9668
4.8991 -4.8379 0.48146 0 10080
4.9182 2.7374 -0.79106 0 6750
4.9706 -2.9104 0.40277 0 9887
4.9886 -8.8462 1.6685 0 10194
5.0175 -1.0894 0.23944 0 9442
5.1105 -2.07 0.77492 0 9589
5.1227 -2.5563 0.53413 0 9756
5.1571 2.6583 1.0931 0 6905
5.1588 2.3271 0.66183 0 7155
5.2179 -1.2749 0.62814 0 9458
5.261 4.1207 -0.31164 0 6088
5.2845 -0.13469 -0.24652 2 9180
5.2929 0.71469 0.37348 0 8586
5.3541 0.53347 -0.50199 2 8733
5.3593 0.17497 -0.88096 0 8996
5.3881 -2.0381 -1.0854 0 9555
5.4084 1.9835 1.0854 0 7528
5.4175 -3.4301 1.0535 0 9945
5.4199 1.1847 0.51759 0 8159
5.461 -5.3591 0.53503 0 10079
5.4617 2.7553 -0.28528 1 6934
5.4649 10.638 1.9649 0 3959
5.5046 0.32318 0.90593 0 8917
5.5249 6.9507 1.4588 0 5006
5.5391 3.5875 0.61569 0 6484
5.5543 -6.4918 1.6097 0 10097
5.5748 -2.7819 0.14465 0 9753
5.5748 1.5796 0.95197 0 7871
5.5859 1.221 -0.80359 0 8149
5.5983 0.26401 0.13012 0 8947
5.6005 2.2208 -0.84673 1 7376
5.632 -0.25772 -0.26292 0 9230
5.7579 3.7521 -0.32049 0 6465
5.79 -2.6228 0.59302 1 9674
5.8113 0.7496 0.96267 0 8610
5.8474 6.8926 1.485 0 5153
5.9003 -6.1378 1.3988 0 10084
5.9126 4.8844 1.26 0 5964
5.9212 2.1903 1.0372 0 7513
5.9729 2.0917 0.59042 0 7591
5.9737 0.14391 0.41784 0 9026
5.9902 -3.3232 -0.6391 0 9839
6.023 0.056768 0.98958 0 9078
6.0284 3.5171 -0.98089 0 6658
6.0616 -3.6451 1.1621 0 9912
6.2222 -4.574 1.2688 0 10045
6.224 3.0048 1.1355 0 7021
6.2846 -5.9576 0.20105 0 10074
6.3805 9.5816 1.8913 0 4581
6.3974 6.1156 1.6675 0 5645
6.4477 -1.3999 -0.46137 0 9440
6.4702 -4.5036 1.4853 0 10009
6.5135 1.9282 1.116 1 7820
6.5614 6.4976 1.5171 0 5573
6.6 -7.4494 1.6351 0 10096
6.7412 7.6275 1.6724 0 5246
6.7418 -0.054128 0.78843 0 9132
6.7654 4.9298 0.97892 0 6254
6.8182 -4.2061 0.74741 0 9929
6.9576 -0.29769 0 0 9222
7.0426 0.14752 -0.16354 0 9035
7.1378 4.3347 -0.38944 0 6590
7.2892 2.4333 -0.71694 0 7651
7.4422 2.9016 -0.18545 0 7410
7.7112 4.5314 1.4695 0 6655
7.7228 3.593 -0.19776 0 7090
7.8258 -1.2297 1.3015 0 9414
7.8923 1.6057 1.3232 0 8240
7.9026 0.76511 1.3044 0 8757
7.9164 1.5618 -0.94361 0 8258
7.9277 6.3603 1.6698 0 6032
7.9451 0.62808 0.18504 0 8839
8.0806 -9.0631 2.2877 0 10093
8.0971 -1.0315 1.3411 0 9380
8.1084 -3.9617 1.0553 0 9734
8.2488 -1.6663 -0.58847 0 9436
8.2555 6.1624 1.6925 0 6205
8.3405 -0.35686 1.3715 0 9226
8.353 5.1047 -0.22728 0 6579
8.4303 -3.7587 1.5165 0 9661
8.5273 1.8374 1.4331 0 8177
8.8357 0.72643 0.82711 0 8825
9.2597 -1.5114 1.5414 0 9415
9.3057 -5.3424 1.7629 0 9871
9.341 -4.8668 1.7305 0 9791
9.3529 1.959 1.57 0 8209
9.4796 -6.1585 1.8573 0 9962
9.4916 -2.826 -0.22993 0 9487
9.5858 -5.353 1.2839 0 9848
9.7938 -4.0647 1.4903 0 9605
9.8282 -2.4013 0.70747 0 9457
10.145 5.0847 1.8644 0 6957
10.238 5.6984 1.925 0 6761
11.594 -2.6917 2.2426 0 9448
11.972 -7.3853 2.6503 0 9931
12.275 0.36216 2.3137 0 9015
-12.766 3.8252 -1.5585 0 13239
-11.953 5.4018 -1.5339 1 14152
-3.2076 2.987 -1.8308 0 16552
-0.88107 12.506 -1.7619 0 2241
-0.76713 -0.4889 -0.19336 2 11253
0.76577 11.118 -1.831 0 2344
2.7064 3.2843 -1.7776 0 5080
5.7614 8.5933 -1.9493 1 4598
