VERSION .7
FIELDS x y z intensity index
SIZE 8 8 8 8 8
TYPE F F F F F
COUNT 1 1 1 1 1
WIDTH 628
HEIGHT 1
VIEWPOINT 0 0 0 1 0 0 0
POINTS 628
DATA ascii
-4.9586 0.6185 0.82098 0 12277
-4.8759 0.082556 0.8012 0 11957
-4.7384 0.8577 0.79115 0 12438
-4.4711 -0.20929 0.62906 0 11718
-4.3292 0.023424 0.20189 0 11917
-4.035 1.9558 0 0 14007
-3.5449 -0.073017 0.66803 0 11830
-3.313 0.64938 0 0 12489
-3.2503 2.0295 0.44811 0 14804
-3.2247 1.9761 0 1 14737
-3.1705 2.2316 -0.36172 0 15144
-3.1566 1.1934 0.63581 0 13374
-3.1528 2.4465 0.37231 1 15487
-2.9762 0.58337 0.28295 0 12492
-2.745 1.6821 0.60656 0 14749
-2.4934 -3.7302 0.10417 0 10531
-2.1134 -2.5583 -0.15475 0 10789
-2.0344 -3.8848 0.2045 0 10401
-1.985 -3.5885 0.095211 0 10436
-1.7943 -2.5855 0.44229 0 10574
-1.7677 3.2207 -1.0535 0 1431
-1.6911 3.6366 -0.37417 2 1732
-1.4729 4.544 -0.1109 0 2081
-1.4577 3.7719 -1.0586 0 1945
-1.4055 -3.0641 0.078267 2 10326
-1.2327 -4.439 0.86799 1 10239
-1.0597 3.1708 0.39096 1 2063
-0.99652 -3.2232 0.23592 0 10247
-0.63212 -3.339 0.15848 0 10219
-0.52161 -3.0483 -0.14422 0 10213
-0.38467 4.6689 -0.10877 0 2341
-0.28162 -4.9594 0.81611 0 10173
-0.21879 3.5367 -1.1057 1 2351
-0.20847 -3.3227 0.4679 0 10174
-0.19143 -3.753 0.17525 0 10169
0.13669 4.0776 -0.57339 0 2416
0.14519 3.9976 0.27972 0 2424
0.18952 -3.2088 0.45176 0 10109
0.26808 -3.6332 0.25475 0 10103
0.27547 -4.0616 0.094514 0 10105
0.2778 -3.9234 0.64621 0 10104
0.33387 4.4927 0.21009 0 2456
0.40115 4.8482 -0.79925 0 2470
0.43396 4.3172 -1.4661 0 2505
0.45944 4.7111 0.44161 0 2498
0.60816 3.8881 -0.55307 1 2651
0.61732 3.5444 0.59109 0 2714
0.62493 4.0745 0.38457 0 2648
0.89614 3.119 -0.93055 0 3243
0.99415 4.2352 -1.47 0 2990
1.0015 3.5253 -1.3339 0 3227
1.015 3.6159 -0.35039 0 3209
1.0687 3.7616 -1.1213 1 3230
1.2452 -3.5578 0.6193 0 10074
1.2847 3.9918 0.19556 0 3393
1.3458 4.4916 0.21866 0 3300
1.3892 4.3166 -0.96388 0 3398
1.4659 3.6318 -0.27386 0 3754
1.5495 2.9402 0.62618 0 4251
1.6647 2.5537 0.57434 2 4673
1.8246 3.5872 0.37547 2 4175
2.0532 -3.1352 -0.34965 0 10003
2.0699 -2.8448 -0.16407 0 9954
2.1269 -2.3889 0.44953 0 9859
2.2697 -3.0098 0.35169 0 9936
2.2964 3.0955 0.63324 0 4889
2.3748 4.3233 0.46019 1 4336
2.4536 -1.8302 0.5029 0 9778
2.5405 -1.941 -0.52527 0 9786
2.6375 2.4569 0.67914 0 5386
2.6557 -3.6958 0.7477 0 9960
2.7091 -3.2852 -0.59844 1 9881
2.8405 1.3897 0.29502 0 6618
2.9146 -0.87276 -0.57323 0 9189
2.9211 -0.86582 -0.14208 1 9186
3.0447 -2.3985 -0.54472 0 9798
3.1321 3.3717 0.42935 0 5185
3.1468 3.3698 -0.53917 0 5189
3.2663 2.614 0.19509 0 5675
3.285 -2.8436 0.10087 0 9830
3.3176 1.4487 -1.0381 1 6822
3.3815 -2.0665 -0.46344 0 9626
3.3929 3.256 -1.3484 0 5336
3.4146 3.1267 -0.43195 0 5414
3.5148 3.3517 -0.22649 0 5342
3.5283 -0.64566 0.67581 0 9127
3.5969 2.2941 -1.1168 0 6108
3.6667 0.49511 -0.17255 0 8193
3.9402 -1.6168 -0.49805 1 9293
4.0244 -1.2558 0.7943 0 9196
4.0292 -2.5917 0.11123 0 9672
4.0644 0.46523 -0.094979 0 8285
4.07 0.66941 0.67766 0 8063
4.1911 1.3853 -1.2657 0 7248
4.1954 2.363 0.44923 0 6335
4.1979 2.2067 0.89354 1 6482
4.2009 1.9083 -1.3231 0 6756
4.2198 0.96104 0.81541 0 7764
4.341 1.3098 0.42303 0 7390
4.3686 -2.0343 0.4496 0 9412
4.3884 -0.71313 0 0 9110
4.7958 1.3879 -0.23282 0 7450
4.8128 0.62081 -0.11267 0 8224
4.839 0.45401 -0.68306 1 8365
4.9455 0.42137 0.81547 0 8420
4.9703 -0.42698 0.23264 0 8994
-1.1722 2.0778 0.22257 0 1383
-14.926 0.25271 0.34658 1 11954
-14.768 0.079902 1.0327 1 11918
-14.705 0.29262 0.68589 1 11966
-14.668 1.1853 0.68627 1 12147
-14.568 2.2474 -0.68739 1 12349
-14.565 2.8101 1.0373 2 12480
-14.466 2.8826 1.3761 1 12503
-14.406 -1.0478 -0.6736 0 11596
-14.246 3.5281 -0.6844 1 12679
-14.197 3.6057 0.34008 1 12712
-14.162 3.9035 -1.0272 1 12801
-14.064 3.8764 0.33869 2 12804
-14.023 -0.77417 0 0 11674
-14.002 2.9966 1.0013 1 12556
-13.988 -0.6939 0.6531 1 11702
-13.836 -0.48316 0.32142 1 11762
-13.807 1.439 0.32231 2 12217
-13.765 2.2492 0.97534 1 12377
-13.761 2.2484 1.6305 0 12378
-13.743 1.5949 -0.64518 0 12248
-13.713 2.6059 0 0 12466
-13.671 -2.2828 0 0 11273
-13.642 3.9736 -0.6626 1 12874
-13.629 2.9169 0 0 12553
-13.627 4.9274 -0.33642 1 13263
-13.59 5.5931 0.68534 1 13562
-13.513 1.767 0 0 12291
-13.483 2.3604 0 0 12412
-13.476 3.9254 -0.32588 1 12875
-13.417 6.0748 -0.68683 0 13808
-13.366 2.5788 -0.9519 1 12475
-13.346 3.5088 0 0 12750
-13.228 6.315 0 1 13964
-13.158 2.6626 -0.31167 0 12510
-13.096 6.4867 1.3635 1 14086
-13.048 2.676 -0.62114 0 12521
-12.797 1.4852 2.1166 0 12253
-12.751 3.9959 0.31024 1 12989
-12.691 2.8718 0.9099 1 12598
-12.671 7.4163 1.7169 0 14603
-12.589 -0.51222 -0.88102 1 11733
-12.57 -0.76661 -1.1749 0 11646
-12.449 6.6248 1.6491 0 14307
-12.43 4.6597 -0.30819 0 13339
-12.274 4.6405 2.1559 0 13372
-12.255 5.7224 -1.2618 1 13894
-12.23 3.8702 1.8028 0 13008
-12.155 3.8463 0.29598 1 13004
-12.154 6.0201 -0.63251 0 14075
-12.112 4.6226 2.4425 0 13391
-12.087 7.3117 -0.65878 0 14696
-12.052 3.1371 1.7502 0 12741
-12.034 3.0562 0.86819 1 12714
-11.975 5.887 -0.93306 1 14050
-11.96 2.4898 1.7168 0 12532
-11.937 4.2813 2.0836 0 13254
-11.812 4.4657 1.7747 0 13370
-11.77 9.0773 -0.69316 0 15456
-11.767 2.484 0.84098 1 12543
-11.724 2.9405 1.6987 0 12701
-11.674 8.835 0 0 15395
-11.637 2.281 -1.1063 0 12485
-11.615 7.6328 -0.64816 0 14946
-11.598 7.867 -0.32537 0 15034
-11.578 3.6995 0.56683 1 13022
-11.559 5.0332 1.1762 0 13714
-11.488 5.1631 -1.1751 0 13783
-11.486 7.8851 -0.97422 0 15070
-11.379 3.492 1.392 0 12962
-11.302 8.7696 -1.0003 0 15477
-11.17 8.5588 1.6456 0 15443
-11.169 8.8208 1.3278 0 15549
-11.139 5.0061 0.85396 1 13792
-11.138 4.1023 1.388 0 13309
-11.12 3.6949 1.3703 0 13095
-11.065 -7.7943 -0.94646 0 11140
-11.02 5.6224 -0.86512 1 14161
-10.949 -8.1489 -0.31687 0 11115
-10.891 4.2617 0.81782 0 13440
-10.741 7.9393 1.8772 0 15321
-10.65 2.7722 1.2869 0 12740
-10.64 3.9189 2.1363 0 13314
-10.626 8.1417 0.31079 2 15438
-10.585 2.3951 0.50608 2 12597
-10.552 4.2354 0.79508 0 13497
-10.538 6.8855 -0.58704 0 14926
-10.506 3.6297 -0.25806 2 13165
-10.467 -0.0018283 -0.24302 0 11895
-10.421 4.6091 1.3325 0 13755
-10.339 -9.467 -0.32546 0 11003
-10.32 9.2171 2.6069 1 16001
-10.317 9.166 0.3204 1 15965
-10.264 5.7668 -1.0984 0 14467
-10.248 -7.3556 -0.58826 0 11131
-10.212 -1.5846 1.4524 0 11314
-10.185 -1.73 0.23986 0 11266
-10.174 7.254 1.4612 0 15198
-10.172 -7.4337 -0.2925 0 11124
-10.127 4.9086 0.52481 2 14011
-10.123 4.9419 1.3174 0 14039
-10.118 0.61351 -1.4246 1 12078
-10.1 8.2637 1.834 0 15678
-10.097 -7.5621 -0.88214 1 11111
-10.089 3.2916 0 2 13054
-10.062 -10.46 0.67686 1 10957
-10.062 -9.3172 -0.6395 0 10992
-10.044 -1.6771 -1.1908 1 11270
-10.024 2.9826 0.97574 2 12908
-10.02 -0.059462 0 2 11877
-9.9761 4.3813 1.2742 1 13735
-9.9503 6.5386 1.9561 0 14959
-9.9193 -10.746 -0.33953 0 10919
-9.9034 6.7177 -0.8368 0 15032
-9.9014 8.3407 2.4392 2 15789
-9.8621 3.8907 1.49 2 13464
-9.8075 7.2943 0.56999 1 15337
-9.8027 -10.933 0.34092 1 10894
-9.7801 8.6893 2.1494 0 15976
-9.7715 10.776 2.39 0 174
-9.7661 7.0461 -0.8421 0 15226
-9.755 8.267 1.4953 0 15804
-9.7486 9.0685 0.30912 1 16145
-9.7343 9.0046 1.2371 1 16128
-9.7342 3.9744 -0.73523 1 13534
-9.7305 -11.305 0.69558 1 10844
-9.724 8.4858 1.2041 1 15909
-9.7223 8.2889 0.5958 1 15820
-9.6914 8.6105 0.60456 2 15967
-9.6843 7.0697 1.4022 0 15279
-9.6807 -10.609 0.33345 1 10909
-9.609 9.4758 0.62934 1 16358
-9.5676 7.9234 0.57931 1 15716
-9.5508 -6.3263 -0.80108 0 11174
-9.5506 0.078346 1.1169 1 11928
-9.5431 7.0538 0.55341 1 15315
-9.5058 9.1093 -0.92065 1 16250
-9.4759 -0.27793 0 0 11789
-9.415 8.8135 0.29942 1 16168
-9.4 3.6781 0 0 13437
-9.3898 5.6419 1.022 0 14686
-9.3757 -1.1462 -0.2193 1 11405
-9.2992 10.622 1.651 0 280
-9.2814 4.8337 -1.2238 1 14229
-9.2685 -10.704 1.9899 0 10854
-9.2626 3.9719 -0.94025 2 13660
-9.2617 8.9752 2.4299 0 16308
-9.2428 3.8342 0.93356 2 13585
-9.2126 0.15598 1.736 0 11958
-9.1599 -7.1103 -0.81085 0 11091
-9.1479 2.2385 -0.43919 0 12666
-9.1374 10.021 -0.63242 0 141
-9.1247 -9.3276 0.30295 1 10971
-9.0793 9.1047 -0.59962 0 16411
-9.0561 -9.6945 1.2377 0 10934
-9.0542 -0.58075 1.2751 2 11642
-9.0209 9.1605 -0.29849 0 16451
-8.973 9.1119 1.7973 0 16461
-8.9665 -10.595 0.32226 2 10822
-8.9539 2.7785 -0.65557 1 12970
-8.9514 -10.706 1.6319 0 10808
-8.8717 10.94 2.3141 1 533
-8.8334 7.4411 -1.0775 1 15773
-8.779 -10.563 1.9303 0 10800
-8.7324 -6.7419 1.8125 0 11097
-8.7262 -11.141 1.6549 0 10724
-8.67 -9.4417 -0.29761 0 10914
-8.6326 10.158 0.30949 1 368
-8.6215 7.5715 1.8851 0 15934
-8.5746 9.0801 1.4605 0 36
-8.5018 4.3039 1.1143 0 14151
-8.492 8.9926 0.5768 1 30
-8.4171 2.9081 1.0414 0 13173
-8.4162 2.9078 -0.41524 0 13164
-8.4105 6.068 -0.96756 1 15225
-8.3415 5.2774 -1.1543 2 14828
-8.34 -6.3995 -0.73509 1 11098
-8.3102 9.0595 2.3163 1 135
-8.2585 3.0959 -0.82284 2 13337
-8.1751 -5.9048 1.9 0 11129
-8.1584 -12.43 0.69335 1 10511
-7.9897 7.1788 2.0237 0 16024
-7.9384 11.308 -1.289 0 939
-7.8653 7.4926 2.0467 2 16245
-7.8163 -10.343 0.60456 1 10671
-7.7425 2.376 -0.75558 1 12954
-7.6777 0.48842 0.53796 0 12092
-7.6286 10.164 2.3944 0 767
-7.5957 11.027 1.2492 2 993
-7.5289 1.5893 1.2642 0 12546
-7.5177 4.3684 1.0168 0 14582
-7.5154 9.8333 1.7394 1 713
-7.5043 6.862 -1.1892 0 16071
-7.4469 9.6875 2.3022 0 700
-7.4369 7.1642 1.9456 0 16288
-7.4238 -6.5634 1.628 0 11027
-7.383 10.018 0.58034 1 813
-7.3508 11.005 2.1744 0 1068
-7.3412 8.9948 1.9075 1 515
-7.3329 -5.8684 1.0983 0 11077
-7.2768 0.1448 0.50894 1 11967
-7.2632 -6.3071 -1.3519 0 11033
-7.2478 -5.1698 1.4627 0 11135
-7.2462 9.1522 0.81629 0 601
-7.2407 8.271 2.0711 0 285
-7.2376 9.0308 1.3534 2 566
-7.2225 -6.1295 0.66241 0 11055
-7.1884 2.6948 1.4464 0 13354
-7.1074 9.0807 0.53776 1 633
-7.0744 -6.9836 1.6332 0 10985
-6.9334 -9.062 -0.79787 2 10686
-6.876 -9.7256 -0.27653 0 10589
-6.8474 -7.726 1.2073 0 10881
-6.7315 2.4341 0.16619 0 13265
-6.7297 -7.2446 1.863 0 10928
-6.697 4.2091 -0.18364 0 14814
-6.6953 10.093 1.1299 1 1081
-6.6054 -5.4742 1.4095 0 11065
-6.5599 -4.5119 0.93106 0 11154
-6.5126 1.6952 -0.47058 0 12733
-6.4032 2.4004 0.63798 0 13346
-6.2655 -0.43703 0.58596 1 11614
-6.1228 6.0717 -0.60297 0 16372
-6.0457 -6.5494 1.6793 0 10923
-5.9838 6.0006 0.991 0 16421
-5.8954 0.51163 -0.27596 2 12162
-5.8582 5.0247 -0.17919 0 15836
-5.8566 0.35513 0.96397 0 12085
-5.7423 1.6184 0.98018 0 12838
-5.7146 0.52912 -0.53543 2 12175
-5.661 0.62298 0.66601 0 12235
-5.6211 1.4631 -0.13485 0 12735
-5.6033 1.1166 1.0765 0 12505
-5.5452 2.5493 -0.42677 2 13854
-5.5273 7.5881 0.43779 0 847
-5.4782 2.4425 0 0 13766
-5.3757 2.9602 -1.3044 1 14418
-5.3662 3.9665 0.62256 0 15318
-5.223 3.0975 0.14098 0 14640
-5.2187 -5.4898 1.2444 1 10950
-5.1985 -3.5289 0.29301 0 11162
-5.1712 1.523 -0.37696 2 12889
-5.1397 1.4641 0.24922 0 12850
-5.1184 -3.8096 0.74615 0 11116
-5.1107 2.7968 0.95716 0 14395
-5.0698 0.90307 0.48044 1 12426
-4.9827 -3.7766 1.0272 1 11106
-4.9038 -9.7079 1.7869 0 10372
-4.9027 8.0255 1.7719 0 1262
-4.8987 -6.3681 1.32 0 10703
-4.8395 -3.6468 0.56534 0 11110
-4.8254 2.0017 0.98427 0 13593
-4.8158 -8.5887 1.8552 0 10443
-4.7432 -8.2888 1.7993 0 10449
-4.6807 -4.0189 0.2877 0 11045
-4.6735 1.8437 0 0 13455
-4.6552 -7.9695 0.21428 0 10455
-4.5935 -5.1232 1.2964 0 10896
-4.4698 -8.9807 1.6481 0 10367
-4.3928 2.5526 0.95724 0 14587
-4.2902 3.0953 0.24671 0 15234
-4.2736 -6.2344 0.88391 0 10559
-3.9826 3.7504 0.12701 0 16191
-3.776 -5.9022 1.3201 0 10490
-3.6581 7.0452 1.4957 0 1543
-3.6557 -3.7566 0.9876 1 10967
-3.573 -7.0734 1.4931 0 10373
-3.4415 -4.5803 0.94127 0 10666
-3.4334 7.3832 0.9522 0 1738
-3.3708 4.8015 0.54732 1 945
-3.3046 4.7653 -0.815 2 967
-3.2087 -6.6346 0.86184 0 10360
-3.086 -9.223 1.5979 0 10254
-3.0662 -9.164 -0.22436 0 10252
-2.9912 -9.7714 1.6789 0 10244
-2.8832 6.9231 1.2321 0 1873
-2.8726 -5.8559 1.0716 0 10363
-2.8219 5.4744 -0.43068 2 1549
-2.716 -7.0792 1.2457 0 10285
-2.6555 6.3763 0.48299 0 1871
-2.5937 10.656 1.8018 0 2209
-2.5187 -7.8215 0.3832 0 10248
-2.5062 7.5735 0.74425 1 2070
-2.5051 9.8135 1.664 0 2195
-2.4599 9.4033 -1.1367 0 2180
-2.3375 -5.7913 0.29124 0 10296
-2.3372 -5.337 0.68134 0 10314
-2.3256 -7.5221 -0.36717 0 10245
-2.3242 8.8846 0.21321 0 2183
-2.3194 -7.5771 1.1137 0 10243
-2.0918 -5.055 0.8988 0 10306
-2.0255 -5.3717 0.67135 0 10276
-1.996 -5.6901 0 0 10257
-1.9669 -4.6723 0.59283 0 10311
-1.9143 -7.6606 1.2973 0 10232
-1.8669 -6.7963 0.16364 0 10238
-1.8394 6.3519 -0.30838 1 2147
-1.7963 4.9894 0.87124 0 2001
-1.7531 7.9011 0.37742 0 2231
-1.6814 -7.9994 1.5401 0 10224
-1.6605 6.0572 -0.43919 0 2167
-1.6585 -5.5919 0.54416 0 10240
-1.6088 -8.0002 0.95429 0 10222
-1.5269 9.9901 0.94285 0 2287
-1.4355 -5.8181 1.1291 0 10231
-1.3441 8.3173 -1.1841 0 2283
-1.2979 -5.1294 0.49363 0 10233
-1.2886 5.9801 0.28528 0 2238
-1.2767 -5.2372 -0.12515 0 10229
-1.2337 5.7255 1.1035 0 2241
-1.2082 6.4004 1.2272 0 2265
-1.1988 9.9497 1.6465 0 2315
-1.1984 -4.9162 0.83135 0 10230
-1.195 -7.3537 1.224 0 10211
-1.1036 -6.5525 0.30987 0 10212
-1.0316 -9.9821 -0.23299 0 10190
-1.0205 5.5877 0.39719 0 2268
-1.0172 -4.9077 0 0 10223
-0.87717 9.3142 0.87281 0 2336
-0.86088 6.236 -0.29357 0 2295
-0.83535 -6.4318 0.6051 0 10202
-0.58454 -5.2031 0.86021 0 10193
-0.58116 -6.7651 0 0 10182
-0.55661 4.9937 0.82552 0 2324
-0.49197 6.6675 0.46751 0 2346
-0.4576 -4.9896 0.23366 0 10185
-0.39925 8.4037 1.3822 0 2355
-0.32879 -7.2686 0.16893 0 10165
-0.28622 7.9574 0.5568 0 2363
-0.27433 8.3132 0.58163 0 2365
-0.15513 -6.2582 1.0285 1 10150
-0.054661 -11.185 2.1074 0 10139
-0.021778 5.6713 0.52911 1 2390
-0.021298 5.5465 -0.12877 0 2387
-0.0081578 6.6777 -0.46695 0 2392
0.01363 7.8101 -0.72864 0 2394
0.053463 11.346 1.8641 0 2399
0.065374 -6.6884 0.31192 0 10133
0.11266 8.4934 1.3955 0 2402
0.12951 6.7448 0 0 2406
0.13058 -6.0817 0.42537 0 10127
0.14763 11.129 2.097 0 2403
0.19884 6.471 -1.2198 0 2415
0.32906 -7.9505 1.3073 0 10119
0.38142 -8.058 0.94338 0 10116
0.48669 6.5492 0.76799 0 2459
0.59283 -10.038 1.652 0 10110
0.61463 9.8516 1.1543 0 2445
0.75837 7.7763 1.0981 0 2501
0.81172 -5.0228 0 0 10092
0.98726 6.5589 -0.93218 0 2630
1.0264 5.1042 0.98094 0 2828
1.041 6.7868 -0.64058 0 2643
1.0614 -7.0849 1.177 0 10095
1.0769 6.401 1.0664 0 2693
1.1282 8.5005 1.4088 0 2582
1.1321 -6.0143 1.0055 0 10088
1.1929 6.3072 -0.29935 0 2768
1.2451 -7.4243 0 0 10091
1.2709 5.2817 -1.0235 0 3027
1.2829 5.3313 1.0331 0 3028
1.3696 10.781 -0.75993 0 2561
1.4429 -6.7882 0.64746 0 10084
1.6044 -4.759 0.46855 0 10076
1.6531 -11.718 2.2296 0 10097
1.6979 5.2194 -0.64185 1 3401
1.7252 -8.7447 0.83157 0 10086
1.782 7.1261 1.2068 0 3074
1.8052 5.8388 0.57017 0 3343
1.87 8.5263 1.4341 0 2916
1.8927 5.6013 0.13727 0 3467
1.9658 5.3516 0.5319 0 3604
2.0318 -10.433 1.7464 0 10087
2.0553 5.3099 -0.26553 0 3681
2.0603 8.4519 -1.4293 0 3029
2.0916 12.198 2.0333 0 2704
2.0931 5.7509 1.0055 0 3591
2.111 8.5559 -0.61623 0 3048
2.1967 -5.591 0.70248 0 10068
2.271 -4.9218 0.5057 0 10059
2.3959 5.8359 0.58856 0 3787
2.4584 -7.024 0.52038 0 10073
2.5224 6.5165 0.65192 1 3688
2.6239 10.131 1.7195 0 3120
2.641 -8.3054 1.4318 1 10078
2.7261 -4.4978 0.8641 0 10024
2.7631 -7.5463 1.3203 0 10072
2.781 -7.0205 0.70449 0 10067
2.7953 -4.8967 0.92636 0 10047
2.9436 -6.2357 1.1329 2 10057
3.0197 5.104 0.13769 0 4487
3.1761 -11.217 1.9153 0 10081
3.2974 -5.7762 0.62052 0 10046
3.4927 4.2279 0 0 5040
3.5105 -3.6773 -0.47431 0 9843
3.5235 7.9813 1.6438 0 3907
3.5435 3.7484 -1.3503 1 5206
3.5847 4.3394 0.92474 0 5042
3.628 7.0805 -0.18471 0 4187
3.734 -3.3858 0.82811 0 9831
3.7624 -6.2444 1.1977 1 10026
3.788 7.2859 0.19065 0 4215
3.9157 3.7341 0.37836 0 5346
3.9497 10.037 2.0322 0 3722
3.9761 -8.8184 0.22459 0 10060
4.1232 -8.3573 1.5311 0 10054
4.1738 -5.6017 0.65173 0 9945
4.2943 3.3154 -1.4202 0 5742
4.2949 2.9363 -1.362 1 5977
4.3153 5.7121 0.66789 0 4913
4.3171 -7.3114 0.39596 0 10029
4.3257 3.8244 -0.40375 1 5485
4.3395 -3.0273 -0.86929 0 9734
4.5084 5.0566 -0.63204 0 5141
4.5604 -4.949 1.1057 0 9851
4.5823 3.7989 0.97791 0 5604
4.6336 -2.4565 0.73706 0 9535
4.639 -6.226 -0.72437 0 9944
4.672 -6.9579 0.98008 0 9990
4.6823 2.2756 0 0 6630
4.6913 8.8379 1.6439 0 4266
4.7027 6.1866 0.5434 0 4924
4.7269 7.6805 1.0546 0 4554
4.7286 3.3147 -0.6753 0 5918
4.7652 -2.3016 -0.61885 2 9448
4.7661 5.5061 1.1964 1 5105
4.8185 4.4123 0.76404 0 5420
4.8212 -1.3843 0 0 9180
4.846 1.8874 0.60817 0 7016
4.8936 6.1389 1.2898 0 4991
4.8977 2.1388 0.87804 0 6826
4.9258 5.8579 -0.35692 0 5065
5.0873 -1.604 1.005 0 9201
5.0972 -1.8211 -1.0198 0 9233
5.1195 -0.84477 0.9776 0 9114
5.129 -5.2229 0.68294 0 9841
5.1327 6.178 0 0 5050
5.1869 4.695 1.1494 1 5442
5.2195 -11.668 2.1001 0 10061
5.2346 0.50772 0.49066 0 8359
5.2876 8.2173 0.91164 0 4643
5.3221 -4.8803 1.3605 0 9832
5.3239 -0.65935 0.12455 0 9065
5.3903 -3.879 1.0911 0 9759
5.4628 -1.6005 -0.13216 0 9183
5.5386 -0.50795 0.51889 1 9004
5.5651 -5.2223 1.2538 0 9834
5.5871 3.0411 -0.29664 0 6403
5.6197 0.10398 0.92344 0 8679
5.6307 -7.5983 1.5538 0 9951
5.6352 -0.18989 -0.92636 0 8852
5.6434 5.7029 1.1276 0 5268
5.7207 -0.34288 -0.67019 0 8928
5.7356 4.9282 0 0 5544
5.7873 1.5464 -0.13908 1 7553
5.8379 -5.8726 1.1638 0 9840
5.8968 7.8997 1.6196 0 4898
5.9081 3.7436 0.81793 1 6120
5.9328 0.36806 0.55456 1 8519
5.9685 -1.4914 0 0 9168
6.0235 1.8565 -0.29394 1 7353
6.1244 0.45189 -0.42942 0 8466
6.1507 1.7219 -0.89767 0 7491
6.1803 1.7302 1.0544 0 7506
6.253 -5.3784 0.57675 0 9829
6.2943 1.4335 1.0606 0 7763
6.4442 1.9052 -1.104 0 7412
6.4679 0.45682 0 0 8483
6.5391 5.0486 1.3573 0 5745
6.568 -6.3493 1.7212 0 9839
6.5914 4.5931 -0.18652 0 5933
6.6257 -2.1107 0.64876 0 9202
6.6409 1.9835 -0.8105 0 7396
6.6886 7.1202 1.605 0 5199
6.727 -3.5198 1.2474 0 9523
6.8794 -0.93503 0.81189 0 9086
6.8885 -0.69121 0.48411 0 9022
6.9168 0.12798 -0.97226 0 8671
6.9325 4.7095 0.98008 0 5990
6.9508 12.226 2.3105 0 4412
6.9631 3.3317 -0.53978 1 6656
7.031 2.9729 1.2542 0 6877
7.0665 1.0372 1.1734 0 8145
7.2079 -1.6906 0.86579 0 9163
7.2119 3.1 1.479 0 6852
7.3167 10.096 2.0486 0 4855
7.3649 -4.4113 1.4104 0 9618
7.4104 1.2188 0.17436 0 8058
7.4269 -5.1484 1.4847 0 9732
7.4546 8.7097 1.8835 0 5089
7.4689 7.2026 1.4583 0 5327
7.4932 -2.3626 1.1042 0 9197
7.5615 0.46911 0 0 8516
7.5648 -3.0288 0.76023 0 9281
7.6125 -1.7155 1.282 0 9157
7.7608 2.8431 1.3579 0 7111
7.7901 2.1063 1.3258 0 7544
7.8271 0.82681 -1.1061 0 8318
7.8792 5.6952 0 1 5864
8.0159 1.7742 1.3488 0 7793
8.0323 1.9002 0 0 7710
8.217 1.3044 0.77621 0 8086
8.2439 5.85 1.4207 0 5902
8.2994 7.3815 1.8248 0 5479
8.3273 -0.64221 1.3722 0 8978
8.3679 3.2861 -0.62865 0 6997
8.474 3.9389 1.5353 0 6719
8.5296 -0.18761 1.4017 0 8821
8.5374 -1.0573 1.6208 0 9067
8.5453 -0.38505 -1.2022 0 8888
8.8305 1.0889 -1.0405 0 8243
9.1855 2.4269 0.88637 0 7573
9.5882 -7.7783 2.0285 0 9812
9.8947 -4.8153 1.0266 0 9460
10.437 -4.3896 0.26289 0 9308
10.761 -5.0453 2.2392 0 9423
11.165 -4.1346 1.9561 0 9246
0.444 5.5548 -1.8829 0 2465
0.98382 6.4143 -1.6988 0 2649
4.9833 4.8359 -1.8178 0 5317
6.2494 1.8085 -1.8655 0 7455
6.3115 4.2092 -1.986 0 6029
