VERSION .7
FIELDS x y z intensity index
SIZE 8 8 8 8 8
TYPE F F F F F
COUNT 1 1 1 1 1
WIDTH 578
HEIGHT 1
VIEWPOINT 0 0 0 1 0 0 0
POINTS 578
DATA ascii
-4.3453 1.4996 0.10672 0 12251
-4.1596 0.46804 0.39052 1 11123
-4.0546 1.7917 0.10292 2 12790
-4.0188 1.4922 -0.099528 0 12395
-3.2245 2.3982 -0.37491 0 14280
-3.1531 1.8692 0.69062 0 13590
-2.9883 3.0155 -0.19798 1 15420
-2.9826 3.7149 -1.3661 1 16154
-2.9237 3.0895 0.29744 0 15596
-2.8761 3.5631 -0.21354 0 16137
-2.3617 -4.2258 -0.45164 0 8834
-2.3436 4.3218 -1.287 0 17178
-2.2724 3.042 0.62384 0 16351
-2.1833 3.8652 0.20702 0 17091
-2.1814 -3.8525 0.30958 0 8844
-1.99 -2.5785 -0.075621 0 9239
-1.9882 -4.2214 0.54568 0 8718
-1.9128 -3.6433 -0.095536 1 8789
-1.8907 3.0506 -0.93956 0 16868
-1.8211 3.9377 0.50735 0 17522
-1.7018 3.1383 0 0 17175
-1.6347 3.5902 0.36804 1 17551
-1.6104 -3.0455 -0.32141 0 8794
-1.4087 -4.1524 0.82615 0 8619
-1.3263 -3.3295 0 0 8658
-1.2997 -3.1271 0.63803 0 8684
-1.1765 3.7795 0.27679 0 144
-1.1225 -3.6924 0.36005 0 8615
-1.0971 4.1522 0.50224 0 289
-1.0599 -3.7158 0 1 8609
-0.96761 2.9569 -1.0513 0 93
-0.92938 -4.3315 0.83467 0 8572
-0.90578 4.7348 -0.67749 1 424
-0.85595 -4.4913 0.42656 0 8562
-0.80423 4.2767 0.71495 0 434
-0.78521 3.8083 -1.4153 0 398
-0.37764 -4.4878 0.73992 0 8510
-0.27104 4.3937 0.51478 0 706
-0.2565 4.158 -1.2999 0 703
-0.23313 -3.6546 0 0 8501
-0.21773 3.9189 0.36618 1 721
-0.091335 -3.9638 0.6514 0 8473
-0.060989 -3.012 0.21066 2 8469
-0.05034 -4.3699 0.51106 0 8463
-0.0022742 4.3438 0.71365 2 877
0.052949 4.7402 -0.77883 1 902
0.14141 4.9693 0.81676 0 965
0.16388 -3.7534 -0.087226 0 8437
0.18787 4.3909 0.41003 0 1000
0.28497 3.3105 -1.2094 0 1093
0.57503 3.1831 0.53143 0 1229
0.73637 3.4466 -1.0998 0 1277
0.90183 4.3433 0.83578 0 1268
1.2355 -4.3779 0.31809 0 8395
1.3517 -3.6346 0.73061 0 8372
1.3931 3.0569 -1.1351 0 1727
1.4582 -3.9889 0.49666 0 8373
1.5033 -3.2415 0.67321 0 8357
1.76 -2.833 0.46874 1 8314
1.7843 -3.6007 -0.37491 1 8349
1.8045 -4.2367 0.86762 0 8362
1.8452 -2.7878 0.077617 0 8297
1.9007 3.4546 -1.4351 0 1913
1.9236 -3.2853 0.71728 0 8327
2.109 2.5813 0.3898 1 2478
2.1405 -3.6064 0.68901 0 8323
2.2528 2.5852 -0.079613 1 2575
2.2959 -4.1952 0.33441 0 8335
2.3806 2.2301 -0.2281 1 2957
2.487 -2.8975 -0.53665 2 8221
2.5242 -3.8369 0.32116 0 8300
2.7478 -1.6694 0.074646 0 7875
2.8124 2.1713 -0.082491 0 3355
2.9064 -3.5484 0.53638 0 8235
2.9553 -2.7137 0.28056 0 8151
2.986 -1.3083 0.22796 0 7542
3.0235 -3.7577 -0.44997 0 8239
3.1661 3.3108 0.64381 0 2761
3.2302 -2.8478 0.70749 0 8145
3.2752 -1.2697 -0.32772 0 7442
3.3726 2.6039 0.098924 0 3358
3.3998 3.3561 0.4457 0 2864
3.4049 0.58936 0.24164 0 5854
3.4187 2.4693 0.49318 0 3510
3.4418 -1.9322 0.64848 0 7803
3.4524 2.1181 -0.47366 0 3833
3.5246 -2.6024 0.20431 0 8055
3.6263 0.76815 0.43347 0 5662
3.64 0.78168 0.086437 0 5642
3.6605 2.2021 -1.2249 0 3885
3.6766 0.55932 -0.26005 0 5961
3.6969 -1.0866 0.35949 0 7342
3.7805 0.37601 0.7158 0 6250
3.8297 1.8588 0.69939 0 4330
3.8641 -0.47993 -0.63973 0 7167
3.8909 2.8435 0.90799 0 3487
3.9224 0.19527 -1.2255 0 6499
3.9376 0.717 0.65756 2 5812
3.9394 -0.87768 0 0 7306
4.1039 -1.1281 0.59817 0 7324
4.361 -0.010656 0.40687 1 6741
4.4217 -1.7266 0.22136 0 7448
4.5022 1.442 -0.66441 0 5068
4.8499 -1.185 -0.23282 0 7313
4.8699 -0.67662 0.4587 0 7207
4.9044 -0.84097 0 2 7264
-2.2828 1.2389 -0.74477 2 13323
-2.0417 -1.9287 0.52916 0 9559
0.26763 2.907 -0.41028 1 1101
0.88633 1.1308 -0.80725 1 2403
-13.973 -0.30001 2.6332 0 10532
-12.807 4.0035 -1.2518 0 12073
-12.199 3.4313 -0.29422 0 11902
-12.061 4.5144 -0.90056 0 12413
-11.867 -8.5398 -1.0224 0 9972
-11.596 3.8486 0.85438 1 12180
-11.44 4.9385 0 0 12736
-11.357 4.7067 -0.85968 0 12647
-11.351 7.842 -1.2871 0 14051
-11.315 3.5372 0.27523 0 12077
-11.27 -9.877 -0.34793 0 9676
-11.208 3.0117 1.6311 0 11843
-11.183 9.6491 -0.34292 0 14807
-10.969 -9.1683 -0.33191 0 9760
-10.94 5.8589 0.57875 1 13280
-10.936 -7.7257 -0.93627 0 9998
-10.883 3.061 -1.322 1 11898
-10.625 -7.697 2.1556 0 9970
-10.617 3.1873 1.5579 1 12011
-10.577 10.614 -0.69875 0 15398
-10.531 4.5465 -0.26632 1 12735
-10.517 8.6017 -0.31543 0 14611
-10.512 5.3933 0.55099 1 13160
-10.331 1.5273 1.2212 0 11290
-10.305 8.5799 0.62534 1 14683
-10.243 1.0025 0 0 11050
-10.196 5.1212 0.53208 1 13103
-10.166 8.9217 1.5817 0 14882
-10.139 8.8984 0.31321 1 14876
-10.068 8.3822 -0.30415 0 14678
-10.047 9.0784 0.63148 2 14991
-10.03 -7.4407 0.58239 2 9940
-10.022 -11.014 -1.0413 0 9412
-9.9415 5.6201 0.79857 0 13441
-9.9048 10.467 2.0252 0 15602
-9.8574 8.207 0.89693 1 14685
-9.8518 8.7008 0.91911 1 14900
-9.8366 -0.66887 0.2289 2 10357
-9.8059 -7.4539 2.3207 0 9911
-9.7891 -8.5275 0.30142 1 9688
-9.7847 -7.6172 1.7427 1 9874
-9.7548 -8.1534 2.0888 1 9764
-9.7418 9.7181 1.2838 1 15385
-9.6668 -8.421 -1.1961 0 9684
-9.6651 1.7147 0 1 11415
-9.6203 9.9343 0.6449 1 15511
-9.6058 -11.387 2.0937 0 9353
-9.5777 4.9138 -1.2588 2 13151
-9.566 4.8762 2.023 0 13148
-9.5107 -11.081 1.3624 0 9372
-9.4998 3.7459 -1.4352 0 12525
-9.495 7.9531 0.8661 1 14707
-9.4835 4.7988 0.49565 1 13120
-9.4283 0.18103 0 0 10699
-9.4153 4.7994 0 2 13137
-9.3858 -11.595 2.0965 0 9305
-9.3734 -7.7875 1.7127 0 9772
-9.3594 6.6686 -1.0722 0 14153
-9.2904 5.9918 0.25666 0 13836
-9.2813 -7.7577 0.84587 1 9762
-9.2664 -7.931 1.1379 0 9723
-9.2469 -11.563 2.4325 0 9294
-9.2464 -7.5465 0.55658 1 9797
-9.1998 -0.81135 0.21442 2 10294
-9.1959 10.242 -0.9625 0 15776
-9.1891 2.1858 -0.2193 2 11693
-9.1556 -7.4724 1.6609 0 9799
-9.0582 9.0361 0.29705 1 15379
-9.058 -7.8907 1.9737 1 9693
-9.0283 6.2772 0.51279 1 14080
-9.0077 10.329 1.9262 0 15897
-8.9572 -0.78996 0 2 10293
-8.9465 10.321 1.2743 0 15915
-8.886 9.5024 0.6067 1 15637
-8.8387 2.3204 1.2843 0 11813
-8.7808 10.306 2.551 0 15980
-8.7505 2.3791 -0.42288 0 11852
-8.7415 10.511 0.95594 1 16051
-8.7413 8.6684 0.57409 1 15357
-8.7247 -0.84624 0.20351 2 10269
-8.6987 1.4681 0.82302 0 11375
-8.6979 -0.59144 0 2 10356
-8.6243 10.37 0.62897 1 16049
-8.5957 -0.18456 -0.19961 2 10526
-8.5435 12.075 -0.34343 0 16500
-8.5377 -11.751 2.0414 0 9151
-8.53 -11.81 0.67937 1 9139
-8.5136 -6.0884 0.4881 1 9985
-8.5109 -11.646 2.7177 1 9160
-8.4289 10.313 1.8719 0 16111
-8.41 8.9934 1.7305 0 15644
-8.3996 10.462 1.569 0 16156
-8.3829 10.195 1.2314 0 16091
-8.3355 12.461 -0.69912 0 16668
-8.3343 9.0192 1.4361 0 15682
-8.3289 -6.2558 0.7284 0 9927
-8.2782 1.1737 0.97776 0 11261
-8.1972 -11.151 1.6184 0 9167
-8.1124 -12.1 2.7447 1 9038
-8.0865 -11.984 1.3488 2 9043
-8.0382 -11.989 2.3715 2 9037
-7.9521 1.4595 0.75428 1 11448
-7.9331 -10.099 1.5018 0 9268
-7.8482 -12.007 0.66894 1 8995
-7.802 -11.209 1.5971 0 9085
-7.7237 -8.7886 -1.3683 0 9389
-7.6862 -8.4976 0.80122 0 9410
-7.5575 -10.996 1.8752 0 9070
-7.4831 -12.868 -1.3887 0 8869
-7.4783 9.6548 2.0064 0 16255
-7.4744 -8.3128 0.25954 0 9406
-7.204 0.87305 -1.0199 2 11157
-7.0842 -6.9277 1.1587 0 9519
-7.0713 -12.402 2.3456 1 8854
-7.0662 4.298 1.1624 0 13666
-6.9154 -11.656 1.2644 0 8885
-6.7179 -0.16301 1.104 0 10520
-6.6916 10.455 -1.4517 2 16777
-6.6529 -4.7315 -0.18954 0 9991
-6.5914 0.31776 0.77171 0 10836
-6.5888 6.4613 1.5162 1 15323
-6.4321 0.38551 1.0586 0 10887
-6.3619 -7.6765 1.1659 0 9330
-6.2692 -13.414 2.0809 0 8715
-6.2059 -8.4421 1.9741 0 9169
-6.0647 -12.239 2.2441 0 8746
-6.0559 0.13531 -0.28248 0 10711
-6.0476 6.896 0.85572 0 15873
-5.8954 2.3044 -0.88959 1 12505
-5.8147 -0.0071045 0.54249 0 10608
-5.7995 2.5229 0.59005 1 12760
-5.7423 4.0673 0.98896 0 14146
-5.6879 1.5283 -0.27466 1 11836
-5.6417 6.1417 0.58316 0 15701
-5.6206 -8.5467 -0.23749 0 9003
-5.5145 10.917 -1.4303 1 17305
-5.3186 7.9508 1.8023 0 16678
-5.2918 1.3066 0.38115 0 11740
-5.1921 4.4533 1.1238 0 14798
-5.0335 2.9449 0.27195 0 13542
-5.0196 1.5692 -0.36776 2 12074
-4.9366 -7.3161 1.0321 2 9044
-4.9269 2.1957 0 0 12806
-4.893 -5.8375 0.71062 0 9343
-4.7863 -6.2421 -0.18262 0 9228
-4.756 6.5221 1.5208 0 16417
-4.6313 2.3435 0.85275 0 13127
-4.4244 5.8842 -0.17092 0 16328
-4.3507 -4.3069 1.0058 0 9507
-4.278 5.2025 0.471 0 16089
-4.2415 4.806 0 0 15844
-4.2087 -11.022 1.9383 0 8641
-4.1174 -8.7419 1.3581 0 8719
-3.9065 -3.7778 1.0239 0 9531
-3.8921 -5.4889 0.62776 1 9113
-3.8462 -8.9652 0.22649 0 8691
-3.8206 -3.3671 -0.11824 1 9665
-3.7599 -4.1567 0.78772 0 9411
-3.5828 8.8767 0.89306 0 17738
-3.5801 -3.8661 0.49158 0 9427
-3.5346 6.2575 0.67049 1 17092
-3.3812 -4.1281 1.0054 0 9318
-3.2667 5.7086 0.76915 0 17060
-3.1852 -6.0668 1.1258 1 8793
-3.0395 -6.3128 -0.32674 0 8724
-2.9485 4.0672 -1.4405 0 16429
-2.9096 -8.1802 0.81002 0 8624
-2.8978 5.2732 0.70364 0 17149
-2.7799 -5.9479 0.61253 0 8714
-2.7301 -7.2174 1.2678 0 8639
-2.7154 4.3812 -0.24037 0 16866
-2.6698 7.473 1.3038 0 17885
-2.5768 6.8956 1.2094 0 17837
-2.5078 -4.7423 0.12455 1 8796
-2.4842 9.4023 1.8323 0 291
-2.4518 5.551 -0.14089 0 17602
-2.4318 -10.176 1.2235 0 8579
-2.4317 4.4563 -0.11786 0 17162
-2.3859 6.2187 1.0943 0 17811
-2.2014 5.3173 0.53692 0 17705
-2.0701 -5.82 1.0149 0 8625
-2.0497 5.1168 -0.25705 0 17745
-1.9706 -6.9086 0.33503 0 8610
-1.9339 7.1524 1.0413 0 271
-1.7605 -7.6622 0.73347 0 8577
-1.7543 -6.0147 0.73268 0 8612
-1.6652 -6.7949 0 0 8580
-1.6609 10.498 2.0026 0 487
-1.6197 -5.0599 0.87286 0 8616
-1.6184 -7.3364 0.87856 0 8574
-1.5916 -11.865 1.9668 0 8538
-1.5055 -4.9522 0 0 8614
-1.4464 -8.3915 0.59544 0 8556
-1.4075 -6.6615 0.31751 0 8570
-1.3761 -8.4219 1.402 0 8554
-1.3574 -6.8119 0.64801 1 8564
-1.3253 -6.3603 0.30298 0 8568
-1.3176 -6.517 1.0924 0 8566
-1.288 -6.7584 0 0 8561
-1.2732 -4.8948 0.35367 0 8590
-1.2445 -7.902 1.1242 0 8550
-1.2258 5.4659 -0.52261 0 361
-1.2118 5.4751 0.52317 0 368
-1.1636 -5.7552 0.41059 0 8565
-0.98491 -6.9031 0.4876 0 8543
-0.92682 -8.395 0 0 8527
-0.89066 -9.0188 0.8455 1 8519
-0.84059 10.633 2.0096 0 661
-0.83143 -5.3831 0.89491 0 8549
-0.71105 -5.0851 -0.11921 0 8541
-0.63378 -7.8089 0.9162 0 8508
-0.61333 -6.8185 0 0 8513
-0.60942 -6.5569 0.77008 0 8515
-0.41719 -8.9798 1.4769 0 8493
-0.29765 -12.918 1.8159 0 8472
-0.23448 -5.0471 0.23562 0 8492
-0.15209 8.3782 -0.58595 0 826
-0.085598 7.0059 0.32674 0 844
-0.065594 7.0909 0.66158 0 852
-0.03847 -6.888 -0.15992 0 8460
0.087299 -7.5782 1.4279 0 8453
0.11808 -5.8315 0.81973 0 8449
0.20732 -5.4967 0.38464 0 8440
0.26398 7.7535 1.2746 1 980
0.48296 8.453 -1.1899 1 1035
0.62438 -10.731 0.24956 0 8431
0.72985 -10.059 1.1794 0 8424
0.73486 -7.8916 1.3022 0 8422
0.75356 5.1908 -1.3731 1 1184
0.82713 6.3425 1.0509 0 1169
0.87278 -5.2324 0.99945 0 8411
0.99723 -6.8358 -0.16039 0 8415
1.0704 -5.4458 -0.25882 0 8405
1.3531 7.7532 -0.92038 0 1217
1.4362 4.8891 0.83719 0 1447
1.4558 4.956 -0.3612 0 1443
1.488 5.804 0.9844 0 1340
1.5239 8.8776 -1.2659 0 1213
1.5903 -10.901 1.8099 0 8416
1.6129 -11.774 1.1088 0 8419
1.6148 -9.047 0 0 8408
1.6573 -10.511 1.7483 0 8413
1.7202 7.8237 1.3161 0 1288
1.7645 -7.5703 1.4646 0 8399
1.9194 -9.069 0.43229 0 8402
2.0114 -4.88 -0.24615 0 8365
2.0698 6.8254 1.1718 0 1469
2.0784 -6.6201 0.81143 0 8390
2.1305 -4.8859 1.0043 0 8361
2.1544 5.115 -0.64905 0 1657
2.1829 -6.6864 1.1556 0 8386
2.1856 -9.26 1.5632 0 8398
2.2845 5.297 0.94776 0 1682
2.291 5.2264 -1.213 0 1694
2.2933 -5.6563 0.56943 0 8366
2.3064 -7.0649 0.51969 0 8385
2.3089 -4.8691 -0.37682 0 8355
2.317 -8.21 0.39782 0 8394
2.3681 -4.9558 0.12752 1 8354
2.5134 -8.2571 1.0093 0 8391
2.5176 5.3164 -0.13657 0 1761
2.5226 -7.3597 0 0 8379
2.5716 -5.1512 0.80915 0 8347
2.5786 -4.3724 0.7134 0 8324
2.6132 5.8229 -0.4463 0 1710
2.6135 4.534 0.48824 0 1967
2.6416 -7.4349 1.2963 0 8378
2.7025 -6.7773 1.0254 0 8368
2.75 -5.884 -0.30289 0 8356
2.8079 -7.8248 0.97218 0 8375
2.8199 -7.8585 1.5731 0 8376
2.8289 7.4945 1.3161 0 1589
2.9049 -5.533 -0.29143 0 8343
2.9129 -6.3244 0.4869 0 8358
2.9669 -9.3643 1.1487 0 8388
2.9711 -11.69 1.4105 0 8397
2.9784 -4.6429 0.90625 0 8307
3.066 8.9756 1.5583 0 1534
3.095 -5.5018 0.58893 0 8332
3.1064 5.211 -0.99672 0 2002
3.1267 10.644 0 0 1444
3.1315 -5.4547 1.0334 0 8331
3.1526 -9.3839 1.6264 0 8382
3.2829 6.6834 1.2234 0 1798
3.4298 -6.6737 1.2328 0 8344
3.4315 5.646 0.77263 0 2033
3.4812 -3.8486 0.48415 0 8206
3.5124 -8.8084 1.558 0 8369
3.527 -3.744 -0.47988 0 8202
3.5433 9.2985 0.92836 0 1593
3.5609 -10.022 0 0 8377
3.5845 -7.9646 0.81485 0 8359
3.6115 4.392 -0.39761 0 2483
3.6598 9.8672 0 0 1579
3.712 -3.8064 0.87351 2 8198
3.7187 5.2579 0.60083 0 2246
3.7879 4.0762 -0.12919 1 2701
3.8917 4.3619 -0.27261 0 2613
3.9462 4.9169 0.44086 0 2447
3.9497 -11.523 1.1364 0 8380
3.9551 -8.9293 0 0 8360
4.0345 6.594 1.2701 2 2045
4.0651 -6.5436 0.90086 0 8313
4.0912 -3.3629 -0.61932 0 8129
4.1217 4.4604 1.1442 0 2695
4.1629 -9.8597 1.7584 0 8363
4.1799 8.1507 1.2874 0 1837
4.1844 -3.5826 0.3852 0 8143
4.1848 -6.2065 -0.69836 0 8291
4.3126 -8.8934 -0.69115 0 8352
4.3599 3.1306 0.62768 0 3524
4.3955 5.9532 0.17181 0 2311
4.4138 -13.789 2.3786 0 8387
4.4918 -2.9293 0.1245 0 7937
4.5016 3.9534 0.70062 0 3092
4.5053 -4.9809 0.78541 0 8207
4.5297 -4.0415 0.99737 1 8147
4.5486 3.7696 -0.4131 0 3209
4.5708 9.0368 1.1843 0 1825
4.5716 7.187 -1.3994 0 2091
4.5765 -3.1184 -0.51666 0 7973
4.6716 8.2671 0.44282 0 1940
4.6754 -3.3079 0.94095 0 8013
4.7161 -3.5025 0.13639 1 8061
4.7257 -2.2016 0.48638 0 7611
4.7833 8.1269 1.7767 0 1994
4.853 4.7607 0.15783 0 2873
4.8569 -2.2298 0.87804 0 7593
4.863 5.6438 0.34742 0 2556
4.9261 -9.253 0.48885 1 8340
4.9833 -5.7407 0.17649 0 8219
5.0226 1.8529 -0.62605 0 4828
5.0758 1.8404 0.6314 0 4869
5.1135 7.2731 1.4607 0 2240
5.1379 5.5601 1.2438 0 2693
5.1399 -4.7197 0.16201 0 8150
5.1715 -1.4546 -0.25053 0 7330
5.1833 2.1206 0.39161 0 4652
5.2021 -1.9295 0.38799 0 7419
5.2136 -3.6642 0.4456 0 8007
5.2274 4.9554 -0.84232 0 2934
5.2662 8.4407 0.92818 0 2069
5.3251 3.2671 0.73059 0 3840
5.3749 11.109 2.0275 0 1784
5.3833 8.2015 1.6118 0 2145
5.3886 -3.2983 -0.88792 0 7878
5.4247 -0.24823 -0.50663 1 6938
5.438 7.411 -0.85758 0 2299
5.4969 -4.8461 0.85696 0 8144
5.501 -2.8405 -0.5776 0 7726
5.5033 1.4366 0.93446 0 5414
5.5338 -1.7661 0.54193 0 7363
5.559 2.6586 -0.7206 1 4352
5.5593 0.503 0 1 6293
5.5608 4.2654 0.81956 0 3375
5.566 -5.1723 0.88855 0 8152
5.5679 -2.287 -0.98894 0 7475
5.5705 7.9231 -0.22487 0 2234
5.5922 -2.6053 1.0136 0 7613
5.602 -7.1343 -1.2748 0 8244
5.6823 -3.4999 -0.46667 0 7885
5.7444 -3.4026 -0.78076 0 7848
5.7942 -3.015 0.60937 0 7736
5.8344 -6.963 1.4925 0 8228
5.8391 7.7206 1.132 0 2352
5.8542 5.6101 1.1395 0 2921
5.8621 2.7 -0.75475 1 4423
5.8781 3.5571 -0.3204 0 3863
5.891 0.24279 0 0 6536
5.9053 -0.78584 -0.69667 0 7188
5.9138 1.5592 -0.85953 0 5382
5.9204 -7.814 1.8471 0 8258
5.9412 -2.5427 0.90824 0 7515
5.9837 5.9733 1.1883 0 2843
5.9913 -8.4587 1.953 0 8282
6.0009 1.8852 0 0 5116
6.0074 -8.3725 1.4482 0 8278
6.0695 -5.9085 1.3916 1 8175
6.071 4.2257 1.2153 1 3590
6.089 -0.40123 1.0026 1 7021
6.1654 -4.4663 1.07 0 8039
6.1958 0.20121 -0.57835 0 6573
6.2083 -4.7535 -1.0989 1 8087
6.2099 -5.0143 1.5038 0 8122
6.3063 8.9166 -0.76369 0 2243
6.3532 8.7093 -0.50273 0 2287
6.4115 0.58011 1.0577 1 6299
6.4328 -1.8312 1.0989 0 7334
6.5018 -0.97982 0.76892 0 7233
6.523 3.5727 0.86974 0 4077
6.5558 3.2074 0.6809 0 4311
6.591 -0.43431 0.61625 0 7017
6.6483 0.68 0.62349 0 6231
6.8186 -1.4145 0.64969 0 7294
6.9017 3.9367 1.3054 0 3997
6.9118 2.7799 0.34742 0 4684
6.9641 6.9519 1.6167 0 2844
7.0322 10.779 1.2007 0 2132
7.0876 -4.3911 0.58302 0 7893
7.0923 6.2285 -0.88062 0 3085
7.1372 1.3834 0 1 5748
7.1645 2.5978 0.71099 0 4867
7.1732 -7.2311 1.6734 0 8195
7.2188 6.4521 0.90328 0 3055
7.2281 -3.1428 -0.73533 0 7529
7.2707 -2.8391 1.2824 0 7450
7.3825 -5.6158 0.86538 0 8084
7.4386 7.5564 1.9978 0 2816
7.545 -6.2395 1.6086 0 8135
7.6299 8.0206 0 0 2746
7.6466 -0.28306 -0.89483 0 6907
7.67 -0.86439 1.2681 0 7147
7.7563 2.6344 1.1512 0 4978
7.8681 -4.907 1.0844 0 7900
7.929 0.99604 0.37267 0 6105
7.9309 5.5574 1.5911 0 3576
7.9358 -0.66081 1.3083 0 7072
8.0065 -0.15653 0 0 6828
8.0156 10.598 2.5036 0 2355
8.0891 8.4588 2.2052 0 2763
8.2026 2.7334 1.4205 0 5014
8.2377 0.028756 0.19126 0 6710
8.2434 0.2677 -0.19149 0 6576
8.3332 2.9395 -0.6179 0 4908
8.4389 1.8647 -0.8063 0 5603
8.4875 2.6924 0.62265 0 5099
8.7381 1.9596 -0.83547 0 5588
8.755 -1.5816 1.4617 0 7275
8.7867 5.3172 1.6874 0 3871
8.8399 -0.17282 -0.20528 0 6827
8.8495 9.8009 2.1695 0 2642
8.9538 -4.7228 1.1838 0 7748
9.0577 -1.048 0.42521 0 7154
9.0797 3.4092 1.3631 0 4806
9.089 -2.08 1.7567 0 7309
9.1363 8.6066 2.0622 0 2952
9.1554 3.9923 1.168 0 4537
9.2142 -0.50225 0.86092 0 6972
9.2997 -7.6907 1.4112 0 8134
9.368 2.414 0.90254 1 5427
9.3898 -3.6082 1.6527 0 7439
9.4394 2.6089 1.1452 0 5323
9.4745 6.0406 2.117 0 3767
9.8266 0.63202 1.1515 0 6436
9.8353 2.5033 -1.1868 0 5434
9.8558 1.6175 -0.6984 0 5894
9.9233 -2.4246 0.23717 0 7314
9.9235 1.1605 -0.46593 0 6149
9.9239 -1.9722 1.9063 0 7290
10.06 -1.7251 -0.23698 0 7263
10.103 -2.937 1.7285 0 7339
10.105 -0.52072 1.9063 0 6963
10.166 6.9012 2.0187 0 3638
10.294 7.2991 2.0732 0 3551
10.561 0.49622 -0.24548 0 6512
10.749 3.2392 2.1152 0 5194
11.353 4.8377 2.0275 0 4585
11.464 4.341 2.3096 0 4792
11.6 0.10933 1.9059 0 6687
12.199 3.6019 2.0897 0 5224
14.735 2.2416 2.4487 0 5970
-5.518 7.9511 -1.5901 2 16548
-3.7055 12.957 -1.5759 1 213
-0.75812 -0.48484 -0.19128 2 10059
2.6163 7.8832 -1.9681 0 1515
2.6415 1.641 -1.562 0 3809
5.7703 1.2223 -1.993 0 5658
10.441 -4.6137 -1.8754 0 7545
