VERSION .7
FIELDS x y z intensity index
SIZE 8 8 8 8 8
TYPE F F F F F
COUNT 1 1 1 1 1
WIDTH 512
HEIGHT 1
VIEWPOINT 0 0 0 1 0 0 0
POINTS 512
DATA ascii
-4.9371 0.75372 0.46595 0 11373
-4.9015 -0.55325 0.46019 0 10701
-4.873 0.90316 0 0 11449
-4.565 0.096419 0 0 11025
-4.2508 0.039322 0.69842 0 10999
-4.1529 1.4674 0.82985 0 11948
-4.0302 2.6072 0 0 13432
-3.9108 -2.5368 0.76586 0 10614
-3.7089 -0.55959 0.26228 0 10658
-3.5694 -3.2639 -0.22556 0 10380
-3.4413 -0.31803 0 0 10736
-3.2441 3.3267 0.32493 0 840
-3.2311 2.5747 -0.19267 0 14179
-3.179 -0.53655 0.30078 0 10639
-3.1267 3.6882 0.79439 2 1264
-3.0355 2.3904 0.45183 1 14145
-3.0054 -2.194 0.086391 0 10526
-2.9728 -3.1979 0.5106 0 10268
-2.8255 3.1981 -0.39813 2 1122
-2.7597 1.6418 0.074553 1 13144
-2.7463 1.9273 -0.077895 2 13734
-2.5976 2.4849 -0.67729 1 649
-2.5491 4.1598 0.11327 0 2051
-2.5278 -2.5059 0.67062 0 10339
-2.3411 -3.2281 -0.18596 0 9998
-2.3372 -2.876 0.34574 0 10113
-2.2544 -2.5554 0.23829 0 10205
-2.155 -4.0822 0.7584 0 9790
-1.5971 3.3712 0.70284 0 2558
-1.5211 4.0598 0.30316 0 2897
-1.5083 2.9576 0 0 2416
-1.4384 3.1288 -0.2408 2 2604
-1.3228 4.4064 0.53801 0 3071
-1.2802 3.328 0.41698 0 2871
-1.233 4.1466 -0.71074 0 3072
-1.2029 4.0068 -0.19509 0 3068
-1.1365 3.5568 0.61346 0 3034
-0.93887 -4.2702 0.5113 0 9673
-0.9046 -4.1699 0.099064 0 9672
-0.86059 4.6074 -1.344 0 3191
-0.79561 3.3396 -0.079706 0 3156
-0.7495 4.1448 0 0 3193
-0.59854 3.0564 0.29057 1 3187
-0.58265 3.6417 0.34407 0 3202
-0.45669 3.4273 -1.0789 1 3208
-0.35032 3.473 0.65766 0 3224
-0.079854 3.5461 -0.082352 0 3248
-0.062068 -3.1748 0.5217 2 9617
0.17888 -3.8072 0.35559 1 9584
0.31552 -3.5848 0.67803 0 9575
0.32026 4.5458 0.21251 0 3318
0.43217 -4.48 0.848 0 9571
0.54851 4.073 -1.3887 0 3420
0.56524 -3.8557 -0.090476 0 9561
0.77412 -4.0466 0.28809 0 9556
0.79668 2.9122 0.070097 1 3645
0.81376 -4.3907 0.84133 0 9557
0.86976 4.8534 -0.11448 0 3491
0.97343 3.5583 -0.085648 0 3644
0.97987 4.7525 -1.3914 0 3530
1.0206 4.6152 0.10974 0 3554
1.2865 -3.5116 0.61444 0 9533
1.6887 3.3504 -0.17497 0 3969
1.7126 2.6322 -0.21959 0 4272
1.7561 -3.3878 -0.17795 0 9520
1.9143 2.6146 0.15112 0 4449
2.019 -3.1232 0.086344 0 9491
2.2659 2.3203 -0.075296 1 4901
2.5279 2.5421 -0.083234 0 4932
2.5398 -2.1093 -0.38608 0 9377
2.554 2.235 -1.4176 0 5168
2.7048 -3.28 -0.19826 0 9409
2.7378 4.179 0.58424 0 4284
2.7871 -3.421 -0.62016 0 9412
2.8022 1.8717 0.23564 0 5667
2.8039 -2.208 0.50158 0 9332
2.9325 1.7564 -0.98017 1 5877
2.9673 -3.277 0.41244 0 9399
2.9934 -2.6058 0.37027 0 9389
3.057 0.21698 -0.14292 0 8108
3.0682 3.4655 -0.98384 0 4744
3.0816 2.978 -0.39981 0 5003
3.169 1.3865 -0.080309 0 6471
3.2069 2.5701 0.77431 0 5343
3.2853 2.9613 -1.1579 1 5119
3.2952 1.8704 -0.087969 0 5977
3.3648 0.89091 0.65581 0 7199
3.3709 1.4053 0.51327 0 6559
3.4371 0.1645 -0.079892 0 8208
3.472 -0.12549 -0.16202 0 8509
3.4771 1.9737 0.27958 1 5981
3.5351 0.57192 -0.083141 0 7684
3.5963 -0.76638 0.085369 1 8749
3.5972 -3.397 0.81287 0 9392
3.603 -1.9506 0.67312 1 9093
3.6151 -0.95786 0.61444 0 8764
3.6621 1.5764 -0.84745 1 6503
3.6645 1.4538 -0.27568 1 6640
3.6695 2.5117 -1.2751 0 5623
3.7464 -2.1577 0.20161 0 9135
3.774 0.6329 -0.26759 0 7653
3.7793 -0.21395 0.71321 0 8559
3.8378 0.89731 0.55391 0 7357
3.936 -0.40606 0.091868 0 8644
3.9627 -1.4017 0.49155 1 8806
4.188 -2.3801 0.44941 0 9125
4.191 1.0839 0.1005 0 7226
4.2074 0.58234 -0.39628 0 7798
4.2243 -0.5359 0.59844 0 8672
4.2822 1.3494 -0.73765 0 6971
4.6139 0.27331 0 0 8163
4.6183 1.6782 -0.69058 0 6784
4.6925 -0.78779 0.78175 0 8711
4.7554 -1.1426 0.45629 1 8759
4.7593 0.046519 0.55659 0 8351
4.8142 -1.0832 -0.46037 1 8751
4.8524 -0.71395 -0.11387 0 8695
2.4746 -1.2043 -0.25675 0 8993
-13.925 5.4236 0 0 12096
-12.987 6.4581 0 0 12604
-12.906 7.5809 -0.69801 0 13094
-12.785 6.2163 -0.33006 0 12551
-12.664 5.4907 -0.64369 1 12299
-12.421 3.9881 0 0 11819
-12.182 2.0758 -0.86414 1 11411
-12.175 2.2565 -0.57745 0 11447
-12.161 0.60969 -0.56785 0 11094
-11.935 1.0127 0 2 11193
-11.891 2.131 -0.56338 0 11433
-11.884 3.5156 -0.28772 0 11728
-11.871 -0.78224 -0.83192 0 10782
-11.849 -8.2846 -0.33567 0 10558
-11.722 8.4823 -1.3499 0 13844
-11.719 3.1008 -0.28145 1 11632
-11.712 -1.4567 2.2237 0 10685
-11.689 1.5742 2.2222 0 11326
-11.617 1.6367 0.54708 2 11343
-11.58 -1.2723 -0.54326 0 10704
-11.5 8.2212 -1.3189 0 13800
-11.365 5.2442 -0.2906 0 12431
-11.337 -1.2797 -0.26488 1 10699
-11.29 -0.71231 -1.0554 2 10790
-11.158 5.7937 -0.2919 1 12718
-11.079 2.7275 -0.79787 2 11583
-11.074 4.8821 -0.28099 2 12334
-11.05 3.7273 -0.81545 2 11875
-10.958 1.9637 -1.3018 1 11430
-10.944 4.8565 -0.55835 0 12349
-10.937 -10.231 2.1049 0 10367
-10.888 6.8218 -1.1987 1 13314
-10.856 6.4998 1.1805 0 13174
-10.831 5.8638 0.57437 1 12845
-10.799 1.076 -0.50608 2 11232
-10.797 2.3284 -0.77234 1 11514
-10.76 3.3844 -0.52602 0 11792
-10.76 4.0509 -0.53618 2 12038
-10.735 -9.2042 0.65944 1 10420
-10.734 6.9921 -0.29742 0 13455
-10.704 5.36 -0.83708 0 12617
-10.681 -9.2068 0.98608 2 10415
-10.679 -9.2046 0.32732 1 10414
-10.669 3.8076 -0.79215 2 11953
-10.646 -9.346 -0.3289 0 10404
-10.636 3.2133 -0.25796 0 11748
-10.632 6.9253 -0.5917 2 13453
-10.624 1.2123 1.7567 0 11279
-10.62 5.0521 -0.27305 0 12497
-10.587 6.8964 0.88354 1 13463
-10.575 -1.7223 1.7603 0 10644
-10.559 6.9649 -1.1801 1 13500
-10.546 7.8211 0 0 13937
-10.503 7.7407 -1.2173 0 13910
-10.46 5.4313 1.6564 0 12729
-10.438 -8.2403 0.30875 1 10469
-10.407 -0.085371 -0.24162 0 10955
-10.381 0.7587 -0.97109 0 11155
-10.354 1.0919 -1.4633 0 11245
-10.32 -7.3068 -0.29357 0 10546
-10.288 9.1795 -1.2864 1 411
-10.246 8.9858 0.31641 1 357
-10.23 7.6305 0 0 13957
-10.18 7.1437 0 0 13736
-10.149 5.1198 -0.26391 0 12640
-10.102 -7.7827 0.29608 1 10487
-9.9764 0.26647 1.1671 0 11038
-9.9718 2.8857 -0.96849 0 11704
-9.9217 5.2932 1.3151 0 12807
-9.9054 1.7181 -0.23341 0 11421
-9.9051 -8.4419 -0.30216 0 10424
-9.8967 7.8863 0.2938 1 14184
-9.8961 11.272 0.34825 1 1147
-9.8917 1.8619 -0.70384 1 11454
-9.8207 -11.069 1.3806 1 10215
-9.7853 6.1693 0.8089 0 13346
-9.7268 7.2554 0.28173 1 13959
-9.7219 6.9499 1.6795 0 13815
-9.6826 4.2322 -0.24534 0 12316
-9.6757 -8.7427 -0.30276 0 10388
-9.5673 1.7732 -0.6804 1 11446
-9.5651 4.5849 -0.24627 0 12515
-9.5498 4.9904 -0.25017 0 12738
-9.5242 8.0628 2.0502 1 245
-9.4862 8.1221 2.3529 1 289
-9.4776 9.4479 -0.3107 0 754
-9.4359 1.3295 -1.1143 1 11336
-9.3443 10.273 -0.6476 0 1041
-9.3359 -1.327 0.43975 0 10666
-9.3194 5.2213 -0.49816 0 12942
-9.2904 -6.3779 -0.26163 0 10575
-9.2693 -1.7297 1.3252 0 10629
-9.255 -11.799 1.7536 0 10076
-9.2136 4.7474 -0.48335 0 12696
-9.1784 3.8865 -0.23141 1 12246
-9.1262 8.6332 0.29167 1 601
-9.1162 -1.6468 0.86427 0 10633
-9.0831 -1.6147 0.21419 0 10635
-9.0429 5.1705 -0.97184 0 13006
-9.0134 8.476 -0.28726 0 582
-9.0074 3.7218 0 1 12201
-8.9984 -11.268 0.33479 1 10093
-8.9697 -6.9526 -1.0588 0 10479
-8.9513 -9.1888 -0.59822 0 10312
-8.9468 -0.53937 -0.83621 0 10802
-8.8596 -5.7469 -0.73844 1 10612
-8.7158 -11.112 -0.32788 0 10073
-8.6832 0.94177 -1.2275 1 11253
-8.5135 -1.5134 1.2153 0 10636
-8.5098 -1.6665 1.6338 1 10628
-8.3892 -12.382 -0.34723 0 9956
-8.3797 -0.69777 -0.98333 1 10746
-8.2776 -12.365 0.69391 1 9948
-8.256 -12.407 1.3904 0 9944
-8.1501 2.0064 -1.379 0 11579
-8.1282 7.1282 1.0086 2 361
-8.1147 7.1566 1.5206 1 383
-8.088 8.948 1.1253 1 1068
-7.9983 -1.2783 0.18805 1 10647
-7.9125 2.1157 -0.76413 0 11639
-7.8454 -12.41 0.34087 1 9915
-7.7514 -11.509 -0.97031 0 9950
-7.6747 -12.22 0.67294 1 9909
-7.6376 8.7459 0.54149 1 1167
-7.574 -10.575 -0.60661 0 9988
-7.5442 -7.1019 1.7023 0 10362
-7.4742 0.22313 -0.69762 1 11041
-7.4513 -12.174 0.99808 1 9890
-7.3884 -1.3347 0 0 10631
-7.3518 -12.496 0.3366 1 9862
-7.2428 -9.3475 -0.82689 2 10060
-7.1796 7.4947 0.484 1 890
-7.1067 2.147 -0.34621 0 11747
-7.0625 -0.2602 1.1611 0 10891
-6.9646 1.8831 0.67309 0 11652
-6.9557 3.6611 0.91922 0 12766
-6.9276 1.9173 0 0 11668
-6.8358 -4.6613 0.19209 0 10581
-6.7804 3.1762 0.69855 0 12469
-6.5865 6.4862 1.5187 2 728
-6.5761 2.4313 -0.98535 2 12006
-6.4322 -0.9143 1.0674 1 10667
-6.4126 0.20825 1.0541 0 11052
-6.3546 1.1961 1.2183 0 11457
-6.3525 5.0911 1.3375 1 14216
-6.2337 -8.3845 1.7165 0 10025
-6.2042 1.3936 1.0447 2 11539
-5.9962 0.16016 -0.13926 0 11037
-5.8329 -0.50314 -0.5462 0 10741
-5.823 -0.23286 0.27177 0 10884
-5.607 0.9554 0.26525 0 11416
-5.2803 -7.0199 1.0272 0 10038
-5.2743 6.7996 1.0063 0 1516
-5.2476 0.32279 0.86378 1 11128
-5.1143 5.7888 0.72066 1 1131
-5.0621 3.3176 0.14052 0 13482
-5.0424 4.1463 -0.15157 2 119
-5.005 0.68917 0.83006 0 11334
-5.001 0.0043643 0.82163 1 10977
-4.9454 -5.9105 0.71898 0 10143
-4.8677 2.8753 0.66113 0 13127
-4.7786 -4.3696 1.0638 0 10382
-4.6512 -8.6311 1.6108 0 9801
-4.6135 -10.357 0.79285 0 9744
-4.5829 2.6204 0.36915 0 13015
-4.5052 -5.1644 -0.80144 0 10183
-4.5039 -7.3583 1.2125 0 9891
-4.3973 -10.786 1.9137 0 9723
-4.3941 3.6963 0 0 209
-4.3733 -10.13 1.8128 0 9735
-4.2573 -3.9825 0.27186 0 10366
-4.1707 -3.2527 0.86897 0 10478
-4.1341 -5.7363 0.49443 0 9995
-4.0394 -10.156 1.7956 0 9714
-3.988 -9.6184 1.7107 0 9729
-3.6288 -9.9485 1.9952 0 9708
-3.4508 -7.8092 0.19822 0 9739
-3.4487 9.2044 0.91703 0 2898
-3.4035 10.762 1.053 0 3040
-3.3317 -7.5397 0.38441 0 9740
-3.2812 -4.6652 0.93706 0 9977
-3.2771 8.907 1.5593 0 2918
-3.2466 -5.9399 1.1121 0 9811
-3.163 -6.3495 0.82955 0 9769
-3.0849 10.598 1.5512 0 3090
-2.9258 -7.0046 0.70821 0 9732
-2.8914 -5.5189 1.0236 0 9785
-2.8746 -6.8218 1.2162 1 9733
-2.7351 -5.999 0.77101 0 9757
-2.4988 -7.1116 -0.35152 0 9703
-2.4965 -7.4482 -0.36633 0 9694
-2.4739 8.4163 1.4413 0 3084
-2.4627 -5.6155 1.0074 0 9738
-2.4148 4.3853 0.46706 1 2258
-2.2285 6.3957 1.2761 0 2970
-2.1579 -9.6855 1.6303 0 9675
-2.1493 6.6622 0.81863 0 3027
-2.1009 -4.6078 0.832 1 9759
-2.0856 -5.6199 -0.13917 0 9710
-2.0728 5.5794 0 0 2907
-1.784 -6.4811 -0.15607 0 9683
-1.7221 -5.9199 1.0129 0 9688
-1.6274 -4.7642 -0.23478 0 9698
-1.5885 -5.7709 0.27913 0 9684
-1.5767 5.9256 1.0074 1 3124
-1.5487 -4.8007 0.82876 0 9690
-1.5301 5.1459 -0.12464 0 3076
-1.4259 13.342 2.2045 0 3222
-1.3261 -5.295 0.12673 0 9679
-1.2089 -6.083 0 0 9669
-1.15 -6.1629 0.73314 0 9667
-1.092 -9.9548 0.93431 0 9653
-1.0764 7.1341 0.84372 0 3204
-0.84275 7.6703 0.71991 0 3218
-0.66216 -6.1959 -0.29059 0 9652
-0.65989 8.1838 0.76599 0 3231
-0.59568 -7.6715 0.71787 0 9642
-0.42536 14.947 2.4568 0 3246
-0.32793 -6.7778 0.79354 0 9635
-0.198 11.816 1.9416 0 3256
-0.14284 6.3432 0.74197 0 3251
0.0056795 -8.1349 1.3365 0 9606
0.053657 -5.693 0.53116 0 9602
0.24297 -5.4771 0.90074 2 9587
0.33756 5.7668 -0.67553 1 3303
0.44691 5.6533 -1.4846 1 3331
0.46989 7.6389 1.442 0 3307
0.50174 7.78 -0.72734 0 3311
0.55686 -7.904 0.73923 0 9576
0.62603 -6.9056 0.6469 0 9574
0.68029 -7.2644 1.1987 0 9573
0.68437 -5.1843 0.48787 0 9566
0.72103 13.577 2.2337 0 3298
0.7617 -5.5318 0 0 9564
0.85585 5.1144 -0.48378 0 3471
0.87058 -5.8252 0.68877 0 9560
0.88232 -6.543 -0.15328 0 9565
0.89469 -6.7776 1.1232 0 9567
0.92498 -7.5334 0.17622 0 9568
0.98898 -7.0369 0.16498 0 9562
1.0722 -5.4398 -0.12873 0 9555
1.0767 5.0012 0.47728 1 3544
1.2879 8.2813 0.98008 0 3452
1.2984 -6.031 0.57556 0 9552
1.3175 5.3556 -1.3068 0 3595
1.4462 -6.7173 0.80353 0 9553
1.4661 5.1777 -1.0139 0 3669
1.4845 5.897 1.1457 0 3608
1.5739 -6.1748 0.14795 0 9545
1.6548 6.0489 0.29245 0 3646
1.7138 6.8787 1.1647 0 3601
1.7978 5.339 0.65881 1 3731
1.9587 -5.3465 0 0 9530
2.0169 7.3726 1.2558 1 3647
2.1149 -6.7986 0 0 9541
2.1517 -5.0033 0.50812 0 9525
2.2715 -5.3255 0.27 0 9526
2.2887 -10.786 0 0 9554
2.3188 5.4337 -0.69086 1 3848
2.434 5.8937 1.0476 0 3833
2.5523 -6.9671 0.51885 0 9531
2.6006 6.9704 -0.69409 0 3776
2.6067 -5.4847 0.99769 0 9522
2.7373 -7.2211 1.2688 0 9527
2.7502 5.7814 1.0518 0 3919
2.8589 -8.4853 1.4711 0 9536
3.012 4.9384 0.95035 0 4179
3.0313 -4.8417 -1.2142 0 9499
3.0611 8.2841 1.451 0 3773
3.1912 7.0251 -0.17914 0 3881
3.2322 -5.099 0.99185 0 9497
3.2929 6.3015 0 0 3998
3.3262 6.4582 -0.67774 1 3985
3.3347 -7.4583 0.18968 0 9524
3.3532 -4.7255 0.95197 1 9458
3.3992 9.7175 1.9397 0 3748
3.5218 -7.3046 1.3323 0 9521
3.5541 6.2208 -0.50099 1 4089
3.5952 -4.9721 1.0081 0 9454
3.6567 3.8534 -0.24773 0 4852
3.6678 6.3349 0.16995 0 4110
3.6931 4.1248 0.12854 0 4762
3.7555 6.9428 -0.3681 0 4031
3.7699 5.5431 0.46876 0 4333
3.8678 -8.5862 0.87857 0 9523
4.0308 10.804 1.8945 0 3777
4.0845 3.6175 -1.4283 0 5151
4.1015 6.3864 0 0 4254
4.2031 5.5054 -0.32301 0 4507
4.2265 -5.6394 0.65749 0 9442
4.2302 7.876 1.4688 0 4027
4.2796 6.0645 1.2195 0 4393
4.4075 -3.1905 0.89393 0 9286
4.4714 3.3147 1.0487 0 5494
4.4879 -6.3643 0.36316 0 9460
4.5666 -2.354 0.96798 0 9055
4.6014 -2.8842 0.76323 0 9181
4.6657 5.1782 -0.16183 0 4772
4.7404 -5.2685 -0.6612 0 9400
4.7579 4.0193 0.1446 0 5242
4.7832 4.8981 1.1248 0 4907
4.7973 -6.3593 1.5008 0 9441
4.8049 -4.0147 -0.73221 0 9380
4.8149 5.1924 0.66065 0 4823
4.8379 -1.3571 0.70616 0 8770
4.8458 7.9887 -0.21693 0 4166
4.8733 -4.0965 0.59395 1 9383
4.8882 -4.3065 1.0703 0 9390
4.9508 -7.6119 1.4918 0 9490
4.9732 0.90917 -0.35353 0 7581
5.0066 1.3107 0.3619 0 7208
5.0177 3.9984 1.0541 0 5353
5.0392 1.508 0 0 7044
5.0965 -1.2104 -0.24428 1 8758
5.1077 0.39122 0.11893 0 8083
5.178 3.6567 1.0415 0 5574
5.1812 2.0556 0.65184 0 6647
5.1927 0.81037 0.86345 0 7719
5.2225 1.7444 0.51369 0 6901
5.3341 -0.4723 -0.37445 0 8614
5.3897 -3.7362 1.0775 1 9251
5.4185 -4.6623 1.1744 0 9388
5.4188 -1.6898 0.39691 0 8783
5.4203 1.6727 -0.1317 0 7003
5.4389 0.83129 0.25658 0 7729
5.4422 3.2804 -0.59284 0 5855
5.4557 -1.1119 0.51945 1 8745
5.4754 4.7096 0.3368 0 5204
5.571 0.62194 0.52298 0 7929
5.7117 -1.0627 -0.27093 0 8727
5.7803 9.0003 1.7574 0 4260
5.7971 1.041 0.68877 0 7603
5.8161 -6.0629 -0.78382 0 9395
5.8178 8.0459 1.6313 1 4434
5.9066 4.0929 0.16684 0 5601
5.9246 9.6491 1.3241 0 4188
6.0082 -3.766 1.165 0 9182
6.042 6.9041 1.7286 0 4723
6.0771 0.48468 -0.14154 0 8067
6.0787 -1.8956 0.89488 0 8784
6.0825 -5.5172 1.3492 0 9391
6.09 0.11481 -0.42593 0 8313
6.0988 -5.7936 1.5849 0 9393
6.144 -1.2522 0.14558 0 8744
6.1757 5.6313 0.77973 0 5094
6.1944 0.52996 -0.58002 0 8037
6.2902 2.3894 0.62776 0 6720
6.3168 2.9389 -0.48718 0 6361
6.3614 1.3162 0.91298 0 7480
6.4566 0.47754 0.15031 0 8097
6.489 1.6588 0.46834 0 7242
6.5566 2.2129 0.6456 1 6888
6.5599 0.42766 1.08 0 8139
6.5743 5.6548 1.4247 0 5208
6.7559 -0.28434 -0.79075 0 8521
6.7745 -1.2997 0 0 8731
6.9343 -0.75697 -0.98034 0 8650
6.9627 -0.35394 0.65043 0 8541
6.9829 5.4301 1.0344 0 5397
7.0593 0.39838 -0.9937 0 8171
7.1223 5.5087 0 0 5406
7.2195 3.2325 0.92502 0 6433
7.2809 0.36884 1.1977 0 8203
7.4167 -7.7747 2.0245 0 9396
7.4975 4.059 1.4007 0 6073
7.5907 9.1496 -1.1091 0 4636
7.8154 0.50951 0 0 8134
8.1964 -0.15309 0.19033 0 8454
8.2919 6.565 1.7376 0 5364
8.3903 -1.7101 -0.79887 0 8743
8.6213 2.0443 0.4132 0 7339
8.6275 -5.4435 1.676 1 9187
8.6956 5.1078 1.6569 0 5920
8.8822 -3.3156 1.3324 0 8820
9.0124 3.4235 1.5839 0 6724
9.1544 1.2117 1.5171 0 7838
9.4455 2.1546 1.5917 0 7385
9.5254 -1.3472 0.89752 0 8687
9.735 -3.2554 0.71779 0 8795
9.832 7.0287 1.9857 0 5554
10.004 5.3015 1.8602 0 6111
10.302 3.4771 1.5281 0 6891
10.636 2.135 1.7824 0 7511
11.061 -1.7578 1.574 0 8704
11.181 -3.7391 1.937 0 8797
11.631 0.25177 1.9114 0 8307
12.561 -2.5259 2.105 0 8741
-7.1471 -7.466 -1.6981 0 10294
-5.1224 8.0436 -1.5667 2 1955
-4.1066 6.4486 -1.625 2 1967
-0.76582 -0.48732 -0.19294 2 10617
0.0031396 4.4974 -1.6369 0 3263
2.1675 6.0304 -1.6775 1 3760
6.165 2.6334 -1.9223 0 6516
