VERSION .7
FIELDS x y z intensity index
SIZE 8 8 8 8 8
TYPE F F F F F
COUNT 1 1 1 1 1
WIDTH 508
HEIGHT 1
VIEWPOINT 0 0 0 1 0 0 0
POINTS 508
DATA ascii
-4.7435 -0.34834 0.78142 0 9062
-4.6401 1.5445 0.80347 1 10755
-4.4477 1.1296 0.64493 0 10399
-4.4366 0.65751 0.31363 0 9999
-4.3345 -0.68885 0.40947 0 8833
-4.2333 0.77848 0.70717 0 10153
-4.1331 0.51481 0.58536 0 9898
-4.0612 1.2602 0.59761 0 10643
-4.0581 0.15093 -0.094282 1 9520
-4.0481 1.0658 0 0 10432
-3.9038 0.14519 0.27317 0 9524
-3.8769 -0.62654 0.45926 0 8828
-3.4238 0.78605 0.57715 1 10309
-3.4137 -0.42097 0.24052 1 8899
-3.3586 3.2445 0.87984 0 13593
-3.1152 2.5254 0.65886 0 12979
-3.0781 -3.7903 0.2277 0 8267
-3.0662 -3.4354 -0.10691 2 8328
-2.7998 -2.3862 0.60439 0 8494
-2.7848 -3.6371 -0.10635 0 8218
-2.6481 -2.9858 -0.092657 0 8325
-2.623 -3.8741 0.32716 0 8064
-2.5929 3.2191 0.19276 0 14455
-2.5213 -2.1864 0.54829 0 8477
-2.4991 -2.4066 0.24261 0 8401
-2.4172 -2.6611 0.083466 0 8344
-2.4072 2.567 -0.081702 1 13956
-2.263 4.2489 -1.3804 0 15472
-2.2143 2.4731 0.54537 0 14134
-2.1904 -3.8262 0.41133 1 7879
-2.1226 3.9029 -0.10315 0 15432
-2.0326 3.7639 -1.2266 0 15445
-2.0008 4.1518 -0.32227 0 15644
-1.9297 3.8069 0.59984 0 15568
-1.9272 4.3511 0.22192 0 15780
-1.8367 -4.0677 -0.20813 0 7776
-1.8114 -3.8045 0.29465 1 7792
-1.572 -3.135 0.081423 0 7798
-0.98177 4.4285 0 0 538
-0.95975 -4.8649 -0.11513 0 7660
-0.9187 -2.858 0 2 7687
-0.90342 -4.3778 0.73441 0 7663
-0.70235 -3.6133 0.43045 1 7658
-0.59516 -3.0619 0.072418 0 7657
-0.33143 4.535 0.21205 0 709
-0.3117 -3.5485 0.16612 0 7626
-0.26773 -4.1514 0 1 7616
-0.25743 3.654 0.42836 0 715
-0.22396 4.7491 0.89577 0 739
-0.1482 3.596 0.083559 0 746
-0.14656 3.3301 0.54764 1 744
-0.0019994 3.8188 0.62741 0 775
0.16449 3.192 0.37377 0 816
0.17703 -4.4077 0.20571 0 7549
0.20708 3.6134 0.42325 0 824
0.31456 4.7611 0.55799 0 838
0.53382 -4.1729 0.097671 0 7527
0.53637 4.7445 0.11085 0 881
0.59861 -3.3005 -0.15643 0 7516
0.61597 4.1513 0.58982 0 937
0.62416 4.0505 -1.3848 0 945
0.76211 3.8279 0.36414 1 1006
0.96366 4.4989 -1.2045 0 1033
1.0411 -4.4737 0.8654 0 7510
1.1117 3.1551 -0.87574 1 1228
1.1583 4.0182 -0.29242 0 1135
1.2568 -4.0879 0.80578 0 7508
1.4114 3.1143 0.31899 0 1439
1.4438 -2.8471 -0.22322 2 7478
1.5448 -2.9188 0.154 0 7476
1.5959 2.8174 0 0 1667
1.6443 -3.9893 0.10018 0 7492
1.7191 2.9149 -1.1435 0 1716
1.743 3.9971 -0.92687 0 1403
1.8388 -3.9632 -0.40761 0 7483
1.9374 3.5638 0.37844 1 1622
1.9597 -4.2238 0.54451 0 7484
2.0158 3.7563 0.80319 0 1611
2.0914 3.3862 0 0 1779
2.1915 -3.2442 0.36525 1 7427
2.2207 2.3401 -0.22559 0 2464
2.4897 -1.7349 -0.2122 1 7171
2.511 2.4393 -0.32661 0 2620
2.5646 2.4637 -1.4854 0 2642
2.7796 2.6239 0.53721 0 2681
2.827 2.6996 0.090754 0 2655
2.9498 -1.5395 0.3891 0 6935
2.9725 3.7598 -0.6736 2 2139
2.9807 1.9394 0.16584 0 3484
3.0797 3.0818 0.10115 0 2561
3.0871 -1.9569 -0.25559 2 7093
3.1143 -1.3697 0.641 0 6749
3.1335 2.6791 0.67734 0 2881
3.1537 2.157 0.62773 0 3381
3.2214 1.7057 0.59887 0 3894
3.2313 2.0633 -0.17879 0 3521
3.2332 1.3115 -0.081006 0 4309
3.3171 -3.684 -0.6967 0 7331
3.337 3.0417 0.52802 0 2751
3.3747 1.3355 -0.59628 0 4334
3.3834 -1.7658 -0.53637 0 6931
3.3922 0.17719 0.39724 0 5784
3.5292 -2.9457 -0.21438 0 7292
3.5544 2.9498 0.2154 0 2938
3.5905 -0.040734 -0.50464 0 6040
3.6532 -1.9605 -0.3868 2 6957
3.6779 -3.0167 0.22183 0 7285
3.763 0.49341 0.71506 0 5452
3.8044 1.9855 0.40036 1 3917
3.853 0.50521 0 1 5446
3.9013 1.0783 -1.263 1 4779
4.0414 1.055 -0.096975 0 4844
4.0929 -2.1361 0.86984 0 6937
4.1071 -0.08388 -0.28726 1 6078
4.1293 -2.4062 -0.44588 1 7028
4.4308 1.74 0.89688 0 4356
4.4341 -1.0327 -0.1057 0 6503
4.4454 0.47822 0.31265 0 5547
4.4678 0.86521 -0.10566 2 5146
4.5166 -1.6225 0.44774 1 6601
4.5268 0.11854 -0.42247 0 5893
4.5405 0.1189 0.85577 0 5902
4.5434 -1.6771 0.79569 0 6618
4.7843 1.2775 0.34627 0 4817
-2.6951 -0.088464 0.50806 2 9221
0.63477 -2.7627 0.33149 1 7512
2.5033 0.37993 -1.0576 0 5345
-12.462 1.4772 -1.1708 0 9862
-12.166 1.371 -1.4317 2 9836
-12.053 -1.5568 0.28215 1 8886
-12.023 1.4634 -1.1299 2 9875
-11.898 -1.2905 0 0 8937
-11.787 2.6671 -0.28057 0 10294
-11.77 -1.9022 0.55602 1 8827
-11.737 3.0508 -1.4182 1 10415
-11.622 -7.7303 -0.97603 0 8752
-11.203 -7.5421 -0.94436 1 8739
-11.19 0.054684 -1.3086 2 9382
-11.136 -1.0468 2.1074 1 8989
-11.072 -1.4636 1.8349 0 8881
-10.974 9.8878 1.7274 0 13322
-10.868 -7.6412 -0.92902 1 8693
-10.763 2.8658 -1.3025 1 10439
-10.723 10.115 2.7773 0 13509
-10.708 4.7408 0.27189 1 11304
-10.535 -9.5763 -0.99556 1 8433
-10.515 10.038 2.0431 0 13546
-10.494 0.69146 -1.2298 2 9638
-10.425 10.071 1.6951 0 13588
-10.299 5.4464 0.2705 1 11731
-10.247 5.0799 0.26553 0 11569
-10.208 0.25839 0.71403 0 9474
-10.206 9.9697 0.99766 1 13628
-10.178 -1.1344 0.71612 0 8932
-10.166 0.70021 -1.1917 2 9653
-10.162 -0.83365 1.4329 0 9031
-10.059 9.436 0 0 13472
-9.9974 10.057 1.993 0 13746
-9.9871 7.7161 0.29301 2 12836
-9.9539 -10.836 -1.0289 0 8351
-9.8547 0.53716 -0.22914 0 9591
-9.7997 10.205 0.32848 1 13873
-9.7343 7.793 1.7525 0 12942
-9.6356 3.9715 0 2 11140
-9.6213 7.2607 1.694 0 12771
-9.6047 11.242 0.68953 1 14284
-9.5797 8.8802 0.30327 1 13429
-9.4739 -1.0275 0.22125 0 8938
-9.4668 -6.6558 2.1804 1 8699
-9.4564 7.0025 0.27319 1 12711
-9.3143 2.7149 -0.90514 2 10541
-9.2735 -6.2433 2.1063 0 8745
-9.2416 -6.1076 1.82 1 8761
-9.2161 9.6576 0.93348 1 13900
-9.2087 2.3695 -0.88712 1 10404
-9.1291 7.7557 0.27811 2 13117
-9.0987 6.1835 0.25541 1 12451
-9.0702 -10.105 -0.94953 1 8332
-8.911 3.4331 -0.22171 1 11004
-8.841 7.966 1.9552 2 13326
-8.8199 7.7594 2.2133 0 13242
-8.7939 7.6471 1.9146 0 13202
-8.7814 6.0805 0.24798 1 12508
-8.7689 7.8046 1.0952 2 13278
-8.7655 -0.056608 0.20351 1 9335
-8.7476 8.206 1.6857 0 13484
-8.7252 11.363 -0.33261 0 14565
-8.6818 10.405 1.5848 0 14354
-8.6721 -5.9847 1.7311 1 8717
-8.6406 -6.1883 -0.74319 1 8669
-8.6181 10.827 1.291 0 14485
-8.571 -1.258 -0.60577 0 8849
-8.5118 -1.5039 -0.20068 0 8805
-8.4109 3.965 1.0874 0 11448
-8.377 -1.2057 0.59181 0 8859
-8.3143 9.965 0 0 14349
-8.2912 -9.3484 -0.87377 0 8324
-8.1349 -1.2201 -0.57521 0 8842
-8.1022 10.179 -1.2137 0 14479
-8.0852 12.594 -0.34747 2 15013
-7.9141 -10.464 -0.91744 1 8204
-7.9132 3.0487 0.99169 0 11011
-7.4746 -12.554 1.7086 0 7910
-7.2689 -5.5656 1.7249 1 8607
-7.0803 -13.166 -1.3947 0 7832
-7.0437 0.89857 1.1666 0 9913
-6.8487 -12.735 2.3757 0 7836
-6.7795 5.2058 1.6105 0 12826
-6.5465 11.096 2.1166 0 15244
-6.4762 1.386 0.77449 0 10257
-6.4217 7.9244 0.95159 0 14440
-6.3521 11.132 -1.4988 2 15319
-6.2521 -4.3421 0.17673 0 8708
-6.2511 7.8054 1.8841 0 14474
-6.0913 -7.4528 1.3528 0 8273
-5.9642 -0.61318 0.98504 0 8956
-5.9002 -7.1779 0.86687 0 8276
-5.8774 0.55972 0.82975 0 9772
-5.7629 -1.0702 0.963 0 8800
-5.7276 6.9878 1.2698 0 14407
-5.518 -9.6389 2.0926 0 7883
-5.5105 2.8747 0.28984 0 11696
-5.4492 -6.3645 1.5786 0 8307
-5.3821 -3.9506 0.93831 0 8648
-5.2722 -4.388 1.2924 0 8519
-5.2439 -4.8491 1.1734 0 8419
-5.162 -6.786 1.1983 0 8213
-5.0895 6.5898 1.368 0 14555
-5.0832 -7.6509 0.64232 0 8038
-5.0271 3.6337 1.0191 1 12643
-4.8208 -10.52 1.0796 0 7782
-4.7276 2.9005 0.38785 0 12141
-4.7134 5.6814 -0.17139 0 14365
-4.6223 6.0566 0.71081 0 14583
-4.3061 12.758 2.2123 0 254
-4.2963 -5.1657 0.62683 0 8287
-4.2539 7.3088 1.3894 1 15274
-4.2458 5.9457 1.2003 1 14770
-3.999 -9.8336 1.7441 0 7760
-3.8963 6.5621 1.2538 2 15230
-3.7992 -6.1731 0.67625 1 7940
-3.7884 -9.3909 1.6637 0 7757
-3.7095 -9.7602 1.4674 1 7742
-3.5696 -4.1194 -0.63744 0 8310
-3.4098 6.6261 0 0 15540
-3.4093 -6.0381 0.16099 0 7868
-3.2801 7.4616 1.3391 0 15793
-3.2568 -10.673 1.8333 0 7683
-3.2244 4.6583 0.52856 0 14838
-3.0958 -8.4459 1.4779 0 7728
-3.0888 7.0834 0.36037 0 15805
-3.0488 5.9246 0.62163 0 15542
-2.9509 7.6317 1.3443 0 138
-2.9427 -4.3187 0.85859 0 8078
-2.9163 -6.0787 0.78843 0 7794
-2.878 4.9132 0.39817 0 15258
-2.8148 -11.035 1.3318 0 7666
-2.6825 8.5968 -0.20908 0 323
-2.668 -9.0243 1.773 0 7678
-2.6415 -4.4934 0.98205 0 7903
-2.5664 10.301 1.7441 0 477
-2.5352 6.9767 1.0432 0 189
-2.4302 5.753 0.29124 0 15854
-2.4099 8.5907 0.41608 0 403
-2.3577 -9.7009 0.23178 0 7664
-2.2072 7.3756 1.2649 0 360
-2.1433 5.788 -1.3119 0 177
-1.9306 -4.7073 0.83589 0 7763
-1.8983 -7.8109 1.3206 0 7665
-1.6033 -4.8 0.11749 0 7702
-1.5198 -7.8189 1.3086 0 7659
-1.4506 -10.104 0.95233 0 7649
-1.3647 8.4542 1.0015 0 645
-1.341 -4.8984 0.95687 0 7667
-1.3096 6.0775 0.58002 0 550
-1.2728 8.6716 -1.44 0 654
-1.2565 -6.1761 0.44072 0 7661
-1.2527 9.5025 -1.1209 0 668
-1.2231 -5.9271 0 0 7662
-1.1594 9.8844 1.3987 0 682
-1.0547 -5.6032 0.93673 0 7656
-0.89999 -7.1543 0.67272 0 7643
-0.873 7.0998 0.83652 0 679
-0.83289 -5.1653 0 1 7652
-0.73201 5.2019 0.36734 0 663
-0.53235 8.2545 0.9673 0 720
-0.39735 -7.5067 1.235 0 7611
-0.33815 -10.413 1.7117 0 7597
-0.32724 6.5274 0.60974 0 734
-0.23815 5.4112 -0.50533 1 742
-0.083176 -7.0079 0.32683 0 7579
-0.069217 -5.8318 0.68204 0 7580
-0.037495 -11.307 1.3223 0 7575
-0.02176 6.5615 0.61216 0 772
-0.0056846 -8.1425 0.9522 0 7573
0.058535 7.1356 -1.0029 0 779
0.062126 -5.5616 0.25938 0 7564
0.06529 -5.8448 1.1013 0 7565
0.072036 8.7814 1.2342 0 783
0.079343 -9.4705 0.88359 0 7567
0.1863 -5.4438 0.89491 2 7553
0.32104 -8.5914 1.0054 0 7551
0.32406 8.1037 0.56712 0 808
0.3476 -8.0257 0.93943 0 7547
0.42466 -7.3649 1.212 0 7540
0.7071 -12.89 2.1209 0 7542
0.84796 -5.1 0 0 7521
0.95591 -9.7142 1.6037 0 7534
1.0765 7.11 0.84093 0 941
1.2856 4.9961 0.84757 0 1094
1.4215 -14.043 2.319 0 7533
1.5149 -11.585 1.9195 0 7526
1.5294 4.7836 0.46855 0 1176
1.6908 -5.8617 1.1494 0 7509
1.7295 -5.6252 0.96689 0 7507
1.7849 -12.51 2.0761 0 7524
1.8789 10.548 0.49965 1 975
1.8843 9.1797 0.65529 0 1016
1.8987 5.1495 0.90171 0 1255
1.9085 4.6304 0.46725 0 1357
1.9619 -4.7599 -0.24009 0 7491
2.1438 -9.3305 0.44646 0 7511
2.2778 4.6249 -0.3605 1 1517
2.4179 -7.6314 0.74685 0 7506
2.4506 -7.6556 1.3206 0 7505
2.4873 5.7533 1.0298 0 1397
2.6 -6.9282 0 0 7498
2.618 -5.8144 0.74569 0 7487
2.6647 4.4879 0.48694 2 1728
2.6758 -5.2766 0.55196 0 7479
2.8166 5.0047 0.67158 0 1661
2.839 6.2124 0.63724 0 1448
2.9088 4.1775 0.95909 0 1953
2.9408 6.1516 -0.63612 0 1487
3.0131 -5.7367 -0.60454 0 7477
3.0889 -7.554 0.38059 0 7494
3.0917 -7.0298 0.35813 0 7488
3.117 -8.7679 0.21605 0 7500
3.1657 6.4279 0.83791 0 1519
3.1888 5.1996 -0.56906 0 1767
3.2203 -4.9211 0.96624 0 7438
3.2313 -5.624 0.45356 0 7468
3.2887 -8.6076 1.5139 0 7497
3.3828 7.2347 -0.55847 0 1468
3.4631 -8.0644 0.61372 0 7489
3.4956 4.75 -0.4124 0 2029
3.5163 10.075 1.7532 0 1223
3.6258 -4.3195 0.6595 0 7347
3.6554 -6.3212 0.16953 0 7466
3.6717 4.4796 -1.0913 0 2210
3.6935 -8.1461 -0.41711 0 7485
3.699 4.0622 0 0 2387
3.7452 -3.701 0.86508 0 7307
3.7472 -8.7261 1.5602 0 7490
3.7562 4.347 -0.53599 0 2290
3.8097 5.7168 1.1287 0 1898
3.823 -6.7461 1.2739 1 7472
3.8445 3.6932 0.37278 0 2647
3.8487 4.8367 1.0155 0 2159
3.8492 -4.8373 0.72292 0 7367
3.8663 -5.7973 -1.4812 0 7432
3.8885 -5.253 -0.60974 0 7404
3.9969 3.1452 0.71479 1 3052
4.0517 5.4695 1.1183 1 2046
4.0764 7.6505 1.2183 0 1601
4.1414 3.9095 -0.66601 1 2673
4.165 -3.0842 0.12032 0 7227
4.1672 3.8657 0.39747 0 2712
4.205 -4.3559 0.14056 0 7313
4.2612 12.938 2.2379 0 1190
4.3057 2.8015 -1.3448 2 3486
4.3304 6.3339 0.71583 0 1926
4.3317 6.2208 1.2454 0 1952
4.3352 3.6609 -0.39677 0 2895
4.3365 7.7055 0 0 1659
4.3672 2.9869 0.99686 0 3383
4.398 4.1271 0.99088 0 2692
4.4311 -10.751 1.9104 0 7493
4.5597 -5.9747 0.35049 0 7390
4.6058 -6.9957 1.3761 0 7436
4.6837 2.242 0.60724 0 4067
4.6957 9.1961 1.6964 0 1559
4.7243 -5.4635 -0.84465 1 7338
4.7946 -3.5091 0.83504 0 7219
4.8246 4.5545 0.77589 0 2680
4.8256 -8.4568 1.8345 0 7470
4.8354 -5.4347 0.67867 0 7334
4.837 -7.9336 0.43332 0 7456
4.8857 -10.776 1.9438 0 7486
4.8951 2.6291 0.38854 0 3864
4.9372 -1.1353 0 0 6501
4.94 1.9549 0.87286 0 4343
4.9491 0.75113 -0.35004 0 5344
4.9537 5.9731 0.18016 0 2223
4.9795 -4.4867 0.31257 0 7302
4.9895 3.3718 0 0 3406
5.0804 -6.4979 -0.76952 0 7376
5.128 2.7912 0.13555 0 3831
5.1605 2.4703 0.93997 0 4070
5.1784 8.4438 1.6274 0 1773
5.1951 -8.9189 1.6958 0 7465
5.2112 -2.4923 0.94905 2 6837
5.2306 3.9216 0.7645 0 3142
5.2799 2.0014 0.13109 1 4396
5.2802 9.1937 -0.74137 0 1680
5.2814 -3.657 1.0554 0 7167
5.3072 9.6898 -0.51521 0 1630
5.3245 0.21758 -0.37264 1 5827
5.3421 3.5426 0 0 3445
5.3508 -0.65321 -0.12515 0 6352
5.3569 7.8353 -0.22036 0 1923
5.3971 3.2084 0.58578 0 3671
5.4335 2.8769 0.71897 0 3891
5.4344 -2.1857 0.96235 0 6672
5.4587 -4.1916 0.96725 0 7255
5.4761 4.7085 0 0 2864
5.5082 8.8013 1.7058 0 1803
5.5105 -4.7364 0.50811 0 7299
5.5201 4.5553 0.66771 0 2953
5.5383 0.72619 -0.52112 0 5442
5.5445 -2.212 0.27838 0 6664
5.6104 9.449 1.2851 0 1730
5.624 0.082457 0.92409 0 5948
5.6435 -3.6706 0.1563 0 7112
5.6744 -0.2805 0.53004 1 6182
5.775 -0.94465 -0.40919 1 6439
5.8122 0.91744 0.82697 0 5320
5.8157 -2.8466 0.30195 0 6865
5.9683 -1.3374 0.71526 0 6497
5.9711 1.138 -0.71084 0 5154
5.9791 3.6971 1.1549 0 3595
5.9884 -2.5926 -0.76311 0 6728
6.0198 -1.1832 0.429 0 6478
6.1233 1.0401 0.87289 0 5264
6.1593 0.51937 1.0155 0 5650
6.1834 2.6362 1.1044 0 4247
6.2449 4.2711 -0.35282 0 3371
6.2474 4.1965 -1.0577 0 3415
6.2638 1.909 1.0758 0 4671
6.2874 -6.4745 1.4828 0 7312
6.348 -1.0942 1.0583 0 6455
6.4236 6.0639 -0.82414 0 2674
6.4427 2.9456 -0.16447 0 4140
6.492 3.5838 -0.86718 1 3797
6.4936 -0.24378 0.45439 0 6148
6.5005 5.4295 -0.19664 0 2923
6.5887 -3.8394 1.2529 0 7032
6.7409 4.727 1.5512 0 3327
6.7629 7.3391 1.4026 0 2419
6.7679 0.9295 0.79888 0 5422
6.8495 0.95776 0.16057 0 5405
6.8518 2.2408 0.84302 1 4578
6.8739 -8.6913 2.0878 0 7371
6.8873 -0.41763 0 0 6214
6.9801 0.32429 -0.65192 0 5802
7.0362 -4.5763 0.58693 0 7114
7.3594 -5.6512 -1.3041 0 7253
7.4195 -0.4954 0 0 6231
7.4519 -1.7822 0 0 6508
7.5201 -7.79 2.04 0 7314
7.621 -3.7831 1.603 0 6885
7.6612 8.3607 1.8631 0 2405
7.6955 7.0147 0.97146 0 2749
7.7679 -8.1856 1.854 0 7321
7.777 -5.3851 0.21962 0 7164
7.7931 -2.1524 0.94547 0 6527
7.8068 1.326 0.55373 0 5260
7.8496 -1.5671 0.55973 0 6481
7.8677 -5.2829 0.88415 1 7138
7.9943 2.2576 0.38739 0 4754
8.0212 -2.9068 1.4017 0 6606
8.0419 -5.5332 0.91071 0 7158
8.1371 0.94869 1.3459 0 5510
8.1941 -10.173 2.1462 0 7362
8.3141 3.3187 -1.2581 0 4324
8.3933 -3.8961 0.21484 0 6800
8.4521 3.9251 1.5311 0 4121
8.4868 5.7698 1.6861 0 3398
8.6157 -4.152 1.3441 0 6847
8.675 0.98686 1.4344 0 5525
8.7065 -0.30099 -0.20226 0 6137
8.7229 -8.8239 2.0385 0 7311
8.9248 7.5367 1.9192 0 2904
8.9936 -0.28735 0.41962 0 6126
9.0591 2.5584 -0.21855 0 4752
9.2164 -6.8697 1.6155 0 7234
9.2295 -7.1282 1.9159 0 7258
9.2981 -0.83474 0.87095 0 6279
9.3277 3.7233 1.6501 0 4332
9.509 -5.8386 1.8333 0 7070
9.5599 1.509 1.5901 0 5322
9.5641 4.2402 1.9711 0 4189
9.5961 10.472 2.6762 0 2407
10.06 5.5536 0.5359 1 3803
10.177 -2.6832 1.983 1 6520
10.645 -5.0181 1.9334 0 6819
10.678 -6.6853 1.4733 0 7086
10.733 2.7319 1.8196 0 4875
11.378 3.5024 1.9558 0 4658
11.484 -0.76679 -1.346 0 6229
11.523 5.6825 2.4207 0 4025
12.512 -4.4504 2.1818 0 6598
13.205 2.2809 2.5247 0 5251
-1.4019 10.868 -1.5401 0 669
-0.75457 -0.48312 -0.19045 2 8784
1.8739 7.3732 -1.9916 0 1088
4.5047 2.2381 -1.9642 0 4007
5.6616 4.7811 -1.9399 0 2902
