VERSION .7
FIELDS x y z intensity index
SIZE 8 8 8 8 8
TYPE F F F F F
COUNT 1 1 1 1 1
WIDTH 574
HEIGHT 1
VIEWPOINT 0 0 0 1 0 0 0
POINTS 574
DATA ascii
-4.8466 -0.14215 0.91354 1 9424
-4.8175 0.4766 0.45164 0 9840
-4.6602 -0.013827 -0.65495 1 9506
-4.4267 0.064131 -0.30958 1 9575
-4.3625 -0.69018 0.72565 1 8986
-4.3389 0.062859 0.30344 0 9580
-4.1565 0.15677 -0.19397 0 9653
-3.8997 0.40781 0.36581 0 9862
-3.7653 0.77565 0.72432 0 10188
-3.673 -0.60213 0 0 8963
-3.6689 0.27651 0.69321 0 9774
-3.5311 2.5759 -0.10148 0 1507
-3.3798 1.96 -0.36451 0 628
-3.3378 -2.4492 0.38624 1 8801
-3.2611 0.0091057 0.075714 1 9537
-3.2569 2.8252 0.30149 0 2075
-3.213 2.9524 0.7169 2 2247
-2.9924 -2.7029 0.56671 0 8672
-2.9691 -3.6981 0.89354 0 8533
-2.8998 1.3584 0.37447 2 11449
-2.8912 3.8466 0 0 3210
-2.8488 3.5905 0.86355 2 3092
-2.8477 2.4253 0.43742 0 2029
-2.7423 2.7828 0.090708 0 2520
-2.5847 -3.5667 0.10227 0 8484
-2.5615 -2.9896 0.36729 0 8576
-2.4143 3.5646 0.40166 1 3448
-2.3579 4.2642 0.11313 0 3871
-2.2846 -2.746 0.58688 0 8555
-1.7844 4.3878 -0.10997 0 4260
-1.7339 -4.2636 0.53824 0 8359
-1.2809 3.2058 -0.16099 1 4277
-1.2404 -3.8245 0.47018 0 8300
-1.1766 -3.0445 0 0 8353
-1.0971 4.0074 -0.096464 0 4514
-1.0289 -4.5806 0.109 0 8261
-0.98189 2.8581 -1.0999 0 4392
-0.84923 4.1816 0.80393 0 4589
-0.79775 4.3767 0.10329 0 4601
-0.79303 3.4405 0.32939 1 4568
-0.68617 -3.53 0.1677 0 8258
-0.64888 -4.2603 0.30135 0 8252
-0.35593 3.3921 0.39886 0 4623
-0.33725 4.2851 0.80986 0 4645
-0.17654 4.6808 0.54777 0 4660
-0.14562 4.9651 -0.69809 0 4662
-0.14438 4.5189 -0.52872 0 4661
-0.13774 -3.1421 0.073021 0 8217
-0.10327 3.9438 -0.64816 0 4665
-0.053476 4.5057 0 0 4674
-0.052347 4.4106 0.72468 0 4677
-0.0497 4.1875 0.3907 0 4675
-0.002156 -4.1176 0.77579 0 8190
0.13339 3.0797 0.28759 0 4715
0.13708 -3.6685 0.2567 0 8169
0.13939 -4.3866 0.82689 0 8172
0.1698 4.1731 -0.7869 1 4714
0.28375 3.365 0.39491 0 4745
0.32076 -3.0725 -0.071721 0 8151
0.33077 -3.9391 0.091775 0 8154
0.41462 3.3146 -1.1287 0 4763
0.68488 3.7686 0.53832 0 4823
0.70977 -4.1875 0.80023 0 8144
0.71953 3.2085 0.61952 0 4876
0.8039 -4.6589 0.55288 0 8143
0.81696 2.9201 -0.64453 0 4957
0.83249 3.6174 0 0 4884
0.94518 -4.4659 0.74997 0 8140
1.139 2.9503 -0.14748 2 5074
1.1847 -3.5223 0.61055 1 8129
1.3357 -3.3177 0.33367 0 8116
1.3732 -3.1194 -0.15894 0 8113
1.3929 4.7145 0.34376 0 4978
1.4052 -4.058 0.70555 0 8126
1.4496 4.2195 0.52175 0 5024
1.5781 3.9515 -0.90442 0 5090
1.6304 -3.2802 0.25615 0 8091
1.8808 -3.929 0 1 8107
1.8969 -3.5053 0.18587 0 8068
1.9131 -2.3175 0.5662 0 7830
1.9604 4.4177 -1.2652 1 5146
1.9768 3.3016 0.54083 0 5360
2.0379 2.7471 -1.245 0 5599
2.0787 -2.7877 0.57131 0 7898
2.1568 4.1537 -1.2252 1 5250
2.2403 2.2893 0.52624 0 5884
2.3012 3.1978 -0.18373 2 5563
2.3273 1.9042 -1.0161 0 6146
2.4794 -1.7783 0.35681 1 7363
2.6653 -2.556 0.43185 0 7627
2.8046 -1.4088 -1.1423 0 7247
2.8111 -2.8746 0.47018 0 7690
2.8193 -1.6607 0.2288 0 7278
3.1332 1.3963 0.15997 0 6711
3.2002 1.0515 -0.88182 0 6860
3.2147 0.40782 -0.15112 0 7056
3.2304 -3.5815 -0.56403 0 7760
3.2942 3.0848 0.21046 0 5971
3.3665 3.1153 -0.10649 0 5984
3.3955 1.5132 -0.52246 0 6710
3.4544 -0.025925 0.40397 0 7090
3.5559 3.1972 0.78564 0 6030
3.5566 3.4082 -0.34446 1 5942
3.5775 2.519 0.30595 0 6312
3.6051 -3.3985 0.46223 0 7612
3.6382 0.48285 -0.3424 0 7049
3.6865 0.64274 0.70506 1 7012
3.7505 -1.2099 0.36767 0 7133
3.7949 -0.42566 -0.26703 0 7107
3.8535 3.0972 -0.34571 0 6168
3.8768 1.5545 0.096975 0 6775
3.8997 2.7632 -1.3705 1 6305
3.9135 2.2295 0 0 6521
3.9288 2.6972 0.55729 0 6341
3.9783 2.2344 -0.31907 1 6533
3.9833 -1.8313 -0.51269 0 7217
4.0022 0.06427 0.46809 0 7086
4.1432 -0.62364 -0.68836 0 7111
4.3302 -0.094484 0.40408 0 7094
4.3942 -0.095882 -0.30735 2 7093
4.5025 0.28012 -0.95889 0 7081
4.5037 -0.62495 0.31795 0 7108
4.554 -1.8882 0.80995 0 7185
4.6188 1.3857 -0.3372 0 6883
4.6296 -0.087277 0.54149 0 7092
4.7723 -0.50833 -0.56124 1 7105
4.8005 -0.14667 -0.1115 0 7095
-1.4853 -1.2503 -0.045075 1 8707
1.1963 2.737 -0.27868 0 5137
2.2788 1.8765 -0.99748 0 6139
-14.611 -0.51023 0.33943 1 9395
-14.611 2.5264 0 0 10094
-14.59 -0.34129 0 0 9440
-14.097 2.5187 -0.33247 0 10112
-14.054 3.4105 -0.67443 0 10284
-13.968 2.7912 0.66428 1 10172
-13.903 1.0478 0.3237 1 9772
-13.839 1.94 0 0 9980
-13.669 -0.59681 -0.31766 0 9359
-13.57 3.2028 -0.65021 1 10266
-13.341 2.9895 -0.31743 0 10229
-12.396 2.2527 -0.2925 0 10121
-12.343 2.2052 0 0 10113
-12.05 7.4628 0 0 877
-12.045 -1.9056 -0.28313 0 8981
-12.007 5.763 -1.2425 1 26
-11.952 -0.55736 0.27779 0 9350
-11.911 -1.2498 0.27807 1 9150
-11.904 3.2522 -0.28651 2 10381
-11.733 7.9948 0 0 1235
-11.721 9.3569 0.34821 1 1838
-11.706 -0.99121 1.3738 0 9213
-11.704 0.30444 1.3692 0 9619
-11.613 -0.34062 1.9088 0 9423
-11.531 5.7343 -0.90056 0 11605
-11.45 -2.0148 0.81294 0 8937
-11.409 5.1848 2.3611 1 11379
-11.371 5.1678 0.58248 1 11368
-11.361 4.4639 -1.4275 1 10981
-11.337 0.22955 0.26326 0 9598
-11.337 5.4709 1.4721 0 11530
-11.335 -0.19786 0.26321 0 9460
-11.324 2.3987 -1.3536 2 10198
-11.32 -8.6112 -0.99459 1 8772
-11.274 7.9232 2.2639 0 1376
-11.263 5.197 1.7433 0 11414
-11.227 7.3666 -0.31177 0 1091
-11.208 5.1339 -1.4417 0 11382
-11.202 -0.91312 1.3144 1 9222
-11.143 9.0043 0.6681 1 1876
-11.123 7.7276 2.5518 0 1329
-11.087 9.0105 0.99905 1 1895
-11.079 -1.1332 -0.77876 1 9157
-11.076 -0.58046 0.2575 0 9331
-11.073 8.8391 0 1 1836
-11.05 -0.80562 -0.25722 0 9249
-11.037 8.9696 1.3269 1 1897
-11.025 0.47751 1.5509 1 9676
-10.961 0.76259 0.25509 0 9755
-10.938 0.73034 1.0227 0 9747
-10.877 9.995 0.68888 1 2240
-10.813 -9.483 -0.67071 1 8681
-10.812 -0.91552 1.0123 0 9212
-10.783 -1.6096 1.0172 1 9010
-10.587 -9.7829 -1.008 0 8664
-10.576 4.625 1.8965 1 11271
-10.562 2.5905 0.76049 0 10294
-10.483 6.6193 -0.86693 1 948
-10.417 3.2087 0.50832 1 10526
-10.409 0.63301 0.72923 1 9728
-10.369 5.8116 1.1089 0 526
-10.366 0.69211 -0.72644 1 9743
-10.359 1.0833 0.24181 0 9860
-10.299 5.1981 0.26785 1 189
-10.288 4.971 0.53282 1 53
-10.224 1.9208 -1.2166 1 10136
-10.222 8.9169 0.31492 1 2091
-10.202 2.4756 0 0 10286
-10.201 1.1298 -1.4424 1 9874
-10.2 5.0722 2.1463 0 11623
-10.157 0.43992 1.1889 2 9675
-10.097 2.9486 0.73551 0 10455
-10.094 3.1092 0 1 10525
-10.085 0.78836 0.70733 0 9781
-10.029 7.0487 1.4335 0 1372
-9.9836 10.188 0 0 2535
-9.9759 2.632 -0.23954 0 10351
-9.9632 7.9081 -0.59319 0 1811
-9.9587 0.83975 0 0 9796
-9.9339 1.451 -1.4109 1 9997
-9.8759 5.7272 1.0651 1 640
-9.8589 0.57018 -0.22928 0 9720
-9.8384 10.763 0.33855 1 2725
-9.8209 9.9104 0.32393 1 2503
-9.8166 8.7617 0 0 2152
-9.7528 5.1052 -1.027 0 295
-9.7522 0.39339 -1.3717 0 9656
-9.7221 9.8108 0 2 2502
-9.6995 5.6634 0.52378 1 661
-9.687 3.3904 1.4424 0 10751
-9.6729 9.5321 0.3153 1 2441
-9.6178 -8.1449 -0.8813 1 8700
-9.5571 2.7314 0.69505 0 10429
-9.5377 4.3024 1.4705 1 11353
-9.5238 7.5593 1.1344 0 1821
-9.5112 5.9317 1.0458 0 910
-9.5076 10.107 0 0 2647
-9.5026 4.0865 1.9489 2 11231
-9.5024 9.4792 0 0 2472
-9.4288 2.5494 0.45549 1 10369
-9.3806 7.8545 -0.57055 0 1975
-9.3632 11.387 0.34227 1 2990
-9.3051 -6.3 1.0484 0 8872
-9.282 -0.56771 1.5278 1 9299
-9.269 5.3407 0.99803 0 617
-9.2433 -0.21622 0.86259 0 9443
-9.1781 4.7697 1.2096 0 286
-9.1615 1.2843 -1.3002 0 9974
-9.1381 1.5801 -0.8652 0 10090
-9.1089 4.0137 0 0 11280
-9.0927 9.8951 0.312 1 2710
-9.036 8.7534 -0.29208 0 2392
-9.028 9.4903 0.30411 1 2618
-9.0132 -6.2971 0.25527 0 8842
-9.0118 4.8849 1.6841 0 419
-8.9942 -6.7187 -0.78504 0 8786
-8.9917 0.20719 -0.62892 2 9605
-8.9812 -9.4345 -0.60745 0 8640
-8.9608 -6.7353 0.52276 1 8785
-8.949 9.7387 0 0 2709
-8.9059 3.7675 -0.90217 2 11170
-8.9013 -7.9895 -0.55779 0 8674
-8.8934 3.4014 0.44403 2 10928
-8.8775 -6.2787 -0.76035 1 8828
-8.877 3.7882 -0.45009 2 11192
-8.869 6.0432 1.7632 2 1249
-8.8679 1.4252 -1.2623 1 10047
-8.8658 -6.1528 0.75463 2 8849
-8.8281 10.123 0 0 2844
-8.8027 4.9338 -0.47059 1 516
-8.7952 0.61194 -0.61651 0 9753
-8.753 7.4126 0 0 2010
-8.7054 6.1592 0.7457 1 1394
-8.7048 -10.582 -0.95817 0 8542
-8.6712 12.112 -0.69465 1 3318
-8.6378 -9.563 -0.90111 0 8611
-8.6369 -9.236 -0.88423 0 8627
-8.5709 4.8729 0.2289 0 566
-8.5663 -6.7144 0.50757 1 8753
-8.5455 0.76868 0 0 9818
-8.5242 10.743 -0.31841 1 3082
-8.4682 6.9658 -0.25458 0 1925
-8.428 5.4586 -0.23313 1 1042
-8.4154 7.5986 -0.79285 2 2183
-8.4083 -12.179 -1.0349 0 8463
-8.1691 -11.913 -1.0101 0 8462
-8.0103 -7.1898 -0.75267 1 8673
-7.9378 6.49 -1.441 1 1903
-7.831 -10.934 -0.94046 0 8475
-7.8217 -9.8544 -0.87977 0 8519
-7.7484 1.7604 0.92921 1 10244
-7.6902 0.39899 1.4509 0 9707
-7.5583 2.6454 -0.18592 2 10743
-7.5275 2.3907 0 0 10572
-7.4674 12.537 -0.33878 0 3734
-7.4263 2.0525 1.2658 0 10395
-7.3941 7.1205 -0.23833 0 2374
-7.3271 0.21234 0.68387 0 9630
-7.2732 -7.7778 2.0063 0 8631
-7.1407 -5.5309 0.42121 0 8763
-7.0135 -5.5948 1.474 0 8739
-6.9595 -8.3649 -0.7609 1 8553
-6.9396 2.7266 -0.17311 0 10985
-6.8491 7.2808 1.6423 0 2654
-6.8405 1.9125 1.1669 0 10406
-6.7085 0.50559 0.47044 0 9773
-6.5398 -1.132 1.0904 2 8943
-6.5132 -5.5158 0.79627 0 8704
-6.4321 6.6027 1.7367 0 2562
-6.3822 1.6066 -0.92494 1 10303
-6.2416 5.9771 1.6282 1 2367
-6.1297 -0.57187 -0.14293 0 9184
-6.1233 -4.9745 1.4864 0 8729
-5.9162 5.2804 0.92735 0 2158
-5.8878 0.52961 -0.41338 1 9816
-5.7936 -0.54051 0.54286 0 9186
-5.6916 4.7657 1.3986 0 1987
-5.6908 -0.96866 -0.67507 0 8945
-5.5741 0.064211 0.12942 1 9569
-5.5619 2.8682 1.179 0 269
-5.5291 0.40118 0.91079 0 9765
-5.4837 6.3284 -1.3758 0 2853
-5.3498 -5.5554 0.71954 0 8649
-5.3447 9.9387 1.854 0 3920
-5.3403 0.71634 0.25127 0 9960
-5.0099 0.56815 0 0 9889
-5.0027 -6.6557 1.1702 0 8493
-4.9783 1.1603 0.71841 0 10260
-4.9403 -3.3023 -0.13796 1 8882
-4.7879 -10.134 1.8414 0 8384
-4.7365 -3.6886 0.41979 0 8758
-4.7302 4.2219 -0.1472 0 2151
-4.5792 4.592 1.0655 0 2493
-4.5371 2.5284 0 0 496
-4.4857 -3.2507 0.91014 0 8811
-4.3801 -9.7781 1.7603 0 8376
-4.2622 7.4998 1.4173 0 3827
-4.1827 -3.1052 0.48601 2 8794
-4.147 2.8812 -0.35311 1 1308
-4.1273 4.7329 -1.3348 0 2851
-3.8234 4.4625 0.13643 2 2887
-3.7953 -6.5869 1.249 0 8438
-3.7257 6.8277 0 0 3893
-3.6831 -7.6188 0.9896 0 8392
-3.6473 4.7088 0.97856 0 3147
-3.5854 7.8856 0.80816 0 4133
-3.531 11.814 2.0259 0 4483
-3.31 -4.1227 -0.36971 0 8527
-3.2034 6.8292 0.70375 0 4099
-3.0709 -8.3782 0.8325 0 8338
-2.9499 7.4392 1.3148 0 4288
-2.764 8.9678 1.0974 0 4466
-2.6748 -4.581 0.99945 0 8442
-2.6045 7.9543 -1.3751 0 4422
-2.5672 -4.8733 0.90496 0 8418
-2.4446 6.6693 0.66269 0 4352
-2.3487 -8.5797 1.0402 0 8277
-2.1568 -7.966 1.5549 1 8274
-2.1402 -7.5534 1.2898 0 8280
-2.0877 -5.7989 0.575 0 8332
-1.8706 -6.9862 0.50573 0 8270
-1.8019 -8.0219 1.3508 0 8262
-1.7427 7.6642 -0.73329 0 4569
-1.5396 7.5811 -1.4575 0 4588
-1.4994 -5.1778 -0.12515 0 8281
-1.4816 -5.9555 0.42914 0 8265
-1.1737 5.9547 1.1435 0 4592
-1.1476 -7.8286 1.112 0 8250
-1.0598 4.999 -0.96279 0 4580
-1.0398 5.7045 -0.67809 0 4599
-0.96267 6.3206 -1.2046 0 4610
-0.95439 -7.0961 0 0 8247
-0.90206 6.043 0.8587 0 4611
-0.87584 -7.3017 -0.34295 0 8242
-0.82699 -5.5335 0.91922 0 8251
-0.73369 -5.6958 0.67158 0 8246
-0.63252 6.1948 0.58095 0 4625
-0.58526 8.0466 1.3255 0 4646
-0.54841 5.2265 0.49028 0 4621
-0.41652 7.5445 -0.17543 0 4651
-0.33867 7.7569 0.72437 0 4657
-0.31769 -6.7618 1.1121 0 8220
-0.30833 -6.1934 0.57853 1 8223
-0.27104 -9.2412 1.2993 0 8207
-0.24422 6.0282 0.9912 1 4659
-0.14974 10.213 0 0 4670
-0.12896 -6.3146 0.88765 0 8201
-0.056387 6.3343 -0.44295 0 4679
-0.023249 7.8348 -0.54787 0 4682
-0.020122 6.7811 1.1141 0 4684
0.063453 5.5081 -0.64417 1 4696
0.06588 5.7188 0.53357 1 4697
0.088094 -5.1499 0.11958 0 8179
0.16568 -6.4561 0.14994 0 8175
0.17055 5.3673 0.88226 2 4709
0.92483 9.6401 0.6772 0 4749
1.0215 -7.6255 0.8997 0 8145
1.0813 9.2888 0.21711 0 4757
1.1322 8.4402 1.3991 0 4773
1.147 8.7475 0.41142 0 4768
1.3323 -12.425 2.0531 0 8150
1.394 6.0573 -0.72687 0 4880
1.5439 7.8549 0.74685 0 4838
1.7556 6.0745 0.29487 0 4970
1.7657 -7.2931 0.34993 0 8139
1.9913 4.744 -0.60166 0 5114
2.0527 5.1793 0.78299 1 5086
2.1416 9.1811 1.5489 0 4889
2.1527 -8.0678 1.3719 0 8137
2.2741 6.9452 1.2007 0 5006
2.3874 -4.4451 -0.35283 0 8071
2.3928 11.286 1.8955 0 4864
2.4398 8.2577 1.4147 0 4979
2.4688 5.0775 -0.26329 0 5201
2.5427 7.9292 -0.38832 0 5001
2.7028 -8.7802 1.5093 0 8131
2.7076 -7.8947 1.3712 0 8127
2.7463 6.088 0.31146 0 5155
2.8815 -8.4839 1.4721 0 8128
3.0938 4.8099 0.6688 0 5430
3.1011 -7.7689 0.97822 0 8119
3.1724 -8.3689 1.4704 1 8125
3.2571 -6.1934 0.65284 0 8076
3.3042 4.7647 0.95262 0 5508
3.4113 5.3382 1.0408 1 5424
3.453 -6.1281 0 0 8056
3.4544 6.4695 0.85766 0 5273
3.5309 4.4294 0.13151 0 5673
3.5664 -5.0802 0.57909 0 7928
3.5964 7.8515 0 0 5165
3.7565 -4.1197 0.91598 0 7754
3.8187 3.6825 0.37096 0 5936
3.8475 3.3411 0.83719 0 6075
4.078 -4.5739 1.0068 0 7775
4.0837 2.9096 -0.4678 0 6296
4.0841 6.5588 1.2694 0 5396
4.1071 3.8934 -1.4815 0 5959
4.1325 3.4836 0.75961 0 6112
4.2306 -5.7424 -0.49876 1 7901
4.2751 3.4793 0 1 6153
4.3146 2.5904 -0.23469 0 6473
4.3155 -8.751 1.603 0 8095
4.3267 7.1273 0.77788 0 5370
4.4569 -7.3971 1.6271 0 8026
4.4688 9.6184 1.7425 0 5174
4.4852 4.1056 0.71107 0 6006
4.8087 -2.6294 -0.64092 0 7263
4.8311 1.6503 -0.59701 2 6847
4.8614 1.6294 -1.3422 0 6853
4.8614 2.6023 0.51444 2 6573
4.9053 -1.4717 0.84141 0 7132
4.9228 -1.9094 -0.74207 1 7161
4.949 -6.1707 -0.92502 0 7848
4.9739 1.0618 -0.71479 0 6967
4.9842 -2.7446 1.072 0 7266
5.0113 3.4403 0.99866 0 6344
5.0154 -0.26899 -0.70589 0 7099
5.0379 -1.9541 0.88777 0 7163
5.0881 5.2285 1.3746 0 5879
5.1038 0.67736 -1.4763 0 7050
5.1072 -6.1124 1.3086 0 7822
5.1444 -1.0056 0.86118 0 7114
5.1717 3.5744 0.58652 0 6335
5.1834 -9.8562 2.0981 0 8077
5.1972 3.9363 0.76241 0 6233
5.2186 7.2065 -0.20658 0 5572
5.2209 1.6994 0.12747 0 6863
5.2537 1.9486 1.0557 0 6814
5.3295 6.7629 1.6223 0 5663
5.3852 -1.2482 0.51574 0 7124
5.434 5.9552 0.18717 0 5813
5.481 9.2752 1.77 0 5348
5.5248 5.6773 -0.18392 0 5874
5.5599 3.5189 0.46011 0 6429
5.6392 -7.2049 1.5032 0 7869
5.6487 1.9483 -0.83977 1 6844
5.6518 4.438 0 0 6195
5.6773 2.8504 -0.7429 0 6633
5.8191 1.7083 0.99639 0 6890
5.9347 -1.4863 1.0051 0 7126
5.9539 2.8411 0.77147 0 6672
6.0345 1.4532 0.57909 0 6936
6.0865 8.2045 0.95307 0 5600
6.1824 0.099282 0.869 0 7087
6.2161 1.0458 1.0356 1 7018
6.2239 -4.2489 -1.0591 0 7330
6.3363 1.4303 0.75963 0 6954
6.4383 5.1747 0.77063 0 6172
6.4397 4.3978 -0.72753 0 6348
6.4997 -4.4089 0.73273 0 7328
6.5352 -13.068 1.3631 0 8087
6.5706 1.5 1.1073 0 6950
6.5816 2.4189 1.152 0 6817
6.712 -3.799 1.2671 0 7271
6.7967 3.1463 1.2305 0 6693
6.8248 2.4423 0.84767 0 6829
6.9543 -0.98603 1.154 0 7110
7.0049 1.0132 0.82769 0 7040
7.0405 4.1455 0.95546 0 6492
7.0484 -13.025 1.3817 0 8070
7.0541 7.9118 1.7415 0 5788
7.1643 -0.40682 -1.1789 0 7100
7.2205 -7.6462 1.478 0 7719
7.2343 0.64055 1.1932 0 7078
7.3458 -10.597 0.6013 1 7933
7.6437 -2.1976 1.3067 0 7131
7.6551 -6.8468 1.6874 0 7562
7.7513 1.1418 1.2872 0 7037
7.7687 -11.414 0.64388 1 7942
7.7948 -1.9753 0.94036 0 7127
7.7985 -0.080308 0.54536 0 7091
7.8438 2.0578 1.3323 0 6919
7.947 0.2192 0 0 7085
7.9704 -11.866 0.33187 1 7951
7.9979 -0.54664 1.3171 0 7101
8.0641 -10.49 0.92525 1 7879
8.2014 3.5117 -0.20713 0 6738
8.2166 -10.821 1.2676 0 7887
8.2198 -10.825 0.31557 1 7886
8.3117 -11.627 0.33182 1 7916
8.3203 -1.1797 0.78401 0 7109
8.3572 -11.69 0.67015 1 7917
8.4141 -4.0151 1.5317 0 7232
8.4233 -2.002 1.4224 1 7125
8.432 -5.6853 1.6708 0 7325
8.5273 -9.0838 1.457 0 7722
8.5403 -8.4839 1.4077 0 7665
8.6229 -8.5153 2.2833 0 7662
8.6282 -10.452 0.63204 1 7827
8.6343 -8.5772 1.7104 0 7666
8.6358 -9.0875 0.58462 1 7712
8.8659 3.8256 1.8193 0 6735
8.8852 0.63067 -0.20681 0 7079
8.9034 6.5044 1.8115 0 6270
8.9611 -8.301 2.3014 1 7599
9.0142 1.3568 1.4977 0 7035
9.0362 -7.4887 1.3724 0 7485
9.0661 -9.7087 0.61947 1 7725
9.1341 5.2715 -1.2333 0 6508
9.1972 -9.849 1.8939 0 7729
9.2948 -8.0288 1.4363 0 7523
9.3397 -9.8283 2.2275 0 7715
9.41 -10.197 1.2945 0 7738
9.475 5.0359 1.7629 0 6583
9.4751 -9.9151 0.95901 1 7707
9.5248 -6.2661 1.8731 0 7314
9.5887 -9.3572 1.25 0 7645
9.6126 3.5654 1.6844 0 6812
9.6895 -9.3505 2.2123 0 7635
9.9485 -10.053 1.654 0 7681
10.077 -8.9595 1.5769 0 7556
10.091 -8.4582 1.2284 0 7499
10.099 -8.5676 0.6176 1 7508
10.143 -9.0183 1.9075 0 7557
10.195 -8.5001 1.5522 1 7492
10.316 -8.0571 0.61043 2 7431
10.366 -8.0468 1.2243 1 7424
10.399 -8.0723 1.8502 0 7425
10.421 -7.8467 0.30285 1 7393
10.434 -7.8567 1.5274 0 7395
10.553 -8.1915 2.1948 0 7426
10.559 0.56447 1.7373 0 7083
10.6 -9.7027 1.6805 0 7584
10.622 -9.0113 1.2996 0 7509
10.634 -9.1275 0.32537 1 7518
10.719 -8.1215 0.31223 1 7398
10.78 -6.9101 0.89539 1 7303
10.822 -9.2367 1.3274 0 7514
10.844 -8.1659 1.2665 1 7394
10.984 -7.4506 0.30815 1 7327
11.019 -9.2365 0.67052 1 7498
11.113 -8.3225 1.2953 0 7390
11.149 -7.5172 1.5724 0 7324
11.25 -8.6228 0.32908 1 7409
12.031 -0.57787 1.9788 0 7098
12.504 -0.45413 2.0557 0 7096
12.575 -3.537 2.1462 0 7130
-0.76112 -0.48377 -0.19169 2 8907
-0.53741 4.082 -1.7198 0 4618
1.306 5.675 -1.6698 0 4885
3.1189 2.2785 -1.6134 0 6267
3.312 0.93097 -1.7281 0 6899
3.6005 3.5942 -1.719 0 5904
6.4631 -0.25393 -1.6932 0 7097
