VERSION .7
FIELDS x y z intensity index
SIZE 8 8 8 8 8
TYPE F F F F F
COUNT 1 1 1 1 1
WIDTH 556
HEIGHT 1
VIEWPOINT 0 0 0 1 0 0 0
POINTS 556
DATA ascii
-4.4338 2.1644 0.8106 0 13416
-4.4211 1.8485 0 1 13086
-4.3424 -0.34404 0 0 11003
-4.3225 -0.4444 0.61069 0 10950
-4.0568 0.03257 0.094189 0 11225
-4.036 -0.30772 0.66502 0 11012
-3.9643 2.0654 0.62823 1 13592
-3.9331 2.1054 -0.20804 0 13661
-3.8338 -3.2044 -0.11601 1 10505
-3.7478 -2.5023 0.42043 1 10749
-3.519 1.5926 0.2701 0 13243
-3.5055 -2.6473 0.10199 1 10642
-3.4672 1.509 0.62125 0 13170
-3.4551 2.9467 -1.3021 0 15436
-3.2225 0.80704 0 0 12269
-3.1764 0.89345 -0.30784 1 12421
-3.1661 -2.7406 0.19528 0 10448
-3.0504 1.2139 -0.076224 1 12990
-2.9884 1.8428 0.57682 1 14167
-2.9541 -3.1868 0.30386 0 10173
-2.8446 1.4288 0.523 0 13491
-2.8084 2.9708 0.47808 0 16168
-2.7524 2.0839 -1.1665 0 14961
-2.7327 -3.8297 0.10923 0 10006
-2.6717 -2.2586 0.65914 0 10493
-2.5684 3.841 -0.64938 0 17308
-2.4718 -3.0178 0.090569 0 10083
-2.3546 4.2548 -0.45368 0 17812
-2.2592 2.4724 0.39166 0 16293
-1.7172 3.1905 -0.42372 2 17865
-1.6294 4.1406 0.52036 0 18305
-1.6187 2.7536 0.298 1 17679
-1.3733 -4.0432 0 0 9614
-1.2209 -3.8119 0.56254 0 9605
-1.1833 -4.4377 0.53708 0 9583
-1.1504 3.4725 0.34129 0 18535
-1.0974 -3.8447 0.27958 0 9590
-0.88741 -3.9123 -0.18708 0 9573
-0.80462 -3.2416 0 0 9577
-0.54825 3.1284 0.59841 0 212
-0.50897 -4.7391 0.3333 0 9533
-0.42179 -3.4551 0.65581 0 9542
-0.029448 -3.3083 0.15428 0 9475
0.31229 -4.4885 0.52616 0 9440
0.40996 3.8046 -0.26759 1 1716
0.57556 3.5694 0.59401 0 1947
0.58991 -3.2493 -0.154 0 9420
0.67257 4.3345 -1.4821 0 1920
0.74629 3.8501 -0.18289 0 2073
0.85267 3.9107 -0.85077 1 2159
0.8796 -4.4792 0.10598 0 9418
0.88604 -2.9421 0.14329 0 9410
1.0268 3.67 0.62611 0 2328
1.1022 3.8565 0.093122 1 2339
1.3147 -3.0631 0.54764 1 9380
1.5119 2.8543 0.30134 0 2820
1.5805 4.0248 0.71041 0 2565
1.7366 -3.6052 -0.18661 1 9371
1.7434 -2.7879 0.61952 0 9341
1.7804 -4.3913 0.7785 0 9382
1.9811 -3.3154 0.63454 0 9353
2.3161 3.4953 -1.2023 0 3102
2.3475 -3.0804 0.089919 0 9261
2.3678 4.3196 0.34446 0 2859
2.4287 -2.3494 0.078452 1 9158
2.4635 2.9162 0.35615 0 3483
2.4704 -3.3179 0.67961 0 9279
2.4918 -3.6473 -0.30888 0 9303
2.5102 3.2291 0 0 3339
2.7978 2.865 -0.85119 0 3752
2.8044 1.4761 -0.073578 0 5092
2.8114 -1.5552 -0.52786 0 8731
2.8242 -2.8951 -0.37733 0 9163
2.8788 3.7491 -0.22043 2 3319
3.0048 0.35298 0.49706 1 7060
3.0261 -1.1519 -0.37865 0 8333
3.0517 2.0507 0.60406 2 4624
3.0743 -2.0674 -0.43324 0 8953
3.0974 1.3007 0.31342 0 5540
3.0981 0.048668 0.50906 1 7599
3.1342 3.7101 0.22649 0 3480
3.2578 -3.1891 0.749 1 9159
3.308 2.4087 0.77097 0 4443
3.3197 -2.4789 0.7806 2 9079
3.3471 3.1796 0.53987 0 3897
3.3516 1.8908 0.54083 0 4956
3.4611 3.0119 -0.42805 0 4060
3.472 2.6059 0.40501 0 4376
3.4772 3.3205 0 0 3878
3.5789 0.96967 -0.34593 0 6254
3.6332 -0.63344 0.17199 0 8132
3.6594 -1.8213 0.19062 1 8624
3.6597 2.2208 0.50061 0 4808
3.6606 0.3557 0.51689 0 7171
3.7207 2.0421 -0.5965 0 5002
3.7788 3.1922 0.23068 0 4122
3.8698 -1.6021 0.78912 0 8408
4.0158 -2.4407 0.8854 0 8842
4.0658 1.6262 -0.40854 1 5631
4.0671 2.4515 0.22146 0 4820
4.1058 -0.91249 0.79245 0 8167
4.1781 -1.9014 0.75418 2 8513
4.1866 -0.86776 -0.29898 0 8159
4.6065 -0.73373 -0.32618 0 8118
4.6844 1.3415 -0.22723 2 6183
4.7765 -0.60511 -0.67666 0 8068
4.8492 0.27366 0.79796 0 7392
4.8671 -0.39075 0.45554 0 7973
0.67698 1.4035 -0.73758 0 2733
-14.806 -1.2147 -1.3859 0 10992
-14.228 0.40241 -1.328 1 11277
-13.122 3.8569 -1.276 0 12485
-12.795 5.5238 -0.64993 0 13147
-12.723 0.58221 -0.29571 0 11356
-12.689 6.1945 -0.6585 1 13405
-12.587 6.8341 -0.66791 1 13700
-12.444 6.7567 -0.32876 0 13702
-12.409 2.2418 -0.58807 1 11960
-12.243 6.9268 -0.65599 1 13837
-12.206 8.6457 -0.34728 0 14700
-12.196 2.7218 -0.58276 0 12141
-12.142 8.5461 -0.69242 0 14673
-12.09 6.248 -0.95162 1 13557
-12.085 6.9802 -0.32402 0 13911
-12.075 5.0906 -0.61108 1 13101
-11.848 5.3198 -1.2117 0 13221
-11.843 1.6475 -0.8361 1 11786
-11.783 2.807 -0.84698 1 12207
-11.719 5.1833 -0.59757 2 13192
-11.68 5.4539 -0.90139 1 13298
-11.662 5.1947 -0.2964 0 13209
-11.628 1.4112 -1.0928 0 11700
-11.604 5.9972 -0.30327 0 13560
-11.514 3.4216 -1.1206 0 12500
-11.492 4.7648 -0.58015 0 13068
-11.487 5.0378 -0.87712 2 13176
-11.469 8.8991 -0.67695 0 15055
-11.448 9.531 -0.69465 1 15332
-11.442 1.5572 -1.3504 2 11770
-11.438 4.9379 -0.28925 0 13148
-11.311 6.4437 1.2145 1 13871
-11.3 9.4083 -1.0282 0 15331
-11.286 6.6481 1.5318 0 13991
-11.248 4.5535 -0.84852 2 13018
-11.228 4.6188 1.9947 0 13061
-11.157 7.1984 -0.92846 1 14324
-11.128 3.3448 -1.084 1 12516
-11.124 9.5449 -0.34032 0 15450
-11.119 9.4833 -0.68152 0 15426
-11.076 4.8576 -0.2808 1 13178
-11.035 7.675 -0.62683 0 14624
-11.015 7.2849 0.92344 1 14439
-10.927 2.6698 -0.78657 0 12238
-10.87 8.0848 -0.63176 0 14886
-10.862 6.9145 1.2013 0 14288
-10.761 8.5474 -0.96097 2 15151
-10.758 7.6199 2.1659 1 14715
-10.723 0.76862 -0.50133 0 11476
-10.72 1.842 2.0493 1 11931
-10.59 5.4731 -0.55593 1 13558
-10.583 8.5579 0.31599 1 15228
-10.576 6.6937 0.58369 1 14258
-10.539 9.6982 -0.66791 0 15715
-10.538 6.9694 1.7756 0 14445
-10.323 7.7256 -0.6013 0 14909
-10.298 -7.099 2.3566 0 10728
-10.214 2.9076 -0.99079 2 12436
-10.128 5.577 0.80848 0 13751
-10.127 9.0454 0.94953 1 15617
-10.116 1.8895 1.9389 2 11989
-10.05 -6.6674 0.56245 1 10754
-10.049 2.6701 -1.4613 2 12342
-10.045 1.9963 -0.95549 0 12028
-9.9211 7.9768 0.59366 1 15207
-9.851 6.7224 2.247 1 14574
-9.8361 1.6319 1.8786 2 11911
-9.8003 6.6503 1.6645 2 14545
-9.7631 4.2148 -0.7436 0 13146
-9.696 8.1273 1.7781 0 15368
-9.6369 0.86177 0.22463 0 11560
-9.5891 5.7982 -0.52257 2 14077
-9.5662 7.6448 1.721 0 15190
-9.562 9.2695 -0.62105 1 15887
-9.5596 3.0858 1.8926 0 12637
-9.5061 9.2153 -0.92581 1 15886
-9.4822 5.693 -1.0318 2 14049
-9.4299 5.8513 1.0354 1 14188
-9.4006 7.6016 1.1279 0 15232
-9.2832 6.1398 -0.51903 0 14429
-9.2126 9.5199 -0.92637 0 16083
-9.2013 -6.4189 -0.26047 1 10716
-9.1848 1.25 0.21521 0 11775
-9.1606 9.1926 2.4451 1 16009
-9.0661 11.096 2.0138 0 16661
-9.055 10.446 -0.32096 0 16449
-9.0519 0.54412 1.0605 2 11427
-8.9511 4.3696 -0.92929 1 13403
-8.9054 0.35301 1.2526 2 11337
-8.8606 -7.6699 1.0933 0 10450
-8.6821 -7.5579 -0.26725 1 10435
-8.679 4.0785 -0.4472 0 13314
-8.6448 10.212 -0.62394 0 16528
-8.6025 -0.55629 1.4163 0 11042
-8.5911 2.9096 -1.4902 2 12702
-8.4318 -1.2617 -0.19794 0 10848
-8.3733 0.6002 0.98171 0 11483
-8.3123 5.2609 -0.91777 2 14247
-8.2942 7.6751 1.8566 2 15746
-8.2885 -0.07812 1.3618 0 11184
-8.1879 5.8706 -1.4159 2 14743
-8.1094 3.0918 -0.60688 0 12908
-8.0666 3.0481 -1.0084 2 12891
-8.0584 -7.6525 0.25801 0 10281
-8.0338 -8.2297 -0.26702 1 10212
-7.9363 -0.49097 0.74184 0 11050
-7.8812 -5.1652 -0.65892 2 10762
-7.8812 1.805 0.37705 0 12170
-7.8326 -6.8618 0.24176 1 10426
-7.7415 -6.316 -0.46593 2 10537
-7.548 -0.79732 0 0 10939
-7.4868 0.88877 1.4205 0 11697
-7.4695 1.2607 0.70672 0 11920
-7.4625 3.2479 -0.7593 0 13159
-7.1732 -8.0171 -0.75225 2 10147
-7.1398 0.51178 0.16619 0 11479
-7.0586 7.6869 1.7146 0 16275
-6.9916 -6.8778 1.8478 1 10245
-6.9054 -4.9969 0.1979 0 10690
-6.8957 -8.3177 -1.2635 2 10089
-6.8247 -5.5681 1.4471 0 10542
-6.7266 5.6683 -0.41021 0 15377
-6.6872 1.1095 -0.31612 0 11901
-6.6697 -0.68572 0.62553 0 10949
-6.6367 7.4357 0.92985 0 16365
-6.6109 -4.9312 1.355 0 10660
-6.5424 -7.2254 1.6014 0 10158
-6.4409 -7.454 0.91907 0 10124
-6.4291 -7.8942 -0.47478 0 10077
-6.2363 2.5032 -0.94443 0 13001
-6.2103 6.232 1.4455 0 16007
-6.1423 0.33373 0.28686 0 11398
-6.139 -6.7799 0.85331 0 10157
-5.9677 4.3581 0.86416 0 14827
-5.9657 3.849 -0.83025 0 14322
-5.6716 -8.1452 -0.23044 0 9996
-5.6531 -5.8909 0.76171 0 10198
-5.5949 2.6698 -0.2891 0 13350
-5.3077 -8.1637 1.5998 0 9960
-5.2159 5.2966 0.69353 0 16039
-5.1226 -0.70626 0.97427 0 10874
-4.9849 2.3617 0.51462 0 13340
-4.7618 -6.2802 1.4849 0 10039
-4.7234 7.1499 1.6145 0 17360
-4.674 -5.7719 1.0438 0 10074
-4.4795 -5.3083 1.3087 0 10106
-4.2898 -3.0667 0.99353 0 10703
-4.228 3.8216 0.66647 0 15663
-4.1794 -5.0091 0.60863 0 10097
-4.1736 -3.5911 -0.7738 1 10454
-4.1414 -5.2064 0.93496 0 10065
-4.0103 -6.5365 0.71545 0 9919
-3.9613 -5.4184 1.1027 1 10020
-3.8511 -8.4936 0.4349 0 9737
-3.7625 -5.5053 -0.15482 0 9989
-3.5141 -4.608 0.81444 0 10043
-3.4355 -8.0002 1.0182 0 9715
-3.3972 -9.4619 -0.23341 0 9627
-3.3364 -8.2953 1.0456 1 9675
-3.2315 7.3199 0.93571 0 18106
-3.1958 -4.9817 0.9724 0 9951
-3.1655 7.7107 0.97474 0 18222
-3.16 6.6311 1.2068 2 18018
-3.024 7.7442 1.5664 0 18316
-2.9776 10.6 1.8089 0 18727
-2.9667 8.8667 0.43602 0 18522
-2.6231 -4.7892 0.12678 0 9848
-2.4894 -6.6867 0.66566 0 9642
-2.4754 -6.2584 -0.15626 0 9657
-2.4741 4.6926 0.87156 0 17895
-2.3899 7.9811 0.97427 0 18655
-2.3511 -7.5672 0.92665 0 9601
-2.2446 6.5784 1.142 0 18499
-2.1583 9.3188 -0.22208 0 18895
-2.1523 5.1986 0.92441 0 18206
-2.148 -9.1082 1.3152 0 9576
-2.0263 -11.755 -0.27695 0 9566
-1.9325 -7.3245 0.70672 0 9582
-1.8643 7.5502 0.90946 0 18845
-1.819 -6.9781 1.1848 0 9580
-1.7152 9.4571 0.22315 0 173
-1.6074 6.6798 0.96558 0 18867
-1.5232 -5.3935 0.13012 0 9588
-1.5095 -11.02 1.8274 0 9557
-1.5088 -5.6587 0.82307 0 9584
-1.4053 4.9498 0.96946 0 18716
-1.3813 -8.1495 0.19191 0 9564
-1.3618 -8.0342 1.3388 0 9565
-1.258 -5.0682 0.85794 0 9578
-1.1762 12.282 2.0272 0 621
-1.1408 5.1758 0 2 9
-1.0834 -5.0491 0 2 9572
-1.0506 5.8923 -0.69992 0 183
-1.0007 6.2336 1.0372 0 284
-0.91423 5.695 -0.40333 0 274
-0.718 6.196 0.72943 0 511
-0.71139 -6.7912 0.63705 0 9531
-0.68972 -9.1516 0.21308 0 9520
-0.63719 -5.9329 1.1242 0 9534
-0.56386 6.4971 -0.76265 0 657
-0.50804 8.4027 0 0 808
-0.50708 -8.3146 0 0 9513
-0.48583 -9.8281 1.6167 0 9507
-0.48386 7.606 -0.53294 0 792
-0.33105 -6.3594 0 0 9509
-0.19897 -5.7554 0.94614 1 9496
-0.17859 -8.8198 0.20481 0 9483
-0.077608 -8.7188 1.4325 0 9476
-0.043956 -7.6318 -0.17719 0 9473
-0.020512 8.3935 0.58693 0 1130
0.0052429 10.014 -0.70022 0 1142
0.02405 7.6556 -0.35702 0 1161
0.038426 -6.88 0.64188 0 9467
0.10588 -9.0535 0.42223 0 9463
0.14141 -12.092 -0.28076 0 9462
0.16065 -6.1762 0.14344 0 9456
0.20551 8.7206 1.4331 0 1284
0.2251 11.022 2.077 0 1267
0.30795 -5.9156 0.27624 0 9446
0.41949 -6.2826 0.4403 0 9442
0.55866 -7.1303 1.3475 0 9439
0.58397 -5.4374 0.89847 0 9435
0.62396 -7.3996 0.51927 0 9438
0.63073 -5.0351 0.23664 0 9433
0.9235 -5.4427 -0.12817 0 9424
0.94193 -8.0914 0 0 9434
1.216 -7.5662 1.259 0 9427
1.5809 -7.6879 1.2895 0 9416
1.7003 -6.4538 0 0 9413
1.7707 -8.1348 0.97358 0 9415
1.9072 -11.868 1.1214 0 9426
1.9321 6.986 -0.50685 0 2318
2.0054 5.197 -0.12933 0 2548
2.286 -5.3258 -0.27028 0 9379
2.3621 4.4594 0.82908 0 2823
2.3816 -4.8721 0.63418 0 9370
2.5295 -7.6756 1.3278 0 9407
2.5494 -4.3228 0.23404 0 9355
2.5712 5.3306 0.55215 0 2737
2.6722 4.4088 -0.3605 1 2978
2.7466 -9.6228 0.46667 1 9412
2.7537 -6.0762 -0.62238 0 9375
2.858 -4.2886 0.48081 0 9315
2.8829 -4.0929 -0.46706 0 9291
2.9016 4.6963 0.64557 0 3008
3.0815 4.013 -0.3538 0 3318
3.1065 -8.208 1.0263 0 9398
3.1374 -9.2477 0.4554 0 9404
3.1499 11.146 1.903 0 2334
3.2001 5.7166 -0.76613 0 2880
3.2149 4.2371 0.87383 0 3305
3.224 4.8032 -0.5397 1 3118
3.2293 -8.2401 1.6675 0 9395
3.3037 -4.9574 -0.69667 1 9314
3.3099 -4.0655 0.73678 0 9226
3.4129 -6.7799 1.4301 0 9366
3.547 -4.7971 0.98018 0 9282
3.5593 -9.4894 1.1852 0 9400
3.5898 -7.6809 1.3929 0 9373
3.6262 -8.249 0.84067 0 9376
3.6808 4.9707 0.57704 0 3265
3.8106 -5.6836 0.96169 1 9312
3.8438 5.2519 -0.1511 0 3241
3.8709 -7.0209 0.37388 0 9363
3.8923 -4.5605 0.98504 0 9203
3.931 4.266 0.81528 0 3631
4.0095 -5.6211 1.3009 1 9289
4.1678 -3.7593 0.92214 0 9151
4.1842 -6.4015 0.35664 0 9327
4.2503 -3.0239 0.98279 0 9028
4.2653 4.3907 -0.28546 0 3735
4.2841 -4.5733 -0.88069 0 9171
4.2901 -12.77 2.2133 0 9405
4.3057 5.9176 0.68276 1 3234
4.339 -5.3296 0.32049 0 9223
4.3543 3.9248 -0.68552 0 3989
4.4414 4.7363 1.0668 0 3666
4.5553 -5.2736 1.1449 0 9198
4.5666 9.4003 1.2221 0 2744
4.5809 -5.8675 0.17283 0 9247
4.5945 7.1047 -1.1891 1 3064
4.6245 -8.2206 1.7771 0 9362
4.7068 -2.5865 -0.50106 1 8726
4.71 -3.1495 -0.9309 0 8944
4.7495 -3.8791 0.14238 0 9130
4.7752 -1.491 0.23329 0 8239
4.9787 -7.2876 1.0321 0 9304
5.02 1.3132 -1.4879 0 6305
5.043 -10.172 1.8654 0 9369
5.082 3.3078 0.56571 0 4678
5.1145 -3.7749 0.74336 0 9067
5.1219 0.11087 0.59911 0 7564
5.1516 1.8051 0.38171 0 5881
5.1618 3.7586 0.89739 0 4440
5.1695 2.1529 0.26115 0 5557
5.1851 5.3097 -0.86788 0 3744
5.2999 4.2218 -0.79238 0 4244
5.3629 4.246 1.1238 0 4268
5.377 -8.1206 1.6001 0 9323
5.3927 8.3391 1.6316 0 3071
5.3966 -0.89147 1.0306 0 8123
5.4206 8.6011 -1.1889 0 3029
5.4285 -1.2403 0.38938 0 8169
5.5933 -3.8802 0.47602 0 8995
5.6068 -6.804 -0.61651 0 9216
5.6259 0.43091 0.92701 0 7287
5.6311 -3.8817 0.79981 0 8986
5.6367 3.9807 1.3001 0 4516
5.6368 5.4491 1.4771 0 3861
5.6425 -8.5216 -1.1952 0 9319
5.6663 4.1745 0.82304 2 4411
5.6817 2.6217 -0.73175 1 5330
5.6922 -0.68884 0.26739 1 8060
5.7023 4.5423 -0.68015 0 4246
5.7854 4.036 0.16378 0 4540
5.7874 -2.6766 0.44588 1 8533
5.7911 5.342 -0.55094 0 3945
5.7967 2.8826 0.75707 1 5200
5.9834 4.9959 0.91155 0 4148
5.9963 -6.2901 0.81076 0 9168
6.0074 -3.5062 -0.64894 0 8796
6.0541 6.3066 1.6471 0 3718
6.0787 -5.984 0.9975 0 9160
6.097 6.3869 -1.0326 0 3693
6.1069 -10.426 0.84489 1 9357
6.1118 1.8861 -0.59674 0 6076
6.1229 -1.3608 -0.14562 0 8166
6.1451 -1.5367 0.14706 0 8185
6.161 -6.351 1.6671 0 9164
6.2167 3.7235 1.3653 0 4839
6.2263 -3.6107 1.1825 0 8792
6.2481 -3.0218 0.32366 0 8589
6.3224 -4.9236 0.9371 0 9105
6.3709 9.2559 0.78574 0 3159
6.3716 0.87961 0.60008 0 6940
6.3717 0.10009 0.4456 0 7594
6.4214 -1.8631 -0.15523 0 8216
6.4756 -0.23519 0.60454 0 7853
6.513 4.1589 -0.36037 0 4706
6.5142 -8.5481 1.0027 0 9262
6.5376 2.9285 -1.0068 0 5393
6.5474 -8.1346 1.9674 0 9233
6.5892 -3.7691 0.70821 0 8777
6.6054 -3.7784 0.35487 0 8776
6.6892 6.4259 1.5239 0 3872
6.7312 -2.6732 0.84697 0 8368
6.7574 -5.2624 0.79906 0 9104
6.7645 1.4798 0.32292 0 6527
6.7763 2.3518 0.66919 0 5897
6.7969 0.0071161 1.1167 1 7680
6.8002 -0.30642 0.95668 0 7885
6.8121 -8.7253 1.8187 0 9250
6.8204 -5.5033 1.6512 0 9124
6.8318 5.7712 0.83436 0 4126
6.8732 -3.5232 0.36018 0 8659
6.9602 3.6635 -0.3668 0 5090
6.9625 2.5067 0.17181 0 5835
6.9722 3.2172 0.71638 0 5338
6.9976 -2.2534 1.2078 0 8250
7.0167 -7.892 0.73844 0 9190
7.0614 -5.2118 0.40928 0 9065
7.0648 -6.7536 0.91183 0 9156
7.0856 2.857 -0.89343 0 5612
7.0903 1.9211 0.85905 0 6261
7.096 -0.77588 -0.33289 0 8034
7.0963 4.2774 0.19237 0 4818
7.1053 -7.585 1.9582 0 9173
7.1433 -2.0052 0.86765 1 8205
7.1491 -0.054902 0.83605 0 7723
7.1702 2.2127 -0.34993 1 6079
7.2199 0.63801 0 0 7218
7.2546 -5.8893 1.3132 0 9128
7.2698 -1.5957 1.046 0 8165
7.276 1.5041 -0.51955 0 6583
7.2877 0.38958 0.34034 0 7402
7.3862 1.2162 1.2298 0 6803
7.3926 6.3228 1.1376 0 4103
7.4203 -8.7467 1.0701 0 9205
7.4374 -6.1834 1.1311 0 9139
7.4734 -4.9353 1.4714 0 8936
7.4985 1.1247 -1.2457 0 6867
7.5827 -6.3784 1.3926 0 9144
7.583 -5.3631 0.43313 0 9017
7.6857 0.61028 0.179 0 7265
7.7293 5.2904 1.5388 0 4585
7.7726 2.5465 -0.38143 0 5989
7.7753 4.5928 -1.056 0 4855
7.8087 -3.3098 0.79125 0 8431
7.8765 7.6142 1.7999 0 3859
7.9075 5.9696 0.69282 0 4362
7.9125 2.5923 1.368 0 5997
7.9295 5.6686 1.6014 0 4484
7.9584 6.0452 1.642 1 4351
7.9783 -0.31486 0.55833 0 7863
7.9925 -1.5594 -0.37975 1 8149
8.0145 2.022 -0.96661 1 6341
8.0166 -0.90062 -0.94338 0 8039
8.0166 1.5365 -0.76153 1 6658
8.0306 6.9883 1.2449 0 4067
8.0434 1.0389 -0.56712 0 6983
8.0989 1.846 1.3647 0 6479
8.245 -4.2537 1.5243 0 8670
8.2947 5.9999 -0.23768 0 4449
8.3403 -1.0329 0 1 8065
8.3533 0.86029 -0.58721 1 7130
8.3605 2.2919 -1.0138 0 6237
8.4234 6.2057 0.97611 0 4410
8.522 -1.3071 0.20017 0 8113
8.5999 -0.96615 1.4218 1 8042
8.6802 -5.9123 1.2282 0 8972
8.7252 -2.6144 0.84978 0 8225
8.8246 4.4538 1.3892 0 5174
8.8477 3.0154 0.87207 0 5930
8.9372 8.8906 2.3751 0 3803
9.1098 0.32927 1.4977 0 7491
9.1141 1.7749 0.64929 0 6648
9.1871 7.4928 0.55285 1 4198
9.4199 0.39152 0 0 7460
9.446 -7.759 2.0083 0 9134
9.4637 4.0737 -0.23921 0 5487
9.8456 1.6794 1.4037 0 6772
9.8909 0.69858 1.8682 0 7322
10.057 4.6769 1.8222 0 5325
10.078 -1.1589 -1.4257 0 8045
10.156 2.0035 1.2105 0 6635
10.25 3.2278 1.7655 0 6057
10.273 3.935 2.0726 0 5723
10.335 -0.28146 -0.72296 0 7809
10.361 4.2855 2.1126 0 5580
10.637 3.2461 -1.0376 0 6092
10.945 0.80761 -0.25481 0 7297
10.985 -3.0155 2.1463 0 8202
11.183 4.473 1.9788 0 5643
11.348 4.2746 -0.56552 0 5746
11.459 1.1801 1.8926 0 7139
11.519 0.38012 1.8936 0 7507
13.127 6.2952 2.3919 0 5272
-5.8156 3.6312 -1.6245 2 14213
-4.9407 12.035 -1.5213 0 18209
-0.78475 -0.50129 -0.19793 2 10765
3.0513 1.7567 -1.7685 0 4905
3.5684 5.6621 -1.5858 0 3035
5.1092 2.2887 -1.6053 0 5404
5.1284 5.2223 -1.7343 0 3764
5.1628 1.2395 -1.6568 0 6408
8.3156 0.058053 -1.9704 0 7644
9.6543 -4.6338 -1.505 0 8572
