VERSION .7
FIELDS x y z intensity index
SIZE 8 8 8 8 8
TYPE F F F F F
COUNT 1 1 1 1 1
WIDTH 563
HEIGHT 1
VIEWPOINT 0 0 0 1 0 0 0
POINTS 563
DATA ascii
-4.7708 -0.39055 -0.11113 0 11055
-4.7519 1.342 0.81125 0 12162
-4.3846 -0.35894 -0.30763 1 11053
-4.3607 1.2315 -0.74446 1 12154
-4.2906 1.9175 0.43845 0 13077
-4.1134 2.3662 0.44272 1 13911
-4.0829 1.52 -0.92604 1 12609
-3.8386 -0.0013404 0.26842 1 11409
-3.531 0.83404 0.68358 0 12028
-3.4799 2.2221 -1.0809 0 14284
-3.2755 -2.4907 0.095536 0 10440
-3.2116 1.2174 0.40165 0 12651
-3.2025 -2.6007 0.5798 0 10339
-3.1765 0.86841 0.076456 0 12133
-2.9749 -0.55082 0.49706 1 10693
-2.9103 -1.9212 0.57293 2 10644
-2.8379 1.7106 0.30914 0 14083
-2.8277 1.0158 0.21011 1 12530
-2.7969 1.6859 -0.3819 1 14067
-2.7853 -2.428 0.69617 0 10233
-2.7665 1.3643 0.50679 1 13381
-2.6825 -1.8491 0.22782 0 10584
-2.5699 -3.7197 0.21084 0 9685
-2.5479 -3.759 0.74608 0 9673
-2.5174 -2.7676 0.5258 2 10036
-2.5056 3.6471 -1.1584 0 16760
-2.5029 3.0019 0.27331 0 16441
-2.438 2.3306 -0.55413 1 15788
-2.233 2.7743 0.67099 0 16554
-2.1303 3.3439 -0.6514 0 16871
-2.1142 4.2684 0.4444 0 17361
-1.9778 4.3701 -1.0196 0 17529
-1.7933 2.7094 0.075435 0 16806
-1.4869 -2.6835 0.43116 0 9604
-1.4366 -3.808 0 0 9431
-1.1416 4.6795 0.11183 0 18347
-1.1058 3.608 0.35206 0 18113
-1.0705 -3.9842 0.19239 0 9362
-0.93454 -4.7068 0.11141 0 9353
-0.9307 -4.5583 0.54405 0 9355
-0.86927 4.8506 -1.0475 0 88
-0.59978 -4.6307 0.76715 0 9341
-0.59384 4.1414 0.29256 0 254
-0.53 4.5322 -0.21279 0 379
-0.46456 4.6708 -0.65968 0 453
-0.44831 -3.7155 0.43766 2 9338
-0.26868 -3.9412 0.27624 0 9311
0.21741 -3.0554 0.071118 1 9228
0.22868 -4.7958 0.56147 0 9239
0.28044 3.1361 0.14683 0 1434
0.32265 -4.5345 0 0 9227
0.58665 -3.2539 -0.15419 0 9204
0.62192 3.0297 -0.65742 0 1922
0.65878 -3.654 0.25963 0 9205
0.72751 -3.1018 0.60026 0 9196
0.84965 3.0126 -1.0577 0 2156
0.90585 3.1446 -0.61656 0 2175
0.92864 3.2927 -0.31918 0 2153
1.0319 -4.6395 -0.22164 0 9199
1.0327 4.1668 0.099667 0 2064
1.034 4.8271 0.23022 0 1951
1.046 -3.7239 0 0 9192
1.0978 4.3739 -0.74089 0 2067
1.1677 3.5431 -1.3578 0 2264
1.1685 4.541 0.21866 0 2089
1.4898 4.1155 0.10162 0 2328
1.7319 3.7362 0.3842 0 2551
1.7975 -2.7722 0.23103 0 9118
1.8535 -2.7181 0.54051 0 9095
2.0798 3.3478 0.55391 1 2877
2.1201 4.3049 -1.376 0 2616
2.1596 -3.2066 0.54333 0 9100
2.2848 -2.4864 0.55478 0 8977
2.7041 -3.8936 0.77883 0 9088
2.7461 3.2936 -0.91148 0 3291
2.7955 1.2324 0.50193 0 5232
3.0717 2.2252 0.088062 0 4233
3.1231 2.6731 0.095443 1 3878
3.1925 -2.4603 -0.47134 1 8898
3.2562 -2.8226 0.40204 0 8951
3.2712 1.3751 0.58299 1 5331
3.3688 -2.4737 0.19491 0 8854
3.4496 -3.561 -0.34669 0 8961
3.5595 -2.0122 0.094932 0 8572
3.7067 2.92 0.77526 0 4065
3.8577 1.8508 0.80615 0 5064
3.962 2.2352 0.53197 0 4748
3.9774 -2.1282 0.31544 0 8508
4.1896 -1.7362 0.53034 0 8193
4.2294 1.8057 0.10677 0 5294
4.3498 1.6977 0.76715 0 5463
4.3582 -1.3624 0.426 0 8037
4.4248 1.3934 -1.3302 0 5811
4.4466 -0.73613 0.21018 0 7906
4.5172 -1.7503 0.68083 0 8134
4.745 0.58597 -0.67193 1 6825
-1.2698 -2.4921 0.13043 0 9560
1.1516 2.357 0.060905 0 2606
-13.818 1.2819 -1.2947 1 11649
-12.731 -1.8618 -0.29872 0 10804
-12.68 2.3409 -0.6013 0 11901
-12.616 3.2487 -0.60754 1 12085
-12.472 5.1455 -0.62916 0 12854
-12.281 1.6103 0.57763 1 11767
-12.199 6.1007 -0.63605 0 13409
-12.131 5.7213 -0.3114 0 13228
-11.798 -8.9716 -0.6912 0 10438
-11.603 3.133 -0.56049 0 12122
-11.472 1.1329 0.53757 1 11672
-11.435 9.4971 2.4422 0 15254
-11.282 7.5811 -0.31557 0 14441
-11.276 1.4444 0.53012 1 11759
-11.214 2.9901 -0.81155 1 12111
-11.202 4.4307 1.9792 2 12763
-11.154 4.4928 -0.84084 2 12790
-11.118 3.9941 2.2259 1 12538
-11.07 10.041 2.4555 1 15596
-10.975 2.4573 -1.0493 2 11993
-10.859 -7.1252 0.90823 1 10649
-10.79 -7.1636 1.2083 0 10633
-10.784 -9.2854 -0.66363 1 10245
-10.783 -7.6716 0.61714 1 10541
-10.775 -7.475 2.1546 1 10580
-10.773 -7.2473 0.60549 1 10613
-10.767 3.1769 1.3127 0 12204
-10.759 -7.6545 1.5441 0 10544
-10.745 -8.9304 -0.97701 0 10296
-10.724 5.2464 -1.1138 2 13340
-10.661 4.0775 1.3348 2 12674
-10.622 1.049 -0.74639 0 11668
-10.602 4.4087 -1.3427 1 12873
-10.544 -6.7405 2.056 1 10668
-10.489 10.438 0.34357 1 15931
-10.409 -1.5538 0.73593 0 10798
-10.393 5.1974 1.6331 1 13423
-10.369 5.1137 -1.0787 2 13363
-10.352 -1.8533 0.49043 1 10703
-10.328 -8.7405 -0.31413 0 10271
-10.318 -8.2277 1.2312 0 10365
-10.282 -1.6874 0.2419 0 10744
-10.263 -7.0744 2.3485 0 10589
-10.247 4.7957 -0.5276 0 13202
-10.236 2.6053 1.4844 0 12077
-10.236 6.5359 -0.84922 1 14272
-10.225 5.3048 2.1704 2 13548
-10.183 -0.86222 0.71459 0 11046
-10.155 -9.4363 -0.32184 0 10138
-10.148 -0.80043 0.23633 0 11069
-10.075 2.6863 0.72909 1 12114
-10.067 -1.5028 0.47469 1 10797
-10.042 6.7481 -0.56422 0 14439
-10.009 4.7911 1.2976 1 13284
-9.9846 -10.603 -0.33813 0 10068
-9.976 -8.8977 -0.62338 0 10191
-9.9222 4.7859 -1.0278 2 13294
-9.8974 4.706 0.76634 1 13256
-9.8712 4.5132 1.2693 1 13146
-9.8599 4.508 -0.75811 1 13134
-9.8352 5.1024 0.5167 1 13537
-9.7948 -6.8788 0.55816 1 10559
-9.7559 3.2529 1.2026 2 12388
-9.7472 6.1476 -1.0751 1 14230
-9.7394 -1.4851 0.68891 0 10788
-9.7289 3.2439 -0.95679 2 12379
-9.7161 2.7146 -0.94118 1 12148
-9.7103 8.7555 2.1481 0 15572
-9.698 -7.5063 2.0148 1 10414
-9.6647 9.9593 2.6147 0 16029
-9.6461 10.475 2.0013 0 16161
-9.6382 10.171 2.3021 1 16083
-9.5065 2.8937 -0.46341 1 12239
-9.5059 3.0154 -0.93041 2 12299
-9.4845 6.335 -0.53189 0 14418
-9.4188 2.6014 -1.1427 2 12138
-9.4048 10.156 1.9454 1 16140
-9.3087 10.845 2.3482 0 16357
-9.2753 5.85 0.51139 1 14240
-9.2676 -1.1921 0 1 10858
-9.2056 3.249 -0.68264 2 12486
-9.1967 5.7245 1.7798 2 14203
-9.1934 -6.5769 0.52714 1 10533
-9.1929 2.3672 -0.6638 1 12084
-9.1718 -1.1522 0.86241 1 10871
-9.0872 -6.2641 0.25625 0 10583
-9.0545 -1.2194 1.284 0 10845
-9.0514 2.3611 -1.0939 0 12091
-9.035 -10.852 1.3174 1 9925
-9.0019 6.049 -0.75839 0 14438
-8.9984 6.0467 2.0426 1 14455
-8.8966 4.9457 1.9178 0 13794
-8.8836 -12.014 -0.34691 0 9757
-8.8465 -6.7685 0.7789 0 10431
-8.7889 -6.2529 -0.50301 0 10538
-8.7669 2.1242 -1.0549 1 12039
-8.6948 6.0656 1.9974 0 14585
-8.6203 5.5767 -0.71793 1 14312
-8.5723 -11.526 -0.33349 1 9767
-8.4941 2.8042 -1.0461 0 12361
-8.4918 -8.0275 0.81713 0 10122
-8.4707 2.1041 -0.81429 2 12055
-8.4448 -6.6549 1.7665 0 10386
-8.4407 10.431 2.2045 0 16532
-8.4259 -12.119 -0.34268 2 9688
-8.4079 -11.109 -0.32347 1 9793
-8.3461 0.62755 -0.78085 1 11600
-8.2663 -6.956 -0.75546 0 10278
-8.2405 -11.777 -0.33372 2 9693
-8.2027 10.137 1.8326 0 16530
-8.1767 2.3338 -0.5946 1 12168
-8.1533 -10.773 0.31367 1 9794
-8.0995 -1.5964 1.3563 1 10680
-8.0591 -11.04 -0.31734 2 9740
-7.8993 9.8775 1.7775 0 16571
-7.7658 2.6649 -0.76599 1 12432
-7.7603 -9.2614 -0.56347 1 9929
-7.6183 3.5121 0.98101 0 13169
-7.5809 -1.4283 1.4534 0 10690
-7.2735 0.93176 1.3816 0 11760
-7.1437 -4.9244 -0.40462 1 10582
-7.0223 -0.94571 0.82862 1 10844
-6.8607 -0.64007 -0.32133 0 11000
-6.7046 -5.9799 1.6927 0 10198
-6.6936 -6.2201 0.21215 0 10139
-6.6653 3.4816 -0.35068 1 13553
-6.6303 -9.3643 0.80234 0 9709
-6.5905 4.2083 0.36466 0 14281
-6.5547 4.1854 0.90946 0 14285
-6.4932 3.1543 -0.84418 0 13316
-6.4544 -6.8135 0.8756 0 10075
-6.4511 4.0688 -1.0719 0 14228
-6.3946 2.3401 -0.47616 2 12563
-6.3927 0.50087 0.74987 0 11615
-6.3533 -5.7005 0.9982 0 10188
-6.3408 -9.0119 0.77053 0 9702
-6.2653 0.7826 0.88737 0 11751
-6.1283 1.4656 1.1872 0 12036
-6.0294 10.306 1.9617 0 16993
-6.0023 -5.8105 1.3725 0 10109
-5.8912 3.2979 0.47211 1 13811
-5.769 10.546 1.975 0 17144
-5.7559 0.55119 1.0894 0 11664
-5.4558 -6.6255 0.40024 0 9911
-5.4534 -5.0961 1.2263 0 10134
-5.3983 1.0132 0.38408 0 11911
-5.3755 0.10791 0.12483 0 11471
-5.1605 2.7335 -0.40835 1 13600
-5.1254 0.20675 0.72092 0 11519
-5.0148 -4.9384 1.3261 0 10103
-5.0021 -6.8095 0.78828 0 9752
-4.9837 1.5503 0.36497 0 12272
-4.9796 -7.1621 1.4331 0 9690
-4.9493 -4.7595 0.96503 0 10114
-4.8073 -5.285 1.3461 0 10038
-4.6389 -4.7024 1.0852 1 10099
-4.5668 11.878 2.3977 0 17814
-4.2775 11.733 2.0518 0 17893
-4.1969 -3.5116 0.51053 0 10292
-4.1585 9.9462 1.2607 0 17665
-4.1098 9.2264 1.903 0 17561
-3.9109 -5.2891 0.45997 1 9760
-3.8559 -5.6505 0.96141 0 9677
-3.7691 -9.2497 1.641 0 9457
-3.6742 -8.0624 1.6693 0 9498
-3.5966 -8.0141 1.0272 0 9488
-3.5696 12.271 2.4077 0 18171
-3.3538 4.3221 0.63976 0 16624
-3.3495 -6.721 0.70059 0 9552
-3.2849 -5.1285 1.0006 0 9639
-3.2735 7.8294 1.3942 0 17666
-3.2643 -6.9972 0.53992 0 9508
-3.2006 -5.9392 0.62944 0 9593
-3.147 -10.825 1.3183 0 9376
-3.1007 5.0263 -0.69063 0 16916
-3.0928 6.3834 0.66176 0 17403
-3.0869 -7.5116 1.5301 0 9461
-3.0851 6.871 0.35124 0 17545
-3.068 -4.7261 0.79189 0 9649
-2.9141 -4.5183 0.12483 0 9643
-2.9103 4.4542 0.87415 0 16845
-2.9054 -6.8947 0.34891 0 9472
-2.8993 5.8534 -1.3884 1 17362
-2.7633 6.5068 1.1614 0 17638
-2.7268 -7.0962 1.249 0 9437
-2.6789 7.2189 0.17877 0 17861
-2.565 -4.7597 0.75989 0 9594
-2.5612 4.494 0.12009 0 17040
-2.4864 -7.0801 0.17422 0 9401
-2.4674 7.3572 1.2749 0 18010
-2.4354 -4.4558 0.83427 1 9600
-2.4124 6.5007 0.6469 0 17864
-2.4123 5.6802 0.57574 0 17637
-2.3349 -4.7872 -0.24838 1 9537
-2.2513 5.5638 0 0 17721
-2.2401 -7.0961 0.8702 0 9382
-2.2113 -7.0048 1.2068 0 9383
-2.1821 6.0377 1.0548 0 17908
-2.1087 5.4393 0.95846 0 17799
-2.0981 -4.6402 0.23748 0 9491
-1.8468 9.5184 -1.1339 0 16
-1.8335 -7.0743 0.16967 0 9360
-1.6885 -12.722 2.1085 0 9343
-1.6793 5.6548 0.96916 1 18149
-1.6109 6.2065 0.59822 0 18287
-1.601 4.9656 0.48675 0 18054
-1.3492 5.5984 -1.085 0 18365
-1.3463 -6.5937 1.1057 0 9356
-1.3189 -5.4811 0.65927 0 9357
-1.2988 -9.1602 0.86315 0 9347
-1.2022 9.5702 0.22394 0 338
-1.1802 6.9337 0.65619 0 134
-1.1721 5.4906 0.39259 0 18489
-1.1602 7.7633 0.36605 0 227
-1.0814 6.4758 0.61253 0 149
-1.0083 -5.005 0.35701 0 9354
-0.96684 13.261 2.5051 0 599
-0.82548 -5.6037 0.39608 0 9350
-0.74723 5.9483 0.84255 0 343
-0.70006 -7.8751 0.92456 0 9320
-0.62798 6.9541 0.81654 0 508
-0.53016 -9.885 -0.46164 0 9301
-0.47785 -7.3102 1.2036 0 9309
-0.44703 -8.3349 0.38925 0 9302
-0.44486 7.6227 1.2545 0 675
-0.43994 -8.6546 1.4237 0 9299
-0.36972 -6.8935 1.1342 0 9303
-0.34699 -5.5617 -0.12938 0 9307
-0.34576 -9.4746 1.5577 0 9289
-0.33142 9.3504 -1.0941 0 786
-0.30069 -10.971 1.8031 0 9281
-0.22502 -10.231 -0.23759 0 9275
-0.16345 10.763 2.0282 0 901
-0.03155 10.043 1.6501 2 965
-0.013466 -9.6452 1.3555 0 9264
0.090949 8.142 0.9522 0 1040
0.093709 8.389 -1.1791 1 1029
0.21783 -6.532 0.60974 0 9247
0.22211 8.6551 1.4224 0 1114
0.28167 -8.4463 1.1877 0 9248
0.31646 -5.8814 0.68877 0 9235
0.35318 7.6596 0.89668 0 1205
0.51521 -10.17 1.6731 0 9237
0.88974 -12.504 2.0596 0 9229
1.1445 -8.2588 -0.19358 0 9214
1.1577 -5.0028 0.6005 0 9197
1.215 -8.9747 1.4879 0 9215
1.3544 -8.6592 0.40872 0 9208
1.4381 -9.1938 0.86817 0 9209
1.481 -7.8228 0.93106 0 9203
1.5768 7.6818 0.73162 0 1921
1.6167 -9.9488 0.23401 0 9207
1.6458 -7.5107 1.2632 1 9200
1.6616 9.0177 0.21289 1 1840
1.8907 -7.2119 0.69557 0 9194
1.9729 10.889 1.0324 0 1829
2.0461 10.277 -1.2254 0 1891
2.0677 -7.1967 0.34919 0 9191
2.1278 -5.1369 0.65021 0 9172
2.1898 -6.9324 0 0 9186
2.4489 -5.4593 -0.4184 0 9167
2.4899 4.5179 0.11977 0 2731
2.4965 7.0264 1.048 0 2319
2.5401 -11.271 1.0779 0 9198
2.6785 4.2831 0.35325 0 2884
2.6905 -5.8604 1.215 0 9166
2.9303 10.875 1.8504 0 2122
2.9803 12.338 2.3914 0 2046
2.9805 9.3224 1.1445 0 2246
3.012 -5.4405 1.0217 0 9154
3.1409 -5.5948 0.5986 0 9152
3.1844 5.1924 -0.42593 0 2858
3.2769 -4.3851 0.51072 0 9064
3.3978 7.2733 0.18638 0 2561
3.4705 -5.2216 1.1813 0 9107
3.4759 -7.0795 -0.55149 0 9163
3.5384 -6.431 -0.6848 0 9155
3.6093 -4.8299 -0.28118 0 9063
3.6292 -4.9424 1.0074 1 9075
3.6294 4.4311 -0.80498 0 3258
3.6789 -7.3819 0.96452 0 9162
3.7717 6.7542 0.17961 0 2745
3.8516 -9.7779 1.7266 0 9175
3.8922 -4.5155 -0.41686 0 8997
3.9193 -4.3882 0.41142 0 8986
3.9199 -5.7831 -0.817 0 9096
4.0167 4.1405 -0.6746 1 3551
4.0846 6.3697 1.4257 0 2923
4.1138 -10.444 -0.7849 0 9174
4.2596 -5.0584 0.9294 0 9005
4.2981 8.0699 1.7227 0 2695
4.3545 4.092 0.27866 0 3710
4.4186 -7.5616 0.81708 0 9147
4.42 4.9401 -0.30913 0 3397
4.6094 -8.4438 0 0 9156
4.7281 8.4048 -0.22389 0 2755
4.7804 2.979 -0.79162 0 4535
4.7924 7.194 -1.4202 0 2971
4.8143 4.5241 -1.4042 0 3714
4.881 3.9146 -0.58373 0 4014
4.9012 -3.5323 0.28174 0 8835
4.904 2.9199 0.93771 0 4637
4.9159 2.2021 -0.50255 0 5190
4.9191 -6.909 -0.59307 1 9080
4.9878 3.6572 -0.43249 0 4204
4.9908 0.83786 -0.11749 0 6595
5.0289 4.4555 0.31332 0 3810
5.0844 -4.8131 0.98395 0 8954
5.0868 0.96023 0.85048 0 6487
5.1067 5.7438 -0.35841 0 3387
5.1332 -6.9523 1.6282 0 9073
5.1732 1.1478 0.49437 0 6310
5.1747 6.9525 0.60604 0 3116
5.2018 -8.3375 1.8515 0 9134
5.2048 -4.4879 0.96586 0 8950
5.2228 3.8295 0.91019 0 4211
5.2576 1.3911 0.12627 0 6074
5.265 -6.1082 1.5194 0 8998
5.2839 10.891 1.1294 0 2599
5.3114 -6.4985 0.39139 0 9017
5.3156 -1.5122 -0.12831 0 8010
5.3356 -7.2265 -1.0505 0 9070
5.3741 4.4918 -0.16261 0 3925
5.388 4.692 -0.4996 2 3842
5.3885 0.47617 0.88874 0 7018
5.4476 -2.0563 -0.81834 0 8112
5.5329 1.5688 0.53654 2 5971
5.5369 1.2803 -1.208 2 6262
5.5545 -1.6306 0.54007 0 8019
5.5604 -2.4374 0.42454 0 8255
5.5656 0.68732 0.26152 0 6834
5.6301 3.5551 -0.77867 0 4513
5.6566 -10.076 1.8984 0 9153
5.6933 -9.2399 2.0448 0 9138
5.7432 1.2386 -0.96527 0 6334
5.7654 -2.7698 -1.0509 1 8368
5.7765 -8.1645 0.2322 0 9082
5.7842 -5.445 0.92897 0 8953
5.7871 -8.81 1.7318 0 9114
5.7972 -4.0261 0.16387 0 8793
5.8077 3.4814 1.1125 0 4623
5.815 1.557 -0.56162 0 6047
5.9474 -4.5553 0.69892 0 8894
5.9517 2.243 0.14767 0 5519
5.976 -1.043 -0.85257 0 7917
6.0069 0.040891 0.70248 0 7388
6.0386 3.3143 0.96809 0 4805
6.0859 0.25295 0.42593 0 7223
6.1091 -1.4712 1.0324 2 7982
6.1708 4.2792 1.2337 0 4327
6.2092 4.6349 -0.72289 0 4166
6.2154 -1.4968 0.29813 0 7980
6.2649 4.9941 0.18601 0 4031
6.2792 -8.9843 1.8008 0 9086
6.3592 -4.583 -0.91666 0 8833
6.3611 2.046 0 0 5776
6.4105 -6.9348 1.7793 0 8974
6.4217 -2.1936 0 0 8064
6.4297 -3.8832 0.70078 0 8649
6.4308 6.7036 1.5262 0 3535
6.4391 -0.4966 -0.14994 0 7706
6.4434 5.3229 -0.77973 0 3948
6.5104 3.8257 0.70449 0 4664
6.5829 -6.528 1.7467 0 8957
6.6533 11.827 2.2295 0 2760
6.6562 -5.0067 0.38841 0 8879
6.6648 2.3131 0.49332 0 5655
6.673 2.0823 0.81747 0 5830
6.6782 1.6638 -0.96725 1 6153
6.6786 -2.6564 1.3542 0 8158
6.6871 -3.7021 1.4401 0 8551
6.766 -1.9452 0.82328 0 8013
6.7767 0.65849 0.31751 0 6970
6.7818 -6.9205 1.8256 0 8960
6.7958 -3.7129 -1.0883 1 8529
6.8144 4.1367 0.93223 0 4590
6.8503 -4.1373 1.3148 0 8651
6.9176 -0.91932 -1.1465 0 7856
6.9266 -2.2092 0.6783 1 8043
6.9735 0.35204 -0.32562 1 7186
6.9964 4.0834 -0.75577 0 4671
7.0098 3.9546 0.5628 0 4747
7.0259 4.1535 0.18949 0 4646
7.0765 -1.1512 1.0076 0 7901
7.1044 -7.9542 1.7522 0 8987
7.1517 -0.32225 0.66789 0 7610
7.1525 5.3042 1.463 0 4186
7.1852 -2.9777 -1.2778 0 8187
7.1909 -2.7632 0.90086 0 8128
7.2171 0.84654 -1.0213 0 6859
7.2492 -0.77344 -0.68015 0 7797
7.2751 -0.60451 0.51048 0 7729
7.2964 4.844 1.2308 0 4424
7.3337 7.9169 -0.75463 0 3457
7.3578 -0.33154 1.2101 0 7614
7.3993 1.4182 1.0588 0 6469
7.4168 3.9636 0.78457 0 4854
7.4278 -5.0973 -1.0535 0 8776
7.4385 5.193 0.63437 0 4313
7.452 4.467 0.81058 0 4620
7.5034 -2.3227 1.2905 0 8035
7.5156 -1.3333 1.0727 0 7923
7.5311 2.3991 -1.2986 0 5783
7.5636 1.724 0.36177 0 6275
7.6303 3.3114 0.77602 0 5264
7.6314 -2.0035 0 0 7995
7.6798 1.704 1.2924 0 6315
7.6902 -0.66063 1.2681 1 7740
7.7398 -3.4476 1.5964 0 8276
7.7425 -4.7094 -1.0598 1 8655
7.817 0.96535 -1.294 0 6824
7.8551 -0.85888 -0.18346 0 7804
7.9449 -5.3508 1.1202 0 8757
7.9666 5.6972 0.68487 0 4262
7.9927 -2.4497 0.77992 0 8031
8.0316 -0.084109 0 0 7464
8.1392 -6.3842 -1.4538 0 8913
8.1493 0.15079 1.3391 0 7336
8.2637 1.3355 -0.97892 0 6618
8.2741 -2.3257 1.4121 0 8008
8.3017 3.0989 1.4558 0 5540
8.4027 4.1803 0.65627 0 4991
8.4556 1.5443 1.0052 0 6519
8.5184 3.7873 1.3102 0 5215
8.5667 -10.414 2.2155 0 9014
8.6801 -4.3259 0.67817 0 8423
8.6897 -6.4606 0.50496 1 8868
8.7715 2.7623 1.7327 0 5816
8.9948 -1.5165 1.4986 0 7913
9.0064 -0.094318 0.8403 0 7466
9.0219 4.9886 -0.23935 0 4784
9.1191 7.2277 1.9117 0 4050
9.123 -0.49089 1.284 0 7640
9.1413 -3.0924 1.8182 0 8062
9.2913 -2.3804 -0.22268 0 7989
9.3927 4.6728 -1.4744 0 4981
9.4234 3.9612 1.926 0 5333
9.4601 -4.0487 1.6906 0 8229
9.5142 -2.4375 1.3803 0 7990
9.586 -4.3021 1.9796 0 8288
9.6645 -1.8017 1.8523 0 7933
9.6878 7.5908 2.3188 0 4079
9.7369 -1.2681 -1.1483 0 7850
9.875 -5.0272 2.0878 0 8451
9.902 -3.9025 1.7486 0 8150
9.9995 -7.9369 1.7942 0 8922
10.232 2.2702 1.2256 0 6312
10.238 0.81295 1.6874 0 7062
10.355 -0.40866 -0.2406 0 7586
10.436 3.4211 1.0246 0 5745
10.85 -4.9034 1.9561 0 8297
11.153 -6.2206 2.0982 0 8559
12.051 0.8533 1.4129 0 7102
12.07 -2.5788 0.57558 1 7960
12.281 -0.1672 2.314 0 7484
-8.1446 -6.9316 -1.5031 2 10261
-3.6421 13.387 -1.6224 1 18232
-2.1399 14.318 -1.693 0 219
0.78912 13.052 -1.8376 0 1271
2.6462 4.5504 -1.5094 1 2798
2.9525 6.6657 -1.9085 0 2503
3.6745 4.8498 -1.8987 0 3145
4.241 1.4719 -1.9987 2 5650
8.5019 -7.1593 -1.5621 0 8945
8.5456 -0.73412 -1.616 0 7741
