VERSION .7
FIELDS x y z intensity index
SIZE 8 8 8 8 8
TYPE F F F F F
COUNT 1 1 1 1 1
WIDTH 635
HEIGHT 1
VIEWPOINT 0 0 0 1 0 0 0
POINTS 635
DATA ascii
-4.9105 -0.026569 0.57425 0 11417
-4.8438 -0.66093 0.1135 2 11031
-4.7271 -0.35543 0.77883 0 11170
-4.7205 0.81453 0.33497 1 12171
-4.676 0.65384 -0.44049 0 12028
-4.3407 -0.4524 0.51037 1 11092
-4.2234 2.0929 0.43975 0 13792
-4.2001 1.5896 0.10426 0 13117
-4.0734 -0.23487 0.76875 0 11223
-4.0665 1.5928 -0.30539 0 13194
-3.8928 0.82318 -0.5592 0 12328
-3.7833 0.00132 0.62157 0 11437
-3.727 1.9014 0 1 13872
-3.6467 1.9808 0.38717 0 14084
-3.5677 2.9368 -0.21549 0 15605
-3.5673 -2.8621 0.8617 0 10878
-3.4805 -0.31247 0.6584 0 11132
-3.4499 0.09094 0.080124 2 11541
-3.3971 3.2532 0.43882 0 16179
-3.3791 1.4142 0.25615 0 13366
-3.3254 1.7076 -0.70432 0 13909
-3.2247 -3.1546 0.21037 0 10779
-3.1586 1.6816 -1.3024 0 14012
-3.1059 3.8671 -0.34683 1 518
-3.0969 0.52546 0.44146 0 12159
-3.073 1.3708 -0.55283 2 13503
-3.0665 2.804 -1.404 0 16003
-3.0054 -3.8027 0.56682 0 10666
-2.8819 -3.6886 0.21829 0 10657
-2.8794 -3.5356 0.85911 0 10684
-2.7294 -2.089 0.32066 0 10902
-2.7277 -2.8444 -0.091497 0 10768
-2.6006 -3.4299 0.70717 0 10639
-2.2275 2.2337 0.36889 0 16337
-2.159 2.3487 -0.22308 0 126
-2.1204 -3.9232 0.84022 0 10452
-1.8437 -3.7953 0.69323 2 10406
-1.7569 -2.8073 0.62396 0 10523
-1.7441 3.2337 -0.17133 0 1442
-1.7204 2.6675 0.29614 0 1023
-1.7136 -3.9846 0.3033 0 10358
-1.6884 3.1969 0.42279 0 1486
-1.5509 4.2084 0.84503 1 1974
-1.5244 -3.9858 -0.199 1 10340
-1.4639 -4.2613 0.63324 0 10330
-1.4594 -3.2128 0.57974 0 10378
-1.4376 3.6739 0.64816 0 1906
-1.3963 4.4994 -0.88762 0 2106
-1.324 -3.1055 0 0 10356
-1.2157 -3.4755 0 2 10334
-1.2102 4.6527 0.78985 0 2170
-1.1806 2.9398 -1.0705 0 1879
-1.1266 -3.7696 0.27512 0 10304
-1.0924 4.2982 -0.10296 0 2176
-1.0343 4.0194 0.68188 0 2173
-1.0279 4.5392 -0.87688 0 2206
-0.97374 4.2998 -0.6196 1 2203
-0.84195 -4.0728 0.096557 0 10296
-0.5825 3.561 -0.33664 0 2261
-0.57446 4.2882 -0.50595 1 2279
-0.33652 3.6207 -0.51104 0 2309
-0.27977 -3.3885 0 0 10260
-0.25117 3.47 -0.080774 0 2320
-0.14343 -4.3236 0 0 10230
-0.028157 4.8886 -0.22798 1 2355
-0.006384 -4.5727 0.75127 0 10207
0.024575 -3.4342 0.16015 0 10203
0.099115 4.9376 0.46074 0 2372
0.22102 4.503 0.42061 0 2398
0.2953 3.5167 -0.081934 2 2436
0.42846 4.2254 0.69777 0 2470
0.46978 -3.0736 0.58582 0 10169
0.61099 -4.5249 0 1 10170
0.63841 -3.9504 0.18661 1 10167
0.71895 4.0443 0.77394 0 2682
0.85281 -3.6474 0.61541 0 10165
0.8978 3.1898 0.62433 0 3183
1.0106 -3.1495 0.54343 1 10156
1.1264 -3.3722 0.24861 0 10154
1.133 -4.6582 0 0 10164
1.2065 -4.5599 0.77494 0 10160
1.2131 3.799 0 0 3388
1.2735 3.4612 0 0 3636
1.2817 -2.9575 0.6073 1 10143
1.2919 3.1175 -1.1403 2 3870
1.3253 3.1697 0.24024 1 3887
1.3592 3.0979 -0.39561 0 3977
1.3867 3.0177 -0.077106 0 4079
1.4499 -3.6323 0.36488 0 10147
1.5566 3.3124 -1.1421 0 4133
1.6246 -2.7188 -0.67322 2 10117
1.6389 -2.7428 0.074182 0 10116
1.7986 -4.3229 0.54753 0 10144
1.8512 3.66 -0.19127 0 4289
1.9247 -3.1164 0.60179 0 10109
1.9478 4.0544 0 0 4178
2.077 2.9917 0 0 5055
2.1785 2.6989 0.4056 0 5422
2.2406 -3.2785 0.55808 0 10079
2.2923 2.9266 -1.353 0 5347
2.3082 2.7941 0.68284 0 5473
2.372 -3.0003 -0.26745 0 10028
2.3771 -3.0612 0.18074 0 10035
2.4275 3.4107 0.78875 0 5119
2.6226 2.6818 0.087087 0 5849
2.6335 1.6927 0.14599 0 6630
2.6433 -3.941 0.44272 0 10084
2.7101 -2.5184 0.51995 0 10004
2.7575 -2.0726 0.24122 0 9983
2.7834 -4.0469 0.6903 0 10076
2.7864 -3.9559 -0.22565 0 10066
2.8884 -0.81515 0.56545 0 9407
2.9095 -1.2081 0.22029 0 9528
2.9691 0.84298 -0.21583 0 7696
2.9695 1.1685 0.074089 0 7261
2.9884 2.3373 0.17692 0 6388
3.0417 -1.6282 -0.48488 0 9748
3.092 0.90651 -0.92394 0 7654
3.1388 1.7463 0.59012 1 6808
3.1549 3.2262 0.42099 0 5853
3.247 0.94151 0.47514 0 7674
3.2605 -1.6735 0.60212 1 9712
3.3103 1.237 0.66581 0 7338
3.3241 1.155 0.081702 1 7426
3.3641 3.5413 -0.8025 1 5785
3.3931 2.933 -0.31363 0 6216
3.5373 -2.4566 0.50363 0 9922
3.6463 0.98932 -1.2766 0 7762
3.6714 1.4938 -1.4426 0 7217
3.743 -2.0884 -1.3375 0 9784
3.8479 1.0802 0.37287 1 7715
3.8764 -0.41838 -0.090522 0 9237
3.8867 1.1883 -0.47529 0 7586
3.9165 -2.771 0.78823 0 9936
3.9267 1.7311 -0.40036 0 7111
3.9336 -1.1599 0.67377 0 9417
4.0371 -1.2791 0.098321 1 9434
4.0575 -0.55725 0.19099 0 9295
4.0743 -0.99848 -0.097392 0 9391
4.0957 -2.673 0.45629 0 9882
4.2712 -0.48588 -0.5027 0 9248
4.4055 -2.3583 0.82098 0 9752
4.4206 -1.3036 -0.107 0 9414
4.4627 0.68607 0.21056 0 8307
4.4681 -1.2745 0.54335 0 9408
4.4717 -0.86597 0.10575 0 9350
4.7911 -1 0.80412 1 9366
0.45852 -2.9381 0.56027 0 10168
0.52494 2.0945 0.25251 0 3009
1.5216 -1.9829 -0.35127 0 10040
2.4828 -0.73213 0.48769 0 9419
2.5074 -1.506 -0.91269 0 9836
-14.805 0.39026 -0.69065 0 11538
-14.723 -2.4876 0.69633 1 10983
-14.692 2.3165 0 0 12105
-14.568 -1.949 1.0278 1 11037
-14.555 -2.2012 0.34176 1 11007
-14.46 -2.2747 0 0 10998
-14.419 2.356 -0.3392 1 12129
-14.388 1.2967 -0.67369 0 11807
-14.32 2.5973 0.3379 1 12206
-14.187 3.6057 -0.33985 1 12508
-14.129 2.438 -0.33289 1 12167
-14.104 4.8728 -0.69586 0 12946
-14.099 2.4733 0 0 12181
-14.085 4.7757 1.7392 0 12920
-14.004 1.9581 0 0 12032
-13.985 -0.6057 0.97882 1 11269
-13.873 0.0048402 -0.64695 0 11432
-13.856 0.12092 -0.96892 0 11466
-13.7 0.36113 -0.31817 1 11539
-13.679 3.226 0.3263 1 12435
-13.675 5.1757 0.68189 1 13118
-13.644 5.0309 -0.33762 1 13065
-13.63 0.04044 0 0 11444
-13.601 -0.073589 1.2689 1 11416
-13.505 2.2067 0 1 12130
-13.498 2.0076 -0.31683 0 12067
-13.33 -0.54007 -0.93292 1 11274
-13.182 0.53634 0.30629 1 11603
-13.145 -0.30061 -1.2267 0 11344
-13.061 -0.67533 0 0 11239
-12.952 6.6509 -0.33804 0 13894
-12.928 3.81 1.5762 0 12714
-12.922 -1.9174 -0.60922 0 11009
-12.918 3.8487 1.2576 1 12728
-12.917 3.927 2.2181 0 12757
-12.896 3.8003 1.8894 1 12715
-12.828 4.0618 0.62748 1 12814
-12.811 2.4022 -0.30262 0 12228
-12.528 4.2892 0.61751 1 12932
-12.499 7.3656 0.33684 1 14368
-12.488 -2.184 -1.4825 0 10978
-12.477 2.5997 -0.89121 0 12318
-12.473 4.0721 2.4722 0 12869
-12.419 0.3968 0.86889 1 11568
-12.391 4.2424 1.8407 0 12938
-12.37 1.5145 0.28935 1 11953
-12.221 5.2406 -0.92985 0 13414
-12.211 2.0369 -0.86568 2 12142
-12.203 3.4025 -0.59077 0 12630
-12.202 0.38987 0.28345 1 11566
-12.178 6.6147 -0.32175 0 14075
-12.172 5.2193 -0.6176 0 13415
-12.138 1.5894 2.0113 0 11998
-12.09 7.8037 -0.3341 0 14699
-12.051 3.7004 -0.58788 0 12765
-12.007 0.55784 1.4057 0 11631
-11.945 4.9185 -1.2052 2 13319
-11.941 2.4534 -1.4256 2 12304
-11.93 8.3998 -0.6804 0 15020
-11.794 1.7206 -0.83345 0 12055
-11.779 1.891 2.2477 0 12123
-11.73 0.71334 1.3743 0 11693
-11.72 -8.4402 -1.0099 1 10927
-11.692 -9.1645 -1.0388 0 10887
-11.675 0.24047 1.6411 0 11519
-11.675 6.1684 0 0 13990
-11.67 8.89 -1.0258 0 15313
-11.631 1.9735 -0.82494 0 12155
-11.621 6.226 -0.9219 1 14029
-11.605 -8.41 -0.33275 0 10925
-11.602 2.5253 1.6687 0 12365
-11.59 1.212 2.1955 0 11885
-11.533 9.1604 -1.0299 2 15468
-11.488 -0.030077 1.3434 0 11426
-11.479 -8.6251 -0.66959 2 10909
-11.465 3.8875 -0.84656 2 12914
-11.452 5.8428 -0.89902 1 13867
-11.429 2.5211 -0.81838 1 12372
-11.406 0.13338 1.0642 1 11483
-11.392 5.163 -1.1669 2 13546
-11.376 4.1182 -0.56422 0 13031
-11.327 0.62537 1.0584 2 11666
-11.322 -0.029643 0.52798 1 11424
-11.149 0.80893 0 0 11735
-11.113 1.784 1.5818 0 12121
-11.096 2.3788 0.79355 0 12351
-11.089 4.3434 -0.55537 0 13195
-11.077 -7.7388 -0.31372 0 10941
-10.988 2.6257 1.054 0 12451
-10.97 2.6885 -1.0538 1 12466
-10.964 9.0249 -1.3248 0 15604
-10.912 1.0795 1.8015 0 11855
-10.887 6.3694 -0.882 1 14337
-10.883 4.298 -1.0917 0 13214
-10.88 -7.3251 -0.30453 0 10957
-10.88 9.2175 0 0 15716
-10.762 0.24987 0.24993 0 11528
-10.757 8.2959 0.31539 1 15363
-10.716 7.6832 0.6149 1 15086
-10.677 5.1385 -0.82857 0 13692
-10.642 6.3538 1.7419 0 14418
-10.619 -7.5103 -0.30197 0 10937
-10.6 8.3685 -1.26 1 15447
-10.593 0.92307 1.4944 1 11802
-10.582 0.82911 0.495 1 11761
-10.567 -7.6578 -0.91255 0 10923
-10.547 7.9364 -0.61555 1 15266
-10.546 8.8337 -0.64155 2 15669
-10.494 6.2261 -0.85326 0 14383
-10.482 1.0666 1.2321 0 11868
-10.481 3.998 -1.0465 0 13132
-10.462 5.3723 2.2159 0 13910
-10.436 -6.8501 -0.87293 1 10963
-10.429 1.0024 -0.24325 2 11833
-10.412 6.9783 0.58453 1 14842
-10.402 -7.2186 -0.88535 1 10942
-10.391 4.5265 0.52854 1 13458
-10.361 6.0231 0.83805 1 14322
-10.324 8.0081 0.60931 1 15386
-10.309 5.523 1.9215 0 14045
-10.196 1.8181 1.7016 0 12198
-10.193 -10.445 -0.68058 0 10775
-10.176 0.35712 1.431 0 11582
-10.172 -0.38008 1.1903 0 11294
-10.081 6.0958 1.0991 0 14465
-10.032 8.2081 0 1 15585
-10.023 7.2741 1.7405 0 15138
-10.012 1.6988 1.9134 2 12161
-9.987 1.6659 1.184 2 12150
-9.9803 -7.9615 -0.89274 0 10879
-9.9466 7.3977 0 0 15222
-9.927 1.8901 0.70663 2 12245
-9.8394 1.2884 1.8697 0 11999
-9.7677 2.1851 0.46677 2 12391
-9.7438 5.9313 1.8741 0 14496
-9.638 6.3744 1.3513 0 14800
-9.5713 -1.5914 1.3636 0 10988
-9.5062 4.1078 1.9511 2 13447
-9.4746 6.7507 -0.8135 0 15061
-9.4663 -6.3299 -0.53105 0 10959
-9.4626 4.3543 1.7113 0 13590
-9.4621 8.3537 -1.476 1 15864
-9.4517 4.6837 0.49192 1 13788
-9.4326 1.3475 1.7952 1 12052
-9.4126 -6.7786 -0.54093 0 10928
-9.3528 -0.10611 0.87263 1 11396
-9.2701 8.3293 -0.58117 1 15935
-9.2619 6.6824 1.8764 1 15117
-9.2497 -6.9499 -0.80904 1 10908
-9.1846 0.93455 0 0 11863
-9.1667 8.7783 0 0 16174
-9.1664 11.08 -0.67062 1 442
-9.0259 -0.23478 1.4834 0 11341
-8.9457 6.4542 -0.25611 0 15103
-8.9392 6.1025 -0.75686 0 14904
-8.9232 7.301 -1.3483 0 15580
-8.8992 0.23459 0.41515 1 11542
-8.8992 6.1094 1.2623 1 14942
-8.8831 7.3566 -0.80652 0 15626
-8.8721 0.56907 0.41459 2 11702
-8.8599 7.5058 1.6319 0 15726
-8.8578 6.3908 -1.019 1 15100
-8.8495 6.1529 0.50264 1 14983
-8.8444 -5.8429 -0.74123 2 10962
-8.8249 5.9145 -1.493 1 14833
-8.7649 -7.9978 1.6676 0 10793
-8.7567 6.3178 1.5175 0 15115
-8.7421 7.2398 -1.059 0 15625
-8.6684 -7.8242 -0.54456 2 10798
-8.6095 -11.22 -0.65953 0 10646
-8.5893 5.8263 0.96831 0 14891
-8.56 6.3665 0.74598 0 15228
-8.5213 5.7802 0.48018 1 14887
-8.5181 -5.6959 -0.71654 0 10958
-8.4302 5.0654 1.1501 1 14441
-8.4122 -8.7202 -0.84726 1 10769
-8.3024 -9.1211 -0.86247 0 10745
-8.1512 -8.5476 -0.82592 1 10765
-8.1448 -11.272 -0.64853 0 10610
-7.8887 8.6301 -1.3673 2 139
-7.86 -8.1052 -0.7895 1 10772
-7.8099 4.7859 -0.6405 0 14503
-7.7833 12.147 -1.0088 2 1033
-7.7464 -1.3799 -0.92015 0 10977
-7.7313 0.90001 -1.0939 1 11923
-7.695 8.4715 2.1563 0 172
-7.6913 4.9301 1.0684 0 14686
-7.6778 8.2594 1.8527 0 99
-7.654 -9.0221 -1.3836 0 10712
-7.6495 -8.163 -0.25973 0 10758
-7.6083 8.7215 -1.0798 0 289
-7.5799 2.1606 -0.73533 2 12659
-7.5661 8.9311 1.092 0 384
-7.5291 1.5921 -0.89994 1 12329
-7.5151 -7.573 1.7528 1 10778
-7.4761 6.2621 0.68194 0 15676
-7.4621 1.0235 0 0 12019
-7.3849 3.8755 1.1721 0 13976
-7.3817 -0.019327 -0.86323 2 11419
-7.3552 -12.217 0.33108 1 10503
-7.2976 8.1734 1.8002 1 224
-7.2149 3.7574 0.75893 0 13950
-7.1704 4.9558 1.225 0 14967
-7.1575 1.3214 1.1958 0 12222
-7.1451 -7.281 1.676 0 10777
-7.1327 2.7709 0 0 13177
-7.1197 4.8604 0.80426 1 14916
-7.1022 -7.4477 -0.23893 0 10766
-7.0483 8.5685 1.5593 0 466
-6.9822 6.0931 1.746 1 15839
-6.9718 13.019 -1.3778 1 1455
-6.9523 7.0574 1.3923 0 16374
-6.8987 5.2231 -0.60507 1 15289
-6.893 -11.605 -1.2592 0 10496
-6.8878 -7.3501 1.4157 0 10759
-6.7578 -11.305 -1.2288 0 10499
-6.7363 0.56803 -0.15695 1 11783
-6.5685 8.0797 0.97146 0 494
-6.5488 -5.542 0.59991 0 10844
-6.5223 -4.6678 1.3177 0 10931
-6.5116 5.2317 0.38953 1 15519
-6.4998 -5.4366 0.19673 0 10851
-6.4882 6.8181 1.1006 0 15
-6.3816 7.533 1.1545 0 386
-6.2905 -0.18011 -0.73593 0 11319
-6.2853 -0.95056 1.0444 0 11008
-6.0608 0.088861 -0.28267 0 11490
-5.9784 -5.1205 1.4831 0 10834
-5.9691 -0.36091 0.55791 0 11212
-5.9503 -1.1308 0.9951 1 10976
-5.7728 3.2236 -0.46235 0 14167
-5.762 -6.8305 1.2559 0 10711
-5.4407 -6.9638 1.242 0 10658
-5.35 4.1499 -1.2757 1 15396
-5.3287 -8.5144 0.93709 0 10522
-5.248 6.3437 1.1571 0 449
-5.1583 6.7737 1.6042 0 660
-5.1524 -6.2171 1.1348 0 10699
-5.1471 -9.3317 1.7509 0 10462
-5.0923 -0.89057 0.48229 0 10980
-5.0505 7.2694 1.0351 0 846
-5.0431 2.3206 0.7802 0 13588
-5.015 2.3077 0.12817 0 13581
-5.0095 12.275 2.1783 0 1865
-4.9956 6.4079 1.5308 0 602
-4.8754 -3.3658 -0.13755 1 10947
-4.8717 2.2418 0.50032 0 13585
-4.8671 1.7455 0.12005 2 13016
-4.7889 -5.2006 1.332 0 10751
-4.7722 9.9203 1.8086 0 1648
-4.7525 -5.4097 0.67179 0 10731
-4.721 -9.7182 0.50385 1 10404
-4.5392 6.8243 1.3466 0 950
-4.5388 5.3919 0.82421 0 401
-4.3694 5.0087 0.93413 0 302
-4.3664 -3.2617 1.0269 0 10912
-4.3223 -4.0632 0.55345 0 10781
-4.2528 6.8537 0 0 1117
-4.1489 -10.217 1.5498 0 10348
-4.0988 5.3186 0.31313 0 626
-4.077 7.1102 1.3466 1 1324
-4.0069 -4.106 0.94257 0 10776
-3.8418 -3.9616 0.12812 0 10773
-3.6696 -7.1281 1.1267 0 10424
-3.6565 -7.4179 0.77156 0 10412
-3.5016 5.166 0.58225 0 900
-3.3582 4.2798 0.25369 0 584
-3.218 -5.5625 0.44937 0 10483
-2.8505 8.5738 1.2698 0 2060
-2.8417 6.3736 1.1465 0 1750
-2.8046 -4.8812 0.52521 1 10481
-2.7821 -6.2252 1.1203 0 10369
-2.7024 -7.5766 1.3216 0 10336
-2.6532 -10.028 0.96775 0 10299
-2.6328 -4.2914 0.11689 0 10510
-2.5107 12.785 2.1406 0 2240
-2.5061 -8.4715 -0.41198 0 10303
-2.3115 7.7736 0 0 2122
-2.1778 5.7573 1.0113 0 1938
-2.1343 6.2948 -0.30997 0 2043
-2.1153 7.0329 0.68517 0 2119
-1.987 7.2041 -0.87392 1 2142
-1.8439 6.3966 0.62108 0 2132
-1.8124 -5.8803 0.57407 0 10305
-1.7601 -5.3788 0.528 1 10308
-1.6276 8.2885 0.39391 0 2238
-1.5876 5.0662 -1.3898 0 2098
-1.5305 8.0459 1.3456 0 2242
-1.5205 -6.6711 0.15885 0 10298
-1.4816 9.2293 0.21702 0 2267
-1.4768 7.5203 -0.17793 0 2237
-1.1847 5.3749 -0.77352 0 2210
-1.1463 -7.8001 -0.18304 0 10293
-1.0572 -7.4844 1.2418 0 10291
-0.98707 -6.988 0.65842 0 10290
-0.87367 -6.7638 1.285 0 10284
-0.72191 -6.8341 0.64114 0 10271
-0.72144 10.805 1.7791 1 2323
-0.65433 -6.0037 0.42231 0 10273
-0.53392 -7.2188 0.67532 0 10255
-0.51249 8.8345 1.4539 0 2326
-0.40146 9.8665 -1.1548 0 2332
-0.39141 -5.5281 0.51704 1 10253
-0.34267 -5.0525 0.832 0 10251
-0.28772 -9.5263 0.88916 0 10227
-0.24789 7.7583 0.72419 0 2341
-0.24581 -5.8649 0 0 10237
-0.23341 6.1886 1.0175 0 2336
-0.17987 -8.31 0.77546 0 10220
-0.15179 7.4964 -0.17408 0 2347
-0.13844 9.4424 1.5515 0 2352
0.035717 6.395 -0.29823 0 2362
0.093365 -7.2285 1.1877 0 10200
0.12306 10.847 1.5245 0 2366
0.14478 -7.7517 0.54215 0 10197
0.23616 6.2907 -0.73616 0 2388
0.33574 -5.1499 0.60352 0 10176
0.44916 -6.6056 0.30875 0 10175
0.55814 -4.9996 -0.1168 0 10172
0.67727 5.0624 -0.35715 1 2532
0.8494 -6.4172 1.0635 0 10171
0.90934 12.094 0 0 2426
1.0844 8.2924 -0.97799 1 2525
1.2091 7.4161 0 0 2619
1.2659 5.3095 0.50923 0 2946
1.3247 -5.1857 0.87934 0 10162
1.4883 11.634 -0.27231 0 2517
1.5242 5.5335 0.80665 0 3146
1.5628 -6.2725 1.2179 0 10163
1.6491 5.5459 -0.40459 0 3258
1.6524 -6.4687 0.93831 0 10161
1.729 -9.1593 1.5314 0 10166
1.9729 6.2383 -1.2327 0 3378
2.0276 4.7377 -0.72426 1 3924
2.0976 -4.6219 0.35492 0 10141
2.1106 -6.0846 0.14952 0 10152
2.2392 -8.3686 1.0131 0 10159
2.3076 5.2221 0.53264 0 4003
2.3109 -6.7304 1.0001 0 10153
2.3971 -8.9586 0.8652 0 10158
2.4999 -8.1059 1.1922 0 10157
2.5545 -5.8946 -0.44923 0 10142
2.616 6.7515 0.67551 0 3743
2.6645 -4.5469 0.6163 0 10120
2.8649 -4.1919 -0.59376 0 10077
2.9139 -7.3596 0.36913 0 10148
2.9786 -7.8537 0.78364 0 10150
2.9982 4.6845 0.51889 0 4857
3.0241 -5.5167 -0.29338 0 10125
3.0592 -4.1343 0.84497 0 10055
3.0925 5.435 0.29161 0 4561
3.1668 -4.9978 0.97207 0 10103
3.2347 -4.4522 1.0369 0 10060
3.2635 7.8056 -0.98937 1 3877
3.3773 -7.326 -0.75261 0 10139
3.4408 -5.0026 -0.56646 0 10073
3.5558 -7.7131 0.59391 0 10140
3.615 -9.1304 0.68668 0 10149
3.6252 -3.8497 0.61839 0 10008
3.7438 -6.9733 1.4912 0 10127
4.0021 3.0367 0.58749 0 6433
4.0399 -8.632 0.88916 0 10138
4.1882 3.1975 0.99279 0 6428
4.3014 -4.1887 0.56014 0 10006
4.3194 -6.28 0.89134 0 10074
4.3604 -3.4399 -0.51815 0 9996
4.3911 -11.67 2.0486 0 10151
4.3927 2.5937 -0.59655 0 6725
4.4913 3.7261 0.40808 0 6290
4.4986 -3.0872 -1.028 1 9911
4.4986 5.8478 0.68833 0 5306
4.5298 -2.738 0.49381 1 9840
4.691 4.1009 -1.3244 1 6199
4.6919 1.8463 -0.4704 0 7255
4.8834 1.8404 0.73344 0 7324
4.9561 3.67 -0.43123 0 6460
4.9751 3.4901 0.42496 0 6528
5.0052 8.7396 -0.70426 0 4574
5.0677 -2.0857 -0.77018 0 9521
5.1059 7.9259 1.7763 0 4878
5.1956 -1.7616 0.77102 0 9446
5.2081 -5.2172 0.86207 0 10007
5.2123 2.5355 0.9523 0 6994
5.2539 0.65255 -0.24689 0 8438
5.2963 4.394 1.1306 0 6293
5.3072 1.2604 0.6379 0 7910
5.3245 0.96091 0.12562 0 8179
5.349 -1.1643 -0.51072 0 9375
5.3877 -3.7417 -0.92188 0 9918
5.3932 0.41877 0.88874 0 8672
5.407 -10.004 2.1426 0 10126
5.4551 5.7085 -0.18332 0 5800
5.5086 -6.3057 -0.97915 0 10010
5.5296 3.3541 1.0625 0 6697
5.54 -1.8979 0.68482 1 9449
5.5562 2.6645 -0.7206 1 7005
5.5793 1.022 0.39664 0 8167
5.5813 -1.3843 -0.13351 0 9392
5.6476 1.5503 0.54639 0 7748
5.6775 -4.4517 0.67309 0 9994
5.7441 0.91697 0.8175 0 8284
5.7473 -1.2868 0.41184 0 9381
5.8491 -1.6507 0.56701 0 9405
5.8528 4.3896 0.16986 0 6446
5.8792 1.7047 0.28546 0 7670
5.8814 3.7555 -0.16201 0 6637
6.0511 5.4791 0.38068 0 6125
6.0567 -4.1038 1.0282 0 9903
6.0605 -7.4894 1.1267 0 10019
6.0813 2.619 -0.61773 0 7145
6.1197 -1.8605 0.59674 0 9424
6.1881 -5.7503 1.5916 0 10005
6.2013 2.9938 0.15988 0 7000
6.2085 3.7187 1.189 0 6714
6.2991 2.4572 1.1108 0 7277
6.3465 -4.5738 0.54703 0 9956
6.3716 2.442 0.79796 0 7299
6.3734 -1.4083 1.2298 0 9379
6.3801 -7.3914 0.68278 0 10011
6.3965 5.6931 0.59879 0 6164
6.411 3.5904 0.85928 0 6799
6.445 -2.2079 1.1193 0 9451
6.4736 1.3997 1.0882 0 8009
6.4838 5.906 1.4409 0 6116
6.5145 0.071635 -0.30382 0 8932
6.5587 1.047 -0.46444 0 8277
6.6239 2.2782 1.3198 0 7442
6.6397 -4.5855 0.3763 0 9915
6.6976 3.4273 1.4175 0 6917
6.7249 2.0765 -1.3261 1 7584
6.8106 -0.95353 1.2957 0 9301
6.8309 2.0884 0.66641 0 7595
6.8773 -0.56059 0.1602 0 9195
6.898 -2.4971 0.51299 0 9464
6.9319 -5.3075 1.021 0 9989
6.9925 2.1378 1.2013 0 7599
7.0183 -2.7476 -1.2383 0 9496
7.0582 -7.8499 1.7344 0 10009
7.17 -2.2263 0.52499 0 9429
7.23 1.1956 0.68368 0 8254
7.2988 0.60777 0.34155 0 8637
7.3398 2.1519 0.7136 0 7655
7.4301 3.3019 0.75856 0 7102
7.5022 0.10214 0.8774 0 8923
7.5196 -0.87669 -1.2438 0 9253
7.5666 0.32375 -0.52959 0 8808
7.6054 -4.9977 0.84903 0 9886
7.7004 -6.4477 1.6501 0 10001
7.7019 -5.3192 -1.0946 0 9912
7.7127 -1.565 0.73422 1 9360
7.7317 6.4923 0 0 6268
7.7893 -4.4664 -0.8377 0 9800
7.9342 1.3377 1.3219 0 8242
7.9537 0.59386 0.18518 1 8683
8.1133 -4.9369 -1.1106 0 9843
8.1688 -1.4125 -0.77342 0 9335
8.2229 3.8852 0.84848 0 7023
8.4588 3.2996 -0.2108 0 7273
8.534 0.75864 1.0019 0 8609
8.5802 3.1756 1.7238 0 7352
8.6936 6.1714 1.2468 0 6512
8.7117 -3.4404 1.5388 0 9503
8.7662 -10.771 2.2817 0 10017
8.8643 0.71164 1.461 1 8657
9.1341 1.0262 0.64274 0 8498
9.2864 3.4998 0 0 7321
9.7032 4.4118 1.7512 0 7075
9.8049 3.5629 1.7139 0 7374
10.041 -2.4311 1.6974 0 9388
10.459 -0.79379 1.9763 0 9186
10.69 -1.6568 2.0382 0 9318
10.877 2.4193 1.8307 0 7978
10.946 -4.1776 2.2074 0 9490
11.361 -3.275 2.2278 0 9411
11.926 1.1315 1.9681 0 8583
14.007 -3.3033 2.3644 0 9386
-8.227 6.8521 -1.5047 2 15644
-7.3157 6.0585 -1.5606 1 15623
-1.2225 2.7639 -1.518 0 1754
-0.76425 -0.48613 -0.19253 2 10965
-0.71034 9.4033 -1.7767 0 2318
3.2686 1.8681 -1.5725 0 6776
5.703 8.6393 -1.9504 2 4940
