VERSION .7
FIELDS x y z intensity index
SIZE 8 8 8 8 8
TYPE F F F F F
COUNT 1 1 1 1 1
WIDTH 530
HEIGHT 1
VIEWPOINT 0 0 0 1 0 0 0
POINTS 530
DATA ascii
-3.8782 0.68592 0.2754 0 11132
-3.6833 1.1613 0.72765 0 11672
-3.6493 -0.16508 0.25545 0 10165
-3.6421 -3.3117 0.45926 0 9261
-3.3806 -2.7016 -0.3026 0 9423
-3.237 0.54402 0.15307 0 11095
-3.2187 1.8307 0.69765 0 12742
-2.7946 -3.902 0.90428 0 8747
-2.6436 -2.4038 0.082955 1 9259
-2.6405 -3.1568 0.19192 1 8913
-2.3693 -4.2238 -0.45183 1 8576
-2.04 -2.7792 -0.24108 0 8766
-1.8286 4.308 0.65773 0 916
-1.6731 3.1493 -0.1663 2 558
-1.6386 -4.7161 0.11591 0 8475
-1.506 -2.6138 0.21094 0 8589
-1.405 3.6563 0.36544 0 1035
-1.3538 2.8383 0.14664 0 769
-1.3316 4.6318 0.7918 0 1281
-1.1689 3.7028 -0.090151 0 1214
-1.1257 3.1147 0.23159 0 1108
-0.96734 4.5943 0.77137 0 1375
-0.92319 3.736 0.63227 0 1338
-0.88604 -4.7714 0.45276 0 8444
-0.86989 -4.5343 0.21531 0 8445
-0.81075 -4.1021 0.195 0 8447
-0.75491 4.3255 0.61709 0 1416
-0.74286 4.6587 0.44012 0 1421
-0.65724 3.7658 -0.62805 0 1414
-0.55555 4.9373 0.46353 0 1448
-0.32683 3.9333 0.36822 0 1467
-0.25206 -3.8768 -0.090197 0 8386
0.049642 3.2319 0.45426 0 1524
0.11522 -4.1773 0.097021 0 8323
0.16885 4.3361 -0.30344 1 1534
0.23468 3.3227 -1.1255 0 1572
0.42936 -4.5337 0 1 8293
0.45179 -4.2415 0.39795 0 8292
0.48425 3.5816 -0.94615 2 1649
0.5512 3.0181 0.57804 0 1731
0.57679 3.6294 -0.42976 0 1683
0.58509 -3.242 -0.15363 0 8283
0.88165 4.6749 -0.44384 0 1738
0.88433 2.9551 -0.28778 0 1912
0.8937 3.6745 -1.0844 0 1819
0.95995 3.5042 0.59693 0 1872
1.1234 -4.7823 0.57448 2 8277
1.2398 -4.3153 0.63101 0 8268
1.3618 -3.7723 0.37417 0 8264
1.4819 3.703 0.65529 1 2047
1.6086 3.7387 -0.28461 0 2094
1.6441 4.2876 0 0 2020
1.7254 -2.4852 0.49706 0 8201
1.782 -2.5178 0.14385 0 8196
1.7892 3.4473 0 0 2252
1.8213 -3.2218 0.085926 0 8244
1.9398 2.4927 -0.1473 0 2800
1.942 -2.4475 -0.21848 1 8154
2.055 3.7165 -1.2178 0 2319
2.1223 2.7272 0.56775 0 2808
2.2095 3.7123 0.70976 0 2404
2.2718 2.0694 -0.35937 0 3372
2.4278 -2.4075 0.079381 0 8120
2.5617 3.9827 0.44179 0 2507
2.566 2.9466 0.73616 0 2987
2.5937 3.8338 -0.10747 0 2579
2.624 -3.135 0.38141 0 8134
2.6277 3.4581 0.40519 0 2760
2.6483 -4.1394 0.80736 0 8224
2.7529 2.6261 0.5347 0 3303
2.7909 -3.9213 0.44904 0 8194
2.8749 -2.8016 0.2807 1 8115
2.953 2.9862 0.68998 0 3210
3.1103 2.1272 -1.0805 0 3962
3.1145 -2.473 0.55892 0 8087
3.1462 2.7186 0 0 3483
3.1674 -2.0941 0.62384 0 7953
3.2154 2.1712 -0.18093 0 3981
3.2248 2.8863 0.81541 0 3415
3.2698 -1.8878 0.35225 0 7841
3.4718 1.9683 -0.092657 0 4360
3.5163 3.3171 -1.0275 1 3321
3.5344 -2.1795 -0.6822 0 7887
3.5493 0.68864 0.59401 0 6018
3.6001 2.8473 0 0 3659
3.6128 2.3052 -1.1219 0 4108
3.7171 2.4631 0.20795 0 4024
3.8037 -0.098275 0.08834 0 7067
3.8202 2.7109 -1.1099 0 3893
3.9457 -0.45723 0.74838 0 7320
4.0199 0.1186 -0.18754 0 6820
4.279 -0.43313 0.099853 1 7288
4.2923 -2.5102 -0.4639 0 7850
4.6441 0.2052 -0.32507 0 6744
4.9121 0.28753 -0.57541 1 6674
0.71536 1.5985 -0.68383 0 2126
1.9868 -0.16055 -0.32748 1 7238
-14.947 -1.1107 1.7527 1 10032
-14.894 -1.1931 1.0448 1 10004
-14.76 -1.7 0.69288 1 9867
-14.738 -0.49662 1.3757 1 10218
-14.681 -1.2199 1.3744 0 9994
-14.552 -1.8074 2.0609 0 9837
-14.432 -1.8334 -0.33776 0 9821
-14.421 -1.7911 0 0 9831
-14.411 -2.4298 2.7536 0 9691
-14.401 -1.4932 2.0347 0 9917
-14.368 -0.52684 2.3621 1 10208
-14.275 -1.9859 1.0078 1 9782
-14.2 -2.3941 0.67155 1 9685
-14.093 -2.2069 2.6877 1 9724
-14.031 -1.4128 1.6491 0 9925
-13.98 0.9506 2.3021 0 10679
-13.977 -0.67379 0.65254 1 10151
-13.975 -2.0238 2.3199 0 9763
-13.954 0.94882 2.6351 0 10680
-13.907 -2.5124 2.3219 0 9651
-13.839 -1.313 0.64825 1 9944
-13.838 -1.5546 2.6236 0 9886
-13.772 -1.916 0.64844 1 9781
-13.594 -1.1726 1.273 1 9981
-13.565 1.3946 0 0 10821
-13.467 -2.0295 2.2376 0 9744
-13.434 -0.53252 0.31214 1 10191
-13.431 0.48077 2.2081 1 10534
-13.385 -0.023361 1.5652 0 10360
-13.368 -0.25435 -0.31042 0 10276
-13.335 0.63587 -0.30996 1 10578
-13.319 1.0973 0 0 10737
-13.217 0.78063 0.3074 1 10633
-13.161 -2.0986 2.1896 0 9714
-12.978 -0.099666 0.30132 1 10332
-12.963 -2.067 1.535 1 9713
-12.93 0.31375 1.2067 2 10476
-12.856 -2.0915 2.14 0 9706
-12.705 -1.8761 0.29817 2 9749
-12.67 -1.1642 2.0904 0 9962
-12.595 -1.8239 0.59347 1 9760
-12.552 -1.9274 1.1847 1 9730
-12.539 6.8875 -1.3347 0 12643
-12.505 -2.1803 2.0855 0 9668
-12.362 -1.3888 1.7483 1 9884
-12.305 8.489 -1.0454 0 13249
-12.154 -0.76254 0 0 10079
-12.011 5.3402 -1.2264 0 12175
-11.891 1.0843 1.3964 0 10776
-11.836 -1.2628 1.392 0 9905
-11.818 0.52633 0 0 10567
-11.767 8.8932 -0.68785 0 13500
-11.73 -1.2163 1.1002 1 9915
-11.638 -2.2075 2.2318 0 9639
-11.543 3.0951 -0.27746 0 11474
-11.524 9.5845 -1.3984 0 13787
-11.508 2.2432 0.27222 0 11199
-11.436 8.643 -1.0024 0 13499
-11.361 9.3884 -0.68729 0 13770
-11.267 0.69902 1.3202 0 10649
-11.238 0.89236 2.1241 1 10731
-11.155 8.0337 -0.64108 0 13370
-11.135 -8.8479 0.66325 1 9434
-11.102 8.7556 -0.98873 0 13622
-11.056 -8.7845 1.3174 0 9435
-11.015 -1.3349 1.0352 0 9844
-10.996 1.7771 0.25861 0 11074
-10.987 -1.3315 1.5554 0 9846
-10.984 -0.053679 1.5437 0 10349
-10.858 0.32606 1.5267 0 10504
-10.82 2.6636 -0.77918 1 11387
-10.742 0.47838 0.50142 1 10569
-10.585 0.5955 1.2398 2 10623
-10.539 -1.9647 1.7613 0 9641
-10.419 -10.397 2.4182 1 9162
-10.311 -7.9491 1.5225 0 9469
-10.276 -9.3962 -0.97366 0 9251
-10.268 4.1776 -0.77513 2 12009
-10.236 -10.453 1.7109 0 9140
-10.196 9.0974 1.598 1 14032
-10.164 -0.42956 0.71138 0 10179
-10.13 -9.9338 2.331 0 9178
-10.088 -6.7123 -0.28131 0 9604
-10.087 -9.66 1.6333 0 9201
-10.076 9.4748 2.6058 2 14200
-10.049 9.8442 2.3112 0 14325
-10.048 0.68325 1.1778 0 10677
-10.012 10.507 2.3845 1 14572
-9.9937 -6.8198 -0.56422 2 9582
-9.9907 10.128 1.9994 0 14443
-9.8539 5.8695 -0.53487 1 12848
-9.8443 -10.586 2.3751 1 9081
-9.8416 -7.1399 -0.28229 0 9526
-9.7867 0.72213 1.8489 1 10707
-9.7776 11.204 1.739 0 14852
-9.7486 2.8544 0.94768 1 11577
-9.7327 1.2571 1.3792 0 10942
-9.7261 2.7907 1.4221 0 11553
-9.6656 -6.7178 -0.27328 2 9566
-9.6632 1.9994 -0.69003 2 11238
-9.6532 9.5627 2.2324 0 14363
-9.6474 -8.6713 1.5169 0 9277
-9.5158 10.222 -0.97659 2 14640
-9.4866 4.3493 1.7146 0 12246
-9.4467 1.6419 -0.89455 0 11116
-9.4169 4.7919 -1.2356 2 12457
-9.3651 5.0047 -0.49518 0 12577
-9.3498 8.3421 -0.58434 0 14025
-9.3162 10.919 2.3582 0 14931
-9.2585 -10.557 1.9735 0 8986
-9.2418 11.1 2.7214 1 15002
-9.1839 10.218 1.6066 1 14764
-9.1647 10.083 2.2386 1 14729
-9.0656 11.905 1.0463 1 15233
-9.0396 10.48 1.2912 0 14889
-9.0084 5.2262 -0.72826 1 12780
-8.9497 5.297 1.4616 0 12841
-8.8867 4.5868 -0.93301 1 12493
-8.8705 -9.2178 0.89456 1 9124
-8.8393 11.671 1.0237 1 15250
-8.8198 5.9334 -0.99171 1 13177
-8.6995 2.9091 1.5071 0 11737
-8.6903 12.125 -0.69568 0 15393
-8.6731 2.4886 1.4824 0 11555
-8.6635 11.581 -1.0113 2 15278
-8.6448 -5.9325 -0.48894 1 9576
-8.6268 1.8384 0.61679 0 11261
-8.6225 -0.19116 0.4022 0 10266
-8.6001 11.924 1.0281 1 15379
-8.5974 -10.279 2.5247 0 8918
-8.56 -0.83479 -0.40108 1 9930
-8.4806 -10.567 -0.94743 0 8862
-8.4636 6.4382 -0.7436 0 13516
-8.4309 -10.76 1.9211 1 8838
-8.423 9.1568 -0.87 0 14680
-8.3428 -8.9247 1.1398 1 9085
-8.3352 -9.0232 2.3144 1 9073
-8.3318 -9.561 2.0836 0 8977
-8.3139 9.4668 -1.1755 1 14825
-8.3053 8.6698 1.6873 0 14549
-8.2633 -10.175 0.9166 1 8876
-8.2548 12.476 1.7495 0 15623
-8.2359 10.683 -0.94325 0 15195
-8.1813 8.8443 2.27 0 14675
-8.1726 10.053 -1.2087 1 15054
-8.1465 -7.4937 -0.77402 0 9244
-8.1271 -9.2672 1.4414 1 8985
-8.0937 12.159 1.7081 0 15606
-8.0927 -10.509 1.5511 1 8820
-8.0845 -7.788 1.8443 0 9196
-8.0703 -7.2972 1.7875 2 9270
-8.0682 10.98 -0.6354 2 15326
-8.0629 10.147 1.8215 0 15123
-8.0628 -7.5029 1.5479 0 9233
-8.0618 11.043 1.5989 0 15350
-8.0386 -12.322 -1.0288 0 8640
-8.0274 0.91887 1.5223 2 10883
-7.9842 -10.626 0.92944 1 8793
-7.9591 10.143 2.4292 1 15159
-7.9125 8.2597 -1.3376 1 14534
-7.7829 11.261 1.6008 0 15497
-7.5466 -10.162 2.3848 0 8784
-7.4139 -0.48594 -0.51955 2 10061
-7.3821 3.7565 1.3608 0 12471
-7.2453 -6.7824 -1.3948 0 9220
-7.1262 8.7657 -0.26228 0 15057
-7.0057 6.0025 -0.64511 0 13878
-6.8374 10.202 1.726 0 15588
-6.8206 -7.4695 1.1829 1 9054
-6.8088 -10.783 1.7923 0 8625
-6.7563 -10.297 0.86121 1 8648
-6.7467 0.0082411 -0.62944 0 10365
-6.7421 -7.2503 1.3915 0 9080
-6.5847 -7.6852 1.6627 0 8952
-6.4661 1.8933 0.47114 0 11576
-6.4576 10.013 2.2448 0 15696
-6.3296 11.12 -1.4963 2 400
-6.3225 5.0148 0.18736 0 13646
-6.201 -7.1561 1.5557 0 8969
-6.1634 -9.2171 0.51708 1 8666
-6.1191 2.3685 0.61216 0 11930
-6.0943 1.6147 0.58819 0 11464
-6.0171 -7.9072 1.162 0 8806
-5.9366 8.858 1.247 0 15586
-5.655 2.5343 1.0181 0 12200
-5.5229 -3.562 1.0797 0 9622
-5.4992 -0.52177 0.90755 1 9948
-5.4957 0.4219 -0.77464 1 10708
-5.4718 -4.0445 1.282 0 9512
-5.3632 -4.6261 0.49527 0 9328
-5.2242 -9.5028 1.2681 0 8570
-5.0443 -8.6914 1.8934 0 8592
-5.0099 8.7408 1.8982 0 396
-4.8679 -7.6587 1.2754 0 8629
-4.8543 1.5306 0.47486 0 11666
-4.6682 7.1039 1.1947 0 15641
-4.6422 -5.3572 -0.49569 0 8962
-4.5892 7.3045 0.80482 0 124
-4.5026 3.5713 0.94419 0 13653
-4.4829 6.9136 0.1913 0 30
-4.4485 6.7235 -1.3245 0 15612
-4.4195 2.8286 0.36692 0 13040
-4.205 -5.839 1.1822 0 8754
-4.1693 4.691 0 0 14794
-4.1315 -5.0262 -0.15106 0 8886
-4.1256 5.1644 0 0 15104
-3.9025 3.1321 0.58517 0 13688
-3.8943 5.3346 -0.30801 0 15343
-3.8794 -4.7196 0.2849 0 8888
-3.8321 -8.3547 1.2918 0 8540
-3.5564 -3.8716 0.36762 0 9061
-3.5414 -5.9056 0.64244 0 8599
-3.477 -6.4146 0.68071 0 8566
-3.3637 10.041 1.9952 0 1177
-3.3153 8.9384 -0.22134 0 1075
-3.1222 10.513 0.25462 0 1263
-2.7781 6.9916 0.70189 0 995
-2.747 -10.614 0 0 8455
-2.7058 -9.0303 0.6592 0 8466
-2.6948 -8.9031 0 0 8467
-2.6816 -4.4717 0.85664 1 8600
-2.6003 -7.4838 0.55401 0 8476
-2.5896 -6.6351 1.1702 0 8489
-2.3012 -9.2158 0.88619 0 8453
-2.298 7.4976 -0.18207 0 1236
-2.2567 -9.0376 1.5304 0 8454
-2.1183 7.4463 1.4586 0 1287
-2.0997 7.8143 1.3294 0 1307
-1.9277 6.1662 -0.90797 0 1217
-1.8744 -4.6417 0.94316 0 8498
-1.8474 -6.1036 0.29739 0 8468
-1.7982 5.3124 -0.13021 0 1168
-1.76 6.8698 -0.82932 0 1322
-1.4212 -5.2966 0 0 8461
-1.3993 -7.6466 0.36251 0 8443
-1.3931 -8.9166 0.84197 0 8433
-1.3804 -6.6772 0.63612 0 8448
-1.3793 -8.3587 -0.19669 0 8438
-1.3562 6.3477 1.0664 0 1373
-1.2977 6.0739 -0.87289 0 1369
-1.2018 -6.5677 -0.31136 0 8442
-1.1974 5.767 0 0 1377
-1.1387 -8.2379 1.1688 1 8427
-1.1306 -6.4917 0.61476 0 8440
-1.1289 -9.3697 1.5505 0 8415
-1.0223 -6.816 0.96864 0 8432
-0.97123 -5.0626 0.84692 0 8446
-0.89702 -11.685 1.9253 0 8394
-0.86273 10.383 1.7117 0 1468
-0.82801 -6.536 0.15296 0 8418
-0.81529 -6.4356 1.0658 0 8419
-0.66217 6.3859 0.59897 0 1453
-0.36266 -8.0799 0 0 8374
-0.35601 7.8703 0.92131 0 1485
-0.33133 -5.3257 0 0 8384
-0.2435 -5.1254 0.84303 2 8377
-0.20604 -5.7283 0 0 8367
-0.15738 5.6342 0.92603 0 1496
-0.11636 8.7715 -1.0258 0 1502
0.058707 -5.7009 0.5319 0 8335
0.12666 -7.8029 -0.18118 0 8329
0.22654 12.244 2.0119 0 1526
0.32266 -7.6033 0.88995 0 8316
0.3378 -7.0582 -0.32953 0 8313
0.36153 -5.7947 0 0 8301
0.49082 -7.867 1.295 1 8302
0.49743 6.5093 -0.15157 0 1579
0.51311 -5.418 1.0254 1 8295
0.55272 -5.8363 0.8239 0 8294
0.62294 -8.7118 0.81485 0 8300
0.6504 -7.0783 -0.16503 0 8296
0.69511 -11.597 1.9088 0 8304
0.78978 -5.4672 0.90755 1 8286
0.92722 5.3402 0.25276 0 1715
1.0289 5.0529 0.11972 2 1762
1.0819 7.8373 0.73812 0 1653
1.2243 -5.0839 0.36566 0 8276
1.2338 5.1351 0.86767 0 1814
1.2473 -6.3871 0.60714 0 8280
1.2825 -5.3257 0 0 8275
1.3982 -5.3298 0.90528 0 8273
1.4125 -4.8115 -0.23385 0 8267
1.4593 4.9806 0 0 1900
1.5339 7.7679 0.18383 0 1752
1.5368 -6.5418 1.104 0 8278
1.5912 8.0584 0 0 1751
1.6727 -9.1227 1.7475 0 8282
1.7055 -8.2284 1.3806 0 8279
1.7352 -10.504 2.0059 0 8285
1.7499 -6.9154 0.83419 0 8274
1.8684 -4.6643 0.82552 0 8262
1.8913 5.8278 0.42844 0 1940
1.937 5.1864 -0.64742 0 2003
1.9816 6.228 -0.60974 0 1931
2.0921 8.9339 -0.64162 0 1804
2.1634 -5.1769 0.92182 0 8260
2.4277 8.2859 1.4186 0 1902
2.4893 -7.8093 0.76469 0 8265
2.6394 -5.2593 0.54899 0 8249
2.6813 5.9914 1.0784 0 2127
2.7047 6.8804 1.2146 0 2036
2.8279 -6.767 0.51285 0 8259
2.967 -10.555 1.0229 0 8270
2.9731 5.805 -0.45607 0 2239
3.0606 -10.093 1.9871 0 8266
3.0782 4.9743 -0.27279 0 2449
3.2367 9.1553 1.3647 0 1979
3.2496 -5.1743 1.0039 0 8228
3.2692 5.3854 0 0 2423
3.3305 9.4207 1.6416 0 1980
3.4299 5.0698 0.42803 0 2580
3.4542 4.8318 0.69458 0 2668
3.462 7.1647 1.3073 0 2193
3.5063 8.9886 1.8178 0 2032
3.7832 4.7476 0.99737 0 2846
3.7965 4.937 0 0 2780
3.808 -3.3833 0.47524 1 8108
3.8952 6.2143 -0.68424 0 2467
4.0379 -4.0989 -0.26832 0 8122
4.0647 4.4296 0.56088 0 3079
4.0718 -5.3838 0.15672 0 8178
4.1128 3.5954 0.8975 0 3464
4.1495 9.7947 1.7477 0 2085
4.1713 4.1192 0.8239 0 3248
4.1721 5.8685 -0.5035 0 2653
4.299 -7.5584 1.4286 0 8243
4.3838 3.9003 -0.41031 1 3419
4.4074 6.358 1.271 0 2619
4.4123 -3.2601 0.25584 0 8046
4.4878 10.43 0.26363 0 2095
4.4895 -2.6087 0.85308 0 7846
4.5558 -7.6912 0.83398 0 8237
4.622 -1.9657 0.70589 0 7579
4.7918 5.8712 1.2451 0 2882
4.8067 -8.8015 -0.93561 0 8248
4.8773 3.9495 1.0311 0 3617
4.904 -4.8057 0.64058 0 8117
4.9044 -2.5716 0.90982 0 7773
4.9808 -1.5752 0.85827 0 7444
4.9838 -3.772 0.14511 0 8063
5.0304 3.77 0.14595 1 3783
5.0429 -0.62813 -0.83492 0 7325
5.0864 -11.161 2.0152 0 8257
5.1171 -1.0961 -0.36594 1 7397
5.1404 -2.582 0.13355 0 7738
5.1915 -5.27 -0.86509 0 8121
5.2174 -0.39047 0 0 7228
5.273 -11.48 -0.8834 0 8255
5.2773 4.5056 0.48523 0 3510
5.2995 3.7149 -0.75684 0 3910
5.3542 -0.80975 -0.63325 0 7354
5.3546 9.6838 1.818 0 2323
5.3915 -5.1342 1.4027 0 8114
5.4669 -3.8465 0.78169 0 8007
5.5425 -2.3185 0.56051 1 7562
5.6305 -5.7156 0.74852 0 8123
5.6823 -1.0614 -0.676 0 7390
5.6881 -0.11319 0.66531 0 7044
5.7455 -4.0922 1.329 0 8021
5.801 -6.3152 1.6156 0 8129
5.946 6.9104 0.85052 0 2961
5.9965 1.38 0.57407 0 5843
6.1027 -5.5162 0.76747 0 8109
6.1189 -4.5509 1.2529 0 8053
6.1274 2.6745 0.46751 0 4886
6.165 6.3043 0.82265 0 3187
6.1829 1.5748 -0.14813 0 5716
6.2122 -0.59161 1.0253 1 7276
6.3211 5.1811 0.38115 0 3590
6.329 -7.3038 1.5878 0 8132
6.3353 -4.7119 0.3682 0 8051
6.3593 0.20541 0.74406 0 6808
6.4454 7.805 1.663 0 2899
6.4727 -0.5606 -0.30298 1 7255
6.5415 2.9221 -0.50099 0 4836
6.717 0.19818 1.104 0 6826
6.7813 1.0316 1.2924 0 6224
6.795 -5.0538 -0.9903 1 8050
6.8229 -0.3146 0.15858 0 7141
6.9119 0.78629 0.32441 0 6405
6.9222 -1.5245 -0.16456 0 7400
7.0312 8.026 2.0104 0 2998
7.0552 4.3302 0.7723 0 4191
7.1215 -6.1082 1.5414 0 8106
7.1306 2.1719 0.17306 0 5478
7.1516 4.0281 1.3485 0 4381
7.2122 1.6386 0.17171 0 5856
7.2315 2.6449 0 0 5199
7.2389 -4.7587 1.0131 0 7946
7.3153 -5.0239 0.41385 0 7983
7.4463 -0.14818 -0.5208 0 7040
7.4634 -1.5076 0.89041 0 7394
7.5977 5.6942 1.5599 0 3788
7.6047 0.37859 0.89041 0 6719
7.6218 -6.729 1.9156 0 8107
7.6385 0.95955 1.4505 0 6355
7.7413 1.2705 -0.54856 0 6154
7.8985 0.13925 -0.737 0 6880
8.0006 -7.6188 1.8151 0 8113
8.0152 -5.1694 0.44478 0 7926
8.1232 -1.1793 0.7658 0 7347
8.2017 -2.3363 1.6068 0 7419
8.3038 -7.0796 0.50888 1 8105
8.3884 7.8169 0.80178 0 3337
8.3963 6.4079 1.99 0 3745
8.4145 -0.53382 0.58958 0 7191
8.5424 2.7657 0.8377 0 5390
8.5427 0.0029844 -0.39838 0 6961
8.6499 8.2516 1.398 0 3302
8.654 1.5743 1.0286 0 6075
8.8531 3.2995 0 0 5168
8.8884 1.2223 0 0 6295
9.0476 -1.527 -0.21303 0 7375
9.1693 1.1242 -0.4308 0 6361
9.1846 -7.1217 1.9095 0 8076
9.3653 -2.3194 1.8178 0 7404
9.3775 2.2461 1.5842 0 5800
9.4656 2.8524 1.8626 0 5497
9.5299 -0.21626 1.3397 0 7057
9.6004 -5.3919 1.2876 0 7821
9.9218 -2.0927 1.666 0 7396
10.312 -1.8648 1.9745 0 7387
10.505 -3.1557 2.0667 0 7430
10.702 -4.5847 1.3615 0 7586
10.936 -0.53105 1.7989 0 7155
11.446 1.1344 1.8897 0 6480
11.712 0.92587 1.9302 0 6587
12.239 1.8269 2.033 0 6240
-9.7501 -11.252 -1.7411 0 8961
-5.5638 7.9047 -1.5881 2 15438
-3.7631 9.5433 -1.6854 1 996
5.1116 2.2833 -1.6053 0 4842
6.3661 1.5248 -1.8771 0 5796
