VERSION .7
FIELDS x y z intensity index
SIZE 8 8 8 8 8
TYPE F F F F F
COUNT 1 1 1 1 1
WIDTH 540
HEIGHT 1
VIEWPOINT 0 0 0 1 0 0 0
POINTS 540
DATA ascii
-4.4754 -0.68803 0 1 9771
-4.1489 0.23341 0.19379 0 10449
-3.9345 0.90907 0.28237 0 11077
-3.9306 -0.50004 0.27707 0 9808
-3.804 -0.29471 -0.35596 2 9960
-3.6528 -2.4759 0.10245 0 9703
-3.6178 0.86857 0.4351 1 11117
-3.6165 -3.1548 -0.44774 0 9378
-3.4453 2.9477 0.85429 1 14264
-3.3604 -2.3208 0.57395 1 9688
-3.2301 3.7407 0.57797 0 15118
-3.0588 1.1115 0.15177 0 11620
-2.5628 1.617 -1.2657 1 13277
-2.5593 -1.7675 0.511 0 9689
-2.3384 -2.3589 0.5457 1 9189
-2.3382 4.2409 0.91243 0 16469
-2.2741 -4.0244 0.54057 0 8667
-2.1093 4.1902 -0.99714 0 16699
-1.9722 4.0962 0.42414 0 16805
-1.9224 2.5062 0.1473 1 15454
-1.9016 -4.338 0.77818 1 8583
-1.9012 2.9821 0.58104 1 16008
-1.5697 -3.3662 0.61022 0 8603
-1.5003 3.0911 0.5645 1 16789
-1.4892 3.5134 -0.44625 0 234
-1.3827 3.7321 0.74987 0 433
-1.3044 2.8437 -0.1459 2 71
-1.2725 3.5617 -1.1802 0 471
-1.2721 2.86 -1.0577 2 142
-1.0744 -3.6956 0.26912 1 8465
-0.94734 3.6162 0.70432 0 694
-0.57034 -3.7185 0 0 8450
-0.48354 4.451 0.84355 0 977
-0.47357 4.3593 -0.4091 0 972
-0.46099 -4.4533 0.20879 0 8430
-0.44712 -4.866 0.80282 0 8422
-0.41977 4.076 -0.19109 0 984
-0.16374 3.9397 -1.1307 0 1063
-0.082964 4.4419 -0.41448 1 1087
-0.050457 3.96 0.27693 1 1092
0.0065917 3.4336 -0.98458 1 1107
0.07931 3.155 0 0 1134
0.14007 -3.9132 0.18261 0 8353
0.15884 -3.5666 0.16649 0 8347
0.27304 3.401 0.64285 0 1277
0.29456 -3.9921 -0.092936 0 8336
0.3966 3.4435 -0.16164 0 1327
0.5785 3.5561 -1.0331 1 1372
0.85969 -2.9041 0.57064 0 8309
1.0387 3.8658 0.092936 0 1587
1.0649 4.8517 0.69809 0 1482
1.0704 -3.364 0.16463 0 8302
1.2573 4.3247 -0.63296 0 1628
1.3404 -3.8621 0.77023 0 8298
1.7465 4.2479 -1.317 0 1938
1.8911 -2.8313 0.39816 1 8240
2.1324 2.7185 0.080217 0 2716
2.2117 3.1261 -0.35726 1 2586
2.2223 -4.049 0.10723 0 8280
2.2347 2.3897 0.30524 0 2977
2.3384 2.6655 -0.41466 2 2860
2.3491 3.2788 -1.1566 1 2605
2.395 -3.0777 0.18186 0 8189
2.3951 -4.3352 0.93317 1 8279
2.4721 2.6132 0.25154 0 2995
2.4946 -3.4034 0.79504 0 8218
2.5973 2.6365 -0.2588 0 3056
2.6434 4.0767 -0.22658 0 2492
2.7825 -2.2807 0.59109 1 8130
2.8042 3.773 -0.99922 0 2656
2.9539 -2.7372 0.75875 0 8140
2.9574 -1.1305 -1.0698 0 7528
3.0341 -3.4866 -0.4312 0 8160
3.0345 3.6447 0.89354 0 2797
3.1986 -1.233 -0.56321 0 7531
3.3155 -2.5913 0.79282 0 8113
3.3221 -1.3368 0.67469 0 7559
3.3404 -2.7214 0.50386 0 8126
3.6092 -0.36915 0 0 7279
3.6677 -2.6335 -0.52802 0 8049
3.6843 0.32946 0.25866 0 6494
3.7198 1.6321 0.28405 0 4727
3.8012 1.6678 0.78208 1 4732
3.8027 3.1281 0.80898 0 3439
3.8258 1.978 0.099992 0 4396
3.8859 2.7841 -0.33427 0 3722
3.9186 2.2017 -0.10436 0 4214
3.9435 1.3233 0.48644 1 5218
3.9436 1.9534 0.41058 0 4484
3.952 -2.6357 0.78045 0 7980
4.0296 -2.4107 0.43808 0 7900
4.0819 1.763 0.73052 2 4763
4.1234 -1.5482 0.82985 0 7520
4.1912 -2.1567 0.43975 0 7773
4.2471 -1.5677 0.52941 0 7506
4.373 0.21311 -0.93061 1 6700
4.4004 1.5341 -1.3363 0 5152
4.5294 -1.6575 0.90873 0 7504
4.5933 -0.25439 0.75581 0 7157
4.6503 0.011364 0.54382 0 6922
4.7178 -1.319 0.45703 0 7418
4.8494 0.67636 0.80444 0 6246
0.48266 2.2943 -0.3852 0 1458
1.7734 1.8002 -0.23576 0 3055
1.8838 1.4346 -1.3304 0 3589
-14.986 -0.29036 -1.3984 0 10189
-14.837 0.059559 -1.3843 1 10270
-12.913 3.7394 -1.2542 0 11299
-12.644 -2.0207 -0.59711 0 9761
-12.575 1.1799 0.29325 1 10571
-12.403 3.0144 0.59524 1 11129
-12.32 2.5065 -1.4702 1 10964
-12.256 3.7821 -1.1966 1 11370
-12.201 -0.30671 -1.4273 1 10165
-12.036 3.4854 0.29092 1 11303
-12.009 -0.094323 -1.1205 0 10235
-12 1.7955 -1.4189 2 10748
-11.957 7.0716 -0.97143 1 13037
-11.921 1.0513 0.27783 0 10552
-11.907 7.1772 -0.64835 0 13106
-11.742 2.8537 -1.4131 1 11122
-11.631 7.1497 -0.95469 0 13177
-11.591 -9.1508 1.0327 1 9526
-11.494 -8.0392 1.6403 0 9675
-11.372 4.7034 -1.4391 1 11897
-11.299 7.8357 -0.96152 0 13610
-11.272 7.5346 -0.31478 0 13488
-10.931 7.5382 -0.30829 2 13590
-10.864 6.2976 -0.87809 0 12962
-10.795 4.3178 1.3597 0 11828
-10.744 -9.16 2.3196 0 9424
-10.734 -8.7299 0.96752 1 9487
-10.725 -9.3564 1.6644 0 9385
-10.684 -8.383 2.2311 0 9534
-10.651 0.62717 -0.24771 2 10459
-10.633 10.344 0.3444 1 14628
-10.554 -8.4764 0.31427 1 9500
-10.525 -7.134 -0.88912 0 9701
-10.507 -8.643 0.63447 2 9470
-10.49 4.8405 1.3511 0 12219
-10.467 -9.6828 2.6866 0 9295
-10.467 1.8495 -1.4939 1 10850
-10.396 4.9855 0.80625 0 12333
-10.388 -9.4453 2.3067 0 9321
-10.364 10.199 0.33758 1 14659
-10.348 0.041539 1.4544 0 10274
-10.33 -8.6497 2.2136 2 9451
-10.268 -10.179 2.0319 0 9207
-10.245 -0.61405 -0.95753 2 10029
-10.24 0.098304 -0.47757 2 10291
-10.233 0.15718 1.1968 0 10312
-10.227 -8.4663 2.5014 2 9465
-10.222 4.6111 1.576 0 12155
-10.207 0.54208 -0.95363 2 10435
-10.144 0.44823 1.4271 0 10410
-10.142 1.0409 -0.47543 2 10598
-10.113 -9.8588 2.661 0 9231
-10.109 3.0558 1.735 0 11350
-10.099 5.1704 0 0 12537
-10.075 5.8403 1.0865 0 12975
-10.065 -8.5811 0.30708 2 9419
-10.048 1.3264 -0.70873 1 10695
-10.02 -9.3728 2.2541 1 9278
-10.006 4.0344 0.5031 1 11844
-9.9972 -9.9103 1.3133 0 9205
-9.9808 3.2372 -0.48931 1 11432
-9.9181 0.095209 1.394 0 10295
-9.8966 0.095003 -0.92335 0 10289
-9.8734 0.9855 -1.3945 0 10585
-9.8704 -6.361 1.9292 0 9728
-9.8491 5.2214 1.04 1 12666
-9.8165 0.6348 1.1504 0 10479
-9.8161 0.92098 0.91982 0 10572
-9.7985 -10.058 0.32602 1 9164
-9.781 -10.893 1.0237 1 9028
-9.7481 11.155 0.34394 1 15081
-9.7296 5.7541 -0.52714 0 13038
-9.7119 2.0643 -0.92632 1 11006
-9.6947 -10.797 1.3538 0 9029
-9.6714 5.6424 0.25996 0 12995
-9.6535 4.9038 1.5217 2 12524
-9.6473 -10.078 1.6315 1 9138
-9.599 -10.144 1.3029 0 9119
-9.5325 4.3986 0.73412 2 12215
-9.4306 5.7972 -0.51624 1 13178
-9.4236 3.6098 0.70566 0 11735
-9.4137 4.4137 1.9589 0 12270
-9.2514 -0.98705 0.43388 1 9857
-9.2272 -6.981 2.18 0 9580
-9.1349 -1.0295 1.5103 2 9841
-9.112 5.8993 2.0452 1 13388
-9.0879 4.8545 -0.23921 2 12682
-9.0846 6.418 0.25824 0 13676
-9.0808 4.951 0.48232 2 12761
-9.0465 -7.984 1.411 2 9366
-8.9346 -7.5717 -0.81894 0 9426
-8.9198 1.0447 -1.0502 0 10641
-8.9144 -0.043565 1.4646 1 10248
-8.8723 0.60019 -1.2498 0 10481
-8.8017 -9.2459 2.4051 0 9132
-8.7245 0.64222 1.6482 0 10508
-8.6514 0.73864 -1.0154 2 10538
-8.5862 -7.1894 -0.78309 0 9444
-8.566 -12.179 -0.69437 0 8761
-8.417 -7.0028 1.7989 2 9459
-8.4154 -11.604 -0.66847 0 8774
-8.3602 11.575 0.3315 1 15633
-8.3446 -6.0917 1.2082 0 9628
-8.2847 -10.754 -0.63307 0 8808
-8.2329 3.7433 -0.63241 2 12163
-8.2236 -10.933 -0.95664 2 8792
-8.1319 -7.7874 1.3167 0 9250
-8.1146 -5.9957 0.70552 0 9611
-8.084 -7.2178 2.0419 1 9349
-8.0787 3.4242 -0.40919 2 11965
-8.0616 -8.77 1.9571 0 9069
-8.0406 11.695 0.3295 1 15798
-8.0141 -1.6392 1.5412 0 9742
-7.9873 -8.3437 1.6233 0 9139
-7.9862 -5.6902 -0.68571 1 9654
-7.9772 12.354 1.0283 1 15958
-7.9634 -0.87214 1.5094 2 9850
-7.9163 3.8799 -1.031 2 12391
-7.8999 -8.5941 0.54437 1 9064
-7.8642 -1.4207 1.1231 0 9744
-7.8221 -7.9404 1.3034 1 9180
-7.6555 4.4075 0.20509 1 12944
-7.4647 -0.55735 -0.69836 1 9972
-7.2733 -6.6881 -1.3887 0 9296
-7.2546 8.8037 0.53198 1 15241
-7.2106 -0.056633 -0.84325 1 10234
-7.1563 2.9117 0 0 11861
-6.9545 2.8508 -1.0563 2 11876
-6.9058 -5.4519 -0.61525 0 9522
-6.8348 8.4432 2.0467 0 15299
-6.7888 9.6882 0 0 15727
-6.6647 -8.2981 -0.2471 0 8850
-6.6425 5.85 1.4542 0 14352
-6.5129 -0.50457 1.0732 0 9969
-6.4992 2.4701 -1.1423 0 11704
-6.4317 5.2793 0.38804 0 14140
-6.2655 0.73381 0.14646 0 10647
-5.9795 1.6201 0.87067 0 11240
-5.913 -4.9827 0.7214 0 9439
-5.8222 7.4979 1.7886 0 15424
-5.7262 3.3865 -0.93496 1 13034
-5.6691 -9.5707 1.0378 0 8701
-5.6588 -6.1561 1.1752 0 9068
-5.4937 8.8433 0.97128 0 16096
-5.3419 -5.4227 0.17673 0 9176
-5.1349 0.078872 -0.72175 1 10306
-5.0884 2.5503 -0.93511 0 12460
-5.0317 -4.9051 0.98757 0 9229
-4.866 6.6583 1.5538 0 15605
-4.7979 -7.6367 0.84142 0 8709
-4.6352 5.368 0.99676 0 15120
-4.6007 -4.5607 0.453 0 9204
-4.5643 3.3259 0.66043 0 13779
-4.4717 5.5241 0.66306 0 15294
-4.3852 8.9041 1.87 0 16755
-4.3776 -8.6586 0.67845 0 8631
-4.3755 -7.7939 1.4685 0 8665
-4.1958 4.2503 0.13866 0 14739
-4.1553 5.6484 0.82002 0 15582
-4.1055 4.9241 0.29897 0 15207
-4.0962 4.6316 1.0158 0 15055
-4.0792 -5.9464 1.0135 0 8751
-4.078 -5.0485 0.60547 0 8861
-3.9449 -5.5757 0.15858 0 8765
-3.8974 -12.22 2.1072 0 8477
-3.8163 11.752 2.0301 0 554
-3.8018 -7.8018 1.0149 0 8619
-3.6799 -11.299 1.3896 0 8482
-3.6487 -3.5569 0.35632 0 9226
-3.4523 -8.4009 0.84736 1 8547
-3.4217 -7.2321 1.3145 0 8608
-3.3862 -5.1569 1.0136 0 8731
-3.2078 -8.008 0.40229 0 8532
-3.1431 -5.7529 0.92133 0 8659
-3.0263 5.9267 0.93524 0 16663
-2.9726 6.5805 0.84442 0 108
-2.9011 5.6401 0.59172 1 16643
-2.8689 -13.44 1.2821 0 8455
-2.845 -5.1708 0.69017 0 8661
-2.6338 -6.6285 0.49876 0 8528
-2.617 9.5401 1.1569 0 661
-2.5272 7.933 -0.1933 0 563
-2.5061 8.4603 1.4497 0 616
-2.4467 12.015 2.0145 0 820
-2.4414 -6.0366 0.76148 0 8538
-2.4099 6.2877 1.1063 0 398
-2.2648 5.5167 0.2781 0 301
-2.2212 12.766 2.4414 0 883
-2.1329 -7.8504 1.3365 0 8461
-2.0756 5.0159 0.50645 0 288
-2.0693 5.585 0 0 429
-2.0244 7.4717 0.54131 0 667
-1.8471 -6.1567 1.0561 1 8469
-1.8311 -8.2257 1.3845 0 8456
-1.778 7.3046 0.35059 0 735
-1.6841 5.454 0.39915 0 589
-1.5506 -7.3707 0 0 8454
-1.4138 -10.416 1.9804 0 8443
-1.3971 -5.5868 0.94614 0 8458
-1.3796 -5.9567 0.71502 0 8457
-1.3756 -5.2436 0.63395 0 8459
-1.2473 -6.6973 0.63557 0 8452
-1.213 9.391 1.5557 0 944
-1.1892 -8.0535 1.3375 0 8448
-1.094 4.9968 -0.59818 0 782
-0.95218 -5.1126 0.97982 0 8453
-0.87423 -5.6998 -0.13388 0 8449
-0.75684 11.13 1.3046 0 1040
-0.72968 -7.4822 1.4164 0 8426
-0.70089 6.4518 -0.75893 1 970
-0.67968 7.2442 0.16893 0 997
-0.6694 -5.1471 0.85275 0 8440
-0.52363 -7.3229 1.2062 0 8413
-0.47794 -5.9532 0.13866 0 8415
-0.47566 5.0697 0 0 996
-0.33392 -7.8687 0.73478 0 8399
-0.31044 -11.114 2.0948 0 8387
-0.23513 -5.5407 0.91112 0 8400
-0.21165 8.7225 1.4335 0 1082
-0.19302 -7.7866 1.4675 0 8384
-0.17796 -10.963 0 0 8376
-0.14374 -5.7987 0.67832 0 8383
-0.10727 5.7435 0.13337 0 1088
-0.028747 -6.3351 0.29543 0 8370
0.077605 -11.401 1.8731 0 8365
0.33959 -6.3734 0.4463 0 8341
0.36131 -6.7809 0.63352 0 8342
0.39382 -7.3911 0.86556 0 8343
0.5113 -6.1926 0.72664 0 8333
0.52421 -5.5872 0.65625 0 8330
0.62999 9.6117 1.1264 0 1240
0.63545 -7.4427 0.52234 0 8331
0.73575 4.9765 -0.82649 0 1352
0.8618 6.0705 0.57203 0 1347
1.0535 6.255 0.2958 0 1381
1.1129 -7.2811 1.0352 0 8324
1.1851 7.7174 0.18128 0 1359
1.1929 5.2168 -0.75209 0 1498
1.263 -11.331 1.8731 0 8328
1.2652 -8.7909 1.0386 0 8326
1.3327 -7.8049 1.3009 0 8321
1.4879 -9.7349 1.618 0 8325
1.546 -7.4787 0.71248 0 8318
1.5476 5.2112 -0.25351 2 1651
1.5891 -6.4501 1.0914 0 8311
1.6008 -5.1874 0.37961 0 8307
1.6193 -6.829 0.3273 0 8312
1.7295 -8.0197 0.9594 0 8316
1.7329 5.0731 0.37487 0 1784
1.7716 -9.2433 1.3227 0 8319
1.8096 -8.2716 0.78995 0 8315
1.8231 6.4126 -0.3109 0 1619
1.8532 -5.8243 0 0 8301
2.0064 4.8391 -0.12162 0 1944
2.1151 14.035 2.3319 0 1357
2.1866 5.0265 -1.1651 0 1991
2.1997 7.8203 -0.18861 0 1612
2.2215 9.584 1.6163 0 1513
2.3171 6.0301 0.60268 0 1878
2.3582 -4.8847 0.25295 0 8284
2.4228 7.519 0.737 0 1722
2.5226 -12.202 0.58108 1 8317
2.5368 -8.1346 0.79497 0 8305
2.619 7.3227 -0.54382 0 1817
2.6443 6.0786 -0.77519 1 1986
2.6617 -6.6582 -0.50141 0 8293
2.7116 5.9972 1.0813 0 2029
2.753 8.2951 -0.81541 0 1751
2.8038 -7.9975 0.39521 0 8296
2.8443 4.3582 -1.4923 0 2504
2.9013 6.727 0 0 1980
2.9387 -6.4099 1.1585 0 8291
3.0477 -8.7815 0.64999 0 8297
3.0526 -9.892 1.4549 0 8308
3.0578 8.6253 1.5035 0 1813
3.0819 6.7098 -0.86346 0 2043
3.0968 -4.0992 0.35925 0 8206
3.0975 -6.5086 0.16735 0 8288
3.1014 4.783 -0.13235 1 2493
3.1691 5.0756 -0.9831 0 2438
3.2324 5.4942 1.0473 0 2371
3.2534 3.8869 -1.0774 0 2806
3.3225 5.9182 1.1151 1 2315
3.3804 5.4862 0 0 2425
3.397 7.8764 0.19915 0 1981
3.4332 8.6317 1.5262 0 1912
3.4715 -12.243 2.3977 0 8310
3.5087 -8.081 1.4474 0 8292
3.5119 -7.4362 1.3511 0 8289
3.5336 4.7824 0.97694 0 2648
3.6289 4.7105 -0.55475 0 2695
3.6558 -3.8029 0.49214 0 8151
3.704 -5.1169 1.1902 0 8222
3.7982 -6.2151 1.3723 0 8262
3.817 5.8109 -0.32422 0 2511
3.881 -11.612 2.0116 0 8300
4.0414 -5.5829 0.16002 1 8220
4.0729 5.2565 -0.465 0 2703
4.088 4.5786 0 1 2889
4.1815 -7.0285 1.3437 0 8269
4.3374 6.7277 -1.3151 0 2479
4.3596 6.0116 0 0 2621
4.3821 3.6692 -1.4962 1 3400
4.4635 -3.3659 -0.39092 1 8088
4.4901 -6.3182 0.90644 0 8226
4.5376 8.7203 1.615 0 2193
4.5402 3.3953 0.52893 1 3640
4.5848 -3.3531 1.0702 0 8070
4.6351 -4.6562 0.45942 0 8147
4.6715 5.8855 1.056 0 2737
4.6964 5.1109 1.1404 0 2949
4.7047 7.7379 0.63325 0 2410
4.7984 1.6728 0.35534 0 5151
4.817 2.9115 0.92474 0 4070
4.8248 1.5575 -0.47301 0 5271
4.833 4.0712 1.0382 0 3390
4.8474 -6.7807 0.97474 0 8224
4.8609 4.1663 0 0 3350
4.864 -5.8901 0.71267 0 8166
4.8745 -2.9708 0.13253 0 7913
4.88 8.1314 1.109 0 2395
4.9863 1.7218 0.9939 0 5172
5.0323 1.0467 0 0 5877
5.0331 -5.0016 0.82978 0 8146
5.0815 0.40974 0 1 6538
5.0955 -2.2399 -0.65091 0 7620
5.1153 -1.0696 0.85859 0 7396
5.1384 5.0636 0.16749 0 3101
5.1582 -1.1086 0 0 7398
5.1661 0.11724 0.36134 0 6820
5.1719 6.0002 -0.73905 0 2837
5.1733 -7.6466 1.5168 0 8238
5.1736 4.9839 1.1802 0 3143
5.2664 3.6141 -0.89767 0 3812
5.2895 3.1145 -0.14251 0 4120
5.2922 2.322 -0.81221 0 4715
5.3057 -4.4536 1.1381 0 8136
5.3752 -4.4848 0.32646 0 8134
5.4108 0.97844 0.3845 0 6024
5.4332 2.1797 0.68459 0 4904
5.4437 -2.7821 0.57036 1 7765
5.4471 3.834 -0.62145 0 3763
5.5151 3.6255 0 0 3903
5.5396 4.9774 0.8709 0 3255
5.5602 1.5483 -0.26916 0 5504
5.6699 -0.05245 0.3965 0 6977
5.7475 -4.2034 1.1699 0 8068
5.8635 -1.2421 0.98472 1 7397
5.8879 -6.0907 -0.59237 0 8149
5.9538 8.4652 1.7003 0 2583
5.9625 -2.221 -1.0454 0 7509
6.0037 -1.1474 0.14191 0 7390
6.0136 -4.5349 0.35124 0 8089
6.0459 -2.373 1.0671 0 7545
6.0855 7.2268 1.7801 0 2814
6.1075 1.8731 -0.14832 0 5355
6.1345 -4.9978 0.55331 0 8125
6.1418 -8.1861 1.9282 0 8212
6.1569 3.0056 0.80121 0 4515
6.283 8.9864 1.8015 0 2575
6.2836 -1.5993 1.2216 0 7405
6.3016 2.8519 -0.80887 0 4650
6.3098 -3.0408 -0.81909 0 7708
6.3155 -0.46046 0.14702 0 7207
6.3193 8.6059 1.7541 0 2640
6.3201 9.6214 1.3462 0 2515
6.3413 -5.9092 1.4241 0 8141
6.5246 5.8254 1.437 0 3270
6.5371 -1.6639 0.47169 0 7403
6.5877 8.7581 1.8005 0 2671
6.6071 -1.9295 0.80492 0 7429
6.6981 3.0313 0.68591 0 4658
6.7141 -0.86248 1.1121 0 7324
6.967 5.0544 1.0066 0 3700
7.026 3.1326 1.4494 0 4695
7.1183 7.9726 2.0137 0 2895
7.2146 0.059182 0.84372 0 6895
7.2499 4.8827 1.4361 0 3859
7.3061 8.1313 1.796 0 2906
7.3914 5.5275 1.7389 0 3643
7.4146 9.9149 -0.28744 0 2661
7.4955 -0.024856 1.2315 0 6955
7.5191 -5.7717 1.5573 0 8102
7.6946 -0.60693 0.7201 1 7225
7.7244 -3.6414 0.19827 0 7685
7.7844 1.1995 0.92108 0 6167
7.8525 -4.0408 -1.2411 0 7768
7.8871 1.9023 1.333 0 5713
7.9128 -10.413 2.1487 0 8204
7.9281 10.107 2.1105 0 2720
7.9412 2.8684 -0.59042 0 5088
7.9631 2.1919 1.3569 0 5529
7.9915 -1.0039 1.5175 0 7320
8.0633 3.6221 1.4523 0 4677
8.0973 -4.5608 1.5269 0 7844
8.1986 0.28057 1.1529 0 6763
8.2349 6.614 0.9854 0 3485
8.2361 -8.0851 1.8962 0 8145
8.2711 4.9013 0.89696 0 4109
8.302 -3.2301 0.62293 0 7539
8.3623 -3.7634 0.85553 0 7644
8.3676 4.8935 1.8263 0 4141
8.4045 -2.1142 0.80853 0 7401
8.4174 -3.7318 -1.294 1 7628
8.4227 6.7286 2.0311 0 3500
8.4293 -6.5478 0.9958 0 8108
8.4379 -3.0578 1.0495 0 7497
8.5546 6.0212 -0.24288 0 3765
8.6584 5.7265 1.7055 0 3895
8.8065 -8.546 2.0161 0 8144
8.868 2.6926 1.5226 0 5378
8.8771 -3.3067 1.5564 0 7513
9.0689 2.1071 1.3085 0 5760
9.2051 3.6632 1.6277 0 4923
9.4009 3.8671 1.9152 0 4859
9.5562 0.85455 0.89511 0 6496
9.6218 -5.4194 0.25639 0 7842
9.67 6.1581 1.8835 0 3969
9.9004 1.5539 1.6465 0 6153
9.9577 1.9807 1.1873 0 5927
10.071 -0.82444 1.6601 0 7234
10.267 5.8064 0.55006 1 4203
10.59 2.1064 1.7739 0 5930
10.697 -4.5959 0.27031 0 7600
10.708 7.3983 2.1384 0 3809
10.759 -3.1422 2.1118 0 7432
11.159 -2.9107 1.0759 0 7407
11.16 -4.9059 0.5685 1 7625
13.382 -0.47433 2.2 0 7088
-0.76272 -0.48853 -0.19253 2 9729
-0.52422 11.075 -1.8216 0 1057
4.7128 -3.4467 -1.6742 0 8067
4.7659 0.96183 -1.6428 0 5910
4.7795 2.7952 -1.5877 0 4137
8.3508 -3.9367 -1.5168 0 7678
