VERSION .7
FIELDS x y z intensity index
SIZE 8 8 8 8 8
TYPE F F F F F
COUNT 1 1 1 1 1
WIDTH 474
HEIGHT 1
VIEWPOINT 0 0 0 1 0 0 0
POINTS 474
DATA ascii
-4.4291 -0.034013 0.20655 0 9418
-4.2841 0.5412 0.70944 0 9940
-4.1457 1.8293 -1.2994 1 11267
-3.9771 -0.44821 -0.27986 1 8986
-3.8982 0.98421 0.56504 0 10400
-3.8332 0.42726 0.089547 0 9880
-3.5668 2.8647 0.3199 0 12972
-3.4197 1.6289 0.17664 0 11438
-3.3924 -0.24317 0.078963 2 9142
-3.2605 -2.7349 0.29758 0 8437
-3.1465 -3.0343 0.20385 0 8286
-3.0916 3.8042 0.34278 0 14414
-3.084 3.6416 0.78401 0 14313
-3.05 0.73281 0.59101 0 10347
-2.9465 -2.6521 0.7469 1 8351
-2.9445 -3.5253 0.8654 0 8126
-2.7177 3.5302 0.31153 1 14549
-2.5768 -3.6045 -0.10287 0 8030
-2.462 -3.2027 0.18838 0 8086
-2.3901 2.276 0.15391 0 13637
-1.9627 3.8587 0.40389 1 15517
-1.8081 3.6859 -0.19146 0 15582
-1.7131 3.5692 0.46298 0 15630
-1.7127 -3.4456 0.44997 0 7694
-1.6776 4.1376 -0.10366 0 43
-1.5773 2.6491 -0.071582 1 15204
-1.575 -4.7181 0 0 7605
-1.333 4.4318 -1.4441 1 326
-1.1252 -3.9345 0.38179 0 7562
-1.0463 3.5165 0.60276 0 334
-0.96665 -3.837 0.091868 0 7550
-0.85544 -3.093 0.074507 2 7554
-0.67539 3.6124 0.25698 0 589
-0.64325 4.1744 0.79578 0 631
-0.63861 4.7735 0 1 643
-0.5484 -3.2877 -0.077385 0 7537
-0.41291 4.7675 -0.55961 1 683
-0.31342 4.1781 0.68836 0 691
-0.17688 -4.6466 0 0 7477
0.048989 -3.4227 0.079474 0 7448
0.2301 -4.4501 0 1 7425
0.24683 -4.0588 0.37937 0 7419
0.42896 4.5806 -1.3192 0 847
0.48792 3.9623 -1.349 0 889
0.60392 -3.4426 0.57423 0 7397
0.64126 4.4666 -0.42099 0 917
0.71887 3.2003 0.53889 1 1031
0.72007 3.2056 -1.1102 0 1029
1.1678 -2.9799 -0.14925 0 7371
1.1684 4.4664 0.32283 0 1081
1.1938 -3.6895 0.18084 0 7378
1.2068 2.8936 -0.072789 0 1341
1.3847 4.6273 0 0 1142
1.4775 -2.6243 0.49479 0 7344
1.4929 4.2631 0.31586 0 1232
1.6328 4.188 -0.31432 0 1301
1.7582 -4.2321 0.53592 0 7364
1.8079 -4.4567 0.90613 0 7368
1.8397 -3.0776 0.4193 0 7335
1.8724 3.2748 -0.44114 1 1646
1.9426 2.8532 0.5671 0 1912
1.9662 -3.8772 0.20273 0 7351
2.0093 2.8622 0.081191 0 1944
2.1211 4.524 0.23301 0 1431
2.408 -3.6574 0.82504 2 7313
2.4469 -3.6018 -0.5092 0 7304
2.5143 -3.8687 0.43046 0 7315
2.5839 2.1651 -0.078267 0 2899
2.6505 3.5521 0.83504 0 2051
2.782 2.1086 -0.32568 0 3089
2.9029 -2.1006 0.25057 0 7121
2.9654 0.7081 -0.28444 0 5000
2.9802 -3.8601 0.11322 1 7266
3.0642 1.1695 0.46094 0 4464
3.0947 3.3129 0.63713 0 2458
3.1059 -3.1091 0.828 0 7210
3.1466 1.026 -0.30877 0 4678
3.2303 -0.78387 0 0 6444
3.2817 -1.3106 -1.194 0 6597
3.3928 3.4864 0.79925 0 2519
3.4561 -2.1647 0.28516 0 7003
3.522 -1.9059 -0.37361 1 6887
3.5604 -2.3016 -0.39553 0 7024
3.6465 0.87073 -0.08704 1 5003
3.655 -2.0612 0.7906 0 6922
3.8316 -1.647 0.78579 0 6649
4.0284 1.8121 -0.30888 0 4168
4.0527 -1.0074 0.68609 0 6450
4.1723 -1.3524 0 0 6506
4.2503 2.0155 0 0 4060
4.317 -2.2713 0.68557 0 6867
4.4266 -1.0472 -0.10561 0 6442
4.4496 -2.1472 -0.46093 0 6773
4.5111 -0.24984 0 0 6175
4.5766 -0.84658 0.54428 0 6411
4.8095 -0.9619 -0.45759 1 6427
4.8579 0.4216 0.91872 0 5701
2.5868 1.0477 0.52583 0 4369
2.816 -0.18062 -0.26326 0 6197
-14.921 -1.5051 -1.3991 0 9026
-12.464 0.4832 -1.1638 0 9602
-12.438 -0.89156 -1.1634 2 9138
-11.464 1.5174 -0.80862 0 9956
-11.304 9.6923 1.7413 0 13233
-11.188 9.5925 2.0712 0 13235
-11.141 -0.7654 -1.0419 1 9150
-11.103 1.5327 -0.52267 0 9976
-10.956 -8.6615 -0.97659 2 8498
-10.87 7.8828 0.93892 1 12619
-10.708 8.4477 0.63605 1 12902
-10.705 -7.1341 -0.89958 1 8702
-10.703 0.60211 -1.0001 2 9674
-10.681 3.7823 0.26307 1 10839
-10.599 4.602 0.26827 0 11230
-10.583 -1.1292 1.4958 0 9013
-10.55 4.0837 0.26265 1 10987
-10.391 0.40283 -1.2161 1 9601
-10.352 -0.83289 1.2145 0 9110
-10.35 -7.0683 -0.87642 1 8669
-10.324 -6.9193 -0.57959 0 8694
-10.305 -6.8674 1.4482 0 8706
-10.214 -6.7631 0.85661 1 8710
-10.187 10.709 2.7847 0 13978
-10.167 10.083 1.0013 1 13780
-10.123 -6.8695 -0.85549 0 8677
-10.065 -7.0897 2.3196 0 8653
-10.006 9.5819 1.947 1 13667
-10.001 -6.7455 -0.56254 1 8685
-9.9574 8.9972 1.8861 1 13438
-9.9334 6.7304 0.27858 1 12413
-9.8317 8.68 1.2236 0 13343
-9.8191 -0.41841 0.68724 2 9274
-9.7853 9.5892 0.95804 1 13743
-9.7785 -1.2162 1.6189 1 8955
-9.7633 9.2457 0.31219 1 13611
-9.7513 3.3577 -0.23944 2 10793
-9.7205 -1.0955 0 0 8989
-9.6638 -1.202 -0.68096 2 8949
-9.6594 -1.2323 1.1387 0 8946
-9.5938 -1.1661 0.6758 0 8961
-9.5894 -0.65878 0 0 9154
-9.5306 5.0953 0.25091 0 11728
-9.5004 9.1552 0.9226 1 13684
-9.4822 -1.0686 1.3411 0 8994
-9.4458 -10.722 -0.99919 0 8170
-9.3964 -1.3641 1.7889 2 8894
-9.277 -0.80022 0.21619 2 9087
-9.2645 7.05 1.9127 0 12779
-9.2525 7.0408 1.3597 0 12776
-9.211 6.6359 1.5955 2 12604
-9.1384 4.5822 0.47673 1 11562
-9.1074 -7.2885 2.1978 1 8490
-9.011 -7.5584 -0.82243 0 8433
-8.9384 -6.7748 1.5763 2 8561
-8.9359 -11.625 -1.0253 0 8084
-8.9137 6.7438 2.1059 0 12759
-8.8586 -11.189 -0.99794 1 8098
-8.8091 -11.957 -1.0385 0 8055
-8.7103 7.4235 1.8803 2 13211
-8.5065 0.57544 0.99704 0 9726
-8.3167 -10.314 -0.92651 0 8104
-8.247 -9.4737 -1.4688 1 8159
-8.1141 6.5169 0.24162 0 12968
-7.9836 1.7714 0.18986 0 10268
-7.8614 -6.6316 1.4455 1 8430
-7.768 -6.032 1.853 2 8524
-7.758 -7.4449 1.5111 0 8291
-7.672 10.716 2.1653 0 14735
-7.5858 9.3343 -1.4066 2 14406
-7.5705 5.3563 -0.8652 2 12537
-7.3638 1.0821 1.046 0 10013
-7.2372 -7.3134 1.9385 1 8259
-6.9678 2.9548 0.88507 0 11183
-6.7065 3.007 1.0329 0 11304
-6.6736 -0.30305 0.78123 1 9262
-6.4529 -4.9211 1.3333 2 8550
-6.427 4.8343 1.3213 0 12737
-6.3966 -4.3684 1.0886 0 8674
-6.3578 -6.7704 0.8665 0 8215
-6.3176 3.5933 0.16874 0 11897
-6.2458 3.11 -1.3146 0 11549
-6.1098 5.7175 0.19427 0 13565
-5.9085 5.925 0.58512 0 13817
-5.88 -4.8748 0.8932 0 8453
-5.8078 7.9645 0.91963 0 14686
-5.7334 6.6516 1.6545 0 14267
-5.7131 8.0272 1.8563 0 14750
-5.4774 0.45129 0 0 9775
-5.4159 -5.6339 0.54647 0 8238
-5.3478 7.4258 1.7241 0 14720
-5.3291 -9.076 1.7292 0 7828
-5.0127 3.0478 0.54732 0 12090
-4.9744 -5.5832 1.2285 0 8184
-4.7826 5.7484 1.2285 0 14354
-4.7743 4.9578 1.2968 0 13939
-4.7256 3.2212 0.6688 0 12437
-4.53 4.0233 0.70852 0 13369
-4.4287 -6.0114 1.4068 0 8061
-4.314 -3.9049 0.81778 0 8342
-4.1895 -3.2532 -0.24736 1 8518
-3.9415 -8.7376 1.5748 0 7670
-3.9038 -9.6963 0.97518 0 7651
-3.6359 11.033 1.9085 0 265
-3.6307 -4.6942 -0.13778 1 8089
-3.5565 -9.2073 1.8597 0 7640
-3.5481 -5.8887 1.2953 0 7856
-3.4979 8.7058 1.5414 0 57
-3.4955 -3.9233 0.122 0 8183
-3.4319 7.049 1.4771 0 15602
-3.3918 7.1786 0.74072 0 15656
-3.3197 -4.0922 0.86572 0 8108
-3.2921 13.116 2.2217 0 454
-3.2887 -5.6415 0.45663 0 7819
-3.1952 -7.2003 0.36736 0 7667
-3.0894 7.2924 1.3012 0 15839
-3.0503 -6.4123 1.1666 0 7675
-2.8488 -9.0573 0.88582 0 7586
-2.8438 -6.6671 0.50685 0 7662
-2.7349 7.8359 0.97056 0 214
-2.5657 8.7061 1.7101 0 343
-2.5172 -5.1044 0.53097 0 7690
-2.4138 -5.7988 0.29292 0 7660
-2.3225 5.711 -0.57519 2 15893
-2.3218 -5.2742 1.0857 0 7665
-2.266 6.9493 1.3772 0 272
-2.2631 -4.6523 0.48267 0 7683
-2.1235 -5.6976 0.99899 0 7632
-2.0639 -9.2031 1.103 0 7545
-2.0563 -8.3716 1.4163 0 7549
-2.0309 6.5406 0.96252 0 305
-2.0257 5.9709 -0.29403 0 238
-2.0155 6.7011 0.65284 0 327
-1.8067 -9.0416 1.5149 0 7543
-1.7748 -5.5345 0.95489 0 7591
-1.745 6.1875 -0.90351 0 365
-1.6903 -9.4413 1.5758 0 7541
-1.6626 6.0982 -1.1909 0 395
-1.6374 6.9482 0.49918 0 487
-1.6208 5.7468 -1.125 0 373
-1.2861 -7.7104 0.54661 0 7538
-1.2726 -6.7675 0.15988 0 7542
-1.1596 -5.314 0.89361 0 7544
-1.0923 6.132 1.0233 0 601
-1.0345 8.7146 -1.2334 0 658
-0.94072 -10.417 1.7185 0 7509
-0.92756 8.2176 -0.57828 0 664
-0.78225 -8.4005 -0.39344 0 7511
-0.6245 12.861 1.2013 0 712
-0.59104 -9.6634 0.45149 0 7493
-0.41806 11.347 1.0593 0 722
-0.33302 -8.7483 1.4383 0 7478
-0.30539 -6.9666 1.3138 0 7483
-0.29247 -5.2642 0.24587 0 7489
-0.23283 5.0688 0.71312 0 714
-0.21076 -7.9952 0 0 7470
-0.12129 -8.2722 1.3592 0 7465
-0.099552 5.047 0 0 732
-0.076527 -8.5973 -0.19961 0 7460
-0.023238 -7.8319 0.18183 0 7457
0.028644 -10.941 0.25402 0 7454
0.042993 11.731 -0.27236 0 748
0.04714 -8.1843 0.76357 1 7452
0.073865 7.985 0.37239 0 751
0.086759 7.1011 0.83048 0 756
0.11341 -6.6298 0.30922 0 7446
0.16373 -6.3802 0.59544 0 7441
0.23301 6.5415 -0.91993 0 776
0.241 8.0727 -0.56475 0 772
0.25453 8.5261 -0.9975 0 770
0.34253 -7.9086 0.92572 0 7430
0.37874 8.0611 1.5205 0 797
0.46169 -7.592 1.2496 0 7421
0.4952 -6.8414 1.2924 0 7416
0.5004 -6.3867 -0.14873 2 7414
0.56425 -6.9673 0.16229 0 7413
0.56762 9.2277 1.2993 0 819
0.64889 6.3332 -0.59395 0 854
0.67644 -5.0562 0.59655 0 7401
0.74719 -9.9373 -0.23137 0 7415
0.75562 -8.1453 0.95662 0 7411
0.87804 -7.7546 0.72809 0 7408
0.94751 5.8696 0.27726 1 945
0.98355 8.6059 1.4231 0 878
1.055 9.4805 1.1155 0 870
1.0689 10.433 1.723 0 858
1.1361 -6.3714 0.75684 0 7396
1.3141 -4.8736 0.35297 0 7386
1.3539 -6.6844 0.15834 0 7394
1.3912 -4.82 0.82422 0 7384
1.4249 4.8164 -1.3149 1 1135
1.4748 6.4703 -0.15407 0 1034
1.5203 -6.6166 1.1154 0 7393
1.5813 8.532 1.6349 0 974
1.633 9.4149 -0.22185 0 962
1.6621 12.342 1.4563 0 906
1.7495 5.8462 -0.14168 0 1141
1.8063 -4.6909 0.1167 0 7373
1.8445 5.3175 -1.4734 0 1225
1.8575 -6.0417 1.1909 0 7379
1.9051 5.539 0.96235 1 1221
2.0299 5.635 0.27931 1 1251
2.0776 -5.0407 0.25425 0 7365
2.0993 -6.9708 0 0 7380
2.1547 -4.715 0 0 7356
2.1825 -11.845 1.9788 0 7395
2.2263 -5.6808 0.56924 1 7372
2.2363 -5.4689 0.13718 0 7367
2.2886 13.676 2.2781 0 954
2.3176 -5.8626 0.88598 0 7370
2.3996 5.1178 -0.7944 1 1429
2.4496 -5.3604 -0.27484 0 7355
2.4551 -5.7171 0 0 7357
2.4812 8.7508 0.63604 0 1113
2.6496 -6.3247 0.47951 0 7361
2.6725 -6.9404 1.4012 0 7375
2.7455 -4.3614 0.48081 1 7322
2.8751 -9.7501 1.9152 0 7383
3.0254 8.6391 0.21252 1 1231
3.0292 8.1193 0 1 1274
3.0356 -5.4271 0.14437 0 7345
3.0502 -4.6031 0.90723 1 7311
3.0527 4.1391 0.84497 1 2032
3.0667 4.5878 0.64533 0 1887
3.0733 -6.6239 -0.51062 0 7354
3.1871 -8.2767 1.4571 0 7374
3.2356 -4.1637 -0.49196 0 7263
3.3516 8.6768 0.8678 0 1295
3.4106 7.225 -0.93432 0 1435
3.4298 6.6537 1.2298 0 1516
3.4616 -4.8192 -0.69388 1 7293
3.4881 5.7437 1.104 0 1737
3.5308 7.7012 0 0 1413
3.6525 -4.9056 1.0048 0 7283
3.6685 6.0838 -0.3313 0 1722
3.6825 6.2666 -0.84999 1 1679
3.6866 4.4627 -0.67693 1 2204
3.7083 5.3454 -0.60696 0 1930
3.7572 -4.7797 0.5672 2 7258
3.7866 -3.3726 0.95538 0 7201
3.7912 -6.0227 1.1692 0 7325
3.8901 5.1811 -0.30214 1 2055
3.9166 7.8111 0.81522 0 1485
3.9618 -5.3854 -0.46751 0 7287
3.9724 -10.49 1.0465 0 7377
4.0167 -7.9207 1.4591 1 7352
4.0216 -4.4916 0.70503 0 7219
4.1546 8.41 1.5411 0 1474
4.2805 5.9111 1.199 0 2001
4.3874 7.9906 1.066 0 1597
4.457 -6.0189 0.69873 0 7284
4.471 -2.4692 -0.83914 1 6901
4.5081 -4.4845 1.0447 0 7209
4.5715 -3.6415 -0.8214 0 7178
4.6709 5.1459 0.97672 0 2400
4.7053 7.1713 1.616 0 1858
4.7113 -3.7088 0.5594 0 7172
4.737 -9.7597 1.7824 0 7353
4.7687 -1.7159 0.47282 0 6540
4.7743 -6.2967 1.2983 0 7276
4.9222 4.7733 -0.31975 2 2614
4.9432 1.0444 -0.71006 0 5115
4.9555 -6.8584 -0.59167 1 7291
4.9662 12.206 2.165 0 1326
4.9976 -3.089 0.96527 0 6995
5.004 -4.1544 0.60677 0 7193
5.0135 2.9355 -0.27093 0 3601
5.0373 3.3569 -0.2823 0 3334
5.047 1.6633 0 0 4665
5.0475 -0.76786 0.35701 0 6361
5.0495 0.67465 0.95983 0 5505
5.0669 -8.0492 1.1123 0 7323
5.0851 4.1874 0.92578 0 2939
5.1048 10.645 1.9396 0 1453
5.1056 -5.7023 0.1777 0 7218
5.1412 -1.2638 -0.24689 0 6446
5.2047 -0.35026 -0.61002 1 6206
5.2242 -7.4971 -1.0686 0 7299
5.2629 8.7279 1.4324 0 1727
5.2712 -2.2137 0.53339 0 6630
5.3317 -3.4466 0.74244 0 7027
5.3542 4.0803 1.106 1 3084
5.3781 -1.0756 -0.64138 0 6426
5.4164 4.7317 0.16698 0 2818
5.501 2.6085 0.85564 0 4065
5.5357 -0.30659 -0.64835 1 6172
5.5735 -5.4503 1.2808 0 7208
5.5925 2.2652 0.56293 0 4364
5.5946 0.93018 0.66322 0 5342
5.6496 1.2608 -0.67693 0 5061
5.6827 -0.7653 0 0 6331
5.6973 1.768 0.6976 0 4739
5.7428 2.8258 0.74848 0 3974
5.7602 5.1484 0.36028 0 2768
5.7877 4.9976 0.71341 0 2846
5.8082 5.1913 0 0 2765
5.8698 -0.66878 0.69086 0 6296
5.9219 -3.5695 0.32245 0 6977
5.9318 6.7687 0.62934 0 2326
5.9549 -5.8233 0.38841 0 7207
6.0183 -4.5698 1.2415 0 7155
6.0382 2.4666 1.0716 0 4350
6.0631 3.5245 0.98562 0 3621
6.0783 3.5832 1.3294 0 3595
6.1202 5.7352 0.58651 0 2681
6.2363 -6.0624 1.4289 0 7206
6.2858 -2.7671 1.1284 0 6674
6.3203 1.2595 1.2142 0 5186
6.4185 7.5417 1.627 0 2269
6.4203 1.3366 0 0 5138
6.4538 5.2206 -0.38711 0 2967
6.5109 4.2834 1.2804 0 3365
6.5546 3.0844 0.16819 0 4079
6.6695 1.247 1.1147 0 5243
6.745 2.3965 1.176 0 4568
6.7617 6.7523 1.57 0 2570
6.846 0.77396 1.1319 0 5586
6.9483 8.2105 0 0 2250
7.1318 -8.6485 1.5754 0 7240
7.1605 0.76651 1.1832 0 5610
7.1751 -4.6988 0.80017 0 7034
7.2862 6.4417 0.45354 0 2792
7.3002 -4.9352 1.4477 2 7057
7.3323 5.9673 1.7812 0 2964
7.3509 8.4891 1.8449 0 2306
7.3985 6.6127 1.6303 0 2773
7.4004 7.1765 1.9422 0 2621
7.6489 0.37276 0.17779 0 5834
7.6743 2.358 1.319 0 4753
7.7133 6.463 1.6533 0 2906
7.8284 -4.968 0.86501 0 7013
7.9179 3.3154 0 0 4302
7.925 7.5972 1.0242 0 2641
7.9518 3.0891 0.39782 0 4435
7.9822 -3.0019 1.6068 0 6568
7.9858 5.7999 1.6215 1 3177
8.1124 3.6493 0.8299 0 4174
8.2293 4.9154 1.5748 0 3566
8.2571 -3.1053 0.82302 0 6565
8.2928 9.0882 2.0213 0 2412
8.3134 1.2825 0.1953 0 5399
8.3601 -4.245 -1.0965 0 6824
8.3725 0.87113 0.19543 0 5621
8.4184 1.8555 1.4163 0 5086
8.4358 -7.2125 2.0911 0 7199
8.5935 5.3033 0.94211 0 3493
8.7552 -2.5602 1.0667 0 6476
8.7552 2.7169 1.5061 1 4742
9.0044 2.509 0.87207 0 4846
9.0484 2.9226 1.7915 0 4698
9.2015 5.9027 0 0 3412
9.3617 -3.5824 -1.1722 1 6574
9.4337 5.2356 1.0066 0 3704
9.4788 -0.96951 1.5654 0 6276
9.5192 -1.6203 1.8193 0 6387
9.7124 -1.8264 -1.1557 0 6413
9.8031 2.0408 0.23248 0 5139
9.8295 -7.2814 -1.4305 0 7138
10.209 -6.9852 2.0323 0 7069
10.312 2.6189 1.748 0 4944
10.423 6.7274 1.4507 0 3401
10.489 -4.4048 0.7955 0 6629
10.507 1.6848 -0.24706 0 5370
10.759 -4.5892 1.9218 0 6642
11.053 -1.9788 -0.2607 0 6399
11.36 2.0236 1.8958 0 5288
11.925 3.0663 2.0229 0 4932
-12.863 -0.5481 -1.5055 0 9267
-5.3109 9.2808 -1.5028 2 15282
-3.7955 13.315 -1.6191 1 358
-3.3104 5.2083 -1.7696 0 15035
-2.2727 14.189 -1.6805 0 621
-0.30326 4.2101 -1.998 0 693
2.5037 1.699 -1.5198 1 3295
5.8427 8.8508 -1.9982 2 1868
