VERSION .7
FIELDS x y z intensity index
SIZE 8 8 8 8 8
TYPE F F F F F
COUNT 1 1 1 1 1
WIDTH 577
HEIGHT 1
VIEWPOINT 0 0 0 1 0 0 0
POINTS 577
DATA ascii
-4.9959 -0.2024 0 0 9817
-4.9677 -0.25861 -0.46409 0 9785
-4.7393 0.77779 0.1115 0 10490
-4.245 -0.43119 0.099064 0 9692
-3.8879 1.5018 0.29144 0 11424
-3.8714 0.91588 0.27819 0 10723
-3.7418 1.2136 0.18345 1 11094
-3.6862 0.26875 -0.34481 0 10129
-3.4242 -0.057976 0.40049 1 9874
-3.0668 1.85 0.41884 0 12712
-3.0599 2.0709 -1.2485 0 13129
-2.9959 -0.17379 0.27998 0 9775
-2.7264 2.6848 -1.3927 0 14494
-2.5289 2.1393 -0.15447 1 13970
-2.4089 -2.8556 0.61379 0 8796
-2.3438 2.39 0.3123 0 14589
-2.2899 2.6222 0.57196 1 14892
-2.2302 -4.4672 0.70171 0 8510
-2.1497 3.7279 -0.40148 0 15914
-2.1357 3.9614 0.41987 0 16081
-1.9259 2.8402 0.64655 0 15508
-1.7767 4.2266 0.3206 0 370
-1.7383 2.8014 -0.86308 0 15725
-1.6737 4.1136 -1.2734 1 429
-1.4786 -4.0536 -0.10018 1 8371
-1.2841 -4.1432 0.81726 0 8361
-1.1396 3.6544 0 0 778
-1.0342 4.5447 -1.2202 0 960
-1.0169 -4.2718 0.72144 0 8345
-0.96074 -3.3026 0.64803 0 8355
-0.94423 -4.8262 0.69113 1 8342
-0.9242 4.1722 0.19928 0 970
-0.75449 -2.9428 0 0 8347
-0.75061 3.0861 0.59841 0 938
-0.72214 3.4994 0.67321 1 1001
-0.69719 3.8904 -0.27638 0 1043
-0.49334 3.7473 0.35262 0 1102
-0.41635 -4.5312 0.42452 1 8312
-0.36323 -4.2196 0.69582 0 8307
-0.30847 3.1977 -0.92118 1 1137
-0.14469 4.5041 -0.42043 0 1211
-0.12441 3.545 -0.49852 0 1206
-0.12014 -4.8127 0.33664 0 8267
-0.081787 3.4705 0.57034 0 1216
-0.053714 3.0468 -0.35635 0 1218
-0.036579 3.9543 0.74505 0 1227
0.017294 3.1961 0.2235 0 1237
0.026214 4.8449 -0.45201 0 1236
0.038239 4.4712 -0.84244 0 1241
0.14924 3.0297 -1.4358 0 1308
0.19737 -4.4144 0.72598 0 8229
0.33113 4.7593 0.22248 0 1333
0.40135 3.539 -0.41652 0 1376
0.4047 -4.7304 0.5552 0 8214
0.45258 -3.3342 0.63396 0 8204
0.48155 4.7408 -0.6697 0 1363
0.52019 -3.9248 0.55641 0 8205
0.52361 -3.1732 0.3761 1 8199
0.54921 -4.4282 0.62711 0 8207
0.57882 3.4701 0 0 1450
0.58984 -3.2716 -0.15503 0 8195
0.62745 4.7918 -0.22537 0 1394
0.73087 4.9138 0.34739 0 1418
0.82245 -2.9279 0.49966 0 8188
0.85248 3.6604 -0.43951 0 1614
0.89292 -4.5013 0.214 0 8193
1.2044 -4.5359 0.77105 0 8189
1.207 4.6839 0.91132 0 1655
1.3328 -4.0994 0.50409 0 8187
1.435 -4.01 0.80245 0 8182
1.5552 -3.2856 -0.25419 1 8169
1.7064 3.2433 -1.3339 0 2174
1.7209 -3.7192 0.47924 1 8170
1.7299 4.1599 -0.52686 1 1951
1.837 -3.5303 0.18559 0 8161
1.9588 3.3845 -1.1213 1 2248
2.1093 -3.4006 0.75394 0 8133
2.1892 2.0768 0.49576 2 3132
2.2239 -2.2426 0.22085 0 8022
2.3443 3.0862 0.45322 0 2576
2.3496 -3.6222 0.30191 0 8121
2.3647 -1.8763 0.21108 0 7987
2.4076 -4.2296 0.45406 0 8152
2.5377 2.2706 0.31769 1 3236
2.5714 -2.8289 0.088758 0 8029
2.705 3.126 0.28907 0 2779
2.7261 -1.4974 0.511 0 7739
2.7647 2.3604 -0.42511 0 3328
2.8392 2.1527 -0.082723 0 3591
2.8395 -1.1744 -0.50484 1 7486
3.0337 -3.1131 0.10092 1 8023
3.1713 2.2898 0.64265 0 3698
3.1915 -3.1804 0.74024 2 8021
3.239 -3.5409 0.67443 0 8028
3.3065 -1.539 0.5992 0 7587
3.5097 -0.34969 0.081888 1 7167
3.5102 0.83688 -0.50715 1 5644
3.5502 1.1344 -1.2593 0 5268
3.589 1.3333 0.72135 0 5026
3.6409 2.0608 -1.4136 2 4193
3.6722 -1.9485 -0.58425 2 7709
3.7205 -2.8621 0.54893 0 7976
3.7562 1.9863 0.69809 0 4333
3.8126 2.8377 -0.11034 0 3628
3.8128 1.1584 0.092518 0 5340
3.8329 -0.93222 0.7432 0 7308
3.8331 -0.67726 0.27219 0 7265
3.8688 1.8619 -0.30023 0 4521
3.878 1.7298 0.59677 0 4686
3.8862 1.4437 -0.48481 0 5012
3.9433 1.2479 0.38587 2 5284
3.9527 -0.11731 0.74505 0 6993
3.9775 -1.6859 0.70976 0 7512
4.0229 -1.2545 0 0 7375
4.0472 -1.7985 0.10282 0 7548
4.0569 0.22113 0.094329 0 6619
4.194 0.67103 -0.19807 0 6043
4.209 0.99031 0.81467 0 5672
4.3082 -1.1544 0.73278 0 7337
4.3441 -1.7534 0.32758 0 7473
4.3796 -1.7677 0.88984 0 7476
4.3872 -1.7557 -0.44087 0 7465
4.4449 0.10009 0 0 6766
4.6055 -0.86773 0.32772 0 7273
4.6515 0.14455 -0.43418 0 6721
4.652 0.67533 0.10914 0 6125
4.6523 1.744 0.46353 0 5006
0.28224 -2.6585 0.18695 0 8211
2.1666 2.0661 0.49187 2 3121
2.2254 -1.5444 -0.77675 1 7908
2.5457 -0.81881 0.43935 0 7385
-13.082 6.4116 -1.3592 1 12048
-12.568 0.76868 -0.88047 2 10100
-12.537 -0.21226 -0.58472 0 9871
-12.533 2.1715 -1.4874 1 10512
-12.512 -2.1994 -1.4856 0 9623
-12.452 4.278 -1.2284 1 11185
-12.445 -0.28676 -1.1613 1 9854
-12.423 -8.2882 -0.34672 0 9570
-12.055 5.3545 0.30624 1 11769
-12.021 5.0484 -0.30272 2 11617
-12.011 -8.3258 -0.3393 0 9516
-12.001 5.2879 0 1 11746
-11.724 9.1826 -0.69447 0 13687
-11.632 9.1699 -1.0357 0 13709
-11.623 4.1458 0.28651 2 11255
-11.424 0.23331 -0.79899 1 9976
-11.226 5.705 -1.4726 1 12165
-11.128 2.3957 -1.0619 1 10657
-11.075 0.29193 -1.2955 2 9993
-10.986 -7.7071 1.8861 0 9505
-10.914 1.6273 -0.77165 2 10424
-10.858 2.2052 -1.0337 2 10620
-10.847 7.0711 0.90544 1 12992
-10.828 6.3607 1.4686 0 12619
-10.827 1.9696 1.2869 0 10549
-10.637 -7.6011 1.8374 0 9481
-10.631 -10.396 2.0898 0 8978
-10.601 -8.1462 -0.93488 2 9359
-10.587 10.425 0.34496 1 14495
-10.525 1.6633 -0.74514 2 10462
-10.413 -10.483 1.3785 0 8945
-10.402 4.9127 -1.0733 0 11935
-10.398 4.1231 -1.0435 0 11473
-10.397 8.2906 -0.92985 0 13755
-10.395 1.9248 1.4858 0 10560
-10.337 1.665 -0.48829 1 10475
-10.206 10.654 0.34254 1 14649
-10.202 7.3013 1.1704 1 13348
-10.192 6.8542 1.1459 0 13110
-10.165 0.83036 -0.47562 1 10158
-10.091 1.7485 -0.95549 1 10513
-10.079 0.76141 -0.94304 1 10137
-10.064 4.3677 -1.283 1 11694
-10.011 -8.7642 0.62049 1 9155
-9.9855 11.18 0 0 14831
-9.9594 -6.5222 1.6731 0 9595
-9.9329 7.0668 1.7132 0 13327
-9.9139 10.587 0 1 14709
-9.8723 1.5901 -0.69924 0 10474
-9.8398 3.2199 1.701 1 11116
-9.8199 5.8098 1.6036 0 12641
-9.7982 1.8142 -0.92966 1 10555
-9.7626 3.9364 -0.73607 1 11517
-9.7566 -6.3118 1.9091 0 9603
-9.7367 -8.3277 2.105 1 9202
-9.7034 1.7967 1.8593 2 10561
-9.6949 -8.4425 1.8067 1 9170
-9.6936 -7.861 2.3514 1 9283
-9.6574 4.4931 -1.2456 2 11893
-9.6507 6.6551 1.926 0 13210
-9.6502 7.3835 0.56664 1 13602
-9.6473 -8.7507 2.454 0 9093
-9.6368 3.1256 -1.1847 1 11087
-9.6178 -7.7578 1.7366 0 9289
-9.557 7.3998 -0.56366 0 13641
-9.5453 4.5775 -0.74026 2 11979
-9.532 -9.2146 1.8632 0 8994
-9.5065 0.27716 1.5625 0 10011
-9.496 5.5068 0.7676 0 12576
-9.455 3.404 -0.46863 0 11271
-9.4263 -0.40661 -0.88024 0 9806
-9.4128 -7.8648 -0.85773 2 9230
-9.3923 5.4796 -1.2716 2 12585
-9.3787 3.1326 1.863 0 11149
-9.3091 -9.371 2.1701 0 8947
-9.2908 0.21733 -0.64985 0 9986
-9.2694 4.848 -0.97592 1 12257
-9.2364 -7.0159 0.26929 2 9383
-9.2046 9.282 -0.91409 2 14552
-9.1871 5.542 2.0215 1 12717
-9.1263 2.96 -0.89511 1 11088
-9.1204 0.0015903 -0.85089 2 9916
-9.1094 -8.9082 1.49 2 8977
-9.0876 -0.7663 -1.0665 0 9716
-8.9855 2.3774 -1.0869 0 10813
-8.9637 2.8779 1.7738 1 11084
-8.9498 -1.3583 1.0586 0 9633
-8.9176 -7.0604 1.5985 2 9318
-8.8867 3.4327 0.88879 0 11426
-8.7931 -8.5003 2.0093 0 8995
-8.7825 -7.2063 1.3285 1 9265
-8.7692 -5.6362 1.7126 2 9606
-8.7632 1.5689 -1.2512 2 10533
-8.696 3.7433 1.1071 1 11686
-8.6843 -0.88212 1.4341 0 9693
-8.6825 -0.35176 0.20175 0 9818
-8.6636 -0.39947 -1.2189 2 9797
-8.5883 -10.123 -0.61909 0 8799
-8.5744 -7.1642 1.0424 2 9234
-8.5411 -7.2588 0.26024 2 9206
-8.5015 5.4035 0.7044 0 12898
-8.4313 -5.7364 0.9514 0 9548
-8.4278 -6.0605 -0.72589 0 9465
-8.3796 1.8286 -0.80017 1 10665
-8.3414 11.081 0 1 15256
-8.2604 0.43435 -0.57842 1 10078
-8.2161 -10.836 -0.95092 0 8705
-8.1863 -0.47489 1.3472 0 9776
-8.1831 2.0859 -1.3874 1 10776
-8.157 -0.28057 0.18949 0 9832
-8.1564 -5.8653 0.93728 0 9470
-8.0785 -11.825 -1.0014 2 8646
-8.0307 1.8762 1.5538 2 10716
-8.0219 0.91398 1.3265 2 10280
-8.0174 -6.7776 0.73412 0 9217
-7.901 -6.6793 1.9493 2 9221
-7.8239 -10.018 -0.88884 0 8716
-7.7308 0.97114 1.2801 2 10332
-7.6326 -7.4198 2.0056 0 8988
-7.4208 3.6097 0.76989 2 12038
-7.3958 6.9548 -1.4268 1 14344
-7.3452 -6.1372 1.5726 0 9237
-7.305 -6.7032 1.1594 0 9070
-7.3022 0.68255 0.85766 0 10197
-7.2625 1.3447 -0.51648 1 10556
-7.1877 -0.54297 -0.33615 1 9737
-7.1378 1.473 0.50964 0 10634
-7.1224 3.6463 0.93571 0 12204
-7.0789 4.0772 0.38096 0 12555
-6.9351 -1.1767 1.3253 0 9624
-6.8236 3.127 1.4142 0 11868
-6.8059 5.3962 1.427 0 13748
-6.7965 -6.5336 1.5489 0 9003
-6.512 7.245 1.6005 0 14822
-6.5062 7.0705 1.1236 0 14758
-6.3819 1.7255 0.92912 0 10846
-6.137 -4.4965 0.17663 0 9442
-5.974 4.2236 0.68257 0 13301
-5.9018 1.783 -0.57519 1 10981
-5.9004 -0.89552 0.9805 0 9634
-5.8695 2.6072 -1.3651 0 11778
-5.8463 4.0815 0.16554 0 13248
-5.8453 2.0458 -1.0175 0 11214
-5.8103 5.1532 -0.72456 0 14142
-5.7471 1.5916 -0.8381 0 10866
-5.7312 4.7094 -0.51871 1 13859
-5.7242 6.8339 1.4646 1 14996
-5.6807 0.084281 0.53004 0 9961
-5.6218 2.9403 0.1473 0 12265
-5.4988 -1.0152 0.52168 0 9622
-5.4882 -0.57296 0.90658 0 9687
-5.4843 7.5153 0.86798 0 15330
-5.2913 1.5153 0.25667 0 10918
-5.2055 -0.28557 0.48638 0 9783
-5.0088 3.6955 1.0227 0 13474
-4.9976 9.0831 0.2407 0 16036
-4.6473 -6.6767 1.5327 0 8660
-4.6164 10.074 1.5573 0 221
-4.602 -5.2698 0.81817 0 8826
-4.5578 8.953 0.93728 0 16205
-4.4289 -3.2451 -0.12747 0 9441
-4.2999 -4.6975 0.59414 0 8858
-3.9586 -4.0807 0.66485 0 8919
-3.9111 -3.2275 0.95538 0 9260
-3.7315 -5.2976 0.60454 0 8667
-3.661 -5.039 1.0233 0 8683
-3.424 3.7445 0.83362 0 14776
-3.406 -5.3135 1.0369 0 8615
-3.3646 -5.9011 1.116 0 8589
-3.1355 10.167 1.748 0 792
-2.9582 -4.4123 -0.24773 0 8637
-2.9099 -5.0728 0.6839 0 8591
-2.866 4.6495 1.0291 0 15748
-2.8641 -6.7344 0.51173 0 8413
-2.7956 -7.7313 1.1554 0 8370
-2.719 -5.1115 -0.27 1 8552
-2.6538 4.9225 -0.39105 1 16076
-2.6205 -7.7374 0.38096 0 8366
-2.5996 8.6924 -1.2751 0 810
-2.4981 7.2674 1.4479 0 691
-2.3305 4.8926 0.89037 0 149
-2.3296 5.3679 -0.27289 0 311
-2.2887 8.2585 1.2044 0 871
-2.2845 -8.4962 0 0 8348
-2.221 -4.5176 0 1 8498
-2.2009 -4.9339 -0.12543 0 8429
-2.0673 5.6369 0 0 610
-2.0546 6.091 0.75173 0 712
-1.9824 5.2629 -0.26226 0 566
-1.9182 8.2041 -0.78605 0 947
-1.8961 -5.6571 0.13852 0 8365
-1.8835 5.6918 -0.41924 2 728
-1.8826 -6.6134 0.64151 1 8354
-1.7527 -5.3246 0.52298 1 8363
-1.7415 4.9234 -0.24354 0 653
-1.6777 12.2 2.0233 0 1096
-1.5796 -11.637 1.3734 0 8331
-1.4849 -6.8449 1.1507 0 8344
-1.4565 9.9472 -0.23341 0 1084
-1.3834 -5.4552 0.26245 0 8346
-1.3456 -4.8324 0.46799 1 8350
-1.3143 -9.4717 0.89213 0 8333
-1.2676 -10.221 0.23912 0 8326
-1.2257 5.9395 0.99639 0 1000
-1.1708 -5.4801 0.65532 0 8343
-1.0267 10.984 -1.0292 0 1141
-0.98281 10.515 1.735 0 1145
-0.94092 4.994 0.83492 0 1032
-0.94074 9.1975 -0.21465 0 1129
-0.92809 9.3477 1.3202 0 1134
-0.90352 -5.6535 1.0787 0 8340
-0.87845 11.137 1.0422 0 1168
-0.8614 -5.5008 0.51945 0 8338
-0.8204 5.7215 0 0 1087
-0.80232 -7.7375 0.90969 0 8317
-0.71217 5.0738 -0.35827 0 1089
-0.67976 8.3036 1.5697 0 1166
-0.66941 -7.5303 0.17552 0 8309
-0.57326 -8.0566 0.75354 0 8300
-0.46203 -7.0492 -0.32944 0 8296
-0.3877 7.7878 -1.2811 0 1201
-0.36888 7.0153 -0.98729 0 1197
-0.30495 -9.1445 0.21243 0 8276
-0.29609 -8.1526 0 0 8279
-0.25845 6.2978 -0.29394 1 1204
-0.20805 -6.771 -0.15728 0 8272
-0.19372 -6.3045 1.0363 0 8273
-0.12493 7.0861 -0.6612 0 1220
-0.092291 -5.7473 0 0 8260
-0.084636 5.7046 0.53227 0 1223
0.079988 -10.911 1.7927 0 8249
0.18727 -6.8764 1.2961 0 8238
0.19808 -10.507 1.98 0 8243
0.20629 7.9843 1.3122 1 1269
0.23093 8.9382 0.83417 0 1266
0.23292 -9.5306 -0.22134 0 8240
0.23295 -7.7127 1.0844 0 8236
0.26835 6.1959 -0.72524 0 1293
0.29491 5.6841 0.93511 0 1318
0.29913 -5.3005 0.4953 0 8222
0.35715 -7.988 0 0 8228
0.39514 -5.5532 0.78243 0 8217
0.56787 -6.6375 0.46583 0 8213
0.59363 -5.5916 1.0594 0 8212
0.60132 -4.9836 0.58703 0 8208
0.66152 -9.297 1.09 0 8216
0.72415 -6.1367 0.86844 0 8209
0.78599 -12.056 1.985 0 8219
0.86532 -7.7267 0.54368 0 8210
0.88109 9.8144 1.6189 0 1352
0.90831 -6.5543 0.7738 0 8203
1.0075 -5.9882 -0.14098 0 8197
1.0329 -7.0205 -0.16475 0 8201
1.1528 -8.1508 0.57563 0 8202
1.2019 -7.3965 1.2311 0 8200
1.2076 7.1169 -0.67347 0 1457
1.3315 7.8473 0.74258 0 1460
1.4408 -11.109 1.3099 0 8206
1.5985 -7.7055 1.4827 0 8192
1.6453 4.7973 -0.35464 0 1794
1.6497 -4.7857 0.47226 0 8183
1.7898 -10.638 0.75435 0 8198
1.8396 -10.573 1.7632 0 8196
1.9019 8.7375 -1.2567 0 1589
1.9911 7.0503 0.85673 0 1686
2.0036 4.778 0.72815 0 1959
2.0177 -6.0831 0.90073 0 8185
2.0212 7.8436 -0.18805 0 1652
2.0908 -4.8454 0.86702 0 8176
2.1123 10.42 1.7467 0 1558
2.1432 5.3692 -0.81249 1 1910
2.1983 6.9298 0.33903 0 1749
2.2684 -6.839 1.1838 0 8186
2.3239 -4.7312 -0.36859 1 8164
2.3857 -11.5 1.9296 0 8191
2.4458 9.6163 1.3945 0 1647
2.4496 -5.1357 0 0 8168
2.4552 -5.9246 1.2083 0 8178
2.4582 5.8136 0.88709 0 1967
2.5454 6.2718 0.63148 0 1930
2.5858 4.3794 0.83557 0 2266
2.586 11.881 0.28229 1 1594
2.6145 7.274 -0.36046 0 1822
2.6645 -4.9095 0.26049 0 8156
2.7649 -8.1733 1.4176 2 8184
2.7706 -4.9697 -0.26534 1 8153
2.7823 -5.0925 0.81555 0 8155
2.7878 6.3871 -0.48732 0 2000
2.8394 5.6332 -0.14646 0 2140
2.841 -4.5802 0.8855 0 8132
2.9481 4.7659 0 0 2303
2.9709 -4.8216 0.52837 2 8134
3.0641 -8.4921 0 1 8179
3.142 8.2196 -0.2043 0 1873
3.1567 7.9729 1.4088 0 1907
3.2081 -5.2743 0.86761 0 8139
3.2371 6.2397 -0.65582 0 2161
3.248 -4.1142 0.86118 0 8060
3.3799 8.188 1.669 0 1947
3.4129 4.0144 -0.49158 0 2751
3.448 -8.1864 1.4594 0 8177
3.4518 6.2092 0.99843 0 2222
3.5315 -8.1218 0.6193 0 8175
3.5872 4.0022 0.12478 0 2845
3.7555 3.9992 0.77102 0 2928
3.7903 -4.3679 -0.81277 0 8032
3.7958 4.6524 -0.1394 0 2683
3.8143 -3.7772 0.88194 1 8020
3.8287 -5.7193 0.32096 0 8113
3.855 3.7843 0 0 3060
3.8984 -4.4925 -0.55494 1 8033
3.9525 -4.2474 1.0931 0 8026
3.9718 5.3911 -0.15547 0 2528
3.9748 8.0002 0.83343 0 2123
3.984 -3.2343 -0.7212 1 7997
4.0272 7.2922 1.3686 1 2217
4.0366 8.0679 -1.2679 0 2128
4.0951 -5.8203 1.1692 0 8102
4.1291 -5.0754 1.2327 0 8049
4.3526 -9.4069 1.7029 0 8171
4.3899 5.3197 -0.4823 0 2703
4.4744 4.6011 0 1 2978
4.5961 5.9446 1.056 0 2604
4.6747 -2.747 0.25285 0 7792
4.6798 -5.9985 1.2499 0 8066
4.6955 5.0002 1.2924 0 2930
4.7058 3.7191 0 0 3498
4.7284 6.9108 0.58554 0 2419
4.7488 -2.9409 1.0524 0 7834
4.8418 -3.4447 0.55438 0 7931
4.847 -6.4838 -0.37751 0 8081
4.8796 -1.1715 0.46818 0 7305
4.8831 -1.4771 0.83816 0 7366
4.9024 2.6651 0 0 4270
4.9108 2.4334 0.38324 0 4457
4.929 1.3115 0.23786 0 5513
5.0663 2.5105 -0.39538 1 4451
5.107 2.0685 0.25695 0 4874
5.1196 1.1275 -0.24447 0 5734
5.1606 -3.7151 1.0447 0 7939
5.1945 -7.3829 1.7008 0 8103
5.2389 -2.4586 -0.81333 0 7589
5.2788 2.484 0 0 4576
5.4173 1.4912 -0.78967 0 5457
5.433 -0.63727 0.51035 0 7202
5.4357 -6.0497 1.3362 0 8031
5.4485 4.4389 1.1546 0 3438
5.4761 -0.21133 0.51128 0 7021
5.5323 -7.4006 0.86204 0 8082
5.6427 -1.7597 0.9711 0 7377
5.6857 9.0779 0.99933 0 2319
5.7221 -4.2481 -0.49834 0 7960
5.7547 0.1115 -0.26841 0 6779
5.767 0.61631 0.40556 0 6330
5.7891 3.5019 0.79122 0 4058
5.7924 5.3676 1.4879 0 3175
5.7951 2.2118 1.1687 0 4980
5.8293 -3.202 -1.0927 0 7735
5.8303 6.1718 1.3949 0 2939
5.8714 0.52608 0.96851 0 6433
5.8797 4.7902 0 0 3432
5.946 -1.1924 0.8523 0 7280
6.0247 4.2436 1.2107 0 3746
6.1613 0.44381 0.28807 0 6535
6.1736 -3.2978 0.98368 0 7718
6.2764 -2.2411 0.93664 0 7418
6.4061 3.1982 -0.16624 0 4438
6.4261 -0.94319 -0.30289 2 7239
6.448 -5.7875 0.80835 0 8017
6.4753 -3.5819 0.51745 0 7745
6.4792 -13.385 2.4432 0 8165
6.4977 0.014744 1.2242 0 6862
6.5205 -2.1161 0.80167 0 7387
6.6345 6.8224 1.5635 0 2984
6.6396 -6.8899 0.89269 0 8024
6.783 -1.1985 0.64263 0 7266
6.8295 -9.6457 1.1026 0 8099
6.8437 -0.18399 1.1248 2 6982
6.9065 3.8315 1.2976 0 4235
6.9463 8.0275 1.7441 0 2783
6.9776 -2.9346 -1.0638 0 7502
7.003 -0.73976 0.82351 0 7180
7.065 4.8574 -0.19906 0 3791
7.1008 0.59253 -0.83327 0 6455
7.1739 3.9553 0 0 4243
7.2303 6.2476 0.44562 0 3309
7.2406 4.1551 1.3715 0 4168
7.2825 -2.0662 0 0 7349
7.3722 2.6673 -0.18202 0 5069
7.407 -3.1395 -1.1306 0 7508
7.4275 2.3733 1.2811 0 5273
7.533 3.0023 1.3323 0 4907
7.5437 -8.3958 1.3199 0 8030
7.7281 -4.7246 -0.63339 0 7823
7.8657 0.91009 1.1128 0 6285
7.8994 10.849 2.5284 0 2516
7.9172 2.9177 0.1959 0 5038
8.1896 3.1815 0.81968 0 4946
8.2005 1.4356 -0.97358 0 5958
8.2269 -3.8608 0.63548 0 7594
8.2498 -2.6773 1.6342 0 7390
8.2575 -6.6273 1.7396 0 7994
8.3075 4.9306 1.5872 0 4102
8.3324 2.1394 -0.80259 0 5554
8.4656 -5.6245 1.6698 0 7877
8.4958 1.7409 0.80909 0 5813
8.5595 -1.3327 -0.40397 0 7249
8.6399 8.6309 2.0064 0 3034
8.7193 -4.1813 0.90217 0 7618
8.864 2.3884 -0.85646 0 5492
8.9215 -4.4734 1.6397 0 7662
8.9334 -6.2761 1.7937 0 7918
8.9473 5.8483 -0.24817 0 3887
8.9837 -0.0062718 1.2626 0 6874
9.021 0.77971 1.4876 1 6451
9.0469 -0.21794 -0.2101 0 6965
9.0628 3.6708 1.8423 0 4879
9.2477 -4.5665 1.6945 1 7647
9.383 -0.19982 0.65627 0 6955
9.4753 1.2912 -1.1183 0 6162
9.5189 1.1014 0.89399 0 6282
9.8122 -4.1267 2.0056 0 7507
9.9892 5.8864 1.9049 0 4116
10.088 -5.7706 1.9095 0 7770
10.254 -2.3372 -0.24418 0 7297
10.448 1.7653 0.74095 0 5998
10.492 3.1876 2.0659 0 5346
10.592 -2.1242 1.7749 0 7281
11.988 5.143 2.4577 0 4765
12.417 -5.3889 0.31427 1 7527
12.453 -5.7489 2.2535 0 7580
12.455 0.49807 1.4577 0 6689
-10.58 2.1487 -1.5173 1 10618
-9.3127 5.3269 -1.5078 2 12522
-6.9428 8.3834 -1.5298 2 15013
-6.2126 4.3372 -1.6105 2 13258
-0.74527 -0.47589 -0.18795 2 9609
2.1784 5.3674 -1.661 0 1929
3.2023 4.0187 -1.7363 0 2647
3.4866 2.2659 -1.6237 0 3902
3.7096 0.21194 -1.8663 1 6600
3.8334 9.8525 -1.9919 1 1893
4.1739 -2.1368 -1.7067 0 7683
4.2359 1.4643 -1.9955 2 5145
4.9214 -6.7836 -1.7814 0 8093
5.278 5.4924 -1.9941 2 2964
