VERSION .7
FIELDS x y z intensity index
SIZE 8 8 8 8 8
TYPE F F F F F
COUNT 1 1 1 1 1
WIDTH 461
HEIGHT 1
VIEWPOINT 0 0 0 1 0 0 0
POINTS 461
DATA ascii
-4.8957 -0.47485 -0.22938 2 10357
-4.0368 -0.24902 0.47297 1 10498
-3.938 -3.0098 0.46242 0 9884
-3.6669 2.9726 -0.33009 2 844
-3.5928 -0.59157 0.42581 1 10128
-3.4512 -0.22318 0.40444 0 10485
-3.4006 1.285 0.42511 0 12166
-3.2992 1.7913 -0.79797 2 12948
-3.2498 2.5099 0.38309 0 695
-3.166 3.0928 0 0 1486
-3.0929 1.9364 -0.25517 1 59
-3.0844 2.4693 0.64913 0 817
-3.0667 -2.8131 -0.19407 1 9688
-3.038 2.9855 -1.4392 0 1508
-3.0088 3.7116 0 0 2256
-2.8743 -3.0491 0.78949 2 9565
-2.8553 -1.872 0.56094 2 10030
-2.735 1.3345 -0.070654 1 12669
-2.6998 3.1223 -1.1836 0 2058
-2.5456 1.8292 -0.14618 2 459
-2.3793 3.4158 0.7843 0 2652
-2.3749 -2.0915 -0.14758 1 9738
-2.1272 -3.4904 0.19062 0 9322
-2.0866 -4.2687 0.44328 0 9300
-2.0163 -3.709 0.39386 1 9316
-1.9469 3.7305 0.79282 0 3157
-1.8442 -3.3215 0.7158 0 9319
-1.8352 4.3786 0.5552 0 3447
-1.4958 3.8463 -1.0804 0 3536
-1.2069 4.7978 -1.2951 0 3821
-1.1453 -3.2486 0.40281 0 9265
-0.80044 4.48 -0.5322 1 3917
-0.75082 4.2023 0.09911 0 3918
-0.73045 3.7197 -0.26507 1 3901
-0.56521 3.7909 -1.0034 0 3924
-0.50212 -3.1847 0.30078 0 9233
-0.43964 -3.0173 -0.070793 1 9230
-0.3696 4.3831 0.82874 0 3981
-0.18402 3.1818 -0.073996 0 4014
-0.076417 4.422 0.72662 0 4051
0.017874 -3.0119 0 1 9160
0.067478 4.6023 -0.64688 0 4104
0.14121 4.8726 0.80088 0 4121
0.27543 -4.1142 0.7769 0 9135
0.3238 4.6657 -0.2181 0 4173
0.4165 4.2175 0 0 4206
0.71966 -2.9366 0.49674 0 9112
0.73362 -4.0409 0.67475 0 9116
0.75839 3.3007 -0.47597 0 4447
1.0008 -3.9348 0.28391 0 9109
1.0347 -4.6868 0.78855 1 9115
1.1198 -2.9571 0 0 9098
1.1986 -3.6693 0.5425 0 9104
1.2824 -3.5738 0.088155 2 9100
1.2999 -4.8175 0.34892 0 9107
1.5301 -3.1303 -0.16248 1 9057
1.6162 3.1638 -1.2004 0 4802
1.7395 3.6916 -0.094746 0 4733
1.796 4.5062 0.45257 0 4641
1.8247 3.1138 -0.083791 0 4945
1.8626 4.2031 -0.97719 0 4698
1.8902 3.0016 0.49852 0 5032
1.9196 -4.0156 0.10333 0 9072
1.9873 3.6044 0.48133 0 4879
2.0622 -2.7869 -0.32345 0 8885
2.0877 -2.7041 0.15932 0 8870
2.1167 -3.6136 0.68804 0 9019
2.1432 3.3824 -0.28 0 5037
2.1913 -2.9441 0.3424 0 8882
2.4874 4.1056 0.33567 0 4985
2.5324 -4.1553 0.6839 0 9006
2.5943 1.5551 -1.2634 0 6556
2.6507 2.0754 -0.88132 1 6067
2.6741 3.0958 -1.3823 0 5456
2.7769 1.6745 -0.8489 2 6549
2.7874 -1.5311 -0.2967 0 8747
2.8413 -2.1078 0.66655 0 8791
2.9328 2.2831 0.43464 0 6078
3.0152 1.0969 -0.14963 0 7273
3.1001 -0.73568 0.29725 0 8708
3.1714 0.023249 -0.52106 0 8430
3.1779 -2.3302 0.74246 0 8788
3.2243 0.20059 -0.15065 0 8313
3.5465 -2.5691 0.20422 0 8785
3.5568 0.24185 0.50102 0 8303
3.6573 0.99093 0.62254 1 7600
3.6591 1.3427 -0.54779 1 7259
3.6993 2.9839 -0.11034 0 6010
3.7894 -0.87695 0.73283 0 8707
3.8156 -2.4402 0.52965 0 8763
3.8623 0.38755 0.73135 0 8212
4.0814 -1.6333 0.51408 0 8722
4.3112 -2.4342 -0.9328 0 8751
4.3239 1.3625 0.63713 0 7444
4.6371 -0.58744 -0.54661 1 8674
4.743 -1.3753 0.5775 0 8712
4.7722 -0.94493 -0.45387 0 8703
4.818 0.077371 0.67722 0 8411
4.9265 0.12126 0.3446 0 8389
-1.0236 0.9327 -0.82125 1 1233
0.60355 2.7751 0 0 4441
1.7337 1.7452 0 0 5675
2.8399 -0.33462 -0.26679 0 8668
-14.778 -2.5234 -0.34807 0 10100
-13.302 -2.3503 -0.31362 0 10083
-12.572 -1.2194 -0.29325 0 10358
-12.441 7.5224 0 0 13240
-12.436 0.89142 1.1632 0 11065
-12.384 -0.22697 -0.8661 1 10678
-12.187 0.23613 1.1372 0 10857
-12.133 1.7592 0 0 11358
-12.121 0.65645 0.28183 1 11000
-12.076 -0.60753 1.1281 0 10543
-12.07 -0.53331 -1.1272 0 10558
-11.995 2.3121 0 0 11532
-11.913 7.2546 0 1 13259
-11.843 6.3451 0 2 12905
-11.826 1.8201 -0.27779 0 11391
-11.802 0.32965 2.2244 0 10898
-11.662 3.909 0 0 11990
-11.54 1.6054 -0.54335 1 11333
-11.505 2.7748 -0.27477 0 11672
-11.503 9.4858 0.6953 1 910
-11.448 6.8297 0.30949 1 13205
-11.426 3.504 0.27746 0 11883
-11.368 4.9853 0.28819 1 12442
-11.327 1.0428 1.3302 0 11144
-11.326 1.1405 -0.53086 0 11177
-11.288 -8.3707 -0.65534 0 9914
-11.284 -8.6241 -0.32973 0 9883
-11.282 5.7535 0.29403 1 12783
-11.263 4.9818 0.86121 1 12462
-11.211 -1.9446 -1.3306 0 10090
-11.156 -1.3105 -0.78546 1 10277
-11.155 -9.3769 1.3596 0 9794
-11.021 1.0767 2.0863 0 11172
-10.8 -1.9082 -1.2825 0 10082
-10.768 -8.6855 0.32119 1 9835
-10.662 -9.4498 0.99626 1 9732
-10.639 -9.5393 2.0083 0 9716
-10.634 3.5641 0.26038 0 11991
-10.536 -7.2141 1.4932 0 9991
-10.533 6.2045 -0.28382 0 13163
-10.511 9.1401 1.6289 0 1091
-10.472 -7.3082 0.59552 1 9970
-10.466 -9.4367 1.6479 0 9711
-10.45 -0.6135 1.7198 0 10513
-10.448 -1.4089 1.4816 0 10229
-10.446 0.65724 1.4711 0 11033
-10.435 7.9663 0.918 1 654
-10.414 2.6061 1.2554 0 11699
-10.359 4.2233 0.25973 0 12297
-10.345 8.2821 0 2 807
-10.338 6.4296 0 0 45
-10.312 6.6252 -0.28456 0 139
-10.286 -0.30888 0.71961 0 10633
-10.267 5.8469 -1.3817 1 13062
-10.265 2.287 1.7279 0 11623
-10.26 5.7648 -0.27324 2 13028
-10.256 0.11098 1.6851 1 10819
-10.239 2.0942 -0.48736 1 11573
-10.215 4.0277 0 2 12235
-10.203 0.22619 -0.95214 0 10863
-10.193 8.7578 0.312 1 1044
-10.152 8.4733 2.4914 0 958
-10.085 7.6081 1.1786 0 616
-10.064 -9.5634 0.64742 1 9655
-10.034 8.3749 0.6095 2 949
-10.012 -9.9703 1.6524 0 9623
-9.9896 8.3378 0 0 945
-9.9793 -1.6718 1.6624 1 10118
-9.9207 -9.3684 2.2418 0 9661
-9.8625 8.2844 1.5062 0 974
-9.8541 0.59235 -0.69031 2 11015
-9.845 2.6785 0.4758 1 11767
-9.8256 7.1912 0 0 514
-9.7876 -9.7978 0.64583 1 9617
-9.737 3.0757 -0.23708 0 11916
-9.6898 -10.101 1.3059 0 9580
-9.6618 0.29857 -0.67594 2 10902
-9.6259 -6.1892 1.3383 0 10039
-9.6047 0.075435 1.8097 0 10806
-9.5574 -9.6816 0.31585 1 9607
-9.4237 10.708 1.3308 0 2007
-9.3903 4.4168 0.24093 0 12588
-9.3815 -10.303 0.32351 1 9537
-9.3669 -1.5423 1.7886 0 10131
-9.3012 4.605 -0.484 0 12705
-9.2569 2.5185 -0.22273 2 11764
-9.2518 -1.7181 0 0 10068
-9.1921 -11.351 -1.0214 0 9463
-9.1844 5.8601 -1.0164 0 116
-9.1609 1.9021 -1.0941 1 11580
-9.1465 10.959 0 0 2167
-9.1454 -1.7247 1.0883 2 10066
-9.1141 4.1901 -0.46779 2 12536
-9.1089 -10.004 0.63093 1 9538
-9.0685 5.3759 -0.73719 0 13179
-9.0572 5.8885 -0.25082 0 176
-9.0475 5.3294 -1.2279 1 13159
-8.9253 6.9807 0.26307 0 729
-8.8074 -7.0183 -0.52518 0 9849
-8.7996 10.917 2.3037 0 2284
-8.7944 10.981 0.65608 1 2293
-8.7738 10.512 0.3179 1 2168
-8.7667 8.084 0.55611 1 1285
-8.7024 10.426 1.267 1 2172
-8.6822 10.649 0 0 2237
-8.6597 9.2313 2.3848 1 1798
-8.6526 -8.1709 1.3917 0 9660
-8.6273 4.622 -0.22723 2 12903
-8.6189 10.261 1.8833 0 2155
-8.5434 -11.618 -1.0084 0 9399
-8.5407 -0.13268 -0.19831 0 10692
-8.5403 4.2617 -0.89046 1 12720
-8.4773 3.401 -0.42596 2 12261
-8.4497 10.239 0.61909 1 2206
-8.4401 -9.8856 0.30179 1 9499
-8.3639 0.9426 -0.39251 0 11225
-8.3483 -8.0254 1.6275 0 9649
-8.3443 6.5616 -0.24645 0 744
-8.3306 1.0096 -1.1794 1 11258
-8.1948 -5.6111 -0.6945 2 9987
-7.6618 6.3949 -1.4026 2 939
-7.5998 -10.271 -0.29663 0 9407
-7.5834 -11.894 -0.3275 0 9324
-7.5793 -10.494 0.30053 1 9389
-7.4332 -10.227 -0.88409 1 9390
-7.3988 -10.18 0.29218 1 9393
-7.3623 -12.907 -1.3863 0 9321
-7.3139 2.9818 -1.11 2 12290
-7.3133 -10.379 -0.29478 0 9374
-7.1473 -0.83961 0.50322 0 10282
-7.1329 4.3676 1.3741 0 13284
-7.1207 -10.49 -0.59124 2 9349
-7.0963 2.7982 -0.89204 1 12230
-7.0138 4.4185 0.96939 0 90
-6.9725 5.1031 0.80612 0 520
-6.963 -9.3484 1.3631 0 9414
-6.8754 0.65476 0.32208 0 11154
-6.6807 3.907 0.90505 0 13152
-6.2526 -0.20524 0 0 10618
-6.1759 -4.9816 0.55484 0 9836
-6.1675 1.4125 1.0395 0 11639
-6.0591 5.3287 0.7528 0 1127
-6.0294 3.1843 1.1203 1 12879
-5.8778 3.3025 0.78843 0 13037
-5.8678 1.9111 0.57574 0 11954
-5.7154 0.81038 0.94841 0 11350
-5.6509 -0.76203 -0.39873 1 10222
-5.5908 -0.36154 0.13007 0 10481
-5.5593 2.5359 -0.14186 0 12521
-5.5467 3.2881 0.75405 0 13190
-5.5309 4.4026 1.1614 2 798
-5.4559 2.6811 1.1454 0 12699
-5.4483 -0.21121 0.76629 1 10595
-5.4287 2.6677 0.70736 0 12695
-5.3239 3.283 0.43737 0 13298
-5.256 6.8053 1.4127 0 2394
-5.2271 3.1606 0.14182 0 13242
-5.12 8.9076 1.688 0 3008
-5.1109 -6.7431 1.5942 0 9426
-5.1089 2.5662 0.53339 0 12749
-5.0889 0.54205 -0.71925 0 11198
-5.009 -3.9459 0.74569 0 9861
-5.006 -0.89802 0.47449 0 10080
-5.0051 -6.8062 0.98798 0 9405
-4.9165 0.97706 -0.11638 0 11552
-4.7796 -3.7436 1.1439 0 9868
-4.776 6.3288 -0.55442 0 2448
-4.7265 -6.0846 1.2658 0 9440
-4.6577 6.1721 1.2704 0 2461
-4.654 4.1422 1.1739 0 1172
-4.6498 7.5227 1.0342 0 2882
-4.6471 12.59 2.5284 0 3581
-4.598 3.126 0 0 308
-4.5077 5.9044 1.2204 0 2429
-4.3124 -3.3559 0.50979 0 9872
-4.2079 9.4201 -0.23954 0 3364
-4.0908 -5.875 0.66789 0 9367
-4.0842 -8.6675 1.5742 0 9297
-4.0474 6.4646 1.0719 0 2857
-3.9591 -4.0106 0.52577 0 9609
-3.9185 6.7733 1.2856 0 2996
-3.9077 -5.2809 0.6129 0 9409
-3.8137 -5.3092 1.2316 0 9385
-3.7528 -4.6625 0.84116 0 9462
-3.636 -4.7368 0.41756 0 9431
-3.5769 8.5341 -0.64706 0 3443
-3.5143 -12.321 2.105 0 9256
-3.4917 7.2942 0.75447 0 3269
-3.4791 4.1184 0.63047 1 2134
-3.3934 -4.2417 -0.25332 0 9455
-3.2436 3.818 0.35032 0 2113
-3.1349 -4.8237 0.94516 0 9331
-3.0953 5.5679 -0.44546 0 3054
-3.0516 -4.1986 0.85275 0 9395
-3.0028 -10.769 1.8368 0 9254
-2.9733 -5.8254 1.0745 0 9303
-2.8955 5.4686 0.72362 0 3132
-2.8751 -6.7536 0.6848 1 9292
-2.8367 7.685 0.19019 0 3580
-2.8131 4.4931 0.37069 0 2855
-2.5401 -5.3543 0.55289 0 9298
-2.4275 9.5441 0 0 3814
-1.9478 -8.2524 0.79107 0 9244
-1.9068 -9.4141 1.5781 0 9237
-1.7758 7.7165 1.1128 0 3853
-1.6593 5.8757 -0.56961 0 3766
-1.6119 -6.3424 0.4576 0 9248
-1.3857 7.6324 0.90714 0 3916
-1.2757 -4.9542 0.47728 1 9249
-1.2619 -8.4736 0.59907 0 9231
-1.1952 4.9292 0 0 3833
-1.0454 -6.8877 1.1446 0 9232
-1.016 -5.3413 0.89328 0 9235
-0.8682 -7.2702 1.2029 0 9225
-0.8443 -9.1012 0.85275 0 9216
-0.83169 7.5093 -0.70486 0 3942
-0.7898 6.305 -0.14753 0 3929
-0.69707 8.0159 1.3219 0 3972
-0.65455 5.7718 0.54193 2 3939
-0.60374 -7.1747 -0.16716 0 9212
-0.38999 -9.0044 0.84086 0 9194
-0.30496 5.8385 0.13574 0 4018
-0.2603 5.5819 0.65346 0 4023
-0.20387 5.0105 0.11643 0 4032
-0.073946 -5.0435 0 0 9171
-0.058432 -6.8323 0.31863 0 9168
-0.019459 -6.9685 1.1449 1 9165
-2.7818e-07 -6.364 0 0 9163
0.062347 7.1443 0.4996 0 4091
0.069009 7.9077 1.2992 0 4093
0.24709 7.776 0.18063 0 4123
0.27692 -6.806 0.79656 0 9144
0.31018 5.1006 0 0 4163
0.42396 5.0278 -0.59005 1 4183
0.43786 5.025 -1.3205 0 4187
0.4556 6.8234 -0.31891 0 4170
0.64328 -5.6636 0 0 9119
0.99878 10.43 1.9741 0 4202
1.1361 -5.0744 0 0 9114
1.1412 -8.5075 -0.19929 0 9117
1.2618 -5.0871 0.48898 0 9111
1.365 -5.7834 0.97629 0 9113
1.413 6.3999 -0.4583 0 4444
1.5568 -5.2793 0.51351 0 9106
1.6239 6.3848 1.2413 0 4470
1.6339 5.985 0 0 4496
1.6855 13.807 2.2853 0 4249
1.6911 8.471 1.4192 0 4424
1.7314 5.2477 0.90788 0 4557
1.7682 -5.6876 0.97856 1 9105
1.85 6.4094 0.62238 0 4515
1.8868 5.8346 -1.1553 0 4551
1.978 7.5883 -0.18207 0 4476
2.1613 6.3056 -0.46611 0 4568
2.3122 9.5503 1.6144 0 4458
2.3732 4.6118 0.12042 0 4810
2.4379 5.0997 0.7944 0 4745
2.6475 5.223 -0.27307 0 4794
2.7403 7.847 1.566 0 4577
2.7493 -6.5084 1.1608 0 9084
2.7815 8.0416 0.79385 0 4571
2.8152 6.0649 -0.78193 0 4722
2.8445 -4.2943 -0.60236 0 8955
3.0995 4.2149 0.85956 0 5236
3.1227 4.0932 0.24009 0 5282
3.1248 4.7788 0.26627 0 5081
3.1531 6.1723 -0.48467 0 4801
3.2447 -8.8811 1.5534 0 9099
3.4075 6.9189 0.71954 0 4769
3.4153 5.906 0.6365 0 4930
3.4203 6.7916 -0.88925 1 4786
3.6929 3.9394 0.88712 0 5593
3.9364 3.8954 -0.25826 0 5703
4.0925 -7.2217 1.3638 0 9034
4.1492 -4.3026 0.69899 0 8833
4.1645 -2.8355 -0.47003 0 8772
4.1795 -3.4111 -0.37724 0 8821
4.244 2.7846 0.47356 0 6407
4.2734 -3.9683 0.95813 0 8831
4.2737 2.7679 0.83654 0 6431
4.4169 6.4218 -0.72716 0 5140
4.4334 -3.0951 -0.75989 0 8778
4.5331 7.0664 1.3793 0 5059
4.6699 2.3907 0.24466 0 6825
4.6783 -3.5989 0.55066 0 8804
4.7269 2.9836 -0.5215 0 6467
4.7954 -1.6362 -0.95464 1 8716
4.9385 -1.2478 0.83687 0 8709
5.0273 -1.4103 -1.1098 1 8711
5.1169 -0.75286 0 0 8679
5.1313 4.2374 1.0933 0 5974
5.2479 -0.49607 0.99316 0 8644
5.29 2.2782 0.2686 0 7068
5.3421 -3.243 0.73082 0 8757
5.3564 1.7063 -0.52447 0 7426
5.3783 -0.19533 0.88421 0 8554
5.4565 4.2234 0.64374 0 6090
5.5004 3.8643 -0.15607 0 6286
5.5918 -3.0932 -1.0499 0 8748
5.6136 -2.8751 0.73756 0 8742
5.7369 0.024034 0.67089 0 8445
5.8096 5.7813 -0.57312 0 5693
5.8376 -2.9462 1.232 0 8741
5.991 -1.7963 0.87902 0 8714
6.1157 -0.045899 0.85953 0 8484
6.1593 -0.34867 0.57556 1 8590
6.181 6.4817 1.6875 0 5623
6.3234 6.5184 -0.21085 0 5642
6.3313 0.3019 0.59135 0 8343
6.3769 -3.4078 -0.50559 0 8745
6.3981 0.66005 0.60008 0 8197
6.4699 1.184 0.92439 0 7960
6.4983 -3.5459 1.2162 0 8746
6.6517 2.4197 -0.16433 0 7275
6.6709 0.96129 -0.94721 1 8084
6.685 5.3922 -0.80129 0 6007
6.7081 -12.963 0.33888 1 9044
6.7146 1.8621 0 0 7571
6.774 -3.9268 0.18179 0 8753
6.8395 6.0235 1.4973 0 5884
6.9182 -8.2506 1.0045 0 8842
6.9617 -3.5136 0.72753 0 8739
7.0022 -3.3609 -0.54312 0 8736
7.027 -13.007 1.3793 0 9041
7.0421 3.6581 0.74035 0 6802
7.2089 8.3457 1.8119 0 5461
7.2094 3.9569 0.57507 0 6714
7.3198 -12.833 1.3783 0 9031
7.4297 -2.8505 0.9306 0 8718
7.5974 4.1992 -1.22 0 6697
7.6229 2.044 0.92293 0 7609
7.6311 1.5331 -0.36298 0 7880
7.6578 -3.1704 1.5616 0 8730
7.6817 -3.877 1.4137 0 8740
7.7312 2.4124 0.75558 0 7454
7.8629 -0.24023 1.2924 0 8541
7.8711 0.23911 0.55066 0 8376
7.9754 0.24228 1.3109 0 8380
8.0558 -4.0411 1.054 0 8738
8.0595 4.7645 1.5382 0 6587
8.0726 -12.416 0.69065 1 8979
8.2313 -2.6491 1.0112 0 8715
8.277 1.8638 1.3939 0 7794
8.3828 3.186 1.4734 0 7225
8.632 -3.1674 1.5106 0 8717
8.833 4.491 1.628 0 6839
9.5332 -6.5716 1.9023 0 8775
9.803 4.7707 2.0541 0 6903
10.978 -8.445 2.2755 0 8805
11.37 4.6263 2.0168 0 7142
11.574 0.75454 1.9056 0 8310
11.802 4.9611 2.1034 0 7102
-4.5819 9.9435 -1.5387 2 3317
-0.74189 -0.47391 -0.18712 2 10042
1.5842 7.3835 -1.9769 0 4438
2.5916 4.7004 -1.9536 0 4878
4.1976 -1.6942 -1.5295 0 8724
4.4437 1.3163 -1.566 0 7505
