VERSION .7
FIELDS x y z intensity index
SIZE 8 8 8 8 8
TYPE F F F F F
COUNT 1 1 1 1 1
WIDTH 564
HEIGHT 1
VIEWPOINT 0 0 0 1 0 0 0
POINTS 564
DATA ascii
-4.812 -0.62326 0.3393 0 10643
-4.7234 0.81248 0.22351 0 11581
-4.6363 0.67223 -0.10877 1 11492
-4.2874 -0.4794 0.70879 1 10710
-4.1939 1.0387 0.50526 1 11801
-4.101 2.5338 -0.67749 2 13798
-4.0216 -0.41488 0.093864 2 10740
-3.986 -0.56374 -0.18773 1 10596
-3.9701 -0.33966 0.65464 0 10807
-3.8718 -2.5298 0.21568 0 10447
-3.816 1.3686 0 0 12181
-3.7439 -3.0676 0.33846 0 10316
-3.626 0.10128 0.59596 0 11155
-3.6005 0.90238 0.3463 0 11810
-3.592 0.55286 0.51077 0 11522
-3.5433 -3.3215 -0.11276 0 10219
-3.4981 -2.388 0.79801 0 10428
-3.4032 -3.6039 0.93391 0 10193
-3.3816 -3.3604 0.44477 0 10212
-3.345 0.20108 0.55056 0 11249
-3.3223 -2.4736 0.38643 0 10384
-3.3181 2.7714 0.20161 0 14854
-3.2233 2.4475 -1.3675 0 14538
-3.1825 2.6894 0.78504 0 14899
-3.1387 1.6152 0.4128 1 13141
-3.0706 2.7513 -0.095721 2 15101
-3.0569 -2.5496 0.65399 2 10306
-3.0143 -0.020518 0.42364 0 11051
-2.9374 2.5266 0.27093 0 14958
-2.8398 1.2679 0 0 12706
-2.8267 -3.4462 0.20786 0 10131
-2.5827 -2.523 0.68025 0 10215
-2.4314 -3.7642 0.84429 1 9853
-2.3719 -2.9979 0.72024 0 10096
-2.1306 -3.8374 0.72111 0 9765
-1.9411 3.1064 0.42836 0 16954
-1.493 2.7475 0.58915 0 17304
-1.0757 -3.9922 0.67928 0 9431
-1.0656 -4.4182 0.31781 0 9427
-1.0609 3.4613 0.33776 1 18185
-0.96039 3.4167 -0.4988 1 18256
-0.95102 -3.1659 0.3084 0 9440
-0.77246 3.8588 0.55307 0 262
-0.76572 3.3273 0.15922 0 152
-0.71109 -4.7074 0.22202 0 9403
-0.09856 -3.9208 0 0 9333
-0.078147 -4.7629 0.55706 0 9322
0.027967 3.142 -0.82256 2 1262
0.12515 -4.5953 0.21438 0 9300
0.31624 3.0088 0.3538 0 1742
0.58891 -3.2698 -0.15494 0 9265
0.70787 -3.9941 0.37844 0 9266
0.73191 4.0842 -0.58314 0 1983
0.81818 4.3509 -0.20646 0 2016
0.86013 -3.0952 0.14981 0 9251
0.95785 4.6457 0.44254 0 2072
1.0048 4.6671 0.78434 1 2096
1.0681 -3.9751 0.38402 0 9253
1.3349 -3.2435 -0.24526 0 9234
1.3373 3.8905 -0.4811 1 2381
1.3384 3.5874 -1.0024 0 2446
1.3432 3.8336 0.28405 0 2395
1.3838 -4.1696 -0.20487 0 9244
1.407 4.2098 0.41411 0 2364
1.5043 4.5012 -1.0088 1 2365
1.5475 -3.1954 0.58331 0 9226
1.5867 3.9017 0 0 2509
1.5872 2.6817 -0.51198 0 2866
1.7121 3.1169 -0.16584 0 2770
1.7227 3.5667 0.65075 0 2659
1.8512 3.9754 -0.30665 0 2619
1.9042 3.0556 0.3359 0 2941
1.9063 3.8302 -1.4456 0 2680
1.9954 2.7026 0.31342 0 3195
2.1211 -3.2662 0.27233 0 9180
2.2514 -2.2799 -0.3747 0 9045
2.2644 4.391 0.46093 0 2709
2.311 3.0009 -1.2798 0 3266
2.3927 2.7603 0.60017 0 3478
2.4137 -1.911 0.14357 0 8998
2.472 2.7999 0.086716 0 3501
2.5546 -2.8401 -0.44672 1 9062
2.8223 2.4464 0.086716 0 4000
2.8286 -3.6009 0.64354 0 9120
2.8389 -2.711 0.55168 0 9040
2.8985 1.3093 -0.14832 0 5333
2.9036 -3.2463 -0.30456 0 9065
3.0515 -0.087368 -0.28481 1 7711
3.0731 -2.42 0.64265 2 8995
3.1689 0.7124 0 0 6415
3.1784 -3.7241 -0.34236 0 9078
3.2001 -2.2449 -0.36469 0 8889
3.2417 2.7942 -1.1204 0 4016
3.3595 2.796 0.10148 1 4083
3.3645 2.1385 0.65497 2 4645
3.3828 0.060819 0.31565 2 7533
3.3847 2.5915 0.70036 1 4273
3.3984 -0.45465 -0.40095 1 7963
3.4954 2.9257 0.42526 0 4072
3.6169 -0.27132 -0.084209 0 7849
3.6551 -1.9763 -0.58397 0 8587
3.6934 1.1165 -1.1064 1 6038
3.7051 1.9123 -0.19444 0 5043
3.7265 0.099534 0.34779 0 7493
3.8813 -0.84412 0 0 8079
3.9735 1.0885 0.28809 0 6172
4.0897 -2.0605 0.86281 1 8521
4.1295 0.14565 -0.3855 0 7441
4.1636 0.14685 0.68447 0 7450
4.2373 -0.46705 -0.49852 0 7924
4.3984 -1.769 0.22108 0 8286
4.804 0.25429 0.22435 0 7370
4.895 -0.26682 -0.80541 2 7795
4.8974 -0.095745 0.80477 0 7685
-2.2979 1.5623 0.39052 0 14156
-0.44685 2.2692 -0.66318 0 271
1.4969 1.1256 0.3077 1 4313
-12.728 3.9496 -0.3094 0 11979
-12.627 4.8624 -0.63102 0 12316
-12.523 3.4119 -1.2109 1 11867
-12.488 5.1882 -0.63065 0 12506
-12.444 3.4323 -0.2997 2 11880
-12.377 8.0529 -0.6886 0 13995
-12.358 7.6353 -0.67742 0 13802
-12.34 7.7256 -1.018 2 13851
-12.313 -0.26223 -1.4403 1 11001
-12.291 -2.2159 -1.4605 0 10479
-12.088 -1.9254 -0.57083 1 10535
-12.076 5.1834 -0.61285 0 12591
-12.029 4.7531 -0.90446 1 12379
-11.666 -9.0587 2.4266 0 10356
-11.501 9.5484 1.7481 0 14838
-11.394 -1.713 1.0749 1 10570
-11.302 8.5816 -0.66176 0 14532
-11.28 -2.0337 1.0694 0 10480
-11.188 -1.3817 1.0517 2 10668
-11.147 2.6905 -0.26623 0 11785
-11.137 9.3018 -0.67667 1 14847
-11.114 9.2828 -1.0126 1 14846
-11.099 4.842 -0.56468 1 12638
-11.016 -1.4268 0 0 10640
-10.995 -1.4572 2.0896 1 10636
-10.966 6.9112 -0.90642 1 13877
-10.918 3.388 -0.5331 0 11978
-10.882 2.1311 -0.25745 0 11658
-10.854 9.0661 1.3194 1 14857
-10.85 -9.1045 2.3271 0 10302
-10.726 9.7187 2.378 0 15155
-10.643 0.88811 0 2 11317
-10.605 -0.16659 0 0 11023
-10.524 -2.0227 1.7606 1 10467
-10.48 -8.3358 2.2 0 10338
-10.461 6.6314 -1.1556 0 13901
-10.449 10.333 1.7186 0 15487
-10.39 7.8895 -0.91228 1 14531
-10.36 2.7914 -0.2491 2 11863
-10.321 10.569 -0.68888 0 15607
-10.302 0.79811 0.48186 1 11300
-10.203 10.268 2.7273 0 15559
-10.199 2.7139 -1.4833 2 11849
-10.17 5.4187 2.1711 2 13264
-10.104 -7.9398 1.5028 0 10346
-10.055 8.5454 -0.61537 0 14906
-10.039 5.5763 -0.80304 0 13393
-10.006 -1.7139 0.23568 0 10496
-9.9669 1.4167 0.46947 1 11487
-9.9552 5.1956 -1.3132 2 13174
-9.8043 11.086 1.7306 0 15965
-9.7808 2.849 -0.23652 0 11921
-9.7734 5.9236 -1.0662 0 13723
-9.7713 3.0004 -1.4365 1 11964
-9.7494 2.9621 1.6741 1 11961
-9.7434 1.1239 0 2 11410
-9.7349 4.9345 0.50897 1 13090
-9.702 -11.416 0.69866 1 10157
-9.6836 5.6405 0.78364 0 13585
-9.6782 5.1568 1.0231 2 13257
-9.6352 5.4624 -1.0333 0 13470
-9.6303 8.9365 2.1585 1 15243
-9.6022 10.424 2.6703 1 15835
-9.5913 -11.354 1.7381 0 10152
-9.5237 10.708 -0.66829 0 15937
-9.4602 5.5836 1.2846 0 13639
-9.4334 10.795 2.701 0 16008
-9.4116 1.1156 0.22004 0 11420
-9.3829 9.2302 0.92037 1 15463
-9.3532 7.7211 -0.8481 0 14807
-9.3323 11.533 1.3841 0 16238
-9.3058 3.866 1.6556 1 12520
-9.2692 10.063 0.63801 1 15824
-9.2686 9.6046 -0.62245 0 15652
-9.2539 9.5326 -0.92902 1 15630
-9.2313 10.939 1.3354 2 16118
-9.1683 10.065 1.2702 2 15864
-9.1313 3.3669 0.68054 1 12232
-9.0848 10.037 1.5831 0 15885
-9.0689 4.433 1.9019 1 12989
-8.9994 8.1545 -0.84922 1 15141
-8.9749 9.6852 1.8557 0 15809
-8.9689 1.6736 1.499 0 11633
-8.8125 4.664 1.8786 0 13241
-8.792 10.865 1.9643 0 16242
-8.7869 10.793 1.2984 1 16220
-8.5362 1.5713 -0.20152 2 11619
-8.535 10.995 1.6277 1 16355
-8.4844 8.5917 -0.5631 0 15566
-8.4427 -1.1685 -0.596 0 10606
-8.4258 -7.1938 -0.25722 2 10290
-8.4024 11.018 0.96892 1 16403
-8.3529 3.6702 1.499 2 12676
-8.3168 1.2059 0.19511 0 11494
-8.313 7.4066 -0.51922 0 15079
-8.2799 5.3524 0.45978 0 13978
-8.2696 10.781 1.5889 0 16386
-8.1352 9.4714 -0.87307 2 16053
-8.078 3.9486 1.4772 2 12987
-8.045 7.3358 -0.76132 0 15162
-8.0305 7.8038 -1.3095 2 15402
-7.9639 -8.4334 -0.54093 0 10191
-7.8792 2.5692 0.96916 0 12034
-7.824 -1.062 0.73663 0 10622
-7.8038 -8.5612 1.628 0 10178
-7.7725 -5.6803 1.5816 0 10394
-7.7103 -5.5649 -0.66492 2 10398
-7.6406 3.019 1.5479 0 12394
-7.5569 -7.6418 1.0027 0 10211
-7.4859 0.035275 0.1738 2 11082
-7.4683 -11.343 0.63335 1 9870
-7.4593 -6.1119 -0.22389 2 10314
-7.2173 -9.1223 1.9111 0 10095
-6.6497 -5.3829 1.4056 0 10325
-6.5575 6.3016 -0.84848 0 15363
-6.535 0.71686 0.15263 0 11396
-6.5019 0.54255 1.0719 0 11321
-6.4527 -5.0107 1.1482 0 10355
-6.2817 0.029601 1.0321 0 11084
-6.2796 10.733 -1.4542 1 17110
-6.2642 -7.7246 0.2309 0 10117
-6.2252 0.51946 -0.5828 0 11313
-5.9512 -0.16207 0.69621 0 10992
-5.9124 2.4975 -0.75057 0 12547
-5.7863 -4.6026 0.86463 0 10337
-5.7262 0.10995 0.94095 0 11126
-5.4668 1.1043 0.91631 0 11682
-5.4511 2.1737 -0.54751 0 12398
-5.4479 -5.5729 1.0953 0 10210
-5.2878 -0.60715 0.12357 0 10696
-5.2249 -5.9725 -0.37006 0 10167
-5.1206 3.5233 0.72687 0 14196
-5.0075 0.47688 0.46929 0 11356
-4.6437 3.3788 0.67158 0 14393
-4.6182 -3.174 0.65532 1 10424
-4.3441 4.5268 0 0 15676
-4.2991 -6.2482 1.2461 1 9921
-4.2514 5.6091 1.3261 1 16433
-3.623 7.759 1.4069 0 17621
-3.5779 -6.1449 1.1682 0 9782
-3.5222 -9.5576 1.4315 0 9478
-3.3123 -4.4993 0.91793 0 10012
-3.3002 -7.0581 1.2801 1 9615
-3.2604 11.222 -1.3666 0 18226
-3.0506 4.4956 0.63534 0 16725
-2.9502 6.6733 -0.68071 0 17721
-2.946 -6.6512 0.67867 0 9579
-2.7961 -4.3823 0.24242 0 9836
-2.7708 -6.4091 0.81654 0 9564
-2.7241 -4.774 0.64278 0 9775
-2.4519 -6.3117 1.1125 0 9500
-2.3652 6.6681 1.1624 0 18038
-2.3295 -5.3884 -0.13629 0 9561
-2.3162 -5.9622 -0.1485 0 9497
-2.1614 -13.272 -0.31219 2 9412
-2.0865 -13.309 -0.62822 0 9406
-2.0847 -13.298 0 2 9407
-2.0652 -5.9171 0.29226 0 9464
-2.0565 -10.045 1.9319 0 9420
-2.0363 -8.222 1.3916 0 9430
-1.9429 -6.597 0.80423 0 9436
-1.9269 -7.9892 0.76673 0 9428
-1.7089 -10.3 1.221 0 9415
-1.6132 -9.7237 1.8571 0 9416
-1.5614 -5.3016 1.0413 0 9437
-1.5514 4.9626 0.48508 0 18169
-1.5397 -6.9051 0.49471 0 9421
-1.5265 7.4104 0 0 231
-1.4924 6.393 0.30615 0 141
-1.4551 -7.4374 1.2451 0 9418
-1.4096 -8.8103 1.4659 0 9410
-1.2677 -9.5135 0.44757 0 9394
-1.2525 -10.582 0 0 9385
-1.1784 -4.8857 0.58772 0 9429
-1.1078 6.5219 1.0869 0 369
-1.0518 6.0891 0.86844 0 355
-0.9807 -8.2859 0.77843 0 9386
-0.91344 -9.3495 1.5434 0 9375
-0.83942 -5.4538 0.90658 0 9405
-0.81225 -6.0957 1.0103 0 9395
-0.74794 -5.4958 0.38785 0 9397
-0.70199 -6.7699 0.15802 0 9378
-0.68953 -8.0102 0.18666 0 9369
-0.6378 -6.1509 0.72315 0 9379
-0.46317 -6.7248 0.62888 0 9358
-0.40221 -6.1201 -0.28602 0 9356
-0.11718 -6.1029 0 0 9326
-0.084128 -6.342 0.44351 0 9319
-0.080646 -10.746 1.7655 0 9316
-0.020366 7.7797 1.2782 0 1204
0.035674 -5.1099 0 0 9309
0.060976 10.275 0.95864 0 1246
0.062612 -6.4058 1.0525 0 9307
0.26845 9.2076 0.21386 0 1372
0.4038 -5.9384 0.55531 1 9281
0.41006 -6.5911 0.46179 0 9282
0.44157 -8.2331 1.5534 0 9288
0.60544 -6.2195 0.58299 0 9277
0.7564 6.3059 0.29618 0 1799
0.76718 -5.2079 0.6156 0 9269
0.80323 -5.0429 0.23813 0 9267
0.82104 6.5359 0.92578 0 1824
0.84261 5.1287 0.4849 0 1944
0.93152 -6.0733 -0.14265 0 9268
0.97101 5.5982 0.93349 0 1971
1.0304 5.2279 -1.3949 0 2048
1.0439 5.6432 -0.67112 0 2003
1.0736 -13.984 2.6425 0 9280
1.1321 7.0289 -0.83257 0 1926
1.1523 -12.988 2.1423 0 9278
1.1631 -9.3918 1.1067 0 9272
1.2214 7.3147 -0.17218 0 1950
1.2301 5.0654 -0.12102 0 2168
1.2856 5.4257 0.26003 2 2153
1.3052 -5.6354 0.67646 0 9260
1.3064 9.3193 1.773 0 1869
1.6051 -13.958 2.3083 0 9276
1.6829 5.8192 0.56515 0 2277
1.7076 -6.4996 0.78588 0 9255
1.7824 -6.0716 0.88932 0 9249
1.8108 -6.1014 0.44505 0 9247
1.9571 -9.8661 0.93839 1 9263
2.0407 5.018 -0.63349 1 2505
2.0815 -7.8447 0.56754 0 9254
2.1038 -8.2056 1.596 0 9257
2.1191 -10.851 0.51559 1 9264
2.1381 5.5756 0.27848 0 2464
2.1828 -6.5125 -0.32031 0 9243
2.2119 -4.7413 0.85956 0 9228
2.468 -7.024 1.4027 0 9241
2.5816 -10.574 2.0507 0 9259
2.647 6.0993 1.0924 0 2561
2.6647 -7.5837 1.3206 0 9240
2.7414 5.2018 0 0 2728
2.7699 5.0741 0.53933 2 2762
2.7813 4.6713 -0.76406 0 2876
2.8374 -4.13 0.82325 0 9168
2.8679 5.4418 0.57389 0 2730
2.9706 -4.8781 0.93835 2 9189
2.9795 -10.15 0.98688 0 9248
3.0077 4.0264 0.58772 0 3216
3.0213 -7.8584 1.3832 1 9238
3.0382 4.78 -0.26413 0 2967
3.1096 4.99 0.41114 0 2940
3.1204 6.9693 0 0 2584
3.1504 -3.8932 0.46725 1 9099
3.2002 6.0314 1.2864 0 2739
3.2083 -6.0747 1.1287 0 9205
3.2432 -8.5065 1.7152 0 9239
3.2521 -10.19 1.7574 0 9246
3.2521 -3.9945 0.84627 0 9096
3.309 -6.447 0.84744 0 9215
3.402 4.469 0.1304 1 3245
3.4028 9.194 1.8471 0 2439
3.4287 6.6005 -0.34686 0 2715
3.4788 5.0731 0.57389 0 3094
3.565 -8.258 1.0519 0 9230
3.6082 3.9473 1.0076 0 3567
3.6206 -3.8623 -0.61908 1 9052
3.6239 -5.2394 1.0467 0 9165
3.6375 6.3131 0.16916 0 2834
3.6653 7.3642 -0.96196 0 2678
3.7295 -8.71 0.66255 0 9231
3.7584 7.288 1.3472 0 2712
3.7595 3.8364 0.62814 0 3714
4.0219 -4.7391 0.72687 0 9081
4.056 -4.982 0.44923 0 9094
4.1127 -7.5715 1.6234 0 9202
4.1986 -3.3649 0.12492 0 9006
4.2019 -4.8938 0.14976 0 9076
4.2077 -6.276 0.17543 0 9173
4.2529 -5.6787 0.49611 0 9142
4.2626 -2.9527 0.36259 0 8876
4.3065 -5.1634 0.47016 0 9085
4.3073 4.9954 0 0 3463
4.4041 5.4541 0.81979 0 3351
4.4733 -3.6705 0.13434 0 9019
4.484 7.1955 1.3929 0 2944
4.5035 5.3179 1.1449 0 3438
4.5528 -4.5038 1.0522 2 9043
4.6084 6.1311 0.17807 0 3223
4.6643 -4.0134 0.28695 0 9034
4.7163 -4.3765 0.60027 0 9039
4.7216 -1.7101 0.35115 0 8223
4.7491 7.765 0.42447 0 2916
4.7552 -2.6077 0.89101 0 8607
4.7632 -3.575 0.27773 0 8959
4.8282 4.6511 1.2631 0 3823
4.8316 -2.91 -0.3944 1 8707
4.9009 -5.228 1.1773 0 9054
4.9075 6.8119 -0.78326 0 3160
4.9725 5.4398 0 0 3560
4.9828 -3.3673 -0.56107 0 8839
4.9996 -2.6093 0.6595 0 8558
5.0385 5.1415 0.67161 1 3712
5.0425 2.9054 1.0965 0 4835
5.0542 -11.168 2.3096 0 9229
5.0547 7.1895 -0.61455 1 3126
5.0816 5.1855 -0.50769 0 3705
5.0984 0.048054 -0.11838 2 7568
5.1762 -0.63097 0.60979 0 7950
5.1941 6.7035 1.3933 0 3282
5.2224 -4.2851 1.1099 0 9020
5.2248 -3.9429 0.61067 0 8965
5.2296 -6.6984 0.99379 0 9123
5.2371 -0.87074 -0.4953 0 8015
5.2813 -5.4101 -0.88414 0 9047
5.2833 -0.30371 -0.74374 2 7802
5.3061 -2.7905 -0.84255 0 8560
5.323 0.85832 -0.88583 0 6752
5.3374 -6.0371 1.5182 0 9070
5.3811 4.9447 0 0 3896
5.4369 4.4723 -0.82328 0 4104
5.4374 -8.0129 1.8245 0 9171
5.4776 -2.7994 1.0107 0 8535
5.4849 0.73963 -0.12849 0 6907
5.4886 3.7426 0.61978 1 4518
5.6052 -1.0328 0.93641 2 8045
5.7013 5.6203 -0.18587 0 3772
5.7088 -3.9074 0.64541 0 8856
5.7258 -0.73247 -0.13402 1 7958
5.768 -1.1316 -0.68738 1 8053
5.799 1.0758 0 1 6636
5.801 4.9423 0.71099 0 4035
5.8382 1.673 1.1442 0 6118
5.8871 1.4319 0.70852 0 6323
5.8943 -4.2121 0.8472 0 8913
6.0084 -3.8352 0.16549 0 8775
6.0176 -8.085 1.8989 0 9148
6.0515 2.6075 0.61476 0 5430
6.0796 10.843 0.2886 1 2793
6.0825 8.9233 1.7742 0 3087
6.1539 -6.7583 -0.85275 0 9057
6.1746 0.3809 0.14363 0 7326
6.2044 4.8057 -0.73217 0 4242
6.218 -4.8058 1.1045 0 8982
6.3682 -5.575 0.1965 0 9035
6.3779 1.0284 0.14999 1 6763
6.3864 2.0936 -0.62702 0 5909
6.4162 0.18931 0.29935 0 7478
6.4209 -2.7586 0.81724 0 8344
6.4419 -1.3024 -0.15259 0 8062
6.4519 6.9796 -0.66464 0 3583
6.4556 -1.9049 0.62795 0 8153
6.4569 2.9399 -0.49611 0 5315
6.5023 -0.22252 0.45495 0 7738
6.5035 -11.49 2.1692 0 9201
6.523 5.524 0.99959 0 4048
6.5457 0.061695 0 0 7569
6.5719 -0.013764 -0.45956 2 7618
6.5756 -8.126 1.4691 0 9102
6.5773 7.3666 1.6225 0 3524
6.5844 -1.5335 -0.63074 0 8096
6.5912 3.723 0.17575 0 4867
6.6387 -4.105 1.2824 0 8738
6.646 -2.7624 -1.0115 1 8310
6.6569 -4.4413 0.55959 0 8828
6.6741 4.0563 0.72864 0 4732
6.6796 -5.6467 0.40788 0 9030
6.6878 -2.6682 0.5035 0 8279
6.739 2.2981 1.0007 0 5854
6.7695 8.3329 1.7639 0 3365
6.8394 3.0896 -0.87763 2 5330
6.8412 5.5915 1.4516 0 4128
6.873 5.3563 -0.20231 0 4231
6.8874 7.4926 0.71166 0 3574
6.9014 -0.25548 -0.16034 0 7748
6.9165 -0.15696 1.3035 0 7698
6.9311 6.8709 0.91053 0 3765
6.961 -3.7106 1.296 0 8581
6.9703 4.9025 -0.19785 0 4451
7.0739 6.9734 1.8715 0 3779
7.0772 -5.6376 0.42195 0 9002
7.0899 2.7414 -0.53154 0 5624
7.1592 0.77648 -1.0121 0 7050
7.1843 3.6543 -0.56363 0 5068
7.2698 3.1324 1.3005 0 5433
7.2952 -4.251 -0.59042 0 8670
7.3238 -2.6064 1.2772 0 8213
7.3328 0.21635 -0.17032 0 7476
7.4272 1.024 -1.2318 0 6882
7.4376 0.37287 1.4031 0 7387
7.4794 -5.1809 0.84885 0 8877
7.4803 1.9331 1.4557 0 6253
7.5042 -3.9465 1.1916 0 8567
7.5506 8.8126 0.26943 0 3453
7.5702 -4.2621 -1.4273 0 8630
7.6507 5.2838 0.4336 0 4494
7.7718 4.6292 0 0 4767
7.8477 3.0345 1.5853 0 5635
7.9488 -8.7295 2.2244 0 9058
7.9614 -3.558 1.2256 0 8383
8.0098 -6.4955 1.943 0 9014
8.0818 -1.7828 0.77212 0 8084
8.1772 -2.9102 0.20152 0 8211
8.2031 0.45863 -0.57451 2 7354
8.2217 1.7956 0.78512 0 6449
8.2628 -7.4923 0.52015 1 9036
8.2875 -2.8132 1.649 0 8195
8.3399 2.4957 1.4302 0 6057
8.3755 0.71215 -0.19516 0 7198
8.4614 5.175 -1.1599 0 4710
8.4944 3.7748 1.5272 0 5368
8.5447 -3.0679 1.2759 0 8217
8.5578 -6.8586 2.0663 0 9007
8.5777 0.30254 1.6171 0 7452
8.6434 3.0303 1.5048 0 5806
8.7608 0.36106 1.0254 0 7422
8.8235 -0.37907 0.82395 0 7764
8.8784 2.4322 -0.21373 0 6169
9.0684 0.18837 1.4902 0 7522
9.0912 0.80017 1.2826 0 7187
9.1038 -9.4339 2.1539 0 9049
9.1229 -3.4272 0.45447 0 8242
9.14 1.8895 -0.65264 0 6513
9.1707 2.8003 1.1213 0 6023
9.3744 -2.7022 1.3711 0 8145
9.395 0.30674 0 0 7461
9.4358 -1.6536 1.5739 0 8032
9.4393 -2.1671 1.3611 0 8095
9.5275 -1.9835 0.90793 0 8071
9.7237 7.8994 2.0583 0 4143
9.8649 0.78158 -0.69198 0 7227
9.8923 4.7141 -0.51102 0 5212
9.9437 5.6557 1.6077 0 4856
10.098 1.5127 1.9237 0 6835
10.23 -0.32149 0.7157 0 7727
10.293 3.7117 2.0615 0 5761
10.352 -0.47553 -0.2406 0 7773
10.57 -5.8733 1.9866 0 8622
10.702 -2.228 1.796 0 8072
10.842 -5.035 1.1153 0 8428
10.939 -1.5276 -0.77234 0 7972
11.043 -1.1178 1.8235 0 7907
11.151 2.1675 1.8663 0 6593
11.22 -7.9206 2.2564 0 8900
11.296 3.3803 0.27375 0 6053
11.489 -2.1523 1.0906 0 8048
12.988 3.7218 2.2198 0 6116
-8.1665 -8.4981 -1.9364 0 10200
-3.707 10.958 -1.6258 0 18073
1.7092 8.9348 -1.9336 0 2031
1.9218 10.046 -1.9271 0 2032
2.5557 5.7079 -1.7933 0 2586
3.5944 9.984 -1.9993 0 2420
3.6177 1.5089 -1.6373 0 5494
5.9149 2.208 -1.8104 0 5693
