VERSION .7
FIELDS x y z intensity index
SIZE 8 8 8 8 8
TYPE F F F F F
COUNT 1 1 1 1 1
WIDTH 617
HEIGHT 1
VIEWPOINT 0 0 0 1 0 0 0
POINTS 617
DATA ascii
-3.9667 1.0288 0.77208 0 11193
-3.7232 -2.8302 0.10858 0 9424
-3.6218 0.33279 -0.084441 1 10655
-3.5146 0.24022 0.57877 0 10569
-3.2196 2.6324 0.78356 0 13551
-3.2066 -2.3659 0.092518 0 9451
-3.1808 2.5102 0 0 13423
-3.0943 -2.8744 0.69388 0 9217
-3.0173 -3.73 0.90391 0 8868
-2.711 -3.7313 0.75775 0 8739
-2.7027 2.8233 -0.27331 1 14400
-2.6415 3.8049 0.76099 0 15368
-2.5652 -2.0448 0.15298 0 9376
-2.486 -4.1885 0.22714 1 8568
-2.3413 3.5225 -0.3946 1 15487
-2.2247 3.7275 -1.4668 0 218
-2.0979 -2.1755 0.42476 0 9112
-2.0569 2.9083 -1.2036 0 15300
-1.9454 -2.662 -0.076549 0 8740
-1.911 4.3555 -1.3639 0 793
-1.8635 -3.6244 0.66956 0 8526
-1.7486 -3.1299 0.2507 1 8546
-1.5776 -3.1137 0.65766 0 8522
-1.576 -3.7955 0.77431 0 8481
-1.5076 4.4953 0.66636 2 1129
-1.4328 -4.525 0.3319 0 8429
-1.3865 4.0543 0.099481 0 1107
-1.2942 4.6013 0.90058 0 1239
-1.1907 3.9214 -0.38234 1 1198
-1.1851 -4.2021 0 0 8428
-1.1637 -4.4738 0.87096 0 8427
-1.1516 -3.6019 0.71247 0 8430
-0.96095 2.8955 0.28462 0 1137
-0.9585 4.5484 0.54359 0 1326
-0.93884 3.2273 0.39305 0 1230
-0.91784 4.2309 0.20189 0 1314
-0.63374 -4.9539 0.46595 0 8395
-0.61809 4.6447 0.43715 0 1406
-0.48023 4.6392 0.87873 0 1427
-0.47572 -4.0865 0.38383 0 8389
-0.44081 -3.1565 0.073996 0 8402
-0.35092 -3.6713 0 2 8377
-0.24348 4.4813 0.63073 0 1456
-0.029267 -3.4222 -0.15959 0 8325
-0.009214 -3.2997 0.30784 0 8322
0.024156 3.6421 -0.3398 0 1502
0.10952 -4.1825 0.68739 0 8306
0.16835 -4.1555 -0.096557 0 8299
0.24254 -3.7918 0.35448 0 8292
0.3942 4.805 -0.90836 1 1569
0.39887 -3.3351 0.63285 0 8283
0.49097 4.9363 -0.11517 0 1593
0.55285 3.6948 -0.61379 0 1641
0.57103 3.4087 -1.258 0 1671
0.68538 -3.1044 -0.07381 0 8265
0.70169 -4.8099 0.79861 1 8281
0.70513 -4.0865 -0.096278 0 8275
0.74218 -3.0631 0.51781 0 8261
0.85845 3.7243 0.44695 0 1769
0.91143 -4.4284 0.52872 1 8270
0.99143 -4.2006 0 0 8262
1.0379 -4.0779 0.79282 0 8259
1.1169 -3.5252 0.345 0 8252
1.1519 -3.9909 0.29047 0 8254
1.2723 3.9605 0.29088 0 1851
1.4348 3.9831 -0.29605 0 1890
1.4534 -3.9759 0.6955 2 8246
1.488 -3.492 0.17702 0 8237
1.6485 3.2678 0.34147 0 2134
1.6507 4.5825 0.80023 0 1891
1.6732 -2.8957 0.15596 0 8219
1.7003 3.394 -0.99376 0 2127
1.7461 3.0133 -0.91171 0 2293
1.8586 -2.9894 0.66321 0 8207
1.9112 -3.4422 0.64686 0 8223
2.0244 2.6183 0.54375 0 2689
2.0303 3.0605 0.60341 0 2471
2.1978 4.4863 -1.1837 1 2110
2.4216 -3.3136 0.3829 0 8160
2.459 3.4183 -0.097764 2 2572
2.4936 -3.8353 0.75159 0 8193
2.5184 -3.4663 0.70393 0 8163
2.5841 1.7136 -0.14459 0 3963
2.613 -4.0468 0.44941 0 8195
2.9243 -1.9547 0.24596 0 7931
3.0549 2.4624 -1.0272 1 3569
3.0866 1.1916 -1.0324 0 5019
3.0953 2.5689 -0.56532 1 3499
3.1091 -0.36689 -0.36611 0 7266
3.1175 -1.9428 -1.1462 0 7873
3.1609 2.1506 -1.0008 1 3920
3.1662 -0.35571 0.29725 2 7257
3.2764 1.2433 0.66025 0 5051
3.3206 2.2711 0.0934 0 3904
3.3367 -1.0745 0.24512 0 7411
3.3941 0.032583 0.63952 0 6861
3.7076 3.301 0.58052 0 3373
3.7521 2.1436 -0.40315 0 4253
3.7814 0.8501 -0.18074 0 5797
3.8532 -2.4012 0.8554 0 7876
3.8753 -1.1494 0.28265 0 7393
3.901 -2.3551 0.10579 0 7846
3.9107 0.37793 0.74024 0 6466
3.923 0.77393 0.37305 1 5943
4.0648 1.0869 0.69128 0 5582
4.1165 0.79943 -0.19556 0 5955
4.1847 0.49085 -0.19649 0 6355
4.4157 -1.2262 0.53592 0 7382
-0.4602 -1.7898 0 1 8426
-14.386 -1.695 1.6939 0 9760
-14.217 -1.2564 1.6691 0 9868
-14.202 -0.46866 2.6773 0 10115
-14.181 -1.877 2.3501 0 9712
-14.172 -0.056894 1.3222 0 10245
-14.061 -1.7365 0.32894 1 9736
-14.052 -0.056411 1.6433 0 10246
-14.04 0.0245 2.3067 1 10273
-14.016 -2.4789 0.99529 1 9575
-14.008 -0.90833 0.98161 1 9964
-13.957 -1.6001 0.65515 1 9770
-13.928 -0.38175 2.2891 0 10141
-13.778 -0.8572 0.64378 2 9975
-13.709 -0.93217 0.96083 1 9952
-13.68 -1.3293 1.6073 0 9835
-13.668 0.46297 0 0 10409
-13.655 -0.92851 1.2769 0 9953
-13.648 -2.3329 0.96822 1 9589
-13.611 -1.1644 0.31715 1 9878
-13.555 0.3739 -0.31483 0 10383
-13.412 0.64659 0 0 10473
-13.406 -1.0645 2.2094 0 9908
-13.315 -0.36494 2.5096 0 10142
-13.293 -2.1911 0.31279 1 9605
-13.251 -1.5989 0.93334 1 9747
-13.211 -0.32056 2.1711 1 10155
-13.164 -1.8969 0.62021 1 9667
-13.119 -1.2747 -0.30601 0 9831
-13.06 -1.1954 0.30448 1 9854
-12.969 -0.72965 0 2 9999
-12.823 -1.5109 0 0 9757
-12.774 -2.0301 0.90446 1 9626
-12.683 7.3134 -0.68273 0 12485
-12.64 -2.0834 2.1046 0 9608
-12.632 -1.7101 0.89135 2 9696
-12.486 0.45346 -1.1656 2 10419
-12.422 -1.9008 1.7661 0 9645
-12.362 1.3189 -1.1598 0 10709
-12.272 7.365 -0.66745 0 12587
-12.249 -0.65268 -0.2848 1 10011
-12.201 0.021292 -1.1383 2 10263
-12.189 7.2691 -0.3295 0 12572
-12.129 -2.1452 1.731 0 9578
-12.109 3.6698 -0.88479 2 11322
-11.979 -2.1187 1.135 1 9576
-11.908 6.2863 -0.62794 0 12261
-11.825 -2.0914 1.4043 0 9577
-11.747 0.70202 0 0 10523
-11.715 8.2396 -0.66791 0 13067
-11.637 4.2768 -0.86693 1 11556
-11.609 8.5211 -0.67155 0 13189
-11.587 -0.78786 -0.54158 1 9949
-11.582 9.0328 -0.68496 0 13382
-11.564 -8.6886 0.33581 2 9436
-11.519 4.2337 -1.145 1 11555
-11.515 2.0802 -0.81824 1 10961
-11.453 6.5619 -0.61555 0 12468
-11.438 0.087838 0 0 10294
-11.339 4.1314 -1.4112 1 11541
-11.329 3.1461 1.375 0 11251
-11.225 -0.96039 -0.78783 2 9874
-11.19 0.40642 0.5222 1 10425
-11.171 -0.52879 0 0 10041
-11.141 -9.7636 0.69083 1 9281
-11.045 -9.3407 2.7254 0 9318
-10.988 -9.077 0.33089 1 9339
-10.901 -0.55031 1.534 0 10032
-10.779 6.012 -1.1515 0 12398
-10.765 1.7494 -1.0175 1 10902
-10.701 7.6667 -0.92051 0 13116
-10.683 7.4693 -1.2161 2 13048
-10.668 1.6362 -0.50329 0 10870
-10.642 -10.234 1.0324 1 9179
-10.639 -0.56689 0.49686 1 10014
-10.622 -10.578 1.3986 0 9144
-10.612 9.15 -0.9798 0 13707
-10.556 -0.012898 1.7344 1 10260
-10.5 4.3514 2.1415 0 11762
-10.459 9.9597 -0.6735 0 14072
-10.446 -0.52734 -0.24283 0 10025
-10.427 9.9295 2.0236 0 14085
-10.403 8.5054 0.93962 1 13543
-10.288 -10.852 -1.0456 0 9083
-10.27 8.4506 -0.62021 0 13557
-10.236 3.4607 -1.0081 0 11446
-10.235 6.3879 -0.84363 0 12695
-10.181 -10.933 2.0996 0 9068
-10.144 -8.1389 -0.60652 0 9367
-10.134 -10.758 1.7283 0 9080
-10.079 9.2716 2.5803 0 13953
-10.066 4.6595 -1.0348 1 11962
-10.039 -7.6314 -0.29278 0 9423
-10.037 9.015 -0.94339 0 13846
-10.022 -1.4728 1.9085 1 9661
-9.9663 5.8636 -1.3522 0 12533
-9.9651 -0.2418 1.1657 0 10153
-9.8773 9.2949 1.2654 2 14038
-9.8148 9.2944 -0.63037 0 14049
-9.8074 -7.6376 -0.57968 1 9398
-9.7922 7.8647 -1.1717 2 13475
-9.7321 -8.5288 0.90488 1 9282
-9.6448 -10.117 2.6336 2 9098
-9.642 -7.6476 -0.28572 2 9380
-9.6311 -7.018 -0.27667 0 9459
-9.591 11.127 -0.68506 0 14711
-9.5872 2.1623 -0.68724 0 11088
-9.532 7.7051 -0.57158 0 13497
-9.5182 -10.221 0.65133 1 9066
-9.5039 -9.9105 1.9298 0 9104
-9.437 9.8031 1.5913 0 14389
-9.428 -8.758 1.2005 1 9214
-9.4141 -10.716 2.0046 0 8990
-9.3655 9.2874 -0.61509 0 14216
-9.3008 8.9598 -0.90307 1 14115
-9.2644 -10.362 2.6188 0 9017
-9.2316 -8.5276 2.0648 0 9225
-9.2283 0.95528 1.5243 2 10705
-9.1508 9.0745 1.8112 0 14229
-9.1477 0.28109 -1.2862 0 10391
-9.1299 4.3547 -0.70733 1 12023
-9.1206 9.207 1.5155 0 14288
-9.0663 9.1522 -0.90084 2 14279
-9.0534 -11.949 -1.0483 0 8778
-9.0411 -7.7821 -0.5563 2 9296
-9.0329 0.59205 -1.0586 1 10545
-9.0295 -11.844 2.0932 0 8790
-8.9771 5.4239 -0.97852 0 12603
-8.9675 9.0524 -0.59422 0 14280
-8.9651 -7.1465 -0.26618 2 9374
-8.9458 -9.4964 2.4581 2 9082
-8.9147 8.9428 1.1781 0 14269
-8.9056 0.37792 0.20695 0 10450
-8.8645 -1.6206 1.6978 1 9569
-8.8599 3.0559 -1.096 2 11469
-8.8447 -1.6409 1.2642 0 9559
-8.8406 -0.91047 -0.82915 1 9808
-8.8312 -0.44582 1.666 2 10034
-8.8164 -0.44508 0.20495 2 10027
-8.726 10.181 1.568 0 14735
-8.7242 -9.8125 2.1572 0 9008
-8.7007 -10.198 0.93739 2 8948
-8.697 -10.072 1.5562 1 8964
-8.6653 -9.9228 -0.9212 1 8975
-8.6587 9.811 1.839 0 14654
-8.6099 -7.199 -0.26056 0 9327
-8.5925 -8.8081 2.0216 0 9125
-8.5886 -9.894 -0.61099 0 8966
-8.4083 8.5355 1.9685 1 14310
-8.3922 7.5856 -0.79104 0 13867
-8.3879 10.197 2.4877 0 14862
-8.3551 7.9121 1.6172 0 14062
-8.3122 7.9156 -1.0709 0 14070
-8.2527 9.0283 1.7191 2 14556
-8.2444 8.1244 1.9017 1 14209
-8.1031 -11.436 -0.98008 0 8708
-8.0985 7.6691 -1.0406 0 14047
-8.0916 8.8057 -0.83624 0 14530
-8.0874 -11.338 2.624 0 8719
-8.0557 8.9185 -1.4054 2 14580
-7.984 -8.6219 -0.27282 0 9055
-7.9758 -0.17125 -1.1212 1 10156
-7.9576 -10.072 1.5011 0 8830
-7.9539 -1.098 0.93896 1 9689
-7.9504 -9.0498 2.2696 2 8992
-7.9459 7.3092 -1.2626 2 13931
-7.944 -10.113 1.1998 0 8819
-7.8837 0.26704 1.296 2 10415
-7.8599 -7.3013 -0.75016 0 9209
-7.6464 3.1158 1.1604 0 11728
-7.3588 1.6152 1.0588 0 11075
-7.3257 -9.7818 1.1402 0 8768
-7.2553 -10.239 0.87754 1 8710
-7.2242 -9.6463 1.6937 0 8769
-7.2194 6.2979 0.89381 0 13751
-7.2125 4.983 -0.40882 1 13012
-7.1651 -11.996 2.2956 0 8574
-7.1547 0.90892 -0.33633 0 10783
-7.1387 8.6785 1.8462 2 14860
-7.0246 11.622 2.2311 0 186
-7.0144 3.0499 0.7136 0 11850
-6.9824 -4.9677 1.6145 0 9485
-6.951 11.647 1.2654 0 222
-6.9151 -9.2335 0.80666 0 8767
-6.8754 3.1827 -0.886 1 11961
-6.8329 -9.5194 2.2078 0 8729
-6.8083 -9.4261 1.6342 0 8734
-6.7954 -9.5904 1.3745 0 8712
-6.7215 0.73493 -0.95027 0 10718
-6.6654 4.6326 1.5294 0 13044
-6.624 -10.263 1.4284 0 8626
-6.4969 -11.63 2.1886 0 8547
-6.136 -0.2561 0.57296 2 10071
-6.0513 -6.768 1.2759 0 9015
-6.0359 -5.1953 1.5005 0 9301
-5.9721 1.095 0.56646 0 10971
-5.9558 4.1148 1.1893 0 13023
-5.9005 -10.146 0.54736 1 8559
-5.877 -8.1366 0.46807 1 8731
-5.8691 3.2734 0.78588 0 12409
-5.6817 -10.382 0.82759 0 8541
-5.5877 -10.21 0.54279 1 8540
-5.5596 -5.1645 0.88739 0 9215
-5.5568 1.4931 -0.40236 0 11217
-5.5477 5.6969 0.9299 0 14346
-5.5232 3.2729 0.59897 0 12560
-5.521 5.4103 1.4564 0 14191
-5.4847 -5.4924 1.2752 0 9139
-5.4741 -5.9802 1.332 1 9044
-5.2468 0.0696 0.48954 1 10321
-5.113 4.3576 0 0 13673
-5.1064 8.2842 1.5988 0 135
-5.1008 7.3009 0.62279 0 15341
-5.0878 8.6374 0.93524 0 257
-5.0236 1.6672 -0.37013 1 11424
-4.9439 1.2666 0.35687 0 11182
-4.7864 -10.982 1.9681 0 8493
-4.7303 3.187 -0.26599 0 12940
-4.6775 -9.0975 0.95437 0 8525
-4.5965 8.8298 1.6355 0 520
-4.5878 -5.5025 0.3341 0 8916
-4.5009 4.7846 0.30633 0 14462
-4.3409 6.0276 0.17246 0 15245
-4.2703 5.1018 0.6207 0 14801
-4.1971 -4.5325 0.28807 0 9057
-4.1379 -6.9718 1.332 0 8571
-4.1363 -8.9232 0.91759 0 8505
-4.0007 -3.1528 0.83687 0 9389
-3.9785 -6.3645 -0.52485 0 8593
-3.9019 -3.6246 0.74847 0 9216
-3.7805 -6.957 1.3009 0 8539
-3.7657 -4.2609 0.13202 0 8996
-3.7502 5.4302 0.61569 0 15382
-3.6795 -4.8266 0.4244 0 8787
-3.6507 5.4575 1.0788 0 15480
-3.6335 -3.789 0.86248 0 9105
-3.5405 -8.3208 0.84364 0 8488
-3.468 6.2979 1.1812 0 417
-3.4378 -6.8832 -0.17863 0 8518
-3.3866 -8.088 1.4406 0 8484
-3.382 4.6074 1.0768 0 15196
-3.2905 -5.0036 1.1283 0 8643
-3.2576 6.5797 -0.34239 0 599
-3.2557 4.4111 0.12729 1 15166
-3.2517 9.7977 -0.23967 0 1134
-3.2391 7.9373 0.7998 0 900
-3.1664 8.3796 1.4717 0 1005
-3.1252 -7.8452 1.3874 0 8458
-3.1246 -4.2242 0.61444 0 8756
-3.0885 8.2429 0.61553 0 1014
-3.0767 -6.1601 1.1313 0 8520
-3.0228 -7.2797 1.295 0 8480
-2.9257 6.0847 -0.47211 0 641
-2.9225 -5.0927 0.41059 0 8554
-2.8672 4.5092 0.62489 0 15637
-2.8018 4.9845 0 0 364
-2.7967 -6.9606 1.2324 0 8463
-2.7743 5.9467 1.0781 1 694
-2.7645 8.3983 0.20528 0 1144
-2.7533 8.1249 -0.40006 0 1115
-2.7136 -4.4824 0.86086 0 8580
-2.7034 4.5895 0.87513 0 260
-2.6341 7.4923 -0.18439 0 1077
-2.4056 -12.072 2.0223 0 8418
-2.3991 7.0796 0.87415 0 1120
-2.3133 5.4842 0.55531 0 849
-2.1423 -10.587 1.7746 0 8419
-2.1124 -6.4743 -0.15811 0 8431
-1.9938 -5.7124 0.14047 0 8434
-1.9548 5.0425 -0.2522 0 966
-1.9398 6.3885 1.2579 0 1202
-1.747 6.211 0.60194 0 1238
-1.7305 -10.792 1.7956 0 8409
-1.6652 -7.061 1.0196 0 8424
-1.5776 -7.6785 1.2879 0 8420
-1.5647 7.6496 0 0 1331
-1.5505 7.5803 0.90481 0 1334
-1.3233 -14.265 2.3537 0 8375
-1.2635 -9.2479 1.7586 0 8400
-1.2555 -7.157 0.50811 0 8411
-1.247 -8.074 1.1482 0 8407
-1.1624 -4.9288 0.47245 0 8423
-1.1368 -12.254 1.7296 0 8374
-1.0022 -7.834 0.18337 0 8394
-0.96383 -8.9744 0.63116 0 8384
-0.94645 -9.5838 1.1262 0 8379
-0.90584 -6.762 0.6365 0 8398
-0.88246 -5.5969 0.9309 0 8408
-0.86476 -5.814 0.68738 0 8404
-0.63287 -8.7646 1.6556 0 8369
-0.62447 5.1378 -1.3549 0 1417
-0.61994 -5.6334 0.52874 0 8386
-0.50579 6.5139 -0.76404 0 1440
-0.45631 -7.4821 -0.17403 0 8364
-0.38696 -6.345 1.0444 0 8365
-0.35955 -6.9068 -0.16057 0 8360
-0.2168 -5.7748 0.53914 0 8349
-0.15432 -6.7482 0 0 8334
-0.070641 -8.2598 0.77063 0 8326
0.041391 6.2406 -0.4364 0 1503
0.064223 -7.076 -0.33 0 8315
0.10546 -5.12 0.59887 0 8309
0.15739 -5.3662 -0.12464 0 8304
0.18165 10.006 1.6442 0 1514
0.21041 7.8262 1.2863 1 1521
0.40195 -7.6954 -0.17891 0 8296
0.44195 -5.252 -0.12237 1 8285
0.47322 -5.6237 0.65997 0 8287
0.5699 -6.7726 0.63408 1 8286
0.6475 -6.0092 0 0 8284
0.65451 -12.531 2.0615 0 8297
0.73035 9.5792 1.81 0 1559
0.79492 -10.929 0.51102 1 8290
0.82705 -5.0505 0.47746 0 8277
0.93709 -6.5515 0.15366 0 8282
0.96088 -12.236 0.85828 1 8288
0.98965 -6.5207 0.61532 0 8279
1.2036 -7.775 1.4823 0 8278
1.2176 -6.0008 0.42817 0 8271
1.2237 -8.2073 0 0 8280
1.3403 -4.8528 0.82714 0 8256
1.406 -6.3683 0.60844 1 8266
1.51 -6.6572 0.63687 0 8264
1.5434 -9.0863 1.5142 0 8276
1.5921 8.59 1.646 0 1699
1.7006 8.1122 -1.1649 0 1743
1.7052 -5.1711 0.89458 0 8251
1.7705 -7.1275 0.68517 0 8260
1.7823 6.29 -0.60993 0 1813
1.785 9.4741 1.5839 0 1704
1.9771 -5.4588 1.0939 0 8247
2.0997 6.603 0.81027 0 1847
2.1158 -6.8099 0.66529 1 8253
2.1529 5.388 0.95327 0 1957
2.3032 -9.7583 0.93542 0 8263
2.3435 -4.6555 0.85632 0 8229
2.3721 -6.1029 0.92021 0 8243
2.3815 -6.0769 0.30438 0 8242
2.4018 7.2625 -0.53489 0 1862
2.4784 -7.0338 0.69576 0 8248
2.4927 -8.7334 1.7112 0 8255
2.5294 -9.9377 1.6848 0 8258
2.5394 -7.3415 0.72474 1 8249
2.5448 6.8208 0.16902 0 1907
2.5449 8.4293 1.659 0 1835
2.5771 4.8611 0.25658 0 2183
2.5932 5.4933 0.71038 0 2078
2.6889 4.2633 -0.82811 1 2392
2.7893 6.8657 1.2175 0 1967
2.8079 -10.406 1.2605 0 8257
2.8181 -13.123 2.2052 0 8267
2.8491 5.4545 1.1594 0 2171
2.901 5.3945 0.4283 0 2198
2.9156 9.361 1.6108 0 1842
2.9566 -4.3801 0.12269 0 8180
2.9852 -5.6049 1.1965 0 8227
2.9875 -6.2494 0.81004 0 8231
3.0082 11.361 1.0965 0 1797
3.1124 -5.6428 0.14962 0 8224
3.1737 8.0776 1.2197 0 1942
3.216 3.8957 0.35325 0 2787
3.3705 -6.1563 1.3224 0 8226
3.4436 4.8492 0.69551 0 2557
3.4586 -6.2293 0.66473 1 8222
3.4618 -4.3552 0.91404 0 8126
3.5985 6.1286 1.339 0 2313
3.6516 -8.1746 0.83528 1 8233
3.6989 -3.8356 0.12371 0 8083
3.7349 -9.066 1.1466 0 8240
3.8329 -6.0912 0.67142 0 8202
3.8636 3.5416 0.48898 0 3310
3.9872 -9.3569 1.9163 0 8238
4.1085 -4.8429 1.0434 0 8095
4.1192 -3.5481 0.76406 0 8075
4.2628 9.832 1.7606 0 2012
4.2646 5.4154 0.80609 0 2714
4.2934 5.8619 0 0 2596
4.387 -6.7943 1.3287 1 8197
4.388 4.6483 -0.59637 0 3037
4.4341 -5.9229 1.2156 0 8154
4.4704 -2.8228 0.99612 0 7885
4.5693 -3.0543 0.51276 0 7932
4.624 5.4718 1.177 1 2828
4.6468 -4.99 1.1203 0 8086
4.6527 -7.443 1.6538 0 8205
4.6696 3.9224 0.71317 0 3483
4.7064 -4.6851 0.77658 0 8080
4.7087 -2.1113 0.24065 1 7577
4.7449 3.4728 0 0 3759
4.7617 3.8381 0 0 3564
4.7911 6.3464 0.9299 0 2646
4.9663 -3.2796 0.69598 0 7919
5.0039 0.74874 0.3538 0 6190
5.0185 2.0552 -0.63418 1 4908
5.0302 -5.1854 -0.50518 0 8082
5.0504 -7.768 -0.6479 0 8191
5.074 2.0449 -0.12701 0 4942
5.1011 -2.6895 0.94743 0 7737
5.1343 -5.5446 1.2415 0 8087
5.1378 3.9225 0 0 3675
5.1764 -3.1251 -0.84979 0 7844
5.1816 -4.0352 0.61272 0 8040
5.2171 0.67295 -0.24531 0 6293
5.2491 -9.5166 1.7856 0 8225
5.2808 0.31096 -0.61862 1 6630
5.3284 -0.04092 0.12371 0 6948
5.3459 -3.6851 0.30279 0 7958
5.3476 0.94293 0.25323 0 6046
5.3775 1.8118 -0.13174 0 5235
5.3916 1.5277 -0.65532 0 5490
5.4102 -4.367 1.1423 0 8059
5.4134 2.8868 0.429 0 4399
5.4667 -1.9552 1.0939 0 7440
5.4948 3.6204 -0.15277 0 3977
5.5071 -6.3396 -0.78345 0 8091
5.6902 -0.87478 -0.5371 0 7315
5.7456 -4.0877 0.65786 0 7986
5.7696 -9.0529 2.0226 0 8200
5.7912 2.3716 0 0 4914
5.797 -5.7406 0.95406 0 8078
5.8016 0.63026 0.95878 0 6408
5.8472 6.8414 1.6956 0 2849
5.8658 0.51628 -0.54936 0 6498
5.8761 -3.1428 0.46597 0 7752
5.9213 -3.8116 -0.82351 0 7897
5.9557 -1.1641 -0.14089 0 7353
6.0046 1.0415 -1.0013 0 6053
6.1504 -0.18899 0.57407 1 7053
6.211 1.7763 0.75544 0 5484
6.2305 3.0725 1.1413 0 4567
6.263 -0.22965 0.29226 0 7072
6.3326 2.7024 -0.80516 1 4830
6.3513 2.182 -0.4696 0 5203
6.3954 2.5541 0.32115 0 4961
6.4595 -0.51858 0.15045 1 7192
6.4898 -0.44357 -0.30335 0 7161
6.5413 -2.7982 1.1689 0 7534
6.6426 2.4981 1.166 0 5065
6.683 -7.0105 1.8249 0 8084
6.6882 1.1793 0.4749 0 6047
6.6899 0.18103 -0.78262 0 6768
6.768 -5.1783 1.4001 0 8032
6.8297 -0.70698 0.64058 1 7238
6.9391 2.6096 1.3968 0 5067
6.9425 3.7554 1.4871 0 4373
6.969 -3.1716 0.71434 0 7594
7.1203 -3.0459 -0.72251 0 7530
7.1252 -5.8882 1.7415 0 8065
7.2239 0.76308 -0.16865 0 6417
7.2865 1.8817 1.4179 2 5634
7.2909 -8.7477 2.1455 0 8101
7.3165 -4.1868 1.5882 0 7809
7.3667 -1.176 0.1732 0 7322
7.3729 -0.056621 1.2114 0 6953
7.4319 0.41811 0.69446 0 6650
7.4522 -1.5908 -0.89111 0 7357
7.5757 2.2872 0.36903 0 5400
7.6698 0.050868 0 0 6871
7.7169 11.07 0.3133 1 2529
7.7888 -6.2467 1.8811 0 8056
7.8017 -4.4644 1.0512 0 7807
7.8619 6.1137 0.23123 0 3639
7.9259 3.7127 1.0235 0 4666
7.952 -6.7677 1.7156 0 8073
8.1628 6.049 1.6692 0 3740
8.2071 3.418 0.41459 0 4885
8.2733 -4.1502 1.5207 0 7694
8.3827 -2.8602 1.4552 0 7428
8.4026 1.5558 1.404 0 6007
8.4207 0.64498 1.5912 0 6563
8.4337 5.9163 1.6925 0 3857
8.4558 0.96791 0.79404 0 6376
8.5108 -1.2811 0.80296 0 7312
8.519 -0.11598 1.3997 0 6984
8.5406 -5.2234 0.23243 0 7856
8.5485 10.542 2.2298 0 2760
8.562 0.62875 0.60032 0 6573
8.6608 -2.2173 1.4688 0 7370
9.0035 1.0848 0.84606 0 6343
9.1004 -0.70503 1.4996 0 7185
9.113 -4.6674 1.6822 0 7714
9.2193 -6.1276 1.0328 0 7925
9.3147 3.6598 1.6442 0 4993
9.3837 4.2942 1.6955 0 4710
9.3924 0.66337 1.547 0 6592
9.7105 6.4786 1.0891 0 3957
9.8048 2.9285 1.6812 0 5423
9.975 1.9083 0.9475 0 5975
10.096 5.6889 1.9039 0 4288
10.136 -2.5009 1.7152 0 7366
10.191 0.36478 1.6754 0 6738
10.201 -3.7492 1.7856 0 7450
10.662 -6.6028 1.7625 0 7869
10.683 3.8441 1.8654 0 5139
10.755 3.7664 2.147 0 5181
10.813 -3.5866 1.0629 0 7418
11.454 9.1695 2.7643 0 3584
11.725 -3.2207 1.9976 0 7380
11.819 2.0499 1.9707 0 6067
-11.243 0.086344 -1.5802 0 10288
-8.599 -9.8468 -1.5288 0 8974
-1.9815 11.17 -1.8637 0 1375
1.6775 3.8069 -1.6245 0 2023
1.8681 6.3842 -1.9074 0 1825
2.7077 5.2193 -1.5393 0 2159
3.3772 4.2412 -1.5546 0 2731
3.953 -2.9336 -1.6633 0 8015
3.9624 0.97399 -1.7043 0 5690
5.6431 8.8887 -1.9837 2 2409
