# This PCD file was generated using the MATLAB® pcwrite function
# from Computer Vision Toolbox®.
# .PCD v.7 - Point Cloud Data file format
VERSION .7
FIELDS x y z intensity
SIZE 8 8 8 8
TYPE F F F F
COUNT 1 1 1 1
WIDTH 644
HEIGHT 1
VIEWPOINT 0 0 0 1 0 0 0
POINTS 644
DATA ascii
15.242280960083008 12.705711364746094 0.148926168680191 0.000000000000000
15.243640899658203 14.411159515380859 1.205874204635620 0.000000000000000
15.254217147827148 16.320430755615234 -0.862096846103668 0.000000000000000
15.262769699096680 25.572093963623047 1.367954730987549 0.000000000000000
15.266887664794922 23.975284576416016 2.576732397079468 0.000000000000000
15.280402183532715 11.392987251281738 0.545716524124146 0.000000000000000
15.280652046203613 20.834079742431641 1.087413907051086 0.000000000000000
15.287447929382324 12.233985900878906 -0.003417355008423 0.000000000000000
15.304295539855957 -5.387091159820557 3.374751329421997 0.000000000000000
15.304477691650391 15.963816642761230 0.633177638053894 0.000000000000000
15.320816040039062 21.523462295532227 3.915419101715088 0.000000000000000
15.322593688964844 18.060129165649414 0.860188603401184 0.000000000000000
15.331540107727051 10.774788856506348 -0.579077243804932 0.000000000000000
15.344071388244629 27.671216964721680 2.001755475997925 0.000000000000000
15.355739593505859 18.630653381347656 0.181197002530098 0.000000000000000
15.356640815734863 9.581740379333496 0.344391345977783 0.000000000000000
15.364136695861816 13.015446662902832 -0.003514395095408 0.000000000000000
15.370082855224609 12.096802711486816 0.146794781088829 0.000000000000000
15.375982284545898 9.129234313964844 0.271546751260757 1.000000000000000
15.388454437255859 31.111564636230469 1.460818290710449 0.000000000000000
15.392308235168457 13.939273834228516 1.754719495773315 0.000000000000000
15.397076606750488 6.612562656402588 0.318824499845505 1.000000000000000
15.398659706115723 11.320137977600098 2.035724401473999 0.000000000000000
15.402462959289551 10.901121139526367 0.286548316478729 0.000000000000000
15.427501678466797 22.836086273193359 2.062492609024048 0.000000000000000
15.435897827148438 12.770593643188477 1.816172003746033 0.000000000000000
15.436272621154785 14.943652153015137 0.697704792022705 0.000000000000000
15.436461448669434 8.110858917236328 0.800986766815186 0.000000000000000
15.438755035400391 18.255090713500977 2.272624015808105 0.000000000000000
15.442310333251953 32.271068572998047 2.401293516159058 0.000000000000000
15.446269035339355 20.520973205566406 2.021420478820801 0.000000000000000
15.464536666870117 1.810918450355530 0.236441835761070 0.000000000000000
15.483352661132812 13.347899436950684 1.096397876739502 0.000000000000000
15.483522415161133 32.146560668945312 2.051110982894897 0.000000000000000
15.491384506225586 8.975709915161133 -1.138961315155029 1.000000000000000
15.495422363281250 33.646163940429688 2.129390478134155 0.000000000000000
15.497084617614746 12.899785995483398 0.151327714323997 0.000000000000000
15.498175621032715 26.584777832031250 0.467296034097672 0.000000000000000
15.498342514038086 14.128144264221191 1.367191791534424 0.000000000000000
15.510382652282715 32.491928100585938 1.515315175056458 0.000000000000000
15.521419525146484 17.237083435058594 -0.761368691921234 0.000000000000000
15.522617340087891 26.414340972900391 0.936066627502441 0.000000000000000
15.524019241333008 12.114748001098633 0.412481933832169 0.000000000000000
15.527723312377930 10.969032287597656 1.569695234298706 0.000000000000000
15.541539192199707 13.973051071166992 0.437780380249023 0.000000000000000
15.542192459106445 33.439983367919922 1.551982641220093 0.000000000000000
15.542612075805664 8.069607734680176 0.905537486076355 0.000000000000000
15.547918319702148 18.455894470214844 0.876448750495911 0.000000000000000
15.551125526428223 13.267374992370605 0.310417205095291 0.000000000000000
15.554804801940918 16.632699966430664 1.528534173965454 0.000000000000000
15.556835174560547 5.478119850158691 1.654960274696350 0.000000000000000
15.557514190673828 13.283150672912598 1.609980702400208 0.000000000000000
15.564572334289551 22.835655212402344 1.163104057312012 0.000000000000000
15.567972183227539 15.651902198791504 0.844210624694824 0.000000000000000
15.568366050720215 6.750595092773438 0.322857379913330 1.000000000000000
15.575226783752441 6.246044158935547 0.319281071424484 1.000000000000000
15.578986167907715 16.364124298095703 0.299715906381607 0.000000000000000
15.579134941101074 10.639731407165527 1.484760165214539 0.000000000000000
15.585813522338867 21.103055953979492 0.700724422931671 0.000000000000000
15.616162300109863 12.892213821411133 1.632855772972107 0.000000000000000
15.638223648071289 14.161974906921387 1.456799268722534 0.000000000000000
15.643121719360352 24.387260437011719 2.626569747924805 0.000000000000000
15.658165931701660 14.177065849304199 -0.855759382247925 0.000000000000000
15.662710189819336 18.395816802978516 1.808151245117188 0.000000000000000
15.685831069946289 16.164497375488281 0.731460511684418 0.000000000000000
15.690935134887695 15.665763854980469 2.950571775436401 0.000000000000000
15.691240310668945 13.450919151306152 0.155110150575638 0.000000000000000
15.700215339660645 5.266015529632568 2.830621719360352 0.000000000000000
15.702758789062500 11.628350257873535 1.537798404693604 0.000000000000000
15.733671188354492 14.573622703552246 1.274138212203979 0.000000000000000
15.740783691406250 19.086954116821289 1.660599946975708 0.000000000000000
15.741527557373047 13.041974067687988 -1.024832963943481 0.000000000000000
15.750126838684082 13.950239181518555 0.077115461230278 0.000000000000000
15.763738632202148 17.697809219360352 0.860769391059875 0.000000000000000
15.764472961425781 14.218837738037109 0.322382032871246 0.000000000000000
15.764820098876953 12.389652252197266 0.458516716957092 0.000000000000000
15.793036460876465 20.410951614379883 1.582975387573242 0.000000000000000
15.794591903686523 15.078354835510254 1.381478905677795 0.000000000000000
15.797395706176758 13.949849128723145 0.846459805965424 0.000000000000000
15.803867340087891 -14.296932220458984 1.184015274047852 0.000000000000000
15.827137947082520 23.056226730346680 1.607602715492249 0.000000000000000
15.829865455627441 15.006756782531738 1.716685175895691 0.000000000000000
15.839749336242676 25.702892303466797 1.212622284889221 0.000000000000000
15.846079826354980 18.163419723510742 0.875432491302490 0.000000000000000
15.854832649230957 19.629470825195312 1.256160855293274 0.000000000000000
15.856107711791992 15.243234634399414 1.052639603614807 0.000000000000000
15.862821578979492 20.449499130249023 1.188815593719482 0.000000000000000
15.866618156433105 6.998344421386719 0.296641260385513 1.000000000000000
15.883187294006348 13.692589759826660 0.479549616575241 0.000000000000000
15.887197494506836 14.200808525085449 1.224927663803101 0.000000000000000
15.901493072509766 16.615568161010742 0.658477306365967 0.000000000000000
15.903961181640625 19.831529617309570 0.874393463134766 0.000000000000000
15.909048080444336 13.073428153991699 1.866731524467468 0.000000000000000
15.921239852905273 30.574014663696289 1.981554508209229 0.000000000000000
15.921794891357422 14.360734939575195 -0.333085477352142 0.000000000000000
15.955013275146484 17.912549972534180 1.240363240242004 0.000000000000000
15.971611976623535 17.737037658691406 -1.150651335716248 0.000000000000000
15.993247985839844 13.751992225646973 2.246711015701294 1.000000000000000
16.014478683471680 33.248916625976562 3.345599174499512 0.000000000000000
16.020170211791992 14.859803199768066 0.961670756340027 0.000000000000000
16.025863647460938 13.323363304138184 1.278331041336060 0.000000000000000
16.048791885375977 16.963998794555664 1.928134918212891 0.000000000000000
16.062507629394531 26.414058685302734 0.766331970691681 0.000000000000000
16.068353652954102 12.699586868286133 0.350345909595490 0.000000000000000
16.069379806518555 28.204622268676758 0.430606186389923 0.000000000000000
16.077543258666992 14.842171669006348 1.764345884323120 0.000000000000000
16.078159332275391 19.085309982299805 2.060451507568359 0.000000000000000
16.083093643188477 33.391372680664062 0.989942729473114 0.000000000000000
16.091859817504883 15.954266548156738 3.015471458435059 0.000000000000000
16.099205017089844 11.604276657104492 0.758918285369873 0.000000000000000
16.100902557373047 20.978572845458984 1.826027750968933 0.000000000000000
16.111541748046875 33.535694122314453 3.733245372772217 0.000000000000000
16.123044967651367 30.474296569824219 3.277211666107178 0.000000000000000
16.129699707031250 14.890319824218750 -0.594002783298492 0.000000000000000
16.130987167358398 30.748510360717773 2.598639249801636 0.000000000000000
16.140491485595703 12.868196487426758 1.107109069824219 0.000000000000000
16.156013488769531 13.480768203735352 -1.054874897003174 0.000000000000000
16.159523010253906 19.734663009643555 1.712033271789551 0.000000000000000
16.162111282348633 21.255817413330078 2.420720100402832 0.000000000000000
16.162790298461914 8.682402610778809 0.419560164213181 0.000000000000000
16.164896011352539 26.374595642089844 2.195683479309082 0.000000000000000
16.175083160400391 5.362555027008057 2.912844419479370 0.000000000000000
16.187057495117188 16.792091369628906 0.757426440715790 0.000000000000000
16.199604034423828 16.126832962036133 1.446133136749268 0.000000000000000
16.202592849731445 19.016460418701172 2.062755346298218 0.000000000000000
16.205072402954102 14.467653274536133 0.121329076588154 0.000000000000000
16.210977554321289 13.732832908630371 -0.656542897224426 0.000000000000000
16.218673706054688 12.210113525390625 2.701524734497070 0.000000000000000
16.223388671875000 28.707466125488281 0.944099903106689 0.000000000000000
16.241027832031250 31.188110351562500 0.939212083816528 0.000000000000000
16.245668411254883 13.777825355529785 1.347636580467224 0.000000000000000
16.251688003540039 33.527133941650391 2.860333919525146 0.000000000000000
16.260086059570312 33.459575653076172 2.712306737899780 0.000000000000000
16.260967254638672 11.655449867248535 0.226978719234467 1.000000000000000
16.269365310668945 12.412795066833496 0.075004309415817 0.000000000000000
16.271282196044922 2.519510269165039 2.814446687698364 0.000000000000000
16.288013458251953 -14.863616943359375 1.140184044837952 0.000000000000000
16.288770675659180 20.919340133666992 0.606295526027679 0.000000000000000
16.305158615112305 6.921463966369629 0.303003728389740 1.000000000000000
16.313320159912109 11.686081886291504 0.189133644104004 1.000000000000000
16.313535690307617 -14.874391555786133 1.099041342735291 1.000000000000000
16.314950942993164 18.569614410400391 0.517780423164368 0.000000000000000
16.319234848022461 15.222203254699707 1.325853347778320 0.000000000000000
16.328119277954102 13.111263275146484 0.800800204277039 0.000000000000000
16.337795257568359 14.977127075195312 -0.599737226963043 0.000000000000000
16.341615676879883 30.120067596435547 2.035869359970093 0.000000000000000
16.346015930175781 7.397344112396240 0.272457748651505 0.000000000000000
16.346090316772461 25.768260955810547 0.521995604038239 0.000000000000000
16.348642349243164 8.678467750549316 0.316618025302887 1.000000000000000
16.357217788696289 11.872879028320312 1.707904577255249 0.000000000000000
16.359226226806641 13.146588325500488 0.197804316878319 0.000000000000000
16.369302749633789 11.858549118041992 0.656418919563293 0.000000000000000
16.378829956054688 30.421346664428711 3.132165431976318 0.000000000000000
16.380470275878906 8.549309730529785 0.316070735454559 1.000000000000000
16.382066726684570 14.509963035583496 0.416374146938324 0.000000000000000
16.392913818359375 14.445198059082031 0.541616559028625 0.000000000000000
16.406305313110352 30.801279067993164 1.535894513130188 0.000000000000000
16.406545639038086 13.544729232788086 2.416480779647827 0.000000000000000
16.437957763671875 11.908285140991211 -0.276346921920776 0.000000000000000
16.442543029785156 14.027884483337402 -0.335757136344910 0.000000000000000
16.450044631958008 16.513906478881836 -1.034000754356384 0.000000000000000
16.451320648193359 16.630886077880859 -1.037723302841187 0.000000000000000
16.451593399047852 30.302616119384766 2.513937473297119 0.000000000000000
16.453765869140625 11.262750625610352 0.992637515068054 0.000000000000000
16.461833953857422 14.175411224365234 -0.587835490703583 0.000000000000000
16.472246170043945 14.515104293823242 0.206927359104156 0.000000000000000
16.480957031250000 14.713957786560059 -1.235218286514282 0.000000000000000
16.508344650268555 13.527326583862305 2.424155235290527 0.000000000000000
16.531097412109375 7.550738811492920 0.275980412960052 1.000000000000000
16.531793594360352 8.412833213806152 0.317302137613297 1.000000000000000
16.534791946411133 13.973968505859375 -1.085317492485046 0.000000000000000
16.536491394042969 13.444119453430176 0.037196438759565 0.000000000000000
16.546579360961914 15.029333114624023 -0.347251415252686 0.000000000000000
16.547616958618164 1.338366150856018 2.209235191345215 0.000000000000000
16.550586700439453 15.932004928588867 1.409102797508240 0.000000000000000
16.565084457397461 12.834387779235840 -1.171581745147705 0.000000000000000
16.569459915161133 8.465166091918945 1.356589555740356 0.000000000000000
16.579753875732422 11.862937927246094 1.093398809432983 0.000000000000000
16.581260681152344 12.250689506530762 -0.043178014457226 0.000000000000000
16.581741333007812 12.860263824462891 -1.415848255157471 1.000000000000000
16.583484649658203 21.330072402954102 1.085163712501526 0.000000000000000
16.588321685791016 12.397920608520508 2.755871772766113 0.000000000000000
16.600908279418945 18.138303756713867 2.077709197998047 0.000000000000000
16.600927352905273 14.240797996520996 -1.180724978446960 0.000000000000000
16.605804443359375 14.872879981994629 1.023992896080017 0.000000000000000
16.607027053833008 21.482336044311523 1.456294059753418 0.000000000000000
16.629354476928711 13.297866821289062 1.593513488769531 0.000000000000000
16.636735916137695 18.557586669921875 2.106000185012817 0.000000000000000
16.648469924926758 8.505531311035156 1.694829106330872 0.000000000000000
16.650869369506836 5.906853675842285 1.601655006408691 0.000000000000000
16.652416229248047 31.742444992065430 1.577576160430908 0.000000000000000
16.665243148803711 8.334784507751465 0.318738847970963 1.000000000000000
16.681261062622070 14.466082572937012 -0.937013208866119 0.000000000000000
16.687927246093750 11.132833480834961 0.882879912853241 0.000000000000000
16.690874099731445 7.542541503906250 3.809730052947998 0.000000000000000
16.699419021606445 3.886689186096191 1.947449803352356 0.000000000000000
16.702129364013672 34.408912658691406 1.095096230506897 0.000000000000000
16.716876983642578 12.202684402465820 -0.361264824867249 0.000000000000000
16.718425750732422 7.484821319580078 1.741184353828430 0.000000000000000
16.730844497680664 12.209748268127441 0.991259515285492 0.000000000000000
16.731100082397461 2.720638036727905 2.512154579162598 0.000000000000000
16.731424331665039 19.694869995117188 0.839219152927399 0.000000000000000
16.776111602783203 21.423076629638672 1.511749625205994 0.000000000000000
16.777368545532227 34.563915252685547 0.509660303592682 0.000000000000000
16.780605316162109 26.250198364257812 0.532941758632660 0.000000000000000
16.790912628173828 12.581334114074707 -1.456132531166077 1.000000000000000
16.812314987182617 12.669919967651367 0.077159442007542 0.000000000000000
16.815282821655273 19.297479629516602 0.093814030289650 0.000000000000000
16.826782226562500 15.662699699401855 1.542999863624573 0.000000000000000
16.830167770385742 12.282232284545898 -0.603817641735077 0.000000000000000
16.836954116821289 29.346725463867188 0.838692843914032 0.000000000000000
16.859453201293945 7.562445163726807 0.280596286058426 1.000000000000000
16.865232467651367 21.816343307495117 -0.216579183936119 0.000000000000000
16.882749557495117 8.197099685668945 1.404548764228821 0.000000000000000
16.889377593994141 27.040220260620117 2.509122133255005 0.000000000000000
16.898195266723633 15.456709861755371 -0.707692444324493 0.000000000000000
16.898344039916992 15.890263557434082 -0.004048465751112 0.000000000000000
16.899106979370117 33.999824523925781 1.232992649078369 0.000000000000000
16.907089233398438 17.350776672363281 1.206041574478149 0.000000000000000
16.937196731567383 16.645305633544922 2.697267770767212 0.000000000000000
16.940132141113281 29.975748062133789 2.045595645904541 0.000000000000000
16.944168090820312 14.252655029296875 -0.684217989444733 0.000000000000000
16.948463439941406 11.282720565795898 1.845785379409790 0.000000000000000
16.949234008789062 7.239258289337158 -1.456985473632812 1.000000000000000
16.961355209350586 17.620546340942383 0.841254830360413 0.000000000000000
16.965337753295898 12.955977439880371 -1.193463802337646 1.000000000000000
16.980415344238281 -7.062006950378418 3.825206756591797 0.000000000000000
16.983303070068359 26.184019088745117 1.073500514030457 0.000000000000000
16.998815536499023 16.420160293579102 1.404137730598450 0.000000000000000
17.004230499267578 12.701367378234863 1.424596071243286 0.000000000000000
17.022827148437500 30.369071960449219 2.068369388580322 0.000000000000000
17.026239395141602 15.939571380615234 -0.989757359027863 0.000000000000000
17.027448654174805 6.107439517974854 3.092117309570312 0.000000000000000
17.040983200073242 14.794715881347656 -0.870889067649841 0.000000000000000
17.049268722534180 11.470035552978516 1.617199063301086 0.000000000000000
17.050905227661133 12.922660827636719 -1.196143269538879 0.000000000000000
17.054183959960938 34.614479064941406 1.253116250038147 0.000000000000000
17.076253890991211 15.874899864196777 -0.630897998809814 0.000000000000000
17.088703155517578 18.928373336791992 2.154835939407349 0.000000000000000
17.093940734863281 12.775814056396484 -1.481056690216064 0.000000000000000
17.099111557006836 -7.041461944580078 3.846385717391968 0.000000000000000
17.101200103759766 8.377060890197754 1.425146818161011 0.000000000000000
17.108686447143555 23.887483596801758 0.897710204124451 0.000000000000000
17.131187438964844 15.294475555419922 -0.930405557155609 0.000000000000000
17.138797760009766 16.440109252929688 1.045210123062134 0.000000000000000
17.146806716918945 27.240262985229492 2.036355495452881 0.000000000000000
17.153785705566406 11.985356330871582 1.041762232780457 0.000000000000000
17.166538238525391 20.064670562744141 0.857525169849396 0.000000000000000
17.172121047973633 16.857910156250000 1.522404909133911 0.000000000000000
17.185140609741211 35.338024139404297 3.424054861068726 0.000000000000000
17.195751190185547 7.146994590759277 0.282782733440399 1.000000000000000
17.211971282958984 13.820985794067383 0.504789054393768 0.000000000000000
17.216388702392578 29.778841018676758 0.852669417858124 0.000000000000000
17.221303939819336 12.898192405700684 -0.416884183883667 0.000000000000000
17.221347808837891 12.557562828063965 0.323657482862473 0.000000000000000
17.240129470825195 8.880767822265625 2.580694913864136 0.000000000000000
17.257144927978516 18.723674774169922 1.365677356719971 0.000000000000000
17.261638641357422 13.704963684082031 2.095098972320557 0.000000000000000
17.274232864379883 12.997227668762207 0.785130858421326 0.000000000000000
17.285358428955078 14.436914443969727 -0.349860906600952 0.000000000000000
17.286661148071289 15.701552391052246 0.713501870632172 0.000000000000000
17.296827316284180 13.715205192565918 0.250438928604126 0.000000000000000
17.320968627929688 16.010221481323242 1.583182096481323 0.000000000000000
17.332143783569336 17.152782440185547 1.966242551803589 0.000000000000000
17.346366882324219 18.820480346679688 1.767336964607239 0.000000000000000
17.353385925292969 24.051328659057617 0.906138837337494 0.000000000000000
17.358236312866211 8.605759620666504 2.063686609268188 0.000000000000000
17.367698669433594 1.893490433692932 2.986305952072144 0.000000000000000
17.371677398681641 12.652801513671875 2.042863368988037 0.000000000000000
17.379600524902344 13.106930732727051 -0.421765953302383 0.000000000000000
17.383321762084961 15.812617301940918 1.849437952041626 0.000000000000000
17.385349273681641 14.157940864562988 -0.563617825508118 0.000000000000000
17.417175292968750 24.661159515380859 2.259517431259155 0.000000000000000
17.423864364624023 18.501407623291016 0.532356381416321 0.000000000000000
17.424503326416016 4.119622707366943 2.033672094345093 0.000000000000000
17.437339782714844 17.988920211791992 0.861742973327637 0.000000000000000
17.445617675781250 16.016250610351562 0.905657768249512 0.000000000000000
17.455394744873047 20.447763442993164 0.614800155162811 0.000000000000000
17.456705093383789 14.428108215332031 0.866068661212921 0.000000000000000
17.467561721801758 5.466639041900635 -1.164356231689453 1.000000000000000
17.486003875732422 13.156564712524414 1.131508708000183 0.000000000000000
17.490875244140625 15.910452842712402 1.495886564254761 0.000000000000000
17.500278472900391 19.281177520751953 1.898469209671021 0.000000000000000
17.503747940063477 11.687238693237305 1.656428575515747 0.000000000000000
17.513866424560547 16.541206359863281 0.921248853206635 0.000000000000000
17.521865844726562 21.211189270019531 2.930510997772217 0.000000000000000
17.525825500488281 19.438472747802734 2.372688293457031 0.000000000000000
17.531774520874023 8.803763389587402 1.657721757888794 0.000000000000000
17.534296035766602 8.958863258361816 2.620267868041992 0.000000000000000
17.535581588745117 14.993748664855957 0.438973397016525 0.000000000000000
17.541559219360352 18.568510055541992 -0.004458269104362 0.000000000000000
17.545532226562500 16.523094177246094 -1.440306067466736 0.000000000000000
17.549358367919922 16.255437850952148 1.790239810943604 0.000000000000000
17.556850433349609 25.271369934082031 0.526374042034149 0.000000000000000
17.576248168945312 16.246183395385742 1.976190090179443 0.000000000000000
17.589504241943359 35.614688873291016 3.461208820343018 0.000000000000000
17.592859268188477 16.470027923583984 -0.652104675769806 0.000000000000000
17.593757629394531 13.245335578918457 0.503600239753723 0.000000000000000
17.595737457275391 14.646706581115723 0.523535728454590 0.000000000000000
17.611364364624023 14.243099212646484 0.517957448959351 0.000000000000000
17.612522125244141 14.982019424438477 -0.492427676916122 0.000000000000000
17.636562347412109 22.284559249877930 1.797943115234375 0.000000000000000
17.636911392211914 1.860563397407532 3.031461000442505 1.000000000000000
17.692810058593750 28.378313064575195 1.214571833610535 0.000000000000000
17.700567245483398 16.281061172485352 1.428809285163879 0.000000000000000
17.706426620483398 9.529157638549805 1.504852294921875 0.000000000000000
17.706884384155273 7.458568572998047 1.549268007278442 0.000000000000000
17.727064132690430 20.143547058105469 2.111805200576782 0.000000000000000
17.745702743530273 16.118501663208008 0.364046335220337 0.000000000000000
17.746051788330078 12.975782394409180 0.840695023536682 0.000000000000000
17.760444641113281 20.136772155761719 1.181687235832214 0.000000000000000
17.762197494506836 19.335876464843750 -1.215233922004700 0.000000000000000
17.772272109985352 12.685265541076660 0.625164270401001 0.000000000000000
17.772346496582031 16.012403488159180 1.421218037605286 0.000000000000000
17.781831741333008 9.007197380065918 1.684328794479370 0.000000000000000
17.800176620483398 19.474550247192383 -0.105911888182163 0.000000000000000
17.827587127685547 16.366924285888672 1.297982692718506 0.000000000000000
17.832042694091797 12.907776832580566 0.334286123514175 0.000000000000000
17.835960388183594 24.388496398925781 2.377938508987427 0.000000000000000
17.842344284057617 12.456723213195801 1.376680374145508 0.000000000000000
17.849803924560547 15.192454338073730 0.085911899805069 1.000000000000000
17.853408813476562 30.070980072021484 0.934085607528687 0.000000000000000
17.868566513061523 19.251758575439453 1.408736348152161 0.000000000000000
17.877307891845703 11.901059150695801 0.573630630970001 0.000000000000000
17.887340545654297 24.638807296752930 1.926241278648376 0.000000000000000
17.892601013183594 14.289617538452148 -0.267779767513275 0.000000000000000
17.894706726074219 26.854322433471680 2.352798700332642 0.000000000000000
17.913125991821289 13.388064384460449 0.167838364839554 0.000000000000000
17.916524887084961 13.968750953674316 -0.265674948692322 0.000000000000000
17.936159133911133 20.033771514892578 2.437693595886230 0.000000000000000
17.948022842407227 25.412792205810547 2.957363605499268 0.000000000000000
17.948667526245117 8.173632621765137 2.624489307403564 0.000000000000000
17.948753356933594 19.402585983276367 -0.816786825656891 0.000000000000000
17.952484130859375 9.406893730163574 1.399486184120178 0.000000000000000
17.972621917724609 12.146438598632812 1.246965289115906 0.000000000000000
17.977807998657227 22.481761932373047 2.609596014022827 0.000000000000000
17.987548828125000 21.620780944824219 2.995755910873413 0.000000000000000
17.998983383178711 20.597032546997070 2.913564443588257 0.000000000000000
18.003173828125000 17.122640609741211 0.568162024021149 0.000000000000000
18.004039764404297 19.462352752685547 -0.411867886781693 0.000000000000000
18.055128097534180 20.327398300170898 1.615268588066101 0.000000000000000
18.060728073120117 9.032709121704102 1.589267492294312 0.000000000000000
18.076076507568359 13.120512008666992 1.197940111160278 0.000000000000000
18.088560104370117 19.073360443115234 0.954700469970703 0.000000000000000
18.091272354125977 12.372515678405762 1.809642434120178 0.000000000000000
18.098308563232422 19.525255203247070 -0.515836119651794 0.000000000000000
18.104444503784180 13.017999649047852 0.638443648815155 0.000000000000000
18.112152099609375 18.244131088256836 -0.053842667490244 1.000000000000000
18.122970581054688 21.080329895019531 1.063097000122070 0.000000000000000
18.139991760253906 15.788889884948730 2.095545291900635 0.000000000000000
18.141038894653320 28.872251510620117 1.763154149055481 0.000000000000000
18.157196044921875 14.464623451232910 -0.271474897861481 0.000000000000000
18.171756744384766 12.851087570190430 1.322295069694519 0.000000000000000
18.176494598388672 17.576768875122070 -1.170293688774109 0.000000000000000
18.237581253051758 25.583261489868164 0.778821647167206 0.000000000000000
18.241701126098633 12.765391349792480 1.881355881690979 0.000000000000000
18.251775741577148 29.075527191162109 1.709023118019104 0.000000000000000
18.269483566284180 13.224418640136719 0.689071059226990 0.000000000000000
18.270675659179688 12.255177497863770 0.587621629238129 0.000000000000000
18.273311614990234 25.513555526733398 3.148977279663086 0.000000000000000
18.285068511962891 5.709875106811523 -0.076896905899048 1.000000000000000
18.300407409667969 5.678221225738525 -0.334457933902740 1.000000000000000
18.306018829345703 16.493228912353516 1.084429740905762 0.000000000000000
18.306152343750000 9.769654273986816 1.552914381027222 0.000000000000000
18.310302734375000 12.872516632080078 0.985061764717102 0.000000000000000
18.312715530395508 15.019765853881836 1.224665045738220 0.000000000000000
18.324674606323242 23.596792221069336 2.235934019088745 0.000000000000000
18.338760375976562 23.445560455322266 2.829424619674683 0.000000000000000
18.340681076049805 15.491396903991699 -0.142465502023697 0.000000000000000
18.362668991088867 19.373228073120117 2.255538940429688 0.000000000000000
18.390625000000000 17.537048339843750 -0.785281658172607 0.000000000000000
18.399635314941406 29.254346847534180 1.188729524612427 0.000000000000000
18.405494689941406 5.563611030578613 -0.003355919150636 0.000000000000000
18.435209274291992 29.250837326049805 1.588207721710205 0.000000000000000
18.442998886108398 17.681255340576172 1.075303435325623 0.000000000000000
18.465255737304688 13.376937866210938 1.794516682624817 0.000000000000000
18.476001739501953 23.963876724243164 2.264592170715332 0.000000000000000
18.476976394653320 12.108509063720703 2.704613208770752 0.000000000000000
18.480030059814453 7.708388805389404 2.274281740188599 0.000000000000000
18.481590270996094 9.360841751098633 1.510456681251526 0.000000000000000
18.508939743041992 16.195377349853516 1.745671749114990 0.000000000000000
18.510295867919922 19.870010375976562 -0.004739616531879 0.000000000000000
18.513349533081055 7.012600421905518 1.725048780441284 0.000000000000000
18.517595291137695 17.023040771484375 1.833897352218628 0.000000000000000
18.519489288330078 32.470775604248047 2.725395441055298 0.000000000000000
18.520854949951172 13.670727729797363 0.614856064319611 0.000000000000000
18.525268554687500 13.409569740295410 -0.355266362428665 0.000000000000000
18.543680191040039 24.508470535278320 0.643770039081573 0.000000000000000
18.567276000976562 16.480176925659180 2.250623226165771 0.000000000000000
18.575056076049805 4.690557003021240 3.274759769439697 0.000000000000000
18.584033966064453 5.887347698211670 0.258597165346146 1.000000000000000
18.619070053100586 9.673483848571777 1.448808550834656 0.000000000000000
18.650550842285156 24.561405181884766 -0.005382595583797 0.000000000000000
18.652204513549805 16.672315597534180 2.267957925796509 0.000000000000000
18.655115127563477 17.760066986083984 1.084049940109253 0.000000000000000
18.671098709106445 21.251373291015625 1.898746967315674 0.000000000000000
18.715135574340820 13.004449844360352 1.573629736900330 0.000000000000000
18.738531112670898 7.229095458984375 2.976586341857910 0.000000000000000
18.750986099243164 8.381443977355957 2.733183383941650 0.000000000000000
18.752532958984375 17.128232955932617 2.414189815521240 0.000000000000000
18.754949569702148 14.238869667053223 1.308274745941162 0.000000000000000
18.763731002807617 9.503745079040527 1.209088087081909 0.000000000000000
18.786979675292969 13.541620254516602 1.242070198059082 0.000000000000000
18.804079055786133 21.553997039794922 1.919909715652466 0.000000000000000
18.804498672485352 13.711974143981934 -0.719182550907135 0.000000000000000
18.820554733276367 15.469277381896973 2.982657432556152 0.000000000000000
18.824344635009766 15.220815658569336 0.879207134246826 0.000000000000000
18.834878921508789 10.889223098754883 0.831982314586639 0.000000000000000
18.842592239379883 22.810001373291016 1.415948510169983 0.000000000000000
18.848018646240234 9.361150741577148 2.390298128128052 0.000000000000000
18.856744766235352 22.665540695190430 0.051459260284901 0.000000000000000
18.897163391113281 20.587257385253906 0.907509565353394 0.000000000000000
18.904121398925781 20.084440231323242 2.330644845962524 0.000000000000000
18.919874191284180 14.658844947814941 1.606487870216370 0.000000000000000
18.920028686523438 13.863595962524414 0.626497387886047 0.000000000000000
18.921287536621094 26.242733001708984 1.423863649368286 0.000000000000000
18.943883895874023 9.516180992126465 1.545651078224182 0.000000000000000
18.954156875610352 8.392993927001953 2.758510112762451 0.000000000000000
19.007921218872070 22.847255706787109 0.965153992176056 0.000000000000000
19.014799118041992 19.115959167480469 1.342278242111206 0.000000000000000
19.018693923950195 17.606573104858398 1.489838838577271 0.000000000000000
19.052425384521484 32.217197418212891 2.367960929870605 0.000000000000000
19.067905426025391 26.602380752563477 1.944537520408630 0.000000000000000
19.078840255737305 26.545141220092773 2.257253408432007 0.000000000000000
19.082223892211914 13.924180984497070 0.676335871219635 0.000000000000000
19.098649978637695 32.295364379882812 2.952886819839478 0.000000000000000
19.130138397216797 20.182933807373047 -0.645631551742554 0.000000000000000
19.133930206298828 16.045040130615234 1.627931594848633 0.000000000000000
19.140628814697266 20.775947570800781 2.461527824401855 0.000000000000000
19.151371002197266 16.879455566406250 1.861238479614258 0.000000000000000
19.164026260375977 13.781400680541992 1.493360996246338 0.000000000000000
19.167415618896484 13.581831932067871 0.762879312038422 0.000000000000000
19.196455001831055 28.298765182495117 2.625187635421753 0.000000000000000
19.201684951782227 19.425523757934570 1.780680179595947 0.000000000000000
19.207525253295898 18.088237762451172 0.046048741787672 0.000000000000000
19.218320846557617 16.322565078735352 1.643804907798767 0.000000000000000
19.248477935791016 19.253877639770508 2.587929964065552 0.000000000000000
19.249284744262695 26.586013793945312 2.773534774780273 0.000000000000000
19.253213882446289 28.318561553955078 2.100430250167847 0.000000000000000
19.269849777221680 15.035779953002930 1.687704920768738 0.000000000000000
19.281312942504883 9.660412788391113 1.738947987556458 0.000000000000000
19.288202285766602 34.966503143310547 2.372492313385010 0.000000000000000
19.301254272460938 9.710893630981445 1.783969044685364 0.000000000000000
19.340379714965820 15.437017440795898 1.756433367729187 0.000000000000000
19.360033035278320 28.817281723022461 2.464161157608032 0.000000000000000
19.374002456665039 19.244604110717773 2.043685436248779 0.000000000000000
19.441871643066406 17.912828445434570 0.655312478542328 0.000000000000000
19.484964370727539 19.369016647338867 2.756802797317505 0.000000000000000
19.506057739257812 16.227640151977539 2.095011711120605 0.000000000000000
19.532876968383789 19.000198364257812 0.361473619937897 1.000000000000000
19.539245605468750 10.559994697570801 1.362328648567200 0.000000000000000
19.545667648315430 15.250993728637695 2.094886064529419 0.000000000000000
19.572418212890625 14.677237510681152 0.982586860656738 0.000000000000000
19.591449737548828 28.997461318969727 3.049391746520996 0.000000000000000
19.602666854858398 16.488862991333008 2.570300340652466 0.000000000000000
19.626457214355469 15.582523345947266 -0.437427103519440 0.000000000000000
19.655496597290039 28.910257339477539 1.605827927589417 0.000000000000000
19.666774749755859 1.114009499549866 3.367091894149780 0.000000000000000
19.703733444213867 15.614745140075684 1.784470677375793 0.000000000000000
19.718639373779297 19.558227539062500 1.543036460876465 0.000000000000000
19.719999313354492 15.781195640563965 2.534357547760010 0.000000000000000
19.731601715087891 20.979721069335938 1.156758785247803 0.000000000000000
19.745258331298828 14.588335990905762 0.325660526752472 0.000000000000000
19.745738983154297 29.707384109497070 2.738474369049072 0.000000000000000
19.773485183715820 15.210058212280273 1.289936423301697 0.000000000000000
19.789611816406250 18.361360549926758 0.669189870357513 0.000000000000000
19.805145263671875 20.749544143676758 -0.665964186191559 0.000000000000000
19.820344924926758 21.402513504028320 2.183095455169678 0.000000000000000
19.826742172241211 24.442096710205078 2.294625997543335 0.000000000000000
19.905494689941406 15.661832809448242 1.797781348228455 0.000000000000000
19.913961410522461 21.678281784057617 0.447010487318039 0.000000000000000
19.923116683959961 16.877502441406250 1.601587176322937 0.000000000000000
19.970567703247070 21.564727783203125 2.793843984603882 0.000000000000000
19.972394943237305 24.621654510498047 1.822470188140869 0.000000000000000
19.994028091430664 14.063005447387695 1.923817157745361 0.000000000000000
20.004384994506836 21.121524810791016 1.616260766983032 0.000000000000000
20.016443252563477 17.638198852539062 2.324718475341797 0.000000000000000
20.047088623046875 15.450612068176270 1.454945921897888 0.000000000000000
20.089338302612305 30.293092727661133 2.790524959564209 0.000000000000000
20.092931747436523 20.024324417114258 0.975734531879425 0.000000000000000
20.120399475097656 10.211197853088379 1.862964034080505 0.000000000000000
20.134777069091797 16.873544692993164 1.408950567245483 0.000000000000000
20.139448165893555 16.043752670288086 0.885668873786926 0.000000000000000
20.161859512329102 16.782747268676758 1.003178358078003 0.000000000000000
20.162446975708008 21.319713592529297 2.789301633834839 0.000000000000000
20.190666198730469 26.630125045776367 3.559658050537109 0.000000000000000
20.196424484252930 19.124862670898438 1.277650952339172 0.000000000000000
20.223535537719727 15.995687484741211 0.886906385421753 0.000000000000000
20.231460571289062 11.025506019592285 1.413265943527222 0.000000000000000
20.241010665893555 13.823548316955566 1.550691127777100 0.000000000000000
20.249862670898438 16.389818191528320 -0.154594779014587 0.000000000000000
20.271028518676758 18.711450576782227 2.117847442626953 0.000000000000000
20.276363372802734 18.854507446289062 1.698319077491760 0.000000000000000
20.288692474365234 1.078197956085205 3.472903490066528 0.000000000000000
20.290575027465820 20.080600738525391 0.981922268867493 0.000000000000000
20.291927337646484 14.166912078857422 2.636061668395996 0.000000000000000
20.329673767089844 17.945735931396484 2.362913846969604 0.000000000000000
20.342393875122070 16.168910980224609 2.607440948486328 0.000000000000000
20.344203948974609 15.807914733886719 2.449013471603394 0.000000000000000
20.374530792236328 15.816640853881836 1.085563778877258 0.000000000000000
20.388780593872070 18.622753143310547 0.366301774978638 0.000000000000000
20.464174270629883 16.681848526000977 -0.562263488769531 0.000000000000000
20.477718353271484 18.953287124633789 0.262985110282898 0.000000000000000
20.522886276245117 20.091871261596680 1.650989413261414 0.000000000000000
20.538200378417969 14.126605987548828 1.192991614341736 0.000000000000000
20.542795181274414 15.008654594421387 2.051437854766846 0.000000000000000
20.543344497680664 25.986255645751953 -0.387380301952362 0.000000000000000
20.545490264892578 19.797639846801758 1.915087699890137 0.000000000000000
20.549705505371094 17.041936874389648 -0.414725929498672 0.000000000000000
20.566015243530273 14.915781021118164 2.048544406890869 0.000000000000000
20.650297164916992 30.338142395019531 2.180339574813843 0.000000000000000
20.666490554809570 18.903553009033203 -0.004888318479061 0.000000000000000
20.669948577880859 14.180573463439941 1.440942764282227 0.000000000000000
20.674343109130859 29.671277999877930 3.278426885604858 0.000000000000000
20.702735900878906 15.079005241394043 -0.447060853242874 0.000000000000000
20.714656829833984 20.138517379760742 1.215918898582458 0.000000000000000
20.754247665405273 27.175901412963867 3.642272949218750 0.000000000000000
20.766996383666992 8.028322219848633 3.299695014953613 0.000000000000000
20.792869567871094 27.030357360839844 2.683928966522217 0.000000000000000
20.793502807617188 19.125957489013672 -0.059170801192522 0.000000000000000
20.800373077392578 30.014942169189453 2.451119422912598 0.000000000000000
20.831911087036133 29.837430953979492 2.442547082901001 0.000000000000000
20.864971160888672 20.569913864135742 1.684275507926941 0.000000000000000
20.916143417358398 9.980076789855957 1.376856923103333 0.000000000000000
20.931598663330078 25.310058593750000 -0.510221660137177 0.000000000000000
20.937236785888672 13.294353485107422 3.300397872924805 0.000000000000000
20.946800231933594 21.336467742919922 1.546064734458923 0.000000000000000
20.969131469726562 22.826934814453125 3.110239028930664 0.000000000000000
20.975151062011719 9.640398025512695 3.071929216384888 0.000000000000000
20.984338760375977 16.879095077514648 0.719307839870453 0.000000000000000
20.996189117431641 9.838911056518555 1.735311746597290 0.000000000000000
21.011053085327148 30.380065917968750 2.693109750747681 0.000000000000000
21.032360076904297 16.366777420043945 2.674134492874146 0.000000000000000
21.047193527221680 6.923623085021973 2.223253965377808 0.000000000000000
21.060739517211914 24.243827819824219 1.475144505500793 0.000000000000000
21.073944091796875 17.352886199951172 -0.843597114086151 0.000000000000000
21.087091445922852 19.466794967651367 0.546034514904022 0.000000000000000
21.095090866088867 16.328861236572266 3.029968261718750 0.000000000000000
21.108417510986328 17.269672393798828 0.780854225158691 0.000000000000000
21.122625350952148 19.363458633422852 2.310559988021851 0.000000000000000
21.126365661621094 20.492908477783203 1.521897792816162 0.000000000000000
21.127874374389648 13.809377670288086 1.548200964927673 0.000000000000000
21.138193130493164 22.217472076416016 0.760186195373535 0.000000000000000
21.244508743286133 16.651229858398438 2.708479881286621 0.000000000000000
21.248916625976562 17.372846603393555 -0.848168432712555 0.000000000000000
21.257366180419922 16.573461532592773 3.061568021774292 0.000000000000000
21.261940002441406 26.025182723999023 1.414394974708557 0.000000000000000
21.283056259155273 25.866207122802734 1.925542116165161 0.000000000000000
21.293828964233398 24.196519851684570 0.056255426257849 0.000000000000000
21.302320480346680 19.528188705444336 0.549839138984680 0.000000000000000
21.304468154907227 24.087112426757812 0.673592031002045 0.000000000000000
21.339797973632812 23.325862884521484 0.297969371080399 0.000000000000000
21.343168258666992 14.533150672912598 1.484329462051392 0.000000000000000
21.438983917236328 25.394763946533203 0.951540887355804 0.000000000000000
21.442983627319336 31.849279403686523 2.947595357894897 0.000000000000000
21.462209701538086 18.099765777587891 0.965696692466736 0.000000000000000
21.479280471801758 17.986244201660156 0.963634133338928 0.000000000000000
21.559564590454102 20.913118362426758 1.090878844261169 0.000000000000000
21.572278976440430 18.321838378906250 0.538501441478729 0.000000000000000
21.578031539916992 10.008862495422363 3.165321588516235 0.000000000000000
21.609514236450195 10.387882232666016 3.190648555755615 0.000000000000000
21.640306472778320 10.233033180236816 1.422166943550110 0.000000000000000
21.656202316284180 19.019420623779297 1.823451161384583 0.000000000000000
21.668392181396484 19.642194747924805 1.230888605117798 0.000000000000000
21.674762725830078 18.902105331420898 1.376366972923279 0.000000000000000
21.721691131591797 17.141839981079102 1.271043300628662 0.000000000000000
21.737442016601562 19.681306838989258 0.163775265216827 0.000000000000000
21.756454467773438 23.458684921264648 0.301550745964050 0.000000000000000
21.778369903564453 17.392919540405273 1.173027873039246 0.000000000000000
21.801338195800781 8.410688400268555 2.036168575286865 0.000000000000000
21.808767318725586 20.507751464843750 1.375112891197205 0.000000000000000
21.874275207519531 25.421339035034180 2.057084321975708 0.000000000000000
21.886924743652344 18.280191421508789 0.433041423559189 0.000000000000000
21.908487319946289 25.905029296875000 1.493157386779785 0.000000000000000
21.919172286987305 10.631095886230469 3.241829633712769 0.000000000000000
21.919729232788086 13.724640846252441 2.344519376754761 0.000000000000000
21.947879791259766 14.959482192993164 1.578024148941040 0.000000000000000
21.948562622070312 16.200809478759766 2.473085403442383 0.000000000000000
22.011068344116211 23.625461578369141 0.800430834293365 0.000000000000000
22.043340682983398 18.458574295043945 3.265612363815308 0.000000000000000
22.067409515380859 19.674486160278320 1.813417792320251 0.000000000000000
22.081897735595703 17.635326385498047 -0.113442614674568 0.000000000000000
22.098562240600586 27.650711059570312 3.364649534225464 0.000000000000000
22.157285690307617 20.835479736328125 1.865579724311829 0.000000000000000
22.177341461181641 11.140460968017578 2.249901056289673 0.000000000000000
22.186107635498047 14.554713249206543 3.932424783706665 0.000000000000000
22.197553634643555 20.232244491577148 -0.293562501668930 0.000000000000000
22.200265884399414 23.030057907104492 2.023727655410767 0.000000000000000
22.219131469726562 23.211210250854492 2.032819747924805 0.000000000000000
22.273393630981445 16.545312881469727 1.969403147697449 0.000000000000000
22.273729324340820 7.427189350128174 1.847868800163269 0.000000000000000
22.312213897705078 7.271651744842529 2.499640703201294 0.000000000000000
22.336000442504883 16.366640090942383 2.018886804580688 0.000000000000000
22.400323867797852 17.761930465698242 -0.114759288728237 0.000000000000000
22.405107498168945 16.699655532836914 -0.004877148196101 0.000000000000000
22.483041763305664 20.356380462646484 0.635309278964996 0.000000000000000
22.491941452026367 18.874322891235352 1.235766410827637 0.000000000000000
22.499803543090820 20.507732391357422 0.170030504465103 0.000000000000000
22.559049606323242 21.684801101684570 -0.546190500259399 0.000000000000000
22.580348968505859 22.681489944458008 3.918383836746216 0.000000000000000
22.604309082031250 21.834836959838867 -0.065822593867779 1.000000000000000
22.616390228271484 23.756195068359375 2.454751253128052 0.000000000000000
22.620273590087891 32.223648071289062 3.569144487380981 0.000000000000000
22.652519226074219 7.737597465515137 1.837692618370056 0.000000000000000
22.716032028198242 32.132946014404297 2.869082212448120 0.000000000000000
22.745542526245117 22.577856063842773 3.923730850219727 0.000000000000000
22.762302398681641 21.809967041015625 2.746952533721924 0.000000000000000
22.780538558959961 18.216737747192383 2.772646665573120 0.000000000000000
22.784708023071289 15.994359970092773 2.083389043807983 0.000000000000000
22.787899017333984 18.947113037109375 2.389647006988525 0.000000000000000
22.834266662597656 19.297813415527344 2.179734706878662 0.000000000000000
22.858406066894531 22.055622100830078 2.254590034484863 0.000000000000000
22.867914199829102 19.619583129882812 1.790103793144226 0.000000000000000
22.884046554565430 21.376352310180664 1.438435673713684 0.000000000000000
22.897968292236328 22.289884567260742 3.206485509872437 0.000000000000000
23.000648498535156 19.164775848388672 1.721004962921143 0.000000000000000
23.003545761108398 19.303642272949219 -1.043419003486633 0.000000000000000
23.008554458618164 22.512784957885742 1.788448929786682 0.000000000000000
23.022668838500977 8.617904663085938 1.792303800582886 0.000000000000000
23.040699005126953 16.990797042846680 2.031991243362427 0.000000000000000
23.076528549194336 24.401054382324219 1.995303750038147 0.000000000000000
23.100858688354492 12.486419677734375 1.307274341583252 0.000000000000000
23.107208251953125 22.793170928955078 2.429078102111816 0.000000000000000
23.110193252563477 22.199090957641602 1.410321354866028 0.000000000000000
23.119649887084961 17.107015609741211 -0.446785658597946 0.000000000000000
23.119956970214844 16.115522384643555 1.674337744712830 0.000000000000000
23.127159118652344 22.361745834350586 1.292083263397217 0.000000000000000
23.137716293334961 25.176210403442383 0.847614109516144 0.000000000000000
23.142368316650391 19.376811981201172 1.851375937461853 0.000000000000000
23.144403457641602 17.725975036621094 2.771132707595825 0.000000000000000
23.170600891113281 19.443826675415039 2.742134571075439 0.000000000000000
23.194887161254883 23.461978912353516 1.705938458442688 0.000000000000000
23.205978393554688 19.724718093872070 1.633457303047180 0.000000000000000
23.207944869995117 29.247589111328125 0.495281994342804 0.000000000000000
23.238624572753906 17.927192687988281 2.196529150009155 0.000000000000000
23.267477035522461 18.753707885742188 -0.464244514703751 0.000000000000000
23.348985671997070 15.484858512878418 2.259121417999268 0.000000000000000
23.429664611816406 18.602098464965820 2.238919258117676 0.000000000000000
23.432664871215820 20.058719635009766 1.179571509361267 0.000000000000000
23.446706771850586 10.793206214904785 2.453555822372437 0.000000000000000
23.485893249511719 25.160894393920898 3.120247840881348 0.000000000000000
23.497325897216797 16.078111648559570 1.856143712997437 0.000000000000000
23.502496719360352 12.266444206237793 1.677221417427063 0.000000000000000
23.504993438720703 10.914652824401855 1.939501166343689 0.000000000000000
