# This PCD file was generated using the MATLAB® pcwrite function
# from Computer Vision Toolbox®.
# .PCD v.7 - Point Cloud Data file format
VERSION .7
FIELDS x y z intensity
SIZE 8 8 8 8
TYPE F F F F
COUNT 1 1 1 1
WIDTH 636
HEIGHT 1
VIEWPOINT 0 0 0 1 0 0 0
POINTS 636
DATA ascii
-16.414350509643555 -10.903192520141602 0.753568410873413 0.000000000000000
-16.377462387084961 -8.738142013549805 3.172992229461670 0.000000000000000
-16.338516235351562 -9.233351707458496 1.701329588890076 0.000000000000000
-16.327644348144531 -0.520535349845886 -1.354541063308716 1.000000000000000
-16.286521911621094 -8.861636161804199 0.317165315151215 0.000000000000000
-16.258562088012695 -6.657518386840820 2.150954961776733 0.000000000000000
-16.255760192871094 -10.486569404602051 2.866929054260254 0.000000000000000
-16.170902252197266 -29.187501907348633 0.122299835085869 0.000000000000000
-16.161199569702148 -10.713505744934082 0.629674017429352 0.000000000000000
-16.132968902587891 -6.182853221893311 1.326372027397156 0.000000000000000
-16.124954223632812 -27.256038665771484 2.003523349761963 0.000000000000000
-16.117103576660156 -23.838911056518555 -0.060268264263868 0.000000000000000
-16.107131958007812 -28.397516250610352 0.182339891791344 0.000000000000000
-16.098728179931641 -24.552774429321289 0.840611755847931 1.000000000000000
-16.096515655517578 -7.661788463592529 0.681727170944214 0.000000000000000
-16.090423583984375 -28.804588317871094 0.627757072448730 0.000000000000000
-16.071714401245117 -6.181906223297119 1.056214928627014 0.000000000000000
-16.069049835205078 11.533180236816406 1.442103624343872 1.000000000000000
-16.052753448486328 -23.932308197021484 0.382271766662598 0.000000000000000
-16.004884719848633 -10.963702201843262 0.965788006782532 0.000000000000000
-15.951390266418457 -23.961563110351562 0.381847321987152 0.000000000000000
-15.905357360839844 -10.810080528259277 1.253736257553101 0.000000000000000
-15.882858276367188 -23.697780609130859 2.190105915069580 0.000000000000000
-15.877695083618164 -9.416995048522949 3.155469179153442 0.000000000000000
-15.826012611389160 -24.807455062866211 1.578187584877014 0.000000000000000
-15.815338134765625 -26.454843521118164 2.306684017181396 0.000000000000000
-15.791966438293457 -24.176836013793945 1.493186712265015 0.000000000000000
-15.763581275939941 -23.519815444946289 2.841068267822266 0.000000000000000
-15.728302001953125 -10.426530838012695 0.903109312057495 0.000000000000000
-15.694094657897949 -10.424764633178711 1.010494112968445 0.000000000000000
-15.645493507385254 -6.331357955932617 0.580545544624329 0.000000000000000
-15.631256103515625 -6.729294300079346 1.542789220809937 0.000000000000000
-15.604412078857422 -25.081243515014648 1.698049068450928 0.000000000000000
-15.603827476501465 -7.910114765167236 2.990349769592285 0.000000000000000
-15.599585533142090 -28.903865814208984 1.761563181877136 0.000000000000000
-15.578486442565918 -6.001246452331543 1.120550036430359 0.000000000000000
-15.555910110473633 -11.390208244323730 0.959821403026581 0.000000000000000
-15.539737701416016 -7.267442703247070 1.184562087059021 0.000000000000000
-15.517530441284180 -12.241383552551270 1.983236551284790 0.000000000000000
-15.501244544982910 -10.539380073547363 0.933170795440674 0.000000000000000
-15.486857414245605 -23.538864135742188 1.891246318817139 0.000000000000000
-15.411896705627441 -28.796152114868164 1.751708745956421 0.000000000000000
-15.402165412902832 -8.450265884399414 0.030661929398775 0.000000000000000
-15.393606185913086 -10.001308441162109 0.913878858089447 0.000000000000000
-15.392003059387207 -25.746715545654297 2.851378679275513 0.000000000000000
-15.351137161254883 -10.261950492858887 -0.499654769897461 0.000000000000000
-15.340861320495605 -8.442082405090332 1.209085464477539 0.000000000000000
-15.311709403991699 -5.868111133575439 1.645375609397888 0.000000000000000
-15.310069084167480 -6.459043979644775 1.404112458229065 0.000000000000000
-15.286793708801270 -23.640647888183594 2.552174806594849 0.000000000000000
-15.274824142456055 -16.488384246826172 1.335342407226562 0.000000000000000
-15.269409179687500 -33.600418090820312 3.931214570999146 0.000000000000000
-15.267248153686523 -9.549672126770020 -0.383500844240189 0.000000000000000
-15.233843803405762 -7.789514064788818 1.551095366477966 0.000000000000000
-15.112938880920410 -25.685371398925781 2.832831144332886 0.000000000000000
-15.101742744445801 -5.720936298370361 1.333368778228760 0.000000000000000
-15.074440956115723 -6.359636306762695 1.129729032516479 0.000000000000000
-15.060487747192383 -24.396436691284180 1.206667780876160 0.000000000000000
-15.013646125793457 -24.587615966796875 3.068626880645752 0.000000000000000
-14.988658905029297 -9.139065742492676 1.993946671485901 0.000000000000000
-14.969595909118652 -25.984630584716797 0.685763239860535 0.000000000000000
-14.968759536743164 11.830949783325195 0.106562279164791 1.000000000000000
-14.966012954711914 -9.955448150634766 -0.210201293230057 0.000000000000000
-14.956079483032227 11.885523796081543 -0.113364748656750 1.000000000000000
-14.946599006652832 -6.434547901153564 1.186434149742126 0.000000000000000
-14.919164657592773 -9.616219520568848 1.225618243217468 0.000000000000000
-14.884445190429688 -24.568433761596680 3.059729576110840 0.000000000000000
-14.881175994873047 -6.344901561737061 2.765247821807861 0.000000000000000
-14.879560470581055 -9.460352897644043 2.158732414245605 0.000000000000000
-14.833260536193848 -8.230333328247070 1.171336054801941 0.000000000000000
-14.792100906372070 -7.927799701690674 1.288405656814575 0.000000000000000
-14.786878585815430 -26.697114944458008 1.871946811676025 0.000000000000000
-14.772896766662598 -23.379247665405273 1.163945078849792 0.000000000000000
-14.762672424316406 -16.732009887695312 1.669935345649719 0.000000000000000
-14.753242492675781 -15.814276695251465 1.618589401245117 0.000000000000000
-14.710031509399414 -27.754295349121094 1.745179891586304 1.000000000000000
-14.706506729125977 -27.365566253662109 1.247777700424194 1.000000000000000
-14.634843826293945 -21.633457183837891 1.904286503791809 0.000000000000000
-14.607204437255859 -14.914299964904785 3.093867063522339 0.000000000000000
-14.579428672790527 -23.572969436645508 2.342096090316772 0.000000000000000
-14.555541038513184 12.041820526123047 -0.583772182464600 1.000000000000000
-14.498003005981445 -23.122552871704102 1.148638844490051 0.000000000000000
-14.473848342895508 -10.742960929870605 1.244630575180054 0.000000000000000
-14.473136901855469 -21.394418716430664 2.341630458831787 0.000000000000000
-14.458693504333496 -22.881998062133789 1.555951952934265 0.000000000000000
-14.332209587097168 -7.770750522613525 0.153659299015999 0.000000000000000
-14.306404113769531 -9.292111396789551 1.441497087478638 0.000000000000000
-14.304792404174805 -10.889048576354980 1.803922653198242 0.000000000000000
-14.297559738159180 -14.777658462524414 1.791717290878296 0.000000000000000
-14.278164863586426 -23.267015457153320 2.306732177734375 0.000000000000000
-14.276368141174316 -10.068628311157227 1.476187348365784 0.000000000000000
-14.264947891235352 -10.842605590820312 1.340963363647461 0.000000000000000
-14.254337310791016 -26.751041412353516 3.041548490524292 0.000000000000000
-14.239834785461426 -8.611046791076660 1.890118837356567 0.000000000000000
-14.200448989868164 -25.990392684936523 1.360429286956787 0.000000000000000
-14.194097518920898 -24.886924743652344 0.325039684772491 0.000000000000000
-14.151405334472656 -7.184391021728516 2.352066278457642 0.000000000000000
-14.088156700134277 -8.936477661132812 2.042556524276733 0.000000000000000
-14.072978019714355 -26.723426818847656 3.697698116302490 0.000000000000000
-14.040630340576172 -9.829165458679199 1.183459877967834 0.000000000000000
-14.013812065124512 -9.830082893371582 1.413351178169250 0.000000000000000
-14.007948875427246 14.009902000427246 2.936124563217163 0.000000000000000
-14.007017135620117 -24.759342193603516 1.197248697280884 0.000000000000000
-13.999594688415527 -22.459825515747070 2.236341238021851 0.000000000000000
-13.964634895324707 -21.049539566040039 1.549425363540649 0.000000000000000
-13.955783843994141 -25.971889495849609 2.958481073379517 0.000000000000000
-13.942324638366699 -24.445484161376953 0.751668691635132 0.000000000000000
-13.902791976928711 -14.682271003723145 -0.391778171062469 0.000000000000000
-13.837905883789062 -25.200227737426758 1.486576914787292 0.000000000000000
-13.819622993469238 -9.041242599487305 2.197627067565918 0.000000000000000
-13.780958175659180 -26.235515594482422 3.628186941146851 0.000000000000000
-13.780624389648438 -9.975141525268555 1.043480515480042 1.000000000000000
-13.758460998535156 -10.286654472351074 1.451601147651672 0.000000000000000
-13.719213485717773 -20.940420150756836 1.921892166137695 0.000000000000000
-13.680530548095703 -9.714345932006836 2.054222822189331 0.000000000000000
-13.629955291748047 -10.829724311828613 1.746813654899597 0.000000000000000
-13.621035575866699 -10.440085411071777 1.722053289413452 0.000000000000000
-13.605319976806641 -23.293914794921875 1.135350942611694 0.000000000000000
-13.577450752258301 -7.618688106536865 0.685199201107025 0.000000000000000
-13.575129508972168 -6.974275588989258 1.733474016189575 0.000000000000000
-13.553622245788574 -10.227486610412598 1.614002227783203 0.000000000000000
-13.504784584045410 -24.593580245971680 1.019015073776245 0.000000000000000
-13.487413406372070 -22.546546936035156 1.105747699737549 0.000000000000000
-13.467982292175293 -7.398579120635986 -0.415801942348480 0.000000000000000
-13.458513259887695 -7.370152950286865 2.274074554443359 0.000000000000000
-13.455256462097168 -24.360090255737305 1.546142935752869 0.000000000000000
-13.422866821289062 13.257086753845215 2.795974016189575 0.000000000000000
-13.378226280212402 -21.786869049072266 1.716051459312439 0.000000000000000
-13.361035346984863 -24.816213607788086 2.555063962936401 0.000000000000000
-13.280349731445312 -9.148506164550781 0.554694652557373 0.000000000000000
-13.240366935729980 -22.295776367187500 0.244399726390839 0.000000000000000
-13.238710403442383 -22.116771697998047 1.432090520858765 0.000000000000000
-13.233108520507812 -22.288875579833984 1.490068435668945 0.000000000000000
-13.188986778259277 -21.311508178710938 1.295926570892334 0.000000000000000
-13.149715423583984 -19.752994537353516 1.775910854339600 0.000000000000000
-13.138729095458984 -23.845996856689453 1.093511104583740 0.000000000000000
-13.054290771484375 -21.093858718872070 0.519623339176178 0.000000000000000
-13.050913810729980 -15.870365142822266 1.953154563903809 0.000000000000000
-13.050060272216797 -20.035564422607422 1.006341457366943 0.000000000000000
-13.046944618225098 -21.796403884887695 0.239423513412476 1.000000000000000
-12.990225791931152 -23.973888397216797 2.736035823822021 0.000000000000000
-12.974099159240723 -23.066715240478516 0.605198204517365 0.000000000000000
-12.946135520935059 -25.318584442138672 2.128167390823364 1.000000000000000
-12.934374809265137 -19.363517761230469 2.850926637649536 0.000000000000000
-12.933393478393555 -21.329519271850586 0.762119174003601 0.000000000000000
-12.920691490173340 -23.627544403076172 0.357229113578796 0.000000000000000
-12.916743278503418 -20.043632507324219 2.539889335632324 0.000000000000000
-12.880841255187988 -19.203449249267578 1.730535387992859 0.000000000000000
-12.872382164001465 -19.434782028198242 1.160496950149536 0.000000000000000
-12.865545272827148 -19.602319717407227 0.986830234527588 1.000000000000000
-12.844194412231445 -8.115999221801758 1.137072563171387 0.000000000000000
-12.821578025817871 -21.470890045166016 1.004418611526489 0.000000000000000
-12.818699836730957 -31.649446487426758 3.637188911437988 0.000000000000000
-12.786304473876953 -25.006002426147461 2.669689893722534 0.000000000000000
-12.763336181640625 -15.410692214965820 1.902054548263550 0.000000000000000
-12.747660636901855 13.124280929565430 2.711531639099121 0.000000000000000
-12.704790115356445 -28.412557601928711 2.958499193191528 0.000000000000000
-12.699877738952637 -8.814160346984863 0.531731307506561 0.000000000000000
-12.687129974365234 -10.207279205322266 3.386969804763794 0.000000000000000
-12.684693336486816 -9.278352737426758 0.359387874603271 0.000000000000000
-12.630125045776367 -20.443532943725586 -0.281016767024994 0.000000000000000
-12.604887962341309 36.958915710449219 3.148688554763794 0.000000000000000
-12.581205368041992 -20.065494537353516 0.632585048675537 0.000000000000000
-12.575002670288086 -18.868259429931641 2.776068687438965 0.000000000000000
-12.558180809020996 -22.696647644042969 0.194675698876381 0.000000000000000
-12.552206993103027 12.729592323303223 3.718498468399048 0.000000000000000
-12.539394378662109 -31.273136138916016 3.588891029357910 0.000000000000000
-12.524124145507812 -19.016927719116211 0.783227682113647 0.000000000000000
-12.518384933471680 -23.237506866455078 3.231536388397217 0.000000000000000
-12.509464263916016 -19.263622283935547 1.807697653770447 0.000000000000000
-12.501717567443848 -22.631885528564453 0.194045290350914 0.000000000000000
-12.494874000549316 -9.980956077575684 1.520129680633545 0.000000000000000
-12.493574142456055 -20.214616775512695 0.087099418044090 0.000000000000000
-12.482361793518066 -5.941485404968262 -0.320958912372589 0.000000000000000
-12.456820487976074 14.126500129699707 2.791282653808594 0.000000000000000
-12.432714462280273 -8.437219619750977 0.285876780748367 0.000000000000000
-12.427001953125000 -27.520195007324219 2.870304346084595 0.000000000000000
-12.425649642944336 33.094703674316406 3.547142028808594 0.000000000000000
-12.386070251464844 -22.838914871215820 0.743877887725830 1.000000000000000
-12.383006095886230 -26.099714279174805 3.536802053451538 0.000000000000000
-12.359971046447754 -27.668626785278320 3.040749788284302 0.000000000000000
-12.343307495117188 33.227424621582031 3.556726694107056 0.000000000000000
-12.332615852355957 -8.954912185668945 0.582830905914307 0.000000000000000
-12.305713653564453 36.464614868164062 3.177571535110474 0.000000000000000
-12.288689613342285 -18.866643905639648 -0.090384781360626 0.000000000000000
-12.286594390869141 -23.331230163574219 1.769895792007446 0.000000000000000
-12.280710220336914 -23.335859298706055 2.228258132934570 0.000000000000000
-12.279790878295898 -27.233463287353516 2.997618675231934 0.000000000000000
-12.271301269531250 -25.484220504760742 3.462916135787964 0.000000000000000
-12.251961708068848 -19.712728500366211 0.307886630296707 0.000000000000000
-12.157335281372070 -24.279764175415039 3.084139347076416 0.000000000000000
-12.149460792541504 -22.025070190429688 0.333672046661377 0.000000000000000
-12.147290229797363 -17.355226516723633 0.036973036825657 0.000000000000000
-12.136078834533691 -18.970092773437500 0.039304792881012 0.000000000000000
-12.096755981445312 -32.442253112792969 3.688029527664185 0.000000000000000
-12.084212303161621 13.800766944885254 2.718568563461304 0.000000000000000
-12.037172317504883 -24.250850677490234 3.075110673904419 0.000000000000000
-11.997308731079102 -32.912292480468750 3.978864669799805 0.000000000000000
-11.951025009155273 -21.540712356567383 0.705298781394958 0.000000000000000
-11.844832420349121 -19.706100463867188 0.040128588676453 0.000000000000000
-11.776623725891113 -20.932592391967773 1.612113356590271 0.000000000000000
-11.666974067687988 -21.308401107788086 2.005813360214233 0.000000000000000
-11.660156250000000 -18.226173400878906 0.370117425918579 0.000000000000000
-11.649047851562500 35.941684722900391 2.827605724334717 0.000000000000000
-11.647433280944824 36.369098663330078 2.268824815750122 0.000000000000000
-11.593611717224121 -19.887081146240234 1.057397961616516 0.000000000000000
-11.574899673461914 -7.615151882171631 -0.828008949756622 0.000000000000000
-11.553735733032227 -17.603607177734375 0.562416493892670 0.000000000000000
-11.506820678710938 -18.536199569702148 -0.338925838470459 0.000000000000000
-11.486928939819336 33.112415313720703 3.177307844161987 0.000000000000000
-11.469896316528320 35.179485321044922 3.055129528045654 0.000000000000000
-11.457611083984375 -25.582651138305664 0.210375845432281 1.000000000000000
-11.436940193176270 36.211608886718750 3.135440826416016 0.000000000000000
-11.426472663879395 -21.157522201538086 1.613988518714905 0.000000000000000
-11.423457145690918 -25.679216384887695 1.020757198333740 1.000000000000000
-11.408381462097168 -9.769191741943359 1.998706221580505 0.000000000000000
-11.408021926879883 -25.663812637329102 1.939276099205017 1.000000000000000
-11.352583885192871 -19.189294815063477 0.038913842290640 0.000000000000000
-11.335844039916992 -20.201883316040039 2.100027799606323 0.000000000000000
-11.302153587341309 -19.305725097656250 1.544697761535645 0.000000000000000
-11.223212242126465 -11.681399345397949 1.149809718132019 0.000000000000000
-11.194853782653809 -10.875883102416992 1.414945721626282 0.000000000000000
-11.186660766601562 -19.921356201171875 0.171470716595650 0.000000000000000
-11.173911094665527 24.275951385498047 3.960572004318237 0.000000000000000
-11.157011985778809 -19.649475097656250 1.473101019859314 0.000000000000000
-11.151115417480469 16.875638961791992 2.997697114944458 0.000000000000000
-11.143927574157715 -25.182107925415039 2.763192415237427 0.000000000000000
-11.135722160339355 -19.077899932861328 0.293030798435211 0.000000000000000
-11.126256942749023 -16.495979309082031 0.646162390708923 0.000000000000000
-11.078740119934082 -22.807661056518555 2.298654794692993 0.000000000000000
-11.058373451232910 -18.497711181640625 0.617036283016205 0.000000000000000
-11.046711921691895 -20.387069702148438 1.065106868743896 0.000000000000000
-11.038077354431152 -20.202457427978516 0.703363120555878 0.000000000000000
-11.035551071166992 -20.510679244995117 2.213953733444214 0.000000000000000
-11.019812583923340 -19.748376846313477 -0.221041753888130 0.000000000000000
-11.004717826843262 -19.102289199829102 1.862831830978394 0.000000000000000
-10.995324134826660 -24.587265014648438 3.991651535034180 0.000000000000000
-10.993143081665039 -20.270469665527344 1.725759029388428 0.000000000000000
-10.935573577880859 -18.866374969482422 1.976879239082336 0.000000000000000
-10.931447982788086 28.809040069580078 3.091868400573730 0.000000000000000
-10.896615982055664 -18.272718429565430 -0.616563677787781 0.000000000000000
-10.889268875122070 -18.588548660278320 1.113951563835144 0.000000000000000
-10.881903648376465 12.897978782653809 2.245642423629761 0.000000000000000
-10.880134582519531 -18.886034011840820 2.900445699691772 1.000000000000000
-10.874307632446289 -18.724506378173828 2.881450653076172 0.000000000000000
-10.859397888183594 -18.444440841674805 -0.085920937359333 0.000000000000000
-10.842732429504395 -19.128622055053711 0.840847849845886 0.000000000000000
-10.836544990539551 -18.351364135742188 1.430489420890808 0.000000000000000
-10.834263801574707 12.932847023010254 2.245114803314209 0.000000000000000
-10.818502426147461 -19.084312438964844 1.430164933204651 0.000000000000000
-10.816882133483887 -18.304204940795898 1.632245898246765 0.000000000000000
-10.801661491394043 -22.627853393554688 1.055287718772888 1.000000000000000
-10.796146392822266 30.433359146118164 2.927398920059204 0.000000000000000
-10.791978836059570 -20.774551391601562 2.349053144454956 0.000000000000000
-10.791831016540527 12.009122848510742 2.148556232452393 0.000000000000000
-10.785384178161621 -16.214275360107422 0.295719325542450 0.000000000000000
-10.778094291687012 -10.544373512268066 1.366914033889771 0.000000000000000
-10.763461112976074 -17.086139678955078 2.150962114334106 1.000000000000000
-10.745070457458496 16.138376235961914 2.873379230499268 0.000000000000000
-10.739580154418945 29.941766738891602 2.883701324462891 0.000000000000000
-10.714715003967285 -20.424119949340820 2.192378282546997 0.000000000000000
-10.652445793151855 -17.907999038696289 0.796826004981995 0.000000000000000
-10.644095420837402 -22.354961395263672 2.484437227249146 0.000000000000000
-10.626823425292969 -16.344507217407227 0.895511984825134 0.000000000000000
-10.607582092285156 -18.562423706054688 2.845043182373047 0.000000000000000
-10.544810295104980 -18.901786804199219 0.827702462673187 0.000000000000000
-10.523558616638184 -17.765344619750977 2.071895122528076 0.000000000000000
-10.502625465393066 -7.308221340179443 -0.149629250168800 1.000000000000000
-10.485528945922852 -17.561059951782227 2.052326440811157 0.000000000000000
-10.446698188781738 -18.168836593627930 1.899956464767456 0.000000000000000
-10.430113792419434 35.580593109130859 3.061383247375488 0.000000000000000
-10.410192489624023 -17.959970474243164 3.548386573791504 0.000000000000000
-10.404546737670898 -11.583439826965332 1.195326924324036 0.000000000000000
-10.393454551696777 29.881162643432617 3.174536466598511 0.000000000000000
-10.383016586303711 -15.609372138977051 0.572780370712280 0.000000000000000
-10.376914978027344 36.568828582763672 3.065100669860840 1.000000000000000
-10.345651626586914 -17.027662277221680 1.645069718360901 0.000000000000000
-10.336916923522949 -16.536741256713867 2.077243804931641 0.000000000000000
-10.328536987304688 -17.963329315185547 1.510747432708740 0.000000000000000
-10.309845924377441 -16.922107696533203 1.330033659934998 0.000000000000000
-10.300477027893066 29.514215469360352 2.399839162826538 0.000000000000000
-10.298052787780762 12.283184051513672 2.375522375106812 0.000000000000000
-10.248388290405273 -15.804682731628418 1.155395746231079 0.000000000000000
-10.247400283813477 38.415409088134766 2.208934068679810 0.000000000000000
-10.245516777038574 -19.696554183959961 1.661576747894287 0.000000000000000
-10.208370208740234 -18.009487152099609 2.754816532135010 0.000000000000000
-10.167188644409180 -16.015367507934570 1.200144052505493 0.000000000000000
-10.147180557250977 -5.046820640563965 -0.263117581605911 0.000000000000000
-10.146685600280762 -17.057758331298828 1.064478635787964 0.000000000000000
-10.119891166687012 -11.704172134399414 1.402667045593262 0.000000000000000
-10.104443550109863 -15.794413566589355 1.475658774375916 0.000000000000000
-10.098211288452148 12.299889564514160 2.358516693115234 0.000000000000000
-10.093696594238281 -24.091951370239258 3.197996139526367 0.000000000000000
-10.070140838623047 -11.254137992858887 1.130206465721130 0.000000000000000
-10.023814201354980 -18.547946929931641 1.374477863311768 0.000000000000000
-10.009297370910645 -18.545839309692383 0.481927245855331 0.000000000000000
-9.994098663330078 -16.564786911010742 1.074844479560852 0.000000000000000
-9.981621742248535 31.736808776855469 2.040676593780518 0.000000000000000
-9.975059509277344 31.851852416992188 2.047288894653320 0.000000000000000
-9.934468269348145 -18.103649139404297 1.107537508010864 0.000000000000000
-9.930400848388672 -18.246976852416992 1.114178538322449 0.000000000000000
-9.895592689514160 13.031289100646973 2.796923875808716 0.000000000000000
-9.885822296142578 -18.165063858032227 0.790864706039429 0.000000000000000
-9.880450248718262 32.198856353759766 2.065900564193726 0.000000000000000
-9.866716384887695 11.999978065490723 3.231387615203857 0.000000000000000
-9.843044281005859 -14.119126319885254 2.107206583023071 0.000000000000000
-9.775474548339844 -14.134440422058105 1.557957053184509 0.000000000000000
-9.743785858154297 25.411277770996094 2.730844259262085 0.000000000000000
-9.733137130737305 11.922101020812988 3.201248645782471 0.000000000000000
-9.730374336242676 -18.060695648193359 0.193355873227119 0.000000000000000
-9.702977180480957 -17.860254287719727 0.503850102424622 0.000000000000000
-9.692553520202637 -14.012447357177734 1.406768321990967 0.000000000000000
-9.684630393981934 -19.315332412719727 1.034091830253601 0.000000000000000
-9.679471969604492 -17.583631515502930 0.574679434299469 0.000000000000000
-9.647490501403809 35.977306365966797 1.209623217582703 0.000000000000000
-9.644539833068848 33.069572448730469 2.112919569015503 0.000000000000000
-9.641097068786621 35.433773040771484 1.757458806037903 0.000000000000000
-9.582879066467285 -15.758591651916504 1.024696826934814 0.000000000000000
-9.556626319885254 -17.621646881103516 0.265918940305710 0.000000000000000
-9.555053710937500 32.488323211669922 1.555536866188049 0.000000000000000
-9.532875061035156 -15.598371505737305 0.839714586734772 0.000000000000000
-9.517157554626465 -23.783756256103516 -0.742402553558350 0.000000000000000
-9.501123428344727 -16.718885421752930 0.920318722724915 0.000000000000000
-9.474797248840332 -18.664541244506836 1.162935495376587 0.000000000000000
-9.457077026367188 -16.273704528808594 -0.473149478435516 0.000000000000000
-9.443055152893066 -13.587283134460449 -0.225270375609398 0.000000000000000
-9.438153266906738 -16.473951339721680 1.201154232025146 0.000000000000000
-9.432188987731934 -15.313241004943848 0.826132357120514 0.000000000000000
-9.414465904235840 36.016349792480469 2.857884645462036 0.000000000000000
-9.411396980285645 35.150810241699219 2.793586730957031 0.000000000000000
-9.401448249816895 12.470713615417480 2.669545888900757 0.000000000000000
-9.384619712829590 -14.987079620361328 2.620639324188232 0.000000000000000
-9.341914176940918 -13.542382240295410 0.028714144602418 0.000000000000000
-9.315402030944824 29.087331771850586 2.285787343978882 0.000000000000000
-9.306417465209961 -18.437973022460938 1.386288881301880 0.000000000000000
-9.305285453796387 -13.619580268859863 1.107156038284302 0.000000000000000
-9.295177459716797 -4.599819660186768 -0.320487827062607 0.000000000000000
-9.274229049682617 -17.316684722900391 1.318514823913574 0.000000000000000
-9.267680168151855 -18.109077453613281 1.679629921913147 0.000000000000000
-9.266848564147949 -17.353809356689453 1.624333620071411 0.000000000000000
-9.261502265930176 -14.576357841491699 0.793277859687805 0.000000000000000
-9.255164146423340 -13.282770156860352 2.767269849777222 0.000000000000000
-9.245825767517090 26.304752349853516 2.429582595825195 0.000000000000000
-9.201945304870605 -15.971692085266113 1.201692342758179 0.000000000000000
-9.200073242187500 37.591873168945312 3.508472919464111 0.000000000000000
-9.197052955627441 -13.665010452270508 0.091996528208256 0.000000000000000
-9.195430755615234 -19.433769226074219 2.632185697555542 0.000000000000000
-9.184126853942871 32.918270111083984 2.623656749725342 0.000000000000000
-9.176075935363770 -19.299562454223633 1.681849360466003 0.000000000000000
-9.157940864562988 13.548626899719238 2.423607587814331 0.000000000000000
-9.149873733520508 -19.072473526000977 1.338291883468628 0.000000000000000
-9.148388862609863 -19.945934295654297 2.337375879287720 0.000000000000000
-9.144483566284180 30.266994476318359 2.488408803939819 0.000000000000000
-9.122401237487793 32.362880706787109 0.898093521595001 1.000000000000000
-9.119523048400879 -15.427649497985840 -0.484939962625504 0.000000000000000
-9.110000610351562 -13.434190750122070 0.090656124055386 0.000000000000000
-9.103454589843750 -4.544570922851562 -0.158061832189560 0.000000000000000
-9.079237937927246 -15.699744224548340 -0.003165329340845 0.000000000000000
-9.070777893066406 31.767400741577148 1.835489988327026 0.000000000000000
-9.038415908813477 27.558570861816406 2.170557737350464 0.000000000000000
-9.008644104003906 -23.381683349609375 0.380505561828613 1.000000000000000
-8.907935142517090 -14.207074165344238 2.866341590881348 0.000000000000000
-8.888337135314941 31.545156478881836 1.820845127105713 0.000000000000000
-8.880293846130371 28.668107986450195 1.898712635040283 0.000000000000000
-8.860319137573242 -19.679271697998047 2.298822164535522 0.000000000000000
-8.853685379028320 28.233169555664062 1.871941804885864 0.000000000000000
-8.848115921020508 -18.649213790893555 1.704316020011902 0.000000000000000
-8.840663909912109 -15.221544265747070 1.147566795349121 0.000000000000000
-8.752618789672852 32.106426239013672 2.554766416549683 0.000000000000000
-8.742156982421875 -16.226449966430664 1.024031162261963 0.000000000000000
-8.709532737731934 -22.925600051879883 -0.616491556167603 1.000000000000000
-8.618762016296387 -13.853086471557617 2.788836240768433 0.000000000000000
-8.600417137145996 27.764587402343750 2.287553548812866 0.000000000000000
-8.592193603515625 -18.122867584228516 1.694769382476807 0.000000000000000
-8.553866386413574 34.861915588378906 3.127866029739380 0.000000000000000
-8.551988601684570 13.445667266845703 3.314473390579224 0.000000000000000
-8.548227310180664 30.293525695800781 1.870048761367798 0.000000000000000
-8.510244369506836 -13.678664207458496 1.460449337959290 0.000000000000000
-8.441872596740723 35.932876586914062 3.931638479232788 0.000000000000000
-8.439101219177246 29.827123641967773 1.364242911338806 0.000000000000000
-8.428439140319824 27.325777053833008 2.084913015365601 0.000000000000000
-8.371823310852051 -10.958214759826660 -0.399648219347000 0.000000000000000
-8.344931602478027 29.604707717895508 2.242561340332031 0.000000000000000
-8.328676223754883 36.015213012695312 2.909263610839844 0.000000000000000
-8.315684318542480 29.111446380615234 2.744662523269653 0.000000000000000
-8.315498352050781 26.344512939453125 3.382224798202515 0.000000000000000
-8.300049781799316 13.991108894348145 3.383711576461792 0.000000000000000
-8.298191070556641 -13.667468070983887 2.369658470153809 0.000000000000000
-8.288022994995117 27.821109771728516 1.333448410034180 0.000000000000000
-8.276892662048340 27.170812606811523 2.574926614761353 0.000000000000000
-8.241163253784180 28.473808288574219 2.687241315841675 0.000000000000000
-8.238645553588867 38.260387420654297 1.647184014320374 0.000000000000000
-8.234373092651367 -14.178792953491211 0.879389107227325 0.000000000000000
-8.226813316345215 30.840644836425781 2.781328439712524 0.000000000000000
-8.196894645690918 -13.745511054992676 1.012495279312134 0.000000000000000
-8.193579673767090 25.630632400512695 2.221732854843140 0.000000000000000
-8.144054412841797 -13.549161911010742 1.000120043754578 0.000000000000000
-8.104780197143555 26.915616989135742 2.103688716888428 0.000000000000000
-8.079981803894043 30.698602676391602 2.253173828125000 0.000000000000000
-8.040987014770508 26.651485443115234 2.137136697769165 0.000000000000000
-8.035987854003906 27.200469970703125 1.739705681800842 0.000000000000000
-8.011109352111816 13.296947479248047 3.228943824768066 0.000000000000000
-7.999593734741211 23.590404510498047 2.258207082748413 0.000000000000000
-7.987191200256348 37.732223510742188 2.217082262039185 0.000000000000000
-7.987028121948242 25.869029998779297 2.573546171188354 0.000000000000000
-7.985610485076904 -16.544076919555664 1.552303791046143 0.000000000000000
-7.975931167602539 -13.844838142395020 1.103276729583740 0.000000000000000
-7.971763134002686 27.458650588989258 2.869023799896240 0.000000000000000
-7.969220161437988 24.037557601928711 2.295765638351440 0.000000000000000
-7.933246612548828 25.511451721191406 3.555248975753784 0.000000000000000
-7.904769420623779 -12.288399696350098 -0.142813146114349 0.000000000000000
-7.873243331909180 25.633749008178711 3.568439960479736 0.000000000000000
-7.845250129699707 -16.399267196655273 1.536137461662292 0.000000000000000
-7.828725814819336 17.375879287719727 0.728806078433990 1.000000000000000
-7.818005561828613 21.796466827392578 3.958152770996094 0.000000000000000
-7.808572292327881 28.574722290039062 2.503085613250732 0.000000000000000
-7.803871154785156 17.483396530151367 0.732168912887573 1.000000000000000
-7.796561717987061 21.500240325927734 2.073303461074829 0.000000000000000
-7.787997722625732 26.177694320678711 2.043983936309814 0.000000000000000
-7.777700424194336 -21.545570373535156 2.439903497695923 0.000000000000000
-7.769998550415039 28.828863143920898 2.522956609725952 0.000000000000000
-7.758970737457275 -12.962243080139160 2.238890171051025 0.000000000000000
-7.747854709625244 11.640292167663574 -1.430209755897522 1.000000000000000
-7.738749027252197 18.082874298095703 1.973652005195618 1.000000000000000
-7.736549377441406 18.139841079711914 2.414416551589966 0.000000000000000
-7.736080169677734 30.235158920288086 2.275429010391235 0.000000000000000
-7.725871562957764 33.022377014160156 0.971002161502838 0.000000000000000
-7.720352172851562 30.138641357421875 2.957363605499268 0.000000000000000
-7.710002899169922 24.971776962280273 1.955919981002808 0.000000000000000
-7.708208084106445 24.283168792724609 2.005100965499878 0.000000000000000
-7.682092189788818 18.154220581054688 2.921464443206787 0.000000000000000
-7.663716793060303 -14.045164108276367 0.027925252914429 0.000000000000000
-7.663103580474854 16.601209640502930 0.523507833480835 1.000000000000000
-7.655145645141602 18.162944793701172 2.622906208038330 1.000000000000000
-7.644265174865723 17.664001464843750 2.050129175186157 1.000000000000000
-7.641949176788330 27.964981079101562 1.554837107658386 0.000000000000000
-7.635382652282715 18.144338607788086 2.235910654067993 0.000000000000000
-7.628880500793457 16.453058242797852 -0.107620559632778 0.000000000000000
-7.626030921936035 24.024286270141602 1.594635725021362 0.000000000000000
-7.623442173004150 16.738933563232422 0.738746047019958 0.000000000000000
-7.620728492736816 18.207204818725586 3.373831510543823 0.000000000000000
-7.610808372497559 -13.267196655273438 1.534752011299133 0.000000000000000
-7.608065128326416 22.148149490356445 2.226066112518311 0.000000000000000
-7.603348255157471 37.043872833251953 1.737062096595764 0.000000000000000
-7.599141120910645 29.240503311157227 2.871818542480469 0.000000000000000
-7.594893932342529 36.357883453369141 1.134811282157898 0.000000000000000
-7.591662883758545 16.333932876586914 -0.037724215537310 1.000000000000000
-7.582922458648682 24.259410858154297 1.902185797691345 0.000000000000000
-7.578249931335449 32.264381408691406 0.948907971382141 0.000000000000000
-7.576479434967041 11.073044776916504 -1.216318845748901 1.000000000000000
-7.560943603515625 27.668548583984375 1.096877574920654 0.000000000000000
-7.554591655731201 17.290954589843750 2.009880781173706 0.000000000000000
-7.550672054290771 -13.269468307495117 1.531956434249878 0.000000000000000
-7.544664382934570 16.520076751708984 0.729435503482819 1.000000000000000
-7.541386127471924 29.051588058471680 1.725366592407227 0.000000000000000
-7.539013862609863 17.403289794921875 2.154202699661255 1.000000000000000
-7.527065753936768 31.896379470825195 2.705906152725220 0.000000000000000
-7.517030239105225 28.957763671875000 1.259146332740784 0.000000000000000
-7.512779235839844 -4.756912231445312 -0.531405150890350 1.000000000000000
-7.505197048187256 24.875631332397461 1.593750596046448 0.000000000000000
-7.468808174133301 31.649509429931641 2.182701826095581 0.000000000000000
-7.450747966766357 29.843372344970703 0.880679070949554 0.000000000000000
-7.447009563446045 11.188297271728516 -1.270462274551392 1.000000000000000
-7.442902088165283 27.041564941406250 2.814311027526855 0.000000000000000
-7.431849002838135 29.495923995971680 1.748552083969116 0.000000000000000
-7.428662776947021 30.203104019165039 0.890524148941040 0.000000000000000
-7.421860218048096 -11.873307228088379 -0.405789524316788 0.000000000000000
-7.415049552917480 16.696804046630859 0.733769714832306 0.000000000000000
-7.411650657653809 29.520050048828125 1.632386088371277 0.000000000000000
-7.403738021850586 14.097261428833008 3.312029600143433 0.000000000000000
-7.338963031768799 16.614513397216797 2.063014745712280 0.000000000000000
-7.307287216186523 26.191194534301758 2.728447914123535 0.000000000000000
-7.272814273834229 15.957261085510254 0.738062202930450 0.000000000000000
-7.253254890441895 16.274255752563477 2.023740768432617 0.000000000000000
-7.245032787322998 16.044467926025391 0.740921616554260 0.000000000000000
-7.202867507934570 18.142387390136719 2.597579479217529 0.000000000000000
-7.186095714569092 15.973371505737305 1.989432334899902 1.000000000000000
-7.164970874786377 15.902672767639160 2.321095228195190 0.000000000000000
-7.133815288543701 15.554327964782715 2.095054626464844 1.000000000000000
-7.108703136444092 15.655066490173340 1.952866911888123 1.000000000000000
-7.083672523498535 -11.995987892150879 -0.136167034506798 0.000000000000000
-7.075310707092285 15.363039970397949 3.518115282058716 0.000000000000000
-7.055486202239990 17.905883789062500 2.852268695831299 0.000000000000000
-7.051562309265137 15.283386230468750 0.740774929523468 1.000000000000000
-7.008186340332031 29.697597503662109 0.639162719249725 0.000000000000000
-7.007426738739014 15.236630439758301 2.053250551223755 0.000000000000000
-6.993872165679932 23.335458755493164 1.306551575660706 0.000000000000000
-6.989937782287598 33.959003448486328 0.593077301979065 0.000000000000000
-6.956018447875977 14.830627441406250 -1.294958114624023 1.000000000000000
-6.943217277526855 14.874849319458008 -1.456383228302002 1.000000000000000
-6.938545227050781 14.949181556701660 2.017765760421753 0.000000000000000
-6.933794498443604 14.854661941528320 -0.695679366588593 1.000000000000000
-6.920026779174805 -14.568297386169434 1.831884860992432 0.000000000000000
-6.913591861724854 14.910409927368164 0.154903352260590 1.000000000000000
-6.906085968017578 25.623506546020508 1.423303604125977 0.000000000000000
-6.891756534576416 14.749841690063477 2.166496276855469 1.000000000000000
-6.887321472167969 34.786674499511719 3.558324575424194 1.000000000000000
-6.860221385955811 19.043518066406250 2.156046152114868 0.000000000000000
-6.854157447814941 -7.234398365020752 -0.212232753634453 1.000000000000000
-6.839559555053711 14.988613128662109 3.426883697509766 0.000000000000000
-6.838654994964600 19.082817077636719 1.766369342803955 0.000000000000000
-6.837365627288818 14.212071418762207 2.695830106735229 0.000000000000000
-6.827868461608887 29.368871688842773 1.095089077949524 0.000000000000000
-6.808374881744385 17.442764282226562 3.200624227523804 0.000000000000000
-6.804080963134766 19.040761947631836 1.708578228950500 0.000000000000000
-6.788657665252686 10.756046295166016 -1.399720549583435 0.000000000000000
-6.779244422912598 23.270620346069336 1.206638336181641 0.000000000000000
-6.778889179229736 22.908613204956055 0.913606166839600 0.000000000000000
-6.774708271026611 29.896286010742188 2.294146060943604 0.000000000000000
-6.762643814086914 24.325962066650391 1.792117118835449 0.000000000000000
-6.757651329040527 16.680486679077148 2.394964933395386 0.000000000000000
-6.755141258239746 14.191763877868652 2.091571092605591 0.000000000000000
-6.749983310699463 -14.083258628845215 1.259282588958740 0.000000000000000
-6.746127605438232 33.363826751708984 0.582267940044403 0.000000000000000
-6.736295223236084 27.264972686767578 1.885084986686707 0.000000000000000
-6.724446296691895 29.674482345581055 2.892258644104004 0.000000000000000
-6.715631961822510 20.112888336181641 1.791767358779907 0.000000000000000
-6.708080291748047 21.840204238891602 1.225360751152039 0.000000000000000
-6.706151485443115 18.414003372192383 2.087411880493164 0.000000000000000
-6.688280105590820 31.018379211425781 2.374747037887573 0.000000000000000
-6.668301105499268 25.873805999755859 1.741907477378845 0.000000000000000
-6.662565231323242 25.773309707641602 1.018005132675171 0.000000000000000
-6.655823230743408 29.894041061401367 0.347456216812134 0.000000000000000
-6.653543949127197 20.223787307739258 1.675572633743286 0.000000000000000
-6.643430709838867 25.334083557128906 2.213102102279663 0.000000000000000
-6.631485462188721 16.534690856933594 2.370693445205688 0.000000000000000
-6.622421741485596 26.804073333740234 2.279662370681763 0.000000000000000
-6.590257167816162 30.401500701904297 1.010204792022705 0.000000000000000
-6.566634654998779 18.175796508789062 2.571724891662598 0.000000000000000
-6.556278228759766 24.923666000366211 3.155220031738281 0.000000000000000
-6.555337905883789 17.948246002197266 1.614611387252808 0.000000000000000
-6.555230617523193 24.392925262451172 1.646667242050171 0.000000000000000
-6.544420719146729 22.406259536743164 1.521762013435364 0.000000000000000
-6.534269809722900 25.724958419799805 2.140169620513916 0.000000000000000
-6.532310009002686 23.174201965332031 2.182728767395020 0.000000000000000
-6.525914669036865 -10.916114807128906 -0.221994608640671 0.000000000000000
-6.467259407043457 24.117626190185547 -0.339947551488876 0.000000000000000
-6.451764106750488 30.436704635620117 2.328475952148438 0.000000000000000
-6.449311256408691 24.869535446166992 3.145498037338257 0.000000000000000
-6.442553997039795 20.518032073974609 2.442663669586182 0.000000000000000
-6.442242145538330 -23.378856658935547 3.227055788040161 0.000000000000000
-6.423275470733643 20.201009750366211 1.627346873283386 0.000000000000000
-6.418694972991943 24.733757019042969 2.109823226928711 0.000000000000000
-6.415674686431885 -23.587570190429688 3.252910375595093 0.000000000000000
-6.413896560668945 24.811367034912109 1.769541263580322 0.000000000000000
-6.413680076599121 31.900264739990234 1.933150649070740 0.000000000000000
-6.412965774536133 18.459096908569336 1.462462067604065 0.000000000000000
-6.403672695159912 28.761529922485352 2.148321151733398 0.000000000000000
-6.386520385742188 29.966520309448242 0.524116396903992 0.000000000000000
-6.376083850860596 27.994279861450195 2.259622097015381 0.000000000000000
-6.370287418365479 31.094198226928711 1.885705590248108 0.000000000000000
-6.336743831634521 20.430313110351562 2.429572343826294 0.000000000000000
-6.336505413055420 31.516412734985352 3.055778264999390 0.000000000000000
-6.328917980194092 19.465682983398438 1.610922336578369 0.000000000000000
-6.309880256652832 20.226335525512695 1.846232771873474 0.000000000000000
-6.298930644989014 34.088924407958984 2.661316871643066 0.000000000000000
-6.295264720916748 31.857583999633789 3.086817026138306 0.000000000000000
-6.275718688964844 27.252536773681641 2.092941761016846 0.000000000000000
-6.250274181365967 34.024963378906250 3.471263170242310 0.000000000000000
-6.241720199584961 29.796819686889648 0.520764112472534 0.000000000000000
-6.238853931427002 18.414945602416992 1.380054831504822 0.000000000000000
-6.223999023437500 19.582574844360352 2.333869934082031 0.000000000000000
-6.212587833404541 23.444091796875000 1.955633282661438 0.000000000000000
-6.194102287292480 28.986661911010742 1.932387948036194 0.000000000000000
-6.191861629486084 19.787275314331055 1.806648135185242 0.000000000000000
-6.161513328552246 29.122539520263672 2.593823194503784 0.000000000000000
-6.161240577697754 19.491123199462891 1.490386962890625 0.000000000000000
-6.138979911804199 17.764408111572266 1.297810554504395 0.000000000000000
-6.135566711425781 23.187761306762695 -0.326552212238312 0.000000000000000
-6.120818614959717 19.319824218750000 2.033556222915649 0.000000000000000
-6.100359439849854 22.470081329345703 1.069511890411377 0.000000000000000
-6.098835945129395 21.890747070312500 1.700683236122131 0.000000000000000
-6.061988353729248 30.194656372070312 1.770360112190247 0.000000000000000
-6.036683082580566 20.763511657714844 1.034856677055359 0.000000000000000
-6.034848690032959 19.678880691528320 1.580195188522339 0.000000000000000
-6.028891563415527 22.125875473022461 2.604725360870361 0.000000000000000
-6.027393817901611 18.838607788085938 1.137006402015686 0.000000000000000
-6.016088485717773 -2.755777597427368 -0.191770896315575 0.000000000000000
-5.998111724853516 22.402465820312500 1.065290331840515 0.000000000000000
-5.987716674804688 22.281126022338867 2.620525360107422 0.000000000000000
-5.970183849334717 -9.869993209838867 -0.334295511245728 0.000000000000000
-5.960423946380615 17.797309875488281 1.635462760925293 0.000000000000000
-5.951791763305664 18.329696655273438 1.182088851928711 0.000000000000000
-5.951409816741943 22.748514175415039 -0.681452929973602 0.000000000000000
-5.943490505218506 20.442972183227539 1.346878767013550 0.000000000000000
-5.937223911285400 19.604398727416992 1.572540640830994 0.000000000000000
-5.922849655151367 32.682086944580078 3.772563219070435 0.000000000000000
-5.891664028167725 28.419786453247070 1.444903135299683 0.000000000000000
-5.885928630828857 30.525030136108398 1.667304635047913 0.000000000000000
-5.870374202728271 30.490156173706055 2.084121227264404 0.000000000000000
-5.851195335388184 19.903715133666992 -1.040054202079773 0.000000000000000
-5.848358631134033 30.957532882690430 2.114659786224365 0.000000000000000
-5.845598697662354 27.355762481689453 1.392596244812012 0.000000000000000
-5.841743946075439 19.176874160766602 1.152387022972107 0.000000000000000
-5.833999633789062 24.967403411865234 1.869382858276367 0.000000000000000
-5.829701423645020 18.615104675292969 1.497526645660400 0.000000000000000
-5.820436000823975 29.525123596191406 1.266547083854675 0.000000000000000
-5.815606594085693 -9.524128913879395 -0.323403358459473 0.000000000000000
-5.813168525695801 27.351125717163086 -1.294202804565430 1.000000000000000
-5.801005363464355 21.923374176025391 1.784787654876709 0.000000000000000
-5.799434661865234 27.286506652832031 -0.004868770483881 0.000000000000000
-5.785516738891602 28.695564270019531 1.795540809631348 0.000000000000000
-5.774602413177490 17.487380981445312 1.271633863449097 0.000000000000000
-5.759235858917236 27.320034027099609 -0.648231148719788 0.000000000000000
-5.754852771759033 25.022605895996094 1.872000575065613 0.000000000000000
-5.752850055694580 22.052406311035156 1.441839694976807 0.000000000000000
-5.751816749572754 27.172109603881836 0.315101981163025 0.000000000000000
-5.748438358306885 29.159904479980469 2.166936635971069 0.000000000000000
-5.720448970794678 32.205589294433594 3.715232372283936 0.000000000000000
-5.712441444396973 19.907201766967773 1.310258269309998 0.000000000000000
-5.696318626403809 19.851015090942383 1.625358819961548 0.000000000000000
-5.695602893829346 18.465669631958008 1.110836744308472 0.000000000000000
-5.692066192626953 19.666496276855469 1.492713928222656 0.000000000000000
-5.691734790802002 35.502952575683594 1.305889844894409 0.000000000000000
-5.690216541290283 19.920240402221680 1.510456681251526 0.000000000000000
-5.677164554595947 30.005327224731445 1.167801737785339 0.000000000000000
-5.668160915374756 27.937219619750977 1.748521685600281 0.000000000000000
-5.659203529357910 21.958387374877930 1.128874063491821 0.000000000000000
-5.631345748901367 26.810777664184570 0.942320823669434 0.000000000000000
-5.620309352874756 29.043889999389648 2.681823968887329 0.000000000000000
-5.593626022338867 22.458183288574219 2.016723632812500 0.000000000000000
-5.578846454620361 19.902019500732422 1.267800688743591 0.000000000000000
-5.577589988708496 33.830696105957031 3.108330249786377 0.000000000000000
-5.545443534851074 19.582830429077148 2.167908668518066 0.000000000000000
-5.519251346588135 30.166908264160156 2.532117128372192 0.000000000000000
-5.500153541564941 24.303253173828125 1.816736340522766 0.000000000000000
-5.496830940246582 24.133909225463867 2.636485576629639 0.000000000000000
-5.490025043487549 25.760028839111328 2.072889566421509 0.000000000000000
-5.488776206970215 26.532266616821289 0.567539572715759 0.000000000000000
-5.484484195709229 16.805620193481445 1.220658421516418 0.000000000000000
-5.480260372161865 19.290985107421875 1.230087518692017 0.000000000000000
-5.473459243774414 21.732965469360352 1.590758800506592 0.000000000000000
-5.461750030517578 26.217065811157227 -0.056087855249643 1.000000000000000
-5.461281776428223 26.214817047119141 0.355212956666946 0.000000000000000
-5.456326961517334 26.246086120605469 0.201189905405045 1.000000000000000
-5.448042392730713 22.093900680541992 1.483509778976440 0.000000000000000
