# This PCD file was generated using the MATLAB® pcwrite function
# from Computer Vision Toolbox®.
# .PCD v.7 - Point Cloud Data file format
VERSION .7
FIELDS x y z intensity
SIZE 8 8 8 8
TYPE F F F F
COUNT 1 1 1 1
WIDTH 651
HEIGHT 1
VIEWPOINT 0 0 0 1 0 0 0
POINTS 651
DATA ascii
3.953780174255371 29.719209671020508 2.717938184738159 0.000000000000000
3.985060214996338 15.246485710144043 0.542044162750244 0.000000000000000
3.989809036254883 29.696714401245117 0.167349681258202 1.000000000000000
3.993625402450562 3.162021636962891 -0.147623032331467 0.000000000000000
3.999067306518555 18.129926681518555 -0.823584377765656 0.000000000000000
4.011155128479004 29.546737670898438 -0.921433329582214 1.000000000000000
4.020012378692627 29.530784606933594 1.311656951904297 0.000000000000000
4.029375076293945 17.559352874755859 1.569836020469666 0.000000000000000
4.032553672790527 29.522777557373047 2.172462940216064 0.000000000000000
4.043848514556885 11.173441886901855 -0.641463994979858 0.000000000000000
4.056960582733154 30.292665481567383 1.992498636245728 0.000000000000000
4.058372497558594 20.233020782470703 0.908205449581146 0.000000000000000
4.060120582580566 29.440895080566406 0.165986940264702 1.000000000000000
4.061757564544678 36.337333679199219 2.101843595504761 0.000000000000000
4.064173698425293 18.975435256958008 0.928732216358185 0.000000000000000
4.074717044830322 18.268159866333008 1.630948781967163 0.000000000000000
4.080367565155029 17.736125946044922 -0.142940998077393 0.000000000000000
4.087003707885742 25.547426223754883 1.636812567710876 0.000000000000000
4.088028907775879 29.169155120849609 -1.023417353630066 1.000000000000000
4.102978706359863 36.475444793701172 3.327542066574097 0.000000000000000
4.103342056274414 10.192977905273438 -0.044108547270298 0.000000000000000
4.114300727844238 16.677555084228516 1.951061129570007 0.000000000000000
4.114640712738037 3.511628627777100 -0.167162686586380 0.000000000000000
4.125668525695801 29.222486495971680 0.674880981445312 0.000000000000000
4.125893592834473 29.165149688720703 0.164512485265732 1.000000000000000
4.139075279235840 3.507582664489746 -0.167656898498535 0.000000000000000
4.143193244934082 20.749727249145508 0.605817437171936 0.000000000000000
4.144815921783447 32.727016448974609 2.405153989791870 0.000000000000000
4.181891441345215 6.278551578521729 -0.059249829500914 1.000000000000000
4.183974266052246 27.243734359741211 0.842130124568939 0.000000000000000
4.186972618103027 20.599887847900391 2.239084959030151 0.000000000000000
4.188165664672852 31.679885864257812 3.206485509872437 0.000000000000000
4.188229084014893 28.878637313842773 1.059810400009155 0.000000000000000
4.195732593536377 13.289360046386719 -0.029187466949224 0.000000000000000
4.229866504669189 21.164564132690430 0.949887216091156 0.000000000000000
4.244283199310303 -8.887145042419434 -1.007333278656006 1.000000000000000
4.261119842529297 26.511213302612305 0.820386707782745 0.000000000000000
4.269057750701904 17.085409164428711 -0.781217396259308 0.000000000000000
4.302837848663330 36.289360046386719 2.171087980270386 0.000000000000000
4.309310436248779 34.025844573974609 1.443493723869324 0.000000000000000
4.315768718719482 22.816585540771484 0.709470748901367 0.000000000000000
4.316574096679688 16.293804168701172 0.061780329793692 0.000000000000000
4.332343578338623 29.155418395996094 0.164624199271202 1.000000000000000
4.338003635406494 35.525016784667969 2.126252174377441 0.000000000000000
4.345384597778320 3.551343441009521 -0.011753736063838 0.000000000000000
4.366173267364502 35.436973571777344 1.983713746070862 0.000000000000000
4.374739646911621 28.409975051879883 1.154511451721191 0.000000000000000
4.377162456512451 17.480438232421875 2.046763420104980 0.000000000000000
4.379221439361572 29.193975448608398 0.448285967111588 1.000000000000000
4.412098884582520 29.125598907470703 2.090897798538208 0.000000000000000
4.412642002105713 29.962001800537109 1.274620771408081 0.000000000000000
4.419536590576172 20.849552154541016 1.225157260894775 0.000000000000000
4.420017719268799 21.364101409912109 1.716998934745789 0.000000000000000
4.424922943115234 21.240161895751953 1.247194766998291 0.000000000000000
4.430975437164307 32.639198303222656 3.305128097534180 0.000000000000000
4.464922904968262 35.224822998046875 2.520235538482666 0.000000000000000
4.474254608154297 27.772296905517578 1.671253800392151 0.000000000000000
4.503506660461426 17.294185638427734 0.683408558368683 0.000000000000000
4.507120132446289 29.067281723022461 1.634233951568604 0.000000000000000
4.516273498535156 24.072101593017578 3.259242057800293 0.000000000000000
4.520678997039795 28.697999954223633 1.278592944145203 0.000000000000000
4.523815155029297 -7.809644699096680 -1.132155537605286 1.000000000000000
4.538465976715088 23.732944488525391 3.215447664260864 0.000000000000000
4.541543006896973 29.215106964111328 -1.140978813171387 1.000000000000000
4.547320842742920 5.725374221801758 -0.085502430796623 0.000000000000000
4.549020290374756 23.598329544067383 0.734268069267273 0.000000000000000
4.554784297943115 5.693850994110107 -0.085268564522266 0.000000000000000
4.558678150177002 15.553183555603027 -0.127296030521393 0.000000000000000
4.574446678161621 29.098884582519531 1.183085322380066 0.000000000000000
4.590960502624512 33.724933624267578 2.022110223770142 0.000000000000000
4.597178936004639 9.882989883422852 -0.420636653900146 0.000000000000000
4.600569725036621 3.706626176834106 -0.012373676523566 0.000000000000000
4.619726181030273 3.695542812347412 -0.012390431948006 0.000000000000000
4.625089645385742 17.510232925415039 0.692579805850983 0.000000000000000
4.645376682281494 14.453058242797852 0.288844376802444 0.000000000000000
4.650770187377930 15.699742317199707 0.248649612069130 0.000000000000000
4.653093814849854 23.880189895629883 2.055817365646362 0.000000000000000
4.671037673950195 -8.317564964294434 -1.145950555801392 1.000000000000000
4.684609413146973 24.632299423217773 1.055287718772888 0.000000000000000
4.690078735351562 16.414627075195312 0.128122732043266 0.000000000000000
4.730584144592285 14.654050827026367 1.182161211967468 0.000000000000000
4.732787132263184 29.969635009765625 2.643824577331543 0.000000000000000
4.741807460784912 14.261038780212402 0.314806461334229 0.000000000000000
4.788389205932617 16.756481170654297 1.001796126365662 0.000000000000000
4.805463314056396 8.394555091857910 -0.727293670177460 0.000000000000000
4.835153579711914 26.002046585083008 2.304579019546509 0.000000000000000
4.845482826232910 17.139581680297852 0.407306224107742 0.000000000000000
4.868500709533691 38.914936065673828 2.405564308166504 0.000000000000000
4.889291763305664 29.604413986206055 1.262846708297729 0.000000000000000
4.935012817382812 18.637462615966797 1.182578563690186 0.000000000000000
4.951305389404297 -0.474314510822296 -0.547374308109283 1.000000000000000
4.963073253631592 18.946413040161133 0.636035680770874 0.000000000000000
4.966243267059326 30.070350646972656 1.751995444297791 0.000000000000000
4.974383354187012 16.986850738525391 1.682513952255249 0.000000000000000
4.986763477325439 19.311616897583008 0.341178506612778 0.000000000000000
4.999598026275635 20.672220230102539 1.797156214714050 0.000000000000000
5.009206295013428 31.705747604370117 1.845196366310120 0.000000000000000
5.018355369567871 25.249752044677734 1.579057216644287 0.000000000000000
5.024938583374023 17.875577926635742 0.852929770946503 0.000000000000000
5.044382572174072 4.139231204986572 -0.189105808734894 0.000000000000000
5.078201293945312 -4.188230991363525 -0.140182629227638 1.000000000000000
5.079144477844238 32.475589752197266 1.573127388954163 0.000000000000000
5.080906867980957 17.918563842773438 1.142416596412659 0.000000000000000
5.082044124603271 25.276985168457031 0.688655853271484 0.000000000000000
5.087251186370850 30.128894805908203 1.227230310440063 0.000000000000000
5.091330051422119 19.133314132690430 0.909461379051208 0.000000000000000
5.106060028076172 25.999412536621094 1.217081427574158 0.000000000000000
5.108927726745605 22.287109375000000 2.294340372085571 0.000000000000000
5.110911369323730 -8.411923408508301 -1.234716653823853 0.000000000000000
5.144296169281006 17.567079544067383 1.369920134544373 0.000000000000000
5.156042098999023 16.393785476684570 0.293973147869110 0.000000000000000
5.173204898834229 16.331733703613281 0.655130684375763 0.000000000000000
5.184087276458740 25.969827651977539 2.820781230926514 0.000000000000000
5.187322139739990 24.899772644042969 0.288556098937988 0.000000000000000
5.228367328643799 5.626587867736816 -0.222593292593956 0.000000000000000
5.231100082397461 9.160325050354004 -0.956298232078552 1.000000000000000
5.240794658660889 4.836236953735352 -0.426174074411392 0.000000000000000
5.242393493652344 -9.262880325317383 -1.278579235076904 0.000000000000000
5.250237941741943 16.899187088012695 0.030885331332684 0.000000000000000
5.253294944763184 37.708644866943359 3.820306301116943 0.000000000000000
5.260589122772217 4.820610046386719 -0.426412671804428 0.000000000000000
5.267529010772705 21.452022552490234 2.939491033554077 0.000000000000000
5.274760246276855 16.978118896484375 0.577352643013000 0.000000000000000
5.281615257263184 16.458208084106445 0.893763840198517 0.000000000000000
5.307750225067139 7.370495796203613 -0.823398768901825 1.000000000000000
5.332678794860840 26.236755371093750 2.107097625732422 0.000000000000000
5.341586589813232 23.043392181396484 1.815953850746155 0.000000000000000
5.355346679687500 19.770961761474609 0.153729259967804 0.000000000000000
5.359539985656738 13.494655609130859 -0.002534218132496 0.000000000000000
5.360919952392578 18.713012695312500 0.744397222995758 0.000000000000000
5.368929386138916 4.436990261077881 -0.201851904392242 0.000000000000000
5.370591163635254 16.751543045043945 0.402276635169983 0.000000000000000
5.375981807708740 15.149367332458496 0.182372540235519 0.000000000000000
5.387154102325439 24.882928848266602 1.365463137626648 0.000000000000000
5.387975692749023 17.897754669189453 0.176165342330933 0.000000000000000
5.388679504394531 -0.069976612925529 -0.614014267921448 1.000000000000000
5.389117240905762 14.800051689147949 0.541769206523895 0.000000000000000
5.400490760803223 24.530199050903320 0.960532248020172 0.000000000000000
5.400821208953857 36.468524932861328 1.480702638626099 1.000000000000000
5.401804924011230 35.810749053955078 2.640463113784790 0.000000000000000
5.420980453491211 20.237030029296875 0.479092359542847 0.000000000000000
5.427796840667725 26.652242660522461 1.249385118484497 0.000000000000000
5.460408210754395 35.361927032470703 2.608759164810181 0.000000000000000
5.467019081115723 14.988764762878418 1.255659580230713 0.000000000000000
5.467170238494873 27.333200454711914 1.280404090881348 0.000000000000000
5.470182895660400 38.575439453125000 2.991072654724121 0.000000000000000
5.475637912750244 17.199924468994141 0.586181104183197 0.000000000000000
5.492520332336426 36.257785797119141 2.037411451339722 0.000000000000000
5.500457286834717 19.456377029418945 1.084401369094849 0.000000000000000
5.512362003326416 18.545236587524414 0.182347908616066 0.000000000000000
5.515508651733398 16.983051300048828 0.648516893386841 0.000000000000000
5.535186767578125 14.156125068664551 1.049545764923096 0.000000000000000
5.553031921386719 10.532712936401367 -0.162105381488800 0.000000000000000
5.567735671997070 30.479978561401367 2.945250988006592 0.000000000000000
5.576615333557129 15.150259971618652 0.803696334362030 1.000000000000000
5.620951652526855 16.172075271606445 2.278356313705444 0.000000000000000
5.644864082336426 16.614002227783203 0.941085577011108 0.000000000000000
5.664656162261963 8.069571495056152 -0.115297317504883 0.000000000000000
5.668056964874268 24.349315643310547 0.619726717472076 0.000000000000000
5.694410800933838 36.877342224121094 2.145000696182251 0.000000000000000
5.718799591064453 17.820531845092773 0.679730474948883 0.000000000000000
5.725566387176514 15.529024124145508 1.047095417976379 0.000000000000000
5.725896358489990 14.494465827941895 1.316881656646729 0.000000000000000
5.727752685546875 20.935729980468750 0.997011899948120 0.000000000000000
5.763661384582520 0.385449528694153 -1.200679898262024 1.000000000000000
5.765501499176025 16.776563644409180 2.360668182373047 0.000000000000000
5.784247875213623 19.364587783813477 1.239638209342957 0.000000000000000
5.789714813232422 23.692859649658203 0.698315680027008 0.000000000000000
5.794359207153320 35.966361999511719 2.726406574249268 0.000000000000000
5.802605152130127 24.790128707885742 0.631126046180725 0.000000000000000
5.805378437042236 34.646991729736328 1.546095013618469 0.000000000000000
5.808296680450439 17.095018386840820 0.690439820289612 0.000000000000000
5.817265987396240 36.820354461669922 2.717833042144775 0.000000000000000
5.822152614593506 35.352615356445312 2.128624677658081 0.000000000000000
5.824531078338623 -0.945559084415436 -0.364008665084839 1.000000000000000
5.840929031372070 21.945693969726562 0.912115395069122 0.000000000000000
5.852774143218994 19.833618164062500 1.587543606758118 0.000000000000000
5.860842227935791 21.132089614868164 0.670015037059784 0.000000000000000
5.900471687316895 24.569664001464844 0.626368045806885 0.000000000000000
5.927185058593750 11.223849296569824 -0.831927895545959 0.000000000000000
5.941191196441650 4.261639595031738 -0.254048615694046 0.000000000000000
5.954675674438477 36.854957580566406 2.721905231475830 0.000000000000000
5.955663681030273 30.034257888793945 -0.240486457943916 0.000000000000000
5.961707115173340 29.524229049682617 0.688781023025513 1.000000000000000
5.989873409271240 28.737113952636719 1.630905628204346 0.000000000000000
6.028758049011230 36.607139587402344 2.776558637619019 0.000000000000000
6.033335208892822 22.877313613891602 1.314487695693970 0.000000000000000
6.037719726562500 11.171663284301758 -0.172886982560158 0.000000000000000
6.053307056427002 11.185564041137695 -0.197577297687531 0.000000000000000
6.062721252441406 17.589466094970703 0.639947652816772 0.000000000000000
6.064054489135742 16.807649612426758 -1.067821383476257 0.000000000000000
6.064229011535645 29.610795974731445 1.679278016090393 0.000000000000000
6.086704254150391 28.493806838989258 3.309400558471680 0.000000000000000
6.090620040893555 5.161383152008057 -0.369508057832718 0.000000000000000
6.092016220092773 13.824873924255371 0.926667511463165 0.000000000000000
6.101731777191162 11.495521545410156 -0.377168744802475 0.000000000000000
6.113090515136719 24.642858505249023 0.336802393198013 0.000000000000000
6.132945537567139 21.849409103393555 1.786043047904968 0.000000000000000
6.134977817535400 21.135997772216797 1.180373668670654 0.000000000000000
6.142441272735596 27.998016357421875 2.034540176391602 0.000000000000000
6.172382831573486 19.969350814819336 1.766170740127563 0.000000000000000
6.177566528320312 17.731595993041992 0.645860314369202 0.000000000000000
6.193849563598633 5.405338764190674 -0.618124663829803 0.000000000000000
6.194635868072510 29.502832412719727 2.430797815322876 0.000000000000000
6.213605403900146 5.026470661163330 -0.354534775018692 0.000000000000000
6.215590476989746 16.193864822387695 0.596633613109589 0.000000000000000
6.225618362426758 7.513727188110352 -0.207804128527641 0.000000000000000
6.243706226348877 19.268762588500977 0.190905466675758 0.000000000000000
6.278265953063965 20.981077194213867 1.723589539527893 0.000000000000000
6.279259681701660 15.519084930419922 1.783218264579773 0.000000000000000
6.299208641052246 28.241212844848633 2.053797960281372 0.000000000000000
6.313417911529541 19.254455566406250 0.190980881452560 0.000000000000000
6.339173316955566 15.270932197570801 1.173598885536194 0.000000000000000
6.339264392852783 15.020312309265137 0.968591749668121 0.000000000000000
6.356925487518311 14.916585922241211 1.213494181632996 0.000000000000000
6.360150814056396 15.473798751831055 1.187475919723511 0.000000000000000
6.379610061645508 21.695632934570312 1.561505794525146 0.000000000000000
6.396672248840332 14.490191459655762 -1.190962076187134 0.000000000000000
6.402421474456787 11.651266098022461 -0.999616384506226 0.000000000000000
6.403920650482178 30.325767517089844 2.700770616531372 0.000000000000000
6.416091442108154 11.757690429687500 -0.208077475428581 0.000000000000000
6.418101310729980 0.873577892780304 -0.187715321779251 1.000000000000000
6.422976016998291 20.525878906250000 1.817364096641541 0.000000000000000
6.424138545989990 25.241523742675781 1.246531963348389 0.000000000000000
6.438774108886719 22.634973526000977 1.488815069198608 0.000000000000000
6.444430828094482 27.105470657348633 1.547918081283569 0.000000000000000
6.455519199371338 5.509445190429688 -0.392810344696045 0.000000000000000
6.457244873046875 16.120599746704102 1.849734187126160 0.000000000000000
6.459959506988525 14.750465393066406 0.739682972431183 0.000000000000000
6.494259834289551 17.661333084106445 -0.834752142429352 0.000000000000000
6.514062881469727 21.495601654052734 2.392452716827393 0.000000000000000
6.545066356658936 5.792825698852539 -0.522337615489960 0.000000000000000
6.553245067596436 19.643699645996094 1.629752516746521 0.000000000000000
6.554334640502930 32.247299194335938 1.068628191947937 0.000000000000000
6.567601680755615 28.058380126953125 1.157400965690613 0.000000000000000
6.575333595275879 31.781793594360352 1.553241014480591 0.000000000000000
6.578344345092773 33.320774078369141 1.952400445938110 0.000000000000000
6.580286026000977 21.008010864257812 1.477636575698853 0.000000000000000
6.580630302429199 5.392136573791504 -0.377402305603027 0.000000000000000
6.595520019531250 17.050138473510742 0.910100042819977 0.000000000000000
6.607827663421631 13.721484184265137 2.257068872451782 0.000000000000000
6.618442058563232 31.565099716186523 0.180128231644630 0.000000000000000
6.635938167572021 33.005714416503906 1.416918039321899 0.000000000000000
6.641379833221436 25.719242095947266 1.680504679679871 0.000000000000000
6.644916534423828 17.105953216552734 1.444275140762329 0.000000000000000
6.665641307830811 24.400602340698242 0.821432471275330 0.000000000000000
6.680784225463867 5.005508899688721 -0.033510934561491 0.000000000000000
6.694490909576416 16.829347610473633 -0.037933655083179 0.000000000000000
6.711762428283691 13.968459129333496 1.350385308265686 0.000000000000000
6.734463214874268 26.908452987670898 2.129482269287109 0.000000000000000
6.735253810882568 31.573097229003906 0.180306941270828 0.000000000000000
6.748830318450928 20.063043594360352 1.094535350799561 0.000000000000000
6.766137599945068 14.750634193420410 0.495823323726654 0.000000000000000
6.769890785217285 8.228908538818359 -0.063233606517315 0.000000000000000
6.774680137634277 19.844863891601562 2.233577251434326 0.000000000000000
6.778111457824707 7.007673263549805 -0.226351693272591 0.000000000000000
6.797162532806396 27.038726806640625 2.797537803649902 0.000000000000000
6.821272850036621 17.743186950683594 1.496058106422424 0.000000000000000
6.827544689178467 8.165081977844238 -0.104031138122082 0.000000000000000
6.847240447998047 26.841291427612305 2.779566526412964 0.000000000000000
6.854868888854980 21.450706481933594 1.859343409538269 0.000000000000000
6.883095264434814 24.855018615722656 1.234294056892395 0.000000000000000
6.885040760040283 19.508733749389648 1.628183245658875 0.000000000000000
6.885374546051025 21.201066970825195 0.466932207345963 0.000000000000000
6.893383979797363 20.425477981567383 1.696599602699280 0.000000000000000
6.928273677825928 33.332370758056641 2.547890186309814 0.000000000000000
6.947303771972656 16.485898971557617 0.271668195724487 0.000000000000000
6.956572055816650 26.556545257568359 1.313839554786682 0.000000000000000
6.965575218200684 26.490930557250977 2.049954414367676 0.000000000000000
6.980984210968018 25.340896606445312 1.359132409095764 0.000000000000000
6.983933925628662 27.685571670532227 1.641348004341125 0.000000000000000
6.997639179229736 14.605861663818359 1.024617910385132 0.000000000000000
7.002191543579102 21.487977981567383 0.733927309513092 0.000000000000000
7.005680084228516 21.743202209472656 0.741846859455109 0.000000000000000
7.010881900787354 14.765548706054688 1.286415338516235 0.000000000000000
7.014340400695801 5.738928318023682 -0.140789344906807 0.000000000000000
7.018121242523193 24.887737274169922 0.293366134166718 0.000000000000000
7.023155689239502 37.934211730957031 2.440696954727173 0.000000000000000
7.024717807769775 20.644437789916992 1.127584099769592 0.000000000000000
7.025600433349609 16.671695709228516 0.552747130393982 0.000000000000000
7.025794982910156 30.015892028808594 2.686187028884888 0.000000000000000
7.027439117431641 27.110622406005859 1.663899779319763 0.000000000000000
7.029883861541748 8.038383483886719 -0.165890365839005 0.000000000000000
7.029905796051025 25.852979660034180 1.798291325569153 0.000000000000000
7.052076339721680 21.996305465698242 0.883341133594513 0.000000000000000
7.113478183746338 37.686637878417969 1.835474729537964 0.000000000000000
7.119700431823730 33.663108825683594 2.575055837631226 0.000000000000000
7.126952648162842 21.187131881713867 1.500406622886658 0.000000000000000
7.127491474151611 15.396356582641602 0.779328525066376 0.000000000000000
7.136566162109375 30.489133834838867 2.222587823867798 0.000000000000000
7.156933784484863 20.279142379760742 1.360516786575317 0.000000000000000
7.169639587402344 6.035045623779297 -0.289600402116776 0.000000000000000
7.169658660888672 19.717750549316406 1.408255219459534 0.000000000000000
7.180754661560059 8.452600479125977 -0.150997042655945 0.000000000000000
7.185374259948730 15.380345344543457 -0.002962871221825 0.000000000000000
7.187200069427490 23.954660415649414 1.148802995681763 0.000000000000000
7.190347671508789 22.161220550537109 1.249567985534668 0.000000000000000
7.193045616149902 17.264041900634766 0.895078361034393 0.000000000000000
7.200963973999023 15.600056648254395 0.590995967388153 0.000000000000000
7.210735797882080 23.794536590576172 1.956769943237305 0.000000000000000
7.225196361541748 5.452883720397949 -0.036336962133646 0.000000000000000
7.226663112640381 21.009191513061523 0.806907713413239 0.000000000000000
7.247512340545654 5.509541034698486 -0.036545701324940 0.000000000000000
7.280897617340088 20.214607238769531 2.440406322479248 0.000000000000000
7.289107799530029 7.670660972595215 -0.469404071569443 0.000000000000000
7.303019523620605 6.991365432739258 -0.448486536741257 0.000000000000000
7.306814193725586 17.057943344116211 0.923823177814484 0.000000000000000
7.306990623474121 6.533664703369141 -0.340583503246307 0.000000000000000
7.308616161346436 19.101356506347656 -0.082099378108978 0.000000000000000
7.317932605743408 14.185525894165039 0.671791374683380 0.000000000000000
7.325730800628662 28.639753341674805 1.244176506996155 0.000000000000000
7.329710960388184 21.431507110595703 2.272774934768677 0.000000000000000
7.346143722534180 6.053321838378906 -0.147872313857079 0.000000000000000
7.362334728240967 20.666715621948242 2.491868972778320 0.000000000000000
7.364384174346924 13.100679397583008 0.314806461334229 0.000000000000000
7.364748001098633 15.809601783752441 0.331836193799973 0.000000000000000
7.371303081512451 8.753087043762207 -0.111850090324879 0.000000000000000
7.392385959625244 21.564359664916992 1.706056475639343 0.000000000000000
7.394057273864746 37.452541351318359 3.460802555084229 0.000000000000000
7.404857635498047 20.221582412719727 1.778044581413269 0.000000000000000
7.406869888305664 17.944641113281250 1.228177785873413 0.000000000000000
7.417365074157715 24.109014511108398 0.770669996738434 0.000000000000000
7.426958084106445 20.503322601318359 1.632022976875305 0.000000000000000
7.439201831817627 17.680755615234375 0.918024122714996 0.000000000000000
7.447375297546387 20.337690353393555 2.058761119842529 0.000000000000000
7.465500831604004 28.360006332397461 2.138141155242920 0.000000000000000
7.468750476837158 7.187594890594482 -0.619455695152283 0.000000000000000
7.482306480407715 22.636308670043945 0.728404700756073 0.000000000000000
7.485247135162354 14.635008811950684 0.439060807228088 0.000000000000000
7.489310741424561 17.517765045166016 1.242026329040527 0.000000000000000
7.494812011718750 22.371078491210938 1.038351178169250 0.000000000000000
7.526034832000732 37.946750640869141 2.522044658660889 0.000000000000000
7.535480976104736 21.734184265136719 1.366656184196472 0.000000000000000
7.538677692413330 7.532366275787354 -0.390768498182297 1.000000000000000
7.547030925750732 28.669723510742188 2.687602281570435 0.000000000000000
7.567866325378418 13.564445495605469 0.773266792297363 0.000000000000000
7.581522941589355 22.559295654296875 2.011023044586182 0.000000000000000
7.595700263977051 14.948664665222168 0.641220986843109 0.000000000000000
7.606385707855225 15.099972724914551 0.386639147996902 0.000000000000000
7.606391429901123 24.419815063476562 1.174866199493408 0.000000000000000
7.610803604125977 22.143575668334961 1.165667891502380 0.000000000000000
7.625422000885010 23.081478118896484 1.069832324981689 0.000000000000000
7.635775089263916 15.689010620117188 0.633708596229553 0.000000000000000
7.636286258697510 -4.557199001312256 -0.240630641579628 1.000000000000000
7.641151428222656 23.002334594726562 1.673652052879333 0.000000000000000
7.643506526947021 22.869224548339844 0.736711144447327 0.000000000000000
7.654869079589844 26.720352172851562 0.208604693412781 0.000000000000000
7.663162231445312 38.497306823730469 3.165084600448608 0.000000000000000
7.663768768310547 6.814263343811035 -0.514118850231171 0.000000000000000
7.668176174163818 22.247289657592773 0.447723984718323 0.000000000000000
7.669693470001221 13.643800735473633 0.087416805326939 0.000000000000000
7.673838138580322 13.788302421569824 0.057836592197418 0.000000000000000
7.682036876678467 9.541567802429199 -0.237345039844513 0.000000000000000
7.691496372222900 13.251471519470215 0.556473076343536 0.000000000000000
7.696332454681396 24.628313064575195 0.243193373084068 0.000000000000000
7.697803497314453 21.402589797973633 1.526659011840820 0.000000000000000
7.703975200653076 22.731681823730469 1.425962567329407 0.000000000000000
7.718833446502686 23.866611480712891 1.490250587463379 0.000000000000000
7.758419513702393 30.928684234619141 0.912961840629578 0.000000000000000
7.771213531494141 13.491661071777344 0.565474212169647 0.000000000000000
7.783742427825928 20.448905944824219 2.330597400665283 0.000000000000000
7.793784141540527 13.837962150573730 0.760080397129059 0.000000000000000
7.798950195312500 23.594255447387695 1.141461133956909 0.000000000000000
7.800557136535645 17.731458663940430 0.145383879542351 0.000000000000000
7.812144279479980 20.741010665893555 1.744302749633789 0.000000000000000
7.814061641693115 17.258836746215820 -0.840424716472626 0.000000000000000
7.818662643432617 22.861164093017578 0.366900891065598 0.000000000000000
7.837315559387207 22.403694152832031 1.090252280235291 0.000000000000000
7.845249176025391 23.021579742431641 0.836579561233521 0.000000000000000
7.855062007904053 34.266803741455078 1.074100613594055 0.000000000000000
7.863858699798584 14.429929733276367 0.281111389398575 0.000000000000000
7.888155460357666 21.776536941528320 1.912335991859436 0.000000000000000
7.894812583923340 16.078378677368164 0.926192998886108 0.000000000000000
7.898067951202393 14.185370445251465 0.808270633220673 0.000000000000000
7.900099277496338 8.875604629516602 -0.481394976377487 0.000000000000000
7.904238700866699 6.946728706359863 -0.143264770507812 0.000000000000000
7.921824455261230 14.657844543457031 0.285010963678360 0.000000000000000
7.921933174133301 22.901777267456055 0.367994129657745 0.000000000000000
7.934650897979736 8.750089645385742 -0.024738974869251 0.000000000000000
7.960008621215820 8.650988578796387 -0.047191485762596 0.000000000000000
7.965473651885986 6.400057792663574 -0.926323533058167 0.000000000000000
7.969167232513428 12.404207229614258 -1.336578369140625 0.000000000000000
7.974812030792236 15.831361770629883 0.950725674629211 0.000000000000000
7.997892856597900 18.289918899536133 -0.271772891283035 0.000000000000000
8.006782531738281 14.100791931152344 0.526589274406433 0.000000000000000
8.032711029052734 18.231561660766602 -1.152225017547607 0.000000000000000
8.034785270690918 13.409744262695312 -0.693470060825348 0.000000000000000
8.043519020080566 22.826814651489258 1.484529256820679 0.000000000000000
8.044109344482422 14.418051719665527 0.567895114421844 0.000000000000000
8.073204994201660 8.975330352783203 -0.002106961561367 0.000000000000000
8.089422225952148 21.477174758911133 1.451941847801208 0.000000000000000
8.091161727905273 25.213125228881836 0.147891461849213 0.000000000000000
8.107063293457031 25.569124221801758 0.149812713265419 0.000000000000000
8.122213363647461 34.872867584228516 1.644739270210266 0.000000000000000
8.122509002685547 24.302391052246094 1.571710467338562 0.000000000000000
8.135410308837891 -0.529516041278839 -0.802245020866394 1.000000000000000
8.163761138916016 8.100175857543945 -0.598686516284943 0.000000000000000
8.167057037353516 10.216794013977051 -0.052506349980831 0.000000000000000
8.202251434326172 20.652250289916992 0.337444335222244 0.000000000000000
8.234527587890625 6.697040557861328 -0.798073530197144 0.000000000000000
8.243317604064941 16.319704055786133 1.438939929008484 0.000000000000000
8.246011734008789 24.123113632202148 0.729911565780640 0.000000000000000
8.248678207397461 12.630307197570801 0.287018150091171 0.000000000000000
8.251179695129395 23.586761474609375 0.763462901115417 0.000000000000000
8.251232147216797 18.332443237304688 0.575595259666443 0.000000000000000
8.260825157165527 14.667200088500977 0.287952721118927 0.000000000000000
8.282672882080078 14.496380805969238 0.093247577548027 0.000000000000000
8.286084175109863 9.147588729858398 -0.191736966371536 0.000000000000000
8.304053306579590 19.675701141357422 1.598289847373962 0.000000000000000
8.325093269348145 18.325372695922852 0.576282143592834 0.000000000000000
8.332419395446777 15.709358215332031 -0.447014153003693 0.000000000000000
8.340946197509766 14.480778694152832 -0.163337886333466 0.000000000000000
8.351762771606445 18.375541687011719 0.888331890106201 0.000000000000000
8.358104705810547 16.081813812255859 3.769816398620605 0.000000000000000
8.385271072387695 13.444818496704102 1.216453313827515 0.000000000000000
8.404712677001953 21.379281997680664 -0.004009370692074 0.000000000000000
8.445193290710449 16.575332641601562 1.981494784355164 0.000000000000000
8.485177993774414 16.427074432373047 0.920442104339600 0.000000000000000
8.487461090087891 9.599400520324707 -0.519122898578644 0.000000000000000
8.504743576049805 16.583309173583984 1.143151164054871 0.000000000000000
8.522768974304199 37.200466156005859 0.946044802665710 0.000000000000000
8.528562545776367 20.776195526123047 0.254795163869858 0.000000000000000
8.531825065612793 21.372182846069336 1.544607162475586 0.000000000000000
8.532330513000488 6.262580871582031 -0.022167060524225 0.000000000000000
8.576331138610840 7.484517097473145 -0.154972076416016 0.000000000000000
8.576533317565918 16.643804550170898 1.779793143272400 0.000000000000000
8.578861236572266 15.356978416442871 0.571250677108765 0.000000000000000
8.583862304687500 14.975534439086914 1.325147151947021 0.000000000000000
8.607791900634766 17.064208984375000 0.951468229293823 0.000000000000000
8.630140304565430 12.941331863403320 1.014074325561523 0.000000000000000
8.645036697387695 25.004892349243164 0.757500708103180 0.000000000000000
8.669418334960938 16.190107345581055 0.631697356700897 0.000000000000000
8.678737640380859 13.716746330261230 0.090656124055386 0.000000000000000
8.690434455871582 21.846973419189453 1.941300749778748 0.000000000000000
8.694632530212402 37.321712493896484 1.539134502410889 0.000000000000000
8.702405929565430 17.702774047851562 1.286003470420837 0.000000000000000
8.704108238220215 16.591567993164062 2.293865919113159 0.000000000000000
8.706563949584961 20.430036544799805 2.110996723175049 0.000000000000000
8.717673301696777 17.463581085205078 1.272472023963928 0.000000000000000
8.727550506591797 15.213305473327637 1.312603831291199 0.000000000000000
8.756442070007324 13.364953041076660 3.323433876037598 0.000000000000000
8.759191513061523 13.737530708312988 0.341277688741684 0.000000000000000
8.763226509094238 -1.258273005485535 -1.299734473228455 1.000000000000000
8.770500183105469 13.135400772094727 0.968788743019104 0.000000000000000
8.776539802551270 13.281044006347656 0.180602818727493 0.000000000000000
8.794810295104980 18.193748474121094 -1.207652330398560 0.000000000000000
8.803385734558105 13.939581871032715 0.662174582481384 0.000000000000000
8.809540748596191 13.923480987548828 0.345131099224091 0.000000000000000
8.814059257507324 13.276781082153320 1.008201837539673 0.000000000000000
8.814066886901855 20.349609375000000 -1.325291633605957 0.000000000000000
8.817228317260742 29.573066711425781 0.172353863716125 0.000000000000000
8.823287010192871 29.220458984375000 0.170477300882339 0.000000000000000
8.824731826782227 31.525930404663086 2.639767408370972 0.000000000000000
8.842097282409668 21.073640823364258 1.181701540946960 0.000000000000000
8.853453636169434 20.033697128295898 0.963957130908966 0.000000000000000
8.854181289672852 13.480236053466797 0.802900731563568 0.000000000000000
8.854208946228027 31.211088180541992 2.615976810455322 0.000000000000000
8.879661560058594 13.391318321228027 1.295611143112183 0.000000000000000
8.934232711791992 17.259456634521484 1.267007470130920 0.000000000000000
8.935590744018555 15.450735092163086 1.060398101806641 0.000000000000000
8.937045097351074 13.365643501281738 1.265388369560242 0.000000000000000
8.940402984619141 15.391421318054199 1.366481542587280 0.000000000000000
8.940638542175293 17.291065216064453 1.607218027114868 0.000000000000000
8.942157745361328 15.292879104614258 0.405111491680145 0.000000000000000
8.956774711608887 14.269467353820801 0.385267436504364 0.000000000000000
8.975265502929688 20.921705245971680 -1.009892344474792 0.000000000000000
8.981886863708496 13.648694038391113 1.855810403823853 0.000000000000000
8.983240127563477 14.276745796203613 1.327527999877930 0.000000000000000
8.983873367309570 16.919010162353516 0.953655898571014 0.000000000000000
8.991805076599121 17.383327484130859 1.200455784797668 0.000000000000000
9.006475448608398 17.854564666748047 1.303698301315308 0.000000000000000
9.013724327087402 15.839967727661133 1.363949656486511 0.000000000000000
9.022597312927246 -1.469746589660645 -0.581543326377869 1.000000000000000
9.023039817810059 -4.142123699188232 -0.268653690814972 1.000000000000000
9.049394607543945 6.562224864959717 -0.195117905735970 0.000000000000000
9.053367614746094 15.581513404846191 0.342869490385056 0.000000000000000
9.053466796875000 13.123261451721191 0.732341229915619 0.000000000000000
9.069014549255371 13.676878929138184 1.863936066627502 0.000000000000000
9.070034980773926 9.518487930297852 -0.052779316902161 0.000000000000000
9.081745147705078 15.505492210388184 0.618084371089935 0.000000000000000
9.102524757385254 13.999547004699707 3.473314046859741 0.000000000000000
9.102587699890137 12.274984359741211 0.261408269405365 0.000000000000000
9.113014221191406 17.786970138549805 1.302917718887329 0.000000000000000
9.118128776550293 24.851905822753906 0.097024738788605 0.000000000000000
9.142046928405762 21.074531555175781 -0.004009370692074 0.000000000000000
9.142511367797852 10.363581657409668 -0.055476892739534 0.000000000000000
9.160003662109375 17.872512817382812 1.077117800712585 0.000000000000000
9.161745071411133 11.949324607849121 0.749599456787109 0.000000000000000
9.178951263427734 15.473873138427734 0.135027185082436 0.000000000000000
9.179073333740234 13.815095901489258 0.761891782283783 0.000000000000000
9.180415153503418 22.241413116455078 1.893688917160034 0.000000000000000
9.187129974365234 15.758501052856445 1.365143775939941 0.000000000000000
9.212258338928223 16.092685699462891 1.173120617866516 0.000000000000000
9.224465370178223 8.802472114562988 -0.198074355721474 0.000000000000000
9.226366043090820 15.987626075744629 0.883414208889008 0.000000000000000
9.233355522155762 17.418176651000977 1.285222768783569 0.000000000000000
9.242630958557129 12.362078666687012 0.382620781660080 0.000000000000000
9.258101463317871 12.564730644226074 0.386883139610291 0.000000000000000
9.259258270263672 9.850461006164551 -0.158095300197601 0.000000000000000
9.267116546630859 15.768924713134766 0.242627173662186 0.000000000000000
9.268673896789551 18.236421585083008 1.057768583297729 0.000000000000000
9.290171623229980 16.098188400268555 1.462791562080383 0.000000000000000
9.298684120178223 14.221256256103516 1.337256908416748 0.000000000000000
9.301497459411621 18.686950683593750 1.984193086624146 0.000000000000000
9.322090148925781 24.667581558227539 2.177298069000244 0.000000000000000
9.326292037963867 22.165802001953125 1.521394729614258 0.000000000000000
9.330447196960449 8.316343307495117 -0.362221062183380 0.000000000000000
9.352408409118652 8.500786781311035 -0.584961950778961 0.000000000000000
9.352765083312988 34.395462036132812 1.843090891838074 0.000000000000000
9.378429412841797 27.520637512207031 0.553187191486359 0.000000000000000
9.379918098449707 31.899011611938477 2.809571981430054 0.000000000000000
9.380843162536621 19.516344070434570 1.286473989486694 0.000000000000000
9.383437156677246 18.467008590698242 1.110965132713318 0.000000000000000
9.392145156860352 14.255311965942383 1.343533635139465 0.000000000000000
9.393421173095703 8.963698387145996 -0.002266135532409 0.000000000000000
9.408248901367188 8.551543235778809 -0.392887920141220 0.000000000000000
9.415313720703125 18.251216888427734 0.548532307147980 0.000000000000000
9.424184799194336 31.098646163940430 0.555860280990601 0.000000000000000
9.439970016479492 11.873621940612793 0.580079495906830 0.000000000000000
9.447525978088379 12.833533287048340 0.027813553810120 0.000000000000000
9.448006629943848 15.015381813049316 1.122356891632080 0.000000000000000
9.455545425415039 17.750394821166992 0.807772755622864 0.000000000000000
9.463752746582031 24.950220108032227 3.267020940780640 0.000000000000000
9.473051071166992 12.100556373596191 0.115334473550320 0.000000000000000
9.494130134582520 22.192106246948242 1.620149850845337 0.000000000000000
9.495735168457031 29.471471786499023 0.529657900333405 0.000000000000000
9.496146202087402 14.764549255371094 1.144444227218628 0.000000000000000
9.496397972106934 17.184253692626953 0.750817000865936 0.000000000000000
9.497620582580566 13.102149963378906 0.556619703769684 0.000000000000000
9.502719879150391 9.286599159240723 -0.589414060115814 0.000000000000000
9.533920288085938 11.688901901245117 -0.031591828912497 0.000000000000000
9.540014266967773 17.986070632934570 0.426471441984177 0.000000000000000
9.574877738952637 32.388545989990234 1.096801161766052 0.000000000000000
9.579418182373047 12.304425239562988 0.566345334053040 0.000000000000000
9.584412574768066 12.954477310180664 1.361675858497620 0.000000000000000
9.599200248718262 23.039056777954102 1.964302062988281 0.000000000000000
9.602944374084473 7.178174972534180 -0.670304656028748 0.000000000000000
9.620853424072266 19.498865127563477 1.627246499061584 0.000000000000000
9.620873451232910 18.929386138916016 0.771193623542786 0.000000000000000
9.623032569885254 32.974418640136719 1.115496754646301 0.000000000000000
9.630444526672363 21.942937850952148 -0.188210889697075 0.000000000000000
9.631975173950195 13.874618530273438 1.068562626838684 0.000000000000000
9.635517120361328 12.119581222534180 1.069109320640564 0.000000000000000
9.652411460876465 22.475284576416016 1.076515436172485 0.000000000000000
9.669809341430664 11.557584762573242 0.286713778972626 0.000000000000000
9.676906585693359 22.402753829956055 1.261844992637634 0.000000000000000
9.681535720825195 16.696157455444336 0.960815846920013 0.000000000000000
9.682415008544922 8.690891265869141 -0.177134290337563 0.000000000000000
9.693064689636230 22.100286483764648 1.806061506271362 0.000000000000000
9.707300186157227 15.987070083618164 -0.146899372339249 0.000000000000000
9.711111068725586 12.384149551391602 0.571571767330170 0.000000000000000
9.714811325073242 21.941345214843750 2.280951499938965 1.000000000000000
9.723559379577637 19.418363571166992 0.371485710144043 0.000000000000000
9.724513053894043 17.743074417114258 0.773745059967041 0.000000000000000
9.728219985961914 7.295662879943848 -0.025467824190855 0.000000000000000
9.729797363281250 31.707895278930664 0.567353785037994 0.000000000000000
9.741768836975098 16.665714263916016 0.961014688014984 0.000000000000000
9.784151077270508 26.015163421630859 2.133768796920776 0.000000000000000
9.788051605224609 16.424819946289062 0.547433674335480 0.000000000000000
9.797617912292480 22.552343368530273 1.460834741592407 0.000000000000000
9.807462692260742 12.247850418090820 1.083437561988831 0.000000000000000
9.807888031005859 12.691757202148438 0.366795092821121 0.000000000000000
9.812024116516113 19.767066955566406 0.716659963130951 0.000000000000000
9.814911842346191 18.378606796264648 0.836828172206879 0.000000000000000
9.835691452026367 7.248320579528809 -0.494996458292007 0.000000000000000
9.860918998718262 10.194889068603516 -0.111399739980698 0.000000000000000
9.861765861511230 22.064853668212891 1.808748364448547 0.000000000000000
9.870087623596191 8.950280189514160 -0.053485821932554 0.000000000000000
9.899890899658203 13.582109451293945 0.836711287498474 1.000000000000000
9.900765419006348 18.509820938110352 0.439707040786743 0.000000000000000
9.905732154846191 12.370573043823242 0.362405627965927 0.000000000000000
9.909926414489746 14.036782264709473 0.227930516004562 0.000000000000000
9.920421600341797 16.162677764892578 1.163232207298279 0.000000000000000
9.924485206604004 15.219487190246582 1.184517860412598 0.000000000000000
9.924633979797363 25.717639923095703 2.276041746139526 0.000000000000000
9.941011428833008 13.173988342285156 -0.066251136362553 0.000000000000000
9.944726943969727 13.836490631103516 0.389656901359558 0.000000000000000
9.957524299621582 9.157051086425781 -0.054304730147123 0.000000000000000
9.976933479309082 -19.641807556152344 1.478708267211914 0.000000000000000
9.978301048278809 11.933079719543457 0.804325520992279 0.000000000000000
9.980136871337891 23.377748489379883 0.678936898708344 0.000000000000000
9.981215476989746 10.622228622436523 -0.058511663228273 0.000000000000000
9.981338500976562 13.385156631469727 0.606414794921875 0.000000000000000
9.992036819458008 13.583622932434082 -0.197198167443275 0.000000000000000
9.998001098632812 17.456077575683594 0.885342121124268 0.000000000000000
9.998777389526367 20.199029922485352 1.556270480155945 0.000000000000000
10.007049560546875 12.138659477233887 0.087863609194756 0.000000000000000
10.009813308715820 17.734146118164062 1.209850192070007 0.000000000000000
10.012939453125000 14.169040679931641 1.264967322349548 0.000000000000000
10.035348892211914 20.096178054809570 1.551035165786743 0.000000000000000
10.037525177001953 14.089759826660156 0.129833832383156 0.000000000000000
10.040248870849609 7.410971641540527 -0.145934134721756 0.000000000000000
10.059689521789551 9.082938194274902 -0.627312958240509 0.000000000000000
10.080602645874023 7.592969894409180 -0.705583810806274 0.000000000000000
10.084830284118652 8.943671226501465 -0.131749317049980 0.000000000000000
10.085844039916992 15.277422904968262 0.242839395999908 0.000000000000000
10.122898101806641 26.661323547363281 1.749256372451782 0.000000000000000
10.123582839965820 22.569152832031250 -1.097285151481628 1.000000000000000
10.131766319274902 12.149306297302246 0.118726663291454 0.000000000000000
10.132160186767578 13.595314979553223 1.170784950256348 0.000000000000000
10.156151771545410 14.739238739013672 0.856644034385681 0.000000000000000
10.159528732299805 12.236338615417480 1.067509412765503 0.000000000000000
10.162234306335449 16.256023406982422 0.585728704929352 0.000000000000000
10.170592308044434 -19.207288742065430 1.416893720626831 0.000000000000000
10.176093101501465 21.452081680297852 -0.642475128173828 0.000000000000000
10.180971145629883 20.970611572265625 0.174952954053879 0.000000000000000
10.183708190917969 12.717718124389648 0.873819231987000 0.000000000000000
10.189168930053711 -20.047515869140625 1.466075181961060 0.000000000000000
10.193045616149902 23.647546768188477 0.687801420688629 1.000000000000000
10.197096824645996 8.668598175048828 -0.336441755294800 0.000000000000000
10.201155662536621 12.918765068054199 1.136617422103882 0.000000000000000
10.202335357666016 21.795505523681641 3.566508769989014 0.000000000000000
10.220228195190430 12.309446334838867 -0.156379014253616 0.000000000000000
10.220955848693848 12.223272323608398 0.578685581684113 0.000000000000000
10.234633445739746 24.207571029663086 -0.307350367307663 0.000000000000000
10.258862495422363 22.712425231933594 1.817027211189270 0.000000000000000
10.298090934753418 -19.415279388427734 1.432767033576965 0.000000000000000
10.306198120117188 15.182778358459473 0.595918297767639 0.000000000000000
10.310734748840332 -19.450590133666992 1.477636575698853 0.000000000000000
10.314929008483887 -19.983100891113281 1.466075181961060 0.000000000000000
10.320487022399902 15.318622589111328 0.883987843990326 0.000000000000000
10.324465751647949 15.668593406677246 0.537245154380798 0.000000000000000
10.331732749938965 21.469690322875977 2.159977197647095 0.000000000000000
10.337563514709473 12.462268829345703 0.370270073413849 0.000000000000000
10.341684341430664 16.935089111328125 0.911480307579041 0.000000000000000
10.360117912292480 9.253585815429688 -1.259294509887695 0.000000000000000
10.374068260192871 18.530309677124023 1.589334249496460 0.000000000000000
10.374131202697754 9.845024108886719 -0.414480060338974 0.000000000000000
10.375935554504395 18.882352828979492 1.695658206939697 0.000000000000000
10.379189491271973 16.261980056762695 2.191219568252563 0.000000000000000
10.389575004577637 28.532733917236328 2.448479890823364 0.000000000000000
10.394866943359375 21.785470962524414 -0.282279640436172 0.000000000000000
10.396027565002441 8.411927223205566 -0.541792035102844 0.000000000000000
10.400842666625977 13.683752059936523 -0.068996876478195 0.000000000000000
10.401827812194824 22.826868057250977 2.274097204208374 0.000000000000000
10.402960777282715 12.396890640258789 0.961474955081940 0.000000000000000
10.420129776000977 25.496887207031250 0.471164286136627 0.000000000000000
10.423139572143555 13.416151046752930 1.205884218215942 0.000000000000000
10.424364089965820 14.089772224426270 0.940014421939850 0.000000000000000
10.425217628479004 21.207386016845703 1.905480504035950 0.000000000000000
10.441036224365234 11.951085090637207 -0.277004599571228 0.000000000000000
10.441987037658691 34.299766540527344 2.960335493087769 0.000000000000000
10.443991661071777 8.815862655639648 -0.133586779236794 1.000000000000000
10.447089195251465 13.953742980957031 1.304543733596802 0.000000000000000
10.458338737487793 9.950299263000488 -0.113378919661045 0.000000000000000
10.465871810913086 20.420454025268555 1.938948392868042 0.000000000000000
10.469310760498047 13.882158279418945 1.301259875297546 0.000000000000000
10.473813056945801 7.662309646606445 -0.525761723518372 0.000000000000000
10.476823806762695 7.874231815338135 -0.228766143321991 0.000000000000000
10.477418899536133 17.002857208251953 0.571817517280579 0.000000000000000
10.494150161743164 22.624248504638672 3.696104049682617 0.000000000000000
