# This PCD file was generated using the MATLAB® pcwrite function
# from Computer Vision Toolbox®.
# .PCD v.7 - Point Cloud Data file format
VERSION .7
FIELDS x y z intensity
SIZE 8 8 8 8
TYPE F F F F
COUNT 1 1 1 1
WIDTH 642
HEIGHT 1
VIEWPOINT 0 0 0 1 0 0 0
POINTS 642
DATA ascii
-8.342070579528809 28.129922866821289 1.517147064208984 0.000000000000000
-8.326884269714355 -5.931180953979492 -0.119553737342358 0.000000000000000
-8.326216697692871 -19.583019256591797 3.153680324554443 0.000000000000000
-8.325266838073730 -13.731500625610352 1.455754518508911 0.000000000000000
-8.311491966247559 -11.621792793273926 -0.002493726555258 0.000000000000000
-8.299179077148438 -13.388339996337891 2.334474086761475 0.000000000000000
-8.296587944030762 24.655660629272461 1.545524239540100 0.000000000000000
-8.284510612487793 13.241521835327148 1.774102449417114 0.000000000000000
-8.278367996215820 38.677680969238281 3.112943410873413 0.000000000000000
-8.277714729309082 -12.364171028137207 -0.145432487130165 0.000000000000000
-8.270536422729492 17.463310241699219 0.219219148159027 0.000000000000000
-8.264955520629883 22.936689376831055 0.979215800762177 0.000000000000000
-8.262989997863770 -13.640595436096191 -0.615452945232391 0.000000000000000
-8.261972427368164 23.149858474731445 1.934487700462341 0.000000000000000
-8.250756263732910 25.085933685302734 2.301106691360474 0.000000000000000
-8.249414443969727 22.968946456909180 3.616939306259155 0.000000000000000
-8.248682022094727 38.381855010986328 2.408013105392456 0.000000000000000
-8.231332778930664 -19.322383880615234 3.112632036209106 0.000000000000000
-8.229681015014648 20.702354431152344 1.366491794586182 0.000000000000000
-8.212660789489746 -4.923356533050537 -0.111976377665997 0.000000000000000
-8.203311920166016 21.695684432983398 1.512133955955505 0.000000000000000
-8.195001602172852 22.857597351074219 0.928585827350616 0.000000000000000
-8.191194534301758 22.308647155761719 1.732676744461060 0.000000000000000
-8.189931869506836 -13.921516418457031 0.059200040996075 0.000000000000000
-8.180831909179688 26.992296218872070 2.219764947891235 0.000000000000000
-8.175093650817871 -13.187136650085449 0.116445191204548 0.000000000000000
-8.173754692077637 13.785890579223633 1.354266405105591 0.000000000000000
-8.160529136657715 -22.676675796508789 -0.420672833919525 1.000000000000000
-8.157218933105469 20.244724273681641 1.212639331817627 0.000000000000000
-8.154074668884277 14.665639877319336 1.158661127090454 0.000000000000000
-8.152660369873047 22.452856063842773 1.327135562896729 0.000000000000000
-8.146943092346191 -13.162228584289551 0.116175010800362 0.000000000000000
-8.144269943237305 -23.484788894653320 3.307785034179688 0.000000000000000
-8.143252372741699 29.897871017456055 1.244567155838013 0.000000000000000
-8.141502380371094 17.783388137817383 1.501506924629211 0.000000000000000
-8.132326126098633 23.891269683837891 1.888752341270447 0.000000000000000
-8.130088806152344 24.219579696655273 1.813357591629028 0.000000000000000
-8.128929138183594 -12.894539833068848 0.524306058883667 0.000000000000000
-8.127369880676270 17.210681915283203 1.277528762817383 0.000000000000000
-8.122793197631836 24.139181137084961 2.421003341674805 0.000000000000000
-8.111288070678711 34.000217437744141 2.076672315597534 0.000000000000000
-8.103899002075195 -12.780547142028809 0.753378212451935 0.000000000000000
-8.102417945861816 34.388164520263672 1.554888606071472 0.000000000000000
-8.101022720336914 -14.294055938720703 1.229614377021790 0.000000000000000
-8.097721099853516 14.445318222045898 0.888172328472137 0.000000000000000
-8.094614982604980 -12.975248336791992 -0.296313226222992 0.000000000000000
-8.088782310485840 22.904247283935547 2.587340116500854 0.000000000000000
-8.081022262573242 -22.611694335937500 3.195397138595581 0.000000000000000
-8.073179244995117 20.239690780639648 1.210642337799072 0.000000000000000
-8.066491127014160 19.861389160156250 1.480220437049866 0.000000000000000
-8.065404891967773 22.745685577392578 1.294340848922729 0.000000000000000
-8.064671516418457 -19.803359985351562 2.428669452667236 0.000000000000000
-8.058565139770508 21.947431564331055 2.119529485702515 0.000000000000000
-8.056341171264648 22.974431991577148 1.681091785430908 0.000000000000000
-8.055500030517578 20.663419723510742 1.488619804382324 0.000000000000000
-8.041654586791992 20.109647750854492 1.887206196784973 0.000000000000000
-8.037757873535156 -12.977730751037598 0.671832859516144 0.000000000000000
-8.036525726318359 -23.438058853149414 3.297231912612915 0.000000000000000
-8.035214424133301 21.477451324462891 1.494959473609924 0.000000000000000
-8.032654762268066 20.278856277465820 1.674498677253723 0.000000000000000
-8.014874458312988 37.516979217529297 1.762207627296448 0.000000000000000
-8.007249832153320 21.058197021484375 -1.389784097671509 1.000000000000000
-7.992532730102539 -13.818957328796387 1.133100748062134 0.000000000000000
-7.990725517272949 -13.769215583801270 0.058349721133709 0.000000000000000
-7.981848716735840 -11.922245979309082 -0.360667169094086 0.000000000000000
-7.978495121002197 -23.084821701049805 3.250272035598755 0.000000000000000
-7.974803447723389 16.902114868164062 1.434759736061096 0.000000000000000
-7.973463058471680 -13.045217514038086 2.265864849090576 0.000000000000000
-7.961042404174805 -19.364803314208984 2.378109693527222 0.000000000000000
-7.959914207458496 22.114349365234375 3.483239173889160 0.000000000000000
-7.956689834594727 -12.927347183227539 0.084780678153038 0.000000000000000
-7.945338726043701 -22.476835250854492 -0.095699645578861 1.000000000000000
-7.943042755126953 16.579141616821289 1.844657778739929 0.000000000000000
-7.941433429718018 -22.448324203491211 0.132990613579750 1.000000000000000
-7.940229415893555 36.138244628906250 3.354266166687012 0.000000000000000
-7.939192295074463 22.029026031494141 1.436285734176636 0.000000000000000
-7.936175346374512 36.700065612792969 2.737611770629883 0.000000000000000
-7.933646678924561 15.392248153686523 0.628917694091797 0.000000000000000
-7.933542251586914 22.013347625732422 1.074834704399109 0.000000000000000
-7.929553985595703 21.075002670288086 0.341938734054565 0.000000000000000
-7.927198886871338 15.396891593933105 0.595671117305756 0.000000000000000
-7.925412178039551 31.135799407958984 2.528579950332642 0.000000000000000
-7.924552917480469 29.480096817016602 0.756716847419739 0.000000000000000
-7.921918869018555 26.470571517944336 2.174572467803955 0.000000000000000
-7.920858383178711 17.275960922241211 1.495744347572327 0.000000000000000
-7.920310497283936 33.673179626464844 1.389362812042236 0.000000000000000
-7.919413089752197 -14.423842430114746 1.752714157104492 0.000000000000000
-7.914076805114746 21.233797073364258 0.387631326913834 0.000000000000000
-7.891232013702393 30.554925918579102 3.361381292343140 0.000000000000000
-7.882001399993896 -14.302989959716797 1.854907512664795 0.000000000000000
-7.878123283386230 22.625413894653320 1.423353075981140 0.000000000000000
-7.875688552856445 17.336917877197266 1.204690098762512 0.000000000000000
-7.869365692138672 -22.190404891967773 3.133135557174683 1.000000000000000
-7.843677520751953 34.591156005859375 1.970622181892395 0.000000000000000
-7.838889598846436 22.262210845947266 1.766358137130737 0.000000000000000
-7.837016582489014 35.129894256591797 2.554786682128906 0.000000000000000
-7.832127571105957 35.107978820800781 1.444744586944580 0.000000000000000
-7.829253673553467 20.083068847656250 1.114571213722229 0.000000000000000
-7.825296878814697 20.281827926635742 1.459152698516846 0.000000000000000
-7.822101116180420 26.527606964111328 0.419983386993408 0.000000000000000
-7.810280323028564 17.004985809326172 1.147804141044617 0.000000000000000
-7.810100555419922 27.413896560668945 3.237623929977417 0.000000000000000
-7.806117057800293 -22.330739974975586 -0.094961024820805 1.000000000000000
-7.796462059020996 26.839086532592773 0.800201058387756 0.000000000000000
-7.789307117462158 24.498620986938477 1.131387591362000 0.000000000000000
-7.762401580810547 16.098867416381836 1.303070545196533 0.000000000000000
-7.761615276336670 17.948059082031250 2.898008346557617 0.000000000000000
-7.754235744476318 -12.472738265991211 -0.199949920177460 0.000000000000000
-7.745527267456055 13.124147415161133 1.448589682579041 0.000000000000000
-7.714550971984863 -12.852376937866211 -0.549655616283417 0.000000000000000
-7.713277816772461 19.485481262207031 1.826093316078186 0.000000000000000
-7.709969043731689 -13.192974090576172 0.320083945989609 0.000000000000000
-7.701032161712646 14.925576210021973 0.836114585399628 0.000000000000000
-7.699040889739990 27.121091842651367 1.240780353546143 0.000000000000000
-7.683353424072266 -14.058385848999023 1.819696307182312 0.000000000000000
-7.650891304016113 27.215248107910156 3.210989952087402 0.000000000000000
-7.642662048339844 21.206235885620117 0.342303156852722 0.000000000000000
-7.639356136322021 -12.627003669738770 -0.541154265403748 0.000000000000000
-7.637050628662109 22.626401901245117 0.408497452735901 0.000000000000000
-7.621291160583496 22.031362533569336 1.879761219024658 0.000000000000000
-7.616600036621094 25.130636215209961 1.661310553550720 0.000000000000000
-7.603476047515869 19.257183074951172 1.469547390937805 0.000000000000000
-7.599982738494873 25.774322509765625 0.820997416973114 0.000000000000000
-7.577288150787354 18.110542297363281 1.052910566329956 0.000000000000000
-7.568585395812988 21.232786178588867 0.342303156852722 0.000000000000000
-7.561853408813477 17.897916793823242 0.743021488189697 0.000000000000000
-7.556868553161621 18.061738967895508 0.447725951671600 0.000000000000000
-7.549693107604980 -13.864965438842773 1.242478370666504 0.000000000000000
-7.532876014709473 26.370992660522461 1.787966251373291 0.000000000000000
-7.523746967315674 18.341123580932617 -1.375820994377136 1.000000000000000
-7.511556148529053 27.821655273437500 1.767623305320740 0.000000000000000
-7.511218547821045 25.683036804199219 1.332135081291199 0.000000000000000
-7.507940292358398 21.990236282348633 0.397482872009277 0.000000000000000
-7.503532409667969 27.169164657592773 1.294720530509949 0.000000000000000
-7.480954647064209 17.332256317138672 2.797733306884766 0.000000000000000
-7.467001438140869 -12.586368560791016 -0.199242040514946 0.000000000000000
-7.435895919799805 24.756866455078125 1.336617946624756 0.000000000000000
-7.432806491851807 22.806724548339844 0.778978228569031 0.000000000000000
-7.421236991882324 24.797574996948242 1.637570261955261 0.000000000000000
-7.410877704620361 24.862447738647461 1.941590785980225 0.000000000000000
-7.393111705780029 20.868244171142578 0.463748961687088 0.000000000000000
-7.359834194183350 21.518362045288086 1.833788037300110 0.000000000000000
-7.358252525329590 24.374790191650391 2.420246362686157 0.000000000000000
-7.356560230255127 24.272647857666016 1.213834166526794 0.000000000000000
-7.351437568664551 20.647525787353516 2.083364963531494 0.000000000000000
-7.346879959106445 -13.554955482482910 1.243207931518555 1.000000000000000
-7.337295055389404 15.347087860107422 1.240244030952454 0.000000000000000
-7.328293323516846 28.944105148315430 2.838130474090576 0.000000000000000
-7.312283992767334 36.073158264160156 2.257650136947632 0.000000000000000
-7.308751106262207 18.824565887451172 -1.245707511901855 1.000000000000000
-7.285014629364014 22.091180801391602 1.113254904747009 0.000000000000000
-7.260966777801514 23.871702194213867 0.906210541725159 0.000000000000000
-7.259075641632080 17.807365417480469 1.142478108406067 0.000000000000000
-7.258265018463135 24.986358642578125 1.947262763977051 0.000000000000000
-7.230275630950928 -11.629944801330566 -0.396867275238037 0.000000000000000
-7.230030059814453 23.889753341674805 1.098499536514282 0.000000000000000
-7.207173824310303 -10.975631713867188 -0.203976809978485 0.000000000000000
-7.198266029357910 14.649454116821289 1.551546573638916 0.000000000000000
-7.176343441009521 26.966890335083008 2.250119686126709 0.000000000000000
-7.163246631622314 19.038326263427734 -1.254820108413696 1.000000000000000
-7.147938728332520 18.443754196166992 -1.372774600982666 0.000000000000000
-7.147921085357666 19.473600387573242 1.152506589889526 1.000000000000000
-7.143298149108887 27.470668792724609 1.576985836029053 0.000000000000000
-7.135879039764404 13.569974899291992 1.265893936157227 0.000000000000000
-7.134026050567627 18.474809646606445 -1.374436259269714 1.000000000000000
-7.093759536743164 36.487464904785156 2.136736631393433 0.000000000000000
-7.090014457702637 27.021709442138672 3.173070192337036 0.000000000000000
-7.089882373809814 14.302530288696289 1.194687366485596 0.000000000000000
-7.072105884552002 35.524707794189453 1.663827896118164 0.000000000000000
-7.066057205200195 20.900962829589844 1.693787932395935 0.000000000000000
-7.062946796417236 19.837259292602539 1.575900673866272 0.000000000000000
-7.061121940612793 23.414152145385742 2.217037200927734 0.000000000000000
-7.040367603302002 18.762390136718750 1.654614925384521 0.000000000000000
-7.033267974853516 22.936029434204102 0.686867892742157 0.000000000000000
-7.027401447296143 20.538215637207031 1.331472396850586 0.000000000000000
-7.018443584442139 19.507287979125977 1.231674909591675 0.000000000000000
-7.007100582122803 31.933853149414062 1.816407322883606 0.000000000000000
-6.996372699737549 17.970710754394531 0.663323521614075 0.000000000000000
-6.989301204681396 24.060459136962891 2.381637334823608 0.000000000000000
-6.958166122436523 21.061756134033203 2.519406080245972 0.000000000000000
-6.918600082397461 25.450614929199219 1.973831295967102 0.000000000000000
-6.904882431030273 20.695308685302734 0.373196065425873 0.000000000000000
-6.886157035827637 19.166904449462891 1.170751690864563 0.000000000000000
-6.871844768524170 -10.545011520385742 -0.195526957511902 0.000000000000000
-6.865707397460938 25.608875274658203 1.575177431106567 0.000000000000000
-6.848791122436523 24.798442840576172 2.581482410430908 0.000000000000000
-6.837411880493164 22.672344207763672 1.361285805702209 0.000000000000000
-6.833451747894287 22.948675155639648 1.376436710357666 0.000000000000000
-6.816563129425049 35.612091064453125 3.159464120864868 0.000000000000000
-6.815246105194092 17.641942977905273 0.941523909568787 0.000000000000000
-6.808167934417725 39.259799957275391 2.367273330688477 0.000000000000000
-6.804412841796875 26.547588348388672 1.522622346878052 0.000000000000000
-6.801841259002686 24.680473327636719 2.433494329452515 0.000000000000000
-6.798660278320312 18.185758590698242 2.376987457275391 0.000000000000000
-6.793304443359375 16.969017028808594 0.804440736770630 1.000000000000000
-6.792545795440674 31.453968048095703 2.284043312072754 0.000000000000000
-6.767322063446045 28.993713378906250 1.998399138450623 0.000000000000000
-6.756430149078369 18.322959899902344 1.235501766204834 0.000000000000000
-6.754004478454590 25.746538162231445 2.043445587158203 0.000000000000000
-6.732097625732422 18.455190658569336 1.242825865745544 0.000000000000000
-6.726570129394531 18.263580322265625 0.594645977020264 0.000000000000000
-6.723047733306885 18.202085494995117 -1.421535849571228 1.000000000000000
-6.719989299774170 16.919235229492188 1.467930555343628 0.000000000000000
-6.710168838500977 14.699644088745117 1.408025979995728 0.000000000000000
-6.704505920410156 20.534301757812500 2.453497886657715 0.000000000000000
-6.695533275604248 15.414852142333984 1.128050684928894 0.000000000000000
-6.689932346343994 25.982128143310547 1.645667552947998 0.000000000000000
-6.676373481750488 28.076616287231445 1.603391051292419 0.000000000000000
-6.676158905029297 16.639352798461914 2.036380529403687 0.000000000000000
-6.668519020080566 16.453872680664062 2.016517877578735 0.000000000000000
-6.664636611938477 21.618080139160156 0.517317295074463 0.000000000000000
-6.662013053894043 18.748451232910156 0.531444072723389 0.000000000000000
-6.649248600006104 29.703187942504883 1.808369994163513 0.000000000000000
-6.648750305175781 28.400608062744141 1.171527385711670 0.000000000000000
-6.630581378936768 22.732244491577148 0.768981277942657 0.000000000000000
-6.614471435546875 20.151218414306641 1.922708272933960 0.000000000000000
-6.589607715606689 28.597349166870117 1.630461812019348 0.000000000000000
-6.586549758911133 18.536081314086914 1.130808353424072 0.000000000000000
-6.576406002044678 22.085443496704102 0.615496873855591 0.000000000000000
-6.564517021179199 34.188663482666016 3.493228197097778 0.000000000000000
-6.558628082275391 25.343914031982422 1.605750203132629 0.000000000000000
-6.557662963867188 18.252574920654297 0.816275298595428 0.000000000000000
-6.552391052246094 -10.070932388305664 -0.163575589656830 0.000000000000000
-6.551287651062012 22.172199249267578 0.750805139541626 0.000000000000000
-6.551044464111328 21.934476852416992 1.051524519920349 0.000000000000000
-6.545530796051025 29.726217269897461 1.808369994163513 0.000000000000000
-6.529284954071045 25.248691558837891 2.002111434936523 0.000000000000000
-6.528058052062988 15.261991500854492 1.370562195777893 0.000000000000000
-6.527828216552734 19.655429840087891 1.877565860748291 0.000000000000000
-6.506270408630371 14.020402908325195 -0.596480309963226 0.000000000000000
-6.489790439605713 33.380886077880859 1.431215047836304 0.000000000000000
-6.476619243621826 36.987365722656250 3.027807712554932 0.000000000000000
-6.445496559143066 -21.494863510131836 2.747389316558838 0.000000000000000
-6.435723781585693 33.730842590332031 1.973978996276855 0.000000000000000
-6.432470321655273 18.418720245361328 2.078091144561768 0.000000000000000
-6.431621551513672 14.327060699462891 2.327437162399292 0.000000000000000
-6.430924415588379 28.287488937377930 2.395192623138428 0.000000000000000
-6.424368858337402 -9.435806274414062 -0.330819278955460 0.000000000000000
-6.417935371398926 24.925756454467773 2.582680702209473 0.000000000000000
-6.416101455688477 16.121311187744141 1.131173014640808 0.000000000000000
-6.400527000427246 24.858144760131836 1.179087758064270 0.000000000000000
-6.393074989318848 21.681257247924805 1.038309335708618 0.000000000000000
-6.367377281188965 28.979749679565430 1.705624461174011 0.000000000000000
-6.345451831817627 -9.514964103698730 -0.507339298725128 0.000000000000000
-6.339041233062744 23.593341827392578 1.498488068580627 0.000000000000000
-6.326508998870850 20.541666030883789 0.780630290508270 0.000000000000000
-6.326430320739746 17.913959503173828 0.909228265285492 0.000000000000000
-6.323747158050537 20.969070434570312 1.596843242645264 0.000000000000000
-6.292599678039551 27.448545455932617 2.270694971084595 0.000000000000000
-6.282896995544434 36.480331420898438 2.413273096084595 0.000000000000000
-6.278984069824219 18.182901382446289 1.513946890830994 0.000000000000000
-6.260865211486816 32.095649719238281 3.108392715454102 0.000000000000000
-6.260597705841064 31.845767974853516 3.686341047286987 0.000000000000000
-6.250698089599609 34.198528289794922 1.262626290321350 0.000000000000000
-6.250479221343994 20.885566711425781 0.372922390699387 0.000000000000000
-6.237333774566650 26.843662261962891 2.168923377990723 0.000000000000000
-6.209994792938232 13.266552925109863 -0.340084582567215 0.000000000000000
-6.209266662597656 33.440334320068359 2.611103534698486 0.000000000000000
-6.181759357452393 23.099672317504883 1.743438720703125 0.000000000000000
-6.181093215942383 23.097183227539062 2.167561054229736 0.000000000000000
-6.162177562713623 33.423919677734375 2.961541891098022 0.000000000000000
-6.156228065490723 -10.407129287719727 -0.094969376921654 0.000000000000000
-6.136540412902832 36.017501831054688 3.666152238845825 1.000000000000000
-6.124578475952148 25.021537780761719 2.176728010177612 0.000000000000000
-6.122889995574951 27.142902374267578 1.813988208770752 0.000000000000000
-6.115930080413818 28.282520294189453 1.663385629653931 0.000000000000000
-6.106626987457275 17.110630035400391 1.149380326271057 0.000000000000000
-6.105918407440186 27.882682800292969 1.860827803611755 0.000000000000000
-6.074620246887207 26.974973678588867 2.176141738891602 0.000000000000000
-6.065332412719727 39.457519531250000 2.448665142059326 0.000000000000000
-6.064293861389160 31.426448822021484 3.635329961776733 0.000000000000000
-6.046130180358887 33.744834899902344 1.772655725479126 0.000000000000000
-6.033960819244385 17.085802078247070 1.426072597503662 0.000000000000000
-6.026162147521973 16.445898056030273 0.669804632663727 0.000000000000000
-5.982740402221680 21.961038589477539 0.695423066616058 0.000000000000000
-5.978210449218750 19.654415130615234 0.430324852466583 0.000000000000000
-5.975385665893555 -20.525951385498047 0.653157770633698 1.000000000000000
-5.972017765045166 26.115018844604492 2.108353137969971 0.000000000000000
-5.969568252563477 16.261573791503906 2.120817422866821 0.000000000000000
-5.964990615844727 -20.490243911743164 2.141384601593018 1.000000000000000
-5.955169200897217 25.844036102294922 1.882459402084351 0.000000000000000
-5.952289104461670 36.472240447998047 1.129069924354553 0.000000000000000
-5.950591564178467 24.310728073120117 1.728209733963013 0.000000000000000
-5.935140609741211 14.370525360107422 1.223648190498352 0.000000000000000
-5.934746265411377 -20.466192245483398 1.635920047760010 1.000000000000000
-5.929523468017578 8.949027061462402 -1.181383371353149 1.000000000000000
-5.927105426788330 25.318050384521484 1.845642805099487 0.000000000000000
-5.905423641204834 -20.489347457885742 1.554667949676514 1.000000000000000
-5.893382549285889 21.633029937744141 0.340481102466583 0.000000000000000
-5.891093730926514 21.877395629882812 0.387562900781631 0.000000000000000
-5.873306751251221 36.111175537109375 2.738049268722534 0.000000000000000
-5.867048263549805 -20.419136047363281 2.131799697875977 1.000000000000000
-5.863553047180176 22.347377777099609 0.439582169055939 0.000000000000000
-5.862788200378418 15.828792572021484 0.645500838756561 0.000000000000000
-5.856798648834229 36.692333221435547 1.706777215003967 0.000000000000000
-5.845412731170654 -16.723688125610352 2.357502698898315 0.000000000000000
-5.834354400634766 16.169223785400391 1.087504267692566 0.000000000000000
-5.832948207855225 27.088289260864258 1.806441903114319 0.000000000000000
-5.779700756072998 22.175889968872070 2.178372859954834 0.000000000000000
-5.773668766021729 34.792984008789062 1.484366297721863 0.000000000000000
-5.764318943023682 -20.328687667846680 0.645584225654602 1.000000000000000
-5.762067794799805 23.234722137451172 1.976519227027893 0.000000000000000
-5.754927158355713 29.101802825927734 2.105624437332153 0.000000000000000
-5.748548507690430 21.441907882690430 -1.412210583686829 1.000000000000000
-5.741183280944824 -20.276754379272461 1.333240866661072 1.000000000000000
-5.736088752746582 35.267509460449219 3.396445035934448 0.000000000000000
-5.727105140686035 17.857124328613281 1.078009724617004 0.000000000000000
-5.725599288940430 -20.272996902465820 1.617242932319641 1.000000000000000
-5.717163562774658 22.933696746826172 1.951504230499268 0.000000000000000
-5.706973552703857 25.661918640136719 1.764538168907166 0.000000000000000
-5.692649364471436 17.549343109130859 1.060563325881958 0.000000000000000
-5.677143096923828 14.263132095336914 1.060016393661499 0.000000000000000
-5.673519134521484 30.991685867309570 1.689798116683960 0.000000000000000
-5.664897918701172 29.181388854980469 1.651541590690613 1.000000000000000
-5.664189338684082 -20.274557113647461 1.656742453575134 1.000000000000000
-5.662806510925293 21.727384567260742 1.680383563041687 0.000000000000000
-5.659566879272461 19.443613052368164 0.618710279464722 0.000000000000000
-5.649878978729248 21.619066238403320 0.553907990455627 0.000000000000000
-5.640292167663574 -20.189018249511719 1.326169252395630 1.000000000000000
-5.620450496673584 37.067123413085938 1.577885508537292 0.000000000000000
-5.615014076232910 -20.460481643676758 2.823410034179688 0.000000000000000
-5.608808040618896 36.138969421386719 2.102302551269531 0.000000000000000
-5.606922626495361 31.243259429931641 1.702437400817871 0.000000000000000
-5.603877544403076 21.236822128295898 1.262575387954712 0.000000000000000
-5.602765083312988 18.834905624389648 1.394781470298767 0.000000000000000
-5.596470355987549 34.469726562500000 1.469732880592346 0.000000000000000
-5.590425968170166 21.038436889648438 0.706922709941864 0.000000000000000
-5.565628528594971 23.019617080688477 2.146975994110107 0.000000000000000
-5.545725345611572 24.777637481689453 3.762953996658325 0.000000000000000
-5.526000022888184 28.524423599243164 1.111093044281006 0.000000000000000
-5.516399860382080 37.061492919921875 1.504942178726196 1.000000000000000
-5.507349014282227 20.452306747436523 0.687837719917297 0.000000000000000
-5.490390300750732 17.978443145751953 1.370551109313965 0.000000000000000
-5.482716560363770 22.676689147949219 1.700972437858582 0.000000000000000
-5.479829788208008 24.973535537719727 1.814773559570312 0.000000000000000
-5.464385509490967 26.743644714355469 3.341879367828369 0.000000000000000
-5.440373897552490 17.594573974609375 1.669549226760864 0.000000000000000
-5.440073966979980 19.847438812255859 0.431078791618347 0.000000000000000
-5.435922145843506 -11.464031219482422 -0.562824010848999 1.000000000000000
-5.425843238830566 -11.463440895080566 -0.367551237344742 1.000000000000000
-5.424113750457764 -11.475319862365723 -1.347493886947632 1.000000000000000
-5.417707920074463 19.490715026855469 2.692027330398560 0.000000000000000
-5.407841682434082 17.904863357543945 2.771931409835815 0.000000000000000
-5.407535552978516 21.088455200195312 1.973628878593445 0.000000000000000
-5.402336120605469 14.914027214050293 1.034111261367798 0.000000000000000
-5.380686283111572 21.292364120483398 1.601206183433533 0.000000000000000
-5.372756481170654 18.701278686523438 0.295476377010345 0.000000000000000
-5.369455337524414 36.502872467041016 1.340006947517395 0.000000000000000
-5.366474628448486 -11.552634239196777 -1.080854177474976 1.000000000000000
-5.349455833435059 17.874855041503906 0.605915188789368 0.000000000000000
-5.349032402038574 32.515083312988281 3.742769241333008 0.000000000000000
-5.340103149414062 31.585926055908203 0.794086813926697 0.000000000000000
-5.333559513092041 18.003469467163086 0.645860314369202 0.000000000000000
-5.326012611389160 16.670494079589844 1.174662232398987 0.000000000000000
-5.318366527557373 20.299810409545898 0.358966022729874 0.000000000000000
-5.317329406738281 15.199203491210938 0.553869605064392 0.000000000000000
-5.313171386718750 -9.027538299560547 -0.142611339688301 0.000000000000000
-5.302639007568359 17.600929260253906 1.601781368255615 0.000000000000000
-5.301520347595215 20.306324005126953 -1.375558853149414 1.000000000000000
-5.301508903503418 31.572145462036133 3.636232614517212 0.000000000000000
-5.300765991210938 26.702314376831055 2.247735261917114 0.000000000000000
-5.288880348205566 17.672445297241211 0.882840514183044 0.000000000000000
-5.279102325439453 17.249923706054688 1.571919441223145 0.000000000000000
-5.277395725250244 16.719432830810547 1.176805257797241 0.000000000000000
-5.273295879364014 25.625890731811523 1.958009600639343 0.000000000000000
-5.273010253906250 -18.787017822265625 3.335416078567505 0.000000000000000
-5.260660648345947 28.629318237304688 2.638848304748535 1.000000000000000
-5.254208087921143 35.719394683837891 1.866844773292542 0.000000000000000
-5.252755165100098 17.506120681762695 0.628672242164612 0.000000000000000
-5.250768184661865 28.051778793334961 2.587205410003662 0.000000000000000
-5.248808860778809 -11.696050643920898 -0.963926553726196 1.000000000000000
-5.240505218505859 32.121318817138672 0.806774735450745 0.000000000000000
-5.216408252716064 22.810815811157227 0.759893178939819 0.000000000000000
-5.213407516479492 14.860536575317383 0.784006595611572 0.000000000000000
-5.208384037017822 23.653629302978516 1.812629103660583 0.000000000000000
-5.202151298522949 30.769960403442383 0.294124126434326 0.000000000000000
-5.196888923645020 20.996496200561523 1.410127997398376 0.000000000000000
-5.180818557739258 -10.991866111755371 -0.095440611243248 0.000000000000000
-5.174396514892578 21.921720504760742 0.731460511684418 0.000000000000000
-5.171224594116211 -10.996382713317871 -0.095440611243248 0.000000000000000
-5.168466567993164 -18.664714813232422 3.310479402542114 0.000000000000000
-5.150611400604248 25.479932785034180 1.945471644401550 1.000000000000000
-5.139095783233643 -11.774686813354492 -1.164675831794739 1.000000000000000
-5.138587951660156 20.118385314941406 1.073673367500305 0.000000000000000
-5.136318206787109 8.270806312561035 -0.282152354717255 1.000000000000000
-5.135446071624756 -11.095808982849121 -1.226843118667603 1.000000000000000
-5.113823890686035 14.283915519714355 0.784496188163757 0.000000000000000
-5.102277278900146 16.101963043212891 2.887234210968018 0.000000000000000
-5.088572978973389 20.558877944946289 1.707763314247131 0.000000000000000
-5.071291446685791 15.998355865478516 1.385702848434448 0.000000000000000
-5.064031600952148 18.710973739624023 1.039628624916077 0.000000000000000
-5.055976390838623 8.081204414367676 -0.257942169904709 1.000000000000000
-5.054621219635010 -11.112421989440918 -0.541551887989044 1.000000000000000
-5.040637493133545 14.623318672180176 0.710499465465546 0.000000000000000
-5.037423610687256 19.439081192016602 1.038352370262146 0.000000000000000
-5.019655704498291 25.925350189208984 3.232994794845581 0.000000000000000
-5.007185935974121 15.480361938476562 1.374811053276062 0.000000000000000
-5.001064777374268 7.865840435028076 -0.234313026070595 1.000000000000000
-4.978847980499268 -6.961823463439941 -0.132960826158524 0.000000000000000
-4.958546161651611 9.665708541870117 -0.523706197738647 1.000000000000000
-4.954432010650635 30.357940673828125 1.412922978401184 0.000000000000000
-4.951026439666748 21.985540390014648 0.731849968433380 0.000000000000000
-4.938127517700195 30.414869308471680 1.771278381347656 0.000000000000000
-4.933608531951904 14.663286209106445 2.292839288711548 0.000000000000000
-4.925663471221924 17.963298797607422 0.712297916412354 0.000000000000000
-4.921640872955322 20.758474349975586 0.774823069572449 0.000000000000000
-4.917856216430664 25.087411880493164 1.617365837097168 0.000000000000000
-4.901164054870605 15.656854629516602 2.804337501525879 0.000000000000000
-4.890074253082275 -11.241572380065918 -1.301465511322021 1.000000000000000
-4.885489463806152 -11.360895156860352 -0.358397215604782 0.000000000000000
-4.874627113342285 14.884026527404785 2.084184169769287 0.000000000000000
-4.873323917388916 23.101615905761719 0.812103748321533 0.000000000000000
-4.869522571563721 30.579132080078125 2.943358659744263 0.000000000000000
-4.862750053405762 39.478527069091797 3.605980873107910 0.000000000000000
-4.861834526062012 10.065257072448730 -0.560383558273315 1.000000000000000
-4.855926513671875 9.924885749816895 -0.490144342184067 1.000000000000000
-4.850358963012695 -11.361065864562988 -0.928836464881897 1.000000000000000
-4.849783420562744 25.047996520996094 2.106531858444214 0.000000000000000
-4.833174228668213 30.439809799194336 1.771737575531006 0.000000000000000
-4.815992832183838 7.191597938537598 -1.270683765411377 1.000000000000000
-4.815673351287842 24.119806289672852 1.177120685577393 0.000000000000000
-4.815381050109863 23.228090286254883 0.815953910350800 0.000000000000000
-4.791945934295654 -12.134620666503906 -0.378095746040344 1.000000000000000
-4.771305084228516 8.793504714965820 -0.386084884405136 0.000000000000000
-4.766977310180664 -11.402536392211914 -0.905410766601562 1.000000000000000
-4.762038230895996 -12.197634696960449 -1.313904285430908 1.000000000000000
-4.754740715026855 9.609507560729980 -0.558136343955994 1.000000000000000
-4.753117084503174 34.599830627441406 3.166112422943115 0.000000000000000
-4.753070354461670 25.353712081909180 3.158136606216431 0.000000000000000
-4.721834659576416 -12.220412254333496 -1.111629486083984 1.000000000000000
-4.669587612152100 21.759431838989258 0.765489637851715 0.000000000000000
-4.667026996612549 21.655370712280273 1.102820038795471 0.000000000000000
-4.663115024566650 9.811217308044434 -0.147893235087395 0.000000000000000
-4.653454303741455 34.774150848388672 3.180557966232300 0.000000000000000
-4.646387577056885 19.781984329223633 0.894311547279358 0.000000000000000
-4.629998207092285 17.790119171142578 2.250603675842285 0.000000000000000
-4.628200054168701 35.055328369140625 1.692254424095154 0.000000000000000
-4.613014698028564 16.321617126464844 0.713841438293457 0.000000000000000
-4.601547241210938 9.488733291625977 -0.467808663845062 0.000000000000000
-4.601400375366211 9.663962364196777 -0.310193777084351 0.000000000000000
-4.600221157073975 22.552349090576172 1.411796569824219 0.000000000000000
-4.596816062927246 -11.583052635192871 -0.672728598117828 1.000000000000000
-4.595595836639404 -11.570554733276367 -0.504387974739075 1.000000000000000
-4.592565059661865 29.009416580200195 0.276820480823517 0.000000000000000
-4.590949058532715 22.361379623413086 0.960759222507477 0.000000000000000
-4.584059238433838 37.077293395996094 3.551258802413940 0.000000000000000
-4.568707942962646 32.878593444824219 1.077975988388062 0.000000000000000
-4.566555500030518 17.286149978637695 1.476217985153198 0.000000000000000
-4.536725521087646 14.303299903869629 0.891493499279022 0.000000000000000
-4.527860641479492 28.376199722290039 0.712309062480927 0.000000000000000
-4.523546218872070 22.656656265258789 0.750285804271698 0.000000000000000
-4.493165493011475 29.576997756958008 2.238919258117676 0.000000000000000
-4.488366603851318 15.267848968505859 0.669772982597351 0.000000000000000
-4.460179805755615 -12.478761672973633 -0.053196799010038 0.000000000000000
-4.394847393035889 15.759674072265625 0.940503835678101 0.000000000000000
-4.389533996582031 21.654569625854492 1.696237444877625 0.000000000000000
-4.374376773834229 22.592634201049805 1.544607162475586 0.000000000000000
-4.368438243865967 -11.869236946105957 -0.099336147308350 0.000000000000000
-4.362523555755615 23.929426193237305 0.089151918888092 1.000000000000000
-4.349440574645996 22.796237945556641 0.976738214492798 0.000000000000000
-4.304654121398926 20.861541748046875 2.137390851974487 0.000000000000000
-4.303077697753906 19.704267501831055 1.548352479934692 0.000000000000000
-4.302729129791260 -12.639904975891113 -0.797942876815796 0.000000000000000
-4.281982898712158 -11.902788162231445 -0.877888917922974 0.000000000000000
-4.277488708496094 -11.968938827514648 -1.078486919403076 1.000000000000000
-4.275784969329834 23.673690795898438 1.800389647483826 0.000000000000000
-4.273978710174561 24.343269348144531 0.138039469718933 0.000000000000000
-4.269627571105957 28.781728744506836 1.728662252426147 0.000000000000000
-4.265983104705811 29.699338912963867 0.686129033565521 0.000000000000000
-4.253478050231934 -12.690956115722656 -1.420970559120178 1.000000000000000
-4.236799240112305 14.600272178649902 0.406059175729752 0.000000000000000
-4.235879898071289 -12.683249473571777 -0.053678508847952 0.000000000000000
-4.233648300170898 21.464029312133789 0.794567465782166 0.000000000000000
-4.233089923858643 -11.976460456848145 -0.490202873945236 1.000000000000000
-4.231248378753662 18.838373184204102 1.184292912483215 0.000000000000000
-4.229865074157715 36.468399047851562 3.199048757553101 0.000000000000000
-4.205087661743164 -12.731411933898926 -0.053823024034500 0.000000000000000
-4.202167510986328 -12.022375106811523 -0.100027292966843 0.000000000000000
-4.198796272277832 -12.012729644775391 -0.883150756359100 1.000000000000000
-4.192199707031250 26.325748443603516 1.995026350021362 0.000000000000000
-4.180293083190918 28.959016799926758 0.219591796398163 0.000000000000000
-4.177828311920166 -12.707687377929688 -1.420125961303711 1.000000000000000
-4.177018165588379 -12.750210762023926 -1.216318845748901 0.000000000000000
-4.171708106994629 25.649141311645508 1.543863654136658 0.000000000000000
-4.166869163513184 21.113826751708984 1.154238462448120 0.000000000000000
-4.164083957672119 16.050460815429688 2.206597089767456 0.000000000000000
-4.148504257202148 16.185493469238281 1.455943942070007 0.000000000000000
-4.125667572021484 21.714010238647461 1.142869234085083 0.000000000000000
-4.106822490692139 30.330751419067383 0.523569107055664 0.000000000000000
-4.095968246459961 15.564185142517090 2.141696929931641 0.000000000000000
-4.095942497253418 7.945610046386719 -0.396547138690948 0.000000000000000
-4.054679870605469 8.433283805847168 -0.523159205913544 1.000000000000000
-4.052225589752197 16.042505264282227 1.174448490142822 0.000000000000000
-4.043640613555908 22.843971252441406 1.378280282020569 0.000000000000000
-4.040868282318115 24.888477325439453 0.286060333251953 0.000000000000000
-4.031239032745361 8.469923973083496 -0.542508840560913 1.000000000000000
-4.026753902435303 7.490698814392090 -0.246463268995285 0.000000000000000
-4.015442848205566 25.733133316040039 1.196340799331665 0.000000000000000
-3.983842134475708 16.248661041259766 1.187475919723511 0.000000000000000
-3.979995012283325 34.314105987548828 1.387436389923096 0.000000000000000
-3.952178239822388 24.891208648681641 0.673169612884521 0.000000000000000
-3.949459314346313 -17.424430847167969 1.095887303352356 0.000000000000000
-3.918370962142944 25.699592590332031 1.194138407707214 0.000000000000000
-3.911076545715332 -6.148868560791016 -0.099212631583214 0.000000000000000
-3.909878730773926 39.408458709716797 3.450792074203491 0.000000000000000
-3.901776790618896 19.542457580566406 1.260757327079773 0.000000000000000
-3.848741769790649 -2.120327472686768 -0.127345159649849 0.000000000000000
-3.847567081451416 -2.089145183563232 -0.126881644129753 0.000000000000000
-3.833914756774902 15.578371047973633 1.397956132888794 0.000000000000000
-3.831802845001221 23.396835327148438 0.405555665493011 0.000000000000000
-3.799722194671631 -17.561059951782227 0.859894752502441 1.000000000000000
-3.792375326156616 -17.265964508056641 0.608046531677246 0.000000000000000
-3.758986949920654 22.750600814819336 1.503286480903625 0.000000000000000
-3.748850345611572 36.804492950439453 2.625870704650879 0.000000000000000
-3.735912084579468 24.911302566528320 1.933833241462708 0.000000000000000
-3.731359958648682 -17.275741577148438 0.879869461059570 0.000000000000000
-3.727799415588379 33.896141052246094 1.369617938995361 0.000000000000000
-3.709501504898071 22.948780059814453 1.515516757965088 0.000000000000000
-3.697599887847900 27.808448791503906 1.937071800231934 0.000000000000000
-3.663302659988403 -5.803962230682373 -0.093440651893616 0.000000000000000
-3.662551641464233 -9.135752677917480 -0.987624645233154 1.000000000000000
-3.650037050247192 18.619897842407227 0.908080935478210 0.000000000000000
-3.634353399276733 24.546543121337891 1.809173941612244 0.000000000000000
-3.633128404617310 28.073200225830078 1.518204808235168 0.000000000000000
-3.627374887466431 36.888832092285156 2.630968570709229 0.000000000000000
-3.618284702301025 17.377317428588867 0.883648276329041 0.000000000000000
-3.579110860824585 24.037326812744141 1.490651488304138 0.000000000000000
-3.573133707046509 29.436239242553711 2.333687543869019 0.000000000000000
-3.568657159805298 23.759279251098633 0.826404273509979 0.000000000000000
-3.549891948699951 24.658939361572266 1.240249872207642 0.000000000000000
-3.535841941833496 23.927305221557617 1.716784834861755 0.000000000000000
-3.521455287933350 11.060165405273438 -0.872752368450165 0.000000000000000
-3.482388496398926 15.658871650695801 0.582605361938477 0.000000000000000
-3.465260744094849 29.405326843261719 1.873204588890076 0.000000000000000
-3.429030895233154 23.731214523315430 2.173700332641602 0.000000000000000
-3.426186800003052 -8.838269233703613 -0.129052653908730 1.000000000000000
-3.413149118423462 24.267354965209961 1.361528754234314 0.000000000000000
-3.401831388473511 24.004604339599609 0.973757863044739 0.000000000000000
-3.389729261398315 28.630989074707031 0.991685092449188 0.000000000000000
-3.385424137115479 14.975995063781738 0.557634532451630 0.000000000000000
-3.364331722259521 17.973653793334961 1.051151275634766 0.000000000000000
-3.360806226730347 24.464647293090820 0.280161261558533 0.000000000000000
-3.356305360794067 23.366254806518555 1.266063213348389 0.000000000000000
-3.355367422103882 22.706022262573242 1.275212883949280 0.000000000000000
-3.327014207839966 23.070699691772461 1.654479980468750 0.000000000000000
-3.249917507171631 20.201805114746094 1.255066394805908 0.000000000000000
-3.249302387237549 23.196407318115234 0.895722270011902 0.000000000000000
-3.247429609298706 24.267263412475586 1.407427191734314 0.000000000000000
-3.243683338165283 24.900161743164062 1.443467855453491 0.000000000000000
-3.229711294174194 18.780128479003906 0.399162560701370 0.000000000000000
-3.215727567672729 30.844167709350586 2.500561475753784 0.000000000000000
-3.212266921997070 28.423063278198242 2.140705347061157 0.000000000000000
-3.210288047790527 17.150690078735352 0.734361827373505 0.000000000000000
-3.192939519882202 23.072340011596680 1.428694009780884 0.000000000000000
-3.192696094512939 23.289133071899414 0.221554398536682 0.000000000000000
-3.173799037933350 -2.230087518692017 -0.090057887136936 0.000000000000000
-3.155577659606934 20.468873977661133 1.430071473121643 0.000000000000000
-3.145112991333008 19.703857421875000 1.531818747520447 0.000000000000000
-3.144358634948730 15.613977432250977 0.884904980659485 0.000000000000000
-3.141764163970947 16.810560226440430 0.950141191482544 0.000000000000000
-3.133262872695923 22.467824935913086 1.741552114486694 0.000000000000000
-3.131146669387817 24.036272048950195 0.647430479526520 0.000000000000000
-3.128076553344727 -2.197471141815186 -0.096097491681576 0.000000000000000
-3.124522447586060 -17.271949768066406 2.601287841796875 0.000000000000000
-3.120435953140259 30.978183746337891 2.510527849197388 0.000000000000000
-3.108072519302368 19.703704833984375 1.069834232330322 0.000000000000000
-3.094102621078491 -17.608623504638672 2.379135847091675 1.000000000000000
-3.067994117736816 23.551481246948242 0.269452124834061 0.000000000000000
-3.057702302932739 26.749872207641602 0.460560172796249 0.000000000000000
-3.036966562271118 38.865802764892578 3.705694675445557 0.000000000000000
-3.036851406097412 24.181676864624023 0.136118233203888 0.000000000000000
-3.032922506332397 21.233373641967773 1.646636247634888 0.000000000000000
-3.029012918472290 16.484350204467773 0.963459730148315 0.000000000000000
-3.011412382125854 17.884258270263672 0.379895508289337 0.000000000000000
-2.999747753143311 14.756073951721191 0.952639579772949 0.000000000000000
-2.996865987777710 15.154701232910156 0.858277976512909 0.000000000000000
-2.983905553817749 9.944611549377441 -1.302426934242249 1.000000000000000
-2.980916023254395 15.395734786987305 0.569539248943329 0.000000000000000
-2.952260971069336 22.307277679443359 1.727467775344849 0.000000000000000
-2.930938720703125 23.391147613525391 0.810866236686707 0.000000000000000
-2.912838935852051 15.044132232666016 0.792345285415649 0.000000000000000
-2.893930673599243 -8.372295379638672 -0.171635419130325 1.000000000000000
-2.868538618087769 25.895872116088867 0.846100091934204 0.000000000000000
-2.856622695922852 9.782195091247559 -1.496118187904358 0.000000000000000
-2.855571985244751 23.940441131591797 1.200273990631104 0.000000000000000
-2.851746559143066 25.876333236694336 0.395324915647507 1.000000000000000
-2.844415903091431 23.112598419189453 0.219480991363525 0.000000000000000
-2.839126110076904 17.228118896484375 0.634144127368927 0.000000000000000
-2.837393283843994 20.320299148559570 1.258494853973389 0.000000000000000
-2.835151433944702 20.486946105957031 0.950024604797363 0.000000000000000
-2.821486711502075 17.822216033935547 1.002507686614990 0.000000000000000
-2.796933889389038 25.880901336669922 0.145389363169670 0.000000000000000
-2.795957565307617 25.846418380737305 0.594498872756958 0.000000000000000
-2.793970346450806 18.670360565185547 1.194335222244263 0.000000000000000
-2.790684461593628 25.890634536743164 0.895706713199615 0.000000000000000
-2.763489961624146 23.450275421142578 0.403913736343384 0.000000000000000
-2.749015092849731 39.791698455810547 3.216201782226562 0.000000000000000
-2.745848894119263 18.143230438232422 1.302456974983215 0.000000000000000
-2.736068010330200 24.346578598022461 0.089796997606754 0.000000000000000
-2.727899312973022 -17.443914413452148 3.017982006072998 0.000000000000000
-2.722988367080688 16.890638351440430 0.621368348598480 0.000000000000000
-2.708104610443115 25.628126144409180 0.688335418701172 0.000000000000000
-2.701851844787598 23.966634750366211 0.273626863956451 0.000000000000000
-2.699357986450195 24.978002548217773 0.912453293800354 0.000000000000000
-2.695338726043701 23.125406265258789 0.308841615915298 0.000000000000000
-2.693455934524536 31.219129562377930 2.466126441955566 0.000000000000000
-2.681460618972778 24.026895523071289 0.878045737743378 0.000000000000000
-2.660944938659668 -8.164325714111328 -1.397561311721802 1.000000000000000
-2.657130718231201 17.171922683715820 1.233354926109314 0.000000000000000
-2.642202377319336 19.169057846069336 0.256687134504318 0.000000000000000
-2.640707015991211 16.380249023437500 0.092666730284691 0.000000000000000
-2.640533685684204 22.515077590942383 0.344246685504913 0.000000000000000
-2.636760711669922 17.422430038452148 0.978987157344818 0.000000000000000
-2.634788513183594 25.271997451782227 0.873980939388275 0.000000000000000
-2.626913070678711 25.170900344848633 0.141345798969269 0.000000000000000
-2.626662492752075 17.980970382690430 1.430152535438538 0.000000000000000
-2.617560625076294 31.628345489501953 3.380446434020996 0.000000000000000
-2.603027105331421 19.777259826660156 0.571130633354187 0.000000000000000
-2.600178480148315 16.376180648803711 0.697862386703491 0.000000000000000
-2.579093217849731 22.675149917602539 0.697255373001099 0.000000000000000
-2.560927152633667 25.072566986083984 0.673169612884521 1.000000000000000
-2.549989461898804 -2.026756048202515 -0.131966680288315 0.000000000000000
-2.549073219299316 16.159914016723633 0.374110847711563 0.000000000000000
-2.542852640151978 23.073472976684570 0.709226489067078 0.000000000000000
-2.518986225128174 21.931819915771484 0.420026570558548 0.000000000000000
-2.513733148574829 -7.995893955230713 -1.364148259162903 1.000000000000000
-2.511508464813232 16.893615722656250 1.488236546516418 0.000000000000000
-2.488009214401245 36.504730224609375 1.680714011192322 0.000000000000000
-2.475184679031372 29.377742767333984 2.092597007751465 0.000000000000000
-2.470057487487793 15.915206909179688 0.677846550941467 0.000000000000000
-2.456450939178467 15.583333015441895 0.088109351694584 0.000000000000000
-2.455672025680542 37.276992797851562 2.291445016860962 0.000000000000000
-2.452424049377441 26.864425659179688 1.914744615554810 0.000000000000000
-2.439494848251343 21.239719390869141 0.735376000404358 0.000000000000000
-2.437733650207520 24.427207946777344 0.750025928020477 1.000000000000000
-2.430760145187378 27.694660186767578 1.544589638710022 0.000000000000000
-2.420506000518799 25.454540252685547 1.076144456863403 0.000000000000000
-2.410993576049805 21.658273696899414 0.414624065160751 0.000000000000000
-2.410104513168335 20.550273895263672 1.588462114334106 0.000000000000000
-2.409464597702026 16.774446487426758 2.255140066146851 0.000000000000000
-2.406167268753052 22.556106567382812 1.041980147361755 0.000000000000000
-2.400638103485107 17.207836151123047 0.864952981472015 0.000000000000000
