# This PCD file was generated using the MATLAB® pcwrite function
# from Computer Vision Toolbox®.
# .PCD v.7 - Point Cloud Data file format
VERSION .7
FIELDS x y z intensity
SIZE 8 8 8 8
TYPE F F F F
COUNT 1 1 1 1
WIDTH 630
HEIGHT 1
VIEWPOINT 0 0 0 1 0 0 0
POINTS 630
DATA ascii
-22.029376983642578 -2.226787567138672 2.514891624450684 1.000000000000000
-22.015419006347656 -24.272815704345703 2.970736026763916 0.000000000000000
-21.975910186767578 -3.168345689773560 1.533124804496765 1.000000000000000
-21.967514038085938 -2.858539819717407 2.947933435440063 0.000000000000000
-21.960216522216797 -3.711928606033325 0.851700365543365 1.000000000000000
-21.938081741333008 -12.943676948547363 2.713169336318970 0.000000000000000
-21.906270980834961 -7.428502082824707 0.973542392253876 0.000000000000000
-21.901208877563477 -3.147432327270508 1.485137343406677 1.000000000000000
-21.864015579223633 -6.084808349609375 2.057413578033447 0.000000000000000
-21.846664428710938 -0.939333081245422 3.737768650054932 1.000000000000000
-21.843978881835938 -18.705371856689453 3.826984167098999 0.000000000000000
-21.800466537475586 -12.965277671813965 2.701730489730835 0.000000000000000
-21.785474777221680 -24.179948806762695 2.950511932373047 0.000000000000000
-21.784818649291992 -2.778331756591797 1.813263058662415 1.000000000000000
-21.756416320800781 -5.078088283538818 2.735236883163452 0.000000000000000
-21.714239120483398 -9.288351058959961 2.369820117950439 0.000000000000000
-21.665182113647461 -2.113601207733154 2.472457647323608 1.000000000000000
-21.627239227294922 -3.041051387786865 1.508050322532654 1.000000000000000
-21.603408813476562 -10.749421119689941 2.038977384567261 0.000000000000000
-21.602579116821289 -13.008894920349121 1.401025533676147 0.000000000000000
-21.598411560058594 -3.573271036148071 0.837179303169250 1.000000000000000
-21.577968597412109 -0.852324485778809 3.691265583038330 1.000000000000000
-21.547916412353516 -3.023762464523315 1.460492134094238 1.000000000000000
-21.524206161499023 -10.484574317932129 1.884273767471313 0.000000000000000
-21.503583908081055 -7.831341266632080 1.801107168197632 0.000000000000000
-21.472282409667969 -18.517375946044922 3.773164987564087 0.000000000000000
-21.463348388671875 -23.171819686889648 -1.097451210021973 1.000000000000000
-21.435045242309570 -7.275387763977051 1.344831466674805 0.000000000000000
-21.426006317138672 -9.002703666687012 2.475491762161255 0.000000000000000
-21.419038772583008 -12.984103202819824 3.333111763000488 0.000000000000000
-21.415910720825195 -6.847871780395508 0.946294009685516 0.000000000000000
-21.404558181762695 -2.703270435333252 1.781335949897766 1.000000000000000
-21.403779983520508 -13.213047981262207 1.882483363151550 0.000000000000000
-21.394643783569336 -4.116476535797119 1.042696475982666 1.000000000000000
-21.359571456909180 -2.218980073928833 2.287383079528809 1.000000000000000
-21.356214523315430 -0.768916487693787 3.652849912643433 1.000000000000000
-21.343702316284180 -11.303771972656250 3.579409599304199 0.000000000000000
-21.342523574829102 -10.488415718078613 1.504473447799683 0.000000000000000
-21.334260940551758 -7.079596519470215 0.989282727241516 0.000000000000000
-21.315120697021484 -32.520870208740234 3.210486173629761 1.000000000000000
-21.254833221435547 -3.206142902374268 1.111472845077515 1.000000000000000
-21.254676818847656 -4.166538715362549 1.036577582359314 0.000000000000000
-21.250276565551758 -2.912438392639160 1.481047153472900 1.000000000000000
-21.248682022094727 -2.001861572265625 2.424155235290527 1.000000000000000
-21.228015899658203 -3.435907602310181 0.822352528572083 1.000000000000000
-21.209020614624023 -0.689495921134949 3.627239704132080 1.000000000000000
-21.196086883544922 -6.611588478088379 -0.174388021230698 0.000000000000000
-21.167711257934570 -12.112561225891113 1.872290968894958 1.000000000000000
-21.150461196899414 -13.056669235229492 2.362711429595947 0.000000000000000
-21.144819259643555 -6.357433319091797 0.844363451004028 0.000000000000000
-21.069829940795898 -12.321587562561035 1.873821854591370 0.000000000000000
-21.063997268676758 -5.941455841064453 1.595679759979248 0.000000000000000
-21.045742034912109 -12.681582450866699 2.227510213851929 0.000000000000000
-21.043779373168945 -2.534654855728149 1.750067234039307 1.000000000000000
-21.038198471069336 -32.032474517822266 3.238316535949707 0.000000000000000
-21.024850845336914 -33.726650238037109 -1.151784181594849 1.000000000000000
-21.024206161499023 -6.191350460052490 1.006739735603333 0.000000000000000
-21.018180847167969 -0.609854102134705 3.594215631484985 1.000000000000000
-21.014480590820312 -32.816509246826172 3.395581960678101 1.000000000000000
-21.004375457763672 -7.566596984863281 2.378048181533813 0.000000000000000
-20.945823669433594 -11.074337005615234 3.511386871337891 0.000000000000000
-20.939691543579102 -6.615120887756348 1.262345671653748 0.000000000000000
-20.925815582275391 -12.780191421508789 3.262935400009155 0.000000000000000
-20.910589218139648 -31.787359237670898 3.067994117736816 1.000000000000000
-20.878143310546875 -3.572890758514404 1.340059757232666 0.000000000000000
-20.852622985839844 -12.541409492492676 3.238136053085327 0.000000000000000
-20.839408874511719 -10.381969451904297 3.979719400405884 0.000000000000000
-20.835573196411133 -3.078218936920166 1.129602670669556 1.000000000000000
-20.812929153442383 -3.297938346862793 0.805844366550446 1.000000000000000
-20.808301925659180 -4.529717445373535 1.019177079200745 0.000000000000000
-20.803398132324219 -0.530954897403717 3.557147979736328 1.000000000000000
-20.799554824829102 -3.063249588012695 1.087099432945251 1.000000000000000
-20.767812728881836 -10.436947822570801 3.972980022430420 0.000000000000000
-20.760301589965820 -31.384435653686523 3.278912067413330 1.000000000000000
-20.758323669433594 -4.395657539367676 1.506080865859985 0.000000000000000
-20.758287429809570 -9.205741882324219 3.365372180938721 0.000000000000000
-20.745115280151367 -3.351802587509155 0.763208746910095 1.000000000000000
-20.720911026000977 -4.359405994415283 1.666471362113953 0.000000000000000
-20.683246612548828 -2.392404556274414 1.719127416610718 1.000000000000000
-20.664869308471680 -12.835741996765137 1.726696968078613 0.000000000000000
-20.648229598999023 -9.075116157531738 1.965333342552185 0.000000000000000
-20.644418716430664 -2.374765157699585 1.675614118576050 1.000000000000000
-20.603399276733398 -7.153097152709961 3.232258319854736 0.000000000000000
-20.584299087524414 -0.457063317298889 3.519406318664551 1.000000000000000
-20.583366394042969 -3.187943696975708 0.796520292758942 1.000000000000000
-20.550565719604492 -6.220633029937744 1.027590394020081 0.000000000000000
-20.514516830444336 -2.590863466262817 1.387896180152893 0.000000000000000
-20.511356353759766 -31.710577011108398 2.607745170593262 1.000000000000000
-20.462377548217773 -2.281485319137573 1.660182476043701 1.000000000000000
-20.441276550292969 -11.791790962219238 1.811667323112488 0.000000000000000
-20.434312820434570 -6.780956268310547 1.279119968414307 0.000000000000000
-20.425107955932617 -6.609731674194336 1.946182370185852 0.000000000000000
-20.395484924316406 -6.132137298583984 1.142241835594177 0.000000000000000
-20.388666152954102 -0.381519019603729 3.485708713531494 1.000000000000000
-20.321363449096680 -6.975790500640869 3.184173345565796 0.000000000000000
-20.299383163452148 -2.195184230804443 1.646358370780945 1.000000000000000
-20.261661529541016 -6.320117950439453 0.811652779579163 0.000000000000000
-20.258869171142578 -6.338649749755859 -0.166722610592842 0.000000000000000
-20.233743667602539 -4.330722332000732 1.628497123718262 0.000000000000000
-20.225042343139648 -5.829632282257080 1.291065335273743 0.000000000000000
-20.196392059326172 -31.967290878295898 3.294884681701660 1.000000000000000
-20.192754745483398 -0.307341217994690 3.452010631561279 1.000000000000000
-20.147457122802734 -4.052928924560547 1.419049739837646 0.000000000000000
-20.104145050048828 -10.724693298339844 2.789679288864136 0.000000000000000
-20.100997924804688 -3.508547067642212 1.605900883674622 0.000000000000000
-20.090373992919922 -31.963563919067383 2.315689325332642 1.000000000000000
-20.064891815185547 -30.319347381591797 1.390356659889221 1.000000000000000
-20.054784774780273 -4.173591136932373 1.453971147537231 0.000000000000000
-20.009096145629883 -6.552354812622070 3.598933219909668 0.000000000000000
-20.001089096069336 -32.232086181640625 3.806328535079956 0.000000000000000
-19.996576309204102 -0.234545439481735 3.418312549591064 1.000000000000000
-19.991758346557617 -32.397232055664062 -1.322747468948364 1.000000000000000
-19.985628128051758 -6.080481529235840 1.039972186088562 0.000000000000000
-19.939773559570312 -30.417860031127930 -0.285662114620209 0.000000000000000
-19.938716888427734 -32.184204101562500 0.066078133881092 0.000000000000000
-19.933437347412109 -33.285247802734375 -0.900764584541321 0.000000000000000
-19.921215057373047 -3.085390090942383 0.460985809564590 1.000000000000000
-19.908714294433594 -31.729846954345703 3.165231227874756 1.000000000000000
-19.902235031127930 -4.244509220123291 2.041943073272705 0.000000000000000
-19.887296676635742 -4.313960075378418 2.041943073272705 0.000000000000000
-19.867004394531250 -3.924406528472900 1.086115121841431 0.000000000000000
-19.850534439086914 -17.857200622558594 3.553138256072998 0.000000000000000
-19.836219787597656 -3.637763738632202 1.003973960876465 0.000000000000000
-19.831682205200195 -0.163378402590752 3.390006542205811 1.000000000000000
-19.758558273315430 -11.533024787902832 2.074025869369507 0.000000000000000
-19.747663497924805 -0.581268429756165 2.927914619445801 1.000000000000000
-19.727380752563477 -1.555695295333862 1.985632777214050 1.000000000000000
-19.722303390502930 -2.984124898910522 0.456139087677002 1.000000000000000
-19.671054840087891 -31.909914016723633 2.227073192596436 1.000000000000000
-19.643850326538086 -3.723109483718872 1.303438186645508 0.000000000000000
-19.611986160278320 -6.192669868469238 -0.477492511272430 0.000000000000000
-19.605680465698242 -0.563391149044037 2.906804323196411 1.000000000000000
-19.567018508911133 -30.925666809082031 0.766576349735260 1.000000000000000
-19.564023971557617 -0.092878378927708 3.344177484512329 1.000000000000000
-19.557283401489258 -4.070056438446045 1.740674138069153 0.000000000000000
-19.544572830200195 -11.835689544677734 0.829846084117889 0.000000000000000
-19.507631301879883 -17.425914764404297 3.480851173400879 0.000000000000000
-19.483049392700195 -30.525798797607422 0.689010977745056 1.000000000000000
-19.480648040771484 -4.083562374114990 1.997214436531067 0.000000000000000
-19.442615509033203 -0.439860433340073 2.882175445556641 1.000000000000000
-19.401084899902344 -30.446563720703125 0.825586199760437 0.000000000000000
-19.400329589843750 -1.393698215484619 1.951686978340149 1.000000000000000
-19.377502441406250 -12.682214736938477 1.242070198059082 0.000000000000000
-19.368158340454102 -14.906873703002930 3.252382755279541 0.000000000000000
-19.357334136962891 -5.870876789093018 0.695774674415588 0.000000000000000
-19.325023651123047 -4.092150688171387 1.097477436065674 0.000000000000000
-19.296300888061523 -3.811673402786255 1.358154654502869 0.000000000000000
-19.275999069213867 -2.274987697601318 0.928923428058624 1.000000000000000
-19.268941879272461 -12.039630889892578 0.825200378894806 0.000000000000000
-19.214313507080078 -4.848411560058594 3.387310504913330 0.000000000000000
-19.206541061401367 -1.312403082847595 1.931718945503235 0.000000000000000
-19.181163787841797 -5.388333320617676 -0.577398419380188 0.000000000000000
-19.167510986328125 -3.239878654479980 -0.152679845690727 1.000000000000000
-19.142171859741211 -11.683515548706055 1.159600257873535 0.000000000000000
-19.137378692626953 -14.835922241210938 3.222306966781616 0.000000000000000
-19.131649017333984 -2.908421993255615 0.145233780145645 1.000000000000000
-19.111972808837891 -0.352286130189896 2.832917451858521 1.000000000000000
-19.088520050048828 -2.616160631179810 0.440593063831329 1.000000000000000
-19.086343765258789 -2.195537090301514 0.956440329551697 1.000000000000000
-19.026887893676758 -30.594152450561523 1.516324281692505 0.000000000000000
-19.019104003906250 -11.529275894165039 1.879335045814514 0.000000000000000
-18.972450256347656 -11.828152656555176 2.381437540054321 0.000000000000000
-18.904115676879883 -0.229651182889938 2.801838159561157 1.000000000000000
-18.891420364379883 -2.521996259689331 0.435837805271149 0.000000000000000
-18.885141372680664 -3.009359598159790 -0.150198012590408 1.000000000000000
-18.883455276489258 -11.695467948913574 1.791029572486877 0.000000000000000
-18.881229400634766 -11.603089332580566 2.517148733139038 0.000000000000000
-18.843915939331055 -2.795400381088257 1.810831785202026 0.000000000000000
-18.726945877075195 -5.556421756744385 1.085273385047913 0.000000000000000
-18.719562530517578 -2.710205554962158 1.797961950302124 0.000000000000000
-18.702081680297852 -2.963461637496948 -0.148721471428871 1.000000000000000
-18.648141860961914 -11.716558456420898 2.345849275588989 0.000000000000000
-18.634908676147461 -5.922439098358154 2.082751512527466 0.000000000000000
-18.630245208740234 -10.992021560668945 1.035238981246948 0.000000000000000
-18.614906311035156 -11.547130584716797 1.428083181381226 0.000000000000000
-18.609664916992188 -1.187775611877441 1.690495371818542 1.000000000000000
-18.606880187988281 -22.355669021606445 2.918545007705688 0.000000000000000
-18.503381729125977 -11.568484306335449 -0.506645262241364 0.000000000000000
-18.451393127441406 -34.037052154541016 0.513586461544037 0.000000000000000
-18.434465408325195 -35.130355834960938 3.596591234207153 0.000000000000000
-18.409345626831055 -4.097438812255859 1.557187914848328 0.000000000000000
-18.401285171508789 -2.734990358352661 -0.146113976836205 1.000000000000000
-18.368190765380859 -10.755452156066895 1.346626281738281 0.000000000000000
-18.356754302978516 -11.040316581726074 1.479118227958679 0.000000000000000
-18.333093643188477 -8.971773147583008 1.778522491455078 0.000000000000000
-18.303436279296875 -33.484611511230469 0.506211638450623 0.000000000000000
-18.251310348510742 -2.892033815383911 -0.429028362035751 1.000000000000000
-18.240442276000977 -5.055437564849854 -0.548545897006989 0.000000000000000
-18.226009368896484 -31.489631652832031 2.161598920822144 0.000000000000000
-18.181804656982422 -8.976535797119141 1.439244508743286 0.000000000000000
-18.156593322753906 -2.609292030334473 -0.179288551211357 1.000000000000000
-18.153753280639648 -0.738334953784943 1.823091983795166 1.000000000000000
-18.126333236694336 -2.725823640823364 2.081974506378174 0.000000000000000
-18.104280471801758 -2.657915592193604 2.078363180160522 0.000000000000000
-18.098478317260742 -1.893286466598511 0.625922143459320 1.000000000000000
-18.073591232299805 -5.571218967437744 1.087192058563232 0.000000000000000
-18.041933059692383 -21.831439971923828 2.841866970062256 0.000000000000000
-18.018947601318359 -31.384061813354492 1.592701315879822 0.000000000000000
-18.018091201782227 -11.233169555664062 0.363207638263702 0.000000000000000
-17.997270584106445 -8.009512901306152 1.550351858139038 0.000000000000000
-17.967536926269531 -8.657236099243164 1.737896323204041 0.000000000000000
-17.944742202758789 -3.740352869033813 2.439286947250366 0.000000000000000
-17.938110351562500 -11.543493270874023 0.733726024627686 0.000000000000000
-17.935577392578125 -32.883895874023438 2.369728803634644 0.000000000000000
-17.916360855102539 -11.028259277343750 0.481104195117950 0.000000000000000
-17.887474060058594 -6.335694789886475 1.603497147560120 0.000000000000000
-17.857572555541992 -5.610259056091309 1.993781328201294 0.000000000000000
-17.851158142089844 -4.092399120330811 2.080168962478638 0.000000000000000
-17.839189529418945 -30.586910247802734 2.649985074996948 0.000000000000000
-17.830846786499023 -5.237085342407227 1.390816688537598 0.000000000000000
-17.817556381225586 -11.281650543212891 0.684851646423340 0.000000000000000
-17.808971405029297 -29.370235443115234 1.577745676040649 0.000000000000000
-17.800312042236328 -34.953182220458984 3.162834167480469 0.000000000000000
-17.748563766479492 -11.443428993225098 1.051308751106262 0.000000000000000
-17.745107650756836 -4.747487068176270 1.746105074882507 0.000000000000000
-17.733634948730469 -2.786211013793945 1.378116488456726 0.000000000000000
-17.708913803100586 -18.897041320800781 2.598654985427856 0.000000000000000
-17.635845184326172 -19.874904632568359 2.315343141555786 0.000000000000000
-17.616542816162109 -20.099140167236328 2.328885316848755 0.000000000000000
-17.535451889038086 -1.772529721260071 0.335336416959763 1.000000000000000
-17.488170623779297 -6.125638961791992 1.565775632858276 0.000000000000000
-17.477975845336914 -19.691452026367188 2.502763271331787 0.000000000000000
-17.463768005371094 -11.087978363037109 1.029829144477844 0.000000000000000
-17.457870483398438 -1.256910085678101 0.770321488380432 1.000000000000000
-17.448110580444336 -5.190900802612305 1.081511020660400 0.000000000000000
-17.427242279052734 -8.119423866271973 0.624350965023041 0.000000000000000
-17.399965286254883 -2.441691637039185 -0.441686600446701 1.000000000000000
-17.392621994018555 -2.134928703308105 -0.171274110674858 1.000000000000000
-17.306461334228516 -4.031164169311523 2.018323659896851 0.000000000000000
-17.289697647094727 -5.462040424346924 0.763124048709869 0.000000000000000
-17.274133682250977 -1.663007259368896 0.263529717922211 1.000000000000000
-17.271333694458008 -10.952688217163086 -0.592693746089935 0.000000000000000
-17.255090713500977 -3.533804655075073 1.488312005996704 0.000000000000000
-17.234258651733398 -2.295868396759033 -0.437062650918961 1.000000000000000
-17.232580184936523 -28.644714355468750 1.535530447959900 0.000000000000000
-17.221902847290039 -5.242925643920898 1.034852623939514 0.000000000000000
-17.218387603759766 -7.876288890838623 0.906168818473816 0.000000000000000
-17.198362350463867 -3.407863616943359 3.646816730499268 0.000000000000000
-17.197725296020508 -7.690034389495850 1.707830071449280 0.000000000000000
-17.137628555297852 -7.984492301940918 0.904830336570740 0.000000000000000
-17.117145538330078 -2.359368562698364 2.115470409393311 0.000000000000000
-17.072601318359375 -19.489521026611328 2.348853111267090 0.000000000000000
-17.059059143066406 -2.154459238052368 -0.432237684726715 1.000000000000000
-17.030412673950195 -10.313179016113281 -0.500491023063660 0.000000000000000
-17.024477005004883 -8.222994804382324 0.904830336570740 0.000000000000000
-16.999359130859375 -2.385475635528564 -0.695456266403198 1.000000000000000
-16.995388031005859 -3.306031465530396 1.645797610282898 0.000000000000000
-16.948032379150391 -3.895942926406860 2.577245235443115 0.000000000000000
-16.926471710205078 -7.639746189117432 1.353971838951111 0.000000000000000
-16.890478134155273 -8.184821128845215 1.585983514785767 0.000000000000000
-16.883234024047852 -8.102859497070312 0.968330204486847 0.000000000000000
-16.838380813598633 -7.458930969238281 1.669549226760864 0.000000000000000
-16.830356597900391 -5.252386093139648 1.013503670692444 0.000000000000000
-16.818836212158203 -8.222723960876465 1.581941962242126 0.000000000000000
-16.808355331420898 -11.025074005126953 1.822311282157898 0.000000000000000
-16.786817550659180 -3.747991800308228 2.549097776412964 0.000000000000000
-16.783103942871094 -7.748136043548584 0.316207528114319 0.000000000000000
-16.781633377075195 -2.175980329513550 -0.685579001903534 1.000000000000000
-16.777250289916992 -7.745433807373047 0.884370267391205 0.000000000000000
-16.773416519165039 -3.336135149002075 0.785569012165070 0.000000000000000
-16.762235641479492 -1.682255029678345 -0.229354336857796 1.000000000000000
-16.731060028076172 -0.308399349451065 1.187759041786194 1.000000000000000
-16.706098556518555 -5.600158214569092 1.597321391105652 0.000000000000000
-16.700939178466797 -10.799364089965820 1.488433480262756 0.000000000000000
-16.631822586059570 -2.274729251861572 2.055194854736328 0.000000000000000
-16.628732681274414 -9.880879402160645 1.940904140472412 0.000000000000000
-16.609375000000000 -8.090529441833496 1.168827176094055 0.000000000000000
-16.602718353271484 -30.399776458740234 2.659173727035522 0.000000000000000
-16.557256698608398 -0.189581051468849 1.175298094749451 1.000000000000000
-16.523069381713867 -5.251266956329346 0.296572834253311 0.000000000000000
-16.440206527709961 -2.546252727508545 -1.411603689193726 1.000000000000000
-16.420806884765625 -7.810525417327881 0.940238654613495 0.000000000000000
-16.396903991699219 -2.490925312042236 3.449691534042358 0.000000000000000
-16.380619049072266 -10.980781555175781 2.922637224197388 0.000000000000000
-16.379232406616211 -7.392750263214111 1.629101634025574 0.000000000000000
-16.372388839721680 -10.668143272399902 1.462462067604065 0.000000000000000
-16.348745346069336 -9.472465515136719 1.122551202774048 0.000000000000000
-16.296165466308594 -9.723716735839844 2.525292634963989 0.000000000000000
-16.285118103027344 -5.251162052154541 0.851826548576355 1.000000000000000
-16.280918121337891 -1.567388772964478 -0.505441665649414 1.000000000000000
-16.264373779296875 -9.051891326904297 3.871637344360352 0.000000000000000
-16.259447097778320 -3.174952983856201 0.760974168777466 0.000000000000000
-16.171195983886719 -2.096828222274780 -1.163148283958435 1.000000000000000
-16.164108276367188 -2.510423660278320 3.402446508407593 0.000000000000000
-16.142545700073242 -11.880455970764160 2.276539087295532 0.000000000000000
-16.134210586547852 -9.550872802734375 1.584299564361572 0.000000000000000
-16.110763549804688 -2.034695148468018 -1.158310174942017 1.000000000000000
-16.098661422729492 -0.128125652670860 0.894446313381195 1.000000000000000
-15.975507736206055 -7.667209625244141 1.189395666122437 0.000000000000000
-15.962919235229492 -7.348196506500244 1.044029474258423 0.000000000000000
-15.957528114318848 -10.552446365356445 2.835263013839722 0.000000000000000
-15.955687522888184 -7.336099624633789 1.280383229255676 0.000000000000000
-15.954936027526855 -2.182151556015015 -1.397543549537659 1.000000000000000
-15.954397201538086 -9.352532386779785 1.419756770133972 0.000000000000000
-15.942334175109863 -1.900442719459534 -1.145218610763550 1.000000000000000
-15.930341720581055 -28.413105010986328 1.872514009475708 0.000000000000000
-15.926821708679199 -9.603125572204590 3.868378877639771 0.000000000000000
-15.917246818542480 -7.318425655364990 1.007075905799866 0.000000000000000
-15.908843994140625 -7.269537448883057 0.769793868064880 0.000000000000000
-15.906256675720215 -26.650207519531250 3.114232778549194 0.000000000000000
-15.884106636047363 -26.825429916381836 3.128210306167603 0.000000000000000
-15.871434211730957 -8.650513648986816 2.053083419799805 0.000000000000000
-15.804457664489746 -11.802609443664551 2.240425109863281 0.000000000000000
-15.797859191894531 -31.724422454833984 3.368813276290894 0.000000000000000
-15.735860824584961 -9.658445358276367 1.966666460037231 0.000000000000000
-15.721017837524414 -27.818527221679688 3.912064552307129 0.000000000000000
-15.664675712585449 -9.006863594055176 1.352307319641113 0.000000000000000
-15.636253356933594 -4.290503978729248 1.370095849037170 0.000000000000000
-15.603456497192383 -4.902090549468994 0.531133294105530 0.000000000000000
-15.566860198974609 -27.521057128906250 0.298007071018219 0.000000000000000
-15.558674812316895 -3.923662185668945 1.107961058616638 0.000000000000000
-15.538114547729492 -8.539323806762695 2.013809442520142 0.000000000000000
-15.487412452697754 -2.297480106353760 3.256639003753662 0.000000000000000
-15.442423820495605 -7.165515899658203 0.978610634803772 0.000000000000000
-15.427202224731445 -25.622476577758789 2.238322257995605 0.000000000000000
-15.415592193603516 -10.416750907897949 2.277824878692627 0.000000000000000
-15.392842292785645 -27.436464309692383 1.747842669487000 0.000000000000000
-15.375845909118652 -4.972785949707031 0.804491817951202 0.000000000000000
-15.363790512084961 -9.504066467285156 1.924299716949463 0.000000000000000
-15.331197738647461 -9.436985015869141 0.688452720642090 0.000000000000000
-15.331019401550293 -10.336236000061035 2.263728141784668 0.000000000000000
-15.328521728515625 -27.492477416992188 3.853733539581299 0.000000000000000
-15.290051460266113 -30.975162506103516 2.585205554962158 0.000000000000000
-15.255996704101562 -30.148111343383789 1.552049517631531 0.000000000000000
-15.239972114562988 -7.079982280731201 1.597347378730774 0.000000000000000
-15.221534729003906 -7.118628978729248 2.236145019531250 0.000000000000000
-15.208024978637695 -29.480159759521484 -0.133160591125488 0.000000000000000
-15.150042533874512 -9.781512260437012 2.207827806472778 0.000000000000000
-15.117657661437988 -7.023159027099609 1.247525930404663 0.000000000000000
-15.101645469665527 -26.716001510620117 1.291608929634094 0.000000000000000
-15.091207504272461 -4.995034217834473 0.607898890972137 0.000000000000000
-15.090425491333008 -26.678756713867188 2.175575733184814 0.000000000000000
-15.088297843933105 -9.598245620727539 1.027965903282166 0.000000000000000
-15.038148880004883 -2.443194150924683 1.448211193084717 0.000000000000000
-15.020689964294434 -26.808206558227539 2.921025991439819 0.000000000000000
-14.959770202636719 -26.250684738159180 1.736844539642334 0.000000000000000
-14.937548637390137 -26.211692810058594 0.805817067623138 0.000000000000000
-14.903808593750000 -26.818706512451172 2.916483640670776 0.000000000000000
-14.895510673522949 -4.803080558776855 0.538331568241119 0.000000000000000
-14.843506813049316 -4.765442848205566 1.564304947853088 0.000000000000000
-14.823333740234375 -8.835778236389160 0.892317950725555 0.000000000000000
-14.818143844604492 -27.018863677978516 0.172108128666878 0.000000000000000
-14.775421142578125 -3.645873546600342 -0.207192108035088 0.000000000000000
-14.774408340454102 -29.451150894165039 1.513505220413208 0.000000000000000
-14.769579887390137 -27.964479446411133 3.173338413238525 0.000000000000000
-14.764478683471680 -6.921847820281982 1.550032615661621 0.000000000000000
-14.749784469604492 -27.243911743164062 0.470454275608063 0.000000000000000
-14.734650611877441 -9.069786071777344 1.462041735649109 0.000000000000000
-14.698723793029785 -8.977069854736328 0.923733472824097 0.000000000000000
-14.691599845886230 -6.930263042449951 0.621197164058685 0.000000000000000
-14.678430557250977 -28.453559875488281 0.855159282684326 0.000000000000000
-14.675283432006836 0.132680669426918 -0.058913085609674 1.000000000000000
-14.674348831176758 -28.691003799438477 0.365607261657715 1.000000000000000
-14.665832519531250 -9.257746696472168 0.996975421905518 0.000000000000000
-14.659794807434082 -9.741420745849609 1.487301707267761 0.000000000000000
-14.632739067077637 -26.244554519653320 1.091314435005188 0.000000000000000
-14.589379310607910 -25.442560195922852 2.942905902862549 0.000000000000000
-14.567931175231934 -29.773672103881836 3.150786638259888 0.000000000000000
-14.528582572937012 -31.736101150512695 3.964419126510620 0.000000000000000
-14.516083717346191 -9.350675582885742 2.114012002944946 0.000000000000000
-14.488773345947266 -27.271228790283203 2.370752096176147 0.000000000000000
-14.484690666198730 0.130957499146461 -0.280660718679428 1.000000000000000
-14.479109764099121 -26.861423492431641 2.578528404235840 0.000000000000000
-14.442040443420410 -8.776757240295410 1.606431841850281 0.000000000000000
-14.351135253906250 -8.764783859252930 1.161140918731689 0.000000000000000
-14.315269470214844 -27.843748092651367 1.498362302780151 0.000000000000000
-14.301677703857422 -0.664946556091309 -1.159474015235901 1.000000000000000
-14.299768447875977 -17.657487869262695 2.159825563430786 0.000000000000000
-14.235906600952148 -24.626529693603516 2.854247331619263 0.000000000000000
-14.233611106872559 -24.425380706787109 2.836675405502319 0.000000000000000
-14.221704483032227 -6.395071506500244 1.257353663444519 0.000000000000000
-14.192274093627930 -23.590991973876953 2.113560914993286 0.000000000000000
-14.168729782104492 -6.314847946166992 1.761913895606995 0.000000000000000
-14.161651611328125 -8.508505821228027 0.600026965141296 0.000000000000000
-14.145608901977539 -23.578584671020508 1.686564326286316 0.000000000000000
-14.139193534851074 -23.878582000732422 1.274714231491089 0.000000000000000
-14.130787849426270 -25.873640060424805 1.354188799858093 0.000000000000000
-14.120253562927246 -26.081121444702148 0.906138837337494 0.000000000000000
-14.108345985412598 -25.956249237060547 2.496349573135376 0.000000000000000
-14.067976951599121 -8.380208969116211 1.320366024971008 0.000000000000000
-14.023451805114746 -27.003213882446289 1.222093462944031 0.000000000000000
-14.007321357727051 -3.466722011566162 -0.418188035488129 0.000000000000000
-13.999852180480957 -23.462615966796875 1.097363829612732 0.000000000000000
-13.996831893920898 -6.170714855194092 1.203876495361328 0.000000000000000
-13.983120918273926 -6.539462566375732 0.590320706367493 0.000000000000000
-13.905495643615723 -10.026750564575195 0.655589222908020 0.000000000000000
-13.843860626220703 -26.126661300659180 0.108372136950493 0.000000000000000
-13.830975532531738 -32.537944793701172 1.692063212394714 0.000000000000000
-13.765397071838379 -29.005542755126953 0.610864758491516 0.000000000000000
-13.764519691467285 -28.821659088134766 0.117065958678722 0.000000000000000
-13.750934600830078 -26.685358047485352 -0.062873691320419 0.000000000000000
-13.669341087341309 -29.450769424438477 0.867227911949158 0.000000000000000
-13.661240577697754 -26.256433486938477 1.245690226554871 0.000000000000000
-13.636577606201172 -31.772092819213867 2.187383651733398 0.000000000000000
-13.627068519592285 -10.040868759155273 2.252501726150513 0.000000000000000
-13.626475334167480 -32.790332794189453 1.904450416564941 0.000000000000000
-13.625924110412598 -32.103778839111328 3.961259126663208 0.000000000000000
-13.603765487670898 -32.316284179687500 0.599781811237335 1.000000000000000
-13.597665786743164 -26.116430282592773 1.182603716850281 0.000000000000000
-13.588655471801758 -23.074481964111328 1.075532078742981 0.000000000000000
-13.580147743225098 36.163860321044922 3.501972675323486 0.000000000000000
-13.561970710754395 -7.774559974670410 -0.603267312049866 0.000000000000000
-13.538805961608887 -16.830451965332031 3.201179027557373 0.000000000000000
-13.535394668579102 -27.638936996459961 2.541003942489624 0.000000000000000
-13.515893936157227 -24.699562072753906 -0.113025136291981 0.000000000000000
-13.500636100769043 -7.555770397186279 1.068282723426819 0.000000000000000
-13.493143081665039 -33.173122406005859 3.120574235916138 0.000000000000000
-13.492568969726562 -32.790645599365234 1.355964541435242 0.000000000000000
-13.492527961730957 -31.483457565307617 2.761934280395508 0.000000000000000
-13.480219841003418 -24.839887619018555 0.754872739315033 0.000000000000000
-13.472221374511719 -25.783136367797852 0.553491532802582 0.000000000000000
-13.469888687133789 -4.026050090789795 -0.191400855779648 0.000000000000000
-13.450704574584961 -22.316864013671875 1.096664905548096 0.000000000000000
-13.437376976013184 -31.994386672973633 1.794343948364258 0.000000000000000
-13.427978515625000 -8.740902900695801 1.452504277229309 0.000000000000000
-13.425644874572754 -16.809595108032227 3.188278198242188 0.000000000000000
-13.413265228271484 -7.939533233642578 1.016156077384949 0.000000000000000
-13.407440185546875 -30.116439819335938 0.627224445343018 0.000000000000000
-13.407237052917480 -33.551063537597656 2.425134897232056 0.000000000000000
-13.402682304382324 -7.745530128479004 -0.359395980834961 0.000000000000000
-13.402354240417480 -31.935972213745117 1.857535481452942 0.000000000000000
-13.399107933044434 -25.164018630981445 1.145040392875671 0.000000000000000
-13.387136459350586 -25.494415283203125 -0.170877903699875 1.000000000000000
-13.375885009765625 -7.875226020812988 1.475464463233948 0.000000000000000
-13.358348846435547 -8.544334411621094 0.850468933582306 0.000000000000000
-13.344770431518555 -9.742239952087402 1.759916663169861 0.000000000000000
-13.343085289001465 -27.488777160644531 2.522901058197021 0.000000000000000
-13.336925506591797 -23.803104400634766 0.781197726726532 0.000000000000000
-13.336913108825684 -31.569833755493164 2.829664707183838 0.000000000000000
-13.329986572265625 -32.447013854980469 0.330616325139999 1.000000000000000
-13.297411918640137 -33.535820007324219 3.842668294906616 0.000000000000000
-13.279434204101562 -32.897514343261719 1.288468122482300 0.000000000000000
-13.268368721008301 -3.372450351715088 -0.396751403808594 0.000000000000000
-13.251284599304199 -33.828941345214844 2.228507995605469 0.000000000000000
-13.220696449279785 -29.420135498046875 0.613680124282837 0.000000000000000
-13.205572128295898 -28.713617324829102 0.844158768653870 0.000000000000000
-13.203119277954102 -27.591636657714844 2.525534152984619 0.000000000000000
-13.198514938354492 -31.735494613647461 2.306998968124390 0.000000000000000
-13.181198120117188 -24.901256561279297 0.265548616647720 0.000000000000000
-13.178318977355957 -33.468833923339844 3.419155836105347 0.000000000000000
-13.167013168334961 -8.408355712890625 0.537369012832642 0.000000000000000
-13.166860580444336 -31.504198074340820 0.452942967414856 0.000000000000000
-13.134933471679688 -8.485019683837891 2.672915697097778 0.000000000000000
-13.129893302917480 -32.963817596435547 3.216672182083130 0.000000000000000
-13.112332344055176 -31.455463409423828 0.582952082157135 0.000000000000000
-13.079109191894531 -31.686775207519531 0.059829857200384 1.000000000000000
-13.073987007141113 -24.091325759887695 0.310972630977631 0.000000000000000
-13.073945045471191 -23.970357894897461 0.047654446214437 0.000000000000000
-13.045271873474121 -22.207595825195312 -0.795906901359558 0.000000000000000
-13.041923522949219 -23.714351654052734 0.462954640388489 0.000000000000000
-13.041904449462891 -24.638109207153320 1.548805594444275 0.000000000000000
-13.028082847595215 -32.803104400634766 1.078376054763794 0.000000000000000
-13.014789581298828 -33.585418701171875 2.417634248733521 0.000000000000000
-13.014260292053223 -34.292739868164062 3.028468608856201 1.000000000000000
-13.010814666748047 -23.221076965332031 0.353090703487396 0.000000000000000
-13.009322166442871 -30.278566360473633 2.529965639114380 0.000000000000000
-12.982702255249023 -31.315187454223633 -0.136082962155342 0.000000000000000
-12.970754623413086 -24.912349700927734 0.264719247817993 0.000000000000000
-12.950908660888672 -30.229848861694336 2.524760723114014 0.000000000000000
-12.936591148376465 -21.123840332031250 -0.527515888214111 1.000000000000000
-12.878337860107422 -32.513710021972656 1.202892541885376 0.000000000000000
-12.871574401855469 -22.190353393554688 0.981014609336853 0.000000000000000
-12.853316307067871 -32.312088012695312 2.065997123718262 0.000000000000000
-12.851015090942383 -29.865554809570312 2.433257341384888 0.000000000000000
-12.846632003784180 -33.360424041748047 3.587078332901001 1.000000000000000
-12.843727111816406 -9.533031463623047 2.128506183624268 0.000000000000000
-12.800662994384766 -29.428270339965820 -0.128825217485428 0.000000000000000
-12.793119430541992 -32.684505462646484 0.263420104980469 0.000000000000000
-12.780381202697754 -32.509777069091797 1.067260026931763 1.000000000000000
-12.766814231872559 -32.617301940917969 0.800986826419830 0.000000000000000
-12.760459899902344 -23.202562332153320 0.046216297894716 0.000000000000000
-12.758026123046875 -32.358314514160156 1.999460101127625 0.000000000000000
-12.757149696350098 -21.038862228393555 2.468862056732178 0.000000000000000
-12.738276481628418 -23.226509094238281 -1.073220968246460 0.000000000000000
-12.673325538635254 -30.382921218872070 1.448837399482727 0.000000000000000
-12.665199279785156 34.255008697509766 3.890118837356567 0.000000000000000
-12.658649444580078 -31.460824966430664 1.949416279792786 0.000000000000000
-12.658518791198730 -32.148700714111328 2.052712440490723 0.000000000000000
-12.654849052429199 -25.731651306152344 1.869414925575256 0.000000000000000
-12.647370338439941 -33.690631866455078 2.484852552413940 0.000000000000000
-12.645956993103027 -31.671649932861328 1.829043626785278 1.000000000000000
-12.645633697509766 -22.175556182861328 1.811941504478455 0.000000000000000
-12.634872436523438 -31.951129913330078 1.842754006385803 1.000000000000000
-12.631626129150391 -24.098529815673828 -1.311673164367676 1.000000000000000
-12.629828453063965 -32.257347106933594 1.791245698928833 1.000000000000000
-12.626746177673340 -33.282135009765625 1.909163475036621 1.000000000000000
-12.619140625000000 -19.956878662109375 1.995193600654602 0.000000000000000
-12.611824989318848 -20.963901519775391 2.454884290695190 0.000000000000000
-12.598685264587402 -27.871864318847656 2.171044588088989 0.000000000000000
-12.580200195312500 -23.094823837280273 2.987082719802856 0.000000000000000
-12.577581405639648 -29.371191024780273 1.160419940948486 0.000000000000000
-12.576862335205078 -32.549732208251953 0.261889100074768 0.000000000000000
-12.574471473693848 -22.230735778808594 1.418998837471008 0.000000000000000
-12.570191383361816 -26.868665695190430 1.762348294258118 0.000000000000000
-12.569526672363281 -32.142993927001953 1.718171715736389 0.000000000000000
-12.563047409057617 -25.287036895751953 0.482999831438065 0.000000000000000
-12.553931236267090 -31.736753463745117 1.239542722702026 0.000000000000000
-12.529075622558594 -21.243015289306641 0.516607642173767 0.000000000000000
-12.524261474609375 -31.858278274536133 2.099695444107056 0.000000000000000
-12.521035194396973 -33.653667449951172 2.895353317260742 1.000000000000000
-12.496351242065430 -8.303814888000488 1.996595621109009 0.000000000000000
-12.488465309143066 -32.917648315429688 0.264230608940125 0.000000000000000
-12.487861633300781 -33.869873046875000 1.727629423141479 0.000000000000000
-12.482190132141113 -25.919862747192383 1.155474662780762 0.000000000000000
-12.453369140625000 -24.859046936035156 0.475611150264740 0.000000000000000
-12.453030586242676 -32.471736907958984 2.334323167800903 1.000000000000000
-12.443737983703613 -33.542610168457031 3.117449283599854 1.000000000000000
-12.442230224609375 -29.624942779541016 2.156717300415039 0.000000000000000
-12.407011985778809 -32.659976959228516 2.682137250900269 1.000000000000000
-12.359313011169434 -26.802032470703125 1.128671169281006 0.000000000000000
-12.344443321228027 -33.901355743408203 2.909177541732788 0.000000000000000
-12.339667320251465 -32.652534484863281 2.612370967864990 0.000000000000000
-12.339002609252930 -29.859714508056641 1.421929001808167 0.000000000000000
-12.322996139526367 -31.889392852783203 1.965255975723267 1.000000000000000
-12.320274353027344 -33.778129577636719 1.720745563507080 0.000000000000000
-12.315032958984375 -23.748981475830078 0.457618385553360 0.000000000000000
-12.305243492126465 -32.908374786376953 2.629386901855469 1.000000000000000
-12.303285598754883 -25.321872711181641 1.564116120338440 0.000000000000000
-12.301095962524414 -32.398193359375000 2.125653743743896 1.000000000000000
-12.299285888671875 -29.014711380004883 1.629513025283813 0.000000000000000
-12.292327880859375 -32.256298065185547 2.117327690124512 1.000000000000000
-12.287159919738770 -5.285078525543213 -0.105053782463074 0.000000000000000
-12.254556655883789 -32.552677154541016 0.594992876052856 1.000000000000000
-12.208231925964355 -32.858543395996094 1.812520861625671 1.000000000000000
-12.205360412597656 -22.221681594848633 2.879643440246582 0.000000000000000
-12.193122863769531 -32.912853240966797 2.559021234512329 1.000000000000000
-12.146825790405273 -32.999897003173828 1.750590085983276 0.000000000000000
-12.138958930969238 -33.435024261474609 0.335253238677979 1.000000000000000
-12.138565063476562 -33.644287109375000 1.711758494377136 0.000000000000000
-12.134544372558594 -33.023414611816406 1.345417618751526 1.000000000000000
-12.121233940124512 -4.084193706512451 -0.174139395356178 0.000000000000000
-12.108956336975098 -4.044785976409912 -0.369984567165375 0.000000000000000
-12.104641914367676 -32.234626770019531 0.721256971359253 0.000000000000000
-12.098397254943848 -33.283454895019531 1.354283213615417 1.000000000000000
-12.094439506530762 -25.132642745971680 1.173868894577026 0.000000000000000
-12.026055335998535 -33.332447052001953 3.774457454681396 0.000000000000000
-11.963166236877441 -21.518316268920898 2.032803058624268 0.000000000000000
-11.945115089416504 -33.590293884277344 0.267562747001648 1.000000000000000
-11.940261840820312 -5.624007701873779 -0.382498919963837 0.000000000000000
-11.936752319335938 -11.674651145935059 2.221898555755615 0.000000000000000
-11.901612281799316 -28.551040649414062 2.434429168701172 0.000000000000000
-11.873550415039062 -26.763916015625000 -0.173749998211861 0.000000000000000
-11.816808700561523 -32.593803405761719 0.393332958221436 0.000000000000000
-11.797080039978027 -24.959169387817383 2.012778759002686 0.000000000000000
-11.783364295959473 -33.020401000976562 1.677913427352905 0.000000000000000
-11.754085540771484 -27.922296524047852 1.916644096374512 0.000000000000000
-11.721684455871582 -34.731994628906250 3.904523611068726 0.000000000000000
-11.715575218200684 -25.678974151611328 1.133642911911011 0.000000000000000
-11.677585601806641 -33.960376739501953 3.034553289413452 0.000000000000000
-11.641650199890137 -26.490272521972656 -0.171708673238754 0.000000000000000
-11.639685630798340 -33.954193115234375 2.963627099990845 0.000000000000000
-11.626413345336914 -33.811561584472656 0.817630171775818 1.000000000000000
-11.586880683898926 -32.713092803955078 3.024043798446655 1.000000000000000
-11.570825576782227 -33.211959838867188 2.835877180099487 1.000000000000000
-11.553082466125488 -8.023924827575684 -0.623981237411499 0.000000000000000
-11.514636039733887 -31.514646530151367 1.025116920471191 1.000000000000000
-11.508545875549316 -34.433361053466797 3.642989397048950 0.000000000000000
-11.486395835876465 -31.381265640258789 2.911887884140015 1.000000000000000
-11.482120513916016 -33.150901794433594 3.057030916213989 0.000000000000000
-11.474040985107422 -32.511657714843750 3.672353506088257 0.000000000000000
-11.470053672790527 -23.602779388427734 -0.306882649660110 0.000000000000000
-11.444621086120605 -31.868927001953125 0.839386761188507 1.000000000000000
-11.426176071166992 -22.631769180297852 1.262127280235291 0.000000000000000
-11.418740272521973 -33.661701202392578 0.403270632028580 1.000000000000000
-11.418558120727539 -32.952510833740234 3.315063476562500 0.000000000000000
-11.377355575561523 -21.389585494995117 0.786767959594727 1.000000000000000
-11.337015151977539 -31.475975036621094 2.697635889053345 1.000000000000000
-11.272489547729492 -34.939899444580078 1.686403870582581 0.000000000000000
-11.264686584472656 -34.017452239990234 2.958689689636230 0.000000000000000
-11.258467674255371 -21.737428665161133 1.879333138465881 0.000000000000000
-11.257184028625488 -33.856140136718750 2.945853233337402 0.000000000000000
-11.245999336242676 -17.912380218505859 2.589409351348877 0.000000000000000
-11.242586135864258 -34.708282470703125 1.535499095916748 0.000000000000000
-11.233358383178711 -23.670196533203125 0.901206910610199 0.000000000000000
-11.197347640991211 -32.682430267333984 2.585504055023193 1.000000000000000
-11.191464424133301 36.715637207031250 3.094999551773071 0.000000000000000
-11.191085815429688 -35.513053894042969 1.137620806694031 1.000000000000000
-11.185677528381348 -23.881042480468750 -1.322048544883728 1.000000000000000
-11.175863265991211 37.128627777099609 3.126505613327026 0.000000000000000
-11.174522399902344 -23.749216079711914 2.116379022598267 0.000000000000000
-11.137040138244629 -23.885646820068359 2.125059366226196 0.000000000000000
-11.134909629821777 -34.170265197753906 0.614764332771301 1.000000000000000
-11.125615119934082 -32.107112884521484 2.018789052963257 1.000000000000000
-11.076602935791016 -24.420501708984375 0.510195314884186 0.000000000000000
-11.064900398254395 -33.046497344970703 0.997790038585663 0.000000000000000
-11.063627243041992 -13.952818870544434 3.703836679458618 0.000000000000000
-11.060070037841797 -34.975872039794922 0.979796648025513 1.000000000000000
-11.050660133361816 -21.362668991088867 0.134331017732620 0.000000000000000
-11.049960136413574 -35.538501739501953 1.065561056137085 0.000000000000000
-11.040351867675781 -32.316154479980469 0.977756381034851 1.000000000000000
-11.029530525207520 -35.892173767089844 1.075062751770020 0.000000000000000
-10.993425369262695 -33.147876739501953 2.546223402023315 1.000000000000000
-10.989418983459473 -17.379512786865234 -0.477399677038193 0.000000000000000
-10.988472938537598 -21.416185379028320 0.504209697246552 0.000000000000000
-10.987821578979492 -25.260610580444336 2.008415699005127 0.000000000000000
-10.987565040588379 -33.844390869140625 2.457022666931152 1.000000000000000
-10.982463836669922 -23.447185516357422 -0.103936880826950 0.000000000000000
-10.976119995117188 -33.165435791015625 3.320741415023804 0.000000000000000
-10.974014282226562 -35.272548675537109 1.625765204429626 0.000000000000000
-10.971656799316406 -21.848901748657227 3.623389959335327 0.000000000000000
-10.970440864562988 -33.024555206298828 0.261168658733368 1.000000000000000
-10.969623565673828 -23.554489135742188 2.145370960235596 0.000000000000000
-10.965142250061035 -17.808954238891602 0.960670173168182 0.000000000000000
-10.964707374572754 -26.188863754272461 2.573843240737915 0.000000000000000
-10.964356422424316 -23.607740402221680 3.186815977096558 0.000000000000000
-10.963752746582031 -33.324882507324219 2.151857376098633 1.000000000000000
-10.956928253173828 -21.640325546264648 2.113601446151733 0.000000000000000
-10.927697181701660 -33.999099731445312 2.879600286483765 1.000000000000000
-10.927480697631836 -33.723430633544922 3.088976383209229 0.000000000000000
-10.907644271850586 -18.202264785766602 1.424328207969666 0.000000000000000
-10.907561302185059 -32.497451782226562 1.904498338699341 1.000000000000000
-10.906277656555176 -36.155265808105469 1.444161176681519 0.000000000000000
-10.900611877441406 -24.747749328613281 3.310769319534302 0.000000000000000
-10.878700256347656 -35.898361206054688 0.641650915145874 0.000000000000000
-10.863052368164062 -33.850700378417969 2.935320377349854 0.000000000000000
-10.860486030578613 -17.638977050781250 0.632880210876465 0.000000000000000
-10.855530738830566 -19.971786499023438 0.170600146055222 0.000000000000000
-10.842575073242188 -21.643627166748047 1.531496882438660 0.000000000000000
-10.839448928833008 -34.605659484863281 1.875106930732727 1.000000000000000
-10.822391510009766 -17.419408798217773 1.949369311332703 0.000000000000000
-10.821823120117188 -24.178899765014648 3.243202686309814 0.000000000000000
-10.810394287109375 -32.679958343505859 2.999390363693237 0.000000000000000
-10.803781509399414 -34.165393829345703 2.612540245056152 1.000000000000000
-10.794648170471191 -18.138408660888672 1.701976418495178 0.000000000000000
-10.779400825500488 -33.813007354736328 1.561923503875732 0.000000000000000
-10.777221679687500 -31.933502197265625 0.576521158218384 0.000000000000000
-10.763391494750977 -21.926240921020508 0.558560073375702 0.000000000000000
-10.755487442016602 -19.021108627319336 0.163995891809464 0.000000000000000
-10.753913879394531 -23.536333084106445 -0.998607099056244 0.000000000000000
-10.735080718994141 -22.008228302001953 -0.803754508495331 0.000000000000000
