# This PCD file was generated using the MATLAB® pcwrite function
# from Computer Vision Toolbox®.
# .PCD v.7 - Point Cloud Data file format
VERSION .7
FIELDS x y z intensity
SIZE 8 8 8 8
TYPE F F F F
COUNT 1 1 1 1
WIDTH 641
HEIGHT 1
VIEWPOINT 0 0 0 1 0 0 0
POINTS 641
DATA ascii
-3.870526075363159 -25.589649200439453 1.188815593719482 0.000000000000000
-3.869230270385742 -26.419313430786133 2.204617261886597 1.000000000000000
-3.865481615066528 -26.587867736816406 3.289381265640259 0.000000000000000
-3.857773065567017 -26.944305419921875 0.517880558967590 1.000000000000000
-3.828227996826172 -15.139008522033691 0.717290639877319 0.000000000000000
-3.821202754974365 -26.855922698974609 1.350432515144348 0.000000000000000
-3.814856529235840 -26.067073822021484 1.007458209991455 1.000000000000000
-3.789806365966797 -25.826700210571289 0.496650993824005 1.000000000000000
-3.787035703659058 -26.522823333740234 3.565274000167847 1.000000000000000
-3.768304347991943 -25.748981475830078 2.198956727981567 1.000000000000000
-3.744154930114746 -25.352321624755859 2.571498394012451 0.000000000000000
-3.735056161880493 -24.896741867065430 1.689799070358276 0.000000000000000
-3.729489564895630 -19.988170623779297 1.600251913070679 0.000000000000000
-3.712813615798950 -25.986774444580078 1.610158324241638 1.000000000000000
-3.703444480895996 -26.958829879760742 1.616691946983337 0.000000000000000
-3.689601421356201 -17.201667785644531 2.341145753860474 0.000000000000000
-3.676698446273804 -24.886545181274414 2.192075729370117 0.000000000000000
-3.658338546752930 -15.608434677124023 -1.484368562698364 1.000000000000000
-3.633408784866333 -26.510778427124023 2.331663131713867 1.000000000000000
-3.628904819488525 -25.396316528320312 1.721944928169250 0.000000000000000
-3.613532304763794 16.659753799438477 3.545810461044312 0.000000000000000
-3.568799018859863 -24.994382858276367 1.743364572525024 1.000000000000000
-3.565670251846313 -26.206901550292969 0.909732162952423 1.000000000000000
-3.556429386138916 -16.867721557617188 1.456652998924255 0.000000000000000
-3.541218280792236 -26.804233551025391 1.450081586837769 1.000000000000000
-3.535411834716797 -25.735652923583984 0.743763387203217 1.000000000000000
-3.529178857803345 -26.634340286254883 0.511184513568878 1.000000000000000
-3.528747081756592 -25.038585662841797 2.403591394424438 0.000000000000000
-3.522609949111938 -16.033765792846680 -0.507294952869415 0.000000000000000
-3.518724203109741 -25.683990478515625 0.792046904563904 1.000000000000000
-3.511251926422119 -25.454320907592773 1.823836088180542 1.000000000000000
-3.495694875717163 -26.739953994750977 1.550212979316711 1.000000000000000
-3.490782499313354 -25.730459213256836 1.792962551116943 1.000000000000000
-3.490448951721191 -27.067295074462891 2.200609922409058 0.000000000000000
-3.455991744995117 -17.371284484863281 1.462393879890442 0.000000000000000
-3.450689554214478 -10.705254554748535 -0.088340677320957 0.000000000000000
-3.448680639266968 27.527025222778320 2.183359861373901 1.000000000000000
-3.427783250808716 -10.634190559387207 -0.259403854608536 0.000000000000000
-3.413387775421143 -25.653884887695312 2.036798238754272 1.000000000000000
-3.401382923126221 -14.826249122619629 0.933034718036652 0.000000000000000
-3.392676591873169 -25.413389205932617 2.234091043472290 1.000000000000000
-3.389329671859741 -26.627449035644531 2.338954925537109 0.000000000000000
-3.385889530181885 -25.576944351196289 1.980678677558899 1.000000000000000
-3.378033638000488 28.807876586914062 2.757127523422241 0.000000000000000
-3.377985477447510 -26.997140884399414 1.406846642494202 1.000000000000000
-3.367087602615356 27.658189773559570 2.967793703079224 0.000000000000000
-3.355619192123413 -16.759748458862305 2.092623949050903 0.000000000000000
-3.335064172744751 -15.976594924926758 -1.006811499595642 1.000000000000000
-3.329827308654785 -27.064605712890625 2.376108884811401 1.000000000000000
-3.329346179962158 -15.410558700561523 -0.244921281933784 0.000000000000000
-3.295568227767944 -24.944854736328125 0.962213575839996 0.000000000000000
-3.291263341903687 -25.121576309204102 1.798347711563110 1.000000000000000
-3.283907651901245 -25.542947769165039 0.984835922718048 0.000000000000000
-3.273486137390137 21.502691268920898 3.223462343215942 0.000000000000000
-3.270422458648682 -14.737317085266113 0.780571639537811 0.000000000000000
-3.246477603912354 23.369094848632812 2.367424011230469 0.000000000000000
-3.242131948471069 17.568220138549805 2.647613763809204 0.000000000000000
-3.241108894348145 -25.484315872192383 1.476753950119019 1.000000000000000
-3.227425336837769 32.762649536132812 1.829055070877075 0.000000000000000
-3.223694801330566 -14.770332336425781 0.549068927764893 0.000000000000000
-3.194279193878174 -25.306638717651367 1.024484515190125 1.000000000000000
-3.192981958389282 -16.265747070312500 0.889029145240784 0.000000000000000
-3.151709079742432 -25.131780624389648 1.260933995246887 0.000000000000000
-3.148494482040405 33.147037506103516 2.363340377807617 0.000000000000000
-3.140813827514648 -27.054271697998047 1.618115186691284 1.000000000000000
-3.110775232315063 -26.290676116943359 2.134704113006592 1.000000000000000
-3.058552503585815 -15.025215148925781 1.295663356781006 0.000000000000000
-3.041495561599731 -26.359422683715820 1.167793273925781 1.000000000000000
-3.030214309692383 22.291727066040039 2.396265745162964 0.000000000000000
-3.021659374237061 -26.934457778930664 1.244980096817017 1.000000000000000
-3.008754968643188 -25.512420654296875 0.982390344142914 1.000000000000000
-2.983430147171021 -26.506034851074219 1.996220469474792 1.000000000000000
-2.975191831588745 32.465942382812500 2.314062833786011 0.000000000000000
-2.964806795120239 -26.233413696289062 1.517615556716919 1.000000000000000
-2.959509372711182 27.014240264892578 1.981365323066711 0.000000000000000
-2.947433948516846 22.595130920410156 2.065719604492188 0.000000000000000
-2.941070318222046 24.050197601318359 1.953704357147217 0.000000000000000
-2.938101291656494 33.011928558349609 2.887928724288940 0.000000000000000
-2.937872409820557 -25.145265579223633 1.796931624412537 1.000000000000000
-2.928599119186401 -25.126760482788086 1.844368457794189 1.000000000000000
-2.921425580978394 21.581802368164062 2.185314178466797 0.000000000000000
-2.902741193771362 -26.903860092163086 0.930770456790924 1.000000000000000
-2.896951675415039 -26.662569046020508 0.819409430027008 0.000000000000000
-2.886104822158813 -26.890495300292969 0.618458032608032 1.000000000000000
-2.868606090545654 -27.074750900268555 0.727211177349091 1.000000000000000
-2.862287282943726 -25.818840026855469 0.993395686149597 1.000000000000000
-2.861987113952637 -27.166152954101562 2.380275726318359 1.000000000000000
-2.859803438186646 26.104129791259766 2.380633592605591 0.000000000000000
-2.851567983627319 -25.701692581176758 1.586158990859985 1.000000000000000
-2.842962265014648 22.403730392456055 2.047301530838013 0.000000000000000
-2.841405391693115 -26.818021774291992 1.135014533996582 1.000000000000000
-2.835758924484253 -27.319820404052734 1.896566867828369 1.000000000000000
-2.816933870315552 -26.587053298950195 1.536898493766785 1.000000000000000
-2.804208755493164 30.878660202026367 1.901823520660400 0.000000000000000
-2.787842750549316 -26.560237884521484 1.175355792045593 1.000000000000000
-2.779550552368164 -18.527633666992188 0.968743264675140 0.000000000000000
-2.745190143585205 22.974111557006836 1.955114603042603 0.000000000000000
-2.744763135910034 -15.801671981811523 -0.834917128086090 1.000000000000000
-2.738087654113770 30.565244674682617 1.409619212150574 0.000000000000000
-2.737978458404541 33.317001342773438 3.177661418914795 0.000000000000000
-2.733921766281128 -26.196241378784180 2.123773336410522 1.000000000000000
-2.720486879348755 -26.209283828735352 2.226574182510376 1.000000000000000
-2.691848993301392 34.714340209960938 1.331507921218872 0.000000000000000
-2.691078662872314 -27.162569046020508 1.990091323852539 1.000000000000000
-2.677137851715088 -26.351350784301758 2.657760620117188 1.000000000000000
-2.674313068389893 -26.670734405517578 2.264969110488892 1.000000000000000
-2.643614053726196 21.327348709106445 1.872622251510620 0.000000000000000
-2.625043630599976 22.639099121093750 1.925813198089600 0.000000000000000
-2.614907503128052 -27.336870193481445 1.525728821754456 1.000000000000000
-2.613159179687500 -27.951509475708008 2.155201435089111 1.000000000000000
-2.583950042724609 -26.202472686767578 1.564265012741089 1.000000000000000
-2.565015316009521 22.774351119995117 1.626725912094116 0.000000000000000
-2.551217794418335 -27.957460403442383 2.446249723434448 0.000000000000000
-2.541230678558350 -26.724113464355469 1.594867229461670 1.000000000000000
-2.535269260406494 23.239305496215820 1.659294366836548 0.000000000000000
-2.528694629669189 -26.745820999145508 2.695700407028198 1.000000000000000
-2.527330398559570 15.597276687622070 2.102651596069336 0.000000000000000
-2.525171756744385 20.940372467041016 1.837899088859558 0.000000000000000
-2.524391889572144 -1.691273927688599 -0.181589290499687 1.000000000000000
-2.511556148529053 -26.500385284423828 2.319509983062744 1.000000000000000
-2.501158952713013 -26.224967956542969 2.388217449188232 1.000000000000000
-2.483278751373291 -26.477493286132812 2.144348859786987 1.000000000000000
-2.480383872985840 -17.278900146484375 0.835419237613678 0.000000000000000
-2.475913763046265 -26.037227630615234 1.151085376739502 1.000000000000000
-2.444864034652710 -26.200721740722656 1.614076495170593 0.000000000000000
-2.439356803894043 15.394531250000000 2.074158906936646 0.000000000000000
-2.434079647064209 -25.788311004638672 1.140005469322205 1.000000000000000
-2.428623199462891 26.562871932983398 1.430587291717529 0.000000000000000
-2.417718648910522 -26.271579742431641 0.704676091670990 1.000000000000000
-2.413386344909668 27.062698364257812 1.091263771057129 1.000000000000000
-2.398032426834106 -15.422677993774414 1.414945721626282 0.000000000000000
-2.390944480895996 33.902954101562500 1.299714446067810 0.000000000000000
-2.357128381729126 18.114253997802734 2.430844783782959 0.000000000000000
-2.340010166168213 24.355422973632812 1.831137537956238 0.000000000000000
-2.337426424026489 17.485593795776367 1.490669608116150 0.000000000000000
-2.336631536483765 24.042427062988281 1.528213620185852 0.000000000000000
-2.334294557571411 -27.083955764770508 3.617510557174683 0.000000000000000
-2.332920312881470 25.205478668212891 1.894424200057983 0.000000000000000
-2.319338083267212 23.552782058715820 0.905046403408051 1.000000000000000
-2.298198699951172 21.906381607055664 1.351063609123230 0.000000000000000
-2.293841838836670 -25.834367752075195 1.440966129302979 1.000000000000000
-2.291123151779175 21.875627517700195 1.688583016395569 0.000000000000000
-2.281761407852173 -26.474431991577148 1.016170978546143 1.000000000000000
-2.280132293701172 -26.972705841064453 0.775015890598297 1.000000000000000
-2.272511005401611 -28.097436904907227 2.456319332122803 1.000000000000000
-2.272377729415894 -25.331691741943359 0.972607672214508 1.000000000000000
-2.253382682800293 -25.591686248779297 1.526309013366699 0.000000000000000
-2.246358633041382 23.982870101928711 1.523920297622681 0.000000000000000
-2.241055965423584 33.440494537353516 1.281677722930908 0.000000000000000
-2.237066030502319 -25.406377792358398 1.908753395080566 1.000000000000000
-2.220293760299683 29.114290237426758 3.110146284103394 0.000000000000000
-2.214263916015625 -26.052671432495117 1.906322479248047 1.000000000000000
-2.205061912536621 28.193933486938477 2.563731431961060 0.000000000000000
-2.204793214797974 32.575580596923828 2.959901571273804 0.000000000000000
-2.196792602539062 15.917146682739258 1.967212438583374 0.000000000000000
-2.190862655639648 21.996187210083008 1.313280463218689 0.000000000000000
-2.182525873184204 -25.594547271728516 3.806934118270874 1.000000000000000
-2.173253059387207 22.619771957397461 1.350050449371338 0.000000000000000
-2.168412208557129 -25.651121139526367 1.529392957687378 1.000000000000000
-2.162817716598511 -25.363430023193359 1.022397637367249 1.000000000000000
-2.161907196044922 31.941944122314453 2.334183454513550 0.000000000000000
-2.143030166625977 -27.487405776977539 2.010160923004150 1.000000000000000
-2.137401819229126 19.061380386352539 1.287440419197083 0.000000000000000
-2.132611036300659 25.950609207153320 1.546947598457336 0.000000000000000
-2.132609844207764 21.294504165649414 1.642962098121643 0.000000000000000
-2.113747835159302 28.296798706054688 2.572398662567139 0.000000000000000
-2.113554239273071 36.335483551025391 2.794198989868164 0.000000000000000
-2.111535072326660 -25.019914627075195 2.187908887863159 1.000000000000000
-2.107889175415039 15.676815986633301 1.936588644981384 0.000000000000000
-2.102223396301270 20.276947021484375 2.045537233352661 0.000000000000000
-2.100878715515137 -25.013462066650391 1.153024435043335 1.000000000000000
-2.098675251007080 -25.214130401611328 2.873775005340576 1.000000000000000
-2.096436023712158 33.009315490722656 1.264863848686218 0.000000000000000
-2.090199708938599 19.629858016967773 1.629928946495056 0.000000000000000
-2.088456392288208 26.548204421997070 1.172014236450195 0.000000000000000
-2.080065011978149 -27.937873840332031 1.179082989692688 1.000000000000000
-2.071779727935791 -24.890996932983398 1.243432164192200 1.000000000000000
-2.070695877075195 20.357330322265625 1.689504384994507 0.000000000000000
-2.067048788070679 21.051164627075195 1.419774174690247 0.000000000000000
-2.038792133331299 21.321895599365234 1.561648726463318 0.000000000000000
-2.036002874374390 27.501529693603516 0.630620539188385 1.000000000000000
-2.033755779266357 32.893287658691406 1.450420379638672 0.000000000000000
-2.029226064682007 -25.215448379516602 2.538351297378540 1.000000000000000
-2.028417348861694 -26.814334869384766 3.578465223312378 1.000000000000000
-2.022204399108887 21.148420333862305 1.925958514213562 0.000000000000000
-2.016394853591919 36.767837524414062 3.694906711578369 0.000000000000000
-2.015490770339966 -24.420955657958984 1.597485899925232 1.000000000000000
-2.005579710006714 26.848751068115234 1.547687768936157 0.000000000000000
-2.004729747772217 14.889927864074707 1.428149700164795 0.000000000000000
-1.999986767768860 19.513338088989258 1.778252363204956 0.000000000000000
-1.995702505111694 15.224539756774902 1.459566712379456 0.000000000000000
-1.990932106971741 23.541790008544922 0.540270626544952 0.000000000000000
-1.986415386199951 -26.844552993774414 1.184677124023438 1.000000000000000
-1.982328891754150 18.697301864624023 1.370841979980469 0.000000000000000
-1.972796559333801 27.327995300292969 1.258562326431274 0.000000000000000
-1.967180132865906 -28.554525375366211 1.755623579025269 1.000000000000000
-1.962618827819824 27.568868637084961 2.015105724334717 0.000000000000000
-1.960867881774902 -27.235542297363281 1.780159831047058 1.000000000000000
-1.955827951431274 32.593509674072266 1.248661398887634 0.000000000000000
-1.944602489471436 -26.859085083007812 1.651789784431458 1.000000000000000
-1.927744626998901 -28.089347839355469 1.076700925827026 1.000000000000000
-1.922766208648682 24.441970825195312 2.330537319183350 0.000000000000000
-1.921171545982361 35.797328948974609 2.613703489303589 0.000000000000000
-1.908456206321716 25.393596649169922 2.420624732971191 0.000000000000000
-1.894051551818848 -25.038108825683594 0.960226476192474 1.000000000000000
-1.890768766403198 26.559593200683594 2.413858413696289 0.000000000000000
-1.846897959709167 27.558963775634766 0.631626427173615 1.000000000000000
-1.820670843124390 -27.110948562622070 2.033535718917847 0.000000000000000
-1.818358302116394 32.181110382080078 1.232611656188965 1.000000000000000
-1.800699591636658 21.408061981201172 1.442008376121521 0.000000000000000
-1.797893881797791 21.971549987792969 1.820175170898438 0.000000000000000
-1.795570254325867 -28.287631988525391 1.247463583946228 1.000000000000000
-1.793316125869751 -25.492164611816406 2.226799011230469 1.000000000000000
-1.787293195724487 -27.956569671630859 2.042446851730347 1.000000000000000
-1.786645293235779 -25.822254180908203 2.087123394012451 1.000000000000000
-1.764413952827454 20.674242019653320 1.713202834129333 0.000000000000000
-1.764344453811646 -26.162975311279297 1.911848902702332 1.000000000000000
-1.761096119880676 -28.580865859985352 1.095043420791626 1.000000000000000
-1.760874748229980 -27.543336868286133 1.161590099334717 1.000000000000000
-1.725215435028076 -27.582849502563477 1.748442173004150 1.000000000000000
-1.714443683624268 18.530342102050781 1.621573567390442 0.000000000000000
-1.707000494003296 17.328321456909180 1.235903859138489 0.000000000000000
-1.702266454696655 16.683189392089844 1.190307855606079 0.000000000000000
-1.684111118316650 -28.848575592041016 1.772521018981934 1.000000000000000
-1.683676600456238 -27.863096237182617 1.604618430137634 1.000000000000000
-1.669826030731201 35.646572113037109 3.235090255737305 0.000000000000000
-1.666530489921570 28.850404739379883 2.518126726150513 0.000000000000000
-1.666400313377380 18.760423660278320 2.791282653808594 0.000000000000000
-1.666368007659912 -26.383310317993164 0.655312478542328 1.000000000000000
-1.660589456558228 -26.161127090454102 1.557385563850403 1.000000000000000
-1.660437941551208 -26.825204849243164 2.219099521636963 1.000000000000000
-1.655415415763855 -27.773727416992188 0.850070118904114 1.000000000000000
-1.648643612861633 -28.873229980468750 1.662467360496521 0.000000000000000
-1.647823929786682 -26.621419906616211 1.379168272018433 1.000000000000000
-1.638132333755493 -28.187803268432617 1.079758048057556 1.000000000000000
-1.631222486495972 -25.848371505737305 1.988333225250244 1.000000000000000
-1.630017518997192 -27.164022445678711 2.371247529983521 0.000000000000000
-1.624282479286194 -26.771505355834961 2.214491605758667 1.000000000000000
-1.616176724433899 32.103530883789062 2.914036989212036 0.000000000000000
-1.600136518478394 16.846078872680664 0.940156042575836 0.000000000000000
-1.590524315834045 17.548219680786133 1.352703452110291 0.000000000000000
-1.583615779876709 -26.821304321289062 2.861876726150513 1.000000000000000
-1.581619977951050 -27.084812164306641 1.821061253547668 1.000000000000000
-1.576812982559204 -27.280628204345703 1.360376715660095 1.000000000000000
-1.576487660408020 -26.089233398437500 2.369438171386719 1.000000000000000
-1.571571707725525 31.217502593994141 2.278919219970703 0.000000000000000
-1.562031626701355 27.644668579101562 0.633181035518646 1.000000000000000
-1.546416878700256 -28.028293609619141 0.534088134765625 1.000000000000000
-1.540130138397217 -26.084798812866211 0.848566889762878 1.000000000000000
-1.538054823875427 22.878671646118164 1.627575397491455 0.000000000000000
-1.528663635253906 27.188680648803711 1.408085942268372 0.000000000000000
-1.524034500122070 17.820932388305664 1.338575243949890 0.000000000000000
-1.522063970565796 -28.641012191772461 1.703990936279297 1.000000000000000
-1.519534945487976 16.962553024291992 1.708874344825745 0.000000000000000
-1.500502467155457 32.031940460205078 1.843360066413879 0.000000000000000
-1.499137997627258 27.698425292968750 2.636758804321289 0.000000000000000
-1.494634985923767 30.462036132812500 1.870722413063049 0.000000000000000
-1.492738962173462 -28.684309005737305 1.374645948410034 0.000000000000000
-1.483775615692139 17.350175857543945 1.655260682106018 0.000000000000000
-1.472881793975830 -26.695495605468750 3.036739587783813 1.000000000000000
-1.472054123878479 27.681640625000000 0.633912622928619 1.000000000000000
-1.461850285530090 -27.791687011718750 2.136524200439453 0.000000000000000
-1.460459589958191 -27.248458862304688 1.989509582519531 0.000000000000000
-1.459006428718567 26.956945419311523 1.603881716728210 0.000000000000000
-1.417540550231934 -26.922424316406250 0.668297708034515 1.000000000000000
-1.406868219375610 19.338127136230469 1.226662397384644 0.000000000000000
-1.404369592666626 -25.714855194091797 0.984835922718048 1.000000000000000
-1.374715805053711 -26.758354187011719 1.643463492393494 1.000000000000000
-1.363896846771240 -27.777559280395508 0.849703669548035 0.000000000000000
-1.361671686172485 26.898237228393555 2.015624523162842 0.000000000000000
-1.360688686370850 30.685457229614258 1.410904049873352 1.000000000000000
-1.360487222671509 18.700595855712891 1.475658774375916 0.000000000000000
-1.360018491744995 -27.887418746948242 0.799399673938751 1.000000000000000
-1.352589964866638 19.381803512573242 1.566628456115723 0.000000000000000
-1.339895486831665 -25.930459976196289 2.949163198471069 1.000000000000000
-1.339173913002014 -27.961494445800781 1.016692161560059 1.000000000000000
-1.325616478919983 -25.935161590576172 0.993090033531189 1.000000000000000
-1.319268465042114 -3.292738676071167 -0.075541913509369 1.000000000000000
-1.309865355491638 -28.723833084106445 1.320783853530884 1.000000000000000
-1.303412556648254 -24.779579162597656 1.139809370040894 1.000000000000000
-1.301398038864136 19.358385086059570 1.077950954437256 0.000000000000000
-1.292698502540588 31.220626831054688 2.459222078323364 0.000000000000000
-1.287848114967346 20.694511413574219 1.311773538589478 0.000000000000000
-1.286381125450134 -25.030443191528320 0.910275578498840 1.000000000000000
-1.285845398902893 27.185621261596680 1.616929173469543 0.000000000000000
-1.283917546272278 23.923328399658203 2.171894788742065 0.000000000000000
-1.280175089836121 19.314796447753906 1.560841560363770 0.000000000000000
-1.276919722557068 19.984367370605469 1.112566113471985 0.000000000000000
-1.275794625282288 20.500823974609375 1.616571307182312 0.000000000000000
-1.275617718696594 27.623111724853516 -0.642010629177094 1.000000000000000
-1.270386695861816 27.677539825439453 -0.270809382200241 1.000000000000000
-1.269143700599670 27.650459289550781 0.154593497514725 1.000000000000000
-1.268041610717773 -28.043214797973633 1.343477964401245 0.000000000000000
-1.261765837669373 -28.243110656738281 0.972434461116791 1.000000000000000
-1.241362929344177 24.988023757934570 2.114083528518677 0.000000000000000
-1.237137675285339 18.156286239624023 0.800923287868500 0.000000000000000
-1.233759999275208 -27.790287017822266 1.010304212570190 1.000000000000000
-1.232786178588867 -25.396995544433594 1.216893553733826 0.000000000000000
-1.198595046997070 27.629236221313477 0.207554027438164 1.000000000000000
-1.198276758193970 30.470685958862305 1.518092989921570 0.000000000000000
-1.180060625076294 -27.761640548706055 2.421248912811279 1.000000000000000
-1.179759263992310 25.547327041625977 3.403288125991821 0.000000000000000
-1.173514962196350 30.955831527709961 1.959831118583679 0.000000000000000
-1.171672701835632 30.471719741821289 1.518092989921570 0.000000000000000
-1.171450257301331 -16.032579421997070 -0.960681259632111 1.000000000000000
-1.170741200447083 -25.123767852783203 0.671781241893768 1.000000000000000
-1.169132709503174 -27.988115310668945 0.802032709121704 0.000000000000000
-1.160090208053589 31.059930801391602 1.906476378440857 0.000000000000000
-1.157773017883301 -25.915355682373047 2.946454524993896 1.000000000000000
-1.153346061706543 20.273429870605469 3.009425163269043 0.000000000000000
-1.151872038841248 -27.323333740234375 0.677912831306458 1.000000000000000
-1.138946771621704 -25.493953704833984 0.485541611909866 1.000000000000000
-1.135175466537476 23.538749694824219 -0.682959318161011 1.000000000000000
-1.094612002372742 -26.582408905029297 3.021842479705811 1.000000000000000
-1.090757966041565 -27.960702896118164 2.438263416290283 0.000000000000000
-1.090652704238892 25.324754714965820 1.799197316169739 0.000000000000000
-1.088073372840881 27.767425537109375 0.635467231273651 1.000000000000000
-1.084312438964844 25.404714584350586 3.383765220642090 0.000000000000000
-1.083899140357971 -25.147676467895508 0.672315180301666 1.000000000000000
-1.068175435066223 -27.284017562866211 2.595500230789185 0.000000000000000
-1.065506100654602 -26.903442382812500 1.963041067123413 0.000000000000000
-1.042491674423218 23.509662628173828 -0.727213263511658 1.000000000000000
-1.015801072120667 -24.901073455810547 0.953042387962341 1.000000000000000
-1.005272269248962 -26.037752151489258 2.614629507064819 0.000000000000000
-0.995969057083130 25.902191162109375 2.944197416305542 0.000000000000000
-0.974873125553131 21.451789855957031 2.439052343368530 0.000000000000000
-0.955684006214142 -28.185213088989258 1.024241447448730 1.000000000000000
-0.955553710460663 29.551940917968750 1.471951603889465 0.000000000000000
-0.942872524261475 -25.279811859130859 0.578495562076569 1.000000000000000
-0.926408529281616 22.084836959838867 1.782349348068237 0.000000000000000
-0.908062040805817 15.611085891723633 1.569097161293030 0.000000000000000
-0.904168903827667 28.627893447875977 1.756847977638245 0.000000000000000
-0.891095936298370 -27.708147048950195 2.074731826782227 0.000000000000000
-0.883337557315826 25.269989013671875 2.871969461441040 0.000000000000000
-0.877517879009247 -26.762544631958008 1.952278971672058 1.000000000000000
-0.872719824314117 22.055210113525391 1.566686511039734 0.000000000000000
-0.868464648723602 -27.805074691772461 2.963133573532104 1.000000000000000
-0.861255288124084 -27.194005966186523 0.674443483352661 1.000000000000000
-0.845910906791687 16.146282196044922 1.241253972053528 0.000000000000000
-0.821702301502228 22.778034210205078 1.266337156295776 0.000000000000000
-0.821507155895233 -25.544321060180664 0.731743216514587 1.000000000000000
-0.819047570228577 -25.904066085815430 0.393563628196716 1.000000000000000
-0.808277368545532 28.900897979736328 1.439334392547607 0.000000000000000
-0.787085294723511 -25.157377243041992 0.720638811588287 0.000000000000000
-0.743813753128052 26.170522689819336 1.757305383682251 0.000000000000000
-0.739275157451630 16.878030776977539 1.003701210021973 0.000000000000000
-0.735243916511536 17.757253646850586 1.124377369880676 0.000000000000000
-0.731740415096283 -25.067985534667969 2.070654869079590 0.000000000000000
-0.717952191829681 28.800565719604492 1.489675283432007 1.000000000000000
-0.711195766925812 -27.489477157592773 3.366669654846191 1.000000000000000
-0.708234071731567 29.592346191406250 1.872699499130249 0.000000000000000
-0.679249942302704 25.801549911499023 1.533425688743591 0.000000000000000
-0.677219986915588 -27.929750442504883 2.975843429565430 0.000000000000000
-0.675848603248596 17.828025817871094 1.404103994369507 0.000000000000000
-0.668920576572418 -35.748081207275391 2.952106952667236 0.000000000000000
-0.660470247268677 -27.860984802246094 3.165395975112915 0.000000000000000
-0.659967601299286 -18.277090072631836 1.657992720603943 0.000000000000000
-0.659368991851807 -28.272691726684570 -0.656587004661560 1.000000000000000
-0.653265595436096 -27.885587692260742 1.872226715087891 1.000000000000000
-0.629818022251129 -27.005594253540039 0.617726445198059 0.000000000000000
-0.629382193088531 28.569679260253906 1.422627925872803 1.000000000000000
-0.626499295234680 -26.743028640747070 0.971541345119476 0.000000000000000
-0.615456998348236 28.479295730590820 1.472944259643555 1.000000000000000
-0.608878374099731 -27.293043136596680 1.148975133895874 0.000000000000000
-0.607481360435486 24.098943710327148 1.664559125900269 0.000000000000000
-0.604673624038696 -20.640865325927734 0.869090139865875 0.000000000000000
-0.594029128551483 18.078231811523438 1.318777322769165 0.000000000000000
-0.583403885364532 25.356567382812500 1.506856441497803 0.000000000000000
-0.572231888771057 17.793010711669922 1.160577774047852 0.000000000000000
-0.550990521907806 -27.258310317993164 0.937783181667328 0.000000000000000
-0.550295650959015 -23.490167617797852 1.214956998825073 0.000000000000000
-0.543311953544617 -27.399229049682617 1.469790220260620 0.000000000000000
-0.539748609066010 -27.219530105590820 0.622573137283325 0.000000000000000
-0.538524806499481 19.255580902099609 1.255818009376526 0.000000000000000
-0.535324692726135 18.230035781860352 1.048396706581116 0.000000000000000
-0.534727454185486 16.996400833129883 1.371161699295044 0.000000000000000
-0.521512329578400 28.132322311401367 1.400750517845154 0.000000000000000
-0.518747270107269 23.697879791259766 1.636729121208191 0.000000000000000
-0.516302824020386 28.062738418579102 1.073338150978088 1.000000000000000
-0.514985799789429 -28.044828414916992 2.099210739135742 0.000000000000000
-0.514522671699524 24.319608688354492 1.961420178413391 0.000000000000000
-0.475015580654144 24.340438842773438 1.446363925933838 0.000000000000000
-0.468158006668091 27.996984481811523 1.232338547706604 1.000000000000000
-0.463525414466858 23.111270904541016 2.319500207901001 0.000000000000000
-0.455438077449799 -20.162580490112305 2.988900899887085 0.000000000000000
-0.455108314752579 -27.856243133544922 1.494211673736572 0.000000000000000
-0.453291565179825 -27.745042800903320 0.634552717208862 0.000000000000000
-0.437118828296661 20.000757217407227 1.304218769073486 0.000000000000000
-0.436656773090363 -29.362628936767578 2.197723150253296 0.000000000000000
-0.429630011320114 -28.034286499023438 2.044192075729370 0.000000000000000
-0.422401160001755 -19.296564102172852 2.860478401184082 0.000000000000000
-0.413591712713242 23.413780212402344 2.659799337387085 0.000000000000000
-0.406240671873093 22.420883178710938 2.745444774627686 0.000000000000000
-0.404349714517593 -26.384693145751953 2.392189979553223 0.000000000000000
-0.402790457010269 -17.271013259887695 2.298934459686279 0.000000000000000
-0.395455688238144 24.679803848266602 1.847257614135742 0.000000000000000
-0.388629823923111 22.287021636962891 1.711240291595459 0.000000000000000
-0.383349865674973 -18.470310211181641 -0.251516550779343 1.000000000000000
-0.369997918605804 22.574535369873047 1.384858608245850 0.000000000000000
-0.361322373151779 -26.237077713012695 2.794937133789062 0.000000000000000
-0.353499501943588 -18.716884613037109 2.291921377182007 0.000000000000000
-0.339528948068619 -29.835571289062500 2.836237907409668 0.000000000000000
-0.327801287174225 -27.700328826904297 1.592451810836792 1.000000000000000
-0.320157021284103 -19.471351623535156 1.006955981254578 0.000000000000000
-0.312114268541336 28.028814315795898 1.449396967887878 1.000000000000000
-0.284842669963837 -18.586601257324219 -0.645886301994324 1.000000000000000
-0.283651560544968 27.970640182495117 1.769656896591187 0.000000000000000
-0.281348019838333 26.041536331176758 1.597424030303955 0.000000000000000
-0.277997493743896 -27.041595458984375 2.880518198013306 0.000000000000000
-0.274291425943375 -27.667903900146484 1.803839683532715 0.000000000000000
-0.272652655839920 22.063234329223633 1.821820855140686 0.000000000000000
-0.267647266387939 -18.677366256713867 0.570703804492950 1.000000000000000
-0.240665704011917 17.654481887817383 1.880661845207214 0.000000000000000
-0.235297158360481 -22.888013839721680 1.801421046257019 0.000000000000000
-0.226713925600052 16.631023406982422 1.309011578559875 0.000000000000000
-0.212278038263321 -30.254859924316406 0.866254866123199 0.000000000000000
-0.210860475897789 -19.454030990600586 -0.900467813014984 1.000000000000000
-0.210131257772446 -19.671836853027344 0.865820229053497 0.000000000000000
-0.199972063302994 -19.451841354370117 -0.862937629222870 1.000000000000000
-0.194091692566872 -18.784135818481445 -0.327895790338516 1.000000000000000
-0.193615734577179 26.473539352416992 1.623872280120850 0.000000000000000
-0.186316102743149 -18.793790817260742 -0.219789907336235 1.000000000000000
-0.180331289768219 -19.062713623046875 -1.359804868698120 1.000000000000000
-0.170361340045929 16.799186706542969 1.322192788124084 0.000000000000000
-0.159763216972351 26.227804183959961 2.631802082061768 0.000000000000000
-0.157731011509895 -24.557592391967773 2.789358377456665 0.000000000000000
-0.154293969273567 -22.726041793823242 1.437798857688904 0.000000000000000
-0.153355240821838 23.061384201049805 1.459013462066650 0.000000000000000
-0.151380345225334 29.702579498291016 1.707460880279541 0.000000000000000
-0.150966614484787 27.199621200561523 1.615980148315430 0.000000000000000
-0.149365618824959 -18.933137893676758 -1.204480171203613 0.000000000000000
-0.148485332727432 -18.821554183959961 -0.907385051250458 1.000000000000000
-0.138371333479881 -18.831331253051758 -0.871617317199707 1.000000000000000
-0.125034391880035 -18.753480911254883 -0.615577459335327 1.000000000000000
-0.109806925058365 34.756351470947266 2.735398292541504 0.000000000000000
-0.108476318418980 34.335182189941406 2.172230482101440 0.000000000000000
-0.104677781462669 -17.850038528442383 0.957366645336151 0.000000000000000
-0.072142399847507 -24.604038238525391 1.983924627304077 0.000000000000000
-0.048871412873268 30.429727554321289 1.749240756034851 0.000000000000000
-0.031217817217112 15.155591964721680 3.152374505996704 0.000000000000000
-0.028981165960431 -21.288681030273438 1.929931044578552 0.000000000000000
-0.016975197941065 -18.011266708374023 2.669310569763184 0.000000000000000
0.013794084079564 -24.695842742919922 1.991318821907043 0.000000000000000
0.019213160499930 -18.979085922241211 -0.185504615306854 1.000000000000000
0.019403494894505 -17.370626449584961 1.199441432952881 0.000000000000000
0.021537952125072 15.049871444702148 3.130381345748901 0.000000000000000
0.040823243558407 28.525672912597656 1.694739103317261 0.000000000000000
0.045684646815062 -17.928123474121094 2.656996250152588 0.000000000000000
0.046702414751053 -21.934001922607422 1.988435626029968 0.000000000000000
0.055557925254107 -17.882604598999023 0.787029385566711 0.000000000000000
0.059770733118057 -19.131095886230469 -1.475423932075500 1.000000000000000
0.081413760781288 15.145672798156738 1.373053550720215 0.000000000000000
0.083054021000862 -18.024888992309570 1.244630575180054 0.000000000000000
0.091950371861458 -22.042947769165039 1.692257165908813 0.000000000000000
0.099148802459240 -24.486356735229492 2.781232833862305 0.000000000000000
0.103376097977161 -35.679080963134766 1.433026075363159 0.000000000000000
0.103477016091347 -17.540763854980469 1.042131662368774 0.000000000000000
0.109453849494457 24.986286163330078 2.507200956344604 0.000000000000000
0.124499000608921 -22.862976074218750 1.666941523551941 0.000000000000000
0.133688345551491 -29.689186096191406 0.621906101703644 0.000000000000000
0.144802734255791 -19.204423904418945 -0.519671320915222 0.000000000000000
0.153543323278427 -19.207630157470703 -0.778198540210724 1.000000000000000
0.167966052889824 -18.795644760131836 -0.942317605018616 1.000000000000000
0.177935361862183 -16.962610244750977 1.335060119628906 0.000000000000000
0.192325323820114 -19.365537643432617 -1.493570685386658 1.000000000000000
0.218226984143257 -21.973617553710938 1.347880005836487 0.000000000000000
0.221271499991417 -19.266506195068359 0.403602331876755 0.000000000000000
0.250578075647354 -17.922821044921875 1.410694718360901 0.000000000000000
0.260680168867111 -19.421329498291016 -1.198174715042114 1.000000000000000
0.261534005403519 -19.484941482543945 -0.602181017398834 0.000000000000000
0.264883011579514 25.679067611694336 1.971493244171143 0.000000000000000
0.291663616895676 27.439592361450195 1.736066937446594 0.000000000000000
0.294324815273285 -19.652839660644531 0.713847696781158 0.000000000000000
0.299377739429474 -15.423439025878906 0.649252533912659 0.000000000000000
0.306939423084259 -34.754619598388672 1.395944237709045 0.000000000000000
0.314358085393906 -17.991464614868164 1.916673660278320 0.000000000000000
0.320808887481689 -19.678047180175781 -1.365851163864136 1.000000000000000
0.347146242856979 28.494840621948242 1.638134002685547 0.000000000000000
0.362462878227234 -15.826205253601074 0.422826975584030 0.000000000000000
0.380304157733917 -19.592632293701172 -0.379690051078796 1.000000000000000
0.399850666522980 -29.789880752563477 0.452415943145752 1.000000000000000
0.400501817464828 -19.626897811889648 -0.908605098724365 1.000000000000000
0.402491897344589 -18.475433349609375 0.671164870262146 0.000000000000000
0.405623644590378 34.581726074218750 3.287431716918945 0.000000000000000
0.411195993423462 15.980112075805664 2.369071722030640 0.000000000000000
0.412001371383667 -19.652351379394531 -0.871978282928467 0.000000000000000
0.420725256204605 -20.617963790893555 0.947271466255188 0.000000000000000
0.425174146890640 16.086620330810547 2.384904861450195 0.000000000000000
0.437278270721436 20.185874938964844 2.025968551635742 0.000000000000000
0.446373790502548 -17.658760070800781 0.913386583328247 0.000000000000000
0.453099042177200 28.400926589965820 2.016131877899170 0.000000000000000
0.469563513994217 -20.409133911132812 1.685554623603821 0.000000000000000
0.485817521810532 -20.328754425048828 0.934056282043457 0.000000000000000
0.495788455009460 24.784015655517578 1.711677074432373 0.000000000000000
0.505934596061707 -19.796199798583984 -0.459759443998337 0.000000000000000
0.518103957176208 33.653888702392578 2.518933534622192 0.000000000000000
0.518138706684113 -19.839897155761719 -0.727744042873383 1.000000000000000
0.554442822933197 27.572374343872070 1.851063966751099 0.000000000000000
0.567125022411346 -15.859401702880859 0.576362669467926 0.000000000000000
0.592140257358551 -20.581155776977539 1.382002830505371 0.000000000000000
0.596154034137726 17.402612686157227 1.168768882751465 0.000000000000000
0.596716105937958 25.396499633789062 1.754110813140869 0.000000000000000
0.613499283790588 -19.977186203002930 -0.925064682960510 1.000000000000000
0.626169681549072 27.635274887084961 1.589008450508118 0.000000000000000
0.636791765689850 -16.221818923950195 0.839439809322357 0.000000000000000
0.659806072711945 15.221861839294434 1.257994532585144 0.000000000000000
0.662313222885132 17.543998718261719 1.178412556648254 0.000000000000000
0.688706755638123 25.517925262451172 1.762652635574341 0.000000000000000
0.696092188358307 29.084991455078125 1.784520626068115 0.000000000000000
0.696473002433777 -22.953216552734375 1.718594551086426 0.000000000000000
0.713068246841431 -20.197256088256836 -1.480571746826172 1.000000000000000
0.715953052043915 -18.991075515747070 1.906958222389221 0.000000000000000
0.719560027122498 -20.122179031372070 -0.196803003549576 1.000000000000000
0.724441528320312 -20.101531982421875 -0.467001229524612 0.000000000000000
0.728272497653961 -20.207830429077148 -0.780344903469086 0.000000000000000
0.750258207321167 28.386295318603516 1.577651500701904 0.000000000000000
0.754480957984924 -30.181106567382812 0.574416756629944 1.000000000000000
0.757837891578674 -22.396511077880859 1.677099704742432 0.000000000000000
0.760782182216644 -18.467519760131836 1.854641675949097 0.000000000000000
0.769237339496613 -16.816881179809570 1.292385935783386 0.000000000000000
0.801229059696198 -30.354600906372070 0.811050295829773 0.000000000000000
0.804850757122040 -18.703784942626953 1.004067420959473 0.000000000000000
0.811698496341705 -20.244760513305664 1.438111662864685 0.000000000000000
0.821650564670563 37.004035949707031 3.518327713012695 0.000000000000000
0.847480416297913 23.134265899658203 1.330754399299622 0.000000000000000
0.852652728557587 -20.420312881469727 -0.278252750635147 1.000000000000000
0.854548513889313 -29.415897369384766 0.672960579395294 0.000000000000000
0.858303427696228 -15.246829032897949 0.525268614292145 0.000000000000000
0.859063208103180 -21.131216049194336 2.010310888290405 0.000000000000000
0.884059846401215 26.454641342163086 1.878777742385864 0.000000000000000
0.889429271221161 -20.403993606567383 -0.434940874576569 1.000000000000000
0.891566753387451 22.217412948608398 1.278185367584229 0.000000000000000
0.894530892372131 -19.225133895874023 0.735990226268768 0.000000000000000
0.901960372924805 16.719028472900391 1.517870545387268 0.000000000000000
0.913343012332916 -17.300514221191406 1.967763900756836 0.000000000000000
0.932549834251404 36.290496826171875 2.716854095458984 0.000000000000000
0.942227602005005 25.525825500488281 2.225757360458374 0.000000000000000
0.945032179355621 15.025147438049316 1.603583097457886 0.000000000000000
0.951120078563690 20.698110580444336 2.079083919525146 0.000000000000000
0.954153418540955 -20.506534576416016 -0.792222082614899 1.000000000000000
0.956527471542358 -16.991672515869141 1.933004140853882 0.000000000000000
0.964855551719666 29.115926742553711 1.674634099006653 0.000000000000000
0.969681680202484 -27.465688705444336 2.216041326522827 0.000000000000000
0.976868331432343 -21.121847152709961 1.419238448143005 0.000000000000000
0.977944374084473 -30.574827194213867 0.582025945186615 0.000000000000000
0.995789885520935 17.333335876464844 1.265840053558350 0.000000000000000
0.999155282974243 -3.060898542404175 -0.031471278518438 1.000000000000000
1.000557303428650 20.233545303344727 2.032757520675659 0.000000000000000
1.001484394073486 -21.869119644165039 0.416526377201080 0.000000000000000
1.007554173469543 -24.783792495727539 1.473644852638245 0.000000000000000
1.015549302101135 -25.870397567749023 0.542324960231781 0.000000000000000
1.021245360374451 30.559785842895508 1.698804497718811 0.000000000000000
1.032937288284302 28.550945281982422 1.697348475456238 0.000000000000000
1.042265415191650 27.814203262329102 1.921916961669922 0.000000000000000
1.051511287689209 -15.911041259765625 0.763139843940735 0.000000000000000
1.057898044586182 -2.483329296112061 -0.062669150531292 0.000000000000000
1.069829583168030 -21.504959106445312 1.445222973823547 0.000000000000000
1.082998871803284 -30.675331115722656 0.584004342556000 0.000000000000000
1.100208282470703 -25.734842300415039 0.539560556411743 0.000000000000000
1.103155970573425 29.885524749755859 1.661526679992676 0.000000000000000
1.105082273483276 -20.753551483154297 -0.841995954513550 1.000000000000000
1.111073493957520 31.674514770507812 2.494371891021729 0.000000000000000
1.114181756973267 -22.603172302246094 0.778415024280548 0.000000000000000
1.115084409713745 31.788856506347656 2.012362718582153 0.000000000000000
1.118396997451782 -15.496245384216309 1.162745475769043 0.000000000000000
1.123617172241211 -23.315952301025391 -1.080413460731506 1.000000000000000
1.157420158386230 -21.693635940551758 2.890948057174683 0.000000000000000
1.181972742080688 -20.937860488891602 -0.607757329940796 1.000000000000000
1.188713908195496 -18.779008865356445 0.358011782169342 0.000000000000000
1.189941763877869 -15.722940444946289 1.180059671401978 0.000000000000000
1.190329074859619 -20.936540603637695 -0.486869692802429 1.000000000000000
1.207223176956177 19.783210754394531 2.426568746566772 0.000000000000000
1.226384043693542 -21.570707321166992 2.875118970870972 0.000000000000000
1.226880550384521 -15.750671386718750 1.090877294540405 0.000000000000000
1.229230642318726 -16.588294982910156 0.860095322132111 0.000000000000000
1.230948209762573 -16.611473083496094 0.604963064193726 0.000000000000000
1.232640504837036 -15.141736984252930 1.048994660377502 0.000000000000000
1.235214352607727 -30.022373199462891 1.206843256950378 0.000000000000000
1.236491560935974 -30.839622497558594 1.714780688285828 0.000000000000000
1.237136483192444 -17.524803161621094 0.638063967227936 0.000000000000000
1.242691874504089 27.881523132324219 1.873298287391663 0.000000000000000
1.244298815727234 -15.424742698669434 0.532281339168549 0.000000000000000
1.271419763565063 -30.862934112548828 2.371364355087280 0.000000000000000
1.281283378601074 -38.705368041992188 2.748781442642212 0.000000000000000
1.282560706138611 -29.422643661499023 1.636231064796448 0.000000000000000
1.284718155860901 -15.260963439941406 0.526781141757965 0.000000000000000
1.294164180755615 20.056226730346680 2.460595369338989 0.000000000000000
1.294514060020447 -19.377292633056641 0.369501650333405 0.000000000000000
1.314163565635681 -29.438922882080078 1.183566808700562 0.000000000000000
1.319447040557861 29.067895889282227 1.840877532958984 0.000000000000000
1.336584925651550 -15.739058494567871 1.334732055664062 0.000000000000000
1.336883544921875 16.171007156372070 1.371106147766113 0.000000000000000
1.347985744476318 -23.478170394897461 1.669206380844116 0.000000000000000
1.360028624534607 -31.199802398681641 2.216640472412109 0.000000000000000
1.371328473091125 -21.183002471923828 -0.166722610592842 0.000000000000000
1.372901916503906 21.451219558715820 2.043241977691650 0.000000000000000
1.387076854705811 -25.463474273681641 2.105544328689575 0.000000000000000
1.388350367546082 17.624923706054688 1.254878520965576 0.000000000000000
1.395566940307617 -18.439907073974609 1.757839083671570 0.000000000000000
1.405805826187134 -23.011096954345703 1.636354804039001 0.000000000000000
1.422365307807922 -24.460237503051758 2.329023361206055 0.000000000000000
1.434426188468933 -22.205734252929688 1.579430699348450 0.000000000000000
1.435492038726807 16.938869476318359 1.481291890144348 0.000000000000000
1.437317967414856 21.291347503662109 2.028479814529419 0.000000000000000
1.454711794853210 16.913059234619141 1.434424400329590 0.000000000000000
1.461603045463562 -21.417524337768555 -0.168607547879219 0.000000000000000
1.469967842102051 -21.429977416992188 -1.490749597549438 1.000000000000000
1.478534579277039 30.580907821655273 2.468733787536621 0.000000000000000
1.490538358688354 -17.551950454711914 0.673625946044922 0.000000000000000
1.492189049720764 -26.294435501098633 1.767752766609192 0.000000000000000
1.492764592170715 -21.449758529663086 -1.284964919090271 1.000000000000000
1.506576895713806 -19.023992538452148 3.969385147094727 0.000000000000000
1.506906390190125 27.788255691528320 1.546142935752869 0.000000000000000
1.507747769355774 -18.521148681640625 0.710616528987885 0.000000000000000
1.532701730728149 -19.864852905273438 2.262996196746826 0.000000000000000
1.549130439758301 21.814481735229492 2.078822612762451 0.000000000000000
1.566116929054260 -21.423688888549805 0.367449313402176 0.000000000000000
1.567922711372375 -15.658759117126465 1.495904445648193 0.000000000000000
1.582985639572144 17.758028030395508 1.553516030311584 0.000000000000000
1.587215662002563 -25.519451141357422 1.962920308113098 0.000000000000000
1.603664398193359 18.046977996826172 1.041509866714478 0.000000000000000
1.620543003082275 -15.832981109619141 2.117953300476074 0.000000000000000
1.620867967605591 18.992366790771484 1.389748096466064 0.000000000000000
1.624072909355164 28.495429992675781 1.695688009262085 0.000000000000000
1.643541932106018 30.075189590454102 1.963614344596863 0.000000000000000
1.653245687484741 -25.163114547729492 2.530364036560059 0.000000000000000
1.654127836227417 -20.505119323730469 2.336578607559204 0.000000000000000
1.654834628105164 -3.593241930007935 -0.008285420015454 0.000000000000000
1.657387614250183 -24.298894882202148 1.775724649429321 0.000000000000000
1.660054206848145 28.755704879760742 1.600284576416016 0.000000000000000
1.699729800224304 -24.919672012329102 2.264346599578857 0.000000000000000
1.709653496742249 17.906103134155273 2.665792226791382 0.000000000000000
1.714683532714844 -21.400274276733398 0.367244035005569 0.000000000000000
1.742448210716248 26.020988464355469 2.002111434936523 0.000000000000000
1.743145823478699 4.317037105560303 -0.054444655776024 0.000000000000000
1.745755553245544 -16.556928634643555 1.021195411682129 0.000000000000000
1.753669857978821 4.299817085266113 -0.054304335266352 0.000000000000000
1.753993272781372 2.884585618972778 -0.007070672232658 0.000000000000000
1.766706347465515 -17.876897811889648 1.517950415611267 0.000000000000000
1.767140030860901 2.956070423126221 -0.000601091422141 0.000000000000000
1.774924874305725 25.186746597290039 2.533558845520020 0.000000000000000
