# This PCD file was generated using the MATLAB® pcwrite function
# from Computer Vision Toolbox®.
# .PCD v.7 - Point Cloud Data file format
VERSION .7
FIELDS x y z intensity
SIZE 8 8 8 8
TYPE F F F F
COUNT 1 1 1 1
WIDTH 655
HEIGHT 1
VIEWPOINT 0 0 0 1 0 0 0
POINTS 655
DATA ascii
1.437560439109802 12.171358108520508 1.630940079689026 0.000000000000000
1.443940520286560 13.125298500061035 2.257083892822266 1.000000000000000
1.452878594398499 3.839057683944702 0.437225311994553 0.000000000000000
1.456325769424438 3.807956695556641 0.434259653091431 1.000000000000000
1.466447591781616 -7.639563083648682 1.152870178222656 0.000000000000000
1.472093582153320 -8.798767089843750 1.855583786964417 1.000000000000000
1.492549896240234 13.027185440063477 1.744910597801208 1.000000000000000
1.515290260314941 3.837753057479858 0.221293285489082 0.000000000000000
1.527753949165344 -7.567267417907715 1.027318120002747 1.000000000000000
1.528207302093506 13.052240371704102 2.246300458908081 0.000000000000000
1.536077737808228 3.850990533828735 0.222364425659180 0.000000000000000
1.575676560401917 3.020149946212769 0.254938274621964 0.000000000000000
1.655527830123901 -7.995646953582764 1.698372244834900 1.000000000000000
1.701458811759949 -7.937943458557129 1.688597559928894 1.000000000000000
1.730622887611389 14.032051086425781 0.214698657393456 1.000000000000000
1.747334480285645 -8.170061111450195 1.428116083145142 0.000000000000000
1.754958033561707 -10.057519912719727 2.123576402664185 0.000000000000000
1.762432456016541 4.076256752014160 0.923719048500061 1.000000000000000
1.765602946281433 -9.184182167053223 1.598627448081970 1.000000000000000
1.769194364547729 -8.115618705749512 1.727696657180786 1.000000000000000
1.791588187217712 -9.147007942199707 1.593235611915588 0.000000000000000
1.795546650886536 -10.082178115844727 2.130092859268188 0.000000000000000
1.795817613601685 -8.101748466491699 1.726067662239075 0.000000000000000
1.798585534095764 4.120327472686768 0.935122966766357 0.000000000000000
1.866319894790649 13.929912567138672 0.213423222303391 1.000000000000000
1.870116710662842 -7.847496509552002 0.681679964065552 0.000000000000000
1.873665332794189 -7.928634643554688 1.207405686378479 1.000000000000000
1.889629244804382 4.550512313842773 0.494411379098892 1.000000000000000
1.910120725631714 4.554898738861084 0.495609492063522 0.000000000000000
1.922073364257812 -9.983060836791992 2.114616155624390 1.000000000000000
1.922863125801086 2.390022993087769 0.524339020252228 1.000000000000000
1.934339880943298 -9.363613128662109 1.634347081184387 1.000000000000000
1.934525847434998 -7.702807426452637 1.651942014694214 1.000000000000000
1.944792032241821 -8.228330612182617 1.758650302886963 0.000000000000000
1.948810458183289 13.829757690429688 0.212087050080299 1.000000000000000
1.961051940917969 3.827123165130615 1.152262449264526 0.000000000000000
1.972441196441650 -8.331671714782715 2.294172048568726 1.000000000000000
1.983017444610596 -7.883657932281494 2.178221225738525 1.000000000000000
1.993911623954773 3.858011245727539 1.163650512695312 0.000000000000000
2.011687755584717 11.980267524719238 0.441200524568558 0.000000000000000
2.012454271316528 -7.660666465759277 2.122316360473633 1.000000000000000
2.047838687896729 -9.150999069213867 1.247872233390808 0.000000000000000
2.049357652664185 -8.269307136535645 2.282784223556519 1.000000000000000
2.049714088439941 -8.162660598754883 1.247281193733215 1.000000000000000
2.056825160980225 -10.455707550048828 2.855291843414307 0.000000000000000
2.061419725418091 3.938782215118408 0.238431200385094 0.000000000000000
2.064535379409790 12.037562370300293 0.255832612514496 1.000000000000000
2.077273130416870 -10.014039993286133 2.740375995635986 1.000000000000000
2.079697847366333 3.010421276092529 0.625432610511780 0.000000000000000
2.085513114929199 -9.898179054260254 2.104026794433594 0.000000000000000
2.094519853591919 -10.463982582092285 2.859432935714722 0.000000000000000
2.100813627243042 -9.158673286437988 2.517791748046875 0.000000000000000
2.101357936859131 2.595519065856934 0.494924932718277 0.000000000000000
2.104919910430908 -10.158907890319824 1.537551164627075 1.000000000000000
2.127493143081665 5.031829833984375 0.429955899715424 0.000000000000000
2.131448984146118 12.140079498291016 0.234514847397804 1.000000000000000
2.154234170913696 -9.585605621337891 1.456040978431702 0.000000000000000
2.154365301132202 4.151582241058350 0.250856190919876 0.000000000000000
2.166243791580200 2.307784557342529 0.133214518427849 0.000000000000000
2.167756557464600 4.200132369995117 0.299025774002075 0.000000000000000
2.171767950057983 3.191103219985962 0.659804463386536 0.000000000000000
2.176684141159058 -7.631702899932861 2.126457452774048 1.000000000000000
2.182522773742676 2.308920621871948 0.133719116449356 0.000000000000000
2.184496879577637 -10.003064155578613 2.743481874465942 1.000000000000000
2.185121297836304 3.186756134033203 0.660478413105011 0.000000000000000
2.195141792297363 13.275622367858887 1.433268547058105 0.000000000000000
2.213537216186523 -9.968975067138672 2.736235141754150 1.000000000000000
2.229227066040039 5.473199367523193 0.271461814641953 0.000000000000000
2.233115911483765 5.428431987762451 0.269626379013062 0.000000000000000
2.251714229583740 13.919447898864746 1.109725594520569 0.000000000000000
2.252319097518921 -8.336472511291504 2.313842296600342 1.000000000000000
2.272660255432129 7.457276344299316 0.613550186157227 0.000000000000000
2.291468858718872 -10.163084030151367 1.544001579284668 1.000000000000000
2.307293653488159 -9.244421005249023 1.267922639846802 0.000000000000000
2.319858789443970 -10.132287979125977 1.540483117103577 1.000000000000000
2.328048467636108 -2.360041618347168 0.888266980648041 0.000000000000000
2.330502510070801 -9.297345161437988 1.638390898704529 1.000000000000000
2.330962896347046 -10.001691818237305 2.751764297485352 0.000000000000000
2.332330942153931 -8.434116363525391 1.071345686912537 0.000000000000000
2.337740182876587 3.344972133636475 0.434683293104172 1.000000000000000
2.355320215225220 -10.088674545288086 0.815346956253052 1.000000000000000
2.368380784988403 -8.420701026916504 2.343865394592285 1.000000000000000
2.374393224716187 -2.390276908874512 0.902760863304138 0.000000000000000
2.380575180053711 -10.055645942687988 0.793312489986420 1.000000000000000
2.386490345001221 9.147480964660645 1.966364860534668 0.000000000000000
2.389511108398438 -8.451107978820801 1.075234413146973 0.000000000000000
2.394097328186035 5.662387371063232 0.388935565948486 0.000000000000000
2.418179035186768 8.035237312316895 0.530871748924255 0.000000000000000
2.427425384521484 9.173167228698730 1.973695993423462 0.000000000000000
2.452167987823486 -9.894675254821777 0.782596230506897 1.000000000000000
2.476383209228516 -10.009596824645996 1.528168678283691 1.000000000000000
2.478864431381226 -9.889222145080566 0.586064517498016 1.000000000000000
2.492136716842651 -10.103522300720215 1.542242288589478 0.000000000000000
2.520290374755859 -9.095270156860352 1.963106632232666 0.000000000000000
2.524327278137207 4.244365215301514 1.027169108390808 0.000000000000000
2.550964593887329 -9.082648277282715 1.962292075157166 1.000000000000000
2.553223609924316 4.259038448333740 1.032871007919312 0.000000000000000
2.628589391708374 3.085744857788086 0.342523962259293 0.000000000000000
2.636749029159546 3.073525905609131 0.342187166213989 0.000000000000000
2.640707015991211 8.286410331726074 0.734894096851349 0.000000000000000
2.661785602569580 2.927932977676392 0.344801396131516 0.000000000000000
2.669300317764282 2.915684223175049 0.344454169273376 0.000000000000000
2.691074132919312 -6.637947559356689 1.489843249320984 1.000000000000000
2.695111989974976 5.872550487518311 0.433700829744339 0.000000000000000
2.695391178131104 4.907154560089111 0.440626323223114 0.000000000000000
2.702373981475830 2.385482788085938 0.534214019775391 0.000000000000000
2.702998399734497 3.797309875488281 0.690783858299255 0.000000000000000
2.708674192428589 5.954112529754639 0.439058452844620 0.000000000000000
2.709516048431396 3.812096118927002 0.693129420280457 0.000000000000000
2.717439651489258 -8.956507682800293 1.946815252304077 0.000000000000000
2.726807117462158 5.003603935241699 0.448472201824188 0.000000000000000
2.731426239013672 -7.105969429016113 1.128241181373596 1.000000000000000
2.735777616500854 4.441381931304932 1.085003256797791 0.000000000000000
2.736036777496338 -8.905789375305176 1.937855124473572 1.000000000000000
2.737684011459351 8.488194465637207 0.615840077400208 0.000000000000000
2.768154859542847 2.166144371032715 0.188517034053802 0.000000000000000
2.809609889984131 -9.479617118835449 2.649271726608276 1.000000000000000
2.811137199401855 -10.781316757202148 1.482672810554504 1.000000000000000
2.813270330429077 -10.637275695800781 1.464205265045166 1.000000000000000
2.825797080993652 8.781304359436035 0.530281662940979 0.000000000000000
2.825998067855835 10.719465255737305 0.872465252876282 0.000000000000000
2.826639175415039 2.248250722885132 0.343316137790680 0.000000000000000
2.855409145355225 -8.641040802001953 1.348729133605957 1.000000000000000
2.857134580612183 10.453974723815918 0.915754795074463 0.000000000000000
2.877761840820312 5.867506504058838 0.249915689229965 0.000000000000000
2.879332065582275 10.797809600830078 0.857916474342346 0.000000000000000
2.890941143035889 -7.996600627899170 1.260182142257690 0.000000000000000
2.897977352142334 9.308915138244629 0.354092836380005 0.000000000000000
2.906776189804077 2.309837341308594 0.336582273244858 0.000000000000000
2.914542198181152 10.519483566284180 1.452597141265869 0.000000000000000
2.925844430923462 -8.794390678405762 0.604229032993317 1.000000000000000
2.927567005157471 -7.927848815917969 1.757835626602173 0.000000000000000
2.928937196731567 -10.290291786193848 2.225397109985352 1.000000000000000
2.946130990982056 11.615721702575684 2.492575168609619 0.000000000000000
2.955201387405396 11.060614585876465 0.901024281978607 0.000000000000000
2.955234766006470 -7.913397312164307 1.757021188735962 0.000000000000000
2.956661939620972 11.041350364685059 0.877512037754059 0.000000000000000
2.960509777069092 -9.271472930908203 2.607860803604126 0.000000000000000
2.963480949401855 9.886569976806641 0.553554534912109 0.000000000000000
2.963633537292480 3.521425008773804 0.401053011417389 0.000000000000000
2.972460508346558 9.127700805664062 0.404016762971878 0.000000000000000
2.988307714462280 7.640579700469971 0.250660121440887 0.000000000000000
2.993074893951416 2.698385953903198 0.286036401987076 0.000000000000000
3.002273559570312 11.666049003601074 2.505608320236206 0.000000000000000
3.003145933151245 2.601040363311768 0.346190333366394 0.000000000000000
3.011458873748779 0.493631154298782 0.046340897679329 0.000000000000000
3.023440599441528 -10.483197212219238 2.269383668899536 0.000000000000000
3.036858320236206 0.486915946006775 0.046705313026905 0.000000000000000
3.037367105484009 10.699624061584473 1.008302211761475 0.000000000000000
3.038065671920776 -6.742369651794434 1.095988988876343 1.000000000000000
3.043278455734253 3.302823781967163 0.510110855102539 0.000000000000000
3.047305345535278 2.579368591308594 0.591681599617004 0.000000000000000
3.050512313842773 3.333951950073242 0.513270854949951 0.000000000000000
3.059017896652222 3.258891582489014 0.405198872089386 0.000000000000000
3.064493417739868 3.286499023437500 0.407365679740906 0.000000000000000
3.065803766250610 -10.025285720825195 1.395084261894226 1.000000000000000
3.069724321365356 -7.512382507324219 1.202714443206787 1.000000000000000
3.078183650970459 2.573394298553467 0.594613611698151 0.000000000000000
3.097850799560547 12.641721725463867 1.024362087249756 0.000000000000000
3.098433256149292 -10.006949424743652 1.394029021263123 0.000000000000000
3.100986480712891 1.200678467750549 0.133558601140976 0.000000000000000
3.136274814605713 -9.282791137695312 2.038046836853027 1.000000000000000
3.152885198593140 1.199305653572083 0.135484933853149 0.000000000000000
3.156193017959595 10.972259521484375 1.035026669502258 0.000000000000000
3.169009685516357 9.816121101379395 1.262865781784058 0.000000000000000
3.170098304748535 -9.378587722778320 1.467182636260986 0.000000000000000
3.175438642501831 0.507371664047241 0.042657390236855 0.000000000000000
3.177996158599854 1.509636282920837 0.353036910295486 1.000000000000000
3.178989648818970 3.457367181777954 0.425783812999725 0.000000000000000
3.188630580902100 12.333071708679199 1.076407670974731 0.000000000000000
3.204481363296509 -8.883272171020508 0.089006282389164 1.000000000000000
3.211091041564941 -6.455116748809814 1.499617934226990 1.000000000000000
3.213038921356201 10.195414543151855 0.552741408348083 0.000000000000000
3.222284793853760 13.350957870483398 1.462925314903259 0.000000000000000
3.233046531677246 8.310329437255859 0.581329762935638 0.000000000000000
3.235141515731812 -6.330464839935303 1.904908180236816 1.000000000000000
3.239479541778564 -7.465251922607422 1.692670345306396 1.000000000000000
3.245644569396973 6.453533172607422 0.345717072486877 0.000000000000000
3.255770444869995 6.580032825469971 0.393743515014648 0.000000000000000
3.257307767868042 6.420785427093506 0.344569772481918 0.000000000000000
3.265464305877686 -0.172393053770065 0.680163502693176 1.000000000000000
3.287973880767822 12.360584259033203 1.080785989761353 0.000000000000000
3.289501428604126 2.868199586868286 0.646803557872772 0.000000000000000
3.297077655792236 8.388150215148926 0.587575018405914 0.000000000000000
3.301911830902100 -6.645250320434570 1.268388152122498 1.000000000000000
3.328600406646729 -0.164659246802330 0.693196535110474 1.000000000000000
3.329879283905029 3.261543750762939 0.690783858299255 0.000000000000000
3.337018251419067 6.485895156860352 0.616341054439545 0.000000000000000
3.341210126876831 3.232887506484985 0.689024627208710 0.000000000000000
3.368604183197021 -8.181761741638184 0.593894183635712 1.000000000000000
3.372488260269165 6.498973369598389 0.618698656558990 1.000000000000000
3.377441406250000 7.580872058868408 0.461091399192810 0.000000000000000
3.377997636795044 -8.182660102844238 0.645427167415619 1.000000000000000
3.378097534179688 7.650487422943115 0.464641690254211 0.000000000000000
3.396030664443970 -7.305433750152588 0.915039598941803 1.000000000000000
3.403216600418091 -7.555562973022461 1.723623991012573 1.000000000000000
3.441834688186646 1.826820611953735 0.810494244098663 0.000000000000000
3.449247360229492 1.846217036247253 0.813752532005310 0.000000000000000
3.472717046737671 8.130660057067871 0.576385617256165 0.000000000000000
3.473277091979980 3.981636047363281 0.415833234786987 0.000000000000000
3.475138902664185 -10.168579101562500 2.235172033309937 1.000000000000000
3.476184844970703 -6.808288097381592 1.590034961700439 1.000000000000000
3.477526426315308 13.073174476623535 0.934092938899994 0.000000000000000
3.483089923858643 10.573977470397949 1.363000631332397 0.000000000000000
3.483386278152466 -8.414207458496094 2.440145969390869 0.000000000000000
3.490440368652344 7.259729385375977 0.277072310447693 0.000000000000000
3.493391275405884 -7.341186523437500 1.691041350364685 0.000000000000000
3.504794120788574 -8.887885093688965 1.017650365829468 0.000000000000000
3.509776353836060 -7.649079799652100 1.750504732131958 1.000000000000000
3.516036510467529 4.207519531250000 0.477791279554367 0.000000000000000
3.516797304153442 4.060045719146729 0.422737658023834 0.000000000000000
3.524313211441040 3.660896539688110 0.155257806181908 0.000000000000000
3.540148496627808 -9.780082702636719 2.786963701248169 1.000000000000000
3.554348707199097 -9.713239669799805 2.771434307098389 0.000000000000000
3.563034772872925 -7.156036376953125 2.141986370086670 1.000000000000000
3.576972484588623 7.993055820465088 0.689184784889221 0.000000000000000
3.585607767105103 7.948273658752441 0.534841895103455 0.000000000000000
3.589828968048096 -7.043612003326416 1.171635031700134 0.000000000000000
3.618993282318115 -0.635586500167847 0.984547674655914 0.000000000000000
3.635023117065430 -7.927878379821777 1.490794181823730 1.000000000000000
3.640443801879883 12.233470916748047 0.561736702919006 0.000000000000000
3.650097131729126 -8.562088012695312 2.493980407714844 1.000000000000000
3.659267425537109 -0.629500448703766 0.994900405406952 1.000000000000000
3.674691677093506 13.622802734375000 1.192266345024109 0.000000000000000
3.675717830657959 8.121526718139648 0.409487038850784 0.000000000000000
3.678943395614624 6.916762828826904 0.390014439821243 0.000000000000000
3.693958759307861 6.935057640075684 0.406293839216232 0.000000000000000
3.702463150024414 3.916886329650879 0.921299993991852 0.000000000000000
3.708684206008911 -6.472583770751953 1.275127649307251 1.000000000000000
3.712362766265869 -8.307258605957031 2.438075304031372 1.000000000000000
3.724380493164062 -10.654232025146484 2.347582340240479 1.000000000000000
3.783494234085083 8.350745201110840 1.358697891235352 0.000000000000000
3.790689229965210 8.173062324523926 0.743869006633759 0.000000000000000
3.794522047042847 8.297903060913086 1.352247357368469 0.000000000000000
3.817956209182739 -9.005899429321289 1.301691651344299 1.000000000000000
3.825455188751221 13.805377006530762 0.933926820755005 0.000000000000000
3.841151475906372 7.282930374145508 0.409903019666672 0.000000000000000
3.846963167190552 7.283473014831543 0.425916552543640 0.000000000000000
3.854364156723022 -6.943166255950928 1.176912784576416 0.000000000000000
3.862012147903442 7.908491134643555 0.438144743442535 0.000000000000000
3.879117727279663 8.999431610107422 0.487866103649139 0.000000000000000
3.883704662322998 8.995805740356445 2.625460386276245 0.000000000000000
3.898944139480591 -9.814562797546387 1.565112113952637 1.000000000000000
3.907244443893433 8.813458442687988 0.609921693801880 0.000000000000000
3.927285909652710 -9.786205291748047 1.562766551971436 0.000000000000000
3.936404228210449 4.250034809112549 0.770884335041046 0.000000000000000
3.958027601242065 -9.667004585266113 1.548106431961060 1.000000000000000
3.959624052047729 3.228473901748657 0.175731226801872 0.000000000000000
3.976137638092041 3.265105962753296 0.176968768239021 0.000000000000000
3.995600700378418 -9.493098258972168 0.413678526878357 1.000000000000000
4.021703720092773 -10.793272972106934 1.707021951675415 0.000000000000000
4.039323806762695 -7.210075378417969 2.214455842971802 1.000000000000000
4.055527687072754 -11.101456642150879 2.458363294601440 1.000000000000000
4.065314769744873 3.804122924804688 1.491833090782166 0.000000000000000
4.079931735992432 10.838404655456543 0.665721535682678 0.000000000000000
4.089420318603516 -7.246901512145996 1.233207464218140 1.000000000000000
4.094167232513428 -10.214425086975098 1.881015539169312 1.000000000000000
4.103649139404297 -11.009671211242676 2.008393526077271 1.000000000000000
4.103938102722168 -8.892331123352051 1.303274631500244 1.000000000000000
4.104490756988525 8.989018440246582 0.663275599479675 0.000000000000000
4.106590747833252 13.874298095703125 0.943294703960419 0.000000000000000
4.106873512268066 3.816208362579346 1.502185821533203 0.000000000000000
4.130404472351074 -10.722017288208008 2.389939785003662 0.000000000000000
4.131529808044434 9.478797912597656 1.037545084953308 0.000000000000000
4.138549804687500 -9.344008445739746 2.738305807113647 1.000000000000000
4.142085075378418 -7.280730724334717 1.241417169570923 1.000000000000000
4.168507575988770 -7.270384311676025 1.743173480033875 1.000000000000000
4.188632965087891 7.508827686309814 1.274255752563477 0.000000000000000
4.204424858093262 -7.092615127563477 2.209279537200928 1.000000000000000
4.227067470550537 4.532027244567871 0.824703752994537 0.000000000000000
4.229550838470459 -10.342519760131836 1.909995675086975 1.000000000000000
4.256296634674072 -8.203516960144043 1.579756498336792 1.000000000000000
4.270781040191650 -6.980488300323486 2.192714929580688 1.000000000000000
4.299777984619141 -10.441352844238281 0.736160218715668 1.000000000000000
4.316421508789062 -8.831188201904297 2.044563531875610 0.000000000000000
4.324042797088623 -8.041037559509277 2.446357727050781 0.000000000000000
4.356814384460449 9.576996803283691 1.288142561912537 0.000000000000000
4.359116077423096 10.707333564758301 0.954522192478180 0.000000000000000
4.403333187103271 4.406716823577881 1.064852952957153 0.000000000000000
4.404621601104736 -0.000846366630867 1.180215001106262 0.000000000000000
4.405982971191406 4.602230548858643 0.605629324913025 0.000000000000000
4.409843921661377 -8.820091247558594 1.312244653701782 1.000000000000000
4.410966873168945 4.575355052947998 0.604115247726440 0.000000000000000
4.411981105804443 4.810789585113525 0.463322311639786 1.000000000000000
4.487898826599121 -7.935241699218750 0.971046864986420 1.000000000000000
4.489921569824219 -10.586838722229004 0.749691545963287 1.000000000000000
4.518389701843262 -9.980172157287598 0.735335826873779 1.000000000000000
4.540860176086426 11.192871093750000 0.997311174869537 0.000000000000000
4.576417446136475 4.772913932800293 0.558748483657837 0.000000000000000
4.598737716674805 -9.675329208374023 1.831142783164978 0.000000000000000
4.609500885009766 4.781287670135498 0.548356592655182 0.000000000000000
4.610084533691406 10.261740684509277 0.928848862648010 0.000000000000000
4.612512111663818 10.167294502258301 1.366889357566833 0.000000000000000
4.635410308837891 -8.222500801086426 1.613454341888428 1.000000000000000
4.636909484863281 -11.329603195190430 0.916165828704834 0.000000000000000
4.685079097747803 4.721529960632324 1.136966347694397 0.000000000000000
4.685801029205322 4.347919464111328 0.782607376575470 0.000000000000000
4.696829795837402 -8.924180984497070 1.234672546386719 1.000000000000000
4.699115753173828 -10.089236259460449 1.481089830398560 0.000000000000000
4.704379558563232 -6.860549926757812 2.228949785232544 1.000000000000000
4.705121994018555 -10.349329948425293 2.364688158035278 1.000000000000000
4.724801540374756 4.888917922973633 0.351556718349457 0.000000000000000
4.745764255523682 -8.760289192199707 1.476565122604370 1.000000000000000
4.745848655700684 9.239191055297852 0.437152177095413 0.000000000000000
4.750333786010742 9.144387245178223 0.632063686847687 0.000000000000000
4.753562927246094 -6.632611751556396 2.186503171920776 1.000000000000000
4.798616409301758 9.312698364257812 0.642593979835510 0.000000000000000
4.808182239532471 8.527579307556152 1.302747011184692 0.000000000000000
4.818836212158203 -8.531500816345215 2.625460386276245 1.000000000000000
4.855147838592529 9.899224281311035 0.761327147483826 0.000000000000000
4.894680023193359 14.078553199768066 1.495614409446716 0.000000000000000
4.899464130401611 -10.020518302917480 1.653072714805603 1.000000000000000
4.918054103851318 12.841441154479980 1.161954402923584 0.000000000000000
4.924713611602783 4.500981330871582 0.062881186604500 0.000000000000000
4.924727439880371 6.409229278564453 1.381613016128540 0.000000000000000
4.946506500244141 11.210998535156250 1.110866069793701 0.000000000000000
4.956438064575195 11.128159523010254 1.104365468025208 0.000000000000000
4.962844848632812 6.414690017700195 1.386330723762512 0.000000000000000
4.978164672851562 -9.326800346374512 1.126109361648560 1.000000000000000
5.028822422027588 4.450534820556641 0.411906659603119 0.000000000000000
5.045413970947266 7.696123600006104 1.573017001152039 0.000000000000000
5.082008838653564 5.295397281646729 0.492634832859039 0.000000000000000
5.087461948394775 7.701492786407471 1.577734589576721 0.000000000000000
5.094018936157227 -10.397726058959961 1.233297348022461 1.000000000000000
5.098654747009277 10.395714759826660 0.978399336338043 0.000000000000000
5.122279167175293 12.460906982421875 0.722577214241028 0.000000000000000
5.127404212951660 -9.862676620483398 2.978489637374878 1.000000000000000
5.128612518310547 11.734463691711426 2.189014196395874 0.000000000000000
5.146527767181396 4.327949047088623 0.609603941440582 0.000000000000000
5.153797149658203 4.625699520111084 0.694891631603241 0.000000000000000
5.166606426239014 12.184779167175293 1.503247022628784 0.000000000000000
5.211510658264160 4.644753456115723 0.700482666492462 0.000000000000000
5.218060016632080 10.994657516479492 0.582441508769989 1.000000000000000
5.222355842590332 1.220279455184937 0.102039061486721 0.000000000000000
5.225627422332764 4.425697803497314 0.620799303054810 0.000000000000000
5.232071399688721 -10.744463920593262 1.590311646461487 1.000000000000000
5.253198146820068 12.323101997375488 0.460778802633286 0.000000000000000
5.283927440643311 9.448273658752441 0.914744377136230 0.000000000000000
5.334434509277344 -7.721451282501221 2.514685869216919 0.000000000000000
5.334862232208252 5.418193340301514 0.057066850364208 0.000000000000000
5.355713367462158 8.160737991333008 0.824819266796112 0.000000000000000
5.357029438018799 11.389936447143555 0.796307682991028 0.000000000000000
5.379899024963379 -9.758143424987793 2.985736608505249 0.000000000000000
5.412840366363525 5.011994838714600 0.903158009052277 0.000000000000000
5.429157257080078 -10.888725280761719 1.296000242233276 1.000000000000000
5.430134296417236 10.335868835449219 0.446485459804535 0.000000000000000
5.432185173034668 -7.813562393188477 1.979397892951965 1.000000000000000
5.437144279479980 -10.920017242431641 1.224047541618347 1.000000000000000
5.472842216491699 3.104714155197144 0.548279404640198 0.000000000000000
5.522846698760986 12.905671119689941 1.594434976577759 0.000000000000000
5.526059150695801 12.524524688720703 2.339980602264404 0.000000000000000
5.550976276397705 10.934007644653320 0.657667398452759 0.000000000000000
5.568448066711426 11.375656127929688 1.550631880760193 0.000000000000000
5.625612735748291 11.176549911499023 0.622909367084503 0.000000000000000
5.638003826141357 12.106183052062988 0.999453544616699 0.000000000000000
5.677232265472412 -10.142409324645996 2.417635202407837 1.000000000000000
5.760612010955811 11.532830238342285 0.468203932046890 0.000000000000000
5.786880970001221 9.776518821716309 0.587442636489868 0.000000000000000
5.787458896636963 13.538377761840820 1.244133234024048 0.000000000000000
5.791267395019531 11.581054687500000 0.445378243923187 1.000000000000000
5.824574470520020 1.652363419532776 1.259320735931396 0.000000000000000
5.848223686218262 8.843755722045898 1.410913467407227 0.000000000000000
5.853383064270020 6.645905494689941 0.841824829578400 0.000000000000000
5.858050823211670 6.604577541351318 0.839175105094910 0.000000000000000
5.871997833251953 -6.894939899444580 2.426687479019165 0.000000000000000
5.889452457427979 6.602980613708496 2.370782613754272 0.000000000000000
5.898824691772461 11.683769226074219 0.550855457782745 0.000000000000000
5.916139602661133 -6.708419322967529 2.396664381027222 1.000000000000000
5.942107677459717 11.704437255859375 0.501971304416656 0.000000000000000
5.975440502166748 12.714574813842773 1.051396489143372 0.000000000000000
6.025319576263428 9.376759529113770 0.971207976341248 0.000000000000000
6.026491165161133 -9.709136009216309 2.376906871795654 1.000000000000000
6.118613243103027 10.336956977844238 0.436264455318451 0.000000000000000
6.122961997985840 12.366044044494629 0.501159667968750 0.000000000000000
6.135879993438721 11.742343902587891 0.634069621562958 0.000000000000000
6.139531135559082 -0.453229218721390 1.280499339103699 1.000000000000000
6.141191959381104 6.632351398468018 0.819426178932190 0.000000000000000
6.151516914367676 12.704648017883301 1.878403902053833 0.000000000000000
6.158697605133057 6.456426620483398 0.306910872459412 0.000000000000000
6.163228034973145 13.394286155700684 0.478811919689178 0.000000000000000
6.177300453186035 13.549226760864258 0.712659060955048 0.000000000000000
6.201632022857666 6.904316425323486 2.486733675003052 0.000000000000000
6.216357707977295 10.725509643554688 0.283486604690552 0.000000000000000
6.269109725952148 11.978471755981445 1.142420172691345 0.000000000000000
6.275632381439209 6.059887409210205 0.048723753541708 0.000000000000000
6.290035724639893 10.915771484375000 2.620462417602539 0.000000000000000
6.292282104492188 11.921264648437500 1.139052152633667 0.000000000000000
6.307172298431396 9.948493003845215 1.745724558830261 0.000000000000000
6.326175212860107 9.876007080078125 1.435914397239685 0.000000000000000
6.332539558410645 11.374528884887695 0.497844278812408 0.000000000000000
6.369555950164795 9.908667564392090 1.745724558830261 0.000000000000000
6.370165824890137 13.274160385131836 1.244133234024048 0.000000000000000
6.434731483459473 12.144898414611816 0.737144470214844 0.000000000000000
6.441714763641357 12.064780235290527 0.444147408008575 0.000000000000000
6.455831050872803 6.980947494506836 1.977768898010254 0.000000000000000
6.464211940765381 5.410479068756104 0.845850825309753 0.000000000000000
6.472672462463379 5.456098556518555 0.849445104598999 0.000000000000000
6.512547016143799 12.511013984680176 0.458039164543152 0.000000000000000
6.530453205108643 6.891771793365479 0.326574057340622 0.000000000000000
6.552656650543213 12.376345634460449 0.670209228992462 0.000000000000000
6.638561248779297 3.671037197113037 1.296694397926331 0.000000000000000
6.653980255126953 6.988345146179199 0.220662310719490 0.000000000000000
6.673919200897217 3.721067190170288 1.306129693984985 0.000000000000000
6.674610614776611 12.263498306274414 1.585857987403870 0.000000000000000
6.684267044067383 6.244534969329834 1.563581585884094 0.000000000000000
6.697353363037109 6.213117122650146 1.561559677124023 0.000000000000000
6.709251880645752 12.150792121887207 0.744428038597107 0.000000000000000
6.740810871124268 11.537363052368164 0.510989665985107 0.000000000000000
6.748465538024902 10.935660362243652 0.812976360321045 0.000000000000000
6.753657817840576 12.746839523315430 0.551648736000061 0.000000000000000
6.775737762451172 3.268522262573242 1.285911083221436 0.000000000000000
6.796854019165039 -1.561806917190552 1.868673563003540 0.000000000000000
6.819805622100830 1.647112011909485 0.039184533059597 0.000000000000000
6.828643798828125 -1.544036865234375 1.875920414924622 0.000000000000000
6.835242271423340 6.554303646087646 0.198366597294807 0.000000000000000
6.843195915222168 12.678440093994141 1.636417627334595 0.000000000000000
6.852488040924072 6.773532867431641 0.795544862747192 0.000000000000000
6.870064258575439 5.709518909454346 2.393558502197266 0.000000000000000
6.876688957214355 12.760183334350586 1.454480051994324 0.000000000000000
6.883992671966553 7.043957233428955 2.048636198043823 0.000000000000000
6.914033889770508 7.025465488433838 2.050265312194824 0.000000000000000
6.948507308959961 8.073260307312012 0.776606798171997 0.000000000000000
6.952826499938965 7.456520557403564 0.586064517498016 0.000000000000000
6.983404159545898 11.737126350402832 1.127652764320374 0.000000000000000
7.019536495208740 -2.179758310317993 0.450844317674637 1.000000000000000
7.037102222442627 12.949422836303711 1.478841185569763 0.000000000000000
7.043407917022705 7.818103313446045 0.726608574390411 0.000000000000000
7.120873451232910 7.270581245422363 1.508230805397034 0.000000000000000
7.198452472686768 8.046509742736816 0.579047203063965 0.000000000000000
7.209104537963867 7.518640041351318 0.398336559534073 0.000000000000000
7.218639373779297 12.031906127929688 1.717847466468811 0.000000000000000
7.225067138671875 8.370910644531250 0.635649263858795 0.000000000000000
7.284775733947754 7.701824188232422 0.242426753044128 0.000000000000000
7.288429737091064 8.630194664001465 0.671110987663269 1.000000000000000
7.306076049804688 2.426443815231323 0.383252352476120 0.000000000000000
7.367031097412109 7.427969932556152 1.550451993942261 0.000000000000000
7.374752521514893 8.484283447265625 0.646209001541138 1.000000000000000
7.398135185241699 12.810850143432617 1.968630671501160 0.000000000000000
7.424772262573242 10.189006805419922 3.378106355667114 0.000000000000000
7.445193767547607 8.592544555664062 1.030692934989929 0.000000000000000
7.462820529937744 5.791262626647949 0.179728776216507 0.000000000000000
7.482753753662109 7.445753574371338 0.871577560901642 0.000000000000000
7.523604869842529 3.660085678100586 1.430137991905212 0.000000000000000
7.579235076904297 5.942028045654297 1.427307128906250 0.000000000000000
7.637459754943848 7.833508968353271 1.621406912803650 0.000000000000000
7.650419235229492 0.875578641891479 2.063305616378784 0.000000000000000
7.665792942047119 8.378063201904297 0.740323662757874 0.000000000000000
7.782668590545654 10.602187156677246 3.524080038070679 0.000000000000000
7.817514896392822 6.131474018096924 0.944403231143951 0.000000000000000
7.830095291137695 2.857509136199951 0.382873147726059 0.000000000000000
7.832487583160400 3.412815332412720 0.458224952220917 1.000000000000000
7.832850933074951 6.047805786132812 0.036270655691624 0.000000000000000
7.893437862396240 6.143988609313965 1.482429146766663 0.000000000000000
7.933692932128906 -12.682766914367676 3.111646175384521 0.000000000000000
7.936142444610596 7.653682708740234 0.379238426685333 0.000000000000000
8.017848014831543 6.302858352661133 0.331195563077927 0.000000000000000
8.027995109558105 -10.877376556396484 3.622431516647339 0.000000000000000
8.037412643432617 7.751348018646240 0.555884957313538 0.000000000000000
8.067478179931641 -12.509640693664551 3.096169471740723 1.000000000000000
8.089021682739258 6.702291488647461 0.563408851623535 0.000000000000000
8.103812217712402 -12.578512191772461 2.557668924331665 1.000000000000000
8.144014358520508 6.744022369384766 0.546751260757446 0.000000000000000
8.173047065734863 8.031353950500488 0.174006134271622 0.000000000000000
8.180779457092285 -12.398324966430664 3.089653015136719 1.000000000000000
8.184767723083496 3.019357681274414 0.266540169715881 1.000000000000000
8.204051971435547 8.402902603149414 1.740446925163269 0.000000000000000
8.251428604125977 9.498210906982422 0.747497618198395 0.000000000000000
8.255683898925781 -12.456911087036133 1.988681077957153 1.000000000000000
8.294262886047363 9.001637458801270 0.986979186534882 0.000000000000000
8.319847106933594 7.203824043273926 0.823623776435852 0.000000000000000
8.336052894592285 8.764739036560059 1.792636871337891 0.000000000000000
8.344905853271484 8.143174171447754 0.535581886768341 0.000000000000000
8.376892089843750 7.800377845764160 0.878736734390259 0.000000000000000
8.453763008117676 9.854823112487793 0.721370637416840 0.000000000000000
8.468930244445801 1.865425229072571 0.031784471124411 0.000000000000000
8.487637519836426 1.001427054405212 2.290030956268311 0.000000000000000
8.511079788208008 -11.972712516784668 3.055441141128540 1.000000000000000
8.539138793945312 -11.923826217651367 3.050553560256958 1.000000000000000
8.625412940979004 8.535266876220703 0.184270367026329 0.000000000000000
8.651993751525879 1.733710289001465 0.015400777570903 0.000000000000000
8.721468925476074 7.273675918579102 0.412454992532730 0.000000000000000
8.733340263366699 9.118500709533691 1.871214985847473 0.000000000000000
8.734494209289551 8.484736442565918 0.746917545795441 0.000000000000000
8.768778800964355 7.265515327453613 0.435479998588562 0.000000000000000
8.798998832702637 10.200214385986328 0.592866122722626 0.000000000000000
8.802372932434082 -2.875698804855347 0.265130996704102 1.000000000000000
8.877447128295898 1.952484130859375 0.207859680056572 0.000000000000000
8.970094680786133 2.367321729660034 0.354773283004761 0.000000000000000
8.997801780700684 10.073407173156738 0.179171651601791 0.000000000000000
9.011322975158691 10.770544052124023 0.159320726990700 0.000000000000000
9.102450370788574 8.419819831848145 0.951913774013519 0.000000000000000
9.177542686462402 -11.019921302795410 2.982944726943970 1.000000000000000
9.188931465148926 -11.039864540100098 2.455227375030518 1.000000000000000
9.199830055236816 9.238778114318848 0.223028257489204 0.000000000000000
9.221548080444336 8.368626594543457 0.284766852855682 0.000000000000000
9.223728179931641 -0.583863556385040 1.922378301620483 0.000000000000000
9.272094726562500 2.073237657546997 0.363333076238632 0.000000000000000
9.278025627136230 -0.652362704277039 1.934596657752991 0.000000000000000
9.306554794311523 6.383787631988525 0.931811153888702 0.000000000000000
9.362160682678223 8.436838150024414 0.481947481632233 0.000000000000000
9.387597084045410 6.445643901824951 0.962233006954193 0.000000000000000
9.481852531433105 11.252879142761230 0.166944161057472 0.000000000000000
9.518243789672852 4.940330982208252 0.018716901540756 0.000000000000000
9.559672355651855 -0.905675113201141 1.997318506240845 0.000000000000000
9.574604034423828 7.821115016937256 0.472776293754578 0.000000000000000
9.638294219970703 2.885947942733765 2.695859193801880 0.000000000000000
9.754690170288086 2.690917015075684 0.425882756710052 0.000000000000000
9.796047210693359 9.906436920166016 0.024315916001797 0.000000000000000
9.818126678466797 8.077331542968750 0.681874692440033 0.000000000000000
9.859715461730957 6.913599491119385 1.474315643310547 0.000000000000000
9.884227752685547 9.134009361267090 1.059197902679443 0.000000000000000
9.915767669677734 -1.184490084648132 2.077146053314209 0.000000000000000
9.957264900207520 7.912429809570312 0.927274346351624 0.000000000000000
9.984597206115723 10.603174209594727 0.472969561815262 0.000000000000000
9.991431236267090 11.132510185241699 1.356079936027527 0.000000000000000
9.995060920715332 8.895263671875000 1.638128399848938 0.000000000000000
10.059797286987305 5.735216140747070 0.064674586057663 0.000000000000000
10.071171760559082 10.333291053771973 1.257327198982239 0.000000000000000
10.076271057128906 8.765964508056641 0.870693564414978 0.000000000000000
10.167243003845215 10.560160636901855 1.040492892265320 0.000000000000000
10.269233703613281 8.921247482299805 0.677205145359039 0.000000000000000
10.312515258789062 8.459053039550781 0.228159278631210 0.000000000000000
10.317886352539062 8.368391990661621 0.712508738040924 0.000000000000000
10.336622238159180 -1.741072297096252 2.808704376220703 0.000000000000000
10.363460540771484 -1.857399225234985 2.821127653121948 0.000000000000000
10.394536018371582 9.319283485412598 1.152667880058289 0.000000000000000
10.498764991760254 10.339466094970703 0.506842911243439 0.000000000000000
10.619819641113281 7.358449459075928 1.066760897636414 0.000000000000000
10.709567070007324 3.803822278976440 0.259893208742142 0.000000000000000
10.744042396545410 3.812689542770386 0.414052009582520 0.000000000000000
10.883551597595215 9.724870681762695 0.502030253410339 0.000000000000000
11.002578735351562 4.188057422637939 3.154486656188965 0.000000000000000
11.120299339294434 5.082354545593262 2.089942455291748 0.000000000000000
11.158074378967285 -2.210977315902710 1.944367647171021 0.000000000000000
11.216955184936523 9.737355232238770 0.254088014364243 0.000000000000000
11.303256988525391 -9.424539566040039 3.943367242813110 0.000000000000000
11.320095062255859 -2.437359333038330 3.102722883224487 0.000000000000000
11.332682609558105 -3.590149641036987 0.317520737648010 1.000000000000000
11.336086273193359 -9.385025978088379 3.943367242813110 0.000000000000000
11.496801376342773 4.755315303802490 0.404030025005341 0.000000000000000
11.641788482666016 5.764355182647705 1.177676916122437 0.000000000000000
11.693941116333008 -2.701478958129883 2.051526784896851 0.000000000000000
11.714359283447266 2.551790475845337 3.212462186813354 0.000000000000000
11.714673995971680 9.077342987060547 0.025865767151117 0.000000000000000
11.750175476074219 -2.755546092987061 2.062983989715576 0.000000000000000
11.842172622680664 7.210352420806885 2.054759502410889 0.000000000000000
11.851714134216309 -2.823039531707764 2.082528829574585 0.000000000000000
11.899273872375488 -2.878297567367554 2.092638254165649 1.000000000000000
12.076465606689453 7.286721229553223 1.001127362251282 0.000000000000000
12.162943840026855 -3.177731990814209 0.650028824806213 0.000000000000000
12.192998886108398 -7.396273612976074 3.821204662322998 1.000000000000000
12.200581550598145 -7.409904956817627 2.969096899032593 1.000000000000000
12.565981864929199 -7.040457248687744 3.859509706497192 0.000000000000000
12.611029624938965 2.701037883758545 3.455751895904541 0.000000000000000
13.075140953063965 -3.839297771453857 2.019575119018555 0.000000000000000
13.207139968872070 -3.978417634963989 2.044203996658325 0.000000000000000
13.253380775451660 6.275032997131348 2.173213005065918 0.000000000000000
13.304610252380371 6.303837776184082 2.516557455062866 0.000000000000000
13.314280509948730 -4.061438083648682 2.062968969345093 0.000000000000000
13.338368415832520 6.326681613922119 2.187873125076294 0.000000000000000
13.375010490417480 6.394461154937744 2.534080505371094 0.000000000000000
13.380447387695312 6.403947830200195 2.198428392410278 0.000000000000000
13.420694351196289 -5.449851512908936 3.881250381469727 0.000000000000000
13.491078376770020 3.087144851684570 3.708359479904175 0.000000000000000
13.500861167907715 -4.221599578857422 2.096394062042236 0.000000000000000
13.603736877441406 -4.303341388702393 2.114572525024414 0.000000000000000
13.980742454528809 3.250589370727539 3.846051216125488 0.000000000000000
14.607681274414062 2.551818132400513 3.973390340805054 0.000000000000000
14.663347244262695 2.614318609237671 3.990989923477173 0.000000000000000
-2.723790168762207 0.211401328444481 0.010013281367719 0.000000000000000
-2.590265035629272 0.893366754055023 0.004782199859619 0.000000000000000
-2.560693264007568 0.893180847167969 0.004733330570161 0.000000000000000
-2.540125131607056 -0.210979223251343 0.190755933523178 0.000000000000000
-2.444578647613525 0.138299688696861 0.418527662754059 0.000000000000000
-2.431200265884399 1.162123918533325 0.306066513061523 0.000000000000000
-2.402915954589844 1.138317227363586 0.302003681659698 1.000000000000000
-2.382027864456177 0.126837939023972 0.407744318246841 0.000000000000000
-2.232431173324585 1.484796762466431 0.458291113376617 0.000000000000000
-2.181660890579224 1.440069675445557 0.446833878755569 0.000000000000000
-1.949030399322510 -0.155034795403481 0.185852497816086 0.000000000000000
-1.895641922950745 0.916837811470032 0.564225554466248 0.000000000000000
-1.865448594093323 2.329126834869385 0.217566251754761 0.000000000000000
-1.860197901725769 2.338422060012817 0.217857107520103 0.000000000000000
-1.850761890411377 0.903116524219513 0.551802277565002 0.000000000000000
-1.841270923614502 -2.214359045028687 0.027142958715558 0.000000000000000
-1.828471302986145 0.765766203403473 0.293788373470306 1.000000000000000
-1.799333095550537 0.619138777256012 0.065452314913273 0.000000000000000
-1.789610147476196 0.622787773609161 0.065177306532860 0.000000000000000
-1.775753498077393 0.586277186870575 0.501073718070984 0.000000000000000
-1.748043656349182 0.583903431892395 0.493826776742935 0.000000000000000
-1.458762288093567 -2.251282691955566 0.557978451251984 0.000000000000000
-1.451624155044556 -2.223223209381104 0.552276492118835 0.000000000000000
-1.141744852066040 2.699731588363647 0.067030861973763 0.000000000000000
-1.056750774383545 -2.128437757492065 0.132025688886642 0.000000000000000
-1.055231332778931 -2.106881141662598 0.130916237831116 0.000000000000000
-1.031311511993408 -1.812783718109131 0.277539461851120 0.000000000000000
-1.021851658821106 -1.781656861305237 0.273318320512772 0.000000000000000
-1.016153216362000 -1.380899310112000 0.072157859802246 0.000000000000000
-0.585479855537415 2.889075517654419 0.436870962381363 0.000000000000000
-0.518804728984833 -1.461896300315857 0.165230497717857 0.000000000000000
-0.501067519187927 -1.396432042121887 0.158028140664101 0.000000000000000
-0.465588122606277 2.853164434432983 0.171751275658607 0.000000000000000
-0.013564626686275 2.573411226272583 0.233296304941177 0.000000000000000
0.273378700017929 -2.919780731201172 0.785774707794189 0.000000000000000
1.214870214462280 2.383184671401978 0.164076969027519 0.000000000000000
1.221240520477295 2.361962556838989 0.163097396492958 0.000000000000000
1.277508974075317 2.199568510055542 0.288912355899811 0.000000000000000
1.283711433410645 2.228121280670166 0.292072325944901 0.000000000000000
1.367222547531128 1.142688632011414 0.370627999305725 0.000000000000000
1.368189215660095 1.135408520698547 0.369813442230225 0.000000000000000
1.792270302772522 1.453632950782776 0.307087391614914 0.000000000000000
1.800421476364136 1.449854969978333 0.307615011930466 0.000000000000000
1.874507308006287 0.791900157928467 0.231129884719849 1.000000000000000
2.091664791107178 0.965954244136810 0.136879116296768 1.000000000000000
-39.906425476074219 -1.733976125717163 3.298038959503174 0.000000000000000
-39.171585083007812 -1.743151426315308 2.934477090835571 0.000000000000000
-38.966045379638672 -1.870314359664917 2.919550895690918 0.000000000000000
-38.427486419677734 9.427314758300781 2.198283195495605 0.000000000000000
-38.228813171386719 5.106244564056396 2.217082262039185 0.000000000000000
-38.155532836914062 8.506390571594238 2.850176095962524 0.000000000000000
-37.865394592285156 10.516661643981934 2.334773302078247 0.000000000000000
-37.843135833740234 0.177014485001564 2.759135484695435 0.000000000000000
-37.710460662841797 9.251408576965332 1.559521436691284 0.000000000000000
-37.539203643798828 0.470447182655334 3.027164697647095 0.000000000000000
-37.425277709960938 8.304515838623047 1.760922789573669 0.000000000000000
-37.401245117187500 10.247257232666016 2.303934335708618 0.000000000000000
-37.342304229736328 9.103762626647949 -0.006708347704262 0.000000000000000
-37.325744628906250 0.298377752304077 3.383879899978638 0.000000000000000
-37.301410675048828 0.337244272232056 3.007875442504883 0.000000000000000
-37.244102478027344 11.563880920410156 2.467215061187744 0.000000000000000
-37.023708343505859 8.616372108459473 3.814316034317017 0.000000000000000
-36.979381561279297 10.103927612304688 1.687144756317139 0.000000000000000
-36.803722381591797 -0.833907902240753 2.470942735671997 0.000000000000000
-36.774330139160156 8.829412460327148 -0.587512850761414 0.000000000000000
-36.772499084472656 4.243010997772217 2.770289659500122 0.000000000000000
-36.746749877929688 9.183109283447266 2.323280811309814 0.000000000000000
-36.725696563720703 4.283087730407715 1.911873817443848 0.000000000000000
-36.702621459960938 8.009846687316895 1.147759675979614 0.000000000000000
-36.681858062744141 11.031612396240234 2.201931238174438 0.000000000000000
-36.563587188720703 13.331189155578613 -0.679317533969879 0.000000000000000
-36.491550445556641 -13.066591262817383 -0.527700066566467 0.000000000000000
-36.461238861083984 13.399222373962402 -0.454266786575317 0.000000000000000
-36.447025299072266 7.820883750915527 1.712283492088318 0.000000000000000
-36.440498352050781 8.045969009399414 2.864926576614380 0.000000000000000
-36.411048889160156 4.885443687438965 2.465853214263916 0.000000000000000
-36.392574310302734 8.342370033264160 3.746424436569214 0.000000000000000
-36.320007324218750 1.933963298797607 2.651806831359863 0.000000000000000
-36.292442321777344 4.444573879241943 3.018923521041870 0.000000000000000
-36.275821685791016 8.049456596374512 2.279200553894043 0.000000000000000
-36.165279388427734 3.430084943771362 2.648607492446899 0.000000000000000
-36.161743164062500 13.821846961975098 2.822544097900391 0.000000000000000
-36.154411315917969 2.045401096343994 2.081642389297485 0.000000000000000
-36.141448974609375 4.581103801727295 1.463205218315125 0.000000000000000
-36.069152832031250 9.262325286865234 0.207986325025558 0.000000000000000
-36.053798675537109 -14.195425987243652 -1.122931480407715 1.000000000000000
