# This PCD file was generated using the MATLAB® pcwrite function
# from Computer Vision Toolbox®.
# .PCD v.7 - Point Cloud Data file format
VERSION .7
FIELDS x y z intensity
SIZE 8 8 8 8
TYPE F F F F
COUNT 1 1 1 1
WIDTH 655
HEIGHT 1
VIEWPOINT 0 0 0 1 0 0 0
POINTS 655
DATA ascii
-2.567852020263672 1.575061678886414 0.213819295167923 0.000000000000000
-2.559233188629150 -6.253110408782959 0.767423391342163 0.000000000000000
-2.552116394042969 4.472701549530029 0.157334432005882 0.000000000000000
-2.549636363983154 -13.230126380920410 0.256353169679642 1.000000000000000
-2.547240018844604 -1.860341191291809 0.539166033267975 1.000000000000000
-2.539501667022705 -5.644850730895996 0.757816672325134 0.000000000000000
-2.522763967514038 10.381842613220215 0.717119872570038 0.000000000000000
-2.522701263427734 4.457226276397705 0.156479343771935 0.000000000000000
-2.510789155960083 3.547558307647705 0.436104387044907 0.000000000000000
-2.508640289306641 -13.266452789306641 0.256885826587677 1.000000000000000
-2.507431983947754 14.595428466796875 1.407709598541260 0.000000000000000
-2.490608453750610 13.871407508850098 1.414144396781921 0.000000000000000
-2.490394115447998 -4.063636302947998 0.136457741260529 0.000000000000000
-2.477693557739258 3.665319919586182 0.262845873832703 0.000000000000000
-2.467252731323242 8.532340049743652 1.847438097000122 0.000000000000000
-2.457161188125610 13.415707588195801 3.654525041580200 0.000000000000000
-2.454378128051758 10.256328582763672 0.545305430889130 0.000000000000000
-2.448199033737183 8.578558921813965 1.855583786964417 0.000000000000000
-2.445734262466431 -13.470036506652832 0.839731216430664 1.000000000000000
-2.445420265197754 -5.397409439086914 0.516334056854248 0.000000000000000
-2.439951419830322 11.478097915649414 0.561599016189575 0.000000000000000
-2.415941715240479 3.600998878479004 0.257626920938492 0.000000000000000
-2.407231092453003 10.718330383300781 0.568026483058929 0.000000000000000
-2.403167963027954 2.502588033676147 0.929678082466125 0.000000000000000
-2.390522480010986 14.212051391601562 1.078562021255493 0.000000000000000
-2.385303020477295 9.393515586853027 1.186549425125122 0.000000000000000
-2.373772144317627 4.579663753509521 0.316399157047272 0.000000000000000
-2.373520851135254 2.488178014755249 0.921395838260651 0.000000000000000
-2.372073173522949 -13.428024291992188 0.573898911476135 0.000000000000000
-2.359467506408691 10.671058654785156 0.396920800209045 0.000000000000000
-2.344604253768921 13.725169181823730 0.746784508228302 0.000000000000000
-2.335224390029907 13.963733673095703 0.541407525539398 0.000000000000000
-2.327313423156738 -3.393998384475708 0.196951657533646 0.000000000000000
-2.316501140594482 4.589475631713867 0.176831245422363 0.000000000000000
-2.313203573226929 -3.398797988891602 0.196760430932045 0.000000000000000
-2.298679113388062 4.593958854675293 0.176693752408028 0.000000000000000
-2.271768808364868 5.572080612182617 0.473579138517380 0.000000000000000
-2.261642456054688 6.677123069763184 1.205036163330078 0.000000000000000
-2.256096363067627 13.195949554443359 0.666465282440186 0.000000000000000
-2.251178741455078 2.074129581451416 0.407339274883270 0.000000000000000
-2.239396572113037 5.550784587860107 0.471068441867828 0.000000000000000
-2.238111734390259 2.076581239700317 0.406284004449844 0.000000000000000
-2.235815763473511 6.677500247955322 1.203688263893127 0.000000000000000
-2.218703031539917 10.203267097473145 0.218722641468048 0.000000000000000
-2.216322422027588 14.188760757446289 0.742565512657166 0.000000000000000
-2.205634355545044 -2.391227483749390 0.136914908885956 1.000000000000000
-2.201850652694702 6.984223842620850 0.604640483856201 0.000000000000000
-2.199202060699463 -3.610804080963135 0.039847370237112 0.000000000000000
-2.189736604690552 12.875398635864258 0.449228405952454 0.000000000000000
-2.184517145156860 -3.615035057067871 0.039809670299292 0.000000000000000
-2.170449495315552 -2.336663722991943 0.134223714470863 0.000000000000000
-2.144985437393188 8.123605728149414 0.661253333091736 0.000000000000000
-2.120990276336670 -6.103685379028320 1.344035625457764 0.000000000000000
-2.104760646820068 -6.125866413116455 1.347293853759766 0.000000000000000
-2.091521978378296 4.113533973693848 0.220853552222252 0.000000000000000
-2.067074298858643 4.099042415618896 0.219706252217293 0.000000000000000
-2.059757947921753 -4.167421817779541 0.466455996036530 0.000000000000000
-2.040205955505371 13.367136001586914 0.699188947677612 0.000000000000000
-2.025830507278442 -2.967754364013672 0.325748115777969 0.000000000000000
-2.021035909652710 7.763878822326660 0.854538261890411 0.000000000000000
-1.986411690711975 -2.931933164596558 0.321053266525269 0.000000000000000
-1.963610768318176 6.564195156097412 0.911764621734619 0.000000000000000
-1.933964729309082 6.013500213623047 0.773371577262878 0.000000000000000
-1.928598165512085 14.660996437072754 1.249522089958191 0.000000000000000
-1.884412765502930 3.393143653869629 0.338203996419907 0.000000000000000
-1.869051694869995 4.679831027984619 0.086201108992100 0.000000000000000
-1.862479805946350 5.585145473480225 0.383823364973068 0.000000000000000
-1.856241106987000 -3.788893222808838 1.130521535873413 1.000000000000000
-1.829004526138306 3.259779691696167 0.325703650712967 0.000000000000000
-1.813948750495911 2.962878704071045 0.514862656593323 0.000000000000000
-1.810027360916138 4.933052062988281 1.407975554466248 0.000000000000000
-1.807752728462219 2.957392454147339 0.513689875602722 0.000000000000000
-1.801791071891785 5.919983863830566 0.588217437267303 0.000000000000000
-1.793487548828125 -2.749316453933716 0.188697621226311 0.000000000000000
-1.790158867835999 4.932076930999756 1.405905127525330 0.000000000000000
-1.784552097320557 5.937678337097168 0.589353024959564 0.000000000000000
-1.747975826263428 10.636988639831543 1.842599987983704 0.000000000000000
-1.723689436912537 14.624534606933594 0.733091950416565 0.000000000000000
-1.712083816528320 10.650810241699219 1.843947887420654 0.000000000000000
-1.711951732635498 5.105820178985596 0.798095762729645 0.000000000000000
-1.684828519821167 10.719908714294434 0.983744800090790 0.000000000000000
-1.676287293434143 14.685260772705078 0.963591754436493 0.000000000000000
-1.675730943679810 -3.888948917388916 1.134662747383118 0.000000000000000
-1.674140810966492 5.404267787933350 0.456196546554565 0.000000000000000
-1.673882603645325 -3.847646236419678 1.124310016632080 0.000000000000000
-1.663000583648682 5.017867565155029 0.783435642719269 0.000000000000000
-1.639859199523926 14.439870834350586 0.891403198242188 0.000000000000000
-1.636323690414429 10.016531944274902 0.368610769510269 0.000000000000000
-1.631080508232117 2.709000825881958 0.540513992309570 0.000000000000000
-1.616393446922302 10.073473930358887 0.724153578281403 0.000000000000000
-1.613690972328186 3.524766206741333 0.297607004642487 0.000000000000000
-1.606318831443787 3.541274309158325 0.298525542020798 0.000000000000000
-1.605938792228699 5.278483867645264 0.500178635120392 0.000000000000000
-1.589387655258179 2.619024038314819 0.523665010929108 0.000000000000000
-1.582438707351685 9.646473884582520 0.693850636482239 0.000000000000000
-1.536780953407288 9.368145942687988 0.527437090873718 0.000000000000000
-1.515621066093445 4.652992248535156 0.319028764963150 0.000000000000000
-1.494154095649719 9.351306915283203 0.198366597294807 0.000000000000000
-1.476097941398621 7.408677577972412 0.623730897903442 0.000000000000000
-1.472647428512573 -10.912011146545410 1.465260624885559 0.000000000000000
-1.470517039299011 4.121952056884766 0.369804620742798 0.000000000000000
-1.470129370689392 8.026671409606934 0.249316439032555 0.000000000000000
-1.458775162696838 4.134576797485352 0.370478212833405 0.000000000000000
-1.452513217926025 8.483275413513184 0.478177100419998 0.000000000000000
-1.448646306991577 13.461903572082520 2.314370393753052 0.000000000000000
-1.443900704383850 14.114464759826660 1.116629958152771 0.000000000000000
-1.441113829612732 14.590065002441406 1.561639904975891 0.000000000000000
-1.424870848655701 8.500110626220703 0.478842735290527 0.000000000000000
-1.417810082435608 3.350061655044556 0.365017771720886 0.000000000000000
-1.414387345314026 3.373096942901611 0.367014586925507 1.000000000000000
-1.404882669448853 5.232500076293945 0.332317084074020 0.000000000000000
-1.394912958145142 4.830887317657471 0.279361933469772 0.000000000000000
-1.381968736648560 4.784179210662842 0.286260277032852 0.000000000000000
-1.374354600906372 -9.776567459106445 2.053523540496826 0.000000000000000
-1.363269329071045 8.465758323669434 0.707992136478424 0.000000000000000
-1.356543064117432 -10.323467254638672 1.385586738586426 0.000000000000000
-1.355934739112854 13.027655601501465 2.238887071609497 0.000000000000000
-1.331181883811951 -9.715346336364746 2.039675951004028 0.000000000000000
-1.329812288284302 3.145348072052002 0.710302472114563 0.000000000000000
-1.324167251586914 6.646122932434082 0.454863488674164 0.000000000000000
-1.322219491004944 2.695530652999878 0.184158027172089 0.000000000000000
-1.320066928863525 13.590088844299316 1.671668767929077 0.000000000000000
-1.318825602531433 3.149970531463623 0.710302472114563 0.000000000000000
-1.274778366088867 8.205186843872070 0.269656270742416 0.000000000000000
-1.271740436553955 8.378332138061523 0.405567407608032 0.000000000000000
-1.271638631820679 4.172626495361328 0.437701851129532 0.000000000000000
-1.267604112625122 3.703211307525635 0.277823477983475 0.000000000000000
-1.267092585563660 8.548714637756348 0.413598477840424 0.000000000000000
-1.264107704162598 4.926584720611572 0.243416935205460 0.000000000000000
-1.261151909828186 13.472068786621094 1.656599879264832 0.000000000000000
-1.260090827941895 4.184441566467285 0.438500583171844 0.000000000000000
-1.237636566162109 -7.821202754974365 1.647054553031921 0.000000000000000
-1.230922102928162 13.954498291015625 1.102507352828979 0.000000000000000
-1.210927128791809 -7.829344749450684 1.647869110107422 0.000000000000000
-1.204765081405640 -9.806359291076660 1.464250683784485 0.000000000000000
-1.199955582618713 14.683235168457031 1.187911391258240 0.000000000000000
-1.193890213966370 13.015421867370605 1.392172813415527 0.000000000000000
-1.178026318550110 3.119860172271729 0.185279756784439 0.000000000000000
-1.176344275474548 3.448776721954346 0.484902590513229 0.000000000000000
-1.175112724304199 7.471682071685791 0.926004350185394 0.000000000000000
-1.170632362365723 3.471647977828979 0.487540781497955 0.000000000000000
-1.167387247085571 -14.569696426391602 3.916450023651123 0.000000000000000
-1.167129397392273 3.123952865600586 0.185279756784439 0.000000000000000
-1.145409107208252 -9.614257812500000 1.434930324554443 0.000000000000000
-1.131869316101074 -14.774008750915527 3.970284461975098 0.000000000000000
-1.131546974182129 -9.157572746276855 1.367493867874146 0.000000000000000
-1.129450917243958 -14.806900978088379 0.425171196460724 0.000000000000000
-1.127920150756836 -14.797051429748535 0.025900673121214 1.000000000000000
-1.118507146835327 8.459383964538574 0.773561477661133 1.000000000000000
-1.110187888145447 4.398396492004395 0.182198360562325 0.000000000000000
-1.078700065612793 4.938245773315430 0.864013612270355 0.000000000000000
-1.061454296112061 4.941981315612793 0.864013612270355 0.000000000000000
-1.032363295555115 8.370498657226562 0.663763999938965 0.000000000000000
-1.013311505317688 7.986433029174805 0.857503890991211 0.000000000000000
-1.005683064460754 5.710507869720459 0.255190968513489 0.000000000000000
-0.989746868610382 7.692101478576660 1.325674533843994 0.000000000000000
-0.988935589790344 -9.732507705688477 2.034788608551025 0.000000000000000
-0.977622330188751 6.819613933563232 0.303204149007797 0.000000000000000
-0.959423422813416 3.290776968002319 0.289646595716476 0.000000000000000
-0.949985623359680 -9.685234069824219 2.024199247360229 0.000000000000000
-0.941682755947113 14.321381568908691 0.825035572052002 0.000000000000000
-0.926120638847351 5.724994182586670 1.553949594497681 0.000000000000000
-0.914213299751282 3.739476442337036 0.800719439983368 0.000000000000000
-0.890146136283875 3.833659887313843 0.256576150655746 0.000000000000000
-0.883737325668335 3.670305013656616 0.785242676734924 0.000000000000000
-0.878175437450409 3.000792980194092 0.534448325634003 0.000000000000000
-0.864358663558960 4.804873466491699 0.139777615666389 0.000000000000000
-0.851029157638550 14.244611740112305 1.095512151718140 0.000000000000000
-0.810984015464783 3.665988683700562 0.317264080047607 0.000000000000000
-0.803063452243805 3.688130617141724 0.318948060274124 0.000000000000000
-0.777497529983521 2.959012508392334 0.277355343103409 0.000000000000000
-0.758041679859161 5.334284305572510 0.361640572547913 0.000000000000000
-0.737772464752197 5.325038909912109 0.360836952924728 0.000000000000000
-0.634112417697906 -3.336471796035767 0.910007834434509 0.000000000000000
-0.625184893608093 -3.228027820587158 0.881020009517670 0.000000000000000
-0.576610505580902 8.921442985534668 0.462270289659500 0.000000000000000
-0.553392171859741 6.366248607635498 0.527620375156403 0.000000000000000
-0.519570171833038 6.229099273681641 0.516100287437439 0.000000000000000
-0.489714473485947 9.727620124816895 0.484882861375809 0.000000000000000
-0.488650470972061 9.812199592590332 0.621539235115051 0.000000000000000
-0.465158969163895 10.046138763427734 0.791495442390442 0.000000000000000
-0.462581217288971 9.779986381530762 0.506266534328461 0.000000000000000
-0.450866848230362 13.534022331237793 0.908923327922821 0.000000000000000
-0.450713932514191 -7.629102706909180 2.047776222229004 0.000000000000000
-0.435943663120270 10.028991699218750 0.770655214786530 0.000000000000000
-0.426904916763306 10.680019378662109 0.820562481880188 0.000000000000000
-0.426652312278748 -7.676923274993896 2.060199737548828 0.000000000000000
-0.416434615850449 8.804346084594727 0.320120841264725 0.000000000000000
-0.409661561250687 8.745233535766602 0.301135659217834 0.000000000000000
-0.388420701026917 13.025866508483887 1.075976967811584 0.000000000000000
-0.370991706848145 -3.418371677398682 0.509585022926331 0.000000000000000
-0.362376093864441 -3.546596288681030 0.528349936008453 0.000000000000000
-0.354639440774918 3.890072345733643 1.046664237976074 0.000000000000000
-0.305906116962433 11.189403533935547 0.975374758243561 0.000000000000000
-0.292092084884644 10.418071746826172 1.544587969779968 0.000000000000000
-0.192299351096153 10.181572914123535 0.506959080696106 0.000000000000000
-0.184168443083763 8.366633415222168 0.891397297382355 0.000000000000000
-0.155475631356239 8.395063400268555 0.894362986087799 0.000000000000000
-0.140464752912521 10.845659255981445 0.539974153041840 1.000000000000000
-0.123610287904739 9.674671173095703 0.630771398544312 0.000000000000000
-0.085052639245987 8.430881500244141 0.696142911911011 0.000000000000000
-0.070051237940788 7.900695323944092 0.967322111129761 0.000000000000000
-0.046049814671278 7.208735466003418 0.400514900684357 0.000000000000000
-0.027743855491281 6.941088199615479 0.696489095687866 0.000000000000000
-0.021769378334284 7.513067245483398 0.533273816108704 0.000000000000000
-0.012459607794881 -14.872288703918457 2.542167901992798 0.000000000000000
-0.003532587783411 12.652057647705078 1.102461695671082 0.000000000000000
-0.002982011996210 5.892147064208984 1.578796267509460 0.000000000000000
0.006941948086023 11.698566436767578 0.830355167388916 0.000000000000000
0.015370729379356 13.344434738159180 1.127600908279419 0.000000000000000
0.052409265190363 12.831741333007812 1.901708006858826 0.000000000000000
0.130868375301361 12.839093208312988 1.902880787849426 0.000000000000000
0.147168189287186 8.773513793945312 0.403062999248505 0.000000000000000
0.200193092226982 11.561928749084473 0.865416944026947 0.000000000000000
0.215538442134857 12.448182106018066 0.739669144153595 0.000000000000000
0.231538489460945 12.953950881958008 0.719817399978638 0.000000000000000
0.240596920251846 12.633961677551270 0.775080025196075 0.000000000000000
0.250383257865906 5.104904174804688 0.463342368602753 0.000000000000000
0.270083904266357 5.139802932739258 0.466592609882355 0.000000000000000
0.272913157939911 12.773381233215332 0.709832251071930 0.000000000000000
0.281432777643204 12.392331123352051 0.951607525348663 0.000000000000000
0.288486808538437 14.234823226928711 3.814992904663086 0.000000000000000
0.305187523365021 3.870025396347046 0.413499921560287 0.000000000000000
0.326791048049927 13.755026817321777 1.380597949028015 0.000000000000000
0.370464682579041 3.235965013504028 0.872737884521484 0.000000000000000
0.377230346202850 3.196281433105469 0.862385094165802 0.000000000000000
0.392210990190506 6.984589099884033 1.036762237548828 0.000000000000000
0.409146308898926 3.208102226257324 0.111241437494755 1.000000000000000
0.420341521501541 3.206654548645020 0.111241437494755 0.000000000000000
0.438308954238892 7.017528057098389 1.042039752006531 0.000000000000000
0.452364265918732 3.791404247283936 0.565879762172699 0.000000000000000
0.461369961500168 3.889950275421143 0.580539882183075 0.000000000000000
0.480780541896820 13.712924003601074 0.788765251636505 0.000000000000000
0.484558194875717 -14.101680755615234 2.934885025024414 0.000000000000000
0.499028593301773 8.886823654174805 0.357493996620178 0.000000000000000
0.533936083316803 8.950262069702148 0.498147368431091 0.000000000000000
0.538097262382507 7.141438484191895 0.453084677457809 0.000000000000000
0.563624262809753 14.618308067321777 1.066598176956177 0.000000000000000
0.574062526226044 3.422765016555786 0.348244547843933 0.000000000000000
0.581930398941040 14.771858215332031 1.249185204505920 0.000000000000000
0.581975519657135 3.397203207015991 0.345848351716995 0.000000000000000
0.583951413631439 7.749999523162842 0.611667156219482 0.000000000000000
0.586072742938995 14.877008438110352 1.028053283691406 0.000000000000000
0.637672305107117 14.867152214050293 1.980238795280457 0.000000000000000
0.718578696250916 7.450462818145752 0.473541676998138 0.000000000000000
0.741325855255127 7.977612495422363 0.506879031658173 0.000000000000000
0.794569671154022 12.142293930053711 0.301636040210724 0.000000000000000
0.808186411857605 14.784141540527344 1.165274500846863 0.000000000000000
0.847632944583893 14.343446731567383 2.988646507263184 0.000000000000000
0.870902717113495 -13.259034156799316 2.763826131820679 0.000000000000000
0.873595952987671 14.669747352600098 1.332244634628296 0.000000000000000
0.877881288528442 14.023810386657715 2.922666549682617 0.000000000000000
0.879394054412842 5.315438270568848 0.299332201480865 1.000000000000000
0.879976630210876 5.436751842498779 0.305988967418671 1.000000000000000
0.935581386089325 14.837567329406738 1.347773671150208 0.000000000000000
0.967530608177185 11.435816764831543 0.792463541030884 0.000000000000000
0.976785421371460 14.258388519287109 1.124789714813232 0.000000000000000
0.985727190971375 11.704451560974121 0.652584135532379 0.000000000000000
0.992009997367859 13.311420440673828 1.634239673614502 0.000000000000000
0.994509637355804 13.809915542602539 1.474788069725037 0.000000000000000
1.017139554023743 12.663986206054688 1.048987030982971 0.000000000000000
1.018362879753113 -8.097538948059082 1.697557806968689 0.000000000000000
1.019250154495239 11.617388725280762 0.647924423217773 0.000000000000000
1.023519754409790 -7.915277957916260 1.660087704658508 0.000000000000000
1.034479022026062 2.921116352081299 0.237901881337166 0.000000000000000
1.042400717735291 11.829092979431152 0.636887669563293 0.000000000000000
1.044405579566956 14.502777099609375 0.472190588712692 0.000000000000000
1.054935932159424 9.461608886718750 1.980212688446045 0.000000000000000
1.059720158576965 11.563894271850586 0.801831960678101 0.000000000000000
1.074173331260681 14.256052970886230 0.464271008968353 0.000000000000000
1.078945994377136 10.044492721557617 0.775554060935974 0.000000000000000
1.092753767967224 -3.927561998367310 0.847964286804199 0.000000000000000
1.095827937126160 -3.886031389236450 0.839818596839905 0.000000000000000
1.109875559806824 -7.178469181060791 1.946319341659546 0.000000000000000
1.115968227386475 10.723947525024414 1.081874370574951 0.000000000000000
1.132363200187683 13.746788024902344 1.085560083389282 0.000000000000000
1.173272132873535 5.149202823638916 0.446257859468460 0.000000000000000
1.179063320159912 10.249900817871094 0.980740964412689 0.000000000000000
1.195126891136169 -13.718277931213379 3.689724445343018 0.000000000000000
1.217730760574341 5.141746520996094 0.460429668426514 0.000000000000000
1.228124856948853 3.223567485809326 0.459048181772232 0.000000000000000
1.234748721122742 13.130818367004395 0.783555865287781 0.000000000000000
1.237946033477783 3.215559720993042 0.458520501852036 0.000000000000000
1.253710150718689 10.719176292419434 0.828523218631744 0.000000000000000
1.262252926826477 14.696403503417969 0.933192789554596 0.000000000000000
1.281355142593384 13.134375572204590 0.784030318260193 0.000000000000000
1.291473865509033 2.992873430252075 0.327078312635422 0.000000000000000
1.296194195747375 8.619513511657715 0.249561980366707 0.000000000000000
1.310231328010559 14.297525405883789 1.910590171813965 0.000000000000000
1.317810297012329 3.024834632873535 0.331071943044662 0.000000000000000
1.370864748954773 5.920902729034424 0.419652968645096 0.000000000000000
1.378170251846313 6.354954719543457 0.865332186222076 0.000000000000000
1.388981342315674 3.249979734420776 0.107984192669392 0.000000000000000
1.392162680625916 6.529443740844727 0.564137279987335 0.000000000000000
1.396907210350037 3.298746347427368 0.109450034797192 1.000000000000000
1.415369510650635 -6.781493663787842 1.856250286102295 0.000000000000000
1.426808118820190 6.001198291778564 0.437833964824677 1.000000000000000
1.446956992149353 13.310790061950684 0.537766039371490 0.000000000000000
1.461504340171814 -6.882335186004639 1.885238051414490 0.000000000000000
1.477631688117981 12.881072998046875 0.520750164985657 0.000000000000000
1.480443835258484 13.140492439270020 0.658311009407043 0.000000000000000
1.483857989311218 13.935473442077637 0.913629710674286 0.000000000000000
1.485880494117737 6.933386802673340 0.271162331104279 0.000000000000000
1.491237282752991 11.030917167663574 0.532725512981415 0.000000000000000
1.535409808158875 10.662917137145996 0.764651775360107 0.000000000000000
1.552797675132751 11.191860198974609 0.540756583213806 0.000000000000000
1.572122693061829 -6.420851707458496 1.374989271163940 0.000000000000000
1.591432809829712 13.666583061218262 0.499707907438278 0.000000000000000
1.595943570137024 13.630772590637207 0.472054213285446 0.000000000000000
1.597360372543335 -6.426726818084717 1.377432942390442 0.000000000000000
1.598647475242615 13.323587417602539 0.487367630004883 0.000000000000000
1.604631185531616 12.375279426574707 0.909822523593903 0.000000000000000
1.637165307998657 -14.254190444946289 2.452531576156616 0.000000000000000
1.637474656105042 4.665708065032959 0.389157146215439 0.000000000000000
1.642911911010742 13.026967048645020 1.190316796302795 0.000000000000000
1.660399317741394 4.784413814544678 0.398572266101837 0.000000000000000
1.672849655151367 4.271682739257812 0.610481262207031 0.000000000000000
1.691339731216431 11.462016105651855 0.643708407878876 0.000000000000000
1.695753693580627 4.288235664367676 0.613647162914276 0.000000000000000
1.696384072303772 7.097602844238281 0.893436193466187 0.000000000000000
1.753810405731201 -2.647809982299805 0.850997030735016 0.000000000000000
1.766323328018188 11.878289222717285 0.413064628839493 0.000000000000000
1.773766279220581 -2.657740592956543 0.856173396110535 0.000000000000000
1.788319230079651 12.657212257385254 0.660976231098175 0.000000000000000
1.833930253982544 4.473586082458496 0.222088441252708 0.000000000000000
1.838834047317505 4.441315174102783 0.220803633332253 0.000000000000000
1.839698910713196 2.798333168029785 0.318333923816681 0.000000000000000
1.853613734245300 13.025836944580078 0.427269518375397 0.000000000000000
1.855717658996582 -12.286316871643066 3.329448223114014 0.000000000000000
1.880242705345154 2.838371038436890 0.323633164167404 0.000000000000000
1.893902182579041 13.074835777282715 0.479818284511566 0.000000000000000
1.907600402832031 4.384668350219727 0.994586408138275 0.000000000000000
1.909629225730896 3.749316692352295 0.323019951581955 0.000000000000000
1.909926772117615 3.740211248397827 0.322407603263855 0.000000000000000
1.911176919937134 10.858772277832031 1.349876165390015 0.000000000000000
1.934929728507996 12.487330436706543 0.629074811935425 0.000000000000000
1.941791296005249 4.421010017395020 1.004361152648926 0.000000000000000
1.953384518623352 8.048507690429688 1.013986945152283 0.000000000000000
1.998613595962524 4.654365062713623 0.164494231343269 0.000000000000000
1.998867154121399 7.770430564880371 0.677975118160248 0.000000000000000
2.013411521911621 4.471903324127197 0.522382557392120 0.000000000000000
2.024691343307495 10.736960411071777 1.163815855979919 0.000000000000000
2.032301425933838 4.472088813781738 0.523229897022247 0.000000000000000
2.062257051467896 4.712248325347900 0.355175763368607 0.000000000000000
2.068645715713501 4.723255634307861 0.346103429794312 0.000000000000000
2.070595026016235 5.513982772827148 1.225108861923218 0.000000000000000
2.081262588500977 4.793207645416260 0.159655362367630 0.000000000000000
2.113889694213867 3.296644210815430 0.247757017612457 0.000000000000000
2.117310523986816 3.454597234725952 0.038188632577658 0.000000000000000
2.117371797561646 3.327578544616699 0.249524891376495 0.000000000000000
2.120949268341064 3.433573246002197 0.038037840276957 0.000000000000000
2.123203039169312 11.479261398315430 1.243465423583984 0.000000000000000
2.139705896377563 8.199206352233887 0.716033399105072 0.000000000000000
2.145098447799683 13.360943794250488 1.357834219932556 0.000000000000000
2.151442289352417 13.400456428527832 1.041930675506592 0.000000000000000
2.170867681503296 4.325505733489990 0.485625416040421 0.000000000000000
2.188096761703491 7.901268959045410 0.645247638225555 0.000000000000000
2.189185619354248 2.295580148696899 0.849961757659912 1.000000000000000
2.210541963577271 4.932950019836426 0.923995792865753 0.000000000000000
2.221009969711304 2.345288038253784 0.865490913391113 0.000000000000000
2.244756698608398 4.965111255645752 0.931409358978271 0.000000000000000
2.266255617141724 -7.919538974761963 2.207209110260010 0.000000000000000
2.282721281051636 5.315993785858154 0.276879608631134 0.000000000000000
2.287474393844604 5.318867206573486 0.265955507755280 0.000000000000000
2.319707632064819 -8.000641822814941 2.232055664062500 0.000000000000000
2.335907697677612 5.481502532958984 0.457432985305786 0.000000000000000
2.348009347915649 8.595247268676758 0.563704013824463 0.000000000000000
2.348028182983398 1.898546695709229 0.225981593132019 0.000000000000000
2.358940362930298 4.839548110961914 0.040406089276075 0.000000000000000
2.370792627334595 5.509949684143066 0.460494786500931 0.000000000000000
2.417708396911621 13.882876396179199 0.891521155834198 0.000000000000000
2.469980001449585 13.881834030151367 0.674798429012299 0.000000000000000
2.544390678405762 -11.779220581054688 3.229026556015015 0.000000000000000
2.581016540527344 6.247778892517090 0.571210086345673 0.000000000000000
2.610810995101929 3.518540620803833 0.583043932914734 0.000000000000000
2.621999740600586 4.341058254241943 1.054864406585693 0.000000000000000
2.624280929565430 2.768122673034668 0.793388307094574 0.000000000000000
2.624919414520264 4.311807155609131 1.049976944923401 1.000000000000000
2.644442558288574 3.537988424301147 0.587792694568634 0.000000000000000
2.648322343826294 5.269731998443604 1.226737976074219 0.000000000000000
2.650305509567261 6.200355529785156 0.478615373373032 0.000000000000000
2.651346445083618 6.482045650482178 0.483579099178314 0.000000000000000
2.654540061950684 6.150771141052246 0.475500136613846 0.000000000000000
2.654605865478516 5.567505836486816 1.282943129539490 0.000000000000000
2.656620740890503 10.438310623168945 1.147292733192444 0.000000000000000
2.672676563262939 5.656133651733398 0.594652295112610 1.000000000000000
2.674197673797607 14.519169807434082 1.247501254081726 0.000000000000000
2.698575496673584 5.323328971862793 1.241400241851807 0.000000000000000
2.717248201370239 7.804632186889648 0.443229228258133 0.000000000000000
2.742946624755859 7.858564376831055 0.638997733592987 0.000000000000000
2.751763820648193 10.656412124633789 0.866188526153564 0.000000000000000
2.758273363113403 4.335968494415283 0.305309236049652 0.000000000000000
2.806692361831665 5.289303302764893 1.245473027229309 0.000000000000000
2.828830242156982 5.286381721496582 1.247102141380310 0.000000000000000
2.833296060562134 5.757762908935547 0.492643684148788 0.000000000000000
2.898962259292603 8.399666786193848 0.682169139385223 0.000000000000000
2.937133789062500 8.075850486755371 0.726137340068817 0.000000000000000
2.958345174789429 10.824295043945312 0.774828672409058 0.000000000000000
2.965367078781128 10.849987030029297 0.950444996356964 0.000000000000000
2.987587451934814 5.906988620758057 0.520968437194824 0.000000000000000
2.998100519180298 5.879287719726562 0.519399285316467 0.000000000000000
2.998329639434814 6.130915641784668 0.208516985177994 0.000000000000000
3.010384798049927 4.658873558044434 0.436546444892883 0.000000000000000
3.019934415817261 4.709635257720947 0.440312504768372 0.000000000000000
3.024961471557617 3.997974634170532 0.476554572582245 0.000000000000000
3.040971279144287 4.702248096466064 0.561903715133667 0.000000000000000
3.048552274703979 4.000060558319092 0.478068619966507 0.000000000000000
3.067614316940308 -7.693716049194336 1.722809314727783 0.000000000000000
3.082746505737305 -7.653900623321533 1.716292858123779 0.000000000000000
3.124639034271240 8.685685157775879 1.228349566459656 0.000000000000000
3.132558345794678 6.126298904418945 1.431194305419922 0.000000000000000
3.138115406036377 4.470227718353271 0.261391192674637 0.000000000000000
3.196007728576660 8.982379913330078 0.805621743202209 0.000000000000000
3.201698303222656 7.011213779449463 0.072645112872124 0.000000000000000
3.209269046783447 7.422586441040039 0.293698161840439 0.000000000000000
3.211028575897217 7.019322395324707 0.280341655015945 0.000000000000000
3.211109876632690 2.415179252624512 0.491924643516541 0.000000000000000
3.226338863372803 2.421348094940186 0.493868976831436 0.000000000000000
3.231173515319824 7.010893344879150 0.072758205235004 1.000000000000000
3.243957996368408 8.947182655334473 0.455474615097046 0.000000000000000
3.254656791687012 -11.080505371093750 3.094440460205078 0.000000000000000
3.270189046859741 3.166158437728882 0.384623765945435 0.000000000000000
3.288441896438599 6.665073394775391 0.341392159461975 0.000000000000000
3.291718721389771 3.581222534179688 0.392219722270966 0.000000000000000
3.292712450027466 3.165774106979370 0.385970950126648 0.000000000000000
3.328573942184448 3.596045017242432 0.395113170146942 0.000000000000000
3.362166404724121 7.349710464477539 0.169298529624939 0.000000000000000
3.371493101119995 4.795011997222900 0.348247051239014 0.000000000000000
3.380296468734741 4.013948440551758 1.091519832611084 0.000000000000000
3.382578849792480 6.410480976104736 0.235381245613098 0.000000000000000
3.389222145080566 3.996150255203247 1.089890718460083 0.000000000000000
3.395981550216675 4.873641967773438 0.375802665948868 0.000000000000000
3.410859346389771 7.371981620788574 0.138947963714600 1.000000000000000
3.422238111495972 -9.643766403198242 2.128463745117188 0.000000000000000
3.462134122848511 3.416751384735107 0.392219722270966 0.000000000000000
3.470489740371704 7.554408550262451 0.206079944968224 0.000000000000000
3.487174749374390 3.870321273803711 0.329585015773773 0.000000000000000
3.488753080368042 3.464605093002319 0.386960297822952 0.000000000000000
3.492334127426147 14.086552619934082 1.264619112014771 0.000000000000000
3.494496345520020 6.155428886413574 0.502404510974884 0.000000000000000
3.495287656784058 -0.799307882785797 0.960736334323883 0.000000000000000
3.495299816131592 3.852210998535156 0.329079896211624 0.000000000000000
3.503643512725830 14.346410751342773 1.286841869354248 0.000000000000000
3.532202959060669 7.713579654693604 0.739257037639618 0.000000000000000
3.536467790603638 4.606815338134766 1.208002924919128 1.000000000000000
3.540369987487793 7.749280929565430 0.742382049560547 0.000000000000000
3.556073188781738 8.261877059936523 0.309385925531387 0.000000000000000
3.572066068649292 2.169376134872437 0.200011089444160 0.000000000000000
3.574190139770508 8.188010215759277 0.324476212263107 0.000000000000000
3.593247413635254 4.647112369537354 1.221850633621216 0.000000000000000
3.606292724609375 6.757108211517334 0.366559535264969 0.000000000000000
3.620882272720337 5.598314285278320 0.473234504461288 0.000000000000000
3.622282266616821 6.730406284332275 0.365794688463211 0.000000000000000
3.641611099243164 12.922529220581055 0.771777868270874 0.000000000000000
3.653095722198486 7.931088924407959 2.339724063873291 0.000000000000000
3.655616998672485 12.800917625427246 0.970613062381744 0.000000000000000
3.666543483734131 5.625753879547119 0.476632952690125 1.000000000000000
3.670984745025635 7.897269248962402 2.333512783050537 0.000000000000000
3.699036598205566 9.009330749511719 0.129192471504211 1.000000000000000
3.723856687545776 5.218344211578369 1.333446264266968 0.000000000000000
3.740998268127441 13.153812408447266 1.819835662841797 0.000000000000000
3.741835832595825 5.282443046569824 1.346479415893555 0.000000000000000
3.782131195068359 12.126627922058105 1.207473397254944 0.000000000000000
3.785000562667847 4.200870037078857 0.445020049810410 0.000000000000000
3.799359321594238 13.928243637084961 1.164121031761169 0.000000000000000
3.812704563140869 6.770879745483398 0.677102446556091 0.000000000000000
3.813333988189697 13.232417106628418 1.163638472557068 0.000000000000000
3.817098617553711 -11.516216278076172 2.523528814315796 0.000000000000000
3.840120077133179 3.885698795318604 1.136321067810059 0.000000000000000
3.870236158370972 3.888924360275269 1.141208410263062 0.000000000000000
3.883405447006226 3.441550731658936 1.079301357269287 0.000000000000000
3.888304233551025 8.862850189208984 0.332899272441864 0.000000000000000
3.918312072753906 3.449356317520142 1.085817933082581 0.000000000000000
3.926837921142578 4.389000415802002 0.281851202249527 0.000000000000000
3.935437440872192 9.056070327758789 0.187870576977730 0.000000000000000
3.959260225296021 4.456444263458252 0.285293072462082 0.000000000000000
4.006038665771484 10.506196975708008 1.376611113548279 0.000000000000000
4.012305736541748 3.656810283660889 0.804546236991882 0.000000000000000
4.012406826019287 9.111989974975586 0.687481403350830 0.000000000000000
4.013898372650146 11.881767272949219 1.668930172920227 0.000000000000000
4.016245365142822 3.634815931320190 0.802787005901337 0.000000000000000
4.022550582885742 12.897482872009277 1.011096000671387 0.000000000000000
4.028173446655273 4.382447719573975 0.204744756221771 0.000000000000000
4.068389892578125 10.703374862670898 1.401887893676758 0.000000000000000
4.082723617553711 7.472413539886475 0.391132622957230 0.000000000000000
4.088949680328369 11.277759552001953 1.277782440185547 0.000000000000000
4.093958854675293 8.982542037963867 0.938346922397614 0.000000000000000
4.122195720672607 4.453439235687256 0.208732396364212 0.000000000000000
4.132291793823242 4.189081668853760 0.372266918420792 0.000000000000000
4.157880306243896 2.702118873596191 0.227778315544128 1.000000000000000
4.166041374206543 2.710736036300659 0.237871706485748 0.000000000000000
4.169942855834961 4.267730712890625 0.504187166690826 0.000000000000000
4.173631668090820 4.241785049438477 0.502839982509613 0.000000000000000
4.177153587341309 12.224125862121582 1.719056248664856 0.000000000000000
4.227507114410400 8.787258148193359 2.028271913528442 0.000000000000000
4.273151397705078 8.371352195739746 0.413652062416077 0.000000000000000
4.273716449737549 9.764495849609375 0.530626535415649 0.000000000000000
4.290084838867188 9.835534095764160 0.740936875343323 0.000000000000000
4.350737094879150 3.307300329208374 0.582119762897491 0.000000000000000
4.361227989196777 -9.370182991027832 2.769363880157471 0.000000000000000
4.365972042083740 3.294896125793457 0.261773616075516 0.000000000000000
4.371545314788818 7.938355922698975 0.416278183460236 0.000000000000000
4.374956130981445 3.301676034927368 0.583814382553101 0.000000000000000
4.399714469909668 13.429982185363770 1.112236261367798 0.000000000000000
4.401786804199219 3.109841346740723 0.574070036411285 0.000000000000000
4.412616252899170 3.094456195831299 0.574070036411285 0.000000000000000
4.426222324371338 6.067194461822510 0.713885545730591 0.000000000000000
4.435582637786865 6.035664558410645 0.711992979049683 0.000000000000000
4.454068183898926 12.152240753173828 1.378615498542786 0.000000000000000
4.477356910705566 -8.806678771972656 2.647201299667358 0.000000000000000
4.496520042419434 9.786025047302246 0.370438128709793 0.000000000000000
4.501587867736816 13.379309654235840 0.322808951139450 1.000000000000000
4.505690574645996 5.225053310394287 0.250579833984375 0.000000000000000
4.509541988372803 9.290338516235352 2.148013353347778 0.000000000000000
4.514317035675049 13.618942260742188 1.129183411598206 0.000000000000000
4.528981685638428 8.114298820495605 0.534184157848358 0.000000000000000
4.569687843322754 4.852291107177734 1.386393070220947 0.000000000000000
4.581613540649414 -13.055272102355957 2.877865552902222 0.000000000000000
4.588986873626709 -1.876656055450439 1.031241893768311 0.000000000000000
4.604941368103027 4.109780311584473 0.586703419685364 0.000000000000000
4.616525650024414 13.440881729125977 0.106658868491650 0.000000000000000
4.618603229522705 -1.907613039016724 1.039387583732605 0.000000000000000
4.632444381713867 3.835156202316284 0.640585899353027 0.000000000000000
4.674407005310059 4.295179367065430 0.636983990669250 0.000000000000000
4.702886104583740 -0.735695540904999 1.275460362434387 0.000000000000000
4.707324028015137 2.810140371322632 0.135899767279625 0.000000000000000
4.726995468139648 5.481690883636475 0.374277800321579 0.000000000000000
4.735292434692383 4.191791057586670 0.448878914117813 0.000000000000000
4.738500595092773 4.224226474761963 0.450578153133392 0.000000000000000
4.758189678192139 9.417993545532227 0.586238443851471 0.000000000000000
4.769601345062256 10.215421676635742 0.561254858970642 0.000000000000000
4.777211189270020 8.559036254882812 0.714652776718140 0.000000000000000
4.858433723449707 8.776412010192871 0.576652586460114 0.000000000000000
4.890749454498291 11.302931785583496 0.707960426807404 0.000000000000000
4.904847621917725 9.697750091552734 0.520105302333832 0.000000000000000
4.905650615692139 5.062593460083008 0.188290983438492 0.000000000000000
4.967325210571289 -2.257879972457886 0.808651030063629 0.000000000000000
4.969826221466064 10.284701347351074 0.700633108615875 0.000000000000000
4.971882343292236 10.256962776184082 0.875062525272369 0.000000000000000
4.990247249603271 7.512072563171387 0.622728586196899 0.000000000000000
5.007821083068848 14.041884422302246 1.693297266960144 0.000000000000000
5.013057708740234 4.513935565948486 0.718540787696838 0.000000000000000
5.013176918029785 4.484026908874512 0.716422498226166 0.000000000000000
5.013924121856689 -2.241156578063965 0.813928604125977 0.000000000000000
5.015679359436035 3.936473131179810 0.452560573816299 0.000000000000000
5.018764019012451 9.691287994384766 1.865514516830444 0.000000000000000
5.035077571868896 3.269570112228394 1.248731374740601 0.000000000000000
5.036656379699707 11.893883705139160 3.460928440093994 0.000000000000000
5.040626049041748 3.050549983978271 0.534125745296478 0.000000000000000
5.055030345916748 6.138569831848145 0.797927320003510 0.000000000000000
5.059682846069336 3.310709238052368 1.257691502571106 0.000000000000000
5.060561180114746 10.005623817443848 1.194319963455200 0.000000000000000
5.070030212402344 13.439444541931152 0.025069896131754 0.000000000000000
5.073013305664062 4.694210529327393 0.530610024929047 0.000000000000000
5.079203128814697 7.645982265472412 0.775646746158600 0.000000000000000
5.094210624694824 6.142333030700684 0.800722837448120 0.000000000000000
5.115612506866455 11.710289955139160 0.734589278697968 0.000000000000000
5.119812488555908 3.891928672790527 0.406866997480392 0.000000000000000
5.120009422302246 9.971875190734863 0.644372522830963 0.000000000000000
5.198983192443848 -9.798896789550781 2.972277879714966 0.000000000000000
5.217998027801514 10.106237411499023 0.829253196716309 0.000000000000000
5.303488731384277 2.795503616333008 0.797794044017792 0.000000000000000
5.309700012207031 2.775138378143311 0.797266364097595 0.000000000000000
5.328311443328857 12.705960273742676 3.691795110702515 0.000000000000000
5.336291313171387 10.464489936828613 0.562172651290894 0.000000000000000
5.348286628723145 10.666790008544922 1.271003842353821 0.000000000000000
5.375651836395264 10.292295455932617 1.984804987907410 1.000000000000000
5.404531002044678 6.470399379730225 2.258972883224487 0.000000000000000
5.417632579803467 4.702178001403809 1.063150286674500 0.000000000000000
5.434577465057373 6.217500209808350 0.188838645815849 0.000000000000000
5.444566249847412 6.265247344970703 0.509128391742706 0.000000000000000
5.481056213378906 4.946960926055908 0.495581567287445 0.000000000000000
5.529305458068848 9.773821830749512 0.645520329475403 0.000000000000000
5.534919261932373 10.687989234924316 0.691891312599182 0.000000000000000
5.553121089935303 4.853865623474121 1.093056917190552 0.000000000000000
5.646864891052246 5.132491588592529 0.512190222740173 0.000000000000000
5.653879642486572 12.600450515747070 1.167006373405457 0.000000000000000
5.654312133789062 5.920210838317871 1.213269710540771 0.000000000000000
5.677587032318115 6.541458606719971 0.198074832558632 0.000000000000000
5.713881492614746 12.811934471130371 0.320797085762024 0.000000000000000
5.781212329864502 10.117489814758301 1.726959586143494 0.000000000000000
5.781285762786865 -1.577351808547974 1.605713486671448 0.000000000000000
5.821258544921875 11.221244812011719 0.410521507263184 0.000000000000000
5.835132598876953 13.126878738403320 1.911645412445068 0.000000000000000
5.852776050567627 10.430373191833496 0.872010171413422 0.000000000000000
5.853945732116699 -1.619152426719666 1.627454161643982 0.000000000000000
5.860486984252930 10.625452995300293 0.955004215240479 0.000000000000000
5.872635364532471 13.166046142578125 0.468165874481201 0.000000000000000
5.873867988586426 12.188113212585449 0.413369327783585 0.000000000000000
5.878407478332520 6.700443744659424 2.388382196426392 0.000000000000000
5.881146907806396 -7.079096317291260 2.466027975082397 0.000000000000000
5.911481857299805 10.266279220581055 1.755693435668945 0.000000000000000
5.919383049011230 12.442646026611328 0.500433802604675 0.000000000000000
5.937314510345459 13.267444610595703 0.695640921592712 0.000000000000000
5.948482990264893 13.464092254638672 0.110471330583096 0.000000000000000
5.956831455230713 12.894124984741211 0.106598831713200 0.000000000000000
5.972966194152832 9.670689582824707 0.872613131999969 0.000000000000000
5.994701862335205 13.314579010009766 0.249777957797050 0.000000000000000
6.006828784942627 5.368463516235352 0.354558914899826 0.000000000000000
6.016994953155518 3.768748760223389 0.756247222423553 0.000000000000000
6.027187824249268 11.519640922546387 0.622214257717133 0.000000000000000
6.033849239349365 6.926247119903564 0.921729803085327 1.000000000000000
6.035196781158447 5.462412834167480 0.358252257108688 0.000000000000000
6.066299915313721 5.673172950744629 0.413482934236526 0.000000000000000
6.067708492279053 3.830069303512573 0.764296948909760 0.000000000000000
6.068674564361572 6.345184803009033 1.301230311393738 0.000000000000000
6.104585647583008 -3.299498081207275 1.859356164932251 0.000000000000000
6.110358238220215 6.829506397247314 0.015994189307094 0.000000000000000
6.115054607391357 11.655371665954590 1.146907448768616 0.000000000000000
6.174997329711914 12.699416160583496 0.648645102977753 0.000000000000000
6.177844524383545 -3.367011547088623 1.885238051414490 0.000000000000000
6.186197757720947 10.875535964965820 0.839809834957123 0.000000000000000
6.195743083953857 11.310198783874512 0.319676697254181 0.000000000000000
6.220113754272461 10.149909973144531 1.194494724273682 0.000000000000000
6.236202716827393 12.730242729187012 0.896824777126312 0.000000000000000
6.249269008636475 12.194291114807129 2.030716657638550 0.000000000000000
6.251239299774170 11.044081687927246 0.192712545394897 0.000000000000000
6.273972511291504 10.250633239746094 0.575175285339355 0.000000000000000
6.286986351013184 13.152579307556152 0.725733160972595 0.000000000000000
6.294819355010986 12.462706565856934 1.585857987403870 0.000000000000000
6.306081295013428 12.273468971252441 0.766636610031128 0.000000000000000
6.306579113006592 -2.373125553131104 1.805521726608276 0.000000000000000
6.312931060791016 11.189043045043945 0.862311840057373 0.000000000000000
6.425811290740967 13.002213478088379 0.694111168384552 0.000000000000000
6.453958034515381 6.742832660675049 0.644496619701385 0.000000000000000
6.500039100646973 9.823848724365234 0.541088223457336 0.000000000000000
6.556593418121338 12.869157791137695 1.640480399131775 0.000000000000000
6.619040489196777 2.343666791915894 1.460518717765808 0.000000000000000
6.646335124969482 7.454974174499512 0.574127435684204 0.000000000000000
6.651376724243164 2.381276369094849 1.469479084014893 0.000000000000000
6.658883094787598 12.099461555480957 1.167006373405457 0.000000000000000
6.662146568298340 5.799895286560059 0.439735859632492 0.000000000000000
6.664040565490723 11.678103446960449 0.410804122686386 0.000000000000000
6.672319412231445 7.431726932525635 0.574127435684204 0.000000000000000
6.684742450714111 7.791243076324463 1.093486905097961 0.000000000000000
6.726107120513916 13.012645721435547 0.588332116603851 0.000000000000000
6.734572410583496 -5.442075729370117 2.320054054260254 0.000000000000000
6.756683349609375 13.261890411376953 0.054552588611841 0.000000000000000
6.758054256439209 -1.971200823783875 1.886273384094238 0.000000000000000
6.762039661407471 11.048053741455078 0.420648217201233 0.000000000000000
6.809895515441895 -6.833946228027344 2.585084915161133 0.000000000000000
6.817567348480225 4.193871498107910 0.979960441589355 0.000000000000000
6.832276821136475 8.019671440124512 0.829155802726746 0.000000000000000
6.835438251495361 -1.967908382415771 1.905943512916565 0.000000000000000
6.845656394958496 13.045140266418457 0.478422433137894 0.000000000000000
6.872262954711914 11.744475364685059 2.016643047332764 0.000000000000000
6.878499507904053 7.236782073974609 0.689410209655762 0.000000000000000
6.924827575683594 7.186923503875732 0.689134657382965 0.000000000000000
6.983634471893311 12.585338592529297 1.915338873863220 0.000000000000000
6.998323917388916 4.569814205169678 0.706266224384308 0.000000000000000
7.019708156585693 4.663532257080078 1.752948403358459 0.000000000000000
7.021198272705078 12.522376060485840 0.466218411922455 0.000000000000000
7.073498249053955 5.082449913024902 0.182450383901596 0.000000000000000
7.081076622009277 9.996531486511230 0.727807879447937 0.000000000000000
7.088258266448975 4.673489570617676 1.765981554985046 0.000000000000000
