# This PCD file was generated using the MATLAB® pcwrite function
# from Computer Vision Toolbox®.
# .PCD v.7 - Point Cloud Data file format
VERSION .7
FIELDS x y z intensity
SIZE 8 8 8 8
TYPE F F F F
COUNT 1 1 1 1
WIDTH 634
HEIGHT 1
VIEWPOINT 0 0 0 1 0 0 0
POINTS 634
DATA ascii
-15.707475662231445 -9.780084609985352 1.099303007125854 0.000000000000000
-15.699570655822754 -25.019502639770508 1.925622344017029 0.000000000000000
-15.686998367309570 -28.973806381225586 2.720388412475586 0.000000000000000
-15.655910491943359 -9.947811126708984 0.923425316810608 0.000000000000000
-15.648599624633789 -14.507007598876953 3.647458314895630 0.000000000000000
-15.642534255981445 -28.315374374389648 1.112689375877380 0.000000000000000
-15.624748229980469 -11.006128311157227 -0.553876042366028 0.000000000000000
-15.600251197814941 -30.501316070556641 2.233461618423462 0.000000000000000
-15.586185455322266 -9.408867835998535 1.730585694313049 0.000000000000000
-15.519291877746582 -27.457092285156250 -0.732254207134247 0.000000000000000
-15.496172904968262 -16.290788650512695 2.038272857666016 0.000000000000000
-15.483457565307617 -7.112428188323975 0.848246693611145 0.000000000000000
-15.460723876953125 -5.746415615081787 0.250471651554108 0.000000000000000
-15.439361572265625 -10.715058326721191 0.321475386619568 0.000000000000000
-15.354669570922852 -7.977476119995117 0.661703348159790 0.000000000000000
-15.352711677551270 -8.879619598388672 2.360140562057495 0.000000000000000
-15.349594116210938 -29.564361572265625 2.428714275360107 0.000000000000000
-15.317110061645508 -28.627456665039062 2.555255889892578 0.000000000000000
-15.306958198547363 -23.505933761596680 1.450429797172546 0.000000000000000
-15.292015075683594 -26.835874557495117 -0.242591306567192 0.000000000000000
-15.277891159057617 -30.789268493652344 3.448899030685425 0.000000000000000
-15.245350837707520 -28.218061447143555 0.979919910430908 0.000000000000000
-15.229287147521973 -25.928657531738281 1.728580355644226 0.000000000000000
-15.219475746154785 -24.254402160644531 -0.334853351116180 0.000000000000000
-15.205307960510254 -7.005883693695068 3.482274055480957 0.000000000000000
-15.200367927551270 -26.494138717651367 1.697029352188110 0.000000000000000
-15.181466102600098 -27.537515640258789 1.565427660942078 0.000000000000000
-15.174345970153809 -8.051027297973633 0.789056360721588 1.000000000000000
-15.163476943969727 -23.290929794311523 1.490569829940796 0.000000000000000
-15.148573875427246 -28.312463760375977 3.420270919799805 0.000000000000000
-15.143774986267090 -16.032024383544922 1.999269843101501 0.000000000000000
-15.141490936279297 -26.189924240112305 2.147255420684814 0.000000000000000
-15.129733085632324 -10.422117233276367 0.032065175473690 0.000000000000000
-15.129513740539551 -8.009315490722656 0.424352228641510 0.000000000000000
-15.128838539123535 -28.892114639282227 2.377812862396240 0.000000000000000
-15.122221946716309 -7.894283294677734 0.422865360975266 0.000000000000000
-15.093178749084473 -5.669844150543213 0.740600764751434 0.000000000000000
-15.071665763854980 -27.933872222900391 3.380870103836060 0.000000000000000
-15.058178901672363 -6.271506309509277 0.028469795361161 0.000000000000000
-14.986765861511230 -15.555069923400879 3.201179027557373 0.000000000000000
-14.981133460998535 -23.982282638549805 2.116226434707642 0.000000000000000
-14.973073959350586 -9.642831802368164 0.612584233283997 0.000000000000000
-14.971832275390625 -15.409860610961914 3.184173345565796 0.000000000000000
-14.925710678100586 -5.458494663238525 0.332900732755661 0.000000000000000
-14.879799842834473 -27.736772537231445 2.355641603469849 0.000000000000000
-14.875595092773438 -10.499024391174316 2.422930002212524 0.000000000000000
-14.873255729675293 -23.006395339965820 1.416554689407349 0.000000000000000
-14.851588249206543 -7.943007946014404 0.773638665676117 0.000000000000000
-14.803020477294922 -27.006931304931641 1.059337496757507 0.000000000000000
-14.800371170043945 -6.908446311950684 1.064817070960999 0.000000000000000
-14.788885116577148 -22.367313385009766 0.973864197731018 0.000000000000000
-14.771303176879883 -11.459446907043457 2.487829923629761 0.000000000000000
-14.746629714965820 -7.596317291259766 0.889671921730042 0.000000000000000
-14.744590759277344 -7.681437015533447 1.244242072105408 0.000000000000000
-14.741606712341309 -6.729949951171875 3.370678424835205 0.000000000000000
-14.720874786376953 -11.094587326049805 2.453005552291870 0.000000000000000
-14.685599327087402 -8.562328338623047 1.436445116996765 0.000000000000000
-14.685215950012207 -11.148303031921387 2.453533172607422 0.000000000000000
-14.666720390319824 -22.228057861328125 2.414219617843628 0.000000000000000
-14.665596008300781 -7.286127567291260 1.257175326347351 0.000000000000000
-14.652145385742188 -29.190919876098633 2.318310976028442 0.000000000000000
-14.629426956176758 -5.296933174133301 2.070465564727783 0.000000000000000
-14.612088203430176 -9.281702995300293 1.195308327674866 0.000000000000000
-14.602005958557129 -25.724035263061523 2.968065738677979 0.000000000000000
-14.598361968994141 -9.845976829528809 0.639515757560730 0.000000000000000
-14.598085403442383 -24.072055816650391 1.564116120338440 0.000000000000000
-14.586212158203125 -23.873558044433594 1.554352879524231 0.000000000000000
-14.537801742553711 -21.800163269042969 2.112842798233032 0.000000000000000
-14.536840438842773 -23.753599166870117 2.353210449218750 0.000000000000000
-14.536561012268066 -5.723762035369873 1.018498063087463 0.000000000000000
-14.534580230712891 -27.333267211914062 1.839209437370300 0.000000000000000
-14.528494834899902 -14.974452972412109 3.092108011245728 0.000000000000000
-14.523040771484375 -33.477375030517578 3.012998819351196 0.000000000000000
-14.500211715698242 -7.185039520263672 1.623809933662415 0.000000000000000
-14.497288703918457 -8.520477294921875 2.237727880477905 0.000000000000000
-14.473749160766602 -9.193829536437988 1.448906660079956 0.000000000000000
-14.454609870910645 -7.530366420745850 1.549275636672974 0.000000000000000
-14.442527770996094 -23.532102584838867 2.173003196716309 0.000000000000000
-14.439012527465820 -21.489137649536133 2.940586090087891 0.000000000000000
-14.434055328369141 -14.450186729431152 1.851563692092896 0.000000000000000
-14.423865318298340 -23.754840850830078 3.698239564895630 0.000000000000000
-14.420907020568848 -23.265802383422852 2.601935148239136 0.000000000000000
-14.402163505554199 -7.281995296478271 0.555107176303864 0.000000000000000
-14.351109504699707 -25.910350799560547 2.972059488296509 0.000000000000000
-14.317135810852051 -10.176165580749512 2.337452173233032 0.000000000000000
-14.296935081481934 -5.120172500610352 2.020867109298706 0.000000000000000
-14.290752410888672 -9.857792854309082 1.433429002761841 0.000000000000000
-14.252223014831543 -8.953925132751465 1.688906073570251 0.000000000000000
-14.239323616027832 -22.554016113281250 3.549444675445557 0.000000000000000
-14.221026420593262 -5.382756233215332 1.378470540046692 0.000000000000000
-14.195573806762695 -8.849381446838379 1.678522586822510 0.000000000000000
-14.178556442260742 -28.766462326049805 2.338255643844604 0.000000000000000
-14.175745010375977 -24.323162078857422 1.564116120338440 0.000000000000000
-14.157316207885742 -5.270967483520508 0.722984671592712 0.000000000000000
-14.101593017578125 -7.515005588531494 1.350224733352661 0.000000000000000
-14.065381050109863 -9.003493309020996 1.153150200843811 0.000000000000000
-14.056901931762695 -23.363203048706055 1.095116376876831 0.000000000000000
-14.040248870849609 -23.898530960083008 1.113255977630615 0.000000000000000
-13.996268272399902 -9.240058898925781 0.834921360015869 0.000000000000000
-13.989058494567871 -28.381996154785156 2.868533372879028 0.000000000000000
-13.973796844482422 -25.022649765014648 2.875813007354736 0.000000000000000
-13.913339614868164 -9.251704216003418 1.089277744293213 0.000000000000000
-13.903013229370117 -7.090666294097900 0.536819040775299 0.000000000000000
-13.896649360656738 -25.564645767211914 2.346245527267456 0.000000000000000
-13.873719215393066 -26.050971984863281 2.675684690475464 0.000000000000000
-13.863153457641602 -25.292219161987305 2.325670003890991 0.000000000000000
-13.803891181945801 -8.471961975097656 1.243397235870361 0.000000000000000
-13.769470214843750 -21.476169586181641 1.761550426483154 0.000000000000000
-13.766078948974609 -24.339385986328125 -0.273311436176300 0.000000000000000
-13.754291534423828 -9.371292114257812 1.374182820320129 0.000000000000000
-13.743674278259277 -7.079672336578369 0.353535234928131 0.000000000000000
-13.715677261352539 -25.566781997680664 0.384871512651443 1.000000000000000
-13.565495491027832 -22.365808486938477 -0.305900394916534 0.000000000000000
-13.555203437805176 -7.163181781768799 1.058638691902161 0.000000000000000
-13.554673194885254 -26.259450912475586 2.439956426620483 0.000000000000000
-13.547893524169922 -24.887859344482422 0.811305403709412 0.000000000000000
-13.542629241943359 -8.721609115600586 0.801906287670135 0.000000000000000
-13.494263648986816 -20.677270889282227 0.801828205585480 0.000000000000000
-13.456707954406738 -5.439870834350586 -0.197608456015587 0.000000000000000
-13.379876136779785 -23.410886764526367 2.122161626815796 0.000000000000000
-13.333731651306152 -7.093253135681152 0.519493401050568 0.000000000000000
-13.322754859924316 -20.571012496948242 0.419238388538361 0.000000000000000
-13.316287040710449 -8.641751289367676 0.546031832695007 0.000000000000000
-13.304553985595703 -20.911344528198242 1.711401581764221 0.000000000000000
-13.300781250000000 -8.579654693603516 0.361948370933533 0.000000000000000
-13.300683021545410 -7.007022857666016 1.183163285255432 0.000000000000000
-13.219208717346191 -8.271189689636230 0.836330115795135 0.000000000000000
-13.172284126281738 -28.701919555664062 3.866371870040894 0.000000000000000
-13.115089416503906 -23.134653091430664 2.832643747329712 0.000000000000000
-13.105961799621582 -20.441299438476562 3.231276750564575 0.000000000000000
-13.105069160461426 -24.514764785766602 2.241439342498779 0.000000000000000
-13.100210189819336 -24.372512817382812 -0.323580861091614 0.000000000000000
-13.087468147277832 -22.239416122436523 3.433891296386719 0.000000000000000
-13.059086799621582 -20.563549041748047 1.400310873985291 0.000000000000000
-13.027861595153809 -8.356036186218262 1.348649263381958 0.000000000000000
-13.015855789184570 -20.145645141601562 3.191703796386719 0.000000000000000
-12.932401657104492 -24.007038116455078 1.672605514526367 0.000000000000000
-12.916185379028320 -24.060340881347656 2.475613355636597 0.000000000000000
-12.897159576416016 -19.961931228637695 1.274632215499878 0.000000000000000
-12.893116950988770 -20.890413284301758 1.647741675376892 0.000000000000000
-12.881191253662109 -18.525323867797852 2.762458086013794 0.000000000000000
-12.849131584167480 -26.534774780273438 0.334478229284286 0.000000000000000
-12.839419364929199 -21.644691467285156 2.126544952392578 0.000000000000000
-12.803037643432617 -24.088150024414062 1.253056049346924 0.000000000000000
-12.792924880981445 -4.864945411682129 -0.186336770653725 0.000000000000000
-12.770546913146973 -23.689743041992188 2.170068264007568 0.000000000000000
-12.727297782897949 -20.258409500122070 1.144996643066406 0.000000000000000
-12.716355323791504 -25.034980773925781 3.189321517944336 0.000000000000000
-12.702679634094238 -8.562258720397949 -0.179143503308296 0.000000000000000
-12.654777526855469 -23.037052154541016 2.637393236160278 0.000000000000000
-12.652847290039062 -23.033536911010742 -0.004586725495756 0.000000000000000
-12.650759696960449 -19.767759323120117 1.349119186401367 0.000000000000000
-12.634581565856934 -20.167821884155273 0.910090565681458 0.000000000000000
-12.622245788574219 -4.820977687835693 -0.106121920049191 0.000000000000000
-12.608613967895508 -8.384759902954102 1.279497146606445 0.000000000000000
-12.604716300964355 -20.976114273071289 -0.051253996789455 0.000000000000000
-12.596228599548340 -24.375511169433594 1.788747072219849 0.000000000000000
-12.592690467834473 -33.187141418457031 0.061952177435160 0.000000000000000
-12.582582473754883 -24.654273986816406 1.164954185485840 0.000000000000000
-12.577735900878906 -19.617427825927734 -0.183027312159538 0.000000000000000
-12.532389640808105 -24.278982162475586 -0.267056286334991 0.000000000000000
-12.520204544067383 -23.368696212768555 -0.819257855415344 1.000000000000000
-12.516403198242188 -22.974836349487305 2.008541107177734 0.000000000000000
-12.506422042846680 -8.379909515380859 1.272087454795837 0.000000000000000
-12.501421928405762 -23.583209991455078 0.097831077873707 0.000000000000000
-12.496827125549316 -19.231666564941406 -0.180137082934380 0.000000000000000
-12.493826866149902 -23.971805572509766 2.179713010787964 0.000000000000000
-12.468452453613281 -24.563913345336914 1.424403786659241 0.000000000000000
-12.408924102783203 -20.061208724975586 1.492350816726685 0.000000000000000
-12.344233512878418 -23.327989578247070 1.009292483329773 0.000000000000000
-12.338701248168945 -21.534135818481445 1.857407450675964 0.000000000000000
-12.294622421264648 -17.907522201538086 2.659406661987305 0.000000000000000
-12.259769439697266 -24.152790069580078 0.983736455440521 0.000000000000000
-12.200263977050781 -23.251878738403320 1.408307909965515 0.000000000000000
-12.107892990112305 -20.197198867797852 -0.411039084196091 0.000000000000000
-12.093530654907227 -19.454793930053711 0.876004159450531 0.000000000000000
-12.087451934814453 -19.849910736083984 0.397551268339157 0.000000000000000
-12.064035415649414 -6.152505397796631 -0.392464071512222 0.000000000000000
-12.016387939453125 -19.733211517333984 0.040324069559574 0.000000000000000
-12.002791404724121 -22.875524520874023 0.590749502182007 0.000000000000000
-11.909560203552246 -21.586595535278320 0.942801177501678 0.000000000000000
-11.822397232055664 -23.493963241577148 1.359958648681641 0.000000000000000
-11.782455444335938 -21.181081771850586 0.554262042045593 0.000000000000000
-11.779642105102539 -21.351112365722656 3.244995594024658 0.000000000000000
-11.776956558227539 -22.375780105590820 1.990036606788635 0.000000000000000
-11.747187614440918 -7.288676738739014 -0.560089230537415 0.000000000000000
-11.709486007690430 -18.600111007690430 0.629285395145416 0.000000000000000
-11.619532585144043 -22.617906570434570 -0.004438023548573 0.000000000000000
-11.577433586120605 -30.142946243286133 3.240031719207764 0.000000000000000
-11.516435623168945 -21.185939788818359 0.829429328441620 0.000000000000000
-11.477097511291504 -22.513414382934570 2.402077198028564 0.000000000000000
-11.476677894592285 -26.878099441528320 3.578119754791260 0.000000000000000
-11.471620559692383 -17.271404266357422 1.551720380783081 0.000000000000000
-11.460426330566406 -21.009443283081055 -0.050123024731874 0.000000000000000
-11.380419731140137 -20.862775802612305 2.258997440338135 0.000000000000000
-11.360843658447266 -21.074701309204102 0.823516666889191 0.000000000000000
-11.358576774597168 -18.041307449340820 3.159544467926025 0.000000000000000
-11.325379371643066 -21.857276916503906 0.373824685811996 0.000000000000000
-11.316002845764160 -29.066015243530273 3.818734884262085 0.000000000000000
-11.307195663452148 -21.990097045898438 1.850541472434998 0.000000000000000
-11.213770866394043 -17.949970245361328 3.136674642562866 0.000000000000000
-11.189596176147461 -20.343711853027344 0.307992726564407 0.000000000000000
-11.168854713439941 -19.384845733642578 0.726526975631714 0.000000000000000
-11.155573844909668 -24.519481658935547 2.347288608551025 0.000000000000000
-11.141492843627930 15.513023376464844 2.830571651458740 0.000000000000000
-11.109384536743164 -29.366024017333984 2.592350721359253 0.000000000000000
-11.106386184692383 15.684949874877930 0.808874428272247 1.000000000000000
-11.104009628295898 -16.591987609863281 1.186127543449402 0.000000000000000
-11.080817222595215 16.107023239135742 2.897422075271606 0.000000000000000
-11.069996833801270 -5.080166816711426 -0.540311038494110 0.000000000000000
-11.009427070617676 -20.016147613525391 1.709638833999634 0.000000000000000
-10.916478157043457 -17.120927810668945 -0.666492938995361 0.000000000000000
-10.901172637939453 -20.939184188842773 1.584521532058716 0.000000000000000
-10.889862060546875 -28.198303222656250 2.087243080139160 0.000000000000000
-10.864426612854004 -19.692243576049805 1.552963972091675 0.000000000000000
-10.856352806091309 -25.748218536376953 3.421112060546875 0.000000000000000
-10.853308677673340 -18.990129470825195 0.374153852462769 0.000000000000000
-10.816747665405273 -18.901645660400391 0.665373146533966 0.000000000000000
-10.816500663757324 -21.193819046020508 2.157087802886963 0.000000000000000
-10.814062118530273 -19.339975357055664 1.658292889595032 0.000000000000000
-10.802297592163086 -18.416488647460938 3.164235591888428 0.000000000000000
-10.793914794921875 -28.072237014770508 2.250860214233398 0.000000000000000
-10.790250778198242 -26.819953918457031 3.847034692764282 0.000000000000000
-10.785014152526855 -15.662405967712402 1.908156514167786 0.000000000000000
-10.769254684448242 -22.029485702514648 3.002101182937622 0.000000000000000
-10.764552116394043 -16.534229278564453 0.754485547542572 0.000000000000000
-10.756318092346191 -18.863958358764648 1.457545518875122 0.000000000000000
-10.755201339721680 -14.922335624694824 3.826021432876587 0.000000000000000
-10.754828453063965 -19.234043121337891 2.094720602035522 0.000000000000000
-10.744688987731934 -18.843564987182617 0.121150359511375 0.000000000000000
-10.739004135131836 -19.351371765136719 1.272216796875000 0.000000000000000
-10.700303077697754 -17.593368530273438 0.708287537097931 0.000000000000000
-10.690234184265137 26.060274124145508 3.748365879058838 0.000000000000000
-10.681500434875488 -19.521480560302734 1.880345344543457 0.000000000000000
-10.670834541320801 -20.552753448486328 1.331213474273682 0.000000000000000
-10.630848884582520 16.161773681640625 2.866929054260254 0.000000000000000
-10.559222221374512 -20.553968429565430 1.061435937881470 0.000000000000000
-10.524137496948242 -20.388397216796875 1.540053009986877 0.000000000000000
-10.517251968383789 19.375205993652344 2.933687210083008 0.000000000000000
-10.511496543884277 13.306036949157715 3.527075529098511 0.000000000000000
-10.508412361145020 -21.177419662475586 0.359005331993103 0.000000000000000
-10.502428054809570 15.856611251831055 1.570353746414185 1.000000000000000
-10.496658325195312 -21.663190841674805 2.947172880172729 0.000000000000000
-10.491756439208984 -20.599235534667969 0.706294775009155 0.000000000000000
-10.480118751525879 19.147071838378906 2.904666662216187 0.000000000000000
-10.474258422851562 15.856124877929688 1.569037079811096 1.000000000000000
-10.470633506774902 -26.290172576904297 3.765777826309204 0.000000000000000
-10.447710037231445 -18.429470062255859 0.362386703491211 0.000000000000000
-10.422536849975586 -27.106376647949219 2.760534048080444 0.000000000000000
-10.415552139282227 -18.923906326293945 0.909121751785278 0.000000000000000
-10.391485214233398 -17.506822586059570 0.739399313926697 0.000000000000000
-10.389635086059570 13.057812690734863 3.470870256423950 0.000000000000000
-10.380627632141113 15.666777610778809 3.909107446670532 0.000000000000000
-10.376201629638672 -26.591644287109375 3.798491716384888 0.000000000000000
-10.363222122192383 -17.224142074584961 1.426783561706543 0.000000000000000
-10.354887962341309 -21.072694778442383 1.847868800163269 0.000000000000000
-10.291289329528809 -17.539680480957031 -0.042591582983732 0.000000000000000
-10.274156570434570 -17.211832046508789 1.113675475120544 1.000000000000000
-10.258487701416016 -20.274927139282227 3.884017467498779 0.000000000000000
-10.246069908142090 -18.020231246948242 1.711557149887085 0.000000000000000
-10.193418502807617 16.521312713623047 2.583333253860474 0.000000000000000
-10.190354347229004 -17.305315017700195 0.729381859302521 0.000000000000000
-10.187527656555176 -18.918714523315430 0.450094491243362 0.000000000000000
-10.168188095092773 -16.389385223388672 -0.151486039161682 0.000000000000000
-10.161344528198242 -18.783603668212891 -0.044727865606546 0.000000000000000
-10.154183387756348 -14.331191062927246 0.840582013130188 0.000000000000000
-10.144740104675293 15.274268150329590 1.953109145164490 0.000000000000000
-10.144024848937988 -17.516269683837891 2.693609952926636 0.000000000000000
-10.139425277709961 15.218374252319336 2.433482646942139 0.000000000000000
-10.134839057922363 -17.018903732299805 0.795572698116302 0.000000000000000
-10.101126670837402 15.300558090209961 2.082426071166992 0.000000000000000
-10.099673271179199 -20.735862731933594 1.815229892730713 0.000000000000000
-10.090535163879395 -11.140810012817383 0.864060640335083 0.000000000000000
-10.067014694213867 -17.295480728149414 -0.041913002729416 0.000000000000000
-10.065805435180664 -15.943477630615234 1.301943778991699 0.000000000000000
-10.041780471801758 -17.650899887084961 0.152408406138420 0.000000000000000
-10.032047271728516 -19.827388763427734 2.014437675476074 0.000000000000000
-10.009055137634277 -25.917533874511719 3.697184562683105 0.000000000000000
-10.005267143249512 15.563276290893555 2.742024660110474 0.000000000000000
-9.997511863708496 -20.027397155761719 2.542428731918335 0.000000000000000
-9.985964775085449 -14.501996040344238 -0.544112741947174 0.000000000000000
-9.980196952819824 -20.299427032470703 1.039043545722961 0.000000000000000
-9.950205802917480 12.958928108215332 3.398374080657959 0.000000000000000
-9.940579414367676 -20.229557037353516 0.039339702576399 0.000000000000000
-9.936960220336914 -17.759714126586914 0.230881184339523 0.000000000000000
-9.908265113830566 -15.397625923156738 1.405672550201416 0.000000000000000
-9.892780303955078 -16.945756912231445 1.658058524131775 0.000000000000000
-9.885377883911133 -18.512117385864258 0.762192487716675 0.000000000000000
-9.870663642883301 -24.783739089965820 0.610044896602631 0.000000000000000
-9.844711303710938 -17.448759078979492 2.452817678451538 0.000000000000000
-9.817406654357910 -20.625223159790039 1.621345043182373 0.000000000000000
-9.812145233154297 -19.968189239501953 0.380584716796875 0.000000000000000
-9.811017036437988 -20.766622543334961 1.143392682075500 1.000000000000000
-9.800457954406738 -19.202989578247070 3.685199975967407 0.000000000000000
-9.800431251525879 -4.281908512115479 -0.145606234669685 0.000000000000000
-9.797022819519043 -25.847906112670898 2.228901147842407 0.000000000000000
-9.773819923400879 -17.330177307128906 1.642765641212463 0.000000000000000
-9.762891769409180 -15.818584442138672 -0.753100574016571 0.000000000000000
-9.747772216796875 -18.678308486938477 0.684202551841736 0.000000000000000
-9.706287384033203 -15.493561744689941 1.544894218444824 0.000000000000000
-9.693101882934570 -19.588403701782227 2.482388973236084 0.000000000000000
-9.623890876770020 15.196453094482422 2.665792226791382 0.000000000000000
-9.610138893127441 -15.817098617553711 0.103367641568184 0.000000000000000
-9.609022140502930 -17.269678115844727 0.717767536640167 0.000000000000000
-9.598105430603027 -16.309974670410156 1.599118709564209 0.000000000000000
-9.592043876647949 -17.560949325561523 0.496019273996353 0.000000000000000
-9.574792861938477 -18.528598785400391 1.681722521781921 0.000000000000000
-9.571120262145996 -17.201559066772461 2.410041809082031 0.000000000000000
-9.539826393127441 -14.864939689636230 1.083397746086121 0.000000000000000
-9.515784263610840 -19.952047348022461 1.441094040870667 0.000000000000000
-9.476449966430664 -25.054893493652344 1.746331334114075 0.000000000000000
-9.462269783020020 -17.045118331909180 -0.153119653463364 0.000000000000000
-9.428054809570312 -15.157415390014648 -0.448723018169403 0.000000000000000
-9.412188529968262 -13.567112922668457 0.504496276378632 0.000000000000000
-9.362907409667969 -18.182319641113281 0.153489112854004 0.000000000000000
-9.351734161376953 -18.129518508911133 -0.160219594836235 0.000000000000000
-9.339473724365234 -21.823236465454102 2.528450250625610 0.000000000000000
-9.330324172973633 -15.689720153808594 0.592802345752716 0.000000000000000
-9.326436042785645 -14.700650215148926 1.654882192611694 0.000000000000000
-9.308203697204590 -15.771335601806641 0.313265740871429 0.000000000000000
-9.306314468383789 -16.303808212280273 0.645722866058350 0.000000000000000
-9.300070762634277 -15.883967399597168 0.597735881805420 0.000000000000000
-9.296622276306152 -19.356714248657227 3.182414054870605 0.000000000000000
-9.280295372009277 -17.034708023071289 1.946495175361633 0.000000000000000
-9.275121688842773 16.632675170898438 2.822362184524536 0.000000000000000
-9.217411041259766 -16.017925262451172 0.351620078086853 0.000000000000000
-9.201293945312500 16.542316436767578 2.518960714340210 0.000000000000000
-9.192541122436523 -18.013387680053711 -0.158837303519249 0.000000000000000
-9.178576469421387 16.893583297729492 2.849336624145508 0.000000000000000
-9.159927368164062 -13.749282836914062 0.600026965141296 0.000000000000000
-9.151020050048828 -14.926678657531738 1.344130396842957 0.000000000000000
-9.135123252868652 -16.151535034179688 0.388691335916519 0.000000000000000
-9.132773399353027 -16.027053833007812 0.705419480800629 0.000000000000000
-9.128395080566406 -14.046832084655762 0.963000595569611 0.000000000000000
-9.122679710388184 -13.931360244750977 0.957261621952057 0.000000000000000
-9.069281578063965 -15.888548851013184 -0.213943183422089 0.000000000000000
-9.057364463806152 -14.311291694641113 0.810561239719391 0.000000000000000
-9.047275543212891 -14.272189140319824 0.776208281517029 0.000000000000000
-9.042857170104980 -16.526700973510742 -0.437384277582169 0.000000000000000
-9.026094436645508 -14.227240562438965 1.260959267616272 0.000000000000000
-9.013996124267578 -16.068014144897461 0.102898500859737 0.000000000000000
-9.004780769348145 -14.333170890808105 0.549698948860168 0.000000000000000
-8.995814323425293 -15.786706924438477 0.974504530429840 0.000000000000000
-8.981411933898926 -15.384634971618652 0.955438554286957 0.000000000000000
-8.980950355529785 -15.140085220336914 0.402550995349884 0.000000000000000
-8.947485923767090 -15.655494689941406 0.031471762806177 0.000000000000000
-8.917819023132324 -15.305134773254395 0.473130494356155 0.000000000000000
-8.908848762512207 -14.651910781860352 1.051806807518005 0.000000000000000
-8.886805534362793 15.073554039001465 2.991023540496826 0.000000000000000
-8.879859924316406 -20.951152801513672 2.423804283142090 0.000000000000000
-8.827217102050781 16.219886779785156 2.736747264862061 0.000000000000000
-8.794805526733398 -28.119283676147461 3.346417665481567 0.000000000000000
-8.749393463134766 -15.289062500000000 1.767580628395081 0.000000000000000
-8.730187416076660 -22.419521331787109 0.180566594004631 0.000000000000000
-8.729165077209473 -16.496274948120117 0.140070453286171 0.000000000000000
-8.719957351684570 -12.990374565124512 0.568232655525208 0.000000000000000
-8.715049743652344 -14.809407234191895 0.657117784023285 0.000000000000000
-8.710865020751953 -17.579507827758789 1.544075131416321 0.000000000000000
-8.695466041564941 -13.222994804382324 0.757403373718262 0.000000000000000
-8.687891960144043 15.700502395629883 3.732346296310425 0.000000000000000
-8.642458915710449 -16.152629852294922 1.158977508544922 0.000000000000000
-8.617017745971680 15.365391731262207 2.344311475753784 0.000000000000000
-8.594756126403809 -14.722315788269043 -0.133893311023712 0.000000000000000
-8.593449592590332 -14.838801383972168 0.392125964164734 0.000000000000000
-8.569060325622559 -17.438449859619141 2.069617748260498 0.000000000000000
-8.524256706237793 -14.601554870605469 0.646570801734924 0.000000000000000
-8.524156570434570 -14.601384162902832 -0.392540991306305 0.000000000000000
-8.513065338134766 -14.493937492370605 0.707449853420258 0.000000000000000
-8.510543823242188 -22.336032867431641 0.271176487207413 0.000000000000000
-8.471113204956055 -16.094800949096680 0.031744033098221 0.000000000000000
-8.434026718139648 -16.240354537963867 1.016708731651306 0.000000000000000
-8.422076225280762 -15.451028823852539 1.533376693725586 0.000000000000000
-8.411346435546875 -13.465155601501465 1.509152650833130 0.000000000000000
-8.404094696044922 -15.546939849853516 1.539974093437195 0.000000000000000
-8.395678520202637 -12.751597404479980 0.936463177204132 0.000000000000000
-8.391964912414551 -16.935932159423828 2.013270139694214 0.000000000000000
-8.377369880676270 -15.831456184387207 0.409592390060425 0.000000000000000
-8.361373901367188 -16.324800491333008 1.125029325485229 0.000000000000000
-8.341183662414551 -21.643680572509766 0.174082398414612 0.000000000000000
-8.314619064331055 -12.740496635437012 0.962489247322083 0.000000000000000
-8.310236930847168 -13.789091110229492 -0.373786658048630 0.000000000000000
-8.309532165527344 -16.456504821777344 1.849849462509155 0.000000000000000
-8.293700218200684 -16.054309844970703 1.108376622200012 0.000000000000000
-8.270851135253906 -21.416612625122070 1.939958691596985 0.000000000000000
-8.268330574035645 -12.586853981018066 1.156135916709900 0.000000000000000
-8.207200050354004 -17.465717315673828 0.923569440841675 0.000000000000000
-8.181267738342285 -15.413332939147949 1.373348236083984 0.000000000000000
-8.181118965148926 -15.879175186157227 -0.208891600370407 0.000000000000000
-8.152716636657715 -17.508289337158203 1.221863865852356 0.000000000000000
-8.101328849792480 -15.656460762023926 1.877696275711060 0.000000000000000
-8.098975181579590 -20.114370346069336 0.121105685830116 0.000000000000000
-8.087426185607910 -17.169542312622070 1.420370459556580 0.000000000000000
-8.074998855590820 -16.296258926391602 0.870411515235901 0.000000000000000
-8.048059463500977 -21.139968872070312 1.343882560729980 0.000000000000000
-8.041933059692383 -21.347692489624023 1.707250595092773 0.000000000000000
-8.023416519165039 -12.944485664367676 1.139759182929993 0.000000000000000
-8.006965637207031 -15.668554306030273 0.064492568373680 0.000000000000000
-7.980498790740967 13.328097343444824 2.655392885208130 0.000000000000000
-7.939916610717773 -15.420269966125488 1.231089353561401 0.000000000000000
-7.904802322387695 15.535484313964844 3.625638008117676 0.000000000000000
-7.903960227966309 -12.940639495849609 -0.119096562266350 0.000000000000000
-7.898621559143066 13.087492942810059 2.612933397293091 0.000000000000000
-7.892718315124512 -20.858854293823242 0.510001540184021 0.000000000000000
-7.851351737976074 -15.457137107849121 0.329857796430588 0.000000000000000
-7.829618453979492 -20.194326400756836 0.953228831291199 0.000000000000000
-7.766864776611328 -15.139323234558105 1.339139938354492 0.000000000000000
-7.752155303955078 16.553581237792969 2.432427644729614 0.000000000000000
-7.674028396606445 -21.740705490112305 1.369740128517151 1.000000000000000
-7.660693168640137 -21.652349472045898 -0.136294052004814 1.000000000000000
-7.658579349517822 -13.471682548522949 1.404833793640137 0.000000000000000
-7.655315876007080 -19.262397766113281 1.471246600151062 0.000000000000000
-7.597779273986816 -13.468492507934570 2.643261432647705 0.000000000000000
-7.580045700073242 -13.333539009094238 2.621694803237915 0.000000000000000
-7.573336601257324 -14.808516502380371 1.405459761619568 0.000000000000000
-7.272343635559082 -19.102384567260742 1.942934632301331 0.000000000000000
-7.217057704925537 -14.111866950988770 1.094459295272827 0.000000000000000
-6.973993778228760 -18.512796401977539 1.880479097366333 0.000000000000000
-6.938395977020264 -26.759416580200195 3.678716897964478 0.000000000000000
-6.924673557281494 -14.913845062255859 2.188129663467407 0.000000000000000
-6.897551536560059 -14.207468986511230 0.847041308879852 0.000000000000000
-6.850215911865234 -26.044797897338867 3.583741426467896 0.000000000000000
-6.778699874877930 -22.823068618774414 -0.964571118354797 0.000000000000000
-6.757986068725586 -14.422823905944824 2.119536161422729 0.000000000000000
-6.718667030334473 16.323354721069336 3.017307996749878 0.000000000000000
-6.672445774078369 -13.622569084167480 0.580079495906830 0.000000000000000
-6.593752384185791 -16.867727279663086 1.390363574028015 0.000000000000000
-6.591611862182617 -3.299539089202881 -0.100356124341488 0.000000000000000
-6.589280605316162 -16.804363250732422 1.107152223587036 0.000000000000000
-6.557558536529541 19.346794128417969 2.718409299850464 0.000000000000000
-6.457974433898926 21.696018218994141 3.354816913604736 0.000000000000000
-6.438093662261963 22.122579574584961 3.414630174636841 0.000000000000000
-6.306537628173828 -16.109762191772461 0.827961862087250 0.000000000000000
-6.190418720245361 16.370363235473633 2.329009771347046 0.000000000000000
-6.160169601440430 -16.234689712524414 0.831021249294281 0.000000000000000
-6.138441085815430 -13.820909500122070 1.717674136161804 0.000000000000000
-6.049529552459717 -14.988925933837891 1.022597432136536 0.000000000000000
-6.027626991271973 -16.054107666015625 0.820695638656616 0.000000000000000
-5.931343555450439 -21.335666656494141 2.946877956390381 0.000000000000000
-5.927126884460449 -10.740514755249023 -0.119903616607189 0.000000000000000
-5.828922748565674 -15.438840866088867 0.916857361793518 0.000000000000000
-5.749284267425537 17.158906936645508 2.408155918121338 0.000000000000000
-5.681879043579102 -15.097192764282227 0.647887706756592 0.000000000000000
-5.500777244567871 -9.640374183654785 -0.321665257215500 0.000000000000000
-5.493134498596191 -9.009449005126953 -0.001841671415605 0.000000000000000
-5.449165821075439 17.586023330688477 2.728537559509277 0.000000000000000
-5.220397949218750 16.725786209106445 2.331648111343384 0.000000000000000
-5.202081203460693 24.549674987792969 3.339443445205688 0.000000000000000
-5.199611186981201 -9.904216766357422 -1.014080524444580 1.000000000000000
-5.113114833831787 24.552154541015625 3.337332963943481 0.000000000000000
-5.083389282226562 17.060581207275391 3.042918443679810 0.000000000000000
-4.977342128753662 35.201602935791016 3.379411697387695 0.000000000000000
-4.916767120361328 17.162609100341797 2.645854473114014 0.000000000000000
-4.873953819274902 16.135177612304688 3.505896806716919 0.000000000000000
-4.872955322265625 16.148130416870117 2.883190631866455 0.000000000000000
-4.867492198944092 35.313434600830078 3.388496160507202 0.000000000000000
-4.713659763336182 17.660642623901367 2.432427644729614 0.000000000000000
-4.711377143859863 -19.555137634277344 2.676725625991821 0.000000000000000
-4.662702083587646 14.617224693298340 -1.124018669128418 1.000000000000000
-4.653532028198242 14.662686347961426 -1.454161763191223 0.000000000000000
-4.636886596679688 -25.057453155517578 0.240177482366562 1.000000000000000
-4.629603385925293 34.623489379882812 3.043836116790771 0.000000000000000
-4.629339694976807 -25.031316757202148 -0.102186664938927 1.000000000000000
-4.629331111907959 14.600571632385254 -1.477547764778137 1.000000000000000
-4.563058376312256 -25.123851776123047 0.240667566657066 1.000000000000000
-4.549071788787842 -25.086679458618164 -0.102347232401371 1.000000000000000
-4.541480064392090 -25.162361145019531 -0.397204905748367 1.000000000000000
-4.513391017913818 17.449441909790039 -1.320415019989014 1.000000000000000
-4.483630657196045 14.109410285949707 -1.370782136917114 0.000000000000000
-4.458906173706055 17.490419387817383 -1.043907880783081 1.000000000000000
-4.439782619476318 -7.415985107421875 -0.101078093051910 0.000000000000000
-4.398172855377197 17.460845947265625 -1.284386634826660 1.000000000000000
-4.389859676361084 14.818004608154297 -1.132201790809631 1.000000000000000
-4.389480590820312 14.968149185180664 2.075742006301880 0.000000000000000
-4.324903964996338 -26.544229507446289 3.985787630081177 0.000000000000000
-4.311248302459717 17.350799560546875 2.379135847091675 0.000000000000000
-4.294739723205566 -25.819368362426758 3.879061937332153 0.000000000000000
-4.274408817291260 17.992210388183594 2.460920095443726 0.000000000000000
-4.215462207794189 17.542470932006836 -1.043446063995361 1.000000000000000
-4.156300067901611 -22.115047454833984 3.334879159927368 1.000000000000000
-4.153285980224609 17.553192138671875 -1.043215155601501 1.000000000000000
-4.111570358276367 -20.666501998901367 -1.015824317932129 0.000000000000000
-4.080922603607178 17.581188201904297 0.516753613948822 1.000000000000000
-4.048497200012207 -21.458923339843750 3.236363172531128 0.000000000000000
-4.037484169006348 17.560983657836914 -0.176121875643730 1.000000000000000
-4.032435417175293 -2.110884904861450 -0.201907560229301 1.000000000000000
-3.977442502975464 15.601839065551758 -1.179547429084778 1.000000000000000
-3.892678976058960 -17.605272293090820 3.082008123397827 0.000000000000000
-3.886937856674194 17.592430114746094 -0.833889782428741 1.000000000000000
-3.873641490936279 21.977493286132812 3.307318210601807 0.000000000000000
-3.868070840835571 22.017745971679688 2.974843263626099 0.000000000000000
-3.828634738922119 15.240185737609863 -0.908800423145294 1.000000000000000
-3.796115398406982 17.635192871093750 -0.176317349076271 1.000000000000000
-3.787150382995605 22.007667541503906 2.971677303314209 1.000000000000000
-3.785707712173462 17.625717163085938 -1.320707321166992 1.000000000000000
-3.764266014099121 17.620225906372070 -0.279901176691055 1.000000000000000
-3.730476617813110 32.956787109375000 2.482215166091919 0.000000000000000
-3.724839448928833 21.971282958984375 3.809208154678345 1.000000000000000
-3.699934720993042 15.637176513671875 -1.177209377288818 1.000000000000000
-3.698504686355591 17.660589218139648 -1.426408290863037 1.000000000000000
-3.678801298141479 -20.698709487915039 3.593541622161865 0.000000000000000
-3.641517400741577 -7.211795806884766 -0.125505074858665 0.000000000000000
-3.634148359298706 17.726165771484375 -1.220893144607544 1.000000000000000
-3.631005287170410 26.281829833984375 2.311870813369751 0.000000000000000
-3.592745304107666 -19.812843322753906 3.441901206970215 0.000000000000000
-3.566302299499512 32.521549224853516 2.448482275009155 0.000000000000000
-3.562525749206543 17.696855545043945 0.066163890063763 1.000000000000000
-3.562171697616577 17.733486175537109 0.101021930575371 1.000000000000000
-3.559979200363159 26.448364257812500 2.325412988662720 0.000000000000000
-3.544679641723633 15.781631469726562 -1.497644901275635 0.000000000000000
-3.543375015258789 17.697492599487305 0.343402147293091 1.000000000000000
-3.519727706909180 -19.106105804443359 -0.973961830139160 0.000000000000000
-3.512269258499146 17.676713943481445 3.748637676239014 0.000000000000000
-3.483981132507324 15.686703681945801 -1.177209377288818 1.000000000000000
-3.429782867431641 15.191914558410645 -1.140969634056091 0.000000000000000
-3.408698081970215 -19.178977966308594 -0.976565480232239 0.000000000000000
-3.405786037445068 15.201708793640137 -1.472606897354126 0.000000000000000
-3.316011667251587 15.008397102355957 -1.185383200645447 1.000000000000000
-3.315130472183228 15.004408836364746 -1.422781109809875 0.000000000000000
-3.294725656509399 15.690199851989746 -1.236440181732178 1.000000000000000
-3.245648860931396 32.935848236083984 2.732566595077515 0.000000000000000
-3.212096214294434 34.184162139892578 2.304588079452515 0.000000000000000
-3.193490743637085 17.681364059448242 3.737233877182007 0.000000000000000
-3.167775154113770 33.275814056396484 2.759885787963867 0.000000000000000
-3.139222621917725 14.814626693725586 -1.050974249839783 1.000000000000000
-3.136226892471313 23.132181167602539 1.837198257446289 1.000000000000000
-3.119939804077148 21.747669219970703 2.923661947250366 0.000000000000000
-3.084343433380127 19.818359375000000 2.972481489181519 0.000000000000000
-3.035980224609375 19.597629547119141 2.939056396484375 0.000000000000000
-3.030575752258301 -6.167367935180664 -0.410663813352585 1.000000000000000
-3.006143331527710 23.057739257812500 1.919906258583069 0.000000000000000
-2.953993558883667 25.759021759033203 2.090659856796265 0.000000000000000
-2.953547239303589 24.984268188476562 2.857523679733276 0.000000000000000
-2.907172203063965 22.941705703735352 2.096416473388672 0.000000000000000
-2.827878952026367 17.818286895751953 2.208799839019775 0.000000000000000
-2.725282669067383 22.125371932983398 2.020938158035278 0.000000000000000
-2.682005167007446 -18.027498245239258 3.790995121002197 0.000000000000000
-2.590359926223755 -17.839097976684570 3.749452114105225 0.000000000000000
-2.585959434509277 22.411413192749023 1.470759153366089 1.000000000000000
-2.551363468170166 26.166501998901367 1.612607240676880 0.000000000000000
-2.534414768218994 22.282342910766602 1.721650362014771 0.000000000000000
-2.489522218704224 26.841428756713867 2.704885482788086 0.000000000000000
-2.438708782196045 25.948673248291016 1.598648428916931 0.000000000000000
-2.411787986755371 26.003314971923828 1.601832032203674 0.000000000000000
-2.270501136779785 26.892427444458008 1.915594339370728 0.000000000000000
-2.256552219390869 21.585536956787109 1.456741809844971 0.000000000000000
-2.246511459350586 22.780738830566406 1.668977499008179 0.000000000000000
-2.243355751037598 22.208761215209961 1.498263597488403 0.000000000000000
-2.239025115966797 21.188997268676758 3.642066717147827 0.000000000000000
-2.237020015716553 22.684492111206055 2.066441774368286 0.000000000000000
-2.209546089172363 27.306943893432617 2.387220144271851 0.000000000000000
-2.203260183334351 21.570854187011719 1.965683937072754 0.000000000000000
-2.188208341598511 -3.784898757934570 -0.025943817570806 1.000000000000000
-2.182921171188354 21.430917739868164 1.529020309448242 0.000000000000000
-2.159899950027466 26.693384170532227 1.900867700576782 0.000000000000000
-2.154054880142212 -3.758453369140625 -0.017389716580510 0.000000000000000
-2.153750181198120 23.124540328979492 2.473797082901001 0.000000000000000
-2.153280258178711 26.519617080688477 2.412052631378174 0.000000000000000
-2.142176628112793 -16.355266571044922 3.430956602096558 0.000000000000000
-2.136504650115967 18.783952713012695 1.896974205970764 0.000000000000000
-2.109715223312378 22.047365188598633 1.929915547370911 0.000000000000000
-2.013817071914673 25.923273086547852 2.357159376144409 0.000000000000000
-2.011946439743042 19.330619812011719 2.207470893859863 0.000000000000000
-2.008802890777588 18.667289733886719 1.513903856277466 0.000000000000000
-2.007067918777466 18.918041229248047 2.819430112838745 0.000000000000000
-1.996801972389221 22.281530380249023 1.760622262954712 0.000000000000000
-1.984708905220032 19.208915710449219 1.482523679733276 0.000000000000000
-1.962675333023071 26.460882186889648 1.934536337852478 0.000000000000000
-1.958626031875610 22.532121658325195 0.821425735950470 1.000000000000000
-1.950488090515137 22.653875350952148 1.789495229721069 0.000000000000000
-1.948895931243896 29.584156036376953 1.818560481071472 0.000000000000000
-1.947804331779480 18.613384246826172 2.490468263626099 0.000000000000000
-1.936712622642517 17.903377532958984 1.521655082702637 0.000000000000000
-1.897010922431946 18.495895385742188 2.755512237548828 0.000000000000000
-1.895232796669006 26.446346282958984 1.626321077346802 0.000000000000000
-1.880483508110046 18.843305587768555 1.900169253349304 0.000000000000000
-1.873659610748291 26.145311355590820 1.204049706459045 0.000000000000000
-1.851421356201172 22.418708801269531 1.423150539398193 0.000000000000000
-1.849272489547729 29.994735717773438 0.860416471958160 0.000000000000000
-1.840735316276550 29.595558166503906 2.276448726654053 0.000000000000000
-1.833976268768311 30.105899810791016 2.628199100494385 0.000000000000000
-1.806134939193726 -2.697158098220825 -0.112787030637264 1.000000000000000
-1.780256509780884 25.497190475463867 1.370818734169006 0.000000000000000
-1.767294645309448 29.078407287597656 0.834086537361145 0.000000000000000
-1.728711605072021 18.748756408691406 0.539076745510101 1.000000000000000
-1.714118242263794 25.848293304443359 0.990644395351410 0.000000000000000
-1.606940627098083 29.499666213989258 1.300225257873535 0.000000000000000
-1.518611431121826 18.598457336425781 0.534268736839294 1.000000000000000
-1.518405079841614 18.397884368896484 0.528544783592224 1.000000000000000
-1.458309054374695 19.091762542724609 0.695409893989563 0.000000000000000
-1.450339913368225 19.902067184448242 0.724736154079437 0.000000000000000
-1.360913872718811 23.609775543212891 0.722541272640228 0.000000000000000
-1.354496121406555 18.767477035522461 0.538733363151550 0.000000000000000
-1.344813942909241 22.960767745971680 2.612399578094482 0.000000000000000
-1.307612419128418 23.904836654663086 2.550057172775269 0.000000000000000
-1.246524333953857 22.635942459106445 2.574931383132935 0.000000000000000
-1.238843679428101 24.278894424438477 2.589458465576172 0.000000000000000
-1.233030676841736 22.774597167968750 1.047670125961304 0.000000000000000
-1.214499354362488 30.251596450805664 3.037954330444336 0.000000000000000
-1.196934342384338 -16.023450851440430 3.342168569564819 0.000000000000000
-1.137616753578186 36.980693817138672 1.841878652572632 0.000000000000000
-1.115489482879639 36.261398315429688 1.247856736183167 0.000000000000000
-1.107078194618225 18.105720520019531 0.554212987422943 0.000000000000000
-1.102397918701172 26.647083282470703 1.635871887207031 0.000000000000000
-1.066556692123413 19.112686157226562 1.321782946586609 0.000000000000000
-1.059257745742798 29.420213699340820 2.668823003768921 0.000000000000000
-1.054181337356567 15.197438240051270 0.553279101848602 0.000000000000000
-1.047018527984619 17.138204574584961 0.689624726772308 0.000000000000000
-1.045031666755676 26.030376434326172 1.999968171119690 0.000000000000000
-0.990124642848969 18.930568695068359 1.601813077926636 0.000000000000000
-0.984889388084412 30.295539855957031 2.209984540939331 0.000000000000000
-0.978977203369141 18.361114501953125 1.340592026710510 0.000000000000000
-0.973094046115875 18.604953765869141 0.712450802326202 0.000000000000000
-0.964300155639648 19.356554031372070 1.413017153739929 0.000000000000000
-0.957657277584076 15.070314407348633 0.838973343372345 0.000000000000000
-0.942283987998962 18.607465744018555 0.569237947463989 0.000000000000000
-0.937687993049622 31.027774810791016 1.963872075080872 0.000000000000000
-0.892878532409668 18.574985504150391 2.112220287322998 0.000000000000000
-0.892552971839905 23.191568374633789 1.602561831474304 0.000000000000000
-0.881920933723450 18.071001052856445 2.407628536224365 0.000000000000000
-0.861396014690399 17.388643264770508 0.699256420135498 0.000000000000000
-0.852315843105316 19.122886657714844 1.543481111526489 0.000000000000000
-0.844120860099792 29.092407226562500 2.638487339019775 0.000000000000000
-0.840706825256348 24.026742935180664 1.289413571357727 0.000000000000000
-0.832123696804047 18.899717330932617 0.614354133605957 0.000000000000000
-0.794046342372894 17.078416824340820 0.719560265541077 0.000000000000000
-0.792430162429810 25.159584045410156 1.738129258155823 0.000000000000000
-0.791329920291901 18.404428482055664 0.492034345865250 0.000000000000000
-0.767105221748352 18.676572799682617 1.218606591224670 0.000000000000000
-0.752675950527191 15.511510848999023 0.564022421836853 0.000000000000000
-0.746456563472748 27.373752593994141 3.110321998596191 0.000000000000000
-0.734379470348358 18.040847778320312 -1.079036474227905 1.000000000000000
-0.717037081718445 18.025276184082031 -1.147595643997192 1.000000000000000
-0.711286425590515 27.868904113769531 1.602552413940430 0.000000000000000
-0.705397963523865 21.031105041503906 1.656114816665649 0.000000000000000
