# This PCD file was generated using the MATLAB® pcwrite function
# from Computer Vision Toolbox®.
# .PCD v.7 - Point Cloud Data file format
VERSION .7
FIELDS x y z intensity
SIZE 8 8 8 8
TYPE F F F F
COUNT 1 1 1 1
WIDTH 652
HEIGHT 1
VIEWPOINT 0 0 0 1 0 0 0
POINTS 652
DATA ascii
2.111891984939575 16.021997451782227 1.721362829208374 0.000000000000000
2.138279199600220 -3.102043867111206 -0.553128004074097 1.000000000000000
2.142625093460083 28.370265960693359 3.030496597290039 0.000000000000000
2.144331216812134 14.873276710510254 1.309412002563477 0.000000000000000
2.214625120162964 24.268989562988281 3.611661911010742 0.000000000000000
2.218127250671387 34.412662506103516 2.780580520629883 0.000000000000000
2.255660295486450 24.959318161010742 2.183742284774780 0.000000000000000
2.263947725296021 14.888801574707031 -0.349647462368011 1.000000000000000
2.285751819610596 28.920608520507812 1.388413548469543 0.000000000000000
2.293552637100220 29.019309997558594 1.841635107994080 0.000000000000000
2.303759098052979 24.499107360839844 1.841585755348206 0.000000000000000
2.315954685211182 30.438726425170898 3.063114404678345 0.000000000000000
2.340081214904785 26.122295379638672 2.064101934432983 0.000000000000000
2.340731143951416 27.427307128906250 3.126573324203491 0.000000000000000
2.388679265975952 24.484867095947266 2.338486194610596 0.000000000000000
2.392803430557251 35.892852783203125 1.998580455780029 0.000000000000000
2.405117511749268 30.216215133666992 3.041548490524292 0.000000000000000
2.428262233734131 6.994239807128906 -0.058150283992290 1.000000000000000
2.434216737747192 29.488101959228516 0.960869610309601 1.000000000000000
2.460731744766235 18.330049514770508 0.707253754138947 0.000000000000000
2.486544609069824 27.982563018798828 2.265229701995850 0.000000000000000
2.503017187118530 39.873424530029297 3.797674655914307 0.000000000000000
2.507821559906006 35.737983703613281 2.542891740798950 0.000000000000000
2.530627727508545 26.085927963256836 2.629805326461792 0.000000000000000
2.535669565200806 6.869916915893555 -0.437627792358398 0.000000000000000
2.540207862854004 10.755065917968750 -0.150452524423599 0.000000000000000
2.552633047103882 6.796205997467041 -0.057019323110580 0.000000000000000
2.569452524185181 25.419301986694336 2.428573608398438 0.000000000000000
2.584822177886963 3.089001893997192 -0.039368420839310 0.000000000000000
2.586292266845703 29.513988494873047 1.703099250793457 0.000000000000000
2.612365007400513 3.144153833389282 -0.039954841136932 0.000000000000000
2.614516973495483 15.044091224670410 -0.442521482706070 1.000000000000000
2.628069639205933 -2.424093723297119 -0.069274067878723 1.000000000000000
2.665159463882446 17.398628234863281 1.385273814201355 0.000000000000000
2.673324346542358 26.446895599365234 1.989354491233826 0.000000000000000
2.747236013412476 22.093824386596680 0.423602879047394 0.000000000000000
2.749727964401245 17.541347503662109 1.891253590583801 0.000000000000000
2.791178464889526 18.447093963623047 1.324263572692871 0.000000000000000
2.801359653472900 23.890092849731445 0.827366769313812 0.000000000000000
2.804539680480957 27.832506179809570 1.123529791831970 0.000000000000000
2.813350915908813 24.174709320068359 1.211610436439514 0.000000000000000
2.831826448440552 22.454101562500000 0.952517390251160 0.000000000000000
2.863402128219604 23.551607131958008 1.044154882431030 0.000000000000000
2.900850772857666 22.713970184326172 0.787627875804901 0.000000000000000
2.904648780822754 16.483222961425781 2.480488538742065 0.000000000000000
2.910883426666260 3.946640729904175 -0.000855909485836 0.000000000000000
2.911204814910889 25.962162017822266 1.501775979995728 0.000000000000000
2.911414384841919 39.570331573486328 3.596952199935913 0.000000000000000
2.922872781753540 21.167068481445312 1.434239745140076 0.000000000000000
2.927276134490967 24.034961700439453 0.600199162960052 0.000000000000000
2.931972980499268 21.794185638427734 1.476029276847839 0.000000000000000
2.938377618789673 21.841793060302734 1.139564394950867 0.000000000000000
2.946712017059326 4.024553775787354 -0.000870570249390 0.000000000000000
2.967862844467163 24.122518539428711 0.976165771484375 0.000000000000000
2.986397743225098 19.304349899291992 1.702131509780884 0.000000000000000
2.988548278808594 24.438533782958984 1.462732553482056 0.000000000000000
3.001806020736694 25.951839447021484 2.368354558944702 0.000000000000000
3.028739690780640 23.571207046508789 1.045913696289062 0.000000000000000
3.034079551696777 -1.973517656326294 -0.063177712261677 1.000000000000000
3.042032718658447 17.527616500854492 1.228373527526855 0.000000000000000
3.062715053558350 16.783126831054688 1.276781082153320 0.000000000000000
3.071132183074951 -1.982928752899170 -0.049769669771194 1.000000000000000
3.079464912414551 21.359449386596680 3.198247194290161 0.000000000000000
3.148995399475098 17.252517700195312 1.528168082237244 0.000000000000000
3.154948711395264 19.699268341064453 1.570123553276062 0.000000000000000
3.168953657150269 -6.497893333435059 -0.571509003639221 1.000000000000000
3.170134067535400 30.171966552734375 0.344189047813416 0.000000000000000
3.171318292617798 17.710582733154297 1.068938136100769 0.000000000000000
3.205433368682861 18.469099044799805 1.583962798118591 0.000000000000000
3.239465236663818 -6.497928619384766 -0.405934005975723 1.000000000000000
3.256963968276978 27.501483917236328 1.112292766571045 0.000000000000000
3.278659820556641 24.220838546752930 2.603439569473267 0.000000000000000
3.280848026275635 26.898809432983398 1.088374257087708 0.000000000000000
3.291357755661011 17.972101211547852 3.123119354248047 0.000000000000000
3.291365385055542 21.882003784179688 1.928179502487183 0.000000000000000
3.301233291625977 30.319454193115234 0.287451475858688 0.000000000000000
3.301817178726196 21.442314147949219 3.215252876281738 0.000000000000000
3.319020509719849 15.195647239685059 1.560710668563843 0.000000000000000
3.337429761886597 -6.680411815643311 -0.850835382938385 1.000000000000000
3.338808774948120 20.391153335571289 1.307227611541748 0.000000000000000
3.345937252044678 2.795751810073853 -0.260572254657745 0.000000000000000
3.371830940246582 28.019124984741211 3.455138444900513 0.000000000000000
3.377693891525269 28.125772476196289 1.846775770187378 0.000000000000000
3.383927583694458 21.889186859130859 1.614876747131348 0.000000000000000
3.398678064346313 24.464675903320312 1.943902730941772 0.000000000000000
3.443971633911133 17.129566192626953 1.583959102630615 0.000000000000000
3.456438064575195 15.564006805419922 0.732341229915619 0.000000000000000
3.475075244903564 11.000116348266602 -0.024160921573639 0.000000000000000
3.514130115509033 29.090314865112305 1.910269379615784 0.000000000000000
3.517321348190308 17.183790206909180 1.590098500251770 0.000000000000000
3.545960187911987 -1.429926037788391 -0.066738002002239 1.000000000000000
3.572618722915649 18.211492538452148 1.460594654083252 0.000000000000000
3.572837114334106 5.918319225311279 -0.733921766281128 1.000000000000000
3.589891672134399 15.982922554016113 -0.474734365940094 0.000000000000000
3.595695018768311 -1.445605993270874 -0.067645527422428 1.000000000000000
3.613735675811768 15.503359794616699 -0.736796796321869 1.000000000000000
3.625455141067505 27.309740066528320 1.212464928627014 0.000000000000000
3.627079010009766 28.072744369506836 1.681691646575928 0.000000000000000
3.641334295272827 34.322154998779297 1.319891095161438 0.000000000000000
3.646783351898193 28.899700164794922 2.405066728591919 0.000000000000000
3.661641836166382 16.898672103881836 1.193930625915527 0.000000000000000
3.662221670150757 16.620790481567383 1.175193667411804 0.000000000000000
3.687226533889771 34.754722595214844 1.874459028244019 0.000000000000000
3.707548856735229 15.867027282714844 1.219464659690857 0.000000000000000
3.721694707870483 19.898241043090820 1.763938784599304 0.000000000000000
3.758466720581055 18.041091918945312 1.670632719993591 0.000000000000000
3.770988702774048 19.501808166503906 2.943747997283936 0.000000000000000
3.796890258789062 20.331691741943359 1.875037789344788 0.000000000000000
3.820379734039307 20.860767364501953 1.546232938766479 0.000000000000000
3.830137729644775 31.248115539550781 0.357167035341263 0.000000000000000
3.906061887741089 35.150035858154297 3.548739671707153 0.000000000000000
3.906831979751587 19.818096160888672 1.511718273162842 0.000000000000000
3.910085916519165 33.804290771484375 2.481069803237915 0.000000000000000
3.945929288864136 14.620213508605957 0.375384688377380 0.000000000000000
3.950896978378296 20.355960845947266 1.471812963485718 0.000000000000000
3.951779127120972 20.046096801757812 1.942177534103394 0.000000000000000
3.952069997787476 30.173629760742188 1.573536634445190 0.000000000000000
3.952463150024414 15.458794593811035 1.516722917556763 0.000000000000000
3.976201295852661 35.889614105224609 1.033850550651550 0.000000000000000
3.982264757156372 33.406185150146484 2.452856063842773 0.000000000000000
3.995461702346802 20.956853866577148 1.514293670654297 0.000000000000000
4.004459381103516 36.035499572753906 2.783482789993286 0.000000000000000
4.031906604766846 36.104686737060547 1.040146827697754 0.000000000000000
4.056229591369629 32.742465972900391 0.691099882125854 0.000000000000000
4.070649623870850 18.853023529052734 1.369009852409363 0.000000000000000
4.082005023956299 22.342094421386719 3.365958452224731 0.000000000000000
4.086705207824707 33.341316223144531 2.449074506759644 0.000000000000000
4.095390796661377 5.047293663024902 -0.051050361245871 0.000000000000000
4.098174095153809 23.356296539306641 2.254076719284058 0.000000000000000
4.111371040344238 23.431509017944336 1.780388593673706 0.000000000000000
4.155471801757812 32.537784576416016 0.624104738235474 1.000000000000000
4.156033515930176 31.090158462524414 1.259817361831665 0.000000000000000
4.165953159332275 32.381351470947266 0.495780795812607 1.000000000000000
4.170091629028320 21.485303878784180 1.215967774391174 0.000000000000000
4.172626018524170 15.821842193603516 0.657198309898376 0.000000000000000
4.178082466125488 22.424957275390625 3.380618810653687 0.000000000000000
4.180639743804932 15.032108306884766 0.206973239779472 0.000000000000000
4.210670471191406 19.176773071289062 1.710812091827393 0.000000000000000
4.213451862335205 19.189441680908203 1.394498229026794 0.000000000000000
4.215157032012939 17.458026885986328 -0.106576159596443 0.000000000000000
4.220379352569580 32.433109283447266 0.308261066675186 1.000000000000000
4.239639282226562 32.069236755371094 0.491225689649582 1.000000000000000
4.267849445343018 25.292102813720703 1.474458456039429 0.000000000000000
4.283915042877197 32.347541809082031 0.808856427669525 1.000000000000000
4.297479152679443 18.075326919555664 0.175109788775444 0.000000000000000
4.319416046142578 17.933734893798828 -0.889279663562775 1.000000000000000
4.330437660217285 23.474689483642578 1.970923900604248 0.000000000000000
4.348316669464111 17.660573959350586 0.380984514951706 0.000000000000000
4.362868785858154 -2.914514780044556 -0.111737303435802 1.000000000000000
4.372071743011475 31.900360107421875 0.303473353385925 1.000000000000000
4.379794120788574 17.532495498657227 0.413250297307968 0.000000000000000
4.388921260833740 31.504087448120117 0.483026444911957 1.000000000000000
4.390076637268066 27.171266555786133 1.158394455909729 0.000000000000000
4.401663303375244 19.105272293090820 1.089267492294312 0.000000000000000
4.403281688690186 27.252996444702148 1.586942315101624 0.000000000000000
4.415036678314209 29.619564056396484 2.414723157882690 0.000000000000000
4.415375709533691 20.682195663452148 1.297187685966492 0.000000000000000
4.416120529174805 4.093530654907227 -0.278703004121780 0.000000000000000
4.417900085449219 -7.724089622497559 -0.979235589504242 1.000000000000000
4.422307014465332 23.222232818603516 1.951833367347717 0.000000000000000
4.435103893280029 17.753902435302734 0.137338683009148 0.000000000000000
4.441522121429443 21.407775878906250 1.678479075431824 0.000000000000000
4.444061279296875 18.995067596435547 1.768501639366150 0.000000000000000
4.456708431243896 14.458014488220215 0.898847520351410 0.000000000000000
4.460225105285645 4.163448333740234 -0.282401800155640 0.000000000000000
4.460755348205566 15.260522842407227 0.394119232892990 0.000000000000000
4.466334819793701 29.262786865234375 3.362217426300049 0.000000000000000
4.467469692230225 15.848942756652832 0.218433424830437 0.000000000000000
4.473114967346191 31.025934219360352 1.259014606475830 0.000000000000000
4.478309631347656 16.667896270751953 -0.765617907047272 0.000000000000000
4.482021331787109 27.916681289672852 1.298758506774902 0.000000000000000
4.485403537750244 18.035551071166992 -1.003271222114563 1.000000000000000
4.487703800201416 -7.836288452148438 -0.417962044477463 1.000000000000000
4.492440223693848 29.147275924682617 1.297938942909241 0.000000000000000
4.497960090637207 31.470420837402344 0.788040220737457 1.000000000000000
4.519022941589355 -7.814887046813965 -0.975907623767853 1.000000000000000
4.520415782928467 18.087392807006836 0.104127205908298 0.000000000000000
4.556826591491699 32.472805023193359 1.380082130432129 0.000000000000000
4.559977531433105 4.015356063842773 -0.036055497825146 0.000000000000000
4.567687511444092 28.012701034545898 1.740930080413818 0.000000000000000
4.603205204010010 19.980058670043945 0.823504388332367 0.000000000000000
4.617707729339600 31.256008148193359 1.755386948585510 0.000000000000000
4.629837036132812 15.057017326354980 0.693289339542389 0.000000000000000
4.638633251190186 30.912307739257812 0.774856626987457 1.000000000000000
4.651293277740479 30.740722656250000 0.293030858039856 1.000000000000000
4.662139892578125 25.307529449462891 1.677633404731750 0.000000000000000
4.672707557678223 25.897233963012695 1.310058712959290 0.000000000000000
4.673866748809814 26.033565521240234 1.928428053855896 0.000000000000000
4.673979759216309 34.156379699707031 2.846451282501221 0.000000000000000
4.703073978424072 -6.610780715942383 -1.191084504127502 1.000000000000000
4.703506946563721 30.651699066162109 0.768710970878601 1.000000000000000
4.710210800170898 19.820466995239258 1.846868872642517 0.000000000000000
4.723352909088135 33.642440795898438 2.804978847503662 0.000000000000000
4.728191852569580 30.325134277343750 0.171415582299232 1.000000000000000
4.730321884155273 30.134998321533203 -0.005323952529579 1.000000000000000
4.751999855041504 30.023370742797852 -0.647343933582306 1.000000000000000
4.785344123840332 15.305627822875977 1.963323593139648 0.000000000000000
4.789896965026855 30.031946182250977 0.169851765036583 1.000000000000000
4.791739463806152 29.845790863037109 -0.005275781266391 1.000000000000000
4.800323963165283 21.173179626464844 1.206204533576965 0.000000000000000
4.806470870971680 29.967617034912109 1.335751533508301 0.000000000000000
4.808489322662354 21.330005645751953 0.542013108730316 0.000000000000000
4.810055255889893 20.978267669677734 0.864438831806183 0.000000000000000
4.812676429748535 15.151314735412598 1.946310400962830 0.000000000000000
4.813523292541504 23.906873703002930 1.730945110321045 0.000000000000000
4.816312789916992 23.086589813232422 1.310271739959717 0.000000000000000
4.838055133819580 15.188023567199707 0.027820535004139 0.000000000000000
4.838279247283936 6.775763511657715 -0.754782199859619 1.000000000000000
4.855911731719971 19.586629867553711 2.990660190582275 0.000000000000000
4.862239837646484 29.763626098632812 1.037336707115173 0.000000000000000
4.882250308990479 14.886240959167480 0.418448120355606 0.000000000000000
4.887427806854248 19.054630279541016 0.147635325789452 0.000000000000000
4.899364948272705 23.081359863281250 1.310937523841858 0.000000000000000
4.907313823699951 23.940538406372070 1.357756733894348 0.000000000000000
4.923890113830566 4.723824977874756 -0.342078298330307 0.000000000000000
4.928563117980957 4.185350894927979 -0.361500084400177 0.000000000000000
4.932874202728271 22.115533828735352 1.608317613601685 0.000000000000000
4.934905529022217 20.439027786254883 3.116150379180908 0.000000000000000
4.938172817230225 15.603011131286621 2.003669261932373 0.000000000000000
4.990310668945312 19.683967590332031 0.464369326829910 0.000000000000000
5.008230209350586 32.648918151855469 2.535783290863037 0.000000000000000
5.009846687316895 29.070507049560547 2.674240112304688 0.000000000000000
5.012191772460938 14.546565055847168 0.558795988559723 0.000000000000000
5.019826412200928 21.974071502685547 1.469457983970642 0.000000000000000
5.022144317626953 21.600158691406250 0.720165371894836 0.000000000000000
5.030456066131592 32.793811798095703 3.329089879989624 1.000000000000000
5.064429283142090 14.552880287170410 0.767101347446442 0.000000000000000
5.073064327239990 15.482622146606445 1.345218062400818 0.000000000000000
5.078341484069824 7.834319114685059 -0.665957212448120 1.000000000000000
5.097027778625488 30.862245559692383 1.316502451896667 0.000000000000000
5.097795486450195 22.727952957153320 0.845961034297943 0.000000000000000
5.109670639038086 7.192930698394775 -0.663411796092987 0.000000000000000
5.110612869262695 16.089281082153320 0.872901797294617 0.000000000000000
5.112243175506592 21.987672805786133 1.080365777015686 0.000000000000000
5.122615814208984 31.705131530761719 2.911509037017822 0.000000000000000
5.123157978057861 20.037591934204102 1.547839641571045 0.000000000000000
5.140952110290527 22.576925277709961 1.509531736373901 0.000000000000000
5.148149013519287 15.833083152770996 0.604672670364380 0.000000000000000
5.157447814941406 32.607021331787109 2.406899452209473 0.000000000000000
5.192748069763184 29.515800476074219 2.716854572296143 0.000000000000000
5.193388938903809 10.380467414855957 -0.336381226778030 0.000000000000000
5.206869602203369 4.279709339141846 -0.014116211794317 0.000000000000000
5.211645603179932 15.840160369873047 2.041584491729736 0.000000000000000
5.215174674987793 -0.194329932332039 -0.513546526432037 1.000000000000000
5.231814384460449 22.950052261352539 0.493068337440491 0.000000000000000
5.235035419464111 4.333569526672363 -0.014233497902751 0.000000000000000
5.235774040222168 27.016281127929688 2.006379604339600 0.000000000000000
5.255779743194580 14.934574127197266 0.788183212280273 0.000000000000000
5.269799232482910 29.953763961791992 1.748322486877441 0.000000000000000
5.278918266296387 26.738893508911133 1.566741228103638 0.000000000000000
5.289225101470947 20.390245437622070 1.576497673988342 0.000000000000000
5.325059413909912 20.478384017944336 0.158802539110184 0.000000000000000
5.325550079345703 15.654458045959473 0.823187112808228 0.000000000000000
5.337919235229492 30.547105789184570 1.364770412445068 0.000000000000000
5.339211463928223 14.215275764465332 0.580690979957581 0.000000000000000
5.344966411590576 -0.069408960640430 -0.609033286571503 1.000000000000000
5.390707492828369 31.946378707885742 2.362106323242188 0.000000000000000
5.405888557434082 4.646186828613281 -0.233974575996399 0.000000000000000
5.411729812622070 19.682077407836914 1.134089589118958 0.000000000000000
5.440162658691406 38.767623901367188 3.548920869827271 0.000000000000000
5.445818901062012 32.974159240722656 1.921180486679077 0.000000000000000
5.450749874114990 15.976720809936523 0.321183353662491 0.000000000000000
5.458528041839600 27.824953079223633 1.793902158737183 0.000000000000000
5.460402488708496 10.895142555236816 -0.353182882070541 0.000000000000000
5.466410160064697 29.496992111206055 2.360991239547729 0.000000000000000
5.519789695739746 0.118131481111050 -0.457793921232224 1.000000000000000
5.521672725677490 21.770324707031250 0.125439658761024 0.000000000000000
5.524311065673828 15.829833984375000 0.576695442199707 0.000000000000000
5.541522979736328 16.281854629516602 1.187593102455139 0.000000000000000
5.541723251342773 14.475939750671387 1.405194997787476 0.000000000000000
5.542278289794922 24.477474212646484 2.275180578231812 0.000000000000000
5.542864322662354 20.159002304077148 0.839717686176300 0.000000000000000
5.546616554260254 16.257715225219727 0.590858459472656 0.000000000000000
5.564592838287354 25.523675918579102 2.055942296981812 0.000000000000000
5.575016498565674 14.925354957580566 0.701203584671021 0.000000000000000
5.577981948852539 16.538349151611328 0.600346267223358 0.000000000000000
5.595854282379150 14.928659439086914 0.180875092744827 0.000000000000000
5.597026348114014 14.931786537170410 0.425924241542816 0.000000000000000
5.606653213500977 36.733989715576172 2.996301651000977 0.000000000000000
5.614427566528320 21.816200256347656 0.471874624490738 0.000000000000000
5.619205951690674 16.323057174682617 0.925875663757324 0.000000000000000
5.623645305633545 22.940334320068359 1.312268853187561 0.000000000000000
5.629544734954834 11.840325355529785 -0.379949688911438 0.000000000000000
5.648132801055908 24.527267456054688 1.835060834884644 0.000000000000000
5.667060375213623 26.894470214843750 1.738844990730286 0.000000000000000
5.669368267059326 26.447534561157227 2.128752470016479 0.000000000000000
5.697199344635010 28.514280319213867 1.839614748954773 0.000000000000000
5.697646141052246 30.156869888305664 3.269021749496460 0.000000000000000
5.706608772277832 18.133241653442383 1.202669501304626 0.000000000000000
5.715112686157227 22.746097564697266 0.941973507404327 0.000000000000000
5.751155376434326 17.889158248901367 0.971635043621063 0.000000000000000
5.774677276611328 11.962004661560059 -0.589236795902252 0.000000000000000
5.782672405242920 15.783123016357422 0.481265395879745 0.000000000000000
5.782688617706299 26.406652450561523 2.023087501525879 0.000000000000000
5.801264286041260 18.281255722045898 1.620673894882202 0.000000000000000
5.811273574829102 25.395780563354492 0.445646017789841 0.000000000000000
5.823086738586426 23.066789627075195 2.156726837158203 0.000000000000000
5.825935363769531 23.429290771484375 1.341336607933044 0.000000000000000
5.848081588745117 20.351795196533203 0.443560451269150 0.000000000000000
5.852990150451660 20.640020370483398 0.779178440570831 0.000000000000000
5.863163471221924 29.162101745605469 1.251913666725159 0.000000000000000
5.863695144653320 18.862100601196289 1.249644994735718 0.000000000000000
5.883918762207031 14.550041198730469 0.539844095706940 0.000000000000000
5.884018421173096 28.705434799194336 2.079852819442749 0.000000000000000
5.893383026123047 20.242944717407227 0.441633760929108 0.000000000000000
5.902931690216064 17.000579833984375 1.312087416648865 0.000000000000000
5.906705856323242 7.824813365936279 -0.039355676621199 0.000000000000000
5.923209190368652 20.887639999389648 0.454785615205765 0.000000000000000
5.925262451171875 18.624643325805664 0.371860474348068 0.000000000000000
5.940718650817871 21.314615249633789 0.208548396825790 0.000000000000000
5.948933124542236 21.260852813720703 0.801826477050781 0.000000000000000
5.949090957641602 4.798772811889648 -0.104058906435966 0.000000000000000
5.954252719879150 18.993087768554688 2.648760795593262 0.000000000000000
5.962727546691895 23.972259521484375 2.239427804946899 0.000000000000000
5.976134300231934 17.407253265380859 1.668465852737427 0.000000000000000
5.986947059631348 29.429367065429688 0.975280702114105 0.000000000000000
6.010662078857422 23.134874343872070 0.225286558270454 0.000000000000000
6.020845890045166 19.028518676757812 0.839991569519043 0.000000000000000
6.021152973175049 30.656047821044922 1.374971032142639 0.000000000000000
6.056553840637207 26.049137115478516 0.046677064150572 0.000000000000000
6.062688827514648 4.925428867340088 -0.106345914304256 0.000000000000000
6.065312385559082 0.603474497795105 -1.112752556800842 1.000000000000000
6.066147804260254 14.704474449157715 0.547131836414337 0.000000000000000
6.067131519317627 19.067117691040039 1.536105275154114 0.000000000000000
6.088013172149658 19.009811401367188 0.533152878284454 0.000000000000000
6.096956253051758 0.642107963562012 -1.119217872619629 1.000000000000000
6.116699218750000 22.245998382568359 -0.136911198496819 0.000000000000000
6.121917247772217 16.832630157470703 0.409592390060425 0.000000000000000
6.208674430847168 21.894308090209961 1.176744341850281 0.000000000000000
6.210345268249512 26.263437271118164 0.668991625308990 0.000000000000000
6.218225479125977 31.624475479125977 1.294491171836853 0.000000000000000
6.233066082000732 15.085929870605469 -0.975475728511810 0.000000000000000
6.241556167602539 14.871324539184570 0.802900731563568 0.000000000000000
6.243163585662842 25.996639251708984 0.662746787071228 0.000000000000000
6.246267795562744 21.192962646484375 1.482994318008423 0.000000000000000
6.256155490875244 25.974861145019531 0.354417115449905 0.000000000000000
6.266644954681396 19.598197937011719 1.222423076629639 0.000000000000000
6.287072658538818 6.895128726959229 -0.127037897706032 0.000000000000000
6.295251369476318 18.496427536010742 1.650985717773438 0.000000000000000
6.300749778747559 14.895643234252930 2.764574050903320 0.000000000000000
6.369187355041504 12.421878814697266 -0.109640464186668 0.000000000000000
6.371577739715576 21.343120574951172 1.495048999786377 0.000000000000000
6.377441883087158 30.738750457763672 0.959153711795807 0.000000000000000
6.378864288330078 25.161031723022461 0.992631494998932 0.000000000000000
6.380075931549072 12.128587722778320 -0.318173587322235 0.000000000000000
6.392387390136719 26.139352798461914 0.356963813304901 0.000000000000000
6.395835399627686 14.260663986206055 -0.843713760375977 0.000000000000000
6.419672966003418 5.185763835906982 -0.239163234829903 0.000000000000000
6.432415485382080 15.002168655395508 1.316186547279358 0.000000000000000
6.450636863708496 14.264014244079590 -0.814953982830048 0.000000000000000
6.451001644134521 19.856523513793945 1.039375662803650 0.000000000000000
6.451450824737549 33.370162963867188 2.019263505935669 0.000000000000000
6.456216812133789 30.990617752075195 1.332313299179077 0.000000000000000
6.459555625915527 15.123750686645508 2.811076879501343 0.000000000000000
6.475521087646484 13.995717048645020 0.975622117519379 0.000000000000000
6.475598335266113 34.134021759033203 2.600131511688232 0.000000000000000
6.480270385742188 17.157680511474609 0.842467725276947 0.000000000000000
6.489397525787354 -0.258597165346146 -1.057006120681763 1.000000000000000
6.493542671203613 8.683573722839355 -0.147620990872383 0.000000000000000
6.503606319427490 20.198223114013672 0.729875802993774 0.000000000000000
6.509666919708252 19.227569580078125 0.815317571163177 0.000000000000000
6.511837482452393 17.270433425903320 0.315728634595871 0.000000000000000
6.515240192413330 12.491162300109863 -0.327086567878723 0.000000000000000
6.525429725646973 16.405178070068359 1.771574378013611 0.000000000000000
6.532183647155762 19.677757263183594 0.513960838317871 0.000000000000000
6.550800800323486 17.350860595703125 0.459739655256271 0.000000000000000
6.555646419525146 15.438159942626953 1.093441128730774 0.000000000000000
6.559921264648438 30.274387359619141 -1.195428609848022 1.000000000000000
6.571870803833008 16.469182968139648 -0.923087656497955 0.000000000000000
6.576523303985596 14.145937919616699 0.866709828376770 0.000000000000000
6.586936473846436 18.874773025512695 1.611958861351013 0.000000000000000
6.588906764984131 -13.631019592285156 3.149116277694702 0.000000000000000
6.606040477752686 20.413721084594727 1.605752944946289 0.000000000000000
6.607865333557129 5.237709522247314 -0.033848129212856 0.000000000000000
6.611102581024170 30.267961502075195 0.946571826934814 0.000000000000000
6.615254878997803 1.171688199043274 -0.362669706344604 1.000000000000000
6.617715835571289 18.752344131469727 1.296412229537964 0.000000000000000
6.621619701385498 17.117607116699219 1.055053830146790 0.000000000000000
6.624561309814453 28.753686904907227 0.731440067291260 0.000000000000000
6.627972126007080 5.639253139495850 -0.168613389134407 0.000000000000000
6.634311676025391 21.943449020385742 1.538713693618774 0.000000000000000
6.657597064971924 30.215139389038086 0.707527697086334 1.000000000000000
6.670026779174805 29.420030593872070 0.284322500228882 0.000000000000000
6.680290222167969 26.611078262329102 0.785547852516174 0.000000000000000
6.692164897918701 22.546136856079102 0.673359453678131 0.000000000000000
6.700671195983887 5.880680084228516 -0.395483583211899 0.000000000000000
6.708260536193848 17.163299560546875 0.775570809841156 0.000000000000000
6.717764377593994 26.114753723144531 0.616629123687744 0.000000000000000
6.720219612121582 15.825719833374023 1.952866911888123 0.000000000000000
6.722613811492920 17.175291061401367 1.273562669754028 0.000000000000000
6.733090877532959 15.072478294372559 -0.002881189575419 0.000000000000000
6.736192703247070 5.375894069671631 -0.166986152529716 0.000000000000000
6.741277694702148 20.688524246215820 0.748439013957977 0.000000000000000
6.751154422760010 23.024522781372070 0.318285673856735 0.000000000000000
6.751761436462402 18.396326065063477 0.787064790725708 0.000000000000000
6.776802062988281 22.099674224853516 2.625491142272949 0.000000000000000
6.782001972198486 21.844348907470703 2.597954034805298 0.000000000000000
6.795239925384521 22.575254440307617 1.946567177772522 0.000000000000000
6.806448459625244 28.513059616088867 2.024143457412720 0.000000000000000
6.813226699829102 14.953028678894043 -0.887053072452545 0.000000000000000
6.820429801940918 7.530069351196289 -0.294434964656830 0.000000000000000
6.835633754730225 24.224412918090820 0.285561174154282 0.000000000000000
6.845654487609863 22.954538345336914 1.284700751304626 0.000000000000000
6.854716300964355 15.202034950256348 -0.002910511102527 0.000000000000000
6.855301380157471 29.881513595581055 2.353605985641479 0.000000000000000
6.859279632568359 17.971174240112305 0.883581578731537 0.000000000000000
6.866199493408203 13.416572570800781 1.845203399658203 0.000000000000000
6.869734764099121 16.400114059448242 1.296380758285522 0.000000000000000
6.877420902252197 13.529212951660156 0.580385208129883 0.000000000000000
6.877905845642090 17.346851348876953 0.355044215917587 0.000000000000000
6.879321575164795 24.379236221313477 -0.490807533264160 0.000000000000000
6.879961013793945 16.234943389892578 2.346421957015991 0.000000000000000
6.884886264801025 18.953144073486328 1.120332360267639 0.000000000000000
6.896395683288574 14.970424652099609 1.169917225837708 0.000000000000000
6.904598712921143 23.450798034667969 0.934852778911591 0.000000000000000
6.921895980834961 13.735177993774414 0.588180780410767 0.000000000000000
6.932055950164795 30.655233383178711 0.416917622089386 0.000000000000000
6.945339202880859 5.951199531555176 -0.177214533090591 0.000000000000000
6.949853420257568 25.303709030151367 1.104402184486389 0.000000000000000
6.953155994415283 17.948595046997070 1.032344937324524 0.000000000000000
6.964046478271484 22.905574798583984 0.731458544731140 0.000000000000000
6.982064723968506 28.803266525268555 2.046462774276733 0.000000000000000
6.988264083862305 17.874177932739258 1.362213015556335 0.000000000000000
6.989823341369629 7.498034954071045 -0.159242331981659 0.000000000000000
6.998164653778076 14.677254676818848 0.715625166893005 0.000000000000000
7.023735523223877 18.151496887207031 1.381470918655396 0.000000000000000
7.037403106689453 6.098358154296875 -0.269869714975357 0.000000000000000
7.039848804473877 24.618974685668945 1.471933245658875 0.000000000000000
7.049139022827148 18.663862228393555 0.609548747539520 0.000000000000000
7.063511371612549 24.701723098754883 -0.103134028613567 0.000000000000000
7.097443103790283 26.198839187622070 1.560313582420349 0.000000000000000
7.106822013854980 29.060775756835938 2.843808174133301 0.000000000000000
7.117638587951660 23.613517761230469 0.232449278235435 0.000000000000000
7.124433517456055 7.099859237670898 -0.446182042360306 0.000000000000000
7.130176544189453 13.246611595153809 1.841800808906555 0.000000000000000
7.134437561035156 13.838127136230469 1.356635570526123 0.000000000000000
7.135495662689209 14.063621520996094 1.930755496025085 0.000000000000000
7.139500141143799 10.603895187377930 -0.124946832656860 0.000000000000000
7.139749050140381 23.192300796508789 1.114663720130920 0.000000000000000
7.148230552673340 30.355089187622070 1.912843585014343 0.000000000000000
7.157484054565430 19.152738571166992 0.939195454120636 0.000000000000000
7.159125804901123 19.539989471435547 1.978136777877808 1.000000000000000
7.164473533630371 15.983425140380859 -0.103941425681114 0.000000000000000
7.165397167205811 25.393041610717773 1.110457301139832 0.000000000000000
7.168473243713379 17.081495285034180 2.465141534805298 0.000000000000000
7.176396846771240 1.756850600242615 -0.727034568786621 1.000000000000000
7.181257247924805 14.448188781738281 -1.213155746459961 0.000000000000000
7.200158119201660 19.651983261108398 1.566347956657410 0.000000000000000
7.201445579528809 24.459009170532227 2.154499292373657 0.000000000000000
7.208688735961914 21.016571044921875 0.977851033210754 0.000000000000000
7.233164310455322 14.062745094299316 0.756829738616943 0.000000000000000
7.234135150909424 21.138801574707031 0.983303010463715 0.000000000000000
7.245777606964111 33.649562835693359 3.271912336349487 0.000000000000000
7.247007369995117 34.235519409179688 2.618938684463501 0.000000000000000
7.255255222320557 23.093641281127930 1.484774112701416 0.000000000000000
7.264476776123047 1.778413414955139 -0.504621446132660 1.000000000000000
7.282613277435303 25.057113647460938 3.472409009933472 0.000000000000000
7.287000179290771 14.167412757873535 0.517371356487274 0.000000000000000
7.287033081054688 17.227323532104492 1.075255036354065 0.000000000000000
7.288973331451416 14.744230270385742 0.123439699411392 0.000000000000000
7.295683860778809 20.673475265502930 0.754076659679413 0.000000000000000
7.300174713134766 14.968909263610840 0.572845280170441 0.000000000000000
7.312389373779297 20.750776290893555 0.799068033695221 0.000000000000000
7.332002639770508 15.822914123535156 0.767507553100586 0.000000000000000
7.340677738189697 19.064403533935547 1.607783913612366 0.000000000000000
7.364761352539062 18.309345245361328 1.875936865806580 0.000000000000000
7.368543148040771 14.879048347473145 0.379689157009125 0.000000000000000
7.383330821990967 14.731962203979492 -0.984781861305237 0.000000000000000
7.416103839874268 16.859176635742188 1.604906439781189 0.000000000000000
7.427793502807617 25.435674667358398 0.860511243343353 0.000000000000000
7.429794311523438 15.443502426147461 1.018171906471252 0.000000000000000
7.445301055908203 21.757118225097656 1.056296706199646 0.000000000000000
7.463052749633789 13.987630844116211 1.309012055397034 0.000000000000000
7.468646526336670 17.018899917602539 1.619490146636963 0.000000000000000
7.474890708923340 13.324451446533203 1.870480179786682 0.000000000000000
7.494787693023682 6.465223312377930 -0.343917101621628 0.000000000000000
7.507373809814453 18.477321624755859 1.492612838745117 0.000000000000000
7.515789985656738 18.314468383789062 1.481567621231079 0.000000000000000
7.516632080078125 19.320028305053711 2.208157300949097 0.000000000000000
7.530730724334717 25.788171768188477 1.285730957984924 0.000000000000000
7.533949851989746 14.277935028076172 1.021334648132324 0.000000000000000
7.550974369049072 24.360143661499023 0.142440482974052 0.000000000000000
7.557208061218262 17.403659820556641 0.835042536258698 0.000000000000000
7.562221050262451 17.602399826049805 0.916876852512360 0.000000000000000
7.574474334716797 6.866665840148926 -0.080298289656639 0.000000000000000
7.584155082702637 6.174700736999512 -0.886598229408264 0.000000000000000
7.592085361480713 6.770956516265869 -0.255723893642426 0.000000000000000
7.601115703582764 15.548756599426270 0.761703729629517 0.000000000000000
7.606162548065186 13.564015388488770 1.283996939659119 0.000000000000000
7.629140853881836 17.378026962280273 1.420370459556580 0.000000000000000
7.633032321929932 5.748979091644287 -0.056706115603447 0.000000000000000
7.653203010559082 27.996551513671875 0.496477305889130 0.000000000000000
7.662770748138428 25.345148086547852 0.554639041423798 0.000000000000000
7.672994613647461 21.338285446166992 1.128874063491821 0.000000000000000
7.678309440612793 22.438030242919922 1.454652428627014 0.000000000000000
7.685563087463379 27.604715347290039 1.205995082855225 0.000000000000000
7.689356803894043 15.672376632690430 0.969889581203461 0.000000000000000
7.698260307312012 28.552831649780273 0.960350275039673 0.000000000000000
7.700918674468994 17.376489639282227 1.129193425178528 0.000000000000000
7.702398300170898 30.678134918212891 0.784075200557709 0.000000000000000
7.717218399047852 31.197818756103516 0.796664059162140 0.000000000000000
7.717298984527588 -5.307522773742676 -0.181476354598999 1.000000000000000
7.732962131500244 24.947252273559570 0.547099769115448 0.000000000000000
7.733751773834229 15.221671104431152 0.948587954044342 0.000000000000000
7.760694026947021 19.191022872924805 1.669184327125549 0.000000000000000
7.761831283569336 15.775510787963867 0.604746401309967 0.000000000000000
7.787801742553711 8.314081192016602 -0.308253914117813 0.000000000000000
7.790130615234375 15.343241691589355 0.989170312881470 0.000000000000000
7.797765731811523 14.277814865112305 0.497044891119003 0.000000000000000
7.802852153778076 18.107589721679688 1.171419620513916 0.000000000000000
7.803884029388428 20.952669143676758 0.769064724445343 0.000000000000000
7.815450668334961 8.364062309265137 -0.133866503834724 0.000000000000000
7.833805084228516 7.039737701416016 -0.406445741653442 0.000000000000000
7.837041854858398 28.781547546386719 0.624838113784790 0.000000000000000
7.840807914733887 24.684509277343750 2.138458967208862 0.000000000000000
7.841837882995605 29.200904846191406 0.168868809938431 0.000000000000000
7.865253925323486 7.393462181091309 -0.167692169547081 0.000000000000000
7.867040157318115 18.988981246948242 1.791022896766663 0.000000000000000
7.882498741149902 23.921283721923828 1.641983389854431 0.000000000000000
7.900054454803467 13.072324752807617 0.819192171096802 0.000000000000000
7.907490253448486 15.028397560119629 1.139837503433228 0.000000000000000
7.908548355102539 19.081609725952148 1.227167606353760 0.000000000000000
7.911001682281494 25.041742324829102 2.496328353881836 0.000000000000000
7.924606800079346 14.747798919677734 0.254237234592438 0.000000000000000
7.924682617187500 14.350813865661621 0.689957022666931 0.000000000000000
7.946288108825684 21.799135208129883 0.798078238964081 0.000000000000000
7.960771560668945 19.358386993408203 1.485690116882324 0.000000000000000
7.977955341339111 15.119391441345215 1.345416665077209 0.000000000000000
7.978967666625977 24.953287124633789 2.490272045135498 0.000000000000000
7.983086585998535 20.877210617065430 -1.206599116325378 0.000000000000000
7.985788822174072 28.300382614135742 0.785417973995209 0.000000000000000
7.998329162597656 14.171026229858398 0.497167021036148 0.000000000000000
8.013315200805664 16.972246170043945 0.753835618495941 0.000000000000000
8.017987251281738 33.076778411865234 2.875921487808228 0.000000000000000
8.034262657165527 6.007338047027588 -0.059530738741159 0.000000000000000
8.038997650146484 24.112735748291016 2.049508810043335 0.000000000000000
8.043233871459961 7.381635189056396 -0.253461897373199 0.000000000000000
8.048780441284180 15.427359580993652 0.899753987789154 0.000000000000000
8.055880546569824 7.996490478515625 -0.547204613685608 0.000000000000000
8.058102607727051 12.659420013427734 1.360413551330566 0.000000000000000
8.076343536376953 25.534051895141602 2.211200237274170 0.000000000000000
8.079473495483398 0.936541795730591 -1.484867334365845 1.000000000000000
8.079631805419922 15.226330757141113 1.156981945037842 0.000000000000000
8.082509994506836 8.219656944274902 -0.311932593584061 0.000000000000000
8.086221694946289 15.635962486267090 0.673167407512665 0.000000000000000
8.090594291687012 16.304830551147461 1.116458058357239 0.000000000000000
8.090834617614746 16.246168136596680 0.728953957557678 0.000000000000000
8.118309020996094 15.859100341796875 0.749836206436157 0.000000000000000
8.140082359313965 28.065860748291016 2.074188709259033 0.000000000000000
8.141818046569824 13.108921051025391 0.619795441627502 0.000000000000000
8.190767288208008 16.508878707885742 0.633897423744202 0.000000000000000
8.196306228637695 9.961319923400879 -0.051783785223961 0.000000000000000
8.219190597534180 15.175106048583984 0.262072056531906 0.000000000000000
8.226564407348633 28.393722534179688 0.789583206176758 0.000000000000000
8.252643585205078 13.009612083435059 0.737325787544250 0.000000000000000
8.266057014465332 28.876626968383789 2.131962537765503 0.000000000000000
8.273113250732422 27.961833953857422 0.834887862205505 0.000000000000000
8.282877922058105 24.905042648315430 1.407665252685547 0.000000000000000
8.296309471130371 15.931640625000000 1.032557010650635 0.000000000000000
8.311094284057617 16.096958160400391 1.320813298225403 0.000000000000000
8.313179016113281 17.449319839477539 0.776309490203857 0.000000000000000
8.325219154357910 28.047952651977539 0.388107985258102 0.000000000000000
8.330965042114258 14.887577056884766 0.521231412887573 0.000000000000000
8.344929695129395 13.430718421936035 1.377816677093506 0.000000000000000
8.377709388732910 16.225976943969727 1.655464768409729 0.000000000000000
8.379237174987793 25.491598129272461 1.439156174659729 0.000000000000000
8.382419586181641 12.596514701843262 0.200712576508522 0.000000000000000
8.392598152160645 17.010271072387695 0.871284186840057 0.000000000000000
8.406582832336426 16.006752014160156 1.318195462226868 0.000000000000000
8.430429458618164 7.102099895477295 -0.128908485174179 0.000000000000000
8.439400672912598 6.520595073699951 -0.637352168560028 0.000000000000000
8.443479537963867 9.472768783569336 -0.514103293418884 0.000000000000000
8.456945419311523 8.014414787292480 -0.696291148662567 0.000000000000000
8.464249610900879 16.948513031005859 0.943114995956421 0.000000000000000
8.469360351562500 12.467427253723145 0.489457964897156 0.000000000000000
8.472118377685547 31.273187637329102 0.865412294864655 0.000000000000000
8.474312782287598 28.871368408203125 1.266378879547119 0.000000000000000
8.485978126525879 12.776294708251953 0.439137518405914 0.000000000000000
8.495497703552246 25.436084747314453 1.283436417579651 0.000000000000000
8.496518135070801 38.161350250244141 3.716293096542358 0.000000000000000
8.497171401977539 8.220255851745605 -0.888947844505310 0.000000000000000
8.511786460876465 26.187284469604492 1.053008675575256 0.000000000000000
8.513719558715820 25.280494689941406 0.148986116051674 0.000000000000000
8.530903816223145 17.914377212524414 0.491856068372726 0.000000000000000
8.556813240051270 9.599918365478516 -0.718981027603149 0.000000000000000
8.559660911560059 25.929088592529297 1.727480053901672 0.000000000000000
8.562045097351074 37.863441467285156 2.905221700668335 0.000000000000000
8.584224700927734 6.924376487731934 -0.829264700412750 0.000000000000000
8.587952613830566 12.859586715698242 0.116054937243462 0.000000000000000
8.588585853576660 15.968095779418945 1.579905748367310 0.000000000000000
8.602072715759277 7.383037090301514 -0.001978505169973 0.000000000000000
8.614645004272461 28.752378463745117 2.362246751785278 0.000000000000000
8.616544723510742 12.830506324768066 0.145667210221291 0.000000000000000
8.629777908325195 18.034358978271484 -1.117769837379456 0.000000000000000
8.633704185485840 7.830765247344971 -0.024412250146270 0.000000000000000
8.635859489440918 9.875446319580078 -0.178604513406754 0.000000000000000
8.639788627624512 8.245118141174316 -0.713710308074951 0.000000000000000
8.640171051025391 21.451988220214844 1.686138510704041 0.000000000000000
8.654871940612793 21.273881912231445 1.674503922462463 0.000000000000000
8.670751571655273 12.860241889953613 0.742297410964966 0.000000000000000
8.673607826232910 16.629232406616211 1.295055150985718 0.000000000000000
8.673769950866699 16.365312576293945 1.613934516906738 0.000000000000000
8.680171966552734 19.352195739746094 1.055883049964905 0.000000000000000
8.686384201049805 33.689609527587891 1.196704864501953 0.000000000000000
8.706635475158691 26.154851913452148 0.577424407005310 0.000000000000000
8.709850311279297 7.348423957824707 -0.089503064751625 0.000000000000000
8.711799621582031 12.854707717895508 0.593836367130280 0.000000000000000
8.713710784912109 -14.791763305664062 1.119202852249146 0.000000000000000
8.723927497863770 34.330482482910156 0.673944830894470 0.000000000000000
8.738173484802246 24.770637512207031 2.016501903533936 0.000000000000000
8.746502876281738 18.813508987426758 0.833296597003937 0.000000000000000
8.775702476501465 12.906276702880859 0.386883139610291 0.000000000000000
8.788212776184082 25.821134567260742 -1.052594184875488 1.000000000000000
8.803930282592773 22.591396331787109 2.432919502258301 0.000000000000000
8.811578750610352 9.355203628540039 -0.100938335061073 0.000000000000000
8.817192077636719 25.275461196899414 2.055080413818359 0.000000000000000
8.824892044067383 28.696487426757812 0.744227170944214 0.000000000000000
8.827772140502930 26.334577560424805 2.640165328979492 0.000000000000000
8.834576606750488 29.070732116699219 1.220327615737915 0.000000000000000
8.841272354125977 18.844987869262695 1.156500697135925 0.000000000000000
8.846940994262695 19.677974700927734 0.742113769054413 0.000000000000000
8.858913421630859 12.178944587707520 1.431556344032288 0.000000000000000
8.864545822143555 13.623119354248047 -1.284870743751526 1.000000000000000
8.864798545837402 19.478145599365234 2.147374868392944 0.000000000000000
8.865880012512207 29.219507217407227 1.931797385215759 0.000000000000000
8.877735137939453 12.252406120300293 2.013480186462402 0.000000000000000
8.909296989440918 14.165263175964355 0.575595378875732 0.000000000000000
8.959387779235840 13.113813400268555 0.974176406860352 0.000000000000000
8.972143173217773 18.919170379638672 -0.848310947418213 0.000000000000000
8.989495277404785 13.563138008117676 0.372099041938782 0.000000000000000
9.012638092041016 17.133113861083984 1.635829806327820 0.000000000000000
9.015110969543457 23.205091476440430 1.911175727844238 0.000000000000000
9.018246650695801 17.045461654663086 0.552127301692963 0.000000000000000
9.018269538879395 20.000251770019531 1.684296488761902 0.000000000000000
9.021916389465332 7.517850875854492 -0.092236213386059 0.000000000000000
9.057141304016113 25.140684127807617 0.970525085926056 0.000000000000000
9.067352294921875 19.213361740112305 0.526648759841919 0.000000000000000
9.069769859313965 27.056493759155273 2.135630607604980 0.000000000000000
9.095231056213379 27.972297668457031 1.974289655685425 0.000000000000000
9.101312637329102 27.662326812744141 1.505786538124084 0.000000000000000
9.109139442443848 27.048526763916016 1.036581754684448 0.000000000000000
9.114729881286621 29.074489593505859 1.165203213691711 0.000000000000000
9.120946884155273 25.597640991210938 0.986930370330811 0.000000000000000
9.123213768005371 19.538976669311523 0.037636261433363 0.000000000000000
9.140816688537598 29.976806640625000 2.841086864471436 0.000000000000000
9.150527954101562 28.328912734985352 0.909559190273285 0.000000000000000
9.176042556762695 9.759201049804688 -0.105210863053799 0.000000000000000
9.184296607971191 7.647187232971191 -0.139760002493858 0.000000000000000
9.185877799987793 12.158250808715820 1.865619301795959 0.000000000000000
9.189139366149902 12.775812149047852 2.094209194183350 0.000000000000000
9.194344520568848 23.969602584838867 2.169318437576294 0.000000000000000
9.235339164733887 7.926560401916504 -0.189065322279930 0.000000000000000
