# This PCD file was generated using the MATLAB® pcwrite function
# from Computer Vision Toolbox®.
# .PCD v.7 - Point Cloud Data file format
VERSION .7
FIELDS x y z intensity
SIZE 8 8 8 8
TYPE F F F F
COUNT 1 1 1 1
WIDTH 647
HEIGHT 1
VIEWPOINT 0 0 0 1 0 0 0
POINTS 647
DATA ascii
7.392902374267578 33.678115844726562 -0.006017895881087 1.000000000000000
7.412786960601807 15.486945152282715 1.556512594223022 0.000000000000000
7.418491363525391 24.141153335571289 -1.023187041282654 0.000000000000000
7.422883033752441 26.889993667602539 3.415279150009155 0.000000000000000
7.426793098449707 15.778442382812500 0.935301542282104 0.000000000000000
7.435484409332275 36.044029235839844 0.276208341121674 1.000000000000000
7.447809219360352 17.719375610351562 1.401382684707642 0.000000000000000
7.455044746398926 26.582735061645508 1.480715632438660 0.000000000000000
7.462164878845215 17.521934509277344 0.655073225498199 0.000000000000000
7.470873355865479 15.197542190551758 1.535205364227295 0.000000000000000
7.471665859222412 35.893222808837891 0.627147257328033 0.000000000000000
7.484048843383789 20.314804077148438 1.536666870117188 0.000000000000000
7.491399765014648 35.821830749511719 0.485466569662094 0.000000000000000
7.494475364685059 13.744702339172363 -0.634249687194824 0.000000000000000
7.507028579711914 5.765348434448242 -0.219759821891785 0.000000000000000
7.512678146362305 16.073625564575195 1.088295578956604 0.000000000000000
7.516644954681396 23.333246231079102 0.937451303005219 0.000000000000000
7.524150848388672 5.775158882141113 -0.238434374332428 0.000000000000000
7.525219917297363 33.718471527099609 -0.006029763258994 0.000000000000000
7.539832115173340 14.310254096984863 0.898662269115448 0.000000000000000
7.553149223327637 30.231134414672852 1.311456561088562 0.000000000000000
7.565896034240723 33.352619171142578 -0.005969026125968 0.000000000000000
7.586521625518799 17.197706222534180 1.334175825119019 0.000000000000000
7.590559005737305 13.660539627075195 0.507504284381866 0.000000000000000
7.593946456909180 16.388977050781250 1.386689424514771 0.000000000000000
7.600886821746826 15.879926681518555 1.283582687377930 0.000000000000000
7.608794689178467 35.922981262207031 0.064088456332684 0.000000000000000
7.610037803649902 14.566578865051270 0.913085281848907 0.000000000000000
7.614179611206055 6.080280303955078 -0.001700648805127 0.000000000000000
7.620913982391357 12.759393692016602 -1.117482900619507 0.000000000000000
7.625349998474121 24.677772521972656 0.392227411270142 0.000000000000000
7.629885673522949 29.656255722045898 0.347410827875137 0.000000000000000
7.630168437957764 35.811096191406250 0.977981030941010 1.000000000000000
7.640735149383545 15.513001441955566 0.628046572208405 0.000000000000000
7.662150859832764 22.242408752441406 1.352332949638367 0.000000000000000
7.672084808349609 33.820728302001953 0.526634275913239 0.000000000000000
7.675312042236328 7.063008308410645 -0.784277439117432 0.000000000000000
7.716332435607910 18.295602798461914 0.682986617088318 0.000000000000000
7.719839572906494 29.160692214965820 0.805710196495056 0.000000000000000
7.728105545043945 33.524795532226562 -0.006004631053656 0.000000000000000
7.744382381439209 15.862864494323730 0.641112744808197 0.000000000000000
7.760378360748291 29.732990264892578 0.820769250392914 0.000000000000000
7.768377304077148 27.332651138305664 1.523988842964172 0.000000000000000
7.796043872833252 16.382997512817383 2.060757637023926 0.000000000000000
7.807942390441895 22.616907119750977 2.021800756454468 0.000000000000000
7.825545787811279 21.026533126831055 1.592458128929138 0.000000000000000
7.827758312225342 2.433278560638428 -0.838426887989044 1.000000000000000
7.836806774139404 38.747566223144531 1.587774395942688 0.000000000000000
7.876308917999268 16.434719085693359 1.258407831192017 0.000000000000000
7.895537853240967 38.528976440429688 1.201629519462585 0.000000000000000
7.900806427001953 35.732707977294922 0.134131044149399 0.000000000000000
7.926071643829346 35.669746398925781 0.133925795555115 0.000000000000000
7.930689811706543 19.719242095947266 1.672748088836670 0.000000000000000
7.939894199371338 22.741447448730469 3.205422401428223 0.000000000000000
7.943908691406250 17.662794113159180 1.636503338813782 0.000000000000000
7.948721885681152 16.075246810913086 0.823746263980865 0.000000000000000
7.960586071014404 17.866338729858398 2.602855682373047 0.000000000000000
7.961457252502441 5.770338535308838 -0.379452168941498 0.000000000000000
7.978057861328125 25.518884658813477 0.406014323234558 0.000000000000000
8.024642944335938 38.441963195800781 1.803871989250183 0.000000000000000
8.031853675842285 16.288440704345703 1.464394211769104 0.000000000000000
8.053138732910156 38.178577423095703 2.393319845199585 0.000000000000000
8.053553581237793 20.228435516357422 1.713546752929688 0.000000000000000
8.066478729248047 25.040044784545898 0.197437480092049 0.000000000000000
8.093603134155273 5.909316539764404 -0.232665017247200 0.000000000000000
8.107685089111328 9.313352584838867 -0.002155132591724 0.000000000000000
8.114075660705566 7.887563705444336 -0.001975014805794 0.000000000000000
8.124402999877930 27.656034469604492 0.437718033790588 0.000000000000000
8.135968208312988 18.523717880249023 0.579258561134338 0.000000000000000
8.146901130676270 25.350317001342773 0.199839040637016 0.000000000000000
8.162461280822754 16.132316589355469 2.053534746170044 0.000000000000000
8.169353485107422 7.886018753051758 -0.176390558481216 0.000000000000000
8.204292297363281 24.848190307617188 0.146148934960365 0.000000000000000
8.252595901489258 33.094490051269531 -0.071435570716858 1.000000000000000
8.283077239990234 33.636505126953125 0.858716011047363 0.000000000000000
8.287956237792969 15.875000953674316 3.061115264892578 0.000000000000000
8.305150032043457 21.513254165649414 1.814916014671326 0.000000000000000
8.312032699584961 16.809995651245117 1.150252938270569 0.000000000000000
8.313350677490234 15.833930015563965 0.546395123004913 0.000000000000000
8.329000473022461 19.606664657592773 0.487139701843262 0.000000000000000
8.336704254150391 19.300083160400391 0.925265133380890 0.000000000000000
8.340638160705566 15.041355133056641 -0.762958884239197 0.000000000000000
8.382630348205566 27.866573333740234 0.833170711994171 0.000000000000000
8.384185791015625 16.105178833007812 0.834024667739868 0.000000000000000
8.384546279907227 21.495273590087891 1.815857410430908 0.000000000000000
8.392885208129883 15.229444503784180 -1.039186954498291 0.000000000000000
8.401142120361328 28.559358596801758 0.394899189472198 0.000000000000000
8.437016487121582 34.442806243896484 0.879036545753479 0.000000000000000
8.461558341979980 19.838830947875977 0.037643242627382 0.000000000000000
8.462529182434082 16.871320724487305 1.521941184997559 0.000000000000000
8.492955207824707 18.609403610229492 1.570397377014160 0.000000000000000
8.498197555541992 13.987525939941406 0.751796901226044 0.000000000000000
8.509151458740234 21.814720153808594 2.494132995605469 0.000000000000000
8.513390541076660 18.654180526733398 2.057518243789673 0.000000000000000
8.528730392456055 20.649290084838867 0.811408340930939 0.000000000000000
8.549083709716797 18.669380187988281 0.509004592895508 0.000000000000000
8.570168495178223 20.093477249145508 0.373674958944321 0.000000000000000
8.581370353698730 22.547931671142578 0.551701545715332 0.000000000000000
8.596474647521973 33.398818969726562 -0.204654708504677 1.000000000000000
8.623517036437988 17.073144912719727 1.246970534324646 0.000000000000000
8.668683052062988 19.877780914306641 1.288371801376343 0.000000000000000
8.684161186218262 18.641929626464844 1.499403834342957 0.000000000000000
8.691811561584473 11.033830642700195 -0.407064169645309 0.000000000000000
8.714550018310547 16.558025360107422 1.696273565292358 0.000000000000000
8.716827392578125 23.146593093872070 0.565601527690887 0.000000000000000
8.729145050048828 12.635211944580078 0.971581220626831 0.000000000000000
8.744713783264160 19.270483016967773 1.053496479988098 0.000000000000000
8.759366989135742 19.181631088256836 0.846941351890564 0.000000000000000
8.771611213684082 20.449905395507812 0.850936174392700 0.000000000000000
8.827309608459473 12.637664794921875 0.145290225744247 0.000000000000000
8.829696655273438 13.600710868835449 1.088404178619385 0.000000000000000
8.846138954162598 19.676189422607422 1.073981642723083 0.000000000000000
8.875195503234863 14.723624229431152 1.054500699043274 0.000000000000000
8.894084930419922 18.307703018188477 2.042342424392700 0.000000000000000
8.906700134277344 22.479728698730469 3.583514213562012 0.000000000000000
8.957904815673828 14.860836982727051 0.530148625373840 0.000000000000000
8.988944053649902 6.096046924591064 -0.252162098884583 0.000000000000000
9.004237174987793 19.506637573242188 1.235028147697449 0.000000000000000
9.059939384460449 19.478784561157227 0.862833619117737 0.000000000000000
9.084701538085938 10.400797843933105 -0.532929778099060 0.000000000000000
9.107425689697266 12.271208763122559 1.025719881057739 0.000000000000000
9.109955787658691 22.577436447143555 3.608143329620361 0.000000000000000
9.124941825866699 20.491104125976562 1.954569101333618 0.000000000000000
9.138085365295410 13.128900527954102 1.011990070343018 0.000000000000000
9.167851448059082 24.372606277465820 1.446735382080078 0.000000000000000
9.168624877929688 26.735187530517578 1.352656245231628 0.000000000000000
9.172940254211426 18.600063323974609 1.592136263847351 0.000000000000000
9.200213432312012 33.337520599365234 -0.138828724622726 0.000000000000000
9.201968193054199 16.270387649536133 0.858619630336761 0.000000000000000
9.207678794860840 16.413923263549805 0.864493012428284 1.000000000000000
9.215716361999512 13.300263404846191 1.179744243621826 0.000000000000000
9.215784072875977 26.872699737548828 0.922569811344147 0.000000000000000
9.246234893798828 29.116079330444336 1.285721898078918 0.000000000000000
9.249823570251465 31.262966156005859 2.188327312469482 0.000000000000000
9.260757446289062 20.845020294189453 1.987556219100952 0.000000000000000
9.314449310302734 16.789215087890625 1.177680730819702 0.000000000000000
9.315525054931641 18.761074066162109 0.479000926017761 0.000000000000000
9.316740036010742 24.508447647094727 1.456720471382141 0.000000000000000
9.323076248168945 13.556035041809082 1.491507291793823 0.000000000000000
9.337296485900879 7.414197921752930 -0.162323176860809 0.000000000000000
9.343780517578125 25.190586090087891 1.234151005744934 0.000000000000000
9.345531463623047 29.428760528564453 1.774951338768005 0.000000000000000
9.350967407226562 14.223590850830078 1.405451655387878 0.000000000000000
9.379164695739746 23.799446105957031 2.013260602951050 0.000000000000000
9.379535675048828 28.407630920410156 1.546890974044800 0.000000000000000
9.381848335266113 23.717599868774414 0.338341027498245 0.000000000000000
9.392107963562012 23.793296813964844 1.569016695022583 0.000000000000000
9.393646240234375 12.620459556579590 0.480676233768463 0.000000000000000
9.400956153869629 6.454091548919678 -0.330471664667130 0.000000000000000
9.418462753295898 31.429288864135742 2.202257394790649 0.000000000000000
9.433169364929199 23.983097076416016 1.580771446228027 0.000000000000000
9.442128181457520 13.326726913452148 1.190797209739685 0.000000000000000
9.480569839477539 13.153841972351074 0.838407039642334 0.000000000000000
9.481636047363281 17.325029373168945 1.516203522682190 0.000000000000000
9.482072830200195 32.924755096435547 -0.269106060266495 0.000000000000000
9.484453201293945 8.517684936523438 -0.075647704303265 0.000000000000000
9.507228851318359 18.980548858642578 0.811805665493011 0.000000000000000
9.536903381347656 19.238943099975586 0.903739333152771 0.000000000000000
9.538235664367676 20.995771408081055 0.837540626525879 0.000000000000000
9.561000823974609 7.537557601928711 -0.165753692388535 0.000000000000000
9.572540283203125 25.358446121215820 1.662564992904663 0.000000000000000
9.600525856018066 17.114227294921875 1.203639268875122 0.000000000000000
9.607629776000977 22.491046905517578 0.371395289897919 0.000000000000000
9.649876594543457 6.536162376403809 -0.337771713733673 0.000000000000000
9.661601066589355 12.923394203186035 1.083046555519104 0.000000000000000
9.679933547973633 11.004486083984375 -0.340270280838013 0.000000000000000
9.680515289306641 7.889049053192139 -0.026154786348343 0.000000000000000
9.689101219177246 26.551368713378906 1.842612385749817 0.000000000000000
9.691608428955078 13.780551910400391 1.228318572044373 0.000000000000000
9.721602439880371 13.156717300415039 0.751429855823517 0.000000000000000
9.722647666931152 14.093258857727051 1.314430952072144 0.000000000000000
9.736766815185547 13.609195709228516 0.865259230136871 0.000000000000000
9.747719764709473 28.697725296020508 1.392182588577271 0.000000000000000
9.784583091735840 21.538038253784180 1.223219156265259 0.000000000000000
9.787598609924316 11.938550949096680 0.827975392341614 0.000000000000000
9.790667533874512 33.227298736572266 -0.139053523540497 0.000000000000000
9.793790817260742 6.687886714935303 -0.115915946662426 0.000000000000000
9.798718452453613 33.220409393310547 -0.205532953143120 1.000000000000000
9.805897712707520 21.831346511840820 1.744892954826355 0.000000000000000
9.807278633117676 12.041213035583496 0.564022421836853 0.000000000000000
9.816702842712402 12.309506416320801 1.056794166564941 0.000000000000000
9.821260452270508 14.614486694335938 -0.036878082901239 0.000000000000000
9.821680068969727 18.917234420776367 2.420995235443115 0.000000000000000
9.854475975036621 13.382907867431641 0.380054920911789 0.000000000000000
9.889078140258789 20.116748809814453 0.598729014396667 1.000000000000000
9.965264320373535 12.318379402160645 0.331895470619202 0.000000000000000
9.969601631164551 15.788041114807129 0.857701897621155 0.000000000000000
9.995920181274414 13.387149810791016 0.831739127635956 0.000000000000000
9.999833106994629 16.310585021972656 -0.040069933980703 0.000000000000000
10.025538444519043 11.477932929992676 -0.353825390338898 0.000000000000000
10.026439666748047 22.532449722290039 1.798121094703674 0.000000000000000
10.035338401794434 27.146545410156250 2.333707332611084 0.000000000000000
10.059381484985352 27.270105361938477 1.894916415214539 0.000000000000000
10.076931953430176 14.557291030883789 1.051857829093933 0.000000000000000
10.079236984252930 20.108499526977539 0.816925168037415 0.000000000000000
10.083416938781738 22.403162002563477 0.892273306846619 0.000000000000000
10.095767974853516 32.168376922607422 -0.200073599815369 1.000000000000000
10.100104331970215 13.837513923645020 0.128573015332222 0.000000000000000
10.157728195190430 15.229724884033203 0.242839395999908 0.000000000000000
10.172753334045410 9.135825157165527 -0.291181296110153 0.000000000000000
10.232406616210938 12.648602485656738 0.590880632400513 0.000000000000000
10.240847587585449 20.624635696411133 0.880589723587036 0.000000000000000
10.274484634399414 12.823742866516113 1.356738209724426 0.000000000000000
10.287068367004395 25.463964462280273 2.489697694778442 0.000000000000000
10.344918251037598 13.865636825561523 0.129833832383156 0.000000000000000
10.361248970031738 19.275968551635742 2.331021070480347 0.000000000000000
10.375473022460938 20.591735839843750 0.305870473384857 0.000000000000000
10.387624740600586 12.459221839904785 0.776333749294281 0.000000000000000
10.391241073608398 13.805686950683594 1.126489043235779 0.000000000000000
10.406832695007324 16.514280319213867 0.971754491329193 0.000000000000000
10.474826812744141 15.977363586425781 1.503590345382690 0.000000000000000
10.482645988464355 21.297916412353516 1.273132681846619 0.000000000000000
10.488826751708984 15.152320861816406 1.379174351692200 0.000000000000000
10.490254402160645 20.756376266479492 0.844654440879822 0.000000000000000
10.498033523559570 28.437810897827148 3.711308717727661 0.000000000000000
10.500235557556152 26.276403427124023 3.464374303817749 0.000000000000000
10.507078170776367 25.822816848754883 1.280587673187256 0.000000000000000
10.518879890441895 7.237000465393066 -0.320961594581604 0.000000000000000
10.526954650878906 26.943260192871094 2.902570247650146 0.000000000000000
10.533329010009766 13.822970390319824 0.197165638208389 0.000000000000000
10.548503875732422 16.413337707519531 0.821153163909912 0.000000000000000
10.554987907409668 15.314050674438477 0.425321340560913 0.000000000000000
10.557102203369141 26.166576385498047 2.329692602157593 0.000000000000000
10.573855400085449 16.035495758056641 1.178170680999756 0.000000000000000
10.577603340148926 14.894042968750000 0.663470387458801 0.000000000000000
10.588337898254395 8.309486389160156 -0.105713516473770 0.000000000000000
10.609972000122070 28.239364624023438 3.693323373794556 0.000000000000000
10.610111236572266 15.213763236999512 1.388129949569702 0.000000000000000
10.651362419128418 16.701286315917969 3.385962724685669 0.000000000000000
10.693467140197754 26.206155776977539 2.565898180007935 0.000000000000000
10.698766708374023 11.435351371765137 0.870038211345673 0.000000000000000
10.699675559997559 13.868258476257324 1.757596492767334 0.000000000000000
10.701968193054199 16.200239181518555 0.033887293189764 0.000000000000000
10.720279693603516 12.767335891723633 0.541389822959900 0.000000000000000
10.748642921447754 11.329092979431152 1.108461856842041 0.000000000000000
10.766846656799316 15.048950195312500 0.387602329254150 0.000000000000000
10.770848274230957 16.304506301879883 1.236259579658508 0.000000000000000
10.775461196899414 9.573975563049316 -0.861415624618530 0.000000000000000
10.787682533264160 19.902383804321289 1.781649231910706 0.000000000000000
10.792820930480957 11.594568252563477 -0.702687978744507 0.000000000000000
10.794375419616699 26.554115295410156 0.820692598819733 0.000000000000000
10.815963745117188 22.233108520507812 1.468900442123413 0.000000000000000
10.839998245239258 17.612600326538086 1.268535375595093 0.000000000000000
10.856818199157715 21.337169647216797 1.745474696159363 0.000000000000000
10.860779762268066 17.161487579345703 3.471555233001709 0.000000000000000
10.883903503417969 23.578718185424805 2.354270458221436 0.000000000000000
10.887080192565918 25.381855010986328 1.907037615776062 0.000000000000000
10.887646675109863 28.072923660278320 1.730875968933105 0.000000000000000
10.892186164855957 11.762907981872559 -0.958056509494781 0.000000000000000
10.922043800354004 17.365413665771484 1.021277070045471 0.000000000000000
10.942777633666992 21.321620941162109 2.172616958618164 0.000000000000000
10.943021774291992 15.357990264892578 0.286366105079651 0.000000000000000
10.963429450988770 27.160020828247070 3.585897207260132 0.000000000000000
10.964002609252930 27.450860977172852 2.440614700317383 0.000000000000000
10.980435371398926 27.817050933837891 3.000813722610474 0.000000000000000
10.980557441711426 16.862789154052734 0.924328446388245 0.000000000000000
11.062979698181152 14.837802886962891 1.677855491638184 0.000000000000000
11.081379890441895 20.615692138671875 1.480733275413513 0.000000000000000
11.084823608398438 14.441857337951660 0.486267089843750 0.000000000000000
11.099057197570801 11.103323936462402 1.235574007034302 0.000000000000000
11.120757102966309 15.919923782348633 0.145744100213051 0.000000000000000
11.132673263549805 23.078384399414062 1.127694368362427 0.000000000000000
11.134768486022949 17.287059783935547 1.737542867660522 0.000000000000000
11.142655372619629 22.622959136962891 2.082175016403198 0.000000000000000
11.149594306945801 13.957364082336426 0.031178545206785 0.000000000000000
11.191443443298340 28.560138702392578 2.236453056335449 0.000000000000000
11.224161148071289 11.307146072387695 1.007949233055115 0.000000000000000
11.232271194458008 26.678779602050781 1.942947506904602 0.000000000000000
11.233252525329590 25.275424957275391 1.643261194229126 0.000000000000000
11.253883361816406 10.626650810241699 1.471300721168518 0.000000000000000
11.258604049682617 32.199939727783203 0.190516382455826 0.000000000000000
11.260649681091309 10.040637016296387 -0.176430612802505 0.000000000000000
11.260925292968750 6.895568370819092 -0.789113998413086 0.000000000000000
11.270335197448730 12.130879402160645 1.175298094749451 0.000000000000000
11.274350166320801 12.748706817626953 1.240825772285461 0.000000000000000
11.276144027709961 11.822937965393066 1.423651337623596 0.000000000000000
11.279788017272949 10.265259742736816 -0.119787707924843 0.000000000000000
11.285943984985352 10.027537345886230 -0.669716238975525 0.000000000000000
11.307179450988770 10.018532752990723 0.868422269821167 0.000000000000000
11.324929237365723 10.630728721618652 0.474568545818329 0.000000000000000
11.333497047424316 17.500152587890625 0.877500176429749 0.000000000000000
11.335152626037598 26.173959732055664 1.529772877693176 0.000000000000000
11.336292266845703 10.716085433959961 0.716556429862976 0.000000000000000
11.353357315063477 17.569120407104492 0.639110088348389 0.000000000000000
11.356810569763184 10.373110771179199 0.676933169364929 0.000000000000000
11.386927604675293 15.428503990173340 2.042503118515015 0.000000000000000
11.413526535034180 17.856443405151367 1.790757060050964 0.000000000000000
11.425554275512695 25.201515197753906 2.017432451248169 0.000000000000000
11.428801536560059 24.976461410522461 2.002598524093628 0.000000000000000
11.428910255432129 13.288269996643066 1.007535099983215 0.000000000000000
11.440475463867188 23.024494171142578 1.725695252418518 0.000000000000000
11.459535598754883 17.471368789672852 0.638377130031586 0.000000000000000
11.474166870117188 24.631120681762695 2.463334321975708 0.000000000000000
11.498671531677246 12.075230598449707 -0.996474146842957 0.000000000000000
11.501842498779297 15.497408866882324 0.700926661491394 0.000000000000000
11.518538475036621 18.020734786987305 2.846098423004150 0.000000000000000
11.545736312866211 19.690256118774414 1.576109647750854 0.000000000000000
11.558201789855957 18.222661972045898 1.823426365852356 0.000000000000000
11.563140869140625 12.942683219909668 1.399452805519104 0.000000000000000
11.564380645751953 19.565196990966797 1.218933939933777 0.000000000000000
11.575858116149902 26.206319808959961 1.040501594543457 0.000000000000000
11.579775810241699 15.602416038513184 1.004683971405029 0.000000000000000
11.589505195617676 15.657752990722656 1.420288801193237 0.000000000000000
11.623983383178711 16.576747894287109 -0.275639027357101 0.000000000000000
11.625282287597656 10.393840789794922 0.236806243658066 0.000000000000000
11.632258415222168 11.061006546020508 1.525807380676270 0.000000000000000
11.636159896850586 17.605695724487305 0.928782582283020 0.000000000000000
11.636735916137695 28.478008270263672 1.649952411651611 0.000000000000000
11.638945579528809 13.068787574768066 1.586487054824829 0.000000000000000
11.640026092529297 10.353412628173828 -0.421536386013031 0.000000000000000
11.646966934204102 17.756473541259766 0.934586346149445 0.000000000000000
11.667033195495605 27.223857879638672 2.685074329376221 0.000000000000000
11.669173240661621 13.061366081237793 1.141841888427734 0.000000000000000
11.681794166564941 16.217483520507812 0.457053542137146 0.000000000000000
11.687079429626465 16.344829559326172 0.768395245075226 0.000000000000000
11.720829010009766 28.400297164916992 1.647810220718384 0.000000000000000
11.796384811401367 10.411272048950195 0.269138991832733 0.000000000000000
11.800969123840332 10.382745742797852 1.146004080772400 0.000000000000000
11.803185462951660 10.709238052368164 0.456309229135513 0.000000000000000
11.846458435058594 26.567642211914062 1.504134178161621 0.000000000000000
11.859783172607422 13.697106361389160 1.041509866714478 0.000000000000000
11.860225677490234 21.964326858520508 1.050578117370605 0.000000000000000
11.863198280334473 13.096614837646484 1.083887577056885 0.000000000000000
11.880019187927246 30.342296600341797 3.097415685653687 0.000000000000000
11.889189720153809 13.466206550598145 0.548838198184967 0.000000000000000
11.891696929931641 14.818859100341797 1.605517864227295 0.000000000000000
11.912623405456543 21.290704727172852 1.967207074165344 0.000000000000000
11.927671432495117 10.597711563110352 0.518150329589844 0.000000000000000
11.928393363952637 10.609905242919922 0.794746458530426 0.000000000000000
11.937414169311523 12.342573165893555 1.496222734451294 0.000000000000000
11.952761650085449 13.458471298217773 0.031415909528732 0.000000000000000
12.005796432495117 25.121021270751953 2.426110267639160 0.000000000000000
12.011530876159668 11.779827117919922 1.910884380340576 0.000000000000000
12.014200210571289 12.116128921508789 0.849439978599548 0.000000000000000
12.015383720397949 10.556520462036133 1.042698383331299 0.000000000000000
12.018411636352539 11.704548835754395 1.905467271804810 0.000000000000000
12.031298637390137 25.563165664672852 2.005370140075684 0.000000000000000
12.044756889343262 10.736772537231445 -0.126730561256409 0.000000000000000
12.053830146789551 17.318019866943359 0.036826428025961 0.000000000000000
12.085002899169922 12.452470779418945 0.630224287509918 0.000000000000000
12.090531349182129 14.959369659423828 2.559589147567749 0.000000000000000
12.095053672790527 10.800563812255859 -0.127358868718147 0.000000000000000
12.130352973937988 18.762166976928711 0.897346913814545 1.000000000000000
12.156549453735352 9.357754707336426 1.148117780685425 0.000000000000000
12.166976928710938 30.252546310424805 3.473229408264160 0.000000000000000
12.188049316406250 29.845098495483398 2.809107065200806 0.000000000000000
12.190993309020996 9.826004981994629 1.202062845230103 0.000000000000000
12.196036338806152 13.911321640014648 0.849809467792511 0.000000000000000
12.201058387756348 12.943834304809570 0.065196275711060 0.000000000000000
12.205647468566895 27.932310104370117 0.287300676107407 0.000000000000000
12.241300582885742 15.920927047729492 2.672504425048828 0.000000000000000
12.241852760314941 10.912465095520020 0.123079478740692 0.000000000000000
12.249063491821289 28.399719238281250 3.103449821472168 0.000000000000000
12.268915176391602 27.094415664672852 2.455755233764648 0.000000000000000
12.269395828247070 13.450374603271484 1.116703033447266 0.000000000000000
12.297415733337402 10.287338256835938 0.859894812107086 0.000000000000000
12.302147865295410 18.984235763549805 0.908583819866180 0.000000000000000
12.313920974731445 9.285607337951660 1.547531604766846 0.000000000000000
12.326272964477539 27.386301040649414 2.015811443328857 0.000000000000000
12.339423179626465 10.489057540893555 2.400151491165161 0.000000000000000
12.343397140502930 10.516578674316406 0.028302246704698 0.000000000000000
12.356530189514160 10.050478935241699 0.364234566688538 0.000000000000000
12.404467582702637 8.814749717712402 1.138863682746887 0.000000000000000
12.404725074768066 13.715114593505859 1.205595731735229 0.000000000000000
12.406923294067383 28.491800308227539 3.118226289749146 0.000000000000000
12.409492492675781 19.870153427124023 0.895875096321106 0.000000000000000
12.410563468933105 12.698950767517090 0.918137311935425 0.000000000000000
12.414481163024902 29.876804351806641 2.819176912307739 0.000000000000000
12.414528846740723 16.736928939819336 0.476531863212585 0.000000000000000
12.427516937255859 10.176884651184082 1.357297539710999 0.000000000000000
12.445950508117676 18.128622055053711 0.671847343444824 0.000000000000000
12.456548690795898 10.494591712951660 0.622878551483154 0.000000000000000
12.472100257873535 19.816118240356445 1.255780577659607 0.000000000000000
12.487757682800293 9.648855209350586 0.300258129835129 0.000000000000000
12.489665985107422 16.838228225708008 0.801717281341553 0.000000000000000
12.511446952819824 29.288757324218750 0.973079264163971 0.000000000000000
12.516995429992676 16.803867340087891 1.568139076232910 0.000000000000000
12.529361724853516 28.654039382934570 2.038817644119263 0.000000000000000
12.534306526184082 13.027812957763672 1.283198952674866 0.000000000000000
12.544211387634277 15.737524032592773 1.312025308609009 0.000000000000000
12.544465065002441 16.433626174926758 1.746973276138306 0.000000000000000
12.547800064086914 14.327194213867188 -0.332433432340622 0.000000000000000
12.602036476135254 12.009572029113770 0.833124637603760 0.000000000000000
12.603343963623047 26.312294006347656 1.620920419692993 0.000000000000000
12.625829696655273 13.592726707458496 1.681827902793884 0.000000000000000
12.635545730590820 31.103612899780273 2.642188787460327 0.000000000000000
12.640235900878906 13.971569061279297 1.010494112968445 0.000000000000000
12.643077850341797 18.554233551025391 1.031334757804871 0.000000000000000
12.648906707763672 18.330165863037109 0.766039609909058 0.000000000000000
12.656426429748535 16.064983367919922 0.585554838180542 0.000000000000000
12.658254623413086 12.345772743225098 1.220933914184570 0.000000000000000
12.671633720397949 12.160575866699219 0.570341825485229 0.000000000000000
12.682479858398438 20.592538833618164 1.576668381690979 0.000000000000000
12.685275077819824 12.375582695007324 0.882256090641022 0.000000000000000
12.695490837097168 8.760650634765625 0.916402161121368 0.000000000000000
12.697969436645508 26.509843826293945 2.086366653442383 0.000000000000000
12.701596260070801 9.799573898315430 -0.218409344553947 0.000000000000000
12.703623771667480 12.052767753601074 -0.137537524104118 0.000000000000000
12.713502883911133 9.738149642944336 -0.218028187751770 0.000000000000000
12.715894699096680 20.209705352783203 1.556631445884705 0.000000000000000
12.761840820312500 28.091642379760742 2.070995092391968 0.000000000000000
12.778502464294434 29.168323516845703 2.567753314971924 0.000000000000000
12.789977073669434 10.329065322875977 0.628687024116516 0.000000000000000
12.794646263122559 10.029404640197754 0.309313029050827 0.000000000000000
12.798482894897461 10.555512428283691 2.207652091979980 0.000000000000000
12.801009178161621 8.987025260925293 0.989512681961060 0.000000000000000
12.820746421813965 14.072036743164062 1.020991086959839 0.000000000000000
12.838369369506836 19.126426696777344 1.058132171630859 0.000000000000000
12.839583396911621 11.838907241821289 0.903058826923370 0.000000000000000
12.840207099914551 19.274211883544922 1.063822031021118 0.000000000000000
12.866354942321777 13.948996543884277 3.243757724761963 0.000000000000000
12.868276596069336 20.731781005859375 1.967528462409973 0.000000000000000
12.874738693237305 25.351154327392578 1.141990303993225 0.000000000000000
12.875540733337402 10.472628593444824 1.402428388595581 0.000000000000000
12.882558822631836 11.369908332824707 -0.233928322792053 0.000000000000000
12.889585494995117 7.806823253631592 2.575865745544434 0.000000000000000
12.923263549804688 7.801656723022461 1.158891439437866 0.000000000000000
12.934712409973145 25.624158859252930 1.594737172126770 0.000000000000000
12.951038360595703 17.254169464111328 1.281729459762573 0.000000000000000
12.961524009704590 18.654745101928711 0.126869425177574 0.000000000000000
12.972846031188965 30.077823638916016 0.497420668601990 0.000000000000000
12.982058525085449 10.103345870971680 0.565832555294037 0.000000000000000
12.989728927612305 12.292807579040527 1.131448864936829 0.000000000000000
12.997191429138184 27.379421234130859 2.151220321655273 0.000000000000000
13.021856307983398 11.348087310791016 -0.500574171543121 0.000000000000000
13.031513214111328 10.690507888793945 -0.132385358214378 0.000000000000000
13.041696548461914 20.157861709594727 1.796807289123535 0.000000000000000
13.041807174682617 20.004566192626953 2.269974470138550 0.000000000000000
13.044791221618652 29.912445068359375 0.432887613773346 0.000000000000000
13.061200141906738 27.856109619140625 1.887130022048950 0.000000000000000
13.073385238647461 9.895942687988281 0.879389107227325 0.000000000000000
13.075583457946777 28.141952514648438 1.425403952598572 0.000000000000000
13.085803031921387 11.107776641845703 2.543820381164551 0.000000000000000
13.098381996154785 7.870934009552002 1.385332226753235 0.000000000000000
13.102508544921875 21.991905212402344 1.372961044311523 0.000000000000000
13.110548019409180 9.858726501464844 0.816623866558075 0.000000000000000
13.112886428833008 7.862823486328125 1.026255607604980 0.000000000000000
13.155557632446289 13.896553993225098 1.920137286186218 0.000000000000000
13.181360244750977 22.216735839843750 1.186612963676453 0.000000000000000
13.195655822753906 16.719402313232422 0.937400341033936 0.000000000000000
13.201517105102539 12.098654747009277 0.684784233570099 0.000000000000000
13.202324867248535 18.222206115722656 3.334879159927368 0.000000000000000
13.235869407653809 15.970460891723633 0.633735299110413 0.000000000000000
13.238289833068848 12.820737838745117 1.201432108879089 0.000000000000000
13.249936103820801 18.935531616210938 0.484104990959167 0.000000000000000
13.250711441040039 8.107009887695312 1.558713793754578 0.000000000000000
13.287643432617188 20.017700195312500 0.918803155422211 0.000000000000000
13.287856101989746 28.433692932128906 2.046103715896606 0.000000000000000
13.292733192443848 14.310702323913574 -0.078406274318695 0.000000000000000
13.296007156372070 10.151601791381836 0.961623251438141 0.000000000000000
13.310931205749512 19.004337310791016 0.798078238964081 0.000000000000000
13.318562507629395 13.650894165039062 1.661852478981018 0.000000000000000
13.349528312683105 11.373803138732910 1.380252599716187 0.000000000000000
13.359292984008789 12.264729499816895 -0.142438367009163 0.000000000000000
13.364904403686523 22.526092529296875 2.628207921981812 0.000000000000000
13.378856658935547 32.392147064208984 -0.342548221349716 1.000000000000000
13.384507179260254 14.069370269775391 1.490790724754333 0.000000000000000
13.407174110412598 11.667420387268066 1.398768901824951 0.000000000000000
13.408412933349609 8.103798866271973 0.810109019279480 0.000000000000000
13.426492691040039 19.027620315551758 0.443082392215729 0.000000000000000
13.435034751892090 23.593320846557617 2.891957283020020 0.000000000000000
13.440187454223633 9.895210266113281 2.852862358093262 0.000000000000000
13.455265998840332 33.987617492675781 3.313818693161011 0.000000000000000
13.467091560363770 15.469738960266113 0.942132234573364 0.000000000000000
13.467933654785156 20.136390686035156 1.299267888069153 0.000000000000000
13.488015174865723 25.059377670288086 0.869492650032043 0.000000000000000
13.501884460449219 11.482071876525879 -0.037121031433344 0.000000000000000
13.514784812927246 22.683889389038086 1.009751081466675 0.000000000000000
13.526212692260742 12.384938240051270 0.102429352700710 0.000000000000000
13.549777030944824 7.953426837921143 1.424335360527039 0.000000000000000
13.558086395263672 10.188583374023438 0.909594714641571 0.000000000000000
13.564754486083984 18.012800216674805 0.818957626819611 0.000000000000000
13.580672264099121 29.006139755249023 2.026253461837769 0.000000000000000
13.600098609924316 18.798852920532227 3.438672780990601 0.000000000000000
13.604146957397461 11.590738296508789 1.130691289901733 0.000000000000000
13.615200042724609 17.955579757690430 1.165177226066589 0.000000000000000
13.618286132812500 11.499383926391602 -0.037330470979214 0.000000000000000
13.630127906799316 29.111770629882812 2.529835462570190 0.000000000000000
13.636748313903809 10.113525390625000 2.902061223983765 0.000000000000000
13.639035224914551 28.921535491943359 2.578362464904785 0.000000000000000
13.639510154724121 23.172842025756836 2.698096513748169 0.000000000000000
13.642068862915039 11.251257896423340 -0.410552591085434 0.000000000000000
13.647607803344727 22.260416030883789 1.954128861427307 0.000000000000000
13.654559135437012 32.227569580078125 2.889898538589478 0.000000000000000
13.657083511352539 11.422339439392090 0.372942626476288 0.000000000000000
13.671376228332520 16.984319686889648 0.624248385429382 0.000000000000000
13.677533149719238 9.745653152465820 1.062501311302185 0.000000000000000
13.686511993408203 24.733856201171875 2.562647819519043 0.000000000000000
13.701746940612793 12.645382881164551 0.999997198581696 0.000000000000000
13.709699630737305 13.495082855224609 1.828622102737427 0.000000000000000
13.740324974060059 32.117397308349609 2.884302854537964 0.000000000000000
13.744642257690430 18.311456680297852 -0.047953233122826 0.000000000000000
13.745266914367676 11.036478042602539 1.598043560981750 0.000000000000000
13.749448776245117 12.501393318176270 -0.181634247303009 0.000000000000000
13.767099380493164 29.139032363891602 2.038880825042725 0.000000000000000
13.777544975280762 17.364871978759766 1.060861945152283 0.000000000000000
13.780029296875000 16.679710388183594 0.120837599039078 0.000000000000000
13.789863586425781 8.871294021606445 1.132208824157715 0.000000000000000
13.790477752685547 18.631330490112305 -0.093050241470337 0.000000000000000
13.791370391845703 10.823152542114258 0.670415997505188 0.000000000000000
13.818514823913574 9.846106529235840 1.335373878479004 0.000000000000000
13.820385932922363 22.719823837280273 1.579921960830688 0.000000000000000
13.827324867248535 14.000238418579102 1.714631795883179 0.000000000000000
13.840158462524414 12.858366012573242 0.141781538724899 0.000000000000000
13.871785163879395 15.367296218872070 0.274620205163956 0.000000000000000
13.881720542907715 30.138042449951172 3.329489469528198 0.000000000000000
13.897617340087891 8.092502593994141 1.457921385765076 0.000000000000000
13.930110931396484 11.105147361755371 1.615017056465149 0.000000000000000
13.935977935791016 27.419494628906250 1.827348232269287 0.000000000000000
13.937108993530273 24.277584075927734 2.981774806976318 0.000000000000000
13.948380470275879 18.448432922363281 -0.048439130187035 0.000000000000000
13.964845657348633 14.000966072082520 0.452206850051880 0.000000000000000
13.970046043395996 8.173911094665527 1.055189013481140 0.000000000000000
13.984618186950684 11.999398231506348 1.450238108634949 0.000000000000000
13.999482154846191 9.786522865295410 1.212397813796997 0.000000000000000
14.012600898742676 16.453695297241211 0.037720039486885 0.000000000000000
14.021823883056641 8.125226974487305 1.275431156158447 0.000000000000000
14.037714958190918 24.256324768066406 2.985164165496826 0.000000000000000
14.038516044616699 12.189739227294922 1.767302036285400 0.000000000000000
14.042892456054688 11.999701499938965 0.138629510998726 0.000000000000000
14.046115875244141 17.123159408569336 0.463916480541229 0.000000000000000
14.061634063720703 32.553718566894531 0.470398515462875 0.000000000000000
14.079025268554688 27.463161468505859 2.309669256210327 0.000000000000000
14.079339027404785 34.657653808593750 -1.084113955497742 0.000000000000000
14.089834213256836 19.068456649780273 0.360037833452225 0.000000000000000
14.105050086975098 19.908029556274414 1.026861906051636 0.000000000000000
14.112242698669434 8.243553161621094 1.740851521492004 0.000000000000000
14.127744674682617 21.648782730102539 0.690471410751343 0.000000000000000
14.130366325378418 11.024776458740234 1.030261516571045 0.000000000000000
14.132472038269043 8.419969558715820 1.167651534080505 0.000000000000000
14.156105041503906 25.373031616210938 2.118362426757812 0.000000000000000
14.163925170898438 13.845191955566406 1.882750272750854 0.000000000000000
14.201536178588867 11.517019271850586 1.947601437568665 0.000000000000000
14.204351425170898 15.215789794921875 2.088668346405029 0.000000000000000
14.212751388549805 21.450365066528320 1.876072645187378 0.000000000000000
14.278240203857422 14.637597084045410 -0.396194994449615 0.000000000000000
14.324652671813965 20.890111923217773 1.993488907814026 0.000000000000000
14.329352378845215 12.359174728393555 3.935988187789917 0.000000000000000
14.364677429199219 9.312142372131348 1.446549057960510 0.000000000000000
14.365190505981445 12.275106430053711 -0.148407325148582 0.000000000000000
14.375540733337402 12.289159774780273 1.342388629913330 0.000000000000000
14.384885787963867 12.140686988830566 -0.147841840982437 0.000000000000000
14.401431083679199 23.650844573974609 2.018886804580688 0.000000000000000
14.409864425659180 13.864026069641113 1.380749225616455 0.000000000000000
14.441727638244629 12.063179016113281 -0.509176135063171 0.000000000000000
14.470490455627441 11.128503799438477 0.207103326916695 0.000000000000000
14.517603874206543 12.040767669677734 -0.510366261005402 0.000000000000000
14.520846366882324 21.717199325561523 1.703134775161743 0.000000000000000
14.529528617858887 17.060674667358398 2.386945009231567 0.000000000000000
14.550161361694336 8.391066551208496 1.095002532005310 0.000000000000000
14.567089080810547 8.610150337219238 1.201069712638855 0.000000000000000
14.588998794555664 17.009849548339844 2.386945009231567 0.000000000000000
14.593269348144531 22.024654388427734 1.111971139907837 0.000000000000000
14.615927696228027 16.606544494628906 1.143901944160461 0.000000000000000
14.647015571594238 10.705092430114746 1.042887210845947 0.000000000000000
14.680815696716309 18.791954040527344 2.708553314208984 0.000000000000000
14.695781707763672 13.891777992248535 2.029163360595703 0.000000000000000
14.703789710998535 22.032413482666016 1.522665858268738 0.000000000000000
14.724528312683105 11.745176315307617 1.790391683578491 0.000000000000000
14.725388526916504 21.636070251464844 1.655754208564758 0.000000000000000
14.727285385131836 17.826295852661133 0.484356284141541 0.000000000000000
14.734996795654297 17.892789840698242 1.377094149589539 0.000000000000000
14.759217262268066 10.394517898559570 1.002951383590698 0.000000000000000
14.767986297607422 14.303184509277344 1.419600844383240 0.000000000000000
14.770257949829102 16.900491714477539 0.815182983875275 0.000000000000000
14.771450996398926 22.386770248413086 2.162673950195312 0.000000000000000
14.772021293640137 14.212465286254883 1.732154011726379 0.000000000000000
14.785899162292480 25.290897369384766 2.784759283065796 0.000000000000000
14.787850379943848 11.365988731384277 0.175788357853889 0.000000000000000
14.792730331420898 11.376322746276855 3.189841270446777 0.000000000000000
14.795419692993164 10.057977676391602 0.237321510910988 0.000000000000000
14.807869911193848 19.347597122192383 0.042523179203272 0.000000000000000
14.818022727966309 24.527311325073242 2.089276075363159 0.000000000000000
14.835885047912598 12.117553710937500 2.040384769439697 0.000000000000000
14.840689659118652 17.893474578857422 1.739789485931396 0.000000000000000
14.843474388122559 16.406864166259766 2.944240093231201 0.000000000000000
14.855725288391113 11.507511138916016 0.790877044200897 0.000000000000000
14.862129211425781 12.298970222473145 1.935712456703186 0.000000000000000
14.869907379150391 14.485115051269531 1.593667149543762 0.000000000000000
14.870210647583008 15.897342681884766 1.251326918601990 0.000000000000000
14.872714042663574 13.892838478088379 1.562436699867249 0.000000000000000
14.884622573852539 24.833007812500000 1.664303898811340 0.000000000000000
14.888541221618652 14.964612960815430 3.128464937210083 0.000000000000000
14.896403312683105 12.327332496643066 0.888170242309570 0.000000000000000
14.938946723937988 19.660667419433594 0.422385394573212 0.000000000000000
14.943229675292969 12.769042968750000 1.054195761680603 0.000000000000000
14.944157600402832 2.442923307418823 2.015063047409058 0.000000000000000
14.946152687072754 22.178619384765625 2.259917259216309 0.000000000000000
14.962844848632812 12.701087951660156 1.393082261085510 0.000000000000000
14.975783348083496 20.566328048706055 0.386336147785187 0.000000000000000
14.983226776123047 14.600613594055176 1.283228874206543 0.000000000000000
14.985465049743652 11.547023773193359 0.468958288431168 0.000000000000000
14.989602088928223 20.701240539550781 0.289962828159332 0.000000000000000
14.990416526794434 9.663629531860352 1.472597360610962 0.000000000000000
15.000230789184570 9.147562026977539 1.530946135520935 0.000000000000000
15.004789352416992 25.460889816284180 2.211753845214844 0.000000000000000
15.005986213684082 9.188836097717285 0.842111766338348 0.000000000000000
15.022195816040039 33.444644927978516 2.107582569122314 0.000000000000000
15.031253814697266 9.881578445434570 -0.521315574645996 0.000000000000000
15.031594276428223 21.646965026855469 1.413449406623840 0.000000000000000
15.049636840820312 23.317600250244141 1.755766272544861 0.000000000000000
15.056872367858887 36.221687316894531 3.238792657852173 0.000000000000000
15.069370269775391 20.694852828979492 0.782152473926544 0.000000000000000
15.072060585021973 19.133245468139648 1.916912794113159 0.000000000000000
15.087149620056152 23.546731948852539 2.200934886932373 0.000000000000000
15.102584838867188 12.582561492919922 1.972453832626343 0.000000000000000
15.114977836608887 22.357498168945312 0.824539959430695 0.000000000000000
15.115766525268555 22.183006286621094 0.820142388343811 0.000000000000000
15.143648147583008 0.314041256904602 1.854439139366150 1.000000000000000
15.146254539489746 12.476292610168457 1.203639268875122 0.000000000000000
15.191925048828125 13.542178153991699 1.405272603034973 0.000000000000000
15.205463409423828 11.609485626220703 0.217041015625000 0.000000000000000
15.207073211669922 19.304637908935547 1.554731965065002 0.000000000000000
15.211845397949219 34.395511627197266 0.715566992759705 0.000000000000000
15.212240219116211 13.277029991149902 -0.158585980534554 0.000000000000000
15.214293479919434 13.115948677062988 -0.157769173383713 0.000000000000000
15.220527648925781 22.416530609130859 1.870941400527954 0.000000000000000
15.237364768981934 22.221149444580078 2.869926452636719 0.000000000000000
15.260035514831543 15.913583755493164 1.394864320755005 0.000000000000000
15.264808654785156 10.957165718078613 -0.255818307399750 0.000000000000000
15.265401840209961 9.017868041992188 0.882653832435608 1.000000000000000
15.272696495056152 12.563442230224609 2.106476783752441 0.000000000000000
15.288288116455078 11.862661361694336 1.941702961921692 0.000000000000000
15.302410125732422 21.373382568359375 1.612362265586853 0.000000000000000
15.323127746582031 15.099599838256836 1.651535153388977 0.000000000000000
15.353431701660156 16.277872085571289 1.890786170959473 0.000000000000000
15.356010437011719 12.845990180969238 1.691738247871399 0.000000000000000
15.362570762634277 12.861517906188965 -0.118895322084427 0.000000000000000
15.372254371643066 17.111024856567383 1.943663477897644 0.000000000000000
15.375479698181152 12.771328926086426 2.659841060638428 0.000000000000000
15.404075622558594 11.068552017211914 1.163477182388306 0.000000000000000
15.409750938415527 12.061530113220215 1.238027453422546 0.000000000000000
15.447976112365723 13.673943519592285 1.743268370628357 0.000000000000000
15.455892562866211 22.880718231201172 2.941102743148804 0.000000000000000
15.462588310241699 16.237905502319336 1.073099732398987 0.000000000000000
15.469123840332031 8.650362968444824 0.133015885949135 0.000000000000000
15.480158805847168 19.591445922851562 1.772292852401733 0.000000000000000
15.503165245056152 22.160573959350586 1.450510025024414 0.000000000000000
15.543499946594238 16.866762161254883 2.180265665054321 0.000000000000000
15.558448791503906 11.085861206054688 0.033342752605677 0.000000000000000
15.559120178222656 10.168424606323242 0.175185188651085 0.000000000000000
15.563787460327148 16.770914077758789 1.712325453758240 0.000000000000000
15.575067520141602 11.891680717468262 3.349569082260132 0.000000000000000
15.575822830200195 9.466903686523438 0.872323751449585 0.000000000000000
15.578192710876465 22.889099121093750 2.949152469635010 0.000000000000000
15.585074424743652 10.124168395996094 1.534476757049561 0.000000000000000
15.604281425476074 16.543825149536133 1.570323228836060 0.000000000000000
