# This PCD file was generated using the MATLAB® pcwrite function
# from Computer Vision Toolbox®.
# .PCD v.7 - Point Cloud Data file format
VERSION .7
FIELDS x y z intensity
SIZE 8 8 8 8
TYPE F F F F
COUNT 1 1 1 1
WIDTH 638
HEIGHT 1
VIEWPOINT 0 0 0 1 0 0 0
POINTS 638
DATA ascii
12.999377250671387 -15.905907630920410 0.272497951984406 0.000000000000000
13.009584426879883 -10.105094909667969 2.815794467926025 0.000000000000000
13.013811111450195 -17.466365814208984 0.330763489007950 0.000000000000000
13.014938354492188 -8.232789993286133 2.049359798431396 0.000000000000000
13.015484809875488 -18.268608093261719 2.132193803787231 1.000000000000000
13.015716552734375 -15.166399955749512 2.961926221847534 0.000000000000000
13.025269508361816 -20.404685974121094 0.460583508014679 1.000000000000000
13.031431198120117 -17.618040084838867 0.669526457786560 0.000000000000000
13.031715393066406 -16.376655578613281 0.358008235692978 0.000000000000000
13.034969329833984 -13.063207626342773 2.259353399276733 0.000000000000000
13.035788536071777 -21.387937545776367 0.476562768220901 1.000000000000000
13.035987854003906 -9.030248641967773 0.972707033157349 0.000000000000000
13.038464546203613 -14.813192367553711 2.626071929931641 0.000000000000000
13.039798736572266 -16.199703216552734 -0.083480276167393 0.000000000000000
13.041753768920898 -15.802920341491699 1.652145266532898 0.000000000000000
13.042376518249512 -19.863428115844727 -1.099832057952881 1.000000000000000
13.043022155761719 -13.122484207153320 1.612198233604431 0.000000000000000
13.043776512145996 -7.551481723785400 1.098884105682373 0.000000000000000
13.046517372131348 -16.860752105712891 2.421446561813354 1.000000000000000
13.059012413024902 -19.334564208984375 2.033043622970581 1.000000000000000
13.060050964355469 -8.132962226867676 1.032684803009033 0.000000000000000
13.062522888183594 -7.721769809722900 1.616293191909790 0.000000000000000
13.066516876220703 -10.000228881835938 -1.332539558410645 1.000000000000000
13.070010185241699 -15.385477066040039 0.422869354486465 1.000000000000000
13.071703910827637 -17.310247421264648 1.623365759849548 1.000000000000000
13.071916580200195 -15.061925888061523 1.069619894027710 0.000000000000000
13.073730468750000 -22.237369537353516 -0.103551514446735 1.000000000000000
13.095076560974121 -7.822347164154053 3.172738790512085 0.000000000000000
13.097340583801270 -10.191595077514648 0.826170384883881 0.000000000000000
13.098744392395020 -18.543905258178711 -0.134727448225021 0.000000000000000
13.101197242736816 -15.744650840759277 1.098540186882019 0.000000000000000
13.102406501770020 -16.061702728271484 1.151619076728821 1.000000000000000
13.105984687805176 -8.350075721740723 1.902562260627747 0.000000000000000
13.106055259704590 -16.937694549560547 -1.238601446151733 1.000000000000000
13.107021331787109 -16.458906173706055 0.400318801403046 0.000000000000000
13.108928680419922 -15.038169860839844 0.302946805953979 0.000000000000000
13.110135078430176 -16.156200408935547 1.977758288383484 1.000000000000000
13.111606597900391 -16.359521865844727 2.233153820037842 0.000000000000000
13.113734245300293 -7.465388774871826 1.129310965538025 0.000000000000000
13.114730834960938 -11.093797683715820 1.557234764099121 0.000000000000000
13.118871688842773 -16.399652481079102 1.571721434593201 1.000000000000000
13.122756958007812 -14.936793327331543 1.564788341522217 0.000000000000000
13.123424530029297 -13.626777648925781 1.525477647781372 0.000000000000000
13.123873710632324 -17.110164642333984 2.163748741149902 1.000000000000000
13.125234603881836 -17.785732269287109 1.568952202796936 1.000000000000000
13.128202438354492 -20.499605178833008 -1.267244100570679 1.000000000000000
13.130691528320312 -17.906692504882812 1.618948936462402 1.000000000000000
13.131273269653320 -15.576222419738770 1.328158855438232 0.000000000000000
13.133854866027832 -19.261453628540039 0.712280333042145 1.000000000000000
13.142500877380371 -8.381729125976562 1.770491003990173 0.000000000000000
13.145572662353516 -13.737801551818848 2.327892065048218 0.000000000000000
13.147650718688965 -11.146862983703613 0.891285121440887 0.000000000000000
13.148224830627441 -13.324724197387695 1.779414653778076 0.000000000000000
13.150308609008789 -16.006027221679688 0.832012355327606 1.000000000000000
13.151412010192871 -20.468925476074219 -0.331235110759735 1.000000000000000
13.155885696411133 -15.733703613281250 0.666026294231415 0.000000000000000
13.156084060668945 -7.734686851501465 1.142147421836853 0.000000000000000
13.159896850585938 -11.368138313293457 2.129080772399902 0.000000000000000
13.163222312927246 -15.931972503662109 1.746299743652344 1.000000000000000
13.165058135986328 -13.341782569885254 1.402757644653320 0.000000000000000
13.172069549560547 -17.724571228027344 2.703640937805176 1.000000000000000
13.172576904296875 -20.146688461303711 -0.235272228717804 1.000000000000000
13.178861618041992 -8.635178565979004 2.335060358047485 0.000000000000000
13.185357093811035 -13.367021560668945 2.298726797103882 0.000000000000000
13.192747116088867 -8.265530586242676 1.411334276199341 0.000000000000000
13.194405555725098 -8.319255828857422 3.244420766830444 0.000000000000000
13.196321487426758 -18.246091842651367 3.337224960327148 0.000000000000000
13.199943542480469 -20.363458633422852 -1.403501868247986 1.000000000000000
13.201171875000000 -13.767016410827637 2.335183620452881 0.000000000000000
13.211567878723145 -8.598719596862793 1.429030179977417 0.000000000000000
13.213916778564453 -8.424029350280762 1.021620631217957 0.000000000000000
13.216002464294434 -7.837108612060547 1.392916202545166 0.000000000000000
13.218647003173828 -19.781610488891602 0.452669948339462 1.000000000000000
13.219546318054199 -7.403908252716064 3.151560068130493 0.000000000000000
13.221234321594238 -14.723927497863770 2.247647762298584 0.000000000000000
13.222013473510742 -12.443247795104980 2.222896575927734 0.000000000000000
13.223955154418945 -7.594287395477295 1.382443070411682 0.000000000000000
13.224065780639648 -7.932632923126221 1.751531124114990 0.000000000000000
13.226754188537598 -17.442037582397461 1.849696636199951 1.000000000000000
13.227336883544922 -14.254750251770020 1.951287627220154 0.000000000000000
13.227459907531738 -14.897398948669434 1.806060194969177 0.000000000000000
13.229608535766602 -14.309704780578613 2.593358278274536 0.000000000000000
13.239276885986328 -14.754896163940430 2.111560821533203 0.000000000000000
13.241676330566406 -17.629207611083984 0.716010808944702 1.000000000000000
13.242241859436035 -21.820819854736328 -0.886878311634064 1.000000000000000
13.248989105224609 -7.245195865631104 1.246803522109985 0.000000000000000
13.255139350891113 -7.072235584259033 1.839370250701904 0.000000000000000
13.257469177246094 -13.893038749694824 1.926926493644714 0.000000000000000
13.263887405395508 -12.758772850036621 1.484005093574524 0.000000000000000
13.267905235290527 -19.274639129638672 0.445212960243225 1.000000000000000
13.272027969360352 -16.125469207763672 1.819843053817749 1.000000000000000
13.274058341979980 -8.752960205078125 1.595455169677734 0.000000000000000
13.275759696960449 -15.636526107788086 2.329807281494141 0.000000000000000
13.277686119079590 -14.953966140747070 3.418312549591064 0.000000000000000
13.281402587890625 -16.499853134155273 1.920180320739746 1.000000000000000
13.282530784606934 -20.786893844604492 -0.620110273361206 1.000000000000000
13.282994270324707 -7.248439788818359 1.518378138542175 0.000000000000000
13.285300254821777 -18.002634048461914 0.898631095886230 1.000000000000000
13.285345077514648 -17.216531753540039 3.222876071929932 0.000000000000000
13.286898612976074 -14.475738525390625 1.622358679771423 0.000000000000000
13.287416458129883 -14.062844276428223 1.373257994651794 0.000000000000000
13.291194915771484 -18.952207565307617 3.956804752349854 0.000000000000000
13.294096946716309 -7.154541969299316 2.580583572387695 0.000000000000000
13.297222137451172 -8.511777877807617 1.375733256340027 0.000000000000000
13.304547309875488 -7.005198955535889 0.980245828628540 0.000000000000000
13.314692497253418 -20.343879699707031 3.235498189926147 1.000000000000000
13.316985130310059 -14.037589073181152 1.224136829376221 0.000000000000000
13.318377494812012 -16.119764328002930 1.121462106704712 1.000000000000000
13.319990158081055 -12.222210884094238 1.925570726394653 0.000000000000000
13.320444107055664 -10.403700828552246 -1.303490996360779 0.000000000000000
13.325102806091309 -16.451608657836914 0.199538439512253 0.000000000000000
13.330615997314453 -18.119581222534180 1.813855528831482 1.000000000000000
13.330831527709961 -12.811527252197266 1.526577234268188 0.000000000000000
13.334758758544922 -19.805364608764648 -1.380868554115295 1.000000000000000
13.334854125976562 -8.747372627258301 1.131967782974243 0.000000000000000
13.351055145263672 -7.989176273345947 2.070465564727783 0.000000000000000
13.351810455322266 -18.326023101806641 1.975750207901001 1.000000000000000
13.353392601013184 -20.183189392089844 0.739398539066315 1.000000000000000
13.356678009033203 -14.634608268737793 1.100805878639221 0.000000000000000
13.358375549316406 -16.259279251098633 1.493619799613953 1.000000000000000
13.373546600341797 -15.742787361145020 1.068096399307251 0.000000000000000
13.381930351257324 -18.672397613525391 2.812525510787964 1.000000000000000
13.384515762329102 -14.824376106262207 0.879010677337646 0.000000000000000
13.386388778686523 -10.403019905090332 2.075610637664795 0.000000000000000
13.392617225646973 -11.142873764038086 0.264562219381332 0.000000000000000
13.393194198608398 -16.113861083984375 -0.889187395572662 1.000000000000000
13.405519485473633 -17.806529998779297 1.883376598358154 1.000000000000000
13.408114433288574 -7.232209682464600 1.865133166313171 0.000000000000000
13.416655540466309 -17.992612838745117 0.728863894939423 1.000000000000000
13.417115211486816 -8.322531700134277 1.584273099899292 0.000000000000000
13.417694091796875 -14.881999015808105 1.904704213142395 1.000000000000000
13.425601959228516 -14.667397499084473 1.995217561721802 0.000000000000000
13.435077667236328 -12.941967964172363 0.892783761024475 0.000000000000000
13.440534591674805 -10.347242355346680 0.779145002365112 0.000000000000000
13.441679000854492 -16.403820037841797 2.408806800842285 0.000000000000000
13.446227073669434 -20.170152664184570 0.368115603923798 1.000000000000000
13.449204444885254 -12.630526542663574 2.258867263793945 0.000000000000000
13.453960418701172 -19.780557632446289 -0.279753863811493 1.000000000000000
13.457349777221680 -21.796113967895508 -1.284195542335510 1.000000000000000
13.459034919738770 -17.775388717651367 0.424211621284485 1.000000000000000
13.469165802001953 -7.091875076293945 1.728959798812866 0.000000000000000
13.471940040588379 -9.520320892333984 1.495479941368103 0.000000000000000
13.480062484741211 -15.859196662902832 1.116320848464966 1.000000000000000
13.482167243957520 -14.097440719604492 2.215596675872803 0.000000000000000
13.482996940612793 -14.689382553100586 1.338338017463684 0.000000000000000
13.483897209167480 -7.317502498626709 2.622368812561035 0.000000000000000
13.483983993530273 -8.403492927551270 1.066437840461731 0.000000000000000
13.489675521850586 -22.950355529785156 3.945325613021851 0.000000000000000
13.491713523864746 -15.232456207275391 0.387154936790466 0.000000000000000
13.498383522033691 -20.590021133422852 2.032803058624268 1.000000000000000
13.498402595520020 -8.412479400634766 1.947282552719116 0.000000000000000
13.502199172973633 -16.704803466796875 0.449926972389221 0.000000000000000
13.502235412597656 -19.841106414794922 -0.142418041825294 0.000000000000000
13.507567405700684 -17.768503189086914 -0.432459264993668 0.000000000000000
13.507889747619629 -7.181969642639160 0.732163012027740 0.000000000000000
13.508999824523926 -15.973299026489258 -0.083978042006493 0.000000000000000
13.511878967285156 -13.504333496093750 2.831158161163330 0.000000000000000
13.516411781311035 -16.014913558959961 -0.808726727962494 1.000000000000000
13.518887519836426 -17.169572830200195 1.551110267639160 0.000000000000000
13.519645690917969 -8.545443534851074 1.104378938674927 0.000000000000000
13.526666641235352 -12.799586296081543 1.357753038406372 0.000000000000000
13.530540466308594 -7.412666320800781 2.053053379058838 0.000000000000000
13.534331321716309 -15.388463020324707 1.652466773986816 0.000000000000000
13.551685333251953 -12.556909561157227 1.346991062164307 0.000000000000000
13.557600021362305 -14.636775016784668 2.442609786987305 0.000000000000000
13.557935714721680 -22.125404357910156 0.394049495458603 1.000000000000000
13.558290481567383 -14.948514938354492 2.470803260803223 0.000000000000000
13.560383796691895 -8.505093574523926 2.130089044570923 0.000000000000000
13.562614440917969 -14.173631668090820 1.619725346565247 0.000000000000000
13.566742897033691 -16.110454559326172 1.332483053207397 1.000000000000000
13.568376541137695 -12.363165855407715 1.955227494239807 0.000000000000000
13.575542449951172 -13.164347648620605 1.196355581283569 0.000000000000000
13.578453063964844 -21.896385192871094 -0.994288086891174 1.000000000000000
13.581185340881348 -16.140176773071289 1.619386196136475 0.000000000000000
13.582799911499023 -7.732418537139893 1.485684394836426 0.000000000000000
13.596197128295898 -16.305925369262695 0.240864247083664 1.000000000000000
13.596541404724121 -15.510434150695801 0.273612141609192 1.000000000000000
13.599722862243652 -12.120316505432129 1.468895077705383 0.000000000000000
13.605902671813965 -16.156955718994141 1.662391543388367 0.000000000000000
13.617547035217285 -8.070084571838379 3.292480230331421 0.000000000000000
13.631937980651855 -15.390773773193359 2.335224390029907 0.000000000000000
13.633468627929688 -21.734449386596680 -1.187493085861206 1.000000000000000
13.635901451110840 -16.307775497436523 1.344858407974243 0.000000000000000
13.644412994384766 -7.245091438293457 1.754691004753113 0.000000000000000
13.654522895812988 -7.299413204193115 1.009390354156494 0.000000000000000
13.654578208923340 -15.757161140441895 1.319097638130188 0.000000000000000
13.655009269714355 -21.978713989257812 -0.501345872879028 1.000000000000000
13.657969474792480 -12.908477783203125 1.637546181678772 0.000000000000000
13.660127639770508 -7.150755405426025 1.547132253646851 0.000000000000000
13.661924362182617 -6.476057529449463 1.851036429405212 0.000000000000000
13.666016578674316 -7.058390617370605 1.299705028533936 0.000000000000000
13.667057991027832 -16.591852188110352 -0.003751759650186 0.000000000000000
13.667082786560059 -6.286733627319336 1.841800808906555 0.000000000000000
13.673962593078613 -20.545162200927734 -0.146453201770782 1.000000000000000
13.679714202880859 -14.058320045471191 1.864581227302551 0.000000000000000
13.682122230529785 -10.907052993774414 0.803739905357361 0.000000000000000
13.687218666076660 -19.239868164062500 2.890786409378052 1.000000000000000
13.696560859680176 -10.187549591064453 1.409401416778564 0.000000000000000
13.699445724487305 -15.205164909362793 1.689833521842957 0.000000000000000
13.717441558837891 -16.377973556518555 0.119318470358849 1.000000000000000
13.723544120788574 -15.816099166870117 1.082761645317078 0.000000000000000
13.736146926879883 -15.719435691833496 -1.167116045951843 0.000000000000000
13.740904808044434 -17.086576461791992 0.880652070045471 1.000000000000000
13.741210937500000 -8.014279365539551 3.308771610260010 0.000000000000000
13.742316246032715 -9.716423988342285 2.060542106628418 0.000000000000000
13.742838859558105 -18.150209426879883 1.835716843605042 1.000000000000000
13.749264717102051 -10.371352195739746 1.255659818649292 0.000000000000000
13.754378318786621 -6.621900558471680 1.383887648582458 0.000000000000000
13.758073806762695 -16.924476623535156 0.624477386474609 0.000000000000000
13.759764671325684 -10.254718780517578 2.283632516860962 0.000000000000000
13.770592689514160 -12.475028038024902 2.753752708435059 0.000000000000000
13.771845817565918 -10.130496025085449 1.378555893898010 0.000000000000000
13.775673866271973 -15.654051780700684 2.552952766418457 0.000000000000000
13.784355163574219 -15.940057754516602 -1.056477189064026 1.000000000000000
13.785897254943848 -10.516494750976562 1.130392313003540 0.000000000000000
13.821381568908691 -10.727918624877930 1.586125969886780 0.000000000000000
13.834650993347168 -10.133593559265137 0.490996003150940 0.000000000000000
13.858853340148926 -16.094211578369141 1.384626507759094 1.000000000000000
13.860177993774414 -14.423500061035156 2.007198333740234 0.000000000000000
13.860346794128418 -18.770893096923828 3.988480806350708 0.000000000000000
13.861781120300293 -21.759473800659180 -0.797265946865082 1.000000000000000
13.862254142761230 -11.726130485534668 3.103574514389038 0.000000000000000
13.878217697143555 -7.655499935150146 1.940477252006531 0.000000000000000
13.879631996154785 -7.469661712646484 0.906069993972778 0.000000000000000
13.880125999450684 -7.249569892883301 1.778616666793823 0.000000000000000
13.883927345275879 -16.533323287963867 -1.415062308311462 1.000000000000000
13.890352249145508 -8.266517639160156 1.835947751998901 0.000000000000000
13.901856422424316 -7.147344589233398 1.665014982223511 0.000000000000000
13.905205726623535 -16.292993545532227 -0.003738495288417 0.000000000000000
13.905343055725098 -14.592864990234375 1.916059851646423 0.000000000000000
13.908166885375977 -9.043117523193359 1.241555452346802 0.000000000000000
13.915777206420898 -7.991588592529297 2.743007183074951 0.000000000000000
13.917796134948730 -6.427387714385986 1.236135125160217 0.000000000000000
13.928031921386719 -8.382707595825195 3.381267786026001 0.000000000000000
13.928509712219238 -14.618200302124023 2.992419242858887 0.000000000000000
13.944309234619141 -12.528655052185059 1.996747016906738 0.000000000000000
13.964309692382812 -9.975730895996094 1.317492604255676 0.000000000000000
13.967267036437988 -18.363897323608398 3.419321298599243 0.000000000000000
13.996296882629395 -15.966460227966309 1.589035749435425 1.000000000000000
14.002849578857422 -11.910616874694824 2.724432706832886 0.000000000000000
14.004352569580078 -5.573574542999268 1.244499444961548 0.000000000000000
14.011573791503906 -7.262599468231201 0.755300045013428 0.000000000000000
14.014971733093262 -8.558470726013184 1.647771835327148 0.000000000000000
14.015555381774902 -18.548030853271484 2.025751590728760 1.000000000000000
14.019196510314941 -11.909769058227539 1.447727441787720 0.000000000000000
14.045374870300293 -6.403214454650879 2.638543844223022 0.000000000000000
14.053782463073730 -7.605510711669922 1.603442549705505 0.000000000000000
14.059932708740234 -16.368125915527344 -1.414277434349060 1.000000000000000
14.062500953674316 -5.537098407745361 0.897898554801941 0.000000000000000
14.082802772521973 -22.323345184326172 -0.967833578586578 1.000000000000000
14.085314750671387 -10.513789176940918 1.872188568115234 0.000000000000000
14.086596488952637 -19.259586334228516 1.555590510368347 1.000000000000000
14.100730895996094 -15.915013313293457 -0.616216123104095 1.000000000000000
14.111162185668945 -12.694157600402832 2.812979698181152 0.000000000000000
14.112516403198242 -8.838356018066406 1.509564399719238 0.000000000000000
14.114007949829102 -6.510230064392090 1.283338665962219 0.000000000000000
14.122308731079102 -7.614256858825684 1.964295864105225 0.000000000000000
14.123407363891602 -7.624078273773193 0.984461784362793 0.000000000000000
14.128255844116211 -11.957910537719727 1.313785076141357 0.000000000000000
14.128402709960938 -7.562252998352051 1.820147752761841 0.000000000000000
14.134827613830566 -19.496393203735352 2.735187530517578 1.000000000000000
14.139313697814941 -15.186985015869141 1.753372430801392 0.000000000000000
14.147158622741699 -19.451896667480469 2.944742202758789 1.000000000000000
14.151897430419922 -7.191473484039307 1.034891843795776 0.000000000000000
14.166268348693848 -11.513433456420898 1.225291848182678 0.000000000000000
14.171648025512695 -6.169067382812500 0.858721733093262 0.000000000000000
14.175608634948730 -7.501797676086426 1.453948736190796 0.000000000000000
14.176708221435547 -17.675186157226562 -1.310427904129028 0.000000000000000
14.183779716491699 -4.992671012878418 1.241537213325500 0.000000000000000
14.189517974853516 -18.979946136474609 1.544921517372131 1.000000000000000
14.208270072937012 -13.722681999206543 1.721229195594788 0.000000000000000
14.210683822631836 -22.352764129638672 -0.157182022929192 1.000000000000000
14.213157653808594 -8.223178863525391 3.415479898452759 0.000000000000000
14.219099998474121 -9.475075721740723 -0.199817508459091 0.000000000000000
14.221116065979004 -24.042764663696289 3.717234849929810 0.000000000000000
14.221425056457520 -5.848875999450684 1.299368262290955 0.000000000000000
14.224607467651367 -9.415775299072266 -0.428820013999939 1.000000000000000
14.232961654663086 -16.082910537719727 -0.704941868782043 0.000000000000000
14.237046241760254 -11.938681602478027 1.766166567802429 0.000000000000000
14.250478744506836 -17.222196578979492 1.241929054260254 1.000000000000000
14.255699157714844 -9.492278099060059 -0.200285241007805 1.000000000000000
14.259207725524902 -17.684886932373047 0.694079399108887 0.000000000000000
14.260116577148438 -5.226365566253662 1.107319116592407 0.000000000000000
14.271897315979004 -17.314426422119141 0.987523972988129 1.000000000000000
14.280732154846191 -5.815069675445557 1.064700603485107 0.000000000000000
14.291531562805176 -8.079834938049316 2.009988546371460 0.000000000000000
14.292768478393555 -8.126352310180664 1.649768471717834 0.000000000000000
14.326721191406250 -9.022365570068359 1.698890209197998 0.000000000000000
14.328851699829102 -19.323390960693359 2.945228576660156 1.000000000000000
14.344916343688965 -5.593426227569580 0.914741575717926 0.000000000000000
14.351212501525879 -14.748403549194336 1.540078043937683 0.000000000000000
14.352253913879395 -15.167535781860352 1.562765598297119 0.000000000000000
14.352978706359863 -19.778398513793945 2.991893291473389 1.000000000000000
14.355810165405273 -4.389558792114258 1.837911963462830 0.000000000000000
14.358090400695801 -18.051885604858398 1.015136003494263 1.000000000000000
14.367818832397461 -6.763738632202148 1.004665970802307 0.000000000000000
14.370327949523926 -8.226301193237305 1.763729572296143 0.000000000000000
14.373935699462891 -8.862974166870117 1.530871629714966 0.000000000000000
14.383732795715332 -7.499826431274414 1.057530879974365 0.000000000000000
14.388665199279785 -11.439522743225098 2.446146249771118 0.000000000000000
14.392368316650391 -6.638626575469971 1.940477252006531 0.000000000000000
14.397210121154785 -6.157569885253906 1.081233263015747 0.000000000000000
14.410271644592285 -8.850705146789551 1.920815706253052 0.000000000000000
14.413022994995117 -5.756629467010498 1.900131702423096 0.000000000000000
14.413842201232910 -7.572572231292725 1.375821352005005 0.000000000000000
14.422381401062012 -7.580912590026855 1.062214851379395 0.000000000000000
14.429718971252441 -11.860297203063965 1.361825108528137 0.000000000000000
14.448539733886719 -18.296335220336914 1.026040077209473 1.000000000000000
14.462400436401367 -7.624836444854736 0.782452523708344 0.000000000000000
14.462686538696289 -5.369431972503662 1.005747318267822 0.000000000000000
14.464982986450195 -13.951118469238281 2.978345632553101 0.000000000000000
14.473918914794922 -5.492923259735107 1.039113998413086 0.000000000000000
14.479164123535156 -7.343156337738037 1.987628221511841 0.000000000000000
14.480838775634766 -7.211045265197754 1.335672736167908 0.000000000000000
14.490324020385742 -12.335722923278809 1.725164890289307 0.000000000000000
14.491930961608887 -13.731192588806152 2.656675338745117 0.000000000000000
14.493913650512695 -6.791913509368896 1.451059699058533 0.000000000000000
14.499777793884277 -8.037027359008789 1.765847921371460 0.000000000000000
14.501699447631836 -16.529033660888672 -1.441223502159119 1.000000000000000
14.503066062927246 0.373190224170685 -1.231010437011719 0.000000000000000
14.518465042114258 -16.874505996704102 -0.388560384511948 1.000000000000000
14.518728256225586 -6.999255180358887 1.050765275955200 0.000000000000000
14.518786430358887 -15.025194168090820 1.986085653305054 0.000000000000000
14.529759407043457 -12.385046005249023 1.355132937431335 0.000000000000000
14.529959678649902 -6.584356307983398 1.286287903785706 0.000000000000000
14.530627250671387 -3.792528390884399 0.747610569000244 0.000000000000000
14.534276962280273 -19.195465087890625 2.734735965728760 1.000000000000000
14.539443969726562 -11.437716484069824 1.856239199638367 0.000000000000000
14.539882659912109 -12.377912521362305 3.263976573944092 0.000000000000000
14.541658401489258 -3.895337343215942 1.272087454795837 0.000000000000000
14.544917106628418 -3.682050704956055 1.996595621109009 0.000000000000000
14.549938201904297 -16.598033905029297 2.098127126693726 0.000000000000000
14.550226211547852 -7.487754821777344 1.256256699562073 0.000000000000000
14.560240745544434 -6.151085376739502 1.305062294006348 0.000000000000000
14.582507133483887 -11.357078552246094 0.955730378627777 0.000000000000000
14.585188865661621 -6.421283245086670 1.069652557373047 0.000000000000000
14.587975502014160 -11.241555213928223 3.148055553436279 0.000000000000000
14.589560508728027 -5.016754150390625 2.053053379058838 0.000000000000000
14.595383644104004 -4.717555999755859 1.458052635192871 0.000000000000000
14.599908828735352 -12.330019950866699 1.816509485244751 0.000000000000000
14.621948242187500 -13.661931037902832 1.073261737823486 0.000000000000000
14.627120971679688 -8.832697868347168 1.443854689598083 0.000000000000000
14.634936332702637 -19.188858032226562 2.741055965423584 1.000000000000000
14.634962081909180 -12.985307693481445 1.464253187179565 0.000000000000000
14.644351005554199 -4.049955368041992 1.618411421775818 0.000000000000000
14.650900840759277 -19.209791183471680 -0.653727650642395 1.000000000000000
14.664625167846680 -11.965291023254395 1.799097657203674 0.000000000000000
14.665075302124023 -11.606319427490234 1.471892714500427 0.000000000000000
14.667216300964355 -11.134635925292969 2.729123830795288 0.000000000000000
14.669808387756348 -10.980010986328125 2.715636491775513 0.000000000000000
14.673000335693359 -3.989865541458130 1.020630121231079 0.000000000000000
14.673012733459473 -19.013446807861328 1.797404408454895 1.000000000000000
14.677477836608887 -3.787382602691650 1.614598393440247 0.000000000000000
14.687548637390137 -9.750625610351562 1.387470722198486 0.000000000000000
14.709436416625977 -7.689580917358398 1.767966270446777 0.000000000000000
14.716623306274414 -5.623263359069824 1.928811192512512 0.000000000000000
14.717231750488281 -7.563304901123047 1.046842694282532 0.000000000000000
14.722934722900391 -12.899850845336914 1.389400601387024 0.000000000000000
14.727003097534180 -3.024626731872559 0.806338787078857 0.000000000000000
14.733144760131836 -5.999290943145752 2.116897821426392 0.000000000000000
14.749543190002441 -17.128564834594727 0.430070698261261 1.000000000000000
14.763565063476562 -14.055224418640137 1.937635421752930 0.000000000000000
14.767043113708496 -5.353758335113525 1.423974156379700 0.000000000000000
14.768445014953613 -19.528799057006836 1.077570676803589 1.000000000000000
14.769936561584473 -6.745374679565430 1.121187090873718 0.000000000000000
14.771384239196777 -6.058787822723389 1.318228125572205 0.000000000000000
14.783249855041504 -17.946912765502930 1.785029649734497 1.000000000000000
14.783459663391113 -18.676177978515625 2.012707233428955 1.000000000000000
14.788407325744629 -8.137055397033691 1.693698525428772 0.000000000000000
14.789136886596680 -7.755252361297607 1.378790855407715 0.000000000000000
14.797446250915527 -8.557778358459473 1.015562415122986 0.000000000000000
14.797916412353516 -18.318313598632812 -1.361930370330811 0.000000000000000
14.805354118347168 -3.986198425292969 1.206701040267944 0.000000000000000
14.826225280761719 -10.693405151367188 1.834274291992188 0.000000000000000
14.827042579650879 -17.154279708862305 0.300777047872543 1.000000000000000
14.827569961547852 -2.584625005722046 1.213630676269531 0.000000000000000
14.830108642578125 -7.902581214904785 1.597347378730774 0.000000000000000
14.838404655456543 -3.286606311798096 1.618835091590881 0.000000000000000
14.841357231140137 -16.011505126953125 -0.045724797993898 0.000000000000000
14.847978591918945 -12.628577232360840 1.852847337722778 0.000000000000000
14.861926078796387 -14.279983520507812 1.741584539413452 0.000000000000000
14.862461090087891 -18.185558319091797 1.757701039314270 1.000000000000000
14.864650726318359 -12.219523429870605 1.588785767555237 0.000000000000000
14.865416526794434 -5.381792068481445 3.288407325744629 0.000000000000000
14.868835449218750 -6.670469284057617 1.345547199249268 0.000000000000000
14.892108917236328 -17.284362792968750 0.477906048297882 1.000000000000000
14.904321670532227 -5.462468147277832 0.912497580051422 0.000000000000000
14.904573440551758 -3.717785358428955 1.298020958900452 0.000000000000000
14.912378311157227 -4.331316947937012 1.312166452407837 0.000000000000000
14.915652275085449 -12.787871360778809 3.358330488204956 0.000000000000000
14.917238235473633 -10.783210754394531 2.253520250320435 0.000000000000000
14.917576789855957 -16.052661895751953 -0.298345744609833 1.000000000000000
14.917850494384766 -3.991086959838867 0.887705206871033 0.000000000000000
14.918590545654297 -6.927510738372803 1.491146206855774 0.000000000000000
14.920788764953613 -6.990043163299561 2.017279863357544 0.000000000000000
14.925484657287598 -2.257800102233887 1.848119974136353 0.000000000000000
14.928887367248535 -5.782141685485840 1.321848750114441 0.000000000000000
14.930316925048828 -14.213975906372070 1.542764663696289 0.000000000000000
14.936386108398438 -17.913215637207031 0.981616079807281 0.000000000000000
14.936641693115234 -18.792066574096680 -0.372911602258682 1.000000000000000
14.939414978027344 -5.349673271179199 3.300625562667847 0.000000000000000
14.947484016418457 -11.110698699951172 2.760203361511230 0.000000000000000
14.948740959167480 -11.386239051818848 1.297534942626953 0.000000000000000
14.950335502624512 -7.861088752746582 2.247753143310547 0.000000000000000
14.956259727478027 -6.029364585876465 2.145918369293213 0.000000000000000
14.959573745727539 -5.613400459289551 1.041657567024231 0.000000000000000
14.960215568542480 -6.648831844329834 1.098851561546326 0.000000000000000
14.961250305175781 -9.593155860900879 -0.344355642795563 0.000000000000000
14.962297439575195 -8.486301422119141 1.320554494857788 0.000000000000000
14.962537765502930 -3.182023048400879 2.035641193389893 0.000000000000000
14.963785171508789 -8.041005134582520 1.614759206771851 0.000000000000000
14.969384193420410 -20.623264312744141 3.391152381896973 0.000000000000000
14.969874382019043 -14.351578712463379 1.552018880844116 0.000000000000000
14.972187995910645 -11.849376678466797 1.207973241806030 0.000000000000000
14.975539207458496 -5.091090202331543 0.848326683044434 0.000000000000000
14.976289749145508 -17.115716934204102 -0.484336942434311 1.000000000000000
14.977148056030273 -6.112364768981934 1.241866230964661 0.000000000000000
14.982708930969238 -7.878110885620117 1.430382728576660 0.000000000000000
14.983906745910645 -5.491636276245117 1.446725964546204 0.000000000000000
14.984078407287598 -2.275759696960449 1.046514749526978 0.000000000000000
14.988979339599609 -3.979575634002686 1.651881217956543 0.000000000000000
14.997391700744629 -6.362308025360107 1.313614487648010 0.000000000000000
15.004470825195312 -12.307716369628906 1.947294116020203 0.000000000000000
15.006110191345215 -14.421545028686523 2.548091650009155 0.000000000000000
15.007601737976074 -7.129021644592285 1.051136255264282 0.000000000000000
15.020372390747070 -7.318787097930908 1.897792935371399 0.000000000000000
15.023257255554199 -19.327434539794922 1.832033038139343 1.000000000000000
15.038626670837402 -19.831342697143555 3.312006235122681 0.000000000000000
15.038714408874512 -18.212312698364258 -0.230854526162148 1.000000000000000
15.038792610168457 -17.388219833374023 0.923352360725403 1.000000000000000
15.041773796081543 -7.789589405059814 1.923975586891174 0.000000000000000
15.043640136718750 -2.187121629714966 1.020362257957458 0.000000000000000
15.044217109680176 -2.068291902542114 1.376664876937866 0.000000000000000
15.053737640380859 -5.951688289642334 1.086529016494751 0.000000000000000
15.063480377197266 -4.486609935760498 2.091571092605591 0.000000000000000
15.069591522216797 -15.945676803588867 0.080414123833179 1.000000000000000
15.077275276184082 -6.450294494628906 1.100726723670959 0.000000000000000
15.077923774719238 -8.870236396789551 1.275438547134399 0.000000000000000
15.083244323730469 -10.505787849426270 3.141990184783936 0.000000000000000
15.096865653991699 -12.294724464416504 2.073854684829712 0.000000000000000
15.105589866638184 -8.511216163635254 1.364560723304749 0.000000000000000
15.106498718261719 -10.570219993591309 1.130906581878662 0.000000000000000
15.109194755554199 -6.570291519165039 1.360358834266663 0.000000000000000
15.110791206359863 -5.373579502105713 1.107409834861755 0.000000000000000
15.111243247985840 -8.256716728210449 1.288722038269043 0.000000000000000
15.113394737243652 -7.751231193542480 2.079499483108521 0.000000000000000
15.116557121276855 -2.554603338241577 1.457295536994934 0.000000000000000
15.118386268615723 -10.604895591735840 1.346409320831299 0.000000000000000
15.134849548339844 -7.571700096130371 1.922170042991638 0.000000000000000
15.138458251953125 -19.299158096313477 1.930407881736755 1.000000000000000
15.139266014099121 -17.408367156982422 0.261737942695618 1.000000000000000
15.139529228210449 -17.165176391601562 0.963282227516174 1.000000000000000
15.141760826110840 -4.625255584716797 2.106872797012329 0.000000000000000
15.143692970275879 -11.933184623718262 3.295652627944946 0.000000000000000
15.149123191833496 -6.107114315032959 1.380199790000916 0.000000000000000
15.156262397766113 -3.789559602737427 1.018498063087463 0.000000000000000
15.161605834960938 -18.516605377197266 0.041769199073315 1.000000000000000
15.164536476135254 -1.665072441101074 1.053403377532959 0.000000000000000
15.171211242675781 -9.068278312683105 1.016028761863708 0.000000000000000
15.184534072875977 -17.231958389282227 -0.136294052004814 0.000000000000000
15.188035964965820 -6.293574810028076 1.198650479316711 0.000000000000000
15.193004608154297 -17.306623458862305 0.703607380390167 1.000000000000000
15.196548461914062 -4.058260440826416 1.495147466659546 0.000000000000000
15.201134681701660 -17.270233154296875 -0.180702567100525 1.000000000000000
15.209781646728516 -17.778186798095703 -0.588144838809967 0.000000000000000
15.214709281921387 -6.931176662445068 1.380436658859253 0.000000000000000
15.217364311218262 -18.887399673461914 -0.796143412590027 0.000000000000000
15.217901229858398 -7.037782192230225 1.060733437538147 0.000000000000000
15.218672752380371 -17.509546279907227 0.218651607632637 1.000000000000000
15.219069480895996 -7.624132633209229 1.076897025108337 0.000000000000000
15.225920677185059 -11.144097328186035 1.448537826538086 0.000000000000000
15.226388931274414 -1.514964461326599 1.027059197425842 0.000000000000000
15.230051994323730 -1.936426281929016 2.043028116226196 0.000000000000000
15.233371734619141 -12.611995697021484 1.632891416549683 0.000000000000000
15.234226226806641 -4.252326011657715 2.104762077331543 0.000000000000000
15.247932434082031 -1.678538799285889 -0.857641637325287 0.000000000000000
15.250727653503418 -6.089360237121582 1.387609362602234 0.000000000000000
15.251483917236328 -1.993274211883545 1.299705028533936 0.000000000000000
15.264268875122070 -4.203333854675293 2.106872797012329 0.000000000000000
15.267640113830566 -13.968659400939941 2.753761291503906 0.000000000000000
15.271851539611816 -7.824420928955078 1.118682503700256 0.000000000000000
15.284221649169922 -14.176156044006348 1.439440011978149 0.000000000000000
15.284659385681152 -17.072158813476562 0.656073272228241 0.000000000000000
15.292710304260254 -14.613009452819824 2.402486562728882 0.000000000000000
15.295356750488281 -11.464888572692871 2.832917451858521 0.000000000000000
15.299869537353516 -16.223339080810547 -0.603415906429291 1.000000000000000
15.300186157226562 -3.479486465454102 1.921033620834351 0.000000000000000
15.309615135192871 -8.693185806274414 1.385587811470032 0.000000000000000
15.313850402832031 -1.703922390937805 1.212663888931274 0.000000000000000
15.314989089965820 -12.585246086120605 1.884264230728149 0.000000000000000
15.318214416503906 -16.624042510986328 0.690659046173096 0.000000000000000
15.318773269653320 -8.029580116271973 1.294394016265869 0.000000000000000
15.322426795959473 -11.157748222351074 2.320600986480713 0.000000000000000
15.324043273925781 -18.884496688842773 -1.172416210174561 1.000000000000000
15.350139617919922 -11.409165382385254 1.818023681640625 0.000000000000000
15.350387573242188 -17.566747665405273 -0.586435973644257 1.000000000000000
15.351217269897461 -3.682384014129639 1.681537985801697 0.000000000000000
15.361857414245605 -18.244085311889648 0.682861089706421 1.000000000000000
15.362112998962402 -7.551771163940430 1.944289803504944 0.000000000000000
15.362462043762207 -18.222843170166016 -0.278724819421768 1.000000000000000
15.363750457763672 -17.624832153320312 -0.363219141960144 1.000000000000000
15.368550300598145 -8.659379959106445 1.878967404365540 0.000000000000000
15.369457244873047 -17.342712402343750 1.198225975036621 0.000000000000000
15.371850013732910 -15.922464370727539 -0.428817331790924 1.000000000000000
15.381987571716309 -8.001214981079102 2.122761487960815 0.000000000000000
15.382589340209961 -6.500391006469727 1.217556595802307 0.000000000000000
15.382596015930176 -16.800102233886719 0.652181029319763 0.000000000000000
15.387134552001953 -16.484519958496094 0.299132317304611 1.000000000000000
15.392251014709473 -12.216377258300781 3.359004497528076 0.000000000000000
15.396179199218750 -0.872101664543152 1.887979507446289 0.000000000000000
15.399077415466309 -13.602884292602539 1.736195683479309 0.000000000000000
15.399974822998047 -7.938991546630859 1.646933317184448 0.000000000000000
15.406703948974609 -8.082526206970215 2.130053043365479 0.000000000000000
15.409862518310547 -16.529682159423828 0.256383389234543 1.000000000000000
15.410775184631348 -6.913595199584961 1.394589781761169 0.000000000000000
15.414646148681641 -16.513994216918945 -1.437097549438477 0.000000000000000
15.420286178588867 -17.646739959716797 0.490890324115753 1.000000000000000
15.421257972717285 -18.954214096069336 -1.413202047348022 1.000000000000000
15.433207511901855 -18.199501037597656 0.683204591274261 1.000000000000000
15.438726425170898 -4.657110214233398 2.145918369293213 0.000000000000000
15.448014259338379 -16.964054107666016 0.436538487672806 1.000000000000000
15.450627326965332 -16.573410034179688 -0.787286818027496 1.000000000000000
15.452571868896484 -15.933570861816406 1.789743661880493 0.000000000000000
15.453984260559082 -17.194744110107422 0.484272539615631 1.000000000000000
15.459707260131836 -18.635198593139648 -0.376142442226410 0.000000000000000
15.470741271972656 -7.282946109771729 1.821348428726196 0.000000000000000
15.481533050537109 -17.241127014160156 0.084929630160332 1.000000000000000
15.489350318908691 -7.490846157073975 1.088514566421509 0.000000000000000
15.490501403808594 -7.892464160919189 1.099879384040833 0.000000000000000
15.492171287536621 -17.214258193969727 0.218274638056755 1.000000000000000
15.493376731872559 -18.564081192016602 -0.050642430782318 1.000000000000000
15.499304771423340 -18.255474090576172 0.455637514591217 1.000000000000000
15.505596160888672 -5.380813121795654 1.487895965576172 0.000000000000000
15.505974769592285 -16.309076309204102 1.901563763618469 0.000000000000000
15.513496398925781 -17.713436126708984 -1.180450439453125 1.000000000000000
15.517863273620605 -5.760561466217041 1.142955064773560 0.000000000000000
15.518644332885742 -11.752844810485840 2.211082220077515 0.000000000000000
15.521739006042480 -12.123420715332031 1.872151613235474 0.000000000000000
15.523141860961914 -8.908905982971191 1.339470744132996 0.000000000000000
15.532523155212402 -10.740797042846680 1.340406298637390 0.000000000000000
15.534657478332520 -16.704414367675781 -0.968049168586731 1.000000000000000
15.537262916564941 -10.139435768127441 0.923624217510223 0.000000000000000
15.545361518859863 -6.811319828033447 1.041031718254089 0.000000000000000
15.546144485473633 -19.454811096191406 2.056172609329224 1.000000000000000
15.551400184631348 -16.824586868286133 0.479916512966156 0.000000000000000
15.553118705749512 -8.106103897094727 1.143403291702271 0.000000000000000
15.554900169372559 -18.225971221923828 0.363864123821259 1.000000000000000
15.556075096130371 -1.675921797752380 0.748798668384552 0.000000000000000
15.558412551879883 -5.850502014160156 1.340298414230347 0.000000000000000
15.560029029846191 -5.270411968231201 3.417108774185181 0.000000000000000
15.566354751586914 -1.654221415519714 2.083128929138184 0.000000000000000
15.575623512268066 -11.365437507629395 1.554733395576477 0.000000000000000
15.580284118652344 -8.135136604309082 1.349335432052612 0.000000000000000
15.581967353820801 -6.772644996643066 1.402818441390991 0.000000000000000
15.605895996093750 -11.904870986938477 1.582703113555908 0.000000000000000
15.607975006103516 -5.306093215942383 1.392998099327087 0.000000000000000
15.613980293273926 -4.847970485687256 0.782452523708344 0.000000000000000
15.622035026550293 -8.908483505249023 2.665205717086792 0.000000000000000
15.627372741699219 -16.906778335571289 -0.225029408931732 1.000000000000000
15.627706527709961 -6.110590934753418 0.899954617023468 0.000000000000000
15.631414413452148 -18.142431259155273 0.133750185370445 1.000000000000000
15.637372016906738 -6.372580528259277 1.133408427238464 0.000000000000000
15.638053894042969 -1.732258796691895 1.207880258560181 0.000000000000000
15.646256446838379 -5.746161937713623 0.893956363201141 0.000000000000000
15.652720451354980 -5.504824638366699 1.145710468292236 0.000000000000000
15.657328605651855 -7.718283176422119 1.751606106758118 0.000000000000000
15.659521102905273 -16.630266189575195 0.654012680053711 1.000000000000000
15.669028282165527 -17.652172088623047 0.177144393324852 1.000000000000000
15.673693656921387 -17.091653823852539 0.797665715217590 1.000000000000000
15.675287246704102 -6.868247509002686 0.786119639873505 0.000000000000000
15.676911354064941 -4.867509841918945 1.038508415222168 0.000000000000000
15.677773475646973 -9.144473075866699 2.689834833145142 0.000000000000000
15.689338684082031 -18.125686645507812 0.732435762882233 1.000000000000000
15.690942764282227 -18.180694580078125 -1.250192165374756 1.000000000000000
15.694162368774414 -7.967615127563477 2.342200756072998 0.000000000000000
15.697339057922363 -10.915624618530273 1.666019320487976 0.000000000000000
15.704175949096680 -17.105705261230469 1.962187409400940 0.000000000000000
15.704270362854004 -9.106377601623535 0.903735697269440 0.000000000000000
15.708873748779297 -18.276798248291016 -0.004206243436784 0.000000000000000
15.712367057800293 -3.711061239242554 1.719668030738831 0.000000000000000
15.728322982788086 -7.574263572692871 0.969889581203461 0.000000000000000
15.728965759277344 -6.231031417846680 1.298815727233887 0.000000000000000
15.736853599548340 -8.344901084899902 1.505151987075806 0.000000000000000
15.737572669982910 -18.175638198852539 0.688356101512909 1.000000000000000
15.739380836486816 -3.007572412490845 0.797729730606079 0.000000000000000
15.746924400329590 -11.789636611938477 1.869880437850952 0.000000000000000
15.747746467590332 -7.516014099121094 2.586041450500488 0.000000000000000
15.748415946960449 -16.934268951416016 -1.337449431419373 1.000000000000000
15.748979568481445 -7.094727993011475 1.733235359191895 0.000000000000000
15.753547668457031 -5.848052501678467 1.160314202308655 0.000000000000000
15.763555526733398 -18.211427688598633 -1.485835075378418 1.000000000000000
15.764185905456543 -16.870157241821289 -0.358683556318283 0.000000000000000
15.769034385681152 -10.224495887756348 2.001831054687500 0.000000000000000
15.772600173950195 -17.117162704467773 -0.004062428604811 1.000000000000000
15.774314880371094 -8.015233039855957 1.221760511398315 0.000000000000000
15.781283378601074 -10.494590759277344 1.651435494422913 0.000000000000000
15.788109779357910 -8.987857818603516 3.778776884078979 0.000000000000000
15.791249275207520 -10.138579368591309 1.259580731391907 0.000000000000000
15.791429519653320 -16.917648315429688 0.662598490715027 1.000000000000000
15.791530609130859 -16.512193679809570 0.434712290763855 1.000000000000000
15.793812751770020 -17.039054870605469 -1.477983355522156 1.000000000000000
15.794041633605957 -1.622683286666870 0.851540029048920 0.000000000000000
15.794897079467773 -11.313039779663086 1.846790909767151 0.000000000000000
15.794967651367188 -7.463549137115479 2.138802528381348 0.000000000000000
15.798810005187988 -18.435392379760742 0.228830218315125 1.000000000000000
15.799139976501465 -17.646806716918945 0.314200341701508 1.000000000000000
15.803411483764648 -12.871047019958496 2.045137882232666 0.000000000000000
15.804356575012207 -7.687140941619873 1.145745277404785 0.000000000000000
15.804368972778320 -15.910647392272949 0.297487556934357 1.000000000000000
15.805628776550293 -16.257825851440430 0.257245570421219 1.000000000000000
15.806204795837402 -10.670251846313477 1.427236437797546 0.000000000000000
15.808051109313965 -1.237458109855652 0.606370389461517 0.000000000000000
15.809122085571289 -4.288725376129150 1.194287538528442 0.000000000000000
15.816345214843750 -7.843733787536621 2.005232334136963 0.000000000000000
15.823146820068359 -8.424300193786621 1.798730969429016 0.000000000000000
15.832415580749512 -9.281023025512695 1.954803824424744 0.000000000000000
15.834123611450195 -10.861348152160645 1.740693807601929 0.000000000000000
15.835768699645996 -17.350891113281250 0.221403598785400 1.000000000000000
15.839345932006836 -7.837238311767578 2.351698398590088 0.000000000000000
15.840411186218262 -6.654791831970215 1.951512694358826 0.000000000000000
15.847421646118164 -17.435028076171875 0.719853878021240 1.000000000000000
15.852297782897949 -8.454385757446289 2.199563980102539 0.000000000000000
15.854630470275879 -17.669652938842773 0.041434098035097 1.000000000000000
15.857509613037109 -6.721969604492188 2.108664989471436 0.000000000000000
15.860712051391602 -7.898182868957520 1.326037287712097 0.000000000000000
15.862244606018066 -18.815679550170898 2.795227050781250 0.000000000000000
15.862985610961914 -5.027769565582275 1.406133294105530 0.000000000000000
15.873234748840332 -11.285526275634766 1.851333141326904 0.000000000000000
15.873576164245605 -14.667731285095215 1.367335796356201 0.000000000000000
15.877578735351562 -6.730476856231689 1.157517671585083 0.000000000000000
15.879586219787598 -9.715019226074219 1.687606334686279 0.000000000000000
15.880721092224121 -8.914031982421875 2.423457860946655 0.000000000000000
15.889396667480469 -2.204270839691162 -0.680755019187927 0.000000000000000
15.901313781738281 -19.906400680541992 3.119249343872070 0.000000000000000
15.903426170349121 -10.037418365478516 1.371132731437683 0.000000000000000
15.909696578979492 -16.672414779663086 0.349955767393112 1.000000000000000
15.910073280334473 -8.224465370178223 2.383356809616089 0.000000000000000
15.913273811340332 -7.961132049560547 2.021032094955444 0.000000000000000
