# This PCD file was generated using the MATLAB® pcwrite function
# from Computer Vision Toolbox®.
# .PCD v.7 - Point Cloud Data file format
VERSION .7
FIELDS x y z intensity
SIZE 8 8 8 8
TYPE F F F F
COUNT 1 1 1 1
WIDTH 643
HEIGHT 1
VIEWPOINT 0 0 0 1 0 0 0
POINTS 643
DATA ascii
-1.191078662872314 -11.320949554443359 0.961896181106567 0.000000000000000
-1.188124895095825 -11.152568817138672 1.125404953956604 0.000000000000000
-1.184336066246033 -12.943577766418457 0.247298255562782 0.000000000000000
-1.180150628089905 -12.251852035522461 2.560184240341187 0.000000000000000
-1.178111553192139 -11.020232200622559 0.147019430994987 0.000000000000000
-1.175623655319214 -12.147097587585449 0.701532781124115 0.000000000000000
-1.170406579971313 -11.425247192382812 0.726602315902710 0.000000000000000
-1.162580490112305 -10.925460815429688 0.441289186477661 1.000000000000000
-1.157413721084595 -10.960540771484375 0.379100918769836 0.000000000000000
-1.156360507011414 -11.624252319335938 0.896801352500916 1.000000000000000
-1.147573709487915 -9.238249778747559 0.934110105037689 0.000000000000000
-1.136301398277283 -11.092320442199707 0.190737038850784 0.000000000000000
-1.135099291801453 -11.677359580993652 1.436400413513184 0.000000000000000
-1.134043097496033 -11.632775306701660 0.042838662862778 1.000000000000000
-1.131602644920349 -12.101850509643555 1.003564953804016 1.000000000000000
-1.126389622688293 -11.322971343994141 1.141778826713562 1.000000000000000
-1.115989446640015 -11.630419731140137 3.130675315856934 1.000000000000000
-1.104019880294800 -9.148558616638184 2.469133853912354 0.000000000000000
-1.100251913070679 -11.060223579406738 0.339588314294815 1.000000000000000
-1.098000407218933 -11.831599235534668 1.129498720169067 1.000000000000000
-1.097715973854065 -11.183318138122559 0.256966888904572 0.000000000000000
-1.097134351730347 -12.393292427062988 0.595444083213806 0.000000000000000
-1.092308878898621 -11.624715805053711 0.042794682085514 1.000000000000000
-1.080722689628601 -12.005129814147949 0.855560362339020 1.000000000000000
-1.078288316726685 -14.026395797729492 0.754496574401855 0.000000000000000
-1.072301387786865 -11.986559867858887 2.503164529800415 0.000000000000000
-1.070497632026672 -12.290189743041992 0.614158391952515 0.000000000000000
-1.064840078353882 -10.805694580078125 0.206589162349701 0.000000000000000
-1.060629367828369 -11.928802490234375 1.201683282852173 0.000000000000000
-1.059180378913879 -11.357277870178223 1.949759244918823 0.000000000000000
-1.053424239158630 -9.006717681884766 2.429793357849121 1.000000000000000
-1.051456212997437 -11.772047996520996 1.751588582992554 1.000000000000000
-1.044831037521362 -11.467465400695801 0.973010540008545 1.000000000000000
-1.036513566970825 -11.376177787780762 1.520135283470154 1.000000000000000
-1.030220270156860 -12.144014358520508 0.771052122116089 0.000000000000000
-1.022707462310791 -11.177142143249512 1.274825692176819 0.000000000000000
-1.013435125350952 -10.146142005920410 1.511162996292114 0.000000000000000
-1.005356073379517 -11.202969551086426 0.300432533025742 1.000000000000000
-1.004674673080444 -11.455851554870605 0.064227789640427 1.000000000000000
-1.002469658851624 -12.120741844177246 1.102559804916382 0.000000000000000
-0.999282181262970 -10.856394767761230 0.858028769493103 1.000000000000000
-0.997419297695160 -10.934432029724121 0.061323571950197 0.000000000000000
-0.996939063072205 -12.633489608764648 2.635938882827759 1.000000000000000
-0.996769845485687 -10.114937782287598 0.037252925336361 1.000000000000000
-0.992413699626923 -14.512458801269531 0.864212512969971 0.000000000000000
-0.991694331169128 -11.307843208312988 1.389735698699951 0.000000000000000
-0.990866720676422 -11.980452537536621 0.505946040153503 0.000000000000000
-0.977437555789948 -9.143096923828125 1.912603378295898 0.000000000000000
-0.976501703262329 -11.030619621276855 0.871523737907410 0.000000000000000
-0.973276615142822 -12.219417572021484 0.492336839437485 0.000000000000000
-0.970218181610107 -10.152254104614258 0.174454614520073 0.000000000000000
-0.968173384666443 -11.137924194335938 0.040976747870445 1.000000000000000
-0.963832855224609 -10.044700622558594 0.153234705328941 0.000000000000000
-0.963609397411346 -11.175839424133301 1.917409181594849 1.000000000000000
-0.963293850421906 -11.140380859375000 0.923253357410431 1.000000000000000
-0.961963236331940 -12.190266609191895 0.538169801235199 1.000000000000000
-0.956359267234802 -11.322622299194336 1.290625691413879 1.000000000000000
-0.949562430381775 -11.119487762451172 1.119813799858093 0.000000000000000
-0.946166574954987 -9.185649871826172 2.474310159683228 0.000000000000000
-0.941066026687622 -14.380985260009766 1.022934198379517 0.000000000000000
-0.931807816028595 -12.076851844787598 0.813021600246429 0.000000000000000
-0.930843234062195 -10.743231773376465 1.320224523544312 1.000000000000000
-0.930542051792145 -11.109431266784668 0.726792335510254 1.000000000000000
-0.928917229175568 -11.344721794128418 0.172852173447609 1.000000000000000
-0.927398264408112 -10.720890045166016 0.763802111148834 0.000000000000000
-0.926846861839294 -12.246613502502441 1.113394021987915 1.000000000000000
-0.924203336238861 -11.934859275817871 0.780397474765778 1.000000000000000
-0.918344676494598 -12.331615447998047 0.973206698894501 1.000000000000000
-0.916903674602509 -12.076030731201172 0.999944329261780 0.000000000000000
-0.905873417854309 -11.559221267700195 0.176071122288704 1.000000000000000
-0.905219137668610 -11.055300712585449 1.113024711608887 0.000000000000000
-0.901729822158813 -11.529597282409668 0.508974969387054 0.000000000000000
-0.894852280616760 -12.368817329406738 1.124228119850159 0.000000000000000
-0.892537236213684 -10.158860206604004 0.782902359962463 1.000000000000000
-0.891600847244263 -12.402067184448242 0.738720238208771 0.000000000000000
-0.890125215053558 -12.303480148315430 0.709108233451843 0.000000000000000
-0.890017032623291 -9.917714118957520 0.725996434688568 1.000000000000000
-0.887166142463684 -12.340381622314453 1.176056385040283 0.000000000000000
-0.886447846889496 -14.042773246765137 0.511031925678253 0.000000000000000
-0.886410892009735 -9.908610343933105 0.744515299797058 1.000000000000000
-0.886188507080078 -11.308035850524902 0.346551090478897 0.000000000000000
-0.885517418384552 -12.411329269409180 0.571556508541107 1.000000000000000
-0.873646616935730 -11.203239440917969 0.884391009807587 0.000000000000000
-0.867555797100067 -10.892100334167480 0.952110230922699 1.000000000000000
-0.865340888500214 -11.960906028747559 0.874337077140808 1.000000000000000
-0.864109814167023 -11.543497085571289 0.531727433204651 1.000000000000000
-0.862581431865692 -10.167922973632812 0.803107321262360 0.000000000000000
-0.851952552795410 -11.405154228210449 0.503347039222717 1.000000000000000
-0.851820230484009 -11.000128746032715 1.253157258033752 0.000000000000000
-0.846200406551361 -9.648841857910156 0.202890172600746 0.000000000000000
-0.837423026561737 -11.106268882751465 1.058715820312500 1.000000000000000
-0.834880948066711 -9.531235694885254 0.071806371212006 1.000000000000000
-0.829990088939667 -11.087697029113770 0.168843656778336 0.000000000000000
-0.821476399898529 -12.328860282897949 0.829362392425537 0.000000000000000
-0.820668458938599 -13.000720024108887 0.673576116561890 0.000000000000000
-0.810108780860901 -12.177497863769531 1.624080657958984 0.000000000000000
-0.809647381305695 -11.409635543823242 0.195662826299667 0.000000000000000
-0.792411386966705 -10.006029129028320 0.731813728809357 1.000000000000000
-0.782664954662323 -12.165632247924805 1.223248839378357 1.000000000000000
-0.778281867504120 -11.699076652526855 0.268123447895050 0.000000000000000
-0.773153245449066 -11.621984481811523 0.087416447699070 1.000000000000000
-0.764105796813965 -10.767858505249023 1.149834752082825 0.000000000000000
-0.759366989135742 -12.483483314514160 0.189918726682663 0.000000000000000
-0.754627406597137 3.602451801300049 0.232856228947639 0.000000000000000
-0.753308951854706 -11.779920578002930 0.020601857453585 0.000000000000000
-0.753200709819794 -11.102600097656250 1.116618990898132 0.000000000000000
-0.751654863357544 -12.435482025146484 0.213108286261559 0.000000000000000
-0.743500947952271 -11.626546859741211 0.199288740754128 0.000000000000000
-0.736017107963562 -12.176768302917480 1.299389481544495 1.000000000000000
-0.733389556407928 -11.024258613586426 0.933605134487152 1.000000000000000
-0.732107400894165 -11.514661788940430 0.219524756073952 1.000000000000000
-0.730687499046326 -10.966284751892090 0.907454431056976 0.000000000000000
-0.729486763477325 -12.142624855041504 0.980870842933655 1.000000000000000
-0.729078888893127 -12.250142097473145 1.633050560951233 0.000000000000000
-0.723103225231171 -11.474232673645020 0.262910962104797 0.000000000000000
-0.716092526912689 3.382886886596680 0.591060757637024 1.000000000000000
-0.715858101844788 -14.605451583862305 0.784273743629456 0.000000000000000
-0.709490418434143 -11.258223533630371 1.501140236854553 0.000000000000000
-0.709011912345886 -10.852266311645508 0.985911607742310 1.000000000000000
-0.707697331905365 -11.066665649414062 1.181186199188232 0.000000000000000
-0.702653586864471 -9.901867866516113 0.322367131710052 0.000000000000000
-0.701713025569916 -10.004854202270508 0.673187196254730 1.000000000000000
-0.700513720512390 -14.292384147644043 0.547215998172760 0.000000000000000
-0.700307309627533 -11.281886100769043 1.383902549743652 1.000000000000000
-0.698742508888245 -12.474490165710449 0.670092403888702 0.000000000000000
-0.698486387729645 -9.919164657592773 0.801800012588501 1.000000000000000
-0.689406156539917 -12.284800529479980 1.506397604942322 0.000000000000000
-0.677573561668396 -11.040294647216797 0.827803134918213 0.000000000000000
-0.673113644123077 -11.540719032287598 1.976043581962585 0.000000000000000
-0.672540783882141 -12.251802444458008 1.013110160827637 0.000000000000000
-0.672394275665283 -12.210192680358887 1.497161865234375 0.000000000000000
-0.663087368011475 -11.531561851501465 0.352903097867966 1.000000000000000
-0.657452046871185 -10.415107727050781 0.058285322040319 1.000000000000000
-0.653123378753662 3.192513704299927 0.295412331819534 0.000000000000000
-0.651890814304352 -11.257972717285156 1.671251177787781 1.000000000000000
-0.651023030281067 -14.887017250061035 2.208397388458252 0.000000000000000
-0.642854034900665 -12.152760505676270 1.382264971733093 1.000000000000000
-0.641588985919952 -9.937576293945312 0.867732822895050 1.000000000000000
-0.636943042278290 -11.371197700500488 0.260441869497299 1.000000000000000
-0.633341670036316 -10.944273948669434 1.042060971260071 1.000000000000000
-0.631772041320801 3.144002199172974 0.290717542171478 0.000000000000000
-0.626098096370697 -12.075698852539062 0.044319398701191 0.000000000000000
-0.624015390872955 -11.859409332275391 0.066327750682831 1.000000000000000
-0.615234911441803 -14.326455116271973 1.128555774688721 0.000000000000000
-0.613658964633942 -11.843779563903809 0.089007474482059 0.000000000000000
-0.612757086753845 -10.455663681030273 1.552211165428162 0.000000000000000
-0.609275758266449 -11.113458633422852 0.468437403440475 0.000000000000000
-0.607946515083313 -9.832824707031250 0.893098652362823 1.000000000000000
-0.602596640586853 -9.562027931213379 0.366390138864517 0.000000000000000
-0.599835515022278 -11.107954025268555 1.116219520568848 1.000000000000000
-0.598117649555206 -9.745650291442871 0.928126931190491 1.000000000000000
-0.597836434841156 2.979421615600586 0.450358211994171 1.000000000000000
-0.597652792930603 -12.193741798400879 1.624608397483826 0.000000000000000
-0.595716714859009 -11.344228744506836 1.511693120002747 0.000000000000000
-0.591346561908722 -11.065525054931641 1.180338740348816 0.000000000000000
-0.589567720890045 -10.421162605285645 0.359025210142136 0.000000000000000
-0.581775367259979 -11.649415016174316 0.917971491813660 0.000000000000000
-0.575327217578888 -11.986390113830566 0.689825236797333 0.000000000000000
-0.574067771434784 -12.612797737121582 0.677161753177643 0.000000000000000
-0.561444699764252 -11.242315292358398 1.198980212211609 0.000000000000000
-0.557534813880920 -11.375226020812988 0.786401569843292 0.000000000000000
-0.557139277458191 -11.342839241027832 0.412454992532730 0.000000000000000
-0.553668498992920 -12.136663436889648 1.487440109252930 0.000000000000000
-0.552227020263672 -10.439512252807617 0.198903888463974 1.000000000000000
-0.549424648284912 -11.446735382080078 0.306093007326126 1.000000000000000
-0.544932901859283 -10.114220619201660 0.251082509756088 0.000000000000000
-0.544828474521637 -12.291543960571289 0.328628093004227 0.000000000000000
-0.543485164642334 -11.339496612548828 0.281414628028870 1.000000000000000
-0.542324602603912 -11.315280914306641 1.678874492645264 0.000000000000000
-0.541551709175110 -11.604125022888184 0.511261284351349 1.000000000000000
-0.541136264801025 -12.141201972961426 1.487926125526428 0.000000000000000
-0.539008498191833 -12.390003204345703 1.244415163993835 0.000000000000000
-0.538404524326324 -10.433654785156250 0.098468624055386 1.000000000000000
-0.535336315631866 -10.430786132812500 1.785313606262207 0.000000000000000
-0.534690976142883 -11.604992866516113 1.319516897201538 1.000000000000000
-0.534423947334290 -11.315656661987305 1.678874492645264 0.000000000000000
-0.527304172515869 -12.278885841369629 0.210234910249710 0.000000000000000
-0.524493694305420 -5.252892971038818 1.098036408424377 0.000000000000000
-0.519290685653687 -10.398226737976074 0.658664882183075 0.000000000000000
-0.518388569355011 -10.576536178588867 0.242152437567711 0.000000000000000
-0.504909276962280 -11.509000778198242 1.095053553581238 0.000000000000000
-0.501310288906097 -10.444318771362305 1.787335515022278 0.000000000000000
-0.499685138463974 -10.631297111511230 0.325174123048782 1.000000000000000
-0.499028533697128 -10.617326736450195 2.848044872283936 0.000000000000000
-0.493905842304230 -10.634980201721191 0.182116940617561 1.000000000000000
-0.492998033761978 -8.519106864929199 1.774941682815552 0.000000000000000
-0.491300821304321 -12.280458450317383 1.233232855796814 0.000000000000000
-0.484675526618958 -11.506411552429199 0.595498263835907 0.000000000000000
-0.482380151748657 -12.343273162841797 0.424890041351318 0.000000000000000
-0.477214902639389 -10.484850883483887 0.078770861029625 1.000000000000000
-0.476609855890274 -9.614300727844238 1.093352675437927 1.000000000000000
-0.467116832733154 -11.952712059020996 0.227590486407280 1.000000000000000
-0.466716408729553 -14.801818847656250 0.566322684288025 0.000000000000000
-0.466235011816025 -8.575521469116211 1.786345601081848 0.000000000000000
-0.465841144323349 -9.911231994628906 0.995611906051636 0.000000000000000
-0.464985102415085 -4.192996025085449 0.382447034120560 1.000000000000000
-0.458863943815231 -11.912049293518066 0.272604376077652 1.000000000000000
-0.457417756319046 -11.874506950378418 0.454433828592300 0.000000000000000
-0.456915825605392 -12.514456748962402 0.575227379798889 0.000000000000000
-0.456711560487747 -12.142694473266602 1.800846457481384 0.000000000000000
-0.451342552900314 -9.718490600585938 1.036291718482971 0.000000000000000
-0.446907460689545 -11.329212188720703 0.368197023868561 0.000000000000000
-0.446827054023743 -11.327174186706543 0.019785042852163 0.000000000000000
-0.444330781698227 -9.739932060241699 0.654435515403748 0.000000000000000
-0.435724109411240 -11.311342239379883 0.607110559940338 0.000000000000000
-0.428794264793396 -12.205791473388672 0.255832612514496 0.000000000000000
-0.424122750759125 -10.068861961364746 0.211099609732628 0.000000000000000
-0.423003017902374 -9.935061454772949 1.129466652870178 1.000000000000000
-0.417297452688217 -11.125797271728516 0.640010893344879 0.000000000000000
-0.417152822017670 -12.017871856689453 0.598645329475403 0.000000000000000
-0.415401190519333 -11.907464027404785 0.776754379272461 1.000000000000000
-0.414787739515305 -12.925699234008789 0.444828242063522 0.000000000000000
-0.414010912179947 -11.784976959228516 0.609750568866730 0.000000000000000
-0.412304937839508 -9.812763214111328 1.306968212127686 0.000000000000000
-0.409890085458755 -14.619430541992188 1.009867429733276 0.000000000000000
-0.405449718236923 -12.280352592468262 0.564398288726807 0.000000000000000
-0.401050359010696 -11.021319389343262 0.273385524749756 0.000000000000000
-0.395693391561508 -11.693992614746094 0.672608315944672 1.000000000000000
-0.395133465528488 -11.441102027893066 0.041959021240473 0.000000000000000
-0.390798091888428 -13.938482284545898 0.747855663299561 0.000000000000000
-0.387128114700317 -12.169816970825195 0.442216813564301 0.000000000000000
-0.386880487203598 -14.316045761108398 1.298297643661499 0.000000000000000
-0.383910477161407 -5.554258823394775 0.223614349961281 1.000000000000000
-0.382389008998871 -11.300805091857910 0.128282457590103 1.000000000000000
-0.376977384090424 -11.614651679992676 0.735189259052277 0.000000000000000
-0.364081472158432 -5.611839771270752 1.169718384742737 0.000000000000000
-0.361434966325760 -11.513875961303711 0.750992715358734 0.000000000000000
-0.358679115772247 -10.600103378295898 1.812945842742920 0.000000000000000
-0.357171475887299 -10.167021751403809 0.369481861591339 0.000000000000000
-0.354820936918259 -13.079010963439941 0.726917982101440 0.000000000000000
-0.352435469627380 -9.593153953552246 0.836481988430023 0.000000000000000
-0.350588113069534 -7.909404754638672 1.353306770324707 0.000000000000000
-0.346648484468460 -11.530529975891113 0.863327324390411 0.000000000000000
-0.344339430332184 -11.348219871520996 1.029248356819153 0.000000000000000
-0.337160944938660 -10.047183036804199 2.090993642807007 0.000000000000000
-0.326409339904785 -13.871261596679688 1.257849931716919 0.000000000000000
-0.325870156288147 -13.276913642883301 0.712294459342957 0.000000000000000
-0.322719871997833 -9.657073020935059 1.431998372077942 1.000000000000000
-0.321955084800720 -9.919417381286621 0.474978566169739 0.000000000000000
-0.316377073526382 -12.154957771301270 3.258014202117920 0.000000000000000
-0.314942389726639 -12.687137603759766 0.656225442886353 0.000000000000000
-0.312123537063599 -9.616508483886719 1.024852752685547 0.000000000000000
-0.309519797563553 -11.453406333923340 0.835361361503601 0.000000000000000
-0.305273383855820 -14.501097679138184 1.225609302520752 0.000000000000000
-0.304667413234711 -4.964210987091064 1.034500241279602 0.000000000000000
-0.302513509988785 -9.833887100219727 1.204534769058228 0.000000000000000
-0.298040747642517 -9.547519683837891 0.475535213947296 0.000000000000000
-0.290978491306305 -11.923131942749023 0.777535080909729 0.000000000000000
-0.289950907230377 -7.071409225463867 1.209753870964050 0.000000000000000
-0.285014450550079 -5.238947391510010 0.777571618556976 0.000000000000000
-0.284401476383209 -8.600360870361328 0.345615029335022 0.000000000000000
-0.283639460802078 -7.768594741821289 2.082975864410400 0.000000000000000
-0.282661855220795 -13.154248237609863 1.010087966918945 0.000000000000000
-0.280019462108612 -5.995621204376221 0.148785948753357 1.000000000000000
-0.278258830308914 -9.924576759338379 1.321214556694031 1.000000000000000
-0.277517110109329 -9.581756591796875 1.021039724349976 0.000000000000000
-0.272917360067368 -10.994200706481934 0.230366632342339 0.000000000000000
-0.265002906322479 -10.556603431701660 0.038704335689545 0.000000000000000
-0.262358814477921 -9.670776367187500 1.433757662773132 0.000000000000000
-0.260729163885117 -9.864772796630859 1.462491512298584 0.000000000000000
-0.259487926959991 -11.244281768798828 2.339436769485474 0.000000000000000
-0.258640050888062 -11.675768852233887 0.558921992778778 0.000000000000000
-0.257523119449615 -12.082543373107910 0.741285085678101 0.000000000000000
-0.248353496193886 -11.797289848327637 0.814782559871674 0.000000000000000
-0.240942582488060 -13.721208572387695 0.947594583034515 0.000000000000000
-0.225921243429184 -6.842753410339355 1.834509491920471 0.000000000000000
-0.225840300321579 -9.845842361450195 1.459559321403503 0.000000000000000
-0.225683599710464 -14.511473655700684 0.443419247865677 0.000000000000000
-0.224921405315399 -14.828644752502441 0.938243925571442 0.000000000000000
-0.224095910787582 -14.556310653686523 0.416814327239990 0.000000000000000
-0.223167926073074 -6.045803070068359 0.896611571311951 0.000000000000000
-0.222996786236763 -11.386075019836426 2.368761062622070 0.000000000000000
-0.219831675291061 -13.513289451599121 1.284691214561462 0.000000000000000
-0.217727065086365 3.602124452590942 0.966947972774506 0.000000000000000
-0.213676854968071 -14.608498573303223 1.659440279006958 0.000000000000000
-0.212008595466614 -14.776737213134766 0.536728680133820 0.000000000000000
-0.211776047945023 -13.571405410766602 0.545150279998779 0.000000000000000
-0.209484487771988 -14.600809097290039 1.205660343170166 0.000000000000000
-0.201812624931335 -13.913591384887695 1.068262100219727 0.000000000000000
-0.198993191123009 -14.144915580749512 0.976802170276642 0.000000000000000
-0.197413086891174 -14.032598495483398 1.185867071151733 0.000000000000000
-0.197353392839432 -5.247079849243164 0.372696936130524 0.000000000000000
-0.196722343564034 -14.987705230712891 1.237587451934814 0.000000000000000
-0.193267703056335 -10.833894729614258 0.727299392223358 0.000000000000000
-0.190542191267014 -14.478318214416504 1.027748584747314 0.000000000000000
-0.186857432126999 -7.905597209930420 0.439346015453339 0.000000000000000
-0.185273855924606 -6.275783538818359 1.682323932647705 0.000000000000000
-0.177202671766281 -11.682639122009277 0.020392417907715 0.000000000000000
-0.173883736133575 -12.119480133056641 0.813557386398315 0.000000000000000
-0.170949205756187 -14.640179634094238 1.559521675109863 0.000000000000000
-0.166266202926636 -7.377799987792969 1.977377533912659 0.000000000000000
-0.164414837956429 -11.459510803222656 0.592606544494629 0.000000000000000
-0.164312094449997 3.943366050720215 0.097835935652256 0.000000000000000
-0.163775607943535 -12.996050834655762 0.772169053554535 0.000000000000000
-0.163750469684601 -14.023676872253418 1.103762626647949 0.000000000000000
-0.162995696067810 -13.456162452697754 0.540494978427887 0.000000000000000
-0.162726223468781 -14.613130569458008 1.659891724586487 0.000000000000000
-0.161037012934685 -11.708393096923828 0.582933425903320 0.000000000000000
-0.158374756574631 -11.662846565246582 0.042750697582960 0.000000000000000
-0.158145397901535 -7.317963123321533 0.251771420240402 0.000000000000000
-0.149342164397240 -5.620671272277832 0.534467875957489 0.000000000000000
-0.148922249674797 -6.453185558319092 0.613578200340271 0.000000000000000
-0.148129209876060 -13.644493103027344 0.915888249874115 0.000000000000000
-0.145432248711586 -11.290337562561035 0.128100946545601 0.000000000000000
-0.144251316785812 -7.365381717681885 0.700258910655975 0.000000000000000
-0.139270156621933 -11.927168846130371 0.020818276330829 0.000000000000000
-0.134332105517387 -7.053843021392822 1.890414357185364 0.000000000000000
-0.121385529637337 -5.479697704315186 0.346758782863617 0.000000000000000
-0.118480674922466 -7.283134460449219 1.515094757080078 0.000000000000000
-0.118087664246559 3.093609571456909 0.029178680852056 0.000000000000000
-0.117251694202423 -7.041306495666504 0.499855697154999 0.000000000000000
-0.116304554045200 -10.713056564331055 0.553980708122253 0.000000000000000
-0.114293187856674 -9.788128852844238 0.468477219343185 0.000000000000000
-0.114094495773315 -7.336285114288330 1.965989470481873 0.000000000000000
-0.112968489527702 -11.811024665832520 1.070779442787170 0.000000000000000
-0.112201832234859 -9.302982330322266 0.284252494573593 1.000000000000000
-0.111802294850349 -13.658278465270996 1.454875707626343 0.000000000000000
-0.106262728571892 -14.427146911621094 0.968393146991730 0.000000000000000
-0.106129042804241 -5.687636852264404 0.359891682863235 0.000000000000000
-0.102660052478313 -9.705891609191895 1.291666626930237 0.000000000000000
-0.099987387657166 -5.358494758605957 0.421796143054962 0.000000000000000
-0.098806858062744 -9.627570152282715 0.479314029216766 0.000000000000000
-0.096304498612881 -4.605215549468994 0.300292998552322 0.000000000000000
-0.096007652580738 -5.145214080810547 0.246285185217857 0.000000000000000
-0.081969082355499 -11.128830909729004 0.575462400913239 0.000000000000000
-0.078763261437416 -5.064483642578125 0.388848662376404 0.000000000000000
-0.073202535510063 -6.069436550140381 1.626418948173523 0.000000000000000
-0.072782650589943 -4.679930210113525 0.469650864601135 0.000000000000000
-0.071003198623657 -10.020039558410645 0.846711158752441 0.000000000000000
-0.068752653896809 -11.319609642028809 1.934932112693787 0.000000000000000
-0.067312180995941 -4.437765121459961 0.349299907684326 1.000000000000000
-0.067176952958107 -14.308299064636230 0.464660495519638 0.000000000000000
-0.066921055316925 -8.175381660461426 0.517233788967133 0.000000000000000
-0.063176780939102 -5.828702449798584 0.357540845870972 0.000000000000000
-0.060098879039288 -11.792431831359863 0.518999695777893 0.000000000000000
-0.058753028512001 -14.572493553161621 0.893852114677429 0.000000000000000
-0.054461769759655 -14.056265830993652 0.943480074405670 0.000000000000000
-0.052754938602448 -14.673181533813477 0.561125695705414 0.000000000000000
-0.051013391464949 -5.833969116210938 1.563267111778259 0.000000000000000
-0.050693500787020 -13.083698272705078 0.073074467480183 0.000000000000000
-0.046227354556322 -7.977799415588379 0.473976582288742 0.000000000000000
-0.044765330851078 -13.643032073974609 0.679193973541260 0.000000000000000
-0.044044852256775 -8.383972167968750 0.256157070398331 0.000000000000000
-0.041200906038284 -10.633713722229004 0.549849629402161 0.000000000000000
-0.041164804250002 -14.559231758117676 1.782497525215149 0.000000000000000
-0.040707580745220 -9.799779891967773 0.487866103649139 0.000000000000000
-0.038421452045441 -10.686486244201660 0.737905919551849 0.000000000000000
-0.037878472357988 -14.663818359375000 1.329355597496033 0.000000000000000
-0.036622222512960 -7.800319194793701 0.493493586778641 0.000000000000000
-0.029566321521997 -11.445951461791992 1.956498742103577 0.000000000000000
-0.027538573369384 -10.380640983581543 0.857095122337341 0.000000000000000
-0.026544120162725 -14.624185562133789 0.587368965148926 0.000000000000000
-0.025378428399563 -14.397259712219238 0.439876765012741 0.000000000000000
-0.015027287416160 4.061070919036865 0.694176316261292 0.000000000000000
-0.014642877504230 -8.306948661804199 2.225843906402588 0.000000000000000
-0.014297532849014 -9.990318298339844 0.439681172370911 0.000000000000000
-0.006362568121403 -11.761893272399902 0.721448898315430 0.000000000000000
-0.003310438478366 -11.858955383300781 0.636030733585358 0.000000000000000
-0.002297813305631 -8.231436729431152 1.095383882522583 0.000000000000000
0.013506213203073 -7.816259860992432 2.094363689422607 0.000000000000000
0.032248452305794 -14.104177474975586 1.502326488494873 0.000000000000000
0.034481499344110 -7.839774608612061 0.710723102092743 0.000000000000000
0.036849875003099 -11.861341476440430 0.248460873961449 0.000000000000000
0.039548493921757 -12.314934730529785 0.470942020416260 0.000000000000000
0.045483309775591 -9.723773002624512 2.022569894790649 0.000000000000000
0.045980654656887 -14.317832946777344 0.988650560379028 0.000000000000000
0.048928424715996 -5.617863178253174 0.258063077926636 0.000000000000000
0.051883261650801 -10.770237922668457 1.596191525459290 0.000000000000000
0.053458351641893 -9.253344535827637 0.585423767566681 0.000000000000000
0.053832240402699 -12.239394187927246 0.892370641231537 0.000000000000000
0.055607829242945 -6.384778976440430 0.195080041885376 0.000000000000000
0.057540480047464 -6.606682300567627 1.770322322845459 0.000000000000000
0.061192311346531 -14.855896949768066 0.596679508686066 0.000000000000000
0.061358686536551 -11.757742881774902 0.721203982830048 0.000000000000000
0.061571020632982 -11.528294563293457 0.285776078701019 1.000000000000000
0.061910349875689 -7.847574710845947 0.711445391178131 0.000000000000000
0.068684518337250 -5.629644870758057 0.258613735437393 0.000000000000000
0.068860933184624 -13.329075813293457 0.535358130931854 0.000000000000000
0.077137775719166 -11.691960334777832 0.965384006500244 0.000000000000000
0.078674651682377 -11.924908638000488 0.800431132316589 0.000000000000000
0.079521559178829 -9.735302925109863 2.025013685226440 0.000000000000000
0.081278704106808 -12.319611549377441 0.447443276643753 0.000000000000000
0.081689722836018 -14.140039443969727 1.112863898277283 0.000000000000000
0.084132350981236 -8.142280578613281 0.530847251415253 0.000000000000000
0.088334746658802 -5.692657947540283 0.173947378993034 0.000000000000000
0.089141607284546 -11.660591125488281 1.427650690078735 0.000000000000000
0.091043405234814 -14.818956375122070 0.509730577468872 0.000000000000000
0.091584540903568 -7.506617546081543 2.011541604995728 0.000000000000000
0.091750785708427 -9.899781227111816 0.626337766647339 0.000000000000000
0.091990038752556 -11.660387992858887 0.670312702655792 0.000000000000000
0.092884466052055 -8.161998748779297 0.739975392818451 0.000000000000000
0.093508265912533 -11.447603225708008 0.856759786605835 0.000000000000000
0.101318091154099 -11.633139610290527 1.167338013648987 0.000000000000000
0.101834893226624 -14.513669013977051 0.722550988197327 0.000000000000000
0.111010737717152 -4.078821659088135 0.250278621912003 0.000000000000000
0.115284509956837 -9.887686729431152 2.056781768798828 0.000000000000000
0.115768224000931 -5.601415157318115 0.745557546615601 0.000000000000000
0.122889280319214 -11.070244789123535 0.615084409713745 0.000000000000000
0.125061407685280 -12.062627792358398 0.832968473434448 0.000000000000000
0.127847313880920 -4.459871292114258 0.404476553201675 0.000000000000000
0.127896130084991 -5.080677509307861 0.868731260299683 0.000000000000000
0.127998918294907 -8.184399604797363 0.328759670257568 0.000000000000000
0.129826352000237 -14.008081436157227 1.102507352828979 0.000000000000000
0.130373299121857 -5.015542507171631 0.385174483060837 0.000000000000000
0.130374968051910 -11.707850456237793 1.433483839035034 0.000000000000000
0.134776219725609 -5.578486442565918 0.471517741680145 0.000000000000000
0.144654437899590 -7.540561676025391 2.020859241485596 0.000000000000000
0.152472764253616 -11.616302490234375 1.319516897201538 0.000000000000000
0.152909591794014 -10.282201766967773 0.116665787994862 0.000000000000000
0.153443261981010 -10.012501716613770 2.082848072052002 0.000000000000000
0.156651243567467 -14.111626625061035 1.001693844795227 0.000000000000000
0.159467667341232 -7.379166126251221 0.903644144535065 0.000000000000000
0.160840153694153 -9.364318847656250 0.646700918674469 0.000000000000000
0.161838069558144 -11.826626777648926 1.573954701423645 0.000000000000000
0.163092136383057 -4.587707042694092 0.400011301040649 1.000000000000000
0.165104523301125 -7.159778118133545 0.453084677457809 0.000000000000000
0.165398985147476 -8.043552398681641 0.416001945734024 0.000000000000000
0.165489003062248 -7.953391551971436 0.518616914749146 0.000000000000000
0.165880009531975 -12.121998786926270 0.837101578712463 0.000000000000000
0.169086679816246 -7.514591217041016 0.229649648070335 0.000000000000000
0.169814318418503 -11.637478828430176 0.826107084751129 0.000000000000000
0.170624226331711 -12.999191284179688 0.447165817022324 0.000000000000000
0.178540721535683 -10.394867897033691 0.397572278976440 0.000000000000000
0.178795590996742 -7.946076869964600 0.797527909278870 0.000000000000000
0.180449545383453 -14.142838478088379 1.506563186645508 0.000000000000000
0.184131234884262 -12.014957427978516 0.528848588466644 0.000000000000000
0.201113179326057 -9.730808258056641 0.372198611497879 0.000000000000000
0.203838244080544 -5.344963073730469 0.711788475513458 0.000000000000000
0.204677447676659 -8.164838790893555 0.453768968582153 0.000000000000000
0.205179110169411 -7.419738769531250 0.283849209547043 0.000000000000000
0.207167759537697 -10.615700721740723 0.467293173074722 0.000000000000000
0.208867773413658 -9.057577133178711 0.713036298751831 0.000000000000000
0.211571857333183 -12.393642425537109 1.517577767372131 0.000000000000000
0.212470144033432 -11.570593833923340 1.049111127853394 0.000000000000000
0.214560061693192 -9.535529136657715 0.438119918107986 0.000000000000000
0.218680426478386 -7.868253231048584 0.513152301311493 0.000000000000000
0.219048202037811 -4.669152736663818 0.407303184270859 1.000000000000000
0.223121568560600 -4.494520664215088 0.328094542026520 0.000000000000000
0.223538160324097 -11.879591941833496 2.471396446228027 0.000000000000000
0.226317301392555 -4.489265918731689 0.391677707433701 0.000000000000000
0.226413428783417 -4.906636238098145 0.445285350084305 0.000000000000000
0.227216824889183 -14.642795562744141 0.672689378261566 0.000000000000000
0.234138548374176 -9.007455825805664 0.413892090320587 0.000000000000000
0.236105918884277 -14.529149055480957 1.143619894981384 0.000000000000000
0.240483999252319 -14.472077369689941 0.720562160015106 0.000000000000000
0.241244882345200 -9.985301971435547 0.689685702323914 0.000000000000000
0.241340443491936 -8.032309532165527 0.508394300937653 0.000000000000000
0.241391703486443 -6.165781021118164 1.054743528366089 0.000000000000000
0.245557457208633 -7.321237564086914 0.463439434766769 0.000000000000000
0.246327579021454 -9.476375579833984 0.289627283811569 0.000000000000000
0.252988785505295 -14.729329109191895 1.244806766510010 0.000000000000000
0.254496157169342 -10.533782005310059 0.565122604370117 0.000000000000000
0.256563961505890 -13.410731315612793 0.538729190826416 0.000000000000000
0.256737172603607 -13.981264114379883 0.588532269001007 0.000000000000000
0.259565681219101 -9.580140113830566 0.624786317348480 0.000000000000000
0.260676026344299 -9.817298889160156 0.470006972551346 0.000000000000000
0.263962984085083 -12.077897071838379 2.065006017684937 0.000000000000000
0.264350503683090 -9.756740570068359 0.787011444568634 0.000000000000000
0.264426320791245 -8.914675712585449 0.409670591354370 0.000000000000000
0.265824407339096 -10.011192321777344 0.325223386287689 0.000000000000000
0.265830457210541 -7.074240684509277 0.352425098419189 0.000000000000000
0.267870485782623 -10.305144309997559 0.632308542728424 0.000000000000000
0.267925918102264 -12.417954444885254 0.690083861351013 0.000000000000000
0.274615436792374 -5.167487621307373 0.469120562076569 0.000000000000000
0.277243614196777 -10.025753021240234 0.537916243076324 0.000000000000000
0.277404695749283 -11.753774642944336 0.404401838779449 0.000000000000000
0.282478034496307 -7.461732864379883 0.271195322275162 0.000000000000000
0.282792031764984 -10.265336036682129 0.372966170310974 0.000000000000000
0.283304125070572 -9.428947448730469 0.451459079980850 0.000000000000000
0.286205261945724 -11.897780418395996 0.798823833465576 0.000000000000000
0.289132922887802 -14.645424842834473 0.475696027278900 0.000000000000000
0.292912781238556 -9.875047683715820 0.301842689514160 0.000000000000000
0.293509691953659 -14.867121696472168 1.170295953750610 0.000000000000000
0.295281559228897 -9.615161895751953 0.738506317138672 0.000000000000000
0.298578858375549 -14.520251274108887 0.974822282791138 0.000000000000000
0.301449358463287 -6.072341442108154 1.039242506027222 0.000000000000000
0.307212889194489 -9.896706581115723 0.359609693288803 0.000000000000000
0.312961220741272 -9.034366607666016 0.763858735561371 0.000000000000000
0.320367813110352 -9.551690101623535 0.457386761903763 0.000000000000000
0.326350748538971 -10.861627578735352 1.157460808753967 0.000000000000000
0.327477514743805 -8.079623222351074 0.861316859722137 0.000000000000000
0.335395425558090 -14.544464111328125 0.472450256347656 0.000000000000000
0.335555881261826 -12.134456634521484 0.838203728199005 0.000000000000000
0.336720287799835 -7.647829532623291 0.366368323564529 0.000000000000000
0.340060353279114 -4.584726810455322 0.785834491252899 1.000000000000000
0.342141956090927 -12.627894401550293 0.434515357017517 0.000000000000000
0.349483639001846 -10.119292259216309 0.367739737033844 0.000000000000000
0.351173460483551 -9.627491950988770 0.590921998023987 0.000000000000000
0.352119594812393 -9.507662773132324 1.013413667678833 0.000000000000000
0.352486252784729 -3.309773921966553 0.152892291545868 0.000000000000000
0.352660775184631 -7.814329147338867 0.299134552478790 0.000000000000000
0.355334550142288 -11.158030509948730 0.083784095942974 0.000000000000000
0.358178973197937 -7.451430797576904 0.847325742244720 0.000000000000000
0.359446614980698 -10.716815948486328 0.843906104564667 0.000000000000000
0.359839767217636 -9.435570716857910 0.506425321102142 0.000000000000000
0.360226064920425 -9.217575073242188 0.761642932891846 0.000000000000000
0.360238730907440 -6.985742092132568 0.794508993625641 0.000000000000000
0.362209767103195 -7.535285949707031 0.491814345121384 0.000000000000000
0.369845747947693 -11.755619049072266 0.585518896579742 0.000000000000000
0.371488302946091 -8.923006057739258 0.616666674613953 0.000000000000000
0.373762309551239 -9.281624794006348 0.230266347527504 0.000000000000000
0.373811006546021 -9.801918983459473 0.828860878944397 0.000000000000000
0.380597651004791 -12.442818641662598 0.428190141916275 0.000000000000000
0.381062269210815 -3.834003210067749 0.154748201370239 0.000000000000000
0.381340920925140 -11.369588851928711 0.019854854792356 0.000000000000000
0.384732276201248 -3.870928525924683 0.216122731566429 0.000000000000000
0.385012984275818 -7.545535564422607 0.361587911844254 0.000000000000000
0.385070979595184 -13.925033569335938 1.177110314369202 0.000000000000000
0.391589611768723 -5.541606903076172 0.949606180191040 0.000000000000000
0.394915163516998 -5.566568374633789 1.160758018493652 0.000000000000000
0.395489484071732 -11.451390266418457 0.769088923931122 0.000000000000000
0.398630142211914 -14.415364265441895 1.919032335281372 0.000000000000000
0.399802923202515 -3.071592569351196 0.124408565461636 0.000000000000000
0.402252048254013 -9.924482345581055 0.475360959768295 0.000000000000000
0.411281436681747 -7.492365837097168 0.605047166347504 0.000000000000000
0.415152251720428 -7.054353713989258 0.365395933389664 0.000000000000000
0.415798276662827 -5.584682941436768 1.164830923080444 0.000000000000000
0.419139772653580 -3.194019317626953 0.129384905099869 0.000000000000000
0.423253118991852 -10.811000823974609 0.788823127746582 0.000000000000000
0.423546642065048 -10.173427581787109 1.354983448982239 0.000000000000000
0.427178382873535 -13.831398010253906 0.848792195320129 0.000000000000000
0.429862499237061 -10.605696678161621 0.344697862863541 0.000000000000000
0.433389127254486 4.670011997222900 0.134282663464546 0.000000000000000
0.433422744274139 -3.562840223312378 0.144153401255608 0.000000000000000
0.437374711036682 4.478403091430664 0.051049787551165 0.000000000000000
0.440828084945679 -11.351124763488770 0.085255049169064 0.000000000000000
0.445489227771759 -14.302918434143066 1.904258370399475 0.000000000000000
0.448409020900726 -11.844844818115234 0.795609235763550 0.000000000000000
0.456506371498108 -14.656635284423828 1.239081263542175 0.000000000000000
0.456762760877609 -10.888928413391113 0.542559623718262 0.000000000000000
0.461663395166397 -7.905848503112793 0.272397130727768 0.000000000000000
0.469098448753357 -12.199866294860840 0.607794106006622 0.000000000000000
0.470075100660324 -11.663232803344727 0.513723552227020 0.000000000000000
0.471936106681824 -14.233789443969727 3.816028118133545 0.000000000000000
0.479539901018143 -11.675246238708496 0.401926726102829 0.000000000000000
0.487175434827805 -9.862247467041016 1.208909630775452 0.000000000000000
0.490145295858383 -9.678931236267090 0.972448945045471 0.000000000000000
0.490875154733658 -9.416762351989746 0.651109635829926 0.000000000000000
0.492771744728088 -5.836498737335205 0.415744006633759 0.000000000000000
0.497826725244522 -5.497834682464600 0.466465771198273 0.000000000000000
0.498472064733505 -11.565082550048828 1.100352764129639 0.000000000000000
0.499523460865021 -5.813571929931641 0.621520876884460 0.000000000000000
0.500642597675323 -9.811659812927246 1.046459794044495 0.000000000000000
0.500815331935883 -11.236524581909180 1.277534246444702 0.000000000000000
0.502740442752838 -9.249945640563965 0.986722528934479 0.000000000000000
0.504160940647125 -6.591246128082275 0.354540556669235 0.000000000000000
0.504819154739380 -11.712342262268066 0.877357840538025 0.000000000000000
0.505313336849213 -8.774375915527344 0.352999269962311 1.000000000000000
0.505658924579620 -9.559160232543945 1.171966552734375 0.000000000000000
0.506271719932556 -7.447328567504883 0.228061631321907 0.000000000000000
0.507108569145203 -14.879040718078613 1.200449585914612 0.000000000000000
0.509266495704651 -13.750823020935059 0.658545136451721 0.000000000000000
0.509712517261505 -11.576951026916504 0.912008583545685 0.000000000000000
0.511027038097382 -14.752004623413086 1.019235968589783 0.000000000000000
0.512373030185699 -14.046811103820801 3.766335010528564 0.000000000000000
0.517799496650696 -11.617589950561523 0.400001674890518 0.000000000000000
0.519994735717773 -11.158908843994141 0.148186683654785 1.000000000000000
0.521132111549377 -10.778689384460449 0.890997111797333 0.000000000000000
0.521367490291595 -7.565958976745605 0.494416534900665 0.000000000000000
0.525988698005676 -14.795821189880371 0.822553396224976 0.000000000000000
0.528602361679077 -11.184076309204102 0.277548760175705 0.000000000000000
0.530379056930542 -5.929918766021729 0.468557745218277 0.000000000000000
0.530534923076630 -7.648376941680908 0.938642740249634 0.000000000000000
0.532000541687012 -11.416548728942871 0.502995312213898 0.000000000000000
0.533077299594879 -10.962295532226562 1.460511803627014 0.000000000000000
0.539198696613312 -11.571019172668457 0.688191175460815 0.000000000000000
0.539457499980927 -14.655879020690918 0.645452022552490 0.000000000000000
0.540078103542328 -9.248677253723145 1.052272915840149 0.000000000000000
0.543799698352814 -7.891490459442139 0.393793284893036 0.000000000000000
0.550108671188354 -10.980669975280762 1.045089125633240 0.000000000000000
0.551952302455902 -6.963487148284912 0.563253283500671 0.000000000000000
0.552622914314270 -8.827943801879883 0.576645791530609 0.000000000000000
0.554306626319885 -14.534800529479980 1.004356622695923 0.000000000000000
0.555340945720673 -11.553120613098145 0.932647049427032 0.000000000000000
0.560419201850891 -14.913793563842773 0.972959697246552 0.000000000000000
0.562877237796783 -10.798022270202637 1.438878536224365 0.000000000000000
0.564742505550385 -12.119180679321289 2.523528814315796 0.000000000000000
0.565536916255951 -13.282728195190430 1.097700595855713 0.000000000000000
0.567277669906616 -9.665171623229980 0.593860685825348 0.000000000000000
0.573059439659119 -7.852370262145996 0.543647587299347 0.000000000000000
0.579730808734894 -11.447981834411621 0.350215703248978 0.000000000000000
0.580597579479218 -11.137962341308594 0.255046486854553 0.000000000000000
0.583382070064545 -11.644837379455566 0.692698478698730 0.000000000000000
0.583752274513245 -3.395816326141357 0.458520501852036 0.000000000000000
0.592482089996338 -10.978895187377930 0.335923671722412 0.000000000000000
0.593837201595306 -10.926039695739746 0.861167132854462 0.000000000000000
0.596964299678802 -12.050616264343262 0.670335471630096 0.000000000000000
0.597776055335999 -11.467508316040039 0.970316112041473 0.000000000000000
0.598836839199066 -12.646679878234863 0.996430635452271 0.000000000000000
0.599716663360596 -13.796528816223145 0.421920150518417 0.000000000000000
0.600578486919403 -11.050072669982910 0.189300358295441 1.000000000000000
0.601937949657440 -10.820650100708008 0.915754795074463 0.000000000000000
0.602075397968292 -3.241561889648438 0.214941084384918 1.000000000000000
0.602446675300598 -11.896553039550781 3.191756725311279 0.000000000000000
0.604431092739105 4.806145668029785 0.278455257415771 0.000000000000000
0.607121050357819 -8.591714859008789 0.627975344657898 0.000000000000000
0.607711076736450 -2.939174652099609 0.126318305730820 1.000000000000000
0.608523905277252 -10.994396209716797 0.739086151123047 0.000000000000000
0.610496282577515 -11.711528778076172 0.448472559452057 0.000000000000000
0.610962152481079 -12.195361137390137 2.539819955825806 0.000000000000000
0.613629400730133 -13.328314781188965 0.947035372257233 0.000000000000000
0.613849997520447 -3.292151451110840 0.218323931097984 0.000000000000000
0.613983333110809 -11.296709060668945 0.715742468833923 0.000000000000000
0.614557027816772 -3.673233985900879 0.774653255939484 0.000000000000000
0.616680800914764 -11.427305221557617 0.525670468807220 0.000000000000000
0.616833329200745 -11.088414192199707 0.766838014125824 0.000000000000000
0.618792951107025 -11.179929733276367 0.578973889350891 0.000000000000000
0.619895100593567 -11.956047058105469 0.434812664985657 0.000000000000000
0.621378600597382 -10.740773200988770 0.846730649471283 0.000000000000000
0.622903823852539 -2.960500717163086 0.127327501773834 1.000000000000000
0.624076426029205 -3.651765346527100 0.770580470561981 0.000000000000000
0.627663135528564 -12.643532752990723 0.727702498435974 0.000000000000000
0.629815042018890 -11.379070281982422 0.413906782865524 0.000000000000000
0.630650877952576 -13.377890586853027 1.343856573104858 0.000000000000000
0.638767659664154 -12.518652915954590 0.793024480342865 0.000000000000000
0.645272850990295 -11.599653244018555 1.545989751815796 0.000000000000000
0.646431565284729 -14.871209144592285 1.493617653846741 0.000000000000000
0.647267222404480 -13.669468879699707 0.444407045841217 0.000000000000000
0.647701501846313 -12.212069511413574 0.868021368980408 0.000000000000000
0.653572142124176 -8.917008399963379 0.445105761289597 0.000000000000000
0.654606103897095 -6.360543251037598 0.355248957872391 0.000000000000000
0.656431913375854 -13.924778938293457 3.735276699066162 0.000000000000000
0.658304810523987 -11.455337524414062 0.880879998207092 0.000000000000000
0.658783614635468 -5.625748634338379 1.517714977264404 0.000000000000000
0.659502983093262 -11.206412315368652 0.926874041557312 0.000000000000000
0.660686492919922 -4.913667201995850 1.031241893768311 0.000000000000000
0.660997569561005 -14.021628379821777 0.644790649414062 0.000000000000000
0.662838637828827 -6.496201038360596 0.362793296575546 0.000000000000000
0.664566636085510 -12.817636489868164 0.663661420345306 0.000000000000000
0.666104197502136 -11.591056823730469 0.712143063545227 0.000000000000000
0.666158139705658 -7.679039001464844 0.043049369007349 0.000000000000000
0.666280865669250 -14.133703231811523 0.432303249835968 0.000000000000000
0.668282270431519 -13.902711868286133 0.692917048931122 0.000000000000000
0.669129252433777 -5.820481777191162 0.393250644207001 0.000000000000000
0.671469569206238 -11.112101554870605 0.661384701728821 0.000000000000000
0.672790586948395 -8.795859336853027 0.337347954511642 0.000000000000000
0.673672974109650 -12.993272781372070 0.873295068740845 0.000000000000000
0.677427709102631 -11.262919425964355 0.128010183572769 0.000000000000000
0.678735315799713 -9.163781166076660 0.652219653129578 0.000000000000000
0.679626762866974 -13.420633316040039 0.617259025573730 0.000000000000000
0.679760217666626 -10.852839469909668 0.750856459140778 0.000000000000000
0.681558072566986 -13.357265472412109 1.052607297897339 0.000000000000000
0.682581484317780 -5.657937049865723 1.527032375335693 1.000000000000000
