# This PCD file was generated using the MATLAB® pcwrite function
# from Computer Vision Toolbox®.
# .PCD v.7 - Point Cloud Data file format
VERSION .7
FIELDS x y z intensity
SIZE 8 8 8 8
TYPE F F F F
COUNT 1 1 1 1
WIDTH 638
HEIGHT 1
VIEWPOINT 0 0 0 1 0 0 0
POINTS 638
DATA ascii
-2.729696035385132 -15.937561035156250 0.276596069335938 0.000000000000000
-2.726407766342163 -13.118056297302246 -0.208139598369598 0.000000000000000
-2.723438501358032 -8.387362480163574 -0.936193585395813 0.000000000000000
-2.722007274627686 -15.218179702758789 0.710132360458374 0.000000000000000
-2.717756271362305 -35.901943206787109 2.833628892898560 0.000000000000000
-2.715122699737549 -17.595497131347656 1.692355394363403 0.000000000000000
-2.709223031997681 -0.524264693260193 -0.053466562181711 0.000000000000000
-2.702356338500977 -15.872817039489746 1.329419016838074 0.000000000000000
-2.701043605804443 -18.415967941284180 0.747575044631958 0.000000000000000
-2.699028491973877 -6.891004085540771 -0.328299224376678 1.000000000000000
-2.698452711105347 -18.151115417480469 1.550619721412659 0.000000000000000
-2.698119163513184 -15.847929000854492 1.968184590339661 0.000000000000000
-2.691939830780029 -18.291635513305664 1.757460594177246 0.000000000000000
-2.689083099365234 -1.303893566131592 -0.144072175025940 1.000000000000000
-2.687478065490723 -18.838426589965820 1.497627377510071 0.000000000000000
-2.687388658523560 -17.184854507446289 0.598283708095551 0.000000000000000
-2.687378644943237 -15.169656753540039 0.826261579990387 0.000000000000000
-2.675837755203247 -23.416490554809570 1.491088032722473 0.000000000000000
-2.665679454803467 -36.316974639892578 3.301178932189941 0.000000000000000
-2.663887977600098 -0.505851387977600 -0.052536707371473 0.000000000000000
-2.662187576293945 -35.167873382568359 3.756663560867310 0.000000000000000
-2.655555009841919 -10.793595314025879 -0.108644321560860 0.000000000000000
-2.645923137664795 -15.680251121520996 0.669268369674683 0.000000000000000
-2.644542217254639 -14.994896888732910 1.864161014556885 0.000000000000000
-2.642069339752197 -17.548595428466797 1.328127026557922 0.000000000000000
-2.619826793670654 -17.400859832763672 1.045452833175659 0.000000000000000
-2.618897438049316 -17.615987777709961 1.229751348495483 0.000000000000000
-2.616839170455933 -17.725488662719727 0.478577375411987 0.000000000000000
-2.614930868148804 -20.495027542114258 1.267310857772827 0.000000000000000
-2.611121892929077 -19.445173263549805 0.976726651191711 0.000000000000000
-2.607047557830811 -20.642700195312500 1.886233091354370 0.000000000000000
-2.597674131393433 -24.831953048706055 2.373310089111328 0.000000000000000
-2.595236778259277 -12.745750427246094 -0.978022515773773 0.000000000000000
-2.582707881927490 -7.012795448303223 -0.202220618724823 1.000000000000000
-2.581575870513916 3.660159111022949 -0.095385499298573 0.000000000000000
-2.578455686569214 -15.595462799072266 1.433002710342407 0.000000000000000
-2.571784019470215 -20.703491210937500 1.601627826690674 0.000000000000000
-2.559026479721069 -9.036185264587402 -0.091794483363628 0.000000000000000
-2.554366588592529 -21.049634933471680 2.258573770523071 0.000000000000000
-2.553545951843262 -15.658696174621582 0.576217472553253 0.000000000000000
-2.552458047866821 -19.728309631347656 0.875493228435516 0.000000000000000
-2.550900936126709 -9.087903976440430 -0.128508120775223 0.000000000000000
-2.550671815872192 -18.818189620971680 0.908845841884613 0.000000000000000
-2.543189048767090 -7.708391666412354 -0.610326826572418 0.000000000000000
-2.542591571807861 -29.167509078979492 2.191155672073364 0.000000000000000
-2.539905548095703 -15.702682495117188 1.442031264305115 0.000000000000000
-2.520084142684937 -19.561267852783203 1.209761500358582 0.000000000000000
-2.514515876770020 -23.154043197631836 1.698063850402832 0.000000000000000
-2.511951208114624 -29.038604736328125 0.722518920898438 0.000000000000000
-2.510222911834717 -17.246999740600586 1.338006854057312 0.000000000000000
-2.507014751434326 -6.723554611206055 -0.539546966552734 1.000000000000000
-2.504286766052246 -0.439410209655762 -0.166647195816040 0.000000000000000
-2.503308773040771 -14.928766250610352 1.191323041915894 0.000000000000000
-2.497105598449707 -17.758838653564453 0.720285415649414 0.000000000000000
-2.494683504104614 -22.247615814208984 1.286908626556396 0.000000000000000
-2.488784313201904 -28.367132186889648 2.481320142745972 0.000000000000000
-2.466102600097656 -25.232875823974609 1.897409558296204 0.000000000000000
-2.466060400009155 -26.264350891113281 3.909554958343506 0.000000000000000
-2.465782880783081 -29.278430938720703 2.085516929626465 0.000000000000000
-2.454185009002686 -19.503536224365234 1.167861223220825 0.000000000000000
-2.442244768142700 -17.220443725585938 0.899340808391571 0.000000000000000
-2.439863204956055 -24.028339385986328 1.760890483856201 0.000000000000000
-2.438008069992065 -22.741632461547852 0.742755651473999 0.000000000000000
-2.437482118606567 -0.971568942070007 -0.010533383116126 0.000000000000000
-2.437023401260376 18.141374588012695 -1.376309514045715 1.000000000000000
-2.424401998519897 -25.917867660522461 1.045513510704041 0.000000000000000
-2.423476219177246 -22.315736770629883 1.290351986885071 0.000000000000000
-2.421072244644165 -19.723747253417969 3.396746158599854 0.000000000000000
-2.420625209808350 -17.402124404907227 1.382763147354126 0.000000000000000
-2.418138742446899 3.756824016571045 -0.043668843805790 0.000000000000000
-2.416574239730835 -15.527661323547363 1.085090875625610 0.000000000000000
-2.414426088333130 -18.085647583007812 1.295093655586243 0.000000000000000
-2.414044380187988 -31.502696990966797 0.904604971408844 0.000000000000000
-2.410972118377686 -19.244169235229492 1.946095824241638 0.000000000000000
-2.408536195755005 -0.407460570335388 -0.160106882452965 0.000000000000000
-2.407456159591675 17.973638534545898 -1.398530840873718 0.000000000000000
-2.407427072525024 -15.340229034423828 1.222079038619995 0.000000000000000
-2.401416778564453 -18.795457839965820 1.454661488533020 0.000000000000000
-2.384450912475586 -28.805637359619141 0.827561318874359 0.000000000000000
-2.374459028244019 -15.257051467895508 0.590473592281342 0.000000000000000
-2.364661216735840 -21.774160385131836 1.985546588897705 0.000000000000000
-2.355147361755371 -14.890007972717285 0.866585791110992 0.000000000000000
-2.354183197021484 -15.482229232788086 1.323280811309814 0.000000000000000
-2.354062795639038 -24.987167358398438 1.878304004669189 0.000000000000000
-2.323724269866943 -23.940095901489258 0.966052532196045 0.000000000000000
-2.322834491729736 -17.997962951660156 1.581294775009155 0.000000000000000
-2.321061134338379 -8.920905113220215 -0.196306779980659 0.000000000000000
-2.308302164077759 -14.831961631774902 1.268382787704468 0.000000000000000
-2.307419538497925 -19.339130401611328 0.782248914241791 0.000000000000000
-2.299194574356079 -18.946849822998047 1.207468152046204 0.000000000000000
-2.289469003677368 -15.302748680114746 0.978905379772186 0.000000000000000
-2.287024021148682 -16.541069030761719 1.120817899703979 0.000000000000000
-2.285125970840454 -15.404145240783691 0.775255680084229 0.000000000000000
-2.284785985946655 -23.285312652587891 0.939726054668427 0.000000000000000
-2.278401613235474 -10.619658470153809 -0.481812775135040 0.000000000000000
-2.277621507644653 -17.784545898437500 0.892598152160645 0.000000000000000
-2.270831584930420 -16.423955917358398 2.029918193817139 0.000000000000000
-2.268393516540527 -19.182771682739258 0.775827825069427 0.000000000000000
-2.263029575347900 -19.564788818359375 1.785475134849548 0.000000000000000
-2.253247022628784 -15.368451118469238 0.474568545818329 0.000000000000000
-2.253192901611328 -33.204757690429688 2.233867406845093 0.000000000000000
-2.242589235305786 7.393280982971191 -0.179373025894165 0.000000000000000
-2.240261554718018 -18.865816116333008 1.805911064147949 0.000000000000000
-2.229299783706665 -9.682368278503418 -0.078036367893219 0.000000000000000
-2.222513675689697 -17.303905487060547 1.373034238815308 0.000000000000000
-2.216162443161011 -7.308465003967285 -0.810776650905609 0.000000000000000
-2.208397865295410 -21.748815536499023 0.920054793357849 0.000000000000000
-2.207396745681763 -9.990754127502441 -0.296520680189133 0.000000000000000
-2.188364505767822 17.748495101928711 -1.379153728485107 0.000000000000000
-2.183954477310181 -15.178108215332031 0.645383954048157 0.000000000000000
-2.178449869155884 4.055647373199463 -0.053836595267057 0.000000000000000
-2.178001642227173 -26.328374862670898 2.079166173934937 0.000000000000000
-2.176085948944092 -23.029169082641602 0.617846488952637 0.000000000000000
-2.168300628662109 -26.384836196899414 3.006945610046387 0.000000000000000
-2.165091276168823 -25.979154586791992 2.271591901779175 0.000000000000000
-2.164177179336548 -28.241991043090820 2.119808912277222 0.000000000000000
-2.155021667480469 3.995455503463745 -0.061803694814444 0.000000000000000
-2.152601957321167 -20.762979507446289 1.320613026618958 0.000000000000000
-2.146149873733521 -21.429744720458984 1.362537264823914 0.000000000000000
-2.144163370132446 -30.678392410278320 1.767835021018982 0.000000000000000
-2.144152164459229 -17.986749649047852 1.041280269622803 0.000000000000000
-2.138250827789307 -18.486026763916016 1.069745659828186 0.000000000000000
-2.137495517730713 -25.551044464111328 1.918903112411499 0.000000000000000
-2.130189895629883 -28.042572021484375 0.697143018245697 0.000000000000000
-2.126436233520508 -23.835666656494141 1.929592490196228 0.000000000000000
-2.124080181121826 -15.202162742614746 1.337537765502930 0.000000000000000
-2.120865345001221 -23.090089797973633 1.154331445693970 0.000000000000000
-2.117888927459717 -17.253803253173828 0.999270975589752 0.000000000000000
-2.100730895996094 -28.924434661865234 1.164785265922546 0.000000000000000
-2.097644567489624 -21.023115158081055 0.726713240146637 0.000000000000000
-2.086243867874146 -17.708665847778320 1.899303317070007 0.000000000000000
-2.083178758621216 -18.140258789062500 0.557877600193024 0.000000000000000
-2.080527544021606 -16.149364471435547 0.747942507266998 0.000000000000000
-2.069196224212646 -18.018501281738281 1.819897174835205 0.000000000000000
-2.051010847091675 -27.075302124023438 0.777419924736023 0.000000000000000
-2.050118684768677 -27.930629730224609 1.609898328781128 0.000000000000000
-2.044099092483521 3.462998390197754 -0.232569769024849 0.000000000000000
-2.043931007385254 -14.995018005371094 1.132594585418701 0.000000000000000
-2.041386127471924 -18.370105743408203 1.854641675949097 0.000000000000000
-2.037624835968018 -34.216396331787109 2.499103069305420 0.000000000000000
-2.022170305252075 -28.342550277709961 1.742889165878296 0.000000000000000
-2.019595146179199 -26.258974075317383 1.513942599296570 0.000000000000000
-2.019270420074463 -22.196609497070312 0.938052177429199 0.000000000000000
-2.012732028961182 -20.534832000732422 1.504348516464233 0.000000000000000
-2.012643575668335 -38.301204681396484 1.614216685295105 0.000000000000000
-1.997489690780640 -31.909164428710938 1.899464607238770 0.000000000000000
-1.994661808013916 -7.398191928863525 -0.576136529445648 0.000000000000000
-1.984743356704712 -22.622079849243164 1.261677503585815 0.000000000000000
-1.979718327522278 -26.971500396728516 1.138210296630859 0.000000000000000
-1.972185134887695 -17.809690475463867 0.581896722316742 0.000000000000000
-1.970877885818481 -15.027058601379395 0.783669948577881 0.000000000000000
-1.969567060470581 -20.152381896972656 0.891145884990692 0.000000000000000
-1.965484738349915 -25.555425643920898 2.323573589324951 0.000000000000000
-1.958395600318909 -25.370599746704102 3.771163702011108 0.000000000000000
-1.958261370658875 -29.686748504638672 2.592434406280518 0.000000000000000
-1.958030223846436 -22.848808288574219 2.604725360870361 0.000000000000000
-1.951325774192810 -17.559669494628906 0.539798796176910 0.000000000000000
-1.947211146354675 -25.317829132080078 1.851349234580994 0.000000000000000
-1.935322284698486 -22.583822250366211 0.779652595520020 0.000000000000000
-1.933679223060608 -32.721118927001953 1.947384238243103 0.000000000000000
-1.931201696395874 -14.631441116333008 -1.109685182571411 0.000000000000000
-1.927778720855713 -16.870161056518555 1.808638334274292 0.000000000000000
-1.920827507972717 -39.162216186523438 1.650211691856384 0.000000000000000
-1.917597770690918 -27.436723709106445 1.157553434371948 0.000000000000000
-1.913363933563232 -17.745513916015625 1.555252194404602 0.000000000000000
-1.909380197525024 -7.181530475616455 -0.558741450309753 0.000000000000000
-1.906718611717224 -21.024492263793945 1.254211306571960 0.000000000000000
-1.902196288108826 -20.190835952758789 1.204868435859680 0.000000000000000
-1.901495695114136 -15.362310409545898 2.059912681579590 0.000000000000000
-1.898589134216309 -28.404716491699219 1.581645607948303 0.000000000000000
-1.897232294082642 -22.139339447021484 1.106201171875000 0.000000000000000
-1.893717527389526 -20.040908813476562 0.847224116325378 0.000000000000000
-1.893709778785706 -21.802988052368164 1.906998276710510 0.000000000000000
-1.891034960746765 -1.060288310050964 -0.000378387398086 0.000000000000000
-1.885581254959106 -16.815633773803711 0.712159395217896 0.000000000000000
-1.872838139533997 -6.413333415985107 -0.193624883890152 0.000000000000000
-1.867609620094299 -15.510248184204102 2.078907728195190 0.000000000000000
-1.864143610000610 -33.259380340576172 2.428714275360107 0.000000000000000
-1.855920433998108 -17.741304397583008 1.334992885589600 0.000000000000000
-1.855054140090942 -20.031093597412109 1.544372081756592 0.000000000000000
-1.854567408561707 -19.863483428955078 0.494532406330109 0.000000000000000
-1.852428078651428 -16.000282287597656 0.894890069961548 0.000000000000000
-1.841555356979370 -16.407514572143555 0.917301237583160 0.000000000000000
-1.836421012878418 -16.444601058959961 0.983062505722046 0.000000000000000
-1.832758069038391 -16.411800384521484 1.235883474349976 0.000000000000000
-1.825435519218445 -1.665916681289673 -0.057377088814974 0.000000000000000
-1.823908448219299 -16.093135833740234 0.619362890720367 0.000000000000000
-1.816607356071472 -15.705291748046875 0.665399730205536 0.000000000000000
-1.813550710678101 -19.479265213012695 1.539681434631348 0.000000000000000
-1.810055255889893 -24.660026550292969 1.802774906158447 0.000000000000000
-1.803755760192871 -20.691904067993164 1.974351525306702 0.000000000000000
-1.790617823600769 -30.490089416503906 3.064711570739746 0.000000000000000
-1.785626053810120 -16.485204696655273 1.240958333015442 0.000000000000000
-1.783150553703308 -17.640522003173828 1.326932787895203 0.000000000000000
-1.778724431991577 -15.714080810546875 1.030988574028015 1.000000000000000
-1.778381824493408 -17.089437484741211 1.724050164222717 0.000000000000000
-1.771952986717224 -25.799520492553711 1.636054873466492 0.000000000000000
-1.771345257759094 -19.471319198608398 1.123921632766724 0.000000000000000
-1.770733118057251 -19.525045394897461 1.467238545417786 0.000000000000000
-1.764868855476379 -18.392795562744141 1.133355498313904 0.000000000000000
-1.762807726860046 -1.598079562187195 -0.055241696536541 0.000000000000000
-1.759163737297058 -7.158797264099121 -0.057898961007595 0.000000000000000
-1.755359888076782 -8.246996879577637 -0.066224098205566 0.000000000000000
-1.753503084182739 -20.242006301879883 1.246250271797180 0.000000000000000
-1.750138998031616 -16.781051635742188 1.470180392265320 0.000000000000000
-1.736240983009338 -20.684995651245117 1.193248510360718 0.000000000000000
-1.724212765693665 -20.610773086547852 1.966024160385132 0.000000000000000
-1.724036455154419 -22.923620223999023 1.764821767807007 0.000000000000000
-1.722143292427063 -31.183650970458984 3.133801460266113 0.000000000000000
-1.719274401664734 -26.379180908203125 1.672422885894775 0.000000000000000
-1.718708276748657 -27.333322525024414 1.996781110763550 0.000000000000000
-1.717685341835022 -17.524627685546875 3.009894371032715 0.000000000000000
-1.715690374374390 -5.979779243469238 -0.660445153713226 0.000000000000000
-1.714415788650513 -19.603759765625000 0.828217506408691 0.000000000000000
-1.713295578956604 -4.927112102508545 -0.191280156373978 0.000000000000000
-1.712983608245850 -15.758040428161621 2.349133968353271 0.000000000000000
-1.711427450180054 -25.780385971069336 1.087413907051086 0.000000000000000
-1.710974931716919 -25.882968902587891 1.941292285919189 0.000000000000000
-1.706532716751099 -15.918462753295898 0.766199231147766 0.000000000000000
-1.702448010444641 -15.797116279602051 0.485440254211426 0.000000000000000
-1.702279329299927 -24.785076141357422 2.646229982376099 0.000000000000000
-1.702277779579163 -15.423982620239258 1.251245260238647 0.000000000000000
-1.699813604354858 -15.772670745849609 -0.002768790349364 0.000000000000000
-1.699218392372131 -19.898046493530273 1.224944829940796 0.000000000000000
-1.696607232093811 -17.789148330688477 0.889614760875702 0.000000000000000
-1.691126108169556 -16.311803817749023 1.746782898902893 0.000000000000000
-1.689244389533997 -17.381286621093750 1.071153163909912 0.000000000000000
-1.688745975494385 -6.016368865966797 -0.663401126861572 0.000000000000000
-1.685639142990112 -23.225973129272461 2.336673021316528 0.000000000000000
-1.680154442787170 -15.301911354064941 0.825618922710419 0.000000000000000
-1.677864670753479 -8.042702674865723 -0.048754438757896 0.000000000000000
-1.674610495567322 -17.420200347900391 1.343518018722534 0.000000000000000
-1.654028534889221 -15.913358688354492 0.396597355604172 0.000000000000000
-1.644500732421875 -16.056015014648438 0.803497374057770 0.000000000000000
-1.644101262092590 4.402971744537354 -0.027890197932720 0.000000000000000
-1.640339136123657 -16.717456817626953 1.192290306091309 0.000000000000000
-1.637161016464233 -18.052207946777344 1.723015427589417 0.000000000000000
-1.633091330528259 -20.377494812011719 1.529928326606750 0.000000000000000
-1.626370072364807 -24.953731536865234 1.968068122863770 0.000000000000000
-1.622623562812805 -22.022249221801758 1.226840376853943 0.000000000000000
-1.620443701744080 -20.149049758911133 0.850756287574768 0.000000000000000
-1.616951107978821 -21.100822448730469 1.257295250892639 0.000000000000000
-1.615385532379150 -33.889598846435547 3.613887548446655 0.000000000000000
-1.614452838897705 -28.804485321044922 2.615374565124512 0.000000000000000
-1.605836629867554 -16.619489669799805 0.799088358879089 0.000000000000000
-1.604398369789124 -25.515403747558594 1.469637751579285 0.000000000000000
-1.596416592597961 -16.585493087768555 0.573120296001434 0.000000000000000
-1.591594219207764 -19.367219924926758 0.668411135673523 0.000000000000000
-1.590073704719543 -28.228456497192383 1.135569214820862 0.000000000000000
-1.587512969970703 -17.794763565063477 0.614509284496307 0.000000000000000
-1.572384834289551 -17.518081665039062 1.873459696769714 0.000000000000000
-1.565011501312256 -25.376958847045898 1.608526349067688 0.000000000000000
-1.561466097831726 -16.160280227661133 1.027143478393555 0.000000000000000
-1.557757258415222 -18.015274047851562 0.795822978019714 0.000000000000000
-1.552901625633240 -32.200588226318359 1.480834364891052 0.000000000000000
-1.545783162117004 -23.514909744262695 2.364628314971924 0.000000000000000
-1.544442415237427 -16.045522689819336 1.299790501594543 0.000000000000000
-1.519978642463684 -5.221933841705322 -0.241260930895805 1.000000000000000
-1.519004464149475 -15.480877876281738 0.385594516992569 0.000000000000000
-1.513006567955017 -19.233171463012695 0.663598477840424 0.000000000000000
-1.509877920150757 -15.404479980468750 0.651439130306244 0.000000000000000
-1.500658512115479 -24.093847274780273 0.969584167003632 0.000000000000000
-1.499209165573120 -18.706932067871094 1.114959955215454 0.000000000000000
-1.498615980148315 -0.690491080284119 -0.181583002209663 0.000000000000000
-1.493189334869385 -23.102943420410156 2.629553794860840 0.000000000000000
-1.472937226295471 -7.315497398376465 -0.158919066190720 0.000000000000000
-1.448951482772827 -24.231468200683594 2.971963644027710 0.000000000000000
-1.443817138671875 -23.619762420654297 2.687787771224976 0.000000000000000
-1.442514181137085 -16.002174377441406 0.738031148910522 0.000000000000000
-1.439091205596924 -15.518834114074707 1.256710648536682 0.000000000000000
-1.433032751083374 -18.632432937622070 0.786503851413727 0.000000000000000
-1.427201151847839 -20.338542938232422 1.132758259773254 0.000000000000000
-1.418838620185852 -20.048965454101562 1.000592947006226 0.000000000000000
-1.416101098060608 -16.347122192382812 0.501320242881775 0.000000000000000
-1.411676764488220 -0.685443103313446 -0.145302161574364 0.000000000000000
-1.411610484123230 -22.449419021606445 3.844928026199341 0.000000000000000
-1.408189654350281 -21.067869186401367 1.498717546463013 0.000000000000000
-1.399048566818237 -22.089605331420898 1.229725003242493 0.000000000000000
-1.395428657531738 -27.180046081542969 2.141933441162109 0.000000000000000
-1.387836694717407 4.624140262603760 -0.028649758547544 0.000000000000000
-1.381115078926086 3.889575481414795 -0.064119428396225 0.000000000000000
-1.380465507507324 -24.507297515869141 1.363747715950012 0.000000000000000
-1.378028750419617 -25.208295822143555 1.986898303031921 0.000000000000000
-1.377276062965393 -20.605371475219727 0.829443931579590 0.000000000000000
-1.374939560890198 -31.092863082885742 0.891096532344818 0.000000000000000
-1.367400765419006 4.546824932098389 -0.009944180026650 0.000000000000000
-1.365537166595459 4.989508152008057 -0.269294559955597 0.000000000000000
-1.350115180015564 -24.697673797607422 1.564834237098694 0.000000000000000
-1.347138762474060 -20.154489517211914 1.760119199752808 0.000000000000000
-1.347119688987732 -19.770441055297852 0.681611657142639 0.000000000000000
-1.341303825378418 -22.523569107055664 2.045495748519897 0.000000000000000
-1.340365648269653 -21.399869918823242 3.177722930908203 0.000000000000000
-1.333703041076660 -20.635337829589844 1.029431343078613 0.000000000000000
-1.328486442565918 -21.127464294433594 1.919096827507019 0.000000000000000
-1.316831588745117 -16.047801971435547 0.987645328044891 0.000000000000000
-1.313742637634277 -25.588972091674805 1.226263046264648 0.000000000000000
-1.311538457870483 -24.358575820922852 2.986546277999878 0.000000000000000
-1.308119177818298 -25.479436874389648 1.614082574844360 0.000000000000000
-1.306918144226074 -15.185392379760742 0.964257121086121 0.000000000000000
-1.303580045700073 -15.146607398986816 0.727573812007904 0.000000000000000
-1.303208947181702 -20.941366195678711 0.963790476322174 0.000000000000000
-1.297973513603210 -19.729408264160156 0.794127941131592 0.000000000000000
-1.295759677886963 -21.010988235473633 1.656742453575134 0.000000000000000
-1.285027146339417 -20.100208282470703 1.313066124916077 0.000000000000000
-1.282742500305176 -25.044897079467773 0.718005836009979 0.000000000000000
-1.279356122016907 3.563495874404907 -0.117001526057720 0.000000000000000
-1.277321100234985 4.301681518554688 -0.078326404094696 0.000000000000000
-1.265874505043030 -19.855049133300781 0.990449726581573 0.000000000000000
-1.256250977516174 -17.974264144897461 1.633435249328613 0.000000000000000
-1.252075195312500 4.561797142028809 -0.228050068020821 0.000000000000000
-1.249162554740906 -17.872844696044922 1.306270122528076 0.000000000000000
-1.233051419258118 -16.288784027099609 0.530484080314636 0.000000000000000
-1.232736587524414 -19.692512512207031 1.875558376312256 0.000000000000000
-1.229036688804626 -16.116163253784180 0.742436110973358 0.000000000000000
-1.227128744125366 -5.497071266174316 -0.293208748102188 1.000000000000000
-1.226063251495361 -21.078161239624023 1.335766315460205 0.000000000000000
-1.216989874839783 -24.812232971191406 1.811209917068481 0.000000000000000
-1.212593793869019 -15.025225639343262 1.069946050643921 0.000000000000000
-1.211345076560974 -15.326608657836914 0.735796093940735 0.000000000000000
-1.203079104423523 -26.897884368896484 2.067021608352661 0.000000000000000
-1.197934031486511 -4.234539985656738 -0.169827997684479 0.000000000000000
-1.194068193435669 -28.207197189331055 1.568553924560547 0.000000000000000
-1.179360151290894 -16.489234924316406 1.269116163253784 0.000000000000000
-1.172028899192810 2.258562803268433 -0.132463812828064 1.000000000000000
-1.171758294105530 -21.649944305419922 1.748271226882935 0.000000000000000
-1.168326735496521 -18.944639205932617 2.021743297576904 0.000000000000000
-1.160831093788147 21.133563995361328 2.816550731658936 0.000000000000000
-1.151948809623718 -22.323431015014648 0.554106235504150 0.000000000000000
-1.150630235671997 -6.151901245117188 -0.133284211158752 1.000000000000000
-1.149003624916077 -19.879047393798828 0.684911787509918 0.000000000000000
-1.140000581741333 -16.505594253540039 1.660151958465576 0.000000000000000
-1.112971067428589 -18.951330184936523 0.872018396854401 0.000000000000000
-1.110718011856079 -16.731494903564453 0.963918924331665 0.000000000000000
-1.110598444938660 -25.872106552124023 1.289175748825073 0.000000000000000
-1.103467583656311 -27.582057952880859 1.693176388740540 0.000000000000000
-1.103039622306824 -20.094266891479492 0.885693848133087 0.000000000000000
-1.098757386207581 -15.658007621765137 1.114125967025757 0.000000000000000
-1.087864995002747 -15.022083282470703 0.662863433361053 0.000000000000000
-1.087312459945679 -20.089683532714844 1.001587390899658 0.000000000000000
-1.082475066184998 4.497764587402344 -0.231924295425415 0.000000000000000
-1.072571396827698 -4.880771160125732 -0.260144770145416 0.000000000000000
-1.071905374526978 -18.138448715209961 1.727179169654846 0.000000000000000
-1.056049942970276 -1.524050235748291 -0.082252070307732 0.000000000000000
-1.054141759872437 -18.961610794067383 1.421265959739685 0.000000000000000
-1.049898624420166 -18.049585342407227 1.422934293746948 0.000000000000000
-1.039166569709778 -15.808108329772949 0.971727490425110 0.000000000000000
-1.035675644874573 -19.881366729736328 1.489926099777222 0.000000000000000
-1.026418328285217 -15.868049621582031 1.220739841461182 0.000000000000000
-1.019090652465820 -18.453149795532227 1.133600473403931 0.000000000000000
-1.014021396636963 -24.113325119018555 1.015760660171509 0.000000000000000
-1.003517627716064 -23.725479125976562 2.907313346862793 0.000000000000000
-1.000157713890076 -18.721504211425781 1.222249627113342 0.000000000000000
-0.993672072887421 -15.802773475646973 0.666408956050873 0.000000000000000
-0.990326762199402 -20.379978179931641 1.939527869224548 0.000000000000000
-0.971453785896301 2.764904975891113 -0.090561904013157 0.000000000000000
-0.968151688575745 -17.530775070190430 0.806493043899536 0.000000000000000
-0.963172674179077 -23.135053634643555 3.431635856628418 0.000000000000000
-0.953667521476746 -21.380168914794922 0.530514597892761 0.000000000000000
-0.953209340572357 3.965522766113281 -0.212316408753395 0.000000000000000
-0.951746344566345 -24.684879302978516 1.420052886009216 0.000000000000000
-0.950825273990631 -17.567884445190430 0.605158925056458 0.000000000000000
-0.947078526020050 -12.511040687561035 -0.170817777514458 0.000000000000000
-0.944280147552490 28.286268234252930 3.214601278305054 1.000000000000000
-0.943809688091278 -19.422700881958008 1.455297470092773 0.000000000000000
-0.943400621414185 -20.920343399047852 1.990627884864807 0.000000000000000
-0.940567910671234 -21.028779983520508 0.966910660266876 0.000000000000000
-0.940188348293304 -24.385107040405273 1.779214859008789 0.000000000000000
-0.932682454586029 -4.853385925292969 -0.133731767535210 1.000000000000000
-0.916200220584869 -16.265232086181641 1.156323432922363 0.000000000000000
-0.915014088153839 -1.306726932525635 -0.049296315759420 0.000000000000000
-0.912655770778656 -1.293724060058594 -0.048925668001175 0.000000000000000
-0.890136897563934 -17.767951965332031 1.159797072410583 0.000000000000000
-0.885045468807220 -18.044483184814453 1.038525581359863 0.000000000000000
-0.880984544754028 -21.367296218872070 0.982328355312347 0.000000000000000
-0.872668504714966 -15.697319984436035 0.450127393007278 0.000000000000000
-0.857962191104889 -18.835781097412109 0.793568313121796 0.000000000000000
-0.855825483798981 -18.978324890136719 0.836097776889801 0.000000000000000
-0.855652987957001 -16.844308853149414 0.580133080482483 0.000000000000000
-0.844949066638947 28.269529342651367 3.212344169616699 1.000000000000000
-0.844577550888062 -15.685934066772461 1.054383158683777 0.000000000000000
-0.840727984905243 15.151400566101074 -1.493241310119629 1.000000000000000
-0.840289711952209 -15.371429443359375 0.736752152442932 0.000000000000000
-0.838771343231201 -16.101488113403320 1.532620787620544 0.000000000000000
-0.829503357410431 -17.402368545532227 1.371151328086853 0.000000000000000
-0.819265246391296 -16.703344345092773 1.516064882278442 0.000000000000000
-0.818098723888397 -16.387275695800781 0.816822767257690 0.000000000000000
-0.814796507358551 -15.423636436462402 1.096284151077271 0.000000000000000
-0.806977868080139 -17.226961135864258 -0.698694705963135 0.000000000000000
-0.804265797138214 -15.975777626037598 1.073670744895935 0.000000000000000
-0.800318777561188 -15.897374153137207 0.578104853630066 0.000000000000000
-0.798125863075256 -16.424667358398438 3.420367240905762 0.000000000000000
-0.788269996643066 -22.195428848266602 3.291485309600830 0.000000000000000
-0.776825666427612 -17.226467132568359 -0.831304073333740 0.000000000000000
-0.775865137577057 -17.713470458984375 1.429673075675964 0.000000000000000
-0.772297441959381 2.485978841781616 -0.065438777208328 0.000000000000000
-0.770253241062164 -15.300158500671387 0.792138755321503 0.000000000000000
-0.763615608215332 2.488659381866455 -0.065438777208328 0.000000000000000
-0.758726596832275 -15.283660888671875 -1.328029513359070 0.000000000000000
-0.753196179866791 -18.106651306152344 1.722636938095093 0.000000000000000
-0.748887181282043 -18.992891311645508 1.239163875579834 0.000000000000000
-0.743373215198517 -16.320083618164062 1.481034278869629 0.000000000000000
-0.720816373825073 -16.569158554077148 1.017277240753174 0.000000000000000
-0.701026141643524 -18.067399978637695 2.213660955429077 0.000000000000000
-0.683628797531128 -15.206961631774902 1.326426386833191 0.000000000000000
-0.677865803241730 -15.519494056701660 1.192571282386780 0.000000000000000
-0.672243356704712 1.491489887237549 -0.006567307747900 0.000000000000000
-0.661081492900848 -16.033792495727539 1.610231518745422 0.000000000000000
-0.660538136959076 -15.080485343933105 1.714514136314392 0.000000000000000
-0.659576117992401 -15.216464042663574 -1.321804404258728 0.000000000000000
-0.633882105350494 -22.807388305664062 1.707549095153809 0.000000000000000
-0.587122738361359 -4.283877849578857 -0.025658981874585 0.000000000000000
-0.575322270393372 16.080883026123047 -1.489900231361389 0.000000000000000
-0.570084214210510 -15.726942062377930 2.094209194183350 0.000000000000000
-0.564651846885681 -12.824782371520996 -1.387766361236572 1.000000000000000
-0.548386633396149 -26.355468750000000 2.505791425704956 0.000000000000000
-0.542232275009155 2.255784034729004 -0.192372605204582 0.000000000000000
-0.541251420974731 -5.931291103363037 -0.310052663087845 1.000000000000000
-0.531999409198761 1.397705078125000 -0.037594627588987 0.000000000000000
-0.526854276657104 -23.542648315429688 1.217642188072205 0.000000000000000
-0.522770106792450 -21.513467788696289 1.610529303550720 0.000000000000000
-0.519574940204620 16.094734191894531 -1.491006731987000 0.000000000000000
-0.516359388828278 -19.219060897827148 0.920127511024475 0.000000000000000
-0.513445913791656 -14.995863914489746 1.505598545074463 0.000000000000000
-0.492727398872375 -15.043250083923340 2.002927303314209 0.000000000000000
-0.488808721303940 -24.521078109741211 0.702207922935486 0.000000000000000
-0.488306134939194 -30.810003280639648 3.499902248382568 0.000000000000000
-0.477229297161102 -25.408954620361328 2.147426605224609 0.000000000000000
-0.476447254419327 -15.010619163513184 2.567104339599609 0.000000000000000
-0.449687898159027 -23.398817062377930 1.796664595603943 0.000000000000000
-0.439686119556427 -12.841611862182617 -1.389056205749512 0.000000000000000
-0.435621947050095 -20.488971710205078 1.494168162345886 0.000000000000000
-0.430565029382706 -16.025766372680664 0.520617067813873 0.000000000000000
-0.413465946912766 -22.014024734497070 2.929993629455566 0.000000000000000
-0.402159273624420 -18.168972015380859 1.184778213500977 0.000000000000000
-0.401095122098923 6.735290050506592 -1.098129749298096 0.000000000000000
-0.395154535770416 -15.010254859924316 1.705485701560974 0.000000000000000
-0.391413956880569 -13.126346588134766 -0.557289719581604 0.000000000000000
-0.387285202741623 -15.030468940734863 2.000816822052002 0.000000000000000
-0.386019080877304 -16.514780044555664 0.536456286907196 0.000000000000000
-0.381343215703964 -19.540845870971680 1.575951814651489 0.000000000000000
-0.377359390258789 6.732707500457764 -1.097487092018127 0.000000000000000
-0.375018596649170 -19.216760635375977 2.183094024658203 0.000000000000000
-0.374005854129791 -19.913064956665039 1.375238299369812 0.000000000000000
-0.373351275920868 -15.937095642089844 0.456423699855804 0.000000000000000
-0.370412886142731 -22.599775314331055 1.429969549179077 0.000000000000000
-0.370108306407928 -15.834079742431641 1.687045693397522 0.000000000000000
-0.362296670675278 -29.995738983154297 2.476820707321167 0.000000000000000
-0.362036675214767 -22.088722229003906 1.738653779029846 0.000000000000000
-0.358964681625366 -17.851106643676758 0.785798311233521 0.000000000000000
-0.358959645032883 19.419008255004883 -1.497876644134521 0.000000000000000
-0.347513556480408 -15.601702690124512 0.836972832679749 0.000000000000000
-0.340035974979401 -16.778587341308594 -0.776743650436401 0.000000000000000
-0.339673370122910 -24.571584701538086 0.703581631183624 0.000000000000000
-0.338934004306793 -19.574317932128906 1.465148925781250 0.000000000000000
-0.330668747425079 -22.715509414672852 1.979569792747498 0.000000000000000
-0.325452178716660 -15.307265281677246 0.880129754543304 0.000000000000000
-0.320268779993057 -23.706720352172852 0.952247202396393 0.000000000000000
-0.316103368997574 -19.944753646850586 1.608422398567200 0.000000000000000
-0.313114613294601 -21.930351257324219 0.923082411289215 0.000000000000000
-0.311877787113190 -16.605201721191406 0.890742957592010 0.000000000000000
-0.307120472192764 -23.121841430664062 2.320299148559570 0.000000000000000
-0.294859886169434 -20.651802062988281 1.187279939651489 0.000000000000000
-0.294107496738434 -20.599105834960938 3.521428346633911 0.000000000000000
-0.289083153009415 -18.906406402587891 1.597771644592285 0.000000000000000
-0.283386915922165 -21.970232009887695 1.729238629341125 0.000000000000000
-0.268097370862961 -16.357261657714844 1.742546319961548 0.000000000000000
-0.267938584089279 -24.213174819946289 1.345330715179443 0.000000000000000
-0.267508953809738 -14.821514129638672 -0.771700501441956 0.000000000000000
-0.261674702167511 -18.929250717163086 1.416788220405579 0.000000000000000
-0.256182789802551 -26.163356781005859 2.625412464141846 0.000000000000000
-0.253534644842148 -19.655866622924805 0.940778732299805 0.000000000000000
-0.246339544653893 -20.395263671875000 1.054670214653015 0.000000000000000
-0.243283390998840 -23.544895172119141 1.762178778648376 0.000000000000000
-0.237382501363754 -22.007238388061523 0.926278233528137 0.000000000000000
-0.235413536429405 2.006403923034668 -0.253415644168854 0.000000000000000
-0.234788060188293 -22.722719192504883 1.350050449371338 0.000000000000000
-0.229091987013817 23.952056884765625 2.932590246200562 0.000000000000000
-0.222127452492714 1.952005267143250 -0.246445477008820 1.000000000000000
-0.221867173910141 -20.568845748901367 1.182459115982056 0.000000000000000
-0.218136996030807 -18.487726211547852 2.460392475128174 0.000000000000000
-0.216513767838478 -26.061353683471680 3.468188047409058 0.000000000000000
-0.215186342597008 -19.949480056762695 3.410225391387939 0.000000000000000
-0.214263647794724 23.976873397827148 2.723450422286987 0.000000000000000
-0.213973209261894 -16.588773727416992 1.767118811607361 0.000000000000000
-0.208751901984215 -12.444925308227539 -0.576084911823273 0.000000000000000
-0.205807968974113 -17.039522171020508 2.086304903030396 0.000000000000000
-0.201231166720390 -16.057243347167969 0.552357077598572 0.000000000000000
-0.196393832564354 -16.260095596313477 0.590590298175812 0.000000000000000
-0.192371651530266 -16.304040908813477 1.125871300697327 0.000000000000000
-0.191604420542717 -18.543418884277344 1.762759804725647 0.000000000000000
-0.185724601149559 -19.742076873779297 1.553804039955139 0.000000000000000
-0.184272840619087 -15.256557464599609 1.024112582206726 0.000000000000000
-0.184164375066757 -23.038734436035156 1.146972656250000 0.000000000000000
-0.180389538407326 -21.442592620849609 1.108787655830383 0.000000000000000
-0.176044866442680 -16.215862274169922 1.338964343070984 0.000000000000000
-0.175561100244522 -21.131959915161133 1.785704970359802 0.000000000000000
-0.173924148082733 -16.775857925415039 2.486352682113647 0.000000000000000
-0.168174996972084 -15.591154098510742 1.413501143455505 0.000000000000000
-0.163445949554443 -25.941213607788086 2.603047847747803 0.000000000000000
-0.159722283482552 -26.994819641113281 2.875434160232544 0.000000000000000
-0.156491741538048 -17.649814605712891 2.004780769348145 0.000000000000000
-0.146936088800430 -15.618952751159668 1.663743972778320 0.000000000000000
-0.119005404412746 -29.905128479003906 2.711076498031616 0.000000000000000
-0.112449325621128 -17.847318649291992 0.545295715332031 0.000000000000000
-0.110979840159416 16.471714019775391 2.441199541091919 0.000000000000000
-0.104897722601891 -17.728866577148438 1.395316600799561 0.000000000000000
-0.104617685079575 -13.875214576721191 -1.419220685958862 0.000000000000000
-0.081081099808216 -16.831819534301758 1.422299504280090 0.000000000000000
-0.077335633337498 -16.054288864135742 2.136420726776123 0.000000000000000
-0.074525766074657 -15.470981597900391 1.068282723426819 0.000000000000000
-0.069790758192539 -19.795766830444336 0.566780447959900 0.000000000000000
-0.066630132496357 -16.314819335937500 1.158022642135620 0.000000000000000
-0.066102117300034 -16.610944747924805 2.839383363723755 0.000000000000000
-0.062360726296902 9.255627632141113 -0.054925888776779 0.000000000000000
-0.053111564368010 -18.901010513305664 1.896574854850769 0.000000000000000
-0.044020790606737 -15.665842056274414 1.202675223350525 0.000000000000000
-0.043492861092091 -17.928508758544922 1.411008477210999 0.000000000000000
-0.038505274802446 -18.696273803710938 1.218866825103760 0.000000000000000
-0.037657465785742 -18.284618377685547 1.474360466003418 0.000000000000000
-0.029986249282956 7.535923957824707 -0.015783349052072 0.000000000000000
-0.028581300750375 -20.995412826538086 1.368753194808960 0.000000000000000
-0.020014908164740 19.438268661499023 -1.499106884002686 0.000000000000000
-0.019951248541474 -16.811170578002930 0.836910188198090 0.000000000000000
-0.009364699944854 9.094898223876953 -0.141286402940750 0.000000000000000
-0.008854506537318 -15.857595443725586 1.941449522972107 0.000000000000000
-0.007477518171072 16.479997634887695 2.442372322082520 0.000000000000000
-0.006119555328041 -15.937766075134277 1.315924048423767 0.000000000000000
-0.003412646474317 6.983983516693115 -0.014627243392169 0.000000000000000
-0.001238161581568 -17.722431182861328 2.626503229141235 0.000000000000000
-0.000564554007724 -16.202962875366211 1.540191054344177 0.000000000000000
0.011199248954654 -16.452320098876953 0.502663969993591 0.000000000000000
0.012592156417668 -18.985618591308594 0.835570216178894 0.000000000000000
0.012960967607796 -19.040382385253906 1.910552620887756 0.000000000000000
0.016142720356584 -15.162221908569336 1.615022182464600 0.000000000000000
0.017893999814987 -16.807130813598633 0.545804023742676 0.000000000000000
0.028882054612041 -15.321498870849609 1.028398633003235 0.000000000000000
0.042129795998335 -22.349227905273438 0.811698675155640 0.000000000000000
0.044336609542370 -19.244119644165039 0.958031475543976 0.000000000000000
0.045671045780182 -15.575634956359863 1.906937003135681 0.000000000000000
0.046425517648458 6.100750923156738 -1.472025394439697 1.000000000000000
0.062403548508883 -15.613468170166016 1.566701054573059 0.000000000000000
0.067546933889389 6.084998607635498 -1.468272566795349 1.000000000000000
0.075840182602406 -15.408738136291504 1.750176787376404 0.000000000000000
0.078592918813229 21.043357849121094 -1.095477819442749 1.000000000000000
0.083790063858032 -18.394111633300781 0.597346425056458 0.000000000000000
0.084848962724209 -18.626567840576172 1.178424239158630 0.000000000000000
0.089506641030312 -16.650297164916992 1.117603421211243 0.000000000000000
0.102609246969223 -16.514213562011719 0.917523086071014 0.000000000000000
0.123418718576431 -6.664043426513672 -0.501157820224762 1.000000000000000
0.129116326570511 23.940223693847656 2.550057172775269 1.000000000000000
0.132134258747101 -15.706452369689941 1.784033775329590 0.000000000000000
0.137003168463707 -18.297098159790039 1.122335433959961 0.000000000000000
0.138817116618156 -19.983329772949219 0.572160899639130 0.000000000000000
0.143464177846909 -17.830022811889648 0.579040408134460 0.000000000000000
0.144112467765808 6.856931209564209 -0.146059051156044 0.000000000000000
0.144715219736099 -16.321485519409180 1.998322129249573 0.000000000000000
0.153017774224281 -19.017364501953125 1.203174710273743 0.000000000000000
0.153309360146523 -24.674026489257812 2.150060653686523 0.000000000000000
0.155975326895714 -18.540378570556641 0.637747526168823 0.000000000000000
0.159239202737808 -24.525772094726562 1.032244205474854 0.000000000000000
0.160329431295395 -18.408702850341797 1.129192352294922 0.000000000000000
0.164260134100914 24.008174896240234 2.939395427703857 0.000000000000000
0.165535017848015 -15.859672546386719 3.298996686935425 0.000000000000000
0.165654018521309 20.997995376586914 -1.497834563255310 0.000000000000000
0.170864880084991 -24.721387863159180 3.663851737976074 0.000000000000000
0.172540798783302 -26.574464797973633 2.409163713455200 0.000000000000000
0.174871057271957 -24.677867889404297 2.150408029556274 0.000000000000000
0.178359583020210 -25.675642013549805 2.440686225891113 0.000000000000000
0.190655380487442 -19.096733093261719 1.731304168701172 0.000000000000000
0.193463608622551 -25.837526321411133 2.592664480209351 0.000000000000000
0.195361286401749 -19.365118026733398 1.598989367485046 0.000000000000000
0.201654210686684 -15.783164978027344 0.785796582698822 0.000000000000000
0.204788327217102 -22.391263961791992 1.892133235931396 0.000000000000000
0.209274098277092 23.557804107666016 2.509385108947754 0.000000000000000
0.210262760519981 -15.604241371154785 2.667524099349976 0.000000000000000
0.213408619165421 -18.497566223144531 1.455887198448181 0.000000000000000
0.218108579516411 -18.904943466186523 1.196103096008301 0.000000000000000
0.230353146791458 16.415075302124023 2.432989835739136 0.000000000000000
0.231551602482796 -15.407454490661621 0.974864482879639 0.000000000000000
0.233803972601891 -18.760829925537109 0.717494964599609 0.000000000000000
0.235866576433182 -16.934019088745117 1.609838485717773 0.000000000000000
0.238958880305290 15.060708999633789 -0.205068469047546 0.000000000000000
0.244273632764816 -16.881452560424805 1.694097757339478 0.000000000000000
0.246430620551109 -16.007169723510742 1.818342208862305 0.000000000000000
0.258335351943970 -25.875804901123047 1.089095950126648 0.000000000000000
0.259114176034927 -15.272262573242188 2.610911607742310 0.000000000000000
0.262787312269211 -19.502248764038086 1.768140435218811 0.000000000000000
0.269434183835983 -20.418731689453125 1.134533405303955 0.000000000000000
0.270173549652100 -30.471113204956055 2.515989065170288 0.000000000000000
0.274422705173492 -26.292045593261719 2.499356508255005 0.000000000000000
0.275637537240982 -18.340934753417969 0.877868950366974 0.000000000000000
0.286368548870087 16.538021087646484 2.025057315826416 0.000000000000000
0.297474592924118 -15.188839912414551 0.990394413471222 0.000000000000000
0.299717068672180 -26.499446868896484 0.758760035037994 0.000000000000000
0.304031163454056 -16.097608566284180 1.828724861145020 0.000000000000000
0.308774322271347 -24.502038955688477 1.597485899925232 0.000000000000000
0.309457063674927 -16.146083831787109 1.333368778228760 0.000000000000000
0.314660310745239 -16.660392761230469 0.829551339149475 0.000000000000000
0.320502102375031 -18.398263931274414 1.749133229255676 0.000000000000000
0.329871326684952 16.235286712646484 2.406601667404175 0.000000000000000
0.338772416114807 -16.615995407104492 1.372207999229431 0.000000000000000
0.339088112115860 -15.404622077941895 1.212663888931274 0.000000000000000
0.343257844448090 16.497222900390625 2.020196199417114 0.000000000000000
0.343958109617233 -26.066434860229492 -1.357078313827515 0.000000000000000
0.347755432128906 -15.046352386474609 0.807195663452148 0.000000000000000
0.349405765533447 -17.968557357788086 1.518623948097229 0.000000000000000
0.357129454612732 -30.954822540283203 3.297407627105713 0.000000000000000
0.360912263393402 -18.560289382934570 1.281829118728638 0.000000000000000
0.376796394586563 -16.837123870849609 1.357980370521545 0.000000000000000
0.378395199775696 -16.396818161010742 1.069240808486938 0.000000000000000
0.386954307556152 -18.914461135864258 1.715052843093872 0.000000000000000
0.390245527029037 -19.339399337768555 1.372974634170532 0.000000000000000
0.392725139856339 -25.509891510009766 0.877556085586548 0.000000000000000
0.394745320081711 -15.477246284484863 0.740958869457245 0.000000000000000
0.408962339162827 -17.075374603271484 2.919584274291992 0.000000000000000
0.418519407510757 -24.667652130126953 0.658964991569519 0.000000000000000
0.424735426902771 -18.377048492431641 2.446146249771118 0.000000000000000
0.426391363143921 -26.437650680541992 0.604649484157562 1.000000000000000
0.427230864763260 -28.427961349487305 3.028378248214722 0.000000000000000
0.434907734394073 -16.114065170288086 2.389009714126587 0.000000000000000
0.435081213712692 -20.805255889892578 1.557392358779907 0.000000000000000
0.435535788536072 -15.730096817016602 2.332128524780273 0.000000000000000
0.454461932182312 -24.538854598999023 0.797024548053741 0.000000000000000
0.459323495626450 -15.641880035400391 0.779034495353699 0.000000000000000
0.463038951158524 -16.872432708740234 1.530149221420288 0.000000000000000
0.480541080236435 -18.181320190429688 2.420291900634766 0.000000000000000
0.481969386339188 -25.124149322509766 1.541343927383423 0.000000000000000
0.485782504081726 -15.791385650634766 2.700547695159912 0.000000000000000
0.492608338594437 15.317649841308594 1.876313209533691 0.000000000000000
0.502001047134399 -20.960014343261719 1.900678753852844 0.000000000000000
0.503299474716187 -20.771795272827148 1.555004000663757 0.000000000000000
0.508877694606781 -25.174848556518555 3.082792520523071 0.000000000000000
0.509398519992828 -15.243175506591797 1.053127884864807 0.000000000000000
0.509457468986511 -15.679455757141113 0.509451746940613 0.000000000000000
0.512877225875854 16.429588317871094 2.809729099273682 0.000000000000000
0.514707744121552 -17.200605392456055 2.289964437484741 0.000000000000000
0.523454904556274 -15.280340194702148 1.386054515838623 0.000000000000000
0.524983882904053 19.928812026977539 -1.498974680900574 0.000000000000000
