# This PCD file was generated using the MATLAB® pcwrite function
# from Computer Vision Toolbox®.
# .PCD v.7 - Point Cloud Data file format
VERSION .7
FIELDS x y z intensity
SIZE 8 8 8 8
TYPE F F F F
COUNT 1 1 1 1
WIDTH 636
HEIGHT 1
VIEWPOINT 0 0 0 1 0 0 0
POINTS 636
DATA ascii
-7.781773090362549 -16.795856475830078 1.171100139617920 0.000000000000000
-7.776914596557617 -16.809207916259766 0.922033131122589 0.000000000000000
-7.774232864379883 -5.147800922393799 -0.270217359066010 0.000000000000000
-7.764473438262939 -17.111925125122070 0.429710835218430 0.000000000000000
-7.757104396820068 -16.086446762084961 1.267622709274292 0.000000000000000
-7.752992153167725 -5.408764839172363 -0.856984734535217 0.000000000000000
-7.746345520019531 -17.231576919555664 1.596424341201782 0.000000000000000
-7.742681980133057 -16.200845718383789 1.564627528190613 0.000000000000000
-7.729919910430908 -4.946913242340088 -0.442424863576889 0.000000000000000
-7.718363761901855 -14.365175247192383 0.529575288295746 0.000000000000000
-7.716951847076416 -15.813691139221191 0.368586599826813 0.000000000000000
-7.691289901733398 -6.000884056091309 -0.114081203937531 0.000000000000000
-7.684354782104492 -4.448731899261475 -0.291451215744019 0.000000000000000
-7.683571338653564 -16.830469131469727 0.494170367717743 0.000000000000000
-7.681632518768311 -7.343804836273193 -0.124277874827385 0.000000000000000
-7.678384304046631 -17.991281509399414 -0.943017899990082 0.000000000000000
-7.678216934204102 -4.009982585906982 -0.718257188796997 0.000000000000000
-7.670917987823486 -18.019937515258789 -1.472582221031189 0.000000000000000
-7.670335769653320 -15.447728157043457 0.925018846988678 0.000000000000000
-7.669594287872314 -16.262599945068359 1.415088415145874 0.000000000000000
-7.660286426544189 -16.155809402465820 0.065533481538296 0.000000000000000
-7.656128883361816 -15.368581771850586 0.260735899209976 0.000000000000000
-7.656023025512695 -17.500623703002930 1.540266275405884 0.000000000000000
-7.652504920959473 -17.327619552612305 2.151494264602661 0.000000000000000
-7.647140502929688 -3.918967485427856 -0.862224757671356 0.000000000000000
-7.634253501892090 -13.016438484191895 1.012861490249634 0.000000000000000
-7.630836009979248 -4.668675422668457 -0.828296065330505 0.000000000000000
-7.623030662536621 -19.896026611328125 1.512311220169067 0.000000000000000
-7.602963447570801 -13.274446487426758 1.026791334152222 0.000000000000000
-7.582354545593262 -4.047071456909180 -1.154428243637085 1.000000000000000
-7.574557304382324 -16.239248275756836 0.685242831707001 0.000000000000000
-7.563942432403564 -17.887203216552734 -1.235462069511414 0.000000000000000
-7.559186458587646 -4.258687019348145 -0.585403919219971 0.000000000000000
-7.540705680847168 -10.500961303710938 -0.027076318860054 0.000000000000000
-7.527711391448975 -7.280098915100098 -0.283368527889252 0.000000000000000
-7.526908874511719 -15.760672569274902 0.466508775949478 0.000000000000000
-7.525627613067627 -13.363472938537598 2.040917634963989 0.000000000000000
-7.496099948883057 -22.253643035888672 1.259422302246094 0.000000000000000
-7.495368480682373 -5.156049251556396 -0.211218252778053 0.000000000000000
-7.491684913635254 -7.021394729614258 -0.080643862485886 0.000000000000000
-7.477316379547119 -13.609066009521484 0.355089813470840 0.000000000000000
-7.473777770996094 -5.831596851348877 -0.074454985558987 0.000000000000000
-7.467029094696045 -17.803359985351562 -1.005019783973694 0.000000000000000
-7.466366291046143 -13.501896858215332 1.888951659202576 0.000000000000000
-7.430528163909912 -13.223734855651855 1.252398967742920 0.000000000000000
-7.421379089355469 -23.005851745605469 1.902476310729980 0.000000000000000
-7.416860580444336 -7.192961692810059 -0.041475199162960 0.000000000000000
-7.408371925354004 -4.894016742706299 -0.137931317090988 0.000000000000000
-7.376357555389404 -17.687490463256836 -1.108343958854675 0.000000000000000
-7.348679542541504 -15.115205764770508 0.190676644444466 0.000000000000000
-7.337406635284424 -5.790995121002197 -0.109310276806355 0.000000000000000
-7.336714267730713 19.767950057983398 -1.057078003883362 0.000000000000000
-7.286487102508545 -10.294122695922852 -0.026414489373565 0.000000000000000
-7.282658100128174 -16.241025924682617 2.179148197174072 0.000000000000000
-7.275290012359619 -4.194299221038818 -0.194970697164536 0.000000000000000
-7.248003959655762 -18.193094253540039 1.861553192138672 0.000000000000000
-7.245041370391846 -4.580833435058594 -0.067323639988899 0.000000000000000
-7.240587711334229 -16.007810592651367 3.003154993057251 0.000000000000000
-7.239902973175049 -13.703280448913574 0.741723775863647 0.000000000000000
-7.233904361724854 -9.938003540039062 -0.002145358826965 0.000000000000000
-7.226716995239258 -13.338254928588867 1.615869402885437 0.000000000000000
-7.219446182250977 -14.999559402465820 0.220820963382721 0.000000000000000
-7.211893081665039 -16.242408752441406 1.467331051826477 0.000000000000000
-7.202864170074463 -16.133163452148438 1.881932973861694 0.000000000000000
-7.197191715240479 -15.659337043762207 0.692193210124969 0.000000000000000
-7.186454296112061 -7.215613842010498 -0.060432713478804 0.000000000000000
-7.139511108398438 -13.249538421630859 0.633441746234894 0.000000000000000
-7.135864257812500 -2.764095067977905 -0.649324178695679 1.000000000000000
-7.131495475769043 -7.839059829711914 -0.225688919425011 0.000000000000000
-7.117576122283936 -15.731463432312012 0.428019851446152 0.000000000000000
-7.112257480621338 -12.688934326171875 -0.225971266627312 0.000000000000000
-7.111055374145508 -5.293086528778076 -0.239873230457306 1.000000000000000
-7.075245857238770 -2.882169485092163 -0.060003805905581 1.000000000000000
-7.070054531097412 -5.090835094451904 -0.587827444076538 0.000000000000000
-7.067636013031006 -2.800558805465698 -0.161899864673615 1.000000000000000
-7.032938003540039 -12.650763511657715 -0.224852904677391 0.000000000000000
-7.004951000213623 -13.740880966186523 0.797509193420410 0.000000000000000
-6.996815681457520 -13.277381896972656 0.978424310684204 0.000000000000000
-6.980857372283936 -12.353211402893066 -0.438477754592896 0.000000000000000
-6.971157550811768 -13.408040046691895 -0.002637541620061 0.000000000000000
-6.970276355743408 -4.149185180664062 -0.063710846006870 1.000000000000000
-6.961517333984375 -13.322951316833496 0.979985654354095 0.000000000000000
-6.948102951049805 -7.584117412567139 -0.219045996665955 0.000000000000000
-6.946164608001709 -2.914764881134033 -0.639178514480591 1.000000000000000
-6.945737838745117 -20.021926879882812 2.014474391937256 0.000000000000000
-6.942887783050537 -13.746972084045410 0.588945031166077 0.000000000000000
-6.931269168853760 -3.597279787063599 -0.481732696294785 0.000000000000000
-6.904949665069580 -13.791268348693848 1.064976215362549 0.000000000000000
-6.877058982849121 -14.729111671447754 1.846330404281616 0.000000000000000
-6.854221820831299 -16.785713195800781 1.216987490653992 0.000000000000000
-6.848788738250732 -19.493791580200195 1.187739014625549 0.000000000000000
-6.847723960876465 -13.657912254333496 1.231955766677856 0.000000000000000
-6.838778495788574 -13.405664443969727 0.286333322525024 0.000000000000000
-6.833812713623047 -13.353295326232910 1.425878524780273 0.000000000000000
-6.823783397674561 -5.631897449493408 -0.069491319358349 0.000000000000000
-6.801456451416016 -15.196309089660645 1.582585096359253 0.000000000000000
-6.800192832946777 -17.271259307861328 -0.288351029157639 1.000000000000000
-6.795261859893799 -13.853720664978027 0.887016534805298 0.000000000000000
-6.793612480163574 -13.389783859252930 3.123049974441528 0.000000000000000
-6.785295009613037 -13.772547721862793 1.743856906890869 0.000000000000000
-6.756528854370117 -13.432696342468262 1.429285287857056 0.000000000000000
-6.756278514862061 -17.309322357177734 -0.324335545301437 1.000000000000000
-6.739996433258057 -15.987715721130371 1.365502238273621 0.000000000000000
-6.738156318664551 -13.408408164978027 0.227878183126450 0.000000000000000
-6.699991226196289 -13.780944824218750 1.117208480834961 0.000000000000000
-6.684728622436523 -13.797902107238770 0.497896909713745 0.000000000000000
-6.674619674682617 -16.925443649291992 1.729450225830078 0.000000000000000
-6.673604965209961 -4.561990737915039 -0.047971140593290 0.000000000000000
-6.656726360321045 -4.507112503051758 -0.728780090808868 1.000000000000000
-6.644319057464600 -14.554039955139160 0.181510359048843 0.000000000000000
-6.643031597137451 -16.480163574218750 1.548307538032532 0.000000000000000
-6.634238243103027 -14.549431800842285 0.212119698524475 0.000000000000000
-6.620233535766602 -7.433522224426270 -0.192867055535316 0.000000000000000
-6.563576698303223 -16.146352767944336 1.656774759292603 0.000000000000000
-6.554443836212158 -7.515088081359863 -0.059174690395594 0.000000000000000
-6.514369010925293 -16.113920211791992 1.166625738143921 0.000000000000000
-6.509460449218750 -4.070564746856689 -0.473605304956436 1.000000000000000
-6.508380413055420 -17.252161026000977 1.451179504394531 0.000000000000000
-6.500880241394043 -3.451632976531982 -0.838609457015991 0.000000000000000
-6.493867874145508 -15.949336051940918 1.222309947013855 0.000000000000000
-6.493853092193604 -14.581325531005859 1.102174520492554 0.000000000000000
-6.473824024200439 -5.730377674102783 -0.200726971030235 0.000000000000000
-6.466415882110596 -18.038177490234375 1.138445258140564 0.000000000000000
-6.461004734039307 -13.603171348571777 0.113022975623608 0.000000000000000
-6.454226493835449 -14.402971267700195 0.179059967398643 0.000000000000000
-6.449629306793213 -3.696578264236450 -0.458581954240799 0.000000000000000
-6.425889968872070 -4.053024291992188 -0.806553840637207 1.000000000000000
-6.416335582733154 -19.796825408935547 1.886594295501709 0.000000000000000
-6.414083480834961 -13.626921653747559 0.575952470302582 0.000000000000000
-6.387453556060791 -4.234822273254395 -0.060192301869392 0.000000000000000
-6.374912738800049 -19.437414169311523 1.854452848434448 0.000000000000000
-6.364963531494141 -14.337675094604492 0.177970916032791 0.000000000000000
-6.362570762634277 -8.376609802246094 -0.143210321664810 0.000000000000000
-6.335351467132568 -3.721092224121094 -1.195798277854919 1.000000000000000
-6.320384025573730 -4.245841026306152 -0.675521433353424 0.000000000000000
-6.300792217254639 -6.974693298339844 -0.489305108785629 0.000000000000000
-6.255828380584717 -6.369536399841309 -0.052979506552219 0.000000000000000
-6.220683574676514 -14.989933967590332 1.471283555030823 0.000000000000000
-6.197854042053223 -17.749921798706055 0.646685361862183 0.000000000000000
-6.177101135253906 -7.130033969879150 -0.345916599035263 0.000000000000000
-6.176218032836914 -17.713783264160156 0.681327462196350 0.000000000000000
-6.154900074005127 -5.523253440856934 -0.191999703645706 0.000000000000000
-6.153023242950439 -14.974323272705078 2.767269849777222 0.000000000000000
-6.145810127258301 -7.093915462493896 -0.199883744120598 0.000000000000000
-6.136435508728027 -18.278362274169922 1.747916579246521 0.000000000000000
-6.068995475769043 -3.370888233184814 -0.642796099185944 0.000000000000000
-6.058792591094971 -18.258081436157227 1.743943929672241 0.000000000000000
-6.051395416259766 -13.414218902587891 -0.002568426541984 0.000000000000000
-6.048658370971680 -10.635458946228027 -0.143080934882164 0.000000000000000
-6.039095401763916 -3.983411073684692 -0.557936012744904 0.000000000000000
-6.036377429962158 -4.676222324371338 -0.059972390532494 0.000000000000000
-6.035885334014893 -3.774423599243164 -0.549016356468201 0.000000000000000
-6.013561248779297 18.461772918701172 0.369425535202026 0.000000000000000
-6.012528419494629 -12.069290161132812 -0.002353401854634 0.000000000000000
-6.004471302032471 7.801470756530762 -0.835328459739685 0.000000000000000
-5.971695423126221 -14.064337730407715 1.055056571960449 0.000000000000000
-5.969331741333008 -15.532814979553223 0.348565667867661 0.000000000000000
-5.968683719635010 7.189568042755127 -0.720641672611237 0.000000000000000
-5.952217578887939 8.093782424926758 -0.910794556140900 0.000000000000000
-5.899979591369629 -14.217134475708008 2.631130456924438 0.000000000000000
-5.896097183227539 -14.296507835388184 0.323937356472015 0.000000000000000
-5.873457431793213 -7.877552986145020 -0.190387442708015 0.000000000000000
-5.873364925384521 -14.068998336791992 1.623919129371643 0.000000000000000
-5.863330841064453 -14.077439308166504 1.023576736450195 0.000000000000000
-5.851405620574951 -3.795012474060059 -0.686295568943024 0.000000000000000
-5.851361751556396 -13.879815101623535 1.604430437088013 0.000000000000000
-5.834305286407471 -8.124678611755371 -0.174593880772591 0.000000000000000
-5.828740119934082 -3.490364074707031 -0.681712687015533 0.000000000000000
-5.824980258941650 -8.248568534851074 -0.603468179702759 0.000000000000000
-5.824922561645508 -14.703076362609863 0.817751526832581 0.000000000000000
-5.810172557830811 -13.863834381103516 1.095975399017334 0.000000000000000
-5.803624629974365 -18.158903121948242 2.825294256210327 0.000000000000000
-5.797523975372314 -13.923548698425293 0.808909475803375 0.000000000000000
-5.781416416168213 -7.696206569671631 -0.204993665218353 0.000000000000000
-5.702565670013428 -2.957445621490479 -0.719414055347443 0.000000000000000
-5.699786663055420 -2.886540651321411 -0.492730677127838 0.000000000000000
-5.697826385498047 -14.382264137268066 0.561844706535339 0.000000000000000
-5.622761249542236 -2.699046373367310 -0.698490500450134 0.000000000000000
-5.615940093994141 -2.691431999206543 -0.324193209409714 0.000000000000000
-5.608950138092041 -8.121839523315430 -0.589866876602173 0.000000000000000
-5.591867923736572 -7.787068367004395 -0.314678072929382 0.000000000000000
-5.582279205322266 -14.216536521911621 0.290594488382339 0.000000000000000
-5.556878566741943 -9.551895141601562 -1.001801848411560 0.000000000000000
-5.542321681976318 -3.622098445892334 -0.446727305650711 0.000000000000000
-5.538140773773193 -3.940263271331787 -0.511054992675781 1.000000000000000
-5.512603282928467 -15.251683235168457 0.464322686195374 0.000000000000000
-5.496755123138428 -3.592319011688232 -0.139841973781586 0.000000000000000
-5.484511375427246 -2.819624662399292 -1.003673791885376 1.000000000000000
-5.446898460388184 -2.772460699081421 -0.036269124597311 1.000000000000000
-5.379444122314453 4.790889739990234 -0.903633356094360 1.000000000000000
-5.377116203308105 -2.537389516830444 -1.085454463958740 1.000000000000000
-5.372066497802734 -9.101064682006836 -0.917170345783234 0.000000000000000
-5.365612030029297 -17.613880157470703 1.750268697738647 0.000000000000000
-5.355239391326904 -14.195459365844727 0.492703676223755 0.000000000000000
-5.354505062103271 -7.484889984130859 -0.408246845006943 0.000000000000000
-5.338435173034668 -7.448678016662598 -0.265582412481308 1.000000000000000
-5.333919048309326 -17.731647491455078 1.760110139846802 0.000000000000000
-5.332051753997803 5.980150222778320 -1.076152920722961 0.000000000000000
-5.326573371887207 -7.142504215240479 -0.189749032258987 0.000000000000000
-5.325085639953613 9.067685127258301 -0.082591630518436 0.000000000000000
-5.324932098388672 -2.787240743637085 -0.556499898433685 0.000000000000000
-5.289554119110107 -4.890300750732422 -0.056579507887363 0.000000000000000
-5.279995918273926 -2.860961675643921 -0.358883410692215 1.000000000000000
-5.277466297149658 -2.855777740478516 -0.370165765285492 0.000000000000000
-5.276012897491455 -6.133064746856689 -0.172290056943893 0.000000000000000
-5.241572380065918 -2.752937793731689 -0.869201123714447 0.000000000000000
-5.235219478607178 -3.192582845687866 -0.036387808620930 1.000000000000000
-5.201283454895020 4.638898849487305 -0.936109244823456 1.000000000000000
-5.183150291442871 -3.185703754425049 -0.036102969199419 0.000000000000000
-5.145400524139404 -2.690637826919556 -0.661559641361237 0.000000000000000
-5.126134395599365 -15.821710586547852 1.373195528984070 0.000000000000000
-5.119175910949707 -4.724501132965088 -0.161732837557793 0.000000000000000
-5.103918552398682 -16.116920471191406 2.069777727127075 0.000000000000000
-5.095824241638184 -14.364668846130371 0.436390042304993 0.000000000000000
-5.088713169097900 -3.647327184677124 -0.374155044555664 0.000000000000000
-5.076494693756104 -3.081583023071289 -0.549861729145050 0.000000000000000
-5.051033496856689 -2.848318099975586 -0.447209984064102 0.000000000000000
-5.037691593170166 -15.850092887878418 1.373195528984070 0.000000000000000
-4.999223709106445 -4.982847690582275 -0.150317341089249 0.000000000000000
-4.994706630706787 -2.932604312896729 -0.001010894775391 0.000000000000000
-4.987400054931641 -8.342915534973145 -0.001696460065432 1.000000000000000
-4.961409091949463 -2.400147676467896 -0.371868848800659 0.000000000000000
-4.923393249511719 -2.626529693603516 -0.819233715534210 0.000000000000000
-4.842327117919922 9.789961814880371 -1.201948285102844 1.000000000000000
-4.822662353515625 -2.333027124404907 -0.610391736030579 0.000000000000000
-4.811236858367920 -1.567722916603088 -0.400024771690369 0.000000000000000
-4.805380821228027 -0.972950339317322 -0.104413062334061 1.000000000000000
-4.791718959808350 -2.320432186126709 -0.000929213361815 0.000000000000000
-4.776362895965576 -1.537937045097351 -0.319213926792145 0.000000000000000
-4.771701812744141 -11.084561347961426 -0.002106263535097 0.000000000000000
-4.728765487670898 -4.717884063720703 -0.052464060485363 0.000000000000000
-4.713572025299072 -1.478590488433838 -0.562846362590790 0.000000000000000
-4.712887287139893 -1.484340548515320 -0.553361177444458 0.000000000000000
-4.707765102386475 -4.659698486328125 -0.039307378232479 0.000000000000000
-4.706644058227539 -2.660938501358032 -0.479687392711639 0.000000000000000
-4.705429077148438 -4.464347839355469 -0.150591656565666 0.000000000000000
-4.661964893341064 -2.255287647247314 -0.110289491713047 0.000000000000000
-4.631762027740479 -2.781502962112427 -0.115058764815331 1.000000000000000
-4.567975997924805 -0.456106036901474 -0.442841827869415 0.000000000000000
-4.562596321105957 -0.907226800918579 -0.027605362236500 1.000000000000000
-4.556651592254639 -6.432257175445557 -0.289045572280884 0.000000000000000
-4.542321681976318 -2.684824705123901 -0.193478778004646 0.000000000000000
-4.522387504577637 -6.431366443634033 -0.167435631155968 0.000000000000000
-4.474494934082031 -2.385044336318970 -0.548141956329346 0.000000000000000
-4.468410968780518 -0.624177753925323 -0.505281567573547 0.000000000000000
-4.440708160400391 -0.614304244518280 -0.510772883892059 0.000000000000000
-4.430125236511230 -2.049070835113525 -0.169597253203392 0.000000000000000
-4.413297176361084 -4.216554164886475 -0.047940213233232 0.000000000000000
-4.395112514495850 9.846586227416992 -1.257168173789978 0.000000000000000
-4.375983715057373 9.811103820800781 -1.290506362915039 1.000000000000000
-4.366249561309814 -4.120881080627441 -0.047154821455479 0.000000000000000
-4.312332630157471 -2.274211883544922 -0.404246896505356 0.000000000000000
-4.193526744842529 3.951918601989746 -0.845960497856140 1.000000000000000
-4.175078392028809 10.030472755432129 -1.174528479576111 1.000000000000000
-4.160401344299316 -4.143588066101074 -0.046118106693029 0.000000000000000
-4.110541820526123 9.337944030761719 -1.497861266136169 0.000000000000000
-4.091890811920166 -2.270787477493286 -0.514995634555817 0.000000000000000
-4.081850051879883 -8.565083503723145 -0.001655968488194 0.000000000000000
-4.039361000061035 -2.410617828369141 -0.009852026589215 1.000000000000000
-4.038486003875732 -2.412104845046997 -0.000821002875455 0.000000000000000
-4.028419494628906 -9.925271987915039 -0.660781621932983 1.000000000000000
-4.027362346649170 -9.727237701416016 -0.001837482792325 1.000000000000000
-4.008628368377686 -4.500134944915771 -0.128344610333443 0.000000000000000
-3.975688457489014 0.002914547920227 -0.647054791450500 0.000000000000000
-3.970192432403564 -0.368443518877029 -0.077255308628082 0.000000000000000
-3.950470924377441 4.654775619506836 -0.820027410984039 0.000000000000000
-3.933201789855957 0.297672182321548 -0.167390421032906 0.000000000000000
-3.920376539230347 -2.249676704406738 -0.000788888777606 1.000000000000000
-3.918428897857666 -4.247254371643066 -0.123064339160919 0.000000000000000
-3.895441770553589 -9.196713447570801 -0.078444771468639 1.000000000000000
-3.890208721160889 -0.364924520254135 -0.361780256032944 0.000000000000000
-3.869330406188965 -11.048455238342285 -0.361753404140472 0.000000000000000
-3.863690853118896 -0.348836690187454 -0.359198749065399 0.000000000000000
-3.850782871246338 -4.637632369995117 -0.221034839749336 0.000000000000000
-3.848028659820557 -10.952691078186035 -0.403366416692734 0.000000000000000
-3.838763475418091 3.583964824676514 -1.091601133346558 1.000000000000000
-3.809256553649902 -10.788111686706543 -0.661680638790131 1.000000000000000
-3.803755760192871 -2.098227500915527 -0.184349939227104 1.000000000000000
-3.790362596511841 -10.684690475463867 -0.721215248107910 0.000000000000000
-3.740935087203979 -10.764278411865234 -0.067624829709530 1.000000000000000
-3.726050138473511 -2.656982183456421 -0.264672249555588 0.000000000000000
-3.718271732330322 -11.018078804016113 -0.672535419464111 1.000000000000000
-3.698513746261597 9.406557083129883 -1.178421497344971 1.000000000000000
-3.630492210388184 -10.930223464965820 -0.245277017354965 1.000000000000000
-3.593913555145264 -11.262579917907715 -1.323971152305603 0.000000000000000
-3.590387105941772 -12.387240409851074 -0.274659156799316 1.000000000000000
-3.576190948486328 -2.457113742828369 -0.384951770305634 0.000000000000000
-3.529027462005615 1.471811890602112 -0.052056677639484 1.000000000000000
-3.509124755859375 1.477911233901978 -0.051838867366314 1.000000000000000
-3.507687568664551 -11.291033744812012 -1.483153581619263 1.000000000000000
-3.505620002746582 -2.016798496246338 -0.171630308032036 0.000000000000000
-3.486044645309448 -1.164993643760681 -0.057098593562841 0.000000000000000
-3.484280586242676 -1.171100497245789 -0.035928077995777 0.000000000000000
-3.480567216873169 -1.760372877120972 -0.300805598497391 0.000000000000000
-3.448020935058594 -0.751034021377563 -0.224490940570831 0.000000000000000
-3.437335252761841 -0.512609302997589 -0.067336872220039 0.000000000000000
-3.427231311798096 -0.498879402875900 -0.067104406654835 0.000000000000000
-3.413125991821289 -9.294624328613281 -0.668071448802948 1.000000000000000
-3.394621849060059 -9.277247428894043 -0.647491037845612 1.000000000000000
-3.377951860427856 -3.635872364044189 -0.105690546333790 0.000000000000000
-3.369919300079346 -10.932368278503418 -0.023959862068295 1.000000000000000
-3.358283519744873 -1.785480737686157 -0.066388957202435 0.000000000000000
-3.344981193542480 -10.145169258117676 -0.453327864408493 1.000000000000000
-3.333113908767700 -10.197074890136719 -0.001872389344499 1.000000000000000
-3.299960613250732 -0.146041780710220 -0.178316205739975 1.000000000000000
-3.269641160964966 -1.720824718475342 -0.092880837619305 0.000000000000000
-3.252237319946289 7.034615516662598 -0.807722985744476 0.000000000000000
-3.197402477264404 -0.739589452743530 -0.791835188865662 0.000000000000000
-3.184975385665894 -0.281338453292847 -0.129537835717201 0.000000000000000
-3.177415609359741 -10.450891494750977 -0.673834681510925 1.000000000000000
-3.161292314529419 -11.763607978820801 -0.681022405624390 0.000000000000000
-3.154373168945312 -1.073467373847961 -0.282726556062698 0.000000000000000
-3.144050359725952 -1.920567870140076 -0.341128200292587 0.000000000000000
-3.136226177215576 -9.341754913330078 -0.190929874777794 1.000000000000000
-3.132455348968506 5.327200412750244 -1.284523963928223 1.000000000000000
-3.083075046539307 -2.968569040298462 -0.025397881865501 0.000000000000000
-3.058512926101685 5.292380332946777 -1.474839925765991 1.000000000000000
-3.040243864059448 -11.791404724121094 -0.516756474971771 0.000000000000000
-3.016013383865356 -12.094774246215820 -1.081790685653687 0.000000000000000
-3.006237030029297 -12.206098556518555 -1.465615272521973 0.000000000000000
-2.998783111572266 -1.400841474533081 -0.306462168693542 0.000000000000000
-2.973384618759155 -11.800924301147461 -1.150380134582520 1.000000000000000
-2.929170846939087 -11.785063743591309 -1.171437740325928 1.000000000000000
-2.896632671356201 4.659798622131348 -1.140442371368408 1.000000000000000
-2.860449075698853 2.107980251312256 -0.648686587810516 1.000000000000000
-2.799666404724121 -10.685369491577148 -0.362575292587280 1.000000000000000
-2.798870563507080 -1.576825022697449 -0.316119015216827 0.000000000000000
-2.789314508438110 -0.918590843677521 -0.300368458032608 0.000000000000000
-2.777377367019653 -11.990042686462402 -1.478476643562317 1.000000000000000
-2.748730897903442 -10.228409767150879 -0.429094076156616 1.000000000000000
-2.735745429992676 -0.890376806259155 -0.294263422489166 0.000000000000000
-2.718909978866577 -2.636279344558716 -0.080651849508286 0.000000000000000
-2.713342905044556 -11.792216300964355 -1.355133891105652 1.000000000000000
-2.691204786300659 -11.721276283264160 -0.371637374162674 0.000000000000000
-2.577240467071533 -10.420385360717773 -0.187369033694267 0.000000000000000
-2.529947996139526 -2.453059911727905 -0.020911714062095 0.000000000000000
-2.521453142166138 -9.333261489868164 -0.484677672386169 1.000000000000000
-2.491575002670288 -10.486131668090820 -0.748005688190460 1.000000000000000
-2.471441745758057 -1.620286345481873 -0.227911010384560 0.000000000000000
-2.406441450119019 -11.271110534667969 -1.384491443634033 1.000000000000000
-2.397659301757812 -11.245350837707520 -1.340546965599060 1.000000000000000
-2.384287118911743 -1.144355416297913 -0.244874715805054 0.000000000000000
-2.377280712127686 -0.363011449575424 -0.231983065605164 0.000000000000000
-2.370628595352173 -10.029248237609863 -0.615876376628876 0.000000000000000
-2.368495941162109 -0.770393788814545 -0.216150611639023 0.000000000000000
-2.358401060104370 -11.757779121398926 -0.025115966796875 0.000000000000000
-2.355895757675171 -1.120627641677856 -0.241555631160736 0.000000000000000
-2.300928831100464 -9.912734985351562 -0.275361925363541 1.000000000000000
-2.285033464431763 -10.023597717285156 -0.258437931537628 0.000000000000000
-2.241874456405640 -9.963389396667480 -1.104022264480591 1.000000000000000
-2.203550815582275 -9.645962715148926 -1.241189002990723 0.000000000000000
-2.169045686721802 -9.930655479431152 -1.098863363265991 1.000000000000000
-2.160567998886108 -1.427988886833191 -0.229769185185432 0.000000000000000
-2.147397279739380 -9.872859001159668 -1.483335971832275 1.000000000000000
-2.102340459823608 -11.403190612792969 -0.447475910186768 1.000000000000000
-2.090523481369019 -12.866020202636719 -1.383809924125671 1.000000000000000
-2.089856147766113 -11.276955604553223 -1.039721488952637 1.000000000000000
-2.077977895736694 -0.274235337972641 -0.004389849025756 0.000000000000000
-2.073344945907593 -12.976228713989258 -1.369563221931458 1.000000000000000
-2.058521270751953 -11.937440872192383 -1.380173563957214 1.000000000000000
-2.049214363098145 -11.318769454956055 -0.820493400096893 1.000000000000000
-2.045297861099243 -0.277189224958420 -0.004322828259319 0.000000000000000
-2.036303997039795 -10.799570083618164 -1.378600955009460 0.000000000000000
-2.022576332092285 -0.785156071186066 -0.450967222452164 0.000000000000000
-2.020241737365723 -10.877992630004883 -0.001931032282300 1.000000000000000
-2.007633447647095 -10.889494895935059 -0.257082790136337 1.000000000000000
-2.003235578536987 -0.770013749599457 -0.446083098649979 0.000000000000000
-2.001783847808838 -13.002787590026855 -0.027553841471672 1.000000000000000
-1.977417349815369 -12.923984527587891 -1.185260772705078 0.000000000000000
-1.961468219757080 -11.993729591369629 -0.515738904476166 0.000000000000000
-1.946757912635803 -11.453989982604980 -0.985822916030884 0.000000000000000
-1.944114804267883 -11.419137001037598 -0.113218411803246 1.000000000000000
-1.930966734886169 -12.106836318969727 -1.472751617431641 0.000000000000000
-1.924990653991699 -11.386066436767578 -0.090696848928928 1.000000000000000
-1.917997717857361 -0.770991146564484 -0.191400572657585 1.000000000000000
-1.915836930274963 -12.886857986450195 -0.302483111619949 1.000000000000000
-1.906387090682983 -27.276321411132812 1.571791410446167 0.000000000000000
-1.896409034729004 -11.934360504150391 -1.282885074615479 1.000000000000000
-1.872160077095032 -11.759247779846191 -1.388258337974548 1.000000000000000
-1.865067243576050 -11.404269218444824 -0.312689989805222 0.000000000000000
-1.861513733863831 -10.002905845642090 -0.961786985397339 1.000000000000000
-1.852123975753784 -10.720426559448242 -1.112747192382812 1.000000000000000
-1.848608493804932 -19.276109695434570 0.666073620319366 0.000000000000000
-1.830308794975281 -10.684170722961426 -0.835981249809265 1.000000000000000
-1.816132426261902 -11.626786231994629 -1.476183414459229 0.000000000000000
-1.810690641403198 -9.563596725463867 -0.600441932678223 1.000000000000000
-1.793566703796387 -9.512209892272949 -0.559830248355865 0.000000000000000
-1.793542027473450 -11.890122413635254 -0.973816096782684 1.000000000000000
-1.793139576911926 -10.626490592956543 -0.872753620147705 1.000000000000000
-1.788935184478760 -11.563838958740234 -0.789514482021332 1.000000000000000
-1.787022113800049 -2.092038393020630 -0.058593954890966 0.000000000000000
-1.779454827308655 5.430124759674072 -0.396573156118393 0.000000000000000
-1.778038382530212 5.414615154266357 -0.439520657062531 1.000000000000000
-1.767159819602966 -11.608065605163574 -0.996306777000427 0.000000000000000
-1.759154677391052 -11.525727272033691 -0.136345520615578 1.000000000000000
-1.750147342681885 -12.740013122558594 -1.116028904914856 0.000000000000000
-1.746358513832092 -26.306577682495117 1.515549540519714 0.000000000000000
-1.741879105567932 -9.894848823547363 -1.144710898399353 1.000000000000000
-1.739085674285889 -1.528577327728271 -0.053756207227707 0.000000000000000
-1.727242231369019 -12.108967781066895 -1.369824886322021 1.000000000000000
-1.710885763168335 -12.700722694396973 -0.914125800132751 0.000000000000000
-1.684732317924500 2.047235727310181 -0.214717403054237 0.000000000000000
-1.680773138999939 -12.305082321166992 -1.005781531333923 1.000000000000000
-1.671253323554993 -12.646678924560547 -0.836113691329956 1.000000000000000
-1.661888599395752 -12.834422111511230 -0.250750422477722 0.000000000000000
-1.601475000381470 -12.161137580871582 -0.214106127619743 0.000000000000000
-1.599295973777771 -12.378172874450684 -0.986664772033691 1.000000000000000
-1.589429259300232 1.014841437339783 -0.196540415287018 1.000000000000000
-1.582486867904663 -0.235996037721634 -0.006422794889659 0.000000000000000
-1.578431963920593 2.138742685317993 -0.271878242492676 0.000000000000000
-1.577887058258057 -10.120092391967773 -1.230394124984741 1.000000000000000
-1.574509382247925 -10.752141952514648 -0.335807979106903 1.000000000000000
-1.554627895355225 -10.376240730285645 -0.647235929965973 1.000000000000000
-1.508880496025085 -9.578622817993164 -0.467464119195938 1.000000000000000
-1.464386105537415 -10.893836021423340 -0.424184381961823 1.000000000000000
-1.461094856262207 -10.414696693420410 -0.567722558975220 1.000000000000000
-1.457084894180298 -10.375583648681641 -1.031010270118713 1.000000000000000
-1.413250327110291 -10.914240837097168 -0.382392466068268 1.000000000000000
-1.398176908493042 -0.453782767057419 -0.133260577917099 0.000000000000000
-1.394486308097839 -28.370290756225586 2.016131877899170 0.000000000000000
-1.369653940200806 -13.317524909973145 -0.336542248725891 0.000000000000000
-1.365625500679016 -10.385569572448730 -1.132396697998047 1.000000000000000
-1.359980940818787 -13.416718482971191 -0.261288762092590 0.000000000000000
-1.328767895698547 -13.200631141662598 -0.665129959583282 0.000000000000000
-1.319644927978516 -10.302867889404297 -0.141413390636444 1.000000000000000
-1.308050990104675 -18.301996231079102 0.349109053611755 0.000000000000000
-1.271789908409119 -27.856828689575195 1.979315280914307 0.000000000000000
-1.270344853401184 -11.187864303588867 -1.412456154823303 1.000000000000000
-1.263867735862732 -12.738818168640137 -0.691056132316589 1.000000000000000
-1.261379599571228 -10.491025924682617 -0.733328104019165 1.000000000000000
-1.249872446060181 -11.738010406494141 -0.864787101745605 1.000000000000000
-1.226103901863098 -11.184648513793945 -0.088372103869915 1.000000000000000
-1.220743179321289 -11.857407569885254 -0.689395010471344 0.000000000000000
-1.200819492340088 -9.083160400390625 -0.424065053462982 1.000000000000000
-1.196378350257874 -10.686166763305664 -0.704784214496613 1.000000000000000
-1.192365050315857 -10.399092674255371 -0.969172775745392 1.000000000000000
-1.187142968177795 -17.467590332031250 0.064170032739639 0.000000000000000
-1.136097550392151 -10.522952079772949 -1.164756536483765 0.000000000000000
-1.107870697975159 -19.284282684326172 0.961611330509186 0.000000000000000
-1.097949504852295 -12.163209915161133 -0.612256050109863 1.000000000000000
-1.077777147293091 -12.995384216308594 -0.002275909529999 0.000000000000000
-1.070870280265808 -12.089407920837402 -1.457962155342102 1.000000000000000
-1.063702583312988 3.585021972656250 -0.252310723066330 0.000000000000000
-1.061864495277405 -12.205871582031250 -0.025660509243608 0.000000000000000
-1.059603929519653 -10.775694847106934 -0.085042037069798 0.000000000000000
-1.039519548416138 -0.492355883121490 -0.115415900945663 1.000000000000000
-1.029751420021057 3.458198547363281 -0.236497744917870 0.000000000000000
-0.997884631156921 2.856219053268433 -0.122575178742409 0.000000000000000
-0.988738000392914 2.885237455368042 -0.111836589872837 1.000000000000000
-0.972018420696259 3.274759531021118 -0.013712666928768 0.000000000000000
-0.960462331771851 -10.015088081359863 -0.737070977687836 1.000000000000000
-0.939318537712097 -24.653118133544922 1.846362113952637 0.000000000000000
-0.936505615711212 -24.579290390014648 2.338107824325562 0.000000000000000
-0.929167032241821 -11.699160575866699 -0.002048318507150 1.000000000000000
-0.899205684661865 -12.486504554748535 -0.170436620712280 1.000000000000000
-0.894662141799927 -10.100135803222656 -0.410796880722046 0.000000000000000
-0.860553324222565 -17.249727249145508 0.926304161548615 0.000000000000000
-0.822801709175110 -12.188431739807129 -1.467503786087036 1.000000000000000
-0.819331288337708 -21.097492218017578 3.129051446914673 0.000000000000000
-0.802537679672241 -17.300157546997070 1.195859432220459 0.000000000000000
-0.792679011821747 -23.115764617919922 0.928970754146576 0.000000000000000
-0.790431439876556 -20.726388931274414 3.073929309844971 0.000000000000000
-0.771599054336548 -11.200115203857422 -0.865815699100494 1.000000000000000
-0.738449752330780 -11.200663566589355 -0.887367784976959 1.000000000000000
-0.732590675354004 -11.805292129516602 -0.002064375672489 0.000000000000000
-0.719916164875031 -8.433775901794434 -0.245304524898529 0.000000000000000
-0.719271004199982 3.504322290420532 -0.275892257690430 0.000000000000000
-0.710167229175568 3.189128160476685 -0.176375642418861 0.000000000000000
-0.691562473773956 -10.998201370239258 -0.892449498176575 1.000000000000000
-0.660866796970367 -23.166835784912109 1.287638902664185 0.000000000000000
-0.656108140945435 -15.499091148376465 1.101098537445068 0.000000000000000
-0.647477567195892 -26.156797409057617 1.504071593284607 0.000000000000000
-0.637583494186401 -28.490617752075195 0.596942782402039 0.000000000000000
-0.629927694797516 -28.148513793945312 0.157251968979836 0.000000000000000
-0.618977487087250 3.108406305313110 -1.127463459968567 0.000000000000000
-0.609936594963074 -16.649818420410156 0.316998332738876 0.000000000000000
-0.576216697692871 -15.729344367980957 0.057689987123013 0.000000000000000
-0.550416350364685 -25.064737319946289 1.634436964988708 0.000000000000000
-0.505832195281982 -18.018981933593750 1.634157538414001 0.000000000000000
-0.492880344390869 -16.328155517578125 1.740004301071167 0.000000000000000
-0.489970445632935 -8.213253974914551 -0.048825647681952 0.000000000000000
-0.476407229900360 -10.031510353088379 -0.910433411598206 0.000000000000000
-0.453958094120026 -8.059082984924316 -0.047899931669235 0.000000000000000
-0.446584343910217 -18.511146545410156 1.760110139846802 0.000000000000000
-0.445189028978348 1.486342072486877 -0.036023154854774 0.000000000000000
-0.442481011152267 -17.504724502563477 0.871715128421783 0.000000000000000
-0.437729686498642 1.480217695236206 -0.035837467759848 0.000000000000000
-0.437590777873993 -17.028999328613281 -0.428216874599457 0.000000000000000
-0.435452073812485 -17.591390609741211 3.007872581481934 0.000000000000000
-0.424429148435593 -19.358345031738281 1.636166572570801 0.000000000000000
-0.424225151538849 -15.893177032470703 1.251265764236450 0.000000000000000
-0.415515720844269 -16.786001205444336 1.522204160690308 0.000000000000000
-0.407504528760910 -21.900199890136719 0.837637901306152 0.000000000000000
-0.399166107177734 -15.704442977905273 2.090515851974487 0.000000000000000
-0.396350532770157 -18.077671051025391 0.969791650772095 0.000000000000000
-0.391718775033951 -17.504076004028320 0.635886251926422 0.000000000000000
-0.385655045509338 -22.499261856079102 2.139007091522217 0.000000000000000
-0.374265372753143 -18.467588424682617 0.564351797103882 0.000000000000000
-0.370898246765137 -16.573703765869141 0.857203543186188 0.000000000000000
-0.358274102210999 -16.990533828735352 1.540622353553772 0.000000000000000
-0.346279352903366 -22.908452987670898 1.228788256645203 0.000000000000000
-0.338428527116776 -22.389076232910156 0.856286048889160 0.000000000000000
-0.337886184453964 -18.158756256103516 0.974076151847839 0.000000000000000
-0.334023863077164 -18.506818771362305 2.743197679519653 0.000000000000000
-0.333610415458679 -15.639640808105469 1.915200591087341 0.000000000000000
-0.321863740682602 -21.491964340209961 1.401280522346497 0.000000000000000
-0.315267741680145 -18.170770645141602 2.693353414535522 0.000000000000000
-0.311910569667816 -8.429935455322266 -0.374211460351944 0.000000000000000
-0.304125785827637 -22.511793136596680 0.904249608516693 0.000000000000000
-0.303157955408096 -18.073024749755859 0.552258551120758 0.000000000000000
-0.295593053102493 -15.650889396667480 0.568522989749908 0.000000000000000
-0.286870330572128 -18.978191375732422 1.603833913803101 0.000000000000000
-0.283765971660614 -20.120780944824219 1.156748533248901 0.000000000000000
-0.282836467027664 -24.331386566162109 1.305052042007446 0.000000000000000
-0.277247965335846 -15.361111640930176 0.617066442966461 0.000000000000000
-0.260563433170319 -18.475574493408203 0.493529558181763 0.000000000000000
-0.258563727140427 1.227926731109619 -0.113759040832520 0.000000000000000
-0.256660461425781 -18.566526412963867 1.765030980110168 0.000000000000000
-0.250980526208878 -7.959798336029053 -0.062548466026783 0.000000000000000
-0.246721908450127 -16.026037216186523 1.075813770294189 0.000000000000000
-0.236603751778603 -19.337648391723633 1.484667062759399 0.000000000000000
-0.222125604748726 -20.592803955078125 1.183836460113525 0.000000000000000
-0.218518242239952 -15.011257171630859 0.834091722965240 0.000000000000000
-0.167748808860779 -22.145212173461914 1.230390667915344 0.000000000000000
-0.154482588171959 -16.731546401977539 1.316857576370239 0.000000000000000
-0.148118734359741 -23.508563995361328 0.718265891075134 0.000000000000000
-0.145186826586723 -17.850599288940430 -0.414451986551285 0.000000000000000
-0.133293807506561 -22.330450057983398 0.639359474182129 0.000000000000000
-0.124920882284641 -15.358918190002441 1.060567498207092 0.000000000000000
-0.119930706918240 2.851921796798706 -0.464568644762039 0.000000000000000
-0.113364651799202 -19.742622375488281 1.553804039955139 0.000000000000000
-0.111126229166985 -22.578775405883789 0.472963631153107 0.000000000000000
-0.111083142459393 2.868084192276001 -0.467138856649399 0.000000000000000
-0.101652249693871 -26.716892242431641 1.947916150093079 0.000000000000000
-0.099120967090130 -17.262063980102539 1.838718771934509 0.000000000000000
-0.098808117210865 -18.997592926025391 2.157814025878906 0.000000000000000
-0.095831781625748 -20.642381668090820 0.472050905227661 0.000000000000000
-0.079842939972878 -15.351204872131348 1.000803112983704 0.000000000000000
-0.076783232390881 -20.180660247802734 0.539026975631714 0.000000000000000
-0.075284816324711 -16.216518402099609 0.869749069213867 0.000000000000000
-0.064307168126106 -22.885232925415039 0.699209868907928 0.000000000000000
-0.055718459188938 -22.482717514038086 0.643709659576416 0.000000000000000
-0.046302344650030 -20.565105438232422 0.667843937873840 0.000000000000000
-0.044585820287466 -19.802713394165039 1.558511614799500 0.000000000000000
-0.039137318730354 -27.347545623779297 0.152739256620407 0.000000000000000
-0.038248173892498 -16.987859725952148 1.809485793113708 0.000000000000000
-0.038136124610901 -16.938093185424805 1.071593165397644 0.000000000000000
-0.037293691188097 -7.943337917327881 -0.720112740993500 1.000000000000000
-0.032207354903221 -18.830852508544922 1.518404722213745 0.000000000000000
-0.018032396212220 -15.654712677001953 1.080957651138306 0.000000000000000
-0.011184576898813 -8.112015724182129 -0.359852820634842 0.000000000000000
-0.006851327139884 -21.804697036743164 0.917699992656708 0.000000000000000
-0.006316572893411 -20.102813720703125 1.155600786209106 0.000000000000000
-0.005944054108113 -18.917253494262695 0.505277752876282 0.000000000000000
0.002145435661077 -15.359265327453613 3.194731950759888 0.000000000000000
0.010931555181742 -16.059062957763672 0.737663984298706 0.000000000000000
0.021439967676997 -20.137718200683594 1.584873914718628 0.000000000000000
0.022767603397369 -21.384714126586914 0.694459080696106 0.000000000000000
0.023135608062148 2.216621875762939 -0.179523140192032 0.000000000000000
0.024082552641630 -8.311819076538086 -0.049324110150337 0.000000000000000
0.031206680461764 2.240447282791138 -0.181460425257683 0.000000000000000
0.045906856656075 2.593695878982544 -0.175028786063194 0.000000000000000
0.050987452268600 -17.597738265991211 0.706801176071167 0.000000000000000
0.053033083677292 -9.770248413085938 -0.433418780565262 0.000000000000000
0.054198730736971 2.557609319686890 -0.172605305910110 0.000000000000000
0.061184871941805 -21.117261886596680 3.129637956619263 0.000000000000000
0.070206582546234 -15.412181854248047 1.212977766990662 0.000000000000000
0.074574999511242 -20.741319656372070 3.073929309844971 0.000000000000000
0.075172476470470 -18.020841598510742 0.827784180641174 0.000000000000000
0.078866250813007 -17.313205718994141 1.095333456993103 0.000000000000000
0.088645763695240 -16.436868667602539 1.008216261863708 0.000000000000000
0.092763923108578 -21.431055068969727 0.943204164505005 0.000000000000000
0.102009460330009 4.430468082427979 -0.196589544415474 0.000000000000000
0.117330953478813 -18.367300033569336 1.020480990409851 0.000000000000000
0.117840580642223 -21.231309890747070 1.097840189933777 0.000000000000000
0.126531183719635 -17.017808914184570 0.683524727821350 0.000000000000000
0.129390001296997 -19.106544494628906 1.577594876289368 0.000000000000000
0.129842117428780 -7.990038871765137 -0.848359525203705 0.000000000000000
0.136443942785263 -7.754783153533936 -0.016244115307927 0.000000000000000
0.141564816236496 -15.478495597839355 1.068833827972412 0.000000000000000
0.143529638648033 -20.661718368530273 1.546346902847290 0.000000000000000
0.151974186301231 -19.834503173828125 0.911113262176514 0.000000000000000
0.156321287155151 -7.101606845855713 -0.424503713846207 0.000000000000000
0.159451410174370 -18.568336486816406 0.638710141181946 0.000000000000000
0.163764894008636 -15.956859588623047 1.317569851875305 0.000000000000000
0.169736102223396 -6.655043601989746 -0.500557959079742 1.000000000000000
0.178789913654327 -16.030498504638672 1.608634233474731 0.000000000000000
0.179177179932594 -18.137481689453125 1.287446975708008 0.000000000000000
0.182557657361031 -17.202919006347656 1.287527918815613 0.000000000000000
0.201342061161995 -19.957960128784180 2.443582057952881 0.000000000000000
0.208100393414497 -15.564594268798828 2.306913137435913 0.000000000000000
0.210114657878876 -16.627079010009766 1.148190379142761 0.000000000000000
0.210325449705124 -15.731014251708984 1.116674780845642 0.000000000000000
0.216082245111465 -18.729307174682617 1.184990763664246 0.000000000000000
0.221896797418594 -16.467638015747070 2.815120697021484 0.000000000000000
0.224076762795448 -10.841895103454590 -0.585403263568878 1.000000000000000
0.230396002531052 -19.075326919555664 0.656173229217529 0.000000000000000
0.230550080537796 -15.743246078491211 1.579879999160767 0.000000000000000
0.234293088316917 -20.307764053344727 2.163248538970947 0.000000000000000
0.240574195981026 -9.042363166809082 -0.210011288523674 0.000000000000000
0.244131714105606 -20.212556838989258 2.295950412750244 0.000000000000000
0.244266808032990 -15.244205474853516 1.866591453552246 0.000000000000000
0.245511084794998 -16.764865875244141 1.287180900573730 0.000000000000000
0.246278032660484 -4.892012119293213 -0.132541596889496 0.000000000000000
0.263363540172577 -2.602703809738159 -0.005478933453560 1.000000000000000
0.267201304435730 -2.626443147659302 -0.000460766925244 1.000000000000000
0.269910752773285 -17.335647583007812 0.596358656883240 0.000000000000000
0.271102368831635 -4.323499202728271 -0.009072912856936 1.000000000000000
0.274934977293015 -16.105382919311523 1.972073316574097 0.000000000000000
0.284686535596848 -4.062036037445068 -0.000710698077455 0.000000000000000
0.289074510335922 -7.321612358093262 -0.550943732261658 1.000000000000000
0.290639251470566 -19.339149475097656 1.223631739616394 0.000000000000000
0.291209638118744 -6.864997386932373 -0.106741443276405 0.000000000000000
0.294021368026733 -6.841050148010254 -0.093222841620445 0.000000000000000
0.295700550079346 -17.428672790527344 2.979566335678101 0.000000000000000
0.315885215997696 -7.793614864349365 -0.707111716270447 1.000000000000000
0.321802586317062 -17.375860214233398 0.564369678497314 0.000000000000000
0.323288559913635 -20.763961791992188 2.358698606491089 0.000000000000000
0.323802292346954 -19.203651428222656 1.067078232765198 0.000000000000000
0.342686265707016 -17.978101730346680 0.618496894836426 0.000000000000000
0.344215273857117 -16.044820785522461 0.490326434373856 0.000000000000000
0.356279611587524 -15.415168762207031 1.064700603485107 0.000000000000000
0.359061807394028 -25.522682189941406 3.782891750335693 0.000000000000000
0.364948749542236 -6.488961696624756 -0.100963242352009 0.000000000000000
0.372183948755264 -21.936626434326172 1.261198043823242 0.000000000000000
0.376455307006836 -21.438501358032227 3.177722930908203 0.000000000000000
0.380739659070969 -22.440902709960938 0.944611966609955 0.000000000000000
0.382393896579742 -4.094108104705811 -0.024400955066085 0.000000000000000
0.389150291681290 -6.644158840179443 -0.077831536531448 0.000000000000000
0.390395015478134 -9.083394050598145 -0.543336153030396 0.000000000000000
0.391558676958084 -15.352303504943848 0.971581220626831 0.000000000000000
0.393783599138260 -15.785412788391113 0.968543887138367 0.000000000000000
0.399563610553741 -16.372415542602539 0.468901783227921 0.000000000000000
0.406296521425247 -23.091838836669922 1.728445768356323 0.000000000000000
0.414446562528610 -3.644334554672241 -0.035849891602993 0.000000000000000
0.414991468191147 -23.586015701293945 2.242342472076416 0.000000000000000
